ply
format ascii 1.0
element vertex 1083
property float x
property float y
property float z
property uchar red
property uchar green
property uchar blue
end_header
0.54997167 0.01006832 0.71096140 132 140 145
0.54967006 0.02418636 0.71798987 120 127 133
0.55026976 0.03427661 0.72282348 130 137 142
0.54997970 0.05008891 0.73018696 153 158 159
0.55002597 0.06591382 0.73737313 140 145 146
0.54998397 0.07594109 0.74190279 123 132 139
0.54995509 0.09016007 0.74825619 119 130 139
0.55005870 0.10875969 0.75645769 115 125 134
0.54989456 0.11859139 0.76068725 110 124 131
0.54992026 0.12995498 0.76556793 148 155 159
0.54998342 0.15015016 0.77404801 154 160 163
0.54999298 0.16254281 0.77914209 157 165 170
0.55001912 0.17214817 0.78304362 167 174 176
0.54999082 0.19015208 0.79025197 159 163 167
0.55004601 0.20762976 0.79711099 147 150 156
0.54998032 0.21764340 0.80102616 163 165 164
0.54994110 0.23004798 0.80569789 140 144 146
0.54996584 0.24980636 0.81329317 146 154 159
0.54946641 0.26375305 0.81863993 169 176 177
0.55031149 0.27328225 0.82198778 151 155 157
0.55007463 0.28998815 0.82783525 151 156 158
0.54995047 0.31048078 0.83477365 143 147 148
0.54984086 0.32366709 0.83909405 146 151 153
0.54997780 0.33371184 0.84237470 142 147 149
0.55003393 0.35045564 0.84761069 123 128 131
0.54993761 0.37056371 0.85342607 123 130 135
0.54967501 0.38606666 0.85794490 39 41 43
0.55031799 0.39565822 0.86109552 0 0 0
0.54992403 0.40980332 0.86461603 0 0 0
0.55000029 0.43000248 0.86925559 0 0 0
0.55003854 0.45031752 0.87369108 0 0 0
0.54979832 0.47016599 0.87775559 0 0 0
0.55011789 0.48068593 0.87985615 0 0 0
0.55030557 0.49062740 0.88187071 0 0 0
0.54973368 0.50153428 0.88412866 0 0 0
0.56984405 -0.44841068 0.67595798 98 120 126
0.56984728 -0.43030381 0.67596177 101 121 126
0.56992987 -0.40991658 0.67605949 101 122 126
0.57007595 -0.38956758 0.67623287 101 122 125
0.57018143 -0.36976623 0.67635802 103 120 127
0.57026126 -0.34994181 0.67645266 103 118 127
0.57036215 -0.33012367 0.67657224 97 117 123
0.57047048 -0.31029011 0.67674376 95 113 123
0.56953324 -0.28995231 0.67697689 93 112 124
0.56977341 -0.26958919 0.67726247 93 110 122
0.57003323 -0.24980309 0.67757145 89 110 119
0.57030264 -0.23000230 0.67789144 90 108 119
0.56984719 -0.21017197 0.67829540 89 106 119
0.56983826 -0.19040129 0.67873391 85 103 115
0.57025166 -0.16999432 0.67922625 85 99 112
0.56941460 -0.15010394 0.67974990 82 96 113
0.57526059 -0.14096811 0.68003487 83 96 114
0.56148707 -0.13904048 0.67998640 82 95 111
0.57017514 -0.12962241 0.68043315 82 96 110
0.57009722 -0.10987531 0.68168788 67 73 80
0.56986208 -0.08993940 0.68261219 56 61 64
0.57013121 -0.07003583 0.68330311 58 61 68
0.56990727 -0.04997788 0.68420553 61 64 69
0.57001915 -0.03017136 0.69011022 125 130 132
0.56992521 -0.01604985 0.69781739 125 131 137
0.56996053 -0.00585735 0.70318980 142 147 150
0.57000120 0.01006545 0.71127323 140 146 150
0.56999061 0.02383104 0.71809306 117 130 135
0.56996631 0.03397777 0.72293729 134 142 146
0.56998263 0.05009943 0.73042527 148 153 155
0.56974804 0.06564422 0.73746437 132 138 144
0.57038686 0.07557472 0.74193779 140 149 152
0.57000145 0.09014519 0.74841037 120 130 138
0.56997090 0.10884458 0.75659774 121 133 141
0.57002214 0.11863082 0.76080408 130 142 150
0.56993264 0.12993030 0.76564359 150 157 162
0.56991556 0.15008113 0.77409046 159 166 170
0.57003834 0.16256268 0.77923731 162 167 169
0.56997648 0.17219701 0.78314015 156 163 164
0.56982476 0.18983036 0.79019240 155 160 163
0.57031998 0.20724101 0.79711938 165 173 174
0.56930248 0.21729372 0.80104039 169 178 177
0.57015204 0.22967868 0.80577762 154 157 159
0.57002013 0.24986571 0.81358500 166 173 174
0.56986691 0.26346778 0.81865563 159 164 165
0.57003989 0.27312550 0.82210333 151 154 157
0.56993919 0.29011440 0.82787997 140 145 148
0.57000650 0.31050479 0.83490705 138 144 146
0.56947040 0.32315209 0.83911009 141 143 144
0.57013105 0.33310470 0.84237281 141 147 146
0.57009395 0.35051310 0.84791344 144 148 147
0.57000905 0.37072619 0.85384197 147 156 159
0.56991558 0.38586446 0.85796104 84 89 93
0.57000323 0.39554395 0.86140016 0 0 0
0.56998437 0.40999726 0.86509466 0 0 0
0.57000833 0.43032105 0.86980305 0 0 0
0.56986419 0.45041335 0.87419377 0 0 0
0.56988031 0.46961037 0.87810924 0 0 0
0.57614830 0.47872759 0.88012707 0 0 0
0.56085108 0.48017623 0.87999403 0 0 0
0.57013763 0.48976337 0.88211935 0 0 0
0.56988749 0.50178770 0.88457539 0 0 0
0.58970580 -0.44841068 0.67595798 101 122 126
0.58972876 -0.43031793 0.67598423 103 123 128
0.58984257 -0.40995007 0.67611468 103 123 128
0.58999955 -0.38960305 0.67629451 103 124 128
0.59010903 -0.36980012 0.67641998 102 122 128
0.59020795 -0.34998346 0.67653337 101 120 126
0.59032759 -0.33017161 0.67667053 97 117 125
0.59048210 -0.31036998 0.67684759 95 114 122
0.58958133 -0.29005651 0.67707812 95 112 122
0.58975055 -0.26962447 0.67735104 91 111 121
0.59003122 -0.24984048 0.67767324 90 108 120
0.59033551 -0.23009188 0.67805997 92 107 117
0.58968268 -0.21015555 0.67846843 87 106 116
0.58992314 -0.19044687 0.67889663 84 104 114
0.59031784 -0.17006722 0.67938643 84 99 113
0.58915840 -0.15261549 0.67982456 83 99 110
0.59083330 -0.14290846 0.68007829 83 96 111
0.59014447 -0.12977469 0.68054294 80 96 110
0.59009879 -0.10994880 0.68181148 65 72 78
0.58975391 -0.08997246 0.68270041 57 60 65
0.59020232 -0.07010474 0.68337201 58 61 65
0.58986255 -0.04999635 0.68423339 62 66 70
0.58996362 -0.03017822 0.69038089 126 130 133
0.58965499 -0.01653187 0.69790151 123 130 135
0.59011306 -0.00633093 0.70330005 133 140 145
0.59000307 0.01009352 0.71159289 141 148 152
0.59006450 0.02383972 0.71835515 116 125 131
0.58991199 0.03403796 0.72320922 128 135 141
0.58993201 0.05015268 0.73065446 142 149 153
0.59001323 0.06522492 0.73747835 134 140 145
0.58996852 0.07525807 0.74198020 138 145 147
0.59005930 0.09018347 0.74859283 126 134 141
0.58980569 0.10827794 0.75648438 124 135 143
0.59055473 0.11802748 0.76068193 117 131 138
0.58997028 0.12999121 0.76578169 147 154 157
0.58998299 0.15016044 0.77423416 160 165 167
0.58985981 0.16261466 0.77933986 141 143 144
0.58986213 0.17219799 0.78320811 158 164 166
0.58993678 0.18934731 0.79011181 166 171 174
0.59003194 0.20695421 0.79715450 159 166 168
0.58993565 0.21699954 0.80108833 160 164 166
0.59003195 0.22945312 0.80585701 156 163 165
0.59000316 0.24993088 0.81357414 139 143 147
0.58983764 0.26347463 0.81863838 150 156 157
0.58997011 0.27309959 0.82213911 148 152 152
0.58997076 0.29004063 0.82798668 145 149 150
0.59006725 0.31064328 0.83514852 158 163 164
0.58916620 0.32277356 0.83933159 141 144 145
0.59033653 0.33268292 0.84254996 140 148 147
0.58988876 0.35037042 0.84818249 145 152 154
0.59012316 0.36978807 0.85396977 160 167 167
0.59017412 0.38535375 0.85806000 144 149 152
0.58992410 0.39575006 0.86179919 0 1 1
0.59008323 0.41029422 0.86570160 0 0 0
0.58992828 0.43038513 0.87035719 0 0 0
0.59008128 0.44993444 0.87466076 0 0 0
0.58953745 0.46786256 0.87827263 0 0 0
0.59175858 0.47792386 0.88037060 0 0 0
0.59000963 0.49002742 0.88265787 0 0 0
0.59011227 0.50208438 0.88509837 0 0 0
0.60957704 -0.44841766 0.67596841 103 126 129
0.60963957 -0.43035170 0.67603759 104 126 130
0.60978457 -0.41000076 0.67619825 104 125 131
0.60993864 -0.38964613 0.67636927 105 124 129
0.61005277 -0.36984156 0.67649580 102 123 128
0.61015995 -0.35002548 0.67661464 100 120 127
0.61028579 -0.33021240 0.67675416 97 117 124
0.61046080 -0.31041606 0.67694821 94 114 124
0.60970628 -0.29008938 0.67719036 94 113 121
0.60975555 -0.26966966 0.67746459 92 110 120
0.61007064 -0.24989248 0.67781457 91 108 117
0.61025978 -0.23021387 0.67824867 89 106 115
0.60964660 -0.21031768 0.67864667 88 105 115
0.61015322 -0.19031796 0.67907735 85 101 113
0.61013217 -0.16999862 0.67953511 84 99 112
0.60837902 -0.15521145 0.67989542 82 99 108
0.61068764 -0.14560725 0.68014074 81 98 110
0.61010928 -0.12983822 0.68065923 81 94 110
0.61002634 -0.11005731 0.68191927 64 70 77
0.60982905 -0.09004605 0.68279100 56 60 66
0.61013475 -0.07012462 0.68343980 58 61 66
0.60987320 -0.05005742 0.68427994 63 68 71
0.61004347 -0.03022974 0.69060219 130 135 137
0.60993138 -0.01666847 0.69809523 125 135 138
0.61000049 -0.00645661 0.70352402 135 145 148
0.60996752 0.01010964 0.71188723 147 155 157
0.61001496 0.02323237 0.71831532 121 133 137
0.60995349 0.03335786 0.72312559 127 134 139
0.60991022 0.05016329 0.73088384 143 151 153
0.60996896 0.06533177 0.73775546 141 149 151
0.61000533 0.07532744 0.74219800 141 149 152
0.60999729 0.09019804 0.74876259 118 129 135
0.60998478 0.10809463 0.75655083 115 127 132
0.60999826 0.11791592 0.76075220 113 126 133
0.61001719 0.12997860 0.76589106 149 158 162
0.61000514 0.15015170 0.77433880 165 174 174
0.60970409 0.16187112 0.77915212 158 166 166
0.60992286 0.17144326 0.78303349 160 164 166
0.60995882 0.18946945 0.79023059 152 157 159
0.60985210 0.20682898 0.79713747 150 156 158
0.61021357 0.21681033 0.80107610 153 162 163
0.60992776 0.22936349 0.80591266 150 155 157
0.61002891 0.24988990 0.81363997 144 150 153
0.60992017 0.26350224 0.81876255 154 165 166
0.60998145 0.27321368 0.82242434 166 175 174
0.60993822 0.28952730 0.82811458 152 158 161
0.61007021 0.30995778 0.83518709 160 166 167
0.61004914 0.32240110 0.83940344 154 163 167
0.60989694 0.33223946 0.84270079 155 165 165
0.61018706 0.34980707 0.84830015 143 148 150
0.61000707 0.36944913 0.85423593 156 160 158
0.60977961 0.38520379 0.85841960 153 159 159
0.61012575 0.39565366 0.86191434 42 44 44
0.60992266 0.41037625 0.86632908 0 0 0
0.61015450 0.42984350 0.87083477 0 0 0
0.60996173 0.44956562 0.87516712 0 0 0
0.60940709 0.46675770 0.87861552 0 0 0
0.61096922 0.47682935 0.88069088 0 0 0
0.61000410 0.49038398 0.88326460 0 0 0
0.61039774 0.50241173 0.88567544 0 0 0
0.62949447 -0.44845699 0.67602770 104 127 130
0.62959135 -0.43041168 0.67613185 104 126 129
0.62974513 -0.41006078 0.67629703 103 125 129
0.62987591 -0.38968533 0.67643741 102 123 129
0.63001750 -0.36989268 0.67658939 101 121 127
0.63013708 -0.35007885 0.67671780 98 120 126
0.63025952 -0.33025879 0.67684925 97 117 122
0.63044582 -0.31046246 0.67704933 95 115 123
0.62975861 -0.29008609 0.67728917 95 112 120
0.62976540 -0.26971409 0.67757628 90 110 118
0.63011628 -0.24994368 0.67795375 90 109 116
0.63011472 -0.23019385 0.67839613 87 106 117
0.62973009 -0.21036533 0.67880048 85 103 117
0.63011517 -0.18994943 0.67921562 84 101 113
0.63005993 -0.16954449 0.67967608 84 99 111
0.62715957 -0.15786506 0.67995108 83 97 112
0.63028458 -0.14826329 0.68021426 81 97 109
0.63006898 -0.12982082 0.68080566 80 95 107
0.62994326 -0.11001325 0.68205629 63 69 74
0.63000246 -0.09006192 0.68291120 56 60 64
0.62998575 -0.07005977 0.68353369 58 62 67
0.62994704 -0.05005625 0.68432064 64 69 72
0.63017301 -0.03021722 0.69089976 132 137 139
0.62960693 -0.01689944 0.69824097 129 136 137
0.63020466 -0.00678901 0.70361333 136 145 148
0.63000384 0.01007270 0.71213207 149 156 158
0.62997016 0.02322431 0.71855282 122 133 139
0.62997283 0.03336783 0.72334637 132 141 145
0.62997903 0.05015115 0.73109572 139 145 150
0.62967998 0.06476236 0.73771490 142 147 151
0.63020118 0.07476585 0.74215542 136 143 147
0.62995729 0.09024503 0.74896277 118 130 136
0.63000173 0.10815604 0.75676195 114 125 132
0.63009594 0.11797530 0.76095095 109 118 127
0.63003709 0.13002590 0.76604154 146 152 157
0.62994339 0.15019313 0.77447069 157 161 163
0.62997851 0.16189010 0.77924349 146 152 158
0.63000129 0.17154870 0.78317304 154 160 162
0.62997984 0.18943082 0.79034206 148 153 155
0.63006741 0.20625140 0.79706559 159 167 168
0.62978066 0.21627815 0.80105274 164 171 172
0.62989724 0.22947577 0.80612144 146 155 159
0.63005356 0.24993346 0.81385600 158 165 167
0.62988700 0.26356691 0.81896360 165 173 173
0.63000098 0.27326538 0.82257986 165 171 171
0.62996738 0.28949683 0.82837368 154 161 163
0.62993991 0.30999866 0.83538503 142 146 148
0.63014931 0.32244464 0.83958672 157 163 161
0.62997006 0.33168233 0.84270315 153 159 159
0.63005207 0.34932986 0.84842221 141 148 150
0.63006958 0.36961889 0.85466004 133 136 138
0.62949227 0.38453108 0.85873810 109 113 119
0.63029401 0.39478916 0.86177795 87 92 95
0.63000905 0.41010545 0.86689616 0 0 0
0.63005520 0.42955829 0.87140228 0 0 0
0.62999220 0.44986206 0.87583997 0 0 0
0.62930265 0.46536101 0.87894056 0 0 0
0.63053629 0.47546351 0.88100843 0 0 0
0.62986269 0.49004437 0.88379480 0 0 0
0.63058491 0.50195354 0.88614015 0 0 0
0.64969991 -0.44855737 0.67611412 107 127 131
0.64952149 -0.43045362 0.67619760 103 125 130
0.64966585 -0.41009161 0.67634801 101 124 129
0.64981924 -0.38972584 0.67650772 100 122 128
0.64997399 -0.36993605 0.67666879 100 121 127
0.65010090 -0.35012180 0.67680084 97 119 123
0.65024144 -0.33030650 0.67694716 96 116 123
0.65052690 -0.31002642 0.67715984 97 113 123
0.64959376 -0.28962891 0.67739117 92 112 121
0.64977603 -0.26975618 0.67768202 90 110 119
0.65015351 -0.24998854 0.67807567 88 107 117
0.64999722 -0.23021690 0.67852430 85 106 115
0.64980513 -0.21040737 0.67893621 84 103 115
0.65020672 -0.18998863 0.67935579 84 100 111
0.64968837 -0.17024030 0.67978363 82 100 111
0.65314276 -0.16065300 0.68002606 79 99 111
0.64993088 -0.14968506 0.68029618 81 97 108
0.65003630 -0.12983190 0.68094935 78 95 108
0.64989143 -0.10998980 0.68221680 62 68 73
0.65018262 -0.09007774 0.68303110 56 59 64
0.64977412 -0.06993233 0.68363281 58 61 67
0.65004707 -0.05005681 0.68438627 66 70 73
0.65015786 -0.03020019 0.69117631 134 141 141
0.65020301 -0.01725878 0.69826816 130 137 140
0.65006699 -0.00702536 0.70368898 139 147 149
0.65002250 0.01011835 0.71234053 147 155 156
0.64999930 0.02322995 0.71872759 118 127 133
0.64997683 0.03339876 0.72354671 125 135 139
0.65004212 0.05017612 0.73130508 130 140 143
0.64992017 0.06467490 0.73788592 139 148 151
0.65000690 0.07466517 0.74231745 140 146 148
0.64997825 0.09026288 0.74915841 119 129 138
0.64987860 0.10810540 0.75691531 116 128 135
0.65047466 0.11782974 0.76107142 120 132 139
0.64997698 0.13002622 0.76623219 149 159 163
0.64996784 0.15021104 0.77462823 163 171 174
0.64996982 0.16189515 0.77937960 161 169 173
0.64998341 0.17150374 0.78327364 164 169 171
0.64996865 0.18954075 0.79052687 163 170 171
0.65003406 0.20628464 0.79723632 165 170 171
0.64994329 0.21628125 0.80115248 162 168 168
0.64996841 0.22955715 0.80630193 153 159 161
0.64996216 0.25004686 0.81407578 152 156 157
0.64979764 0.26360484 0.81908159 160 165 165
0.64993372 0.27327716 0.82261524 147 152 155
0.64995881 0.28954594 0.82846437 152 156 157
0.64976299 0.30952611 0.83537553 128 134 136
0.65029917 0.32130360 0.83941094 132 140 144
0.65008830 0.33108504 0.84271212 128 134 136
0.64998704 0.34939067 0.84866892 130 135 137
0.65005996 0.36972277 0.85502792 141 146 149
0.64936800 0.38373022 0.85896249 129 131 135
0.65025829 0.39390954 0.86180047 146 152 153
0.65002710 0.41034091 0.86750218 2 2 2
0.65007672 0.42983170 0.87206569 0 0 0
0.64991738 0.45022917 0.87651626 0 0 0
0.64917343 0.46390869 0.87926315 0 0 0
0.65006030 0.47351221 0.88122841 0 0 0
0.65019013 0.48973607 0.88437913 0 0 0
0.64974056 0.50232903 0.88680908 0 0 0
0.67000053 -0.44855771 0.67622368 109 127 131
0.66949602 -0.42993722 0.67630440 103 127 130
0.66960182 -0.40954560 0.67641138 105 123 129
0.66973719 -0.38974918 0.67654816 101 122 127
0.66990109 -0.36996059 0.67671375 98 120 125
0.67003847 -0.35014858 0.67685255 99 118 124
0.67018570 -0.33033290 0.67700125 96 114 123
0.67041583 -0.30996161 0.67723368 96 113 120
0.66975759 -0.28964975 0.67746908 93 111 121
0.66974565 -0.26977931 0.67774004 89 110 117
0.67013422 -0.25000975 0.67813337 87 106 117
0.66995998 -0.23025339 0.67862013 87 105 113
0.66985510 -0.21043908 0.67903842 83 103 113
0.67026935 -0.19001729 0.67945835 82 100 112
0.66955016 -0.17137512 0.67983367 81 98 111
0.67113240 -0.16162486 0.68004649 81 99 113
0.66998620 -0.14969971 0.68036346 81 96 107
0.67000857 -0.12983563 0.68105463 79 94 106
0.66991283 -0.11002281 0.68236833 60 67 70
0.67020989 -0.09019767 0.68312320 55 60 62
0.66976547 -0.07008101 0.68373943 57 62 67
0.67010887 -0.05011556 0.68450986 65 69 73
0.67006067 -0.03023600 0.69132178 140 147 145
0.67022915 -0.01726177 0.69838527 134 144 143
0.67021463 -0.00706293 0.70375302 141 149 152
0.66997386 0.01003112 0.71236070 139 148 151
0.66966886 0.02277448 0.71857439 114 126 132
0.67012226 0.03289949 0.72341388 119 129 133
0.67004317 0.05019912 0.73148039 131 142 144
0.66993111 0.06464085 0.73803111 153 164 165
0.67006654 0.07470620 0.74252036 150 157 159
0.66999902 0.09023773 0.74932381 121 131 138
0.67006510 0.10753312 0.75682834 107 122 129
0.66982681 0.11732787 0.76101306 119 127 133
0.66996989 0.13010475 0.76645086 155 162 164
0.66997724 0.15023713 0.77481448 161 168 170
0.66998205 0.16195566 0.77955910 157 163 167
0.66994530 0.17157814 0.78345994 155 160 161
0.66997693 0.18950243 0.79060945 153 158 160
0.66995722 0.20626698 0.79724958 140 143 146
0.67005327 0.21631710 0.80119687 148 155 156
0.66993423 0.22949233 0.80636352 142 148 151
0.66993006 0.25004595 0.81424806 148 155 156
0.66988799 0.26286322 0.81897811 144 150 153
0.67004982 0.27258123 0.82265519 156 163 165
0.67003815 0.28963154 0.82872259 136 143 148
0.66994379 0.30948122 0.83570630 142 151 153
0.66794574 0.32070341 0.83952725 148 157 159
0.67023245 0.33060709 0.84308010 140 149 153
0.66999137 0.34956920 0.84908053 139 147 149
0.67001735 0.36989131 0.85542763 141 150 153
0.66943673 0.38296506 0.85919526 141 151 153
0.67029510 0.39312456 0.86206423 142 151 154
0.67000001 0.41055364 0.86788226 21 22 23
0.67002955 0.43026226 0.87272202 0 0 0
0.66974227 0.45030777 0.87711081 0 0 0
0.66951713 0.46241425 0.87956941 0 0 0
0.67037808 0.47196054 0.88153628 0 0 0
0.67005052 0.48971499 0.88500386 0 0 0
0.66995497 0.50268657 0.88751150 0 0 0
0.69022414 -0.44859422 0.67632930 111 129 131
0.68985049 -0.43012305 0.67638835 104 127 130
0.68952527 -0.40957437 0.67645887 103 123 128
0.68965698 -0.38977221 0.67658810 99 122 126
0.68981340 -0.36997581 0.67674158 100 120 124
0.68995208 -0.35016154 0.67687762 98 115 125
0.69010792 -0.33034718 0.67703054 95 114 122
0.69032919 -0.30996807 0.67724766 94 112 121
0.69001314 -0.28957007 0.67747894 92 111 119
0.68967238 -0.26978433 0.67775253 88 108 118
0.69006555 -0.25001178 0.67813885 87 105 116
0.68999182 -0.23025695 0.67864282 86 103 115
0.68985849 -0.21045470 0.67908879 85 101 111
0.69028152 -0.19003043 0.67950524 84 99 111
0.68981036 -0.17249011 0.67986205 81 98 111
0.68966659 -0.16256332 0.68005706 81 98 107
0.68998228 -0.14970083 0.68036840 79 95 107
0.69000751 -0.12984380 0.68107628 78 94 105
0.68997975 -0.11003265 0.68245397 58 64 68
0.69013777 -0.09011093 0.68315780 54 59 62
0.68992961 -0.07008843 0.68381273 57 62 66
0.69005437 -0.05007626 0.68465935 65 70 74
0.69004264 -0.03026673 0.69143453 142 148 148
0.69023360 -0.01726392 0.69847354 146 154 154
0.68999654 -0.00704488 0.70377855 143 152 153
0.69003539 0.01018738 0.71241294 143 152 153
0.69062970 0.02295066 0.71863520 119 131 135
0.68975700 0.03308689 0.72350196 118 129 134
0.69001879 0.05016382 0.73150819 127 135 140
0.68997091 0.06470959 0.73814946 146 153 156
0.69005718 0.07469513 0.74261507 157 165 168
0.68999329 0.09026718 0.74947565 126 137 144
0.69008632 0.10751807 0.75696468 119 129 135
0.68987696 0.11736556 0.76118761 113 121 129
0.68998514 0.13013189 0.76661096 136 147 152
0.68995753 0.15032528 0.77503523 161 170 170
0.68900304 0.16144771 0.77954697 153 160 164
0.69003065 0.17098839 0.78338878 149 158 160
0.68995444 0.18957905 0.79080850 159 168 169
0.68985234 0.20618466 0.79740058 154 162 164
0.69041351 0.21614489 0.80137258 167 176 174
0.68997679 0.22960383 0.80662292 156 164 165
0.69004126 0.25020453 0.81456448 161 169 170
0.68975774 0.26293434 0.81930740 164 170 169
0.69016053 0.27254715 0.82285956 160 166 166
0.69007591 0.28970723 0.82911190 159 166 168
0.69006624 0.30949279 0.83611703 154 161 164
0.68761127 0.32033325 0.83975871 146 154 161
0.69017314 0.33020831 0.84319543 148 155 158
0.69003766 0.34971437 0.84944486 119 124 130
0.69000017 0.37003898 0.85569436 119 125 130
0.68926713 0.38264809 0.85936812 164 173 172
0.68998167 0.39245497 0.86229959 154 162 164
0.69024012 0.41018965 0.86796231 44 47 48
0.68999160 0.43039728 0.87329157 0 0 0
0.68995385 0.45007048 0.87764937 0 0 0
0.68701297 0.46076021 0.87976794 0 0 0
0.69033247 0.47066202 0.88187684 0 0 0
0.69002691 0.49019137 0.88571099 0 0 0
0.69017514 0.50302564 0.88818152 0 0 0
0.71042187 -0.44875298 0.67640042 109 129 132
0.71034528 -0.42988651 0.67643660 104 126 130
0.70976192 -0.40974006 0.67649919 100 122 126
0.70956132 -0.38978547 0.67661105 100 120 125
0.70970744 -0.36998069 0.67675047 96 116 124
0.70985431 -0.35016815 0.67689049 92 114 124
0.71002244 -0.33035710 0.67705080 93 113 120
0.71024044 -0.30997314 0.67725871 91 112 121
0.71025337 -0.28953266 0.67750431 89 109 117
0.70962650 -0.26979924 0.67779032 87 107 116
0.71006958 -0.25003931 0.67821347 86 104 115
0.71005630 -0.23027083 0.67869548 81 103 112
0.70986605 -0.21047064 0.67914027 82 101 111
0.71029338 -0.19004272 0.67954912 82 98 110
0.70994389 -0.17271919 0.67988147 81 98 109
0.70938066 -0.16279653 0.68006006 81 97 109
0.70995033 -0.14969604 0.68034611 78 95 108
0.71001756 -0.12984111 0.68104090 78 92 106
0.70999458 -0.11005260 0.68244999 58 63 67
0.71010779 -0.09010254 0.68312551 54 58 62
0.71003263 -0.07008933 0.68382287 56 61 66
0.71000161 -0.05005859 0.68476572 64 69 71
0.71002781 -0.03020348 0.69162831 143 148 147
0.71015609 -0.01728167 0.69858621 150 156 156
0.70982743 -0.00702725 0.70385081 150 157 158
0.71000026 0.01006280 0.71230977 141 149 151
0.70982990 0.02322848 0.71868128 123 131 136
0.71000643 0.03339883 0.72354856 119 129 134
0.70999727 0.05018575 0.73143568 124 136 140
0.71006717 0.06465764 0.73808389 137 147 151
0.71000943 0.07471966 0.74260412 144 153 156
0.70994567 0.09029174 0.74948943 123 135 142
0.71008141 0.10754756 0.75701977 116 130 137
0.70999038 0.11732809 0.76122418 112 124 132
0.71003102 0.13008543 0.76666763 142 151 155
0.70997669 0.15029434 0.77514058 159 165 167
0.70982736 0.16130370 0.77966542 161 167 169
0.71001583 0.17087316 0.78351649 153 160 161
0.71001527 0.18963783 0.79102261 156 162 165
0.71010477 0.20563181 0.79738141 156 165 166
0.71003315 0.21569577 0.80136040 158 164 164
0.70996252 0.22971022 0.80681147 155 162 164
0.71004421 0.25021443 0.81464516 151 157 159
0.70969540 0.26221892 0.81917782 164 172 171
0.70998223 0.27187330 0.82270681 148 154 155
0.71002002 0.28980628 0.82920784 158 162 164
0.71002866 0.30961226 0.83625112 153 159 161
0.71009813 0.32967204 0.84319797 152 156 157
0.70998726 0.34983365 0.84967857 130 134 136
0.71004589 0.37021469 0.85602588 116 123 125
0.70970139 0.38207856 0.85947989 137 144 144
0.71000959 0.39157820 0.86236726 135 138 141
0.71001107 0.40993410 0.86804837 69 72 74
0.71002331 0.42992036 0.87367015 0 0 0
0.70956471 0.44881181 0.87796576 0 0 0
0.71426561 0.45861356 0.88020804 0 0 0
0.71005980 0.47007254 0.88239088 0 0 0
0.70976554 0.49030164 0.88638513 0 0 0
0.71076736 0.50305297 0.88885201 0 0 0
0.73056566 -0.44859350 0.67645193 109 127 130
0.73040442 -0.42993765 0.67651206 104 124 128
0.73008662 -0.40961430 0.67657114 98 119 123
0.72947638 -0.38980379 0.67664266 95 116 123
0.72959560 -0.36998225 0.67675330 94 114 121
0.72977479 -0.35018305 0.67691951 92 113 121
0.72995565 -0.33037499 0.67708724 90 111 119
0.73017438 -0.30998738 0.67729013 90 109 118
0.73033670 -0.28962017 0.67756844 90 105 116
0.72962099 -0.26982830 0.67786347 86 106 114
0.73006027 -0.25006085 0.67827165 83 104 112
0.73005909 -0.23028308 0.67871953 82 101 111
0.72984452 -0.21047737 0.67916198 82 100 109
0.73028095 -0.19004799 0.67956805 79 99 109
0.72966261 -0.17294014 0.67989630 78 97 106
0.72995476 -0.16303373 0.68006816 80 95 104
0.72995789 -0.14969950 0.68036162 77 94 105
0.73002019 -0.12983151 0.68103322 77 93 103
0.73002917 -0.11004991 0.68243311 57 62 66
0.73005403 -0.09009987 0.68310485 53 56 62
0.73009704 -0.07008659 0.68379623 55 59 64
0.72991013 -0.05004596 0.68482771 63 68 72
0.72996960 -0.03024454 0.69178370 143 149 148
0.72961944 -0.01740810 0.69866250 149 158 157
0.73015709 -0.00721997 0.70386677 146 154 155
0.72993798 0.01013288 0.71238512 143 149 149
0.73004325 0.02322738 0.71864731 125 135 138
0.73010344 0.03335202 0.72344735 120 130 136
0.73001474 0.05016608 0.73130481 128 137 140
0.72999129 0.06470702 0.73798477 134 142 146
0.73000863 0.07465789 0.74244570 152 161 161
0.72991809 0.09029080 0.74934371 121 133 138
0.73005200 0.10749004 0.75688327 107 121 131
0.73010102 0.11736653 0.76112618 106 119 128
0.73000985 0.13013723 0.76660474 142 152 155
0.73002983 0.15029251 0.77514429 155 162 166
0.73007621 0.16131150 0.77970311 155 164 167
0.73006413 0.17094899 0.78361812 149 157 158
0.73005844 0.18965891 0.79114143 155 162 164
0.73010746 0.20565457 0.79749348 144 153 156
0.73008329 0.21566226 0.80145022 144 151 152
0.72999902 0.22967797 0.80688247 147 151 152
0.73000617 0.25025247 0.81474481 138 145 146
0.72959259 0.26224577 0.81926169 151 154 154
0.72996771 0.27194637 0.82288081 142 144 147
0.72999417 0.28986416 0.82937457 130 138 143
0.72984298 0.30967781 0.83633323 131 139 142
0.73014042 0.32976966 0.84335564 138 140 142
0.73004857 0.34993678 0.84995138 110 116 120
0.73000195 0.37033506 0.85635778 129 134 135
0.72846671 0.38167794 0.85966037 120 128 131
0.73025150 0.39105430 0.86253653 94 99 104
0.72985354 0.40983574 0.86818735 80 86 87
0.73022081 0.42993921 0.87417343 0 0 0
0.72961731 0.44747077 0.87825679 0 0 0
0.73133085 0.45764713 0.88054331 0 0 0
0.72983454 0.47024342 0.88307107 0 0 0
0.73014020 0.48987396 0.88703103 0 0 0
0.73010134 0.50311861 0.88955112 0 0 0
0.75039989 -0.44820378 0.67652732 103 124 128
0.75048011 -0.42954027 0.67659964 101 120 125
0.75032092 -0.40957476 0.67664919 94 116 123
0.74990757 -0.38989450 0.67669954 93 113 119
0.74961502 -0.37007937 0.67677696 92 111 120
0.74967378 -0.35018736 0.67692774 89 110 118
0.74985819 -0.33037836 0.67709428 88 109 119
0.75010920 -0.31000135 0.67732085 88 107 116
0.75036072 -0.28957899 0.67761336 87 105 116
0.74968138 -0.26991398 0.67792708 83 104 111
0.75005162 -0.25008147 0.67832742 83 102 112
0.75004709 -0.23029693 0.67876028 83 100 110
0.74981359 -0.21048107 0.67917382 79 99 107
0.75027964 -0.19005575 0.67959595 80 96 107
0.74916445 -0.17371417 0.67991327 78 96 108
0.75042766 -0.16393458 0.68007044 78 94 105
0.74999875 -0.14970931 0.68040675 79 93 102
0.74997008 -0.12982278 0.68107300 77 92 103
0.75003315 -0.11002367 0.68242231 57 61 67
0.75002397 -0.09008380 0.68307623 53 55 59
0.75014028 -0.07008206 0.68375187 54 58 61
0.74986869 -0.05008549 0.68486843 65 69 72
0.75000069 -0.03024964 0.69199917 143 148 147
0.74998135 -0.01786261 0.69860960 144 153 154
0.75003236 -0.00772007 0.70375384 144 154 155
0.75000122 0.01008071 0.71241632 141 149 151
0.75030303 0.02322774 0.71865994 125 133 137
0.75020708 0.03339429 0.72344997 116 129 133
0.75014296 0.05019520 0.73126697 122 132 137
0.74996219 0.06462845 0.73788294 142 150 155
0.74996007 0.07465802 0.74234972 154 164 166
0.74996227 0.09020142 0.74915263 129 139 143
0.75026609 0.10782319 0.75683346 114 127 135
0.74934442 0.11754882 0.76102523 128 136 143
0.75001672 0.13007961 0.76639099 140 150 154
0.75000309 0.15031722 0.77499235 159 166 168
0.75016525 0.16128457 0.77957298 169 177 176
0.75007333 0.17090588 0.78352380 158 166 165
0.75002109 0.18968578 0.79113206 162 170 170
0.75011524 0.20567355 0.79752084 157 166 166
0.75005962 0.21571357 0.80149779 153 162 163
0.75001730 0.22973117 0.80696440 152 161 163
0.74996777 0.25022066 0.81481467 143 151 151
0.74986650 0.26225067 0.81935328 151 152 152
0.75000340 0.27197687 0.82307933 152 157 157
0.75006516 0.28997952 0.82988029 154 163 164
0.74990358 0.30972303 0.83664700 146 155 157
0.75005565 0.32979092 0.84359442 152 160 160
0.75012099 0.35003994 0.85027943 145 151 152
0.74994770 0.37044246 0.85665935 121 130 133
0.74718681 0.38151285 0.85987948 132 141 144
0.75025917 0.39073265 0.86274946 116 127 132
0.75000688 0.40920163 0.86815345 117 125 125
0.75009154 0.42959016 0.87453136 0 0 0
0.74972343 0.44633369 0.87854544 0 0 0
0.75059695 0.45655861 0.88087202 0 0 0
0.74994423 0.46993125 0.88365915 0 0 0
0.75005518 0.48976641 0.88775133 0 0 0
0.75007698 0.50351890 0.89042210 0 0 0
0.77035694 -0.44824943 0.67659634 98 121 124
0.77043098 -0.42957954 0.67666143 99 117 121
0.77046411 -0.40971481 0.67669052 92 113 120
0.77039952 -0.38979342 0.67672885 90 109 117
0.77005354 -0.36994989 0.67678586 89 106 116
0.76955475 -0.35018307 0.67691951 88 106 114
0.76976221 -0.33038203 0.67710193 88 106 116
0.77004413 -0.31001464 0.67734993 84 104 115
0.77040803 -0.28966345 0.67766995 84 102 113
0.76968492 -0.26982422 0.67800717 83 101 112
0.77004347 -0.25010120 0.67838071 82 100 109
0.77005785 -0.23031680 0.67881904 78 98 110
0.76997664 -0.21028673 0.67924033 79 97 108
0.77019671 -0.18987522 0.67966438 78 95 106
0.76837011 -0.17575118 0.67994151 77 95 106
0.77036204 -0.16613429 0.68011113 79 92 105
0.77007241 -0.14972511 0.68047832 78 92 102
0.76990877 -0.12981766 0.68113135 79 91 102
0.77003488 -0.11004595 0.68240741 56 60 64
0.77002605 -0.09007585 0.68301512 50 54 57
0.77011895 -0.07007182 0.68365246 51 57 60
0.76995112 -0.05009872 0.68489056 65 69 72
0.76999796 -0.03029392 0.69221778 144 150 148
0.76999698 -0.01785927 0.69883185 140 145 148
0.76995987 -0.00764230 0.70400538 149 155 157
0.77004362 0.01011818 0.71256786 144 149 151
0.77022367 0.02322911 0.71870294 122 131 137
0.77016049 0.03336504 0.72343854 118 131 136
0.76999626 0.05019291 0.73123586 116 128 134
0.76998113 0.06466237 0.73787568 147 155 159
0.76982262 0.07469898 0.74234521 161 168 170
0.77004615 0.09026273 0.74911227 133 142 148
0.77003910 0.10825834 0.75687973 119 130 137
0.76981630 0.11798850 0.76103617 113 125 132
0.77001067 0.13008107 0.76620086 150 159 163
0.76994860 0.15025587 0.77474183 156 162 164
0.77067793 0.16188401 0.77957452 144 147 150
0.76991551 0.17141551 0.78349228 147 150 151
0.76995332 0.18956608 0.79084017 146 153 154
0.77031340 0.20582173 0.79738799 146 152 153
0.76953303 0.21579999 0.80136888 148 156 156
0.76996030 0.22967056 0.80682903 157 165 165
0.77000739 0.25025329 0.81472313 141 147 147
0.76992446 0.26223762 0.81923621 126 129 134
0.76986977 0.27196676 0.82289674 130 134 137
0.77001584 0.28992550 0.82973805 156 161 161
0.77002935 0.30979168 0.83684310 153 161 161
0.77000147 0.32990387 0.84382284 165 172 170
0.76999204 0.35020779 0.85059814 148 155 157
0.76977465 0.37027632 0.85692369 147 154 155
0.77618530 0.38003504 0.85989853 138 142 149
0.77002543 0.39029068 0.86290524 134 142 144
0.77013699 0.41006457 0.86864736 121 128 132
0.76988562 0.43041383 0.87511520 0 0 0
0.76955893 0.44520753 0.87882560 0 0 0
0.77004112 0.45495235 0.88109400 0 0 0
0.77021890 0.46980245 0.88429252 0 0 0
0.77007214 0.49025054 0.88857348 0 0 0
0.76986587 0.50406052 0.89129659 0 0 0
0.79030788 -0.44828949 0.67665665 96 113 119
0.79036931 -0.42960994 0.67670934 96 111 119
0.79041355 -0.40974914 0.67674721 90 109 118
0.79044901 -0.38988155 0.67677748 86 106 115
0.79047928 -0.36999452 0.67683443 85 103 113
0.78950829 -0.35021112 0.67697377 83 102 113
0.78974302 -0.33041762 0.67717499 82 103 115
0.79004392 -0.31005264 0.67743302 81 102 113
0.79033305 -0.28979014 0.67776521 81 100 114
0.78969406 -0.26993757 0.67813796 81 99 109
0.79010909 -0.25014308 0.67849433 81 97 110
0.78997396 -0.23034029 0.67891237 78 96 108
0.78991766 -0.20994483 0.67933835 79 94 107
0.79030904 -0.18960058 0.67975981 74 94 106
0.78513883 -0.17798292 0.67996881 73 95 103
0.79020238 -0.16870942 0.68017832 73 92 106
0.79019493 -0.14974950 0.68058853 74 90 101
0.78984493 -0.12981147 0.68118475 75 91 101
0.79008317 -0.11004580 0.68240491 52 58 62
0.79003720 -0.09006929 0.68296502 48 51 55
0.79010475 -0.07006282 0.68356399 49 54 59
0.78984207 -0.05010282 0.68483601 68 72 74
0.78997797 -0.03026950 0.69244437 142 150 149
0.79011460 -0.01789971 0.69898197 137 144 145
0.79000023 -0.00765020 0.70422001 142 151 153
0.79000112 0.01012133 0.71279478 137 144 146
0.78965874 0.02278275 0.71867533 127 135 137
0.79016162 0.03296853 0.72337551 115 128 133
0.78995650 0.05019766 0.73130516 119 130 135
0.78978774 0.06466539 0.73791139 141 149 150
0.78973473 0.07465791 0.74234830 152 160 161
0.79005433 0.09029570 0.74910981 136 145 149
0.78993563 0.10811462 0.75674553 115 122 130
0.79010432 0.11797352 0.76093933 115 123 130
0.79000344 0.12997290 0.76605819 142 150 154
0.78996887 0.15021121 0.77457752 157 165 165
0.78978182 0.16193138 0.77944216 153 161 162
0.78998683 0.17154562 0.78335014 157 164 163
0.79000749 0.18950059 0.79059624 151 161 163
0.79000048 0.20631225 0.79734221 151 160 162
0.78996770 0.21632713 0.80132239 158 166 168
0.78990673 0.22960835 0.80650752 141 147 150
0.79001932 0.25015082 0.81441299 139 143 143
0.79019689 0.26287685 0.81923596 137 145 146
0.78991182 0.27256750 0.82287359 134 138 138
0.78995374 0.28990678 0.82927699 137 140 140
0.79006100 0.30971730 0.83661633 148 151 150
0.78999615 0.32978894 0.84361770 139 142 145
0.79001832 0.35017196 0.85063915 146 151 153
0.78998505 0.36985867 0.85698393 144 147 148
0.78294963 0.38007204 0.85998225 145 148 148
0.79022727 0.38976404 0.86297125 126 131 135
0.79002988 0.41032994 0.86899360 120 126 129
0.78995148 0.43075318 0.87544334 5 6 6
0.78957766 0.44425053 0.87909371 0 0 0
0.79036930 0.45368186 0.88136215 0 0 0
0.78996939 0.46982115 0.88490178 0 0 0
0.78997430 0.48980638 0.88918181 0 0 0
0.79001988 0.50369777 0.89197347 0 0 0
0.81023017 -0.44831158 0.67669009 90 109 116
0.81027824 -0.42962329 0.67673029 88 106 114
0.81033301 -0.40976649 0.67677601 87 105 115
0.81042268 -0.38992372 0.67685085 85 102 112
0.81049666 -0.37006955 0.67691263 84 100 111
0.80965151 -0.35036158 0.67706408 80 101 110
0.80986770 -0.33032408 0.67727814 81 99 112
0.80997273 -0.30996853 0.67753718 79 99 111
0.81019579 -0.28978490 0.67786833 79 99 108
0.80979833 -0.26999704 0.67828760 80 97 106
0.81024614 -0.25020513 0.67866259 78 96 108
0.80980611 -0.23032106 0.67904952 78 94 107
0.81002405 -0.20998254 0.67946032 78 92 104
0.80987554 -0.19072144 0.67984043 78 91 103
0.81234657 -0.18104353 0.68003430 74 92 105
0.80981655 -0.16966858 0.68027251 76 90 103
0.81020833 -0.14988423 0.68071255 75 88 100
0.80985847 -0.12984825 0.68126931 73 88 98
0.81006615 -0.11001298 0.68237793 53 57 61
0.80998871 -0.09005993 0.68292570 48 50 54
0.81010251 -0.07017425 0.68360185 50 53 57
0.80993088 -0.05008247 0.68496231 69 73 75
0.81000496 -0.03027495 0.69265494 143 151 150
0.80946933 -0.01826012 0.69890548 140 146 147
0.81015847 -0.00810591 0.70409955 146 154 154
0.80999483 0.01007137 0.71295084 131 138 140
0.80988384 0.02264078 0.71883011 125 135 139
0.80992885 0.03271382 0.72350213 114 127 133
0.81014182 0.05021347 0.73153620 122 133 137
0.80964658 0.06464281 0.73805774 131 143 145
0.80989208 0.07467055 0.74252239 148 156 159
0.80992621 0.09024067 0.74921710 142 150 153
0.81003056 0.10818874 0.75682732 119 129 136
0.81028733 0.11797580 0.76095419 114 128 134
0.80997334 0.13003757 0.76605522 145 155 159
0.80997318 0.15020503 0.77446457 149 158 160
0.80979080 0.16189157 0.77925055 131 142 151
0.80998022 0.17151419 0.78316751 149 155 157
0.81001969 0.18951110 0.79040493 150 156 157
0.80994010 0.20624247 0.79707331 153 162 162
0.80995224 0.21624021 0.80104540 164 170 170
0.80999753 0.22947910 0.80620719 152 160 163
0.81000298 0.24998402 0.81406690 148 156 156
0.81033152 0.26298614 0.81897721 145 152 154
0.80995284 0.27262396 0.82258142 126 134 137
0.80996640 0.28962094 0.82885621 136 139 138
0.80998602 0.30952354 0.83604505 139 144 144
0.81473186 0.32038019 0.83988174 156 162 159
0.80978676 0.33018121 0.84352673 142 148 150
0.81006657 0.35016067 0.85042761 148 156 156
0.80991683 0.36985403 0.85692736 150 157 156
0.81336501 0.38004598 0.85992328 131 132 132
0.80981759 0.39019618 0.86310598 120 125 126
0.81001255 0.41039279 0.86908673 126 131 134
0.80994671 0.43076738 0.87548938 29 30 30
0.80984011 0.44335428 0.87921149 0 0 0
0.81010774 0.45292271 0.88157741 0 0 0
0.80996220 0.47019607 0.88552215 0 0 0
0.81005946 0.49023404 0.88991760 0 0 0
0.80999628 0.50418808 0.89275562 0 0 0
0.82490898 -0.44834345 0.67673805 89 105 113
0.82500690 -0.42967910 0.67681846 87 103 113
0.82511847 -0.40984748 0.67690984 87 102 111
0.82520056 -0.38999666 0.67697724 86 100 111
0.82525748 -0.37013043 0.67702396 84 99 107
0.82496175 -0.35010234 0.67715840 82 98 110
0.82510751 -0.32993275 0.67738134 81 97 108
0.82542181 -0.30956174 0.67763944 79 98 107
0.82558769 -0.28955124 0.67792794 76 97 106
0.82564934 -0.27000513 0.67830775 79 96 104
0.82612852 -0.25021937 0.67870147 79 93 106
0.82611403 -0.23032374 0.67911958 77 92 104
0.82652890 -0.20999871 0.67951275 78 91 103
0.82712236 -0.19201956 0.67986261 77 90 101
0.82584786 -0.18241631 0.68006226 73 91 100
0.82696563 -0.16968908 0.68035507 75 88 99
0.82743769 -0.14966294 0.68086442 72 86 97
0.82774705 -0.12992148 0.68148227 74 85 95
0.82844364 -0.11002416 0.68251468 52 57 62
0.82865851 -0.08990893 0.68301262 46 48 54
0.82918750 -0.06996383 0.68376125 48 50 57
0.82982415 -0.05000887 0.68518168 69 71 77
0.82996894 -0.03028125 0.69280156 144 149 148
0.83003340 -0.01850948 0.69893333 136 144 144
0.83000800 -0.00829553 0.70412655 145 153 155
0.83000166 0.01011421 0.71311986 132 141 144
0.82977212 0.02261522 0.71895757 128 140 144
0.82991783 0.03277544 0.72369269 121 132 136
0.83009335 0.05016300 0.73174356 120 130 135
0.82990768 0.06402444 0.73804229 128 138 143
0.83002022 0.07405627 0.74252693 148 160 161
0.82995978 0.09026127 0.74952266 141 150 154
0.82999915 0.10791414 0.75693977 126 133 137
0.83090472 0.11763094 0.76101187 116 131 135
0.82999756 0.13006297 0.76620552 140 150 153
0.82992749 0.15020302 0.77452117 156 165 166
0.83000590 0.16189380 0.77926132 158 164 167
0.83000377 0.17147009 0.78311971 162 170 170
0.82999108 0.18945647 0.79029620 151 159 160
0.82999804 0.20692437 0.79722513 155 164 164
0.82962121 0.21692547 0.80116060 162 170 168
0.82998667 0.22942601 0.80599899 150 156 156
0.82995907 0.24995801 0.81381042 142 148 148
0.82998464 0.26360292 0.81895974 147 153 154
0.82998357 0.27328158 0.82262782 156 162 161
0.82997270 0.28960913 0.82854775 138 144 145
0.82995524 0.30937280 0.83560498 131 138 141
0.83164332 0.32056914 0.83953142 140 147 148
0.82991022 0.33065315 0.84342594 152 159 160
0.82998914 0.34992599 0.85004072 149 158 157
0.83011568 0.37038455 0.85680364 150 156 156
0.82219586 0.38000567 0.85983208 133 137 139
0.82992889 0.39032351 0.86295236 128 136 139
0.83002053 0.41023580 0.86891052 133 142 146
0.82999307 0.43059445 0.87521710 50 53 52
0.82990052 0.44331283 0.87928002 0 0 0
0.82991664 0.45290379 0.88174289 0 0 0
0.82982019 0.46970263 0.88576664 0 0 0
0.83021308 0.48977604 0.89034318 0 0 0
0.83004572 0.50439227 0.89337758 0 0 0
0.84092834 -0.04258001 0.68675051 109 108 113
0.84542634 -0.02812029 0.69403815 146 152 151
0.84850342 -0.01843150 0.69909231 142 149 149
0.84995964 -0.00820677 0.70427671 146 153 155
0.85003968 0.01006388 0.71323203 135 142 144
0.84913967 0.02222808 0.71895905 125 135 140
0.85014017 0.03232514 0.72367214 124 136 139
0.84998247 0.05023901 0.73191030 121 133 137
0.84994363 0.06404335 0.73818387 139 149 151
0.85005954 0.07406917 0.74265551 150 159 160
0.85002907 0.09035968 0.74977626 145 153 153
0.85023218 0.10757118 0.75709702 128 136 139
0.85027048 0.11736105 0.76122842 115 130 136
0.84997498 0.13006048 0.76653544 136 144 150
0.84995849 0.15031039 0.77484258 159 167 169
0.84979382 0.16194286 0.77949755 152 160 164
0.84995218 0.17149130 0.78329558 152 159 161
0.85001656 0.18944975 0.79038968 145 153 154
0.84992413 0.20626596 0.79704148 158 166 165
0.85017052 0.21625426 0.80096422 165 174 172
0.84996302 0.22949693 0.80606354 153 161 161
0.84992407 0.24994189 0.81375978 141 146 145
0.84930885 0.26332768 0.81886725 151 159 157
0.85020778 0.27297443 0.82252495 141 147 149
0.85002082 0.28950527 0.82845871 126 133 139
0.84997011 0.30929788 0.83540287 119 127 130
0.84977037 0.32090712 0.83936084 103 110 115
0.85001850 0.33107483 0.84306475 151 157 156
0.84991297 0.34977243 0.84953902 144 151 152
0.85006048 0.37031433 0.85639046 146 151 152
0.85191577 0.38149067 0.85982948 149 156 157
0.84986179 0.39091911 0.86287574 137 143 146
0.84995311 0.41026029 0.86872537 147 154 155
0.85003099 0.43049764 0.87485458 65 70 70
0.84982962 0.44327056 0.87919614 0 0 0
0.84996579 0.45299546 0.88180810 0 0 0
0.85000355 0.46964146 0.88593014 0 0 0
0.84996901 0.48988626 0.89069340 0 0 0
0.85012109 0.50475097 0.89388247 0 0 0
0.86286969 -0.00444983 0.70620522 146 155 156
0.86760424 0.01145680 0.71392500 136 144 147
0.87007840 0.02201684 0.71891222 125 135 138
0.86995780 0.03219534 0.72370376 125 132 139
0.86999739 0.05019285 0.73201503 123 134 138
0.87001308 0.06406429 0.73834544 143 152 155
0.87010656 0.07408186 0.74278409 146 157 158
0.86999972 0.09035622 0.74989034 139 146 149
0.86993750 0.10751088 0.75723346 137 146 149
0.87052769 0.11727973 0.76138825 115 128 133
0.86989641 0.13017341 0.76685565 141 151 154
0.87010342 0.15025295 0.77518275 155 162 164
0.87015354 0.16129675 0.77963184 154 160 162
0.87002565 0.17092981 0.78347630 155 165 166
0.86999045 0.18963964 0.79081469 138 148 151
0.86999492 0.20624253 0.79724025 146 154 154
0.86995893 0.21629786 0.80117065 149 157 156
0.86996848 0.22948455 0.80620646 147 154 154
0.86994217 0.25002377 0.81392621 145 153 155
0.87019865 0.26287327 0.81880877 154 164 164
0.86999167 0.27258635 0.82253412 156 163 163
0.87000603 0.28965257 0.82865754 149 158 159
0.86998168 0.30930416 0.83538559 115 124 128
0.87006834 0.32090246 0.83934865 127 135 136
0.87003324 0.33102917 0.84290875 132 138 138
0.86995324 0.34970282 0.84933770 143 147 145
0.86999179 0.37020699 0.85610165 123 131 132
0.87021730 0.38136994 0.85955738 139 143 146
0.86995623 0.39087687 0.86259697 148 154 155
0.86993329 0.41003780 0.86841091 132 137 139
0.87001606 0.43038225 0.87451617 85 89 88
0.87007668 0.44330747 0.87919394 0 0 0
0.87000323 0.45296263 0.88182884 0 0 0
0.86999035 0.46968502 0.88601217 0 0 0
0.86993932 0.48995346 0.89084277 0 0 0
0.87010697 0.50489992 0.89410345 0 0 0
0.88092627 0.02350311 0.71953108 123 137 139
0.88411153 0.03424933 0.72462455 122 130 135
0.88873867 0.05113420 0.73245523 124 132 138
0.89003636 0.06410879 0.73838897 148 156 160
0.89002659 0.07408367 0.74280145 144 152 155
0.88997881 0.09030984 0.74992082 144 152 155
0.88999537 0.10685433 0.75706765 141 152 154
0.89019817 0.11671217 0.76128169 130 140 144
0.88997450 0.13020199 0.76702497 140 150 154
0.89005119 0.15034583 0.77544247 156 166 167
0.88732775 0.16135688 0.77992246 149 158 159
0.89021501 0.17074050 0.78372389 144 154 155
0.89002369 0.18965547 0.79124941 150 158 158
0.88982981 0.20582989 0.79752197 146 156 157
0.89017204 0.21579283 0.80140348 155 164 163
0.89006766 0.22968287 0.80671503 151 160 160
0.88993322 0.25007777 0.81423016 131 138 141
0.88929967 0.26339146 0.81903480 123 132 138
0.89026170 0.27306211 0.82269049 136 144 150
0.88999127 0.28968386 0.82885855 163 170 170
0.89000647 0.30936945 0.83559724 135 145 147
0.89017625 0.32099158 0.83951149 150 161 160
0.88988772 0.33101878 0.84293745 141 148 149
0.88991691 0.34963245 0.84923224 119 125 127
0.88996941 0.37021978 0.85605734 133 142 143
0.89126056 0.38200037 0.85966734 118 128 133
0.88977474 0.39143985 0.86263078 138 146 147
0.89007478 0.41006740 0.86831599 134 139 141
0.89011422 0.43028522 0.87434064 78 83 87
0.89015434 0.44329746 0.87924939 0 0 0
0.89003635 0.45305053 0.88195746 0 0 0
0.88993144 0.46970196 0.88610539 0 0 0
0.89001602 0.48998650 0.89090288 0 0 0
0.89010443 0.50490825 0.89416101 0 0 0
0.90086485 0.05842508 0.73566100 137 149 149
0.90272274 0.06450912 0.73856850 149 157 158
0.90548935 0.07463123 0.74307391 146 155 158
0.90914459 0.09095385 0.75013420 144 151 155
0.91015845 0.10740052 0.75720509 141 149 151
0.90948899 0.11710695 0.76138820 145 152 154
0.90999189 0.13017036 0.76700375 154 162 164
0.91002999 0.15039319 0.77551513 151 160 163
0.91001406 0.17020164 0.78363047 156 164 165
0.91000138 0.18974517 0.79144143 151 158 159
0.90999747 0.20569498 0.79771929 149 156 158
0.90998230 0.21573868 0.80166259 154 160 161
0.91011078 0.22970833 0.80709745 157 164 165
0.91000212 0.25023541 0.81479379 152 160 162
0.90893610 0.26259915 0.81919402 132 143 146
0.91048742 0.27218518 0.82290138 133 144 148
0.90986012 0.28962740 0.82883227 128 133 137
0.91006720 0.30937419 0.83580988 146 152 153
0.90912524 0.32044610 0.83957879 140 147 150
0.91000505 0.33041805 0.84294194 123 129 135
0.90995716 0.34974964 0.84945166 128 136 138
0.90999772 0.37021787 0.85614839 132 140 145
0.90911564 0.38159857 0.85962598 124 136 139
0.91012992 0.39093951 0.86249980 134 145 146
0.91003191 0.40994625 0.86828863 141 148 149
0.91003385 0.43025114 0.87427232 116 123 123
0.90899353 0.44300458 0.87932811 0 0 0
0.91034657 0.45269347 0.88207026 0 0 0
0.90997543 0.46984362 0.88631193 0 0 0
0.91006492 0.49000881 0.89098887 0 0 0
0.90992939 0.50493184 0.89420291 0 0 0
0.92160201 0.09744370 0.75303836 134 143 149
0.92432459 0.10859197 0.75766081 141 148 150
0.92668956 0.11751352 0.76148841 140 148 152
0.92941788 0.13059866 0.76706956 150 159 161
0.93004085 0.15037844 0.77532609 142 150 152
0.93175680 0.16134728 0.77987609 154 161 163
0.92986723 0.17084147 0.78378894 150 158 158
0.92998747 0.18967332 0.79140700 143 150 153
0.93008358 0.20576858 0.79782031 153 161 160
0.93013913 0.21575386 0.80171927 142 150 153
0.93002750 0.22970309 0.80718331 147 154 156
0.92997550 0.25038124 0.81508961 154 158 159
0.93024044 0.26232475 0.81950843 144 151 151
0.93012456 0.27204199 0.82317067 149 156 157
0.93004465 0.28981740 0.82927921 131 140 143
0.93007152 0.30954510 0.83611888 136 140 141
0.92928970 0.32033715 0.83976892 131 133 133
0.92994873 0.33030533 0.84315692 122 130 134
0.92993512 0.34979939 0.84973739 132 136 138
0.92997326 0.37041167 0.85640440 125 131 134
0.92987667 0.38146501 0.85977164 144 150 154
0.92993747 0.39101118 0.86273428 142 150 152
0.93004244 0.41017720 0.86855704 151 159 159
0.92991927 0.43032371 0.87437929 138 145 144
0.92990011 0.44243336 0.87909858 0 0 0
0.92997879 0.45237853 0.88218185 0 0 0
0.92999864 0.46994564 0.88648433 0 0 0
0.93006012 0.49005796 0.89103347 0 0 0
0.92968268 0.50491577 0.89417445 0 0 0
0.94175535 0.13702438 0.76979051 155 163 167
0.94564208 0.15205169 0.77594810 147 158 160
0.94774277 0.16131499 0.77971998 151 160 162
0.94963517 0.17125011 0.78378891 151 160 160
0.94999726 0.18972698 0.79124451 149 158 158
0.94989295 0.20567574 0.79764474 139 148 151
0.95003792 0.21571003 0.80155618 145 153 155
0.95002805 0.22980948 0.80713557 153 159 160
0.94997787 0.25028992 0.81506386 142 150 151
0.94870536 0.26205577 0.81955335 136 142 141
0.95031145 0.27157563 0.82303708 134 141 143
0.94998534 0.28992794 0.82949573 144 151 153
0.95003300 0.30973983 0.83648855 151 159 157
0.94999567 0.32973267 0.84338527 142 151 152
0.95002401 0.35007372 0.85017116 138 146 147
0.94986465 0.37040545 0.85671631 127 136 136
0.94637760 0.38131509 0.85991226 127 134 137
0.95015628 0.39061685 0.86287105 135 141 141
0.94995513 0.41020599 0.86877991 133 137 139
0.94988137 0.43037245 0.87458572 141 146 149
0.94977413 0.44234763 0.87887223 0 0 0
0.94998729 0.45253830 0.88244202 0 0 0
0.95004041 0.47002834 0.88666123 0 0 0
0.95002936 0.49017648 0.89112207 0 0 0
0.94974066 0.50489776 0.89414264 0 0 0
0.96182332 0.17640677 0.78590312 143 151 151
0.96534265 0.19123968 0.79178703 138 146 149
0.96888308 0.20601723 0.79774594 154 159 162
0.96993770 0.21566771 0.80139941 140 150 154
0.97001869 0.22969801 0.80679682 142 150 153
0.96991683 0.25026064 0.81476954 140 147 149
0.97119813 0.26225297 0.81945438 155 161 160
0.96992783 0.27186693 0.82309984 153 162 163
0.97015519 0.28984825 0.82949793 130 136 140
0.96998746 0.30969887 0.83648523 130 138 142
0.97006637 0.32972838 0.84354198 142 148 149
0.97002176 0.35007703 0.85043412 144 151 153
0.96990660 0.36982678 0.85688669 141 149 150
0.96350189 0.38005367 0.85994069 139 147 146
0.97019431 0.38979000 0.86299844 142 151 151
0.96987992 0.40972753 0.86900587 132 141 145
0.97007586 0.42980557 0.87474831 108 116 126
