ply
format ascii 1.0
element vertex 1061
property float x
property float y
property float z
property uchar red
property uchar green
property uchar blue
end_header
0.07615558 0.43996635 1.71184814 152 161 171
0.07871681 0.43775547 1.70324588 155 164 172
0.10666259 0.21221276 0.82569045 169 174 181
0.10678902 0.20965905 0.81575429 170 175 181
0.10755186 0.20840511 0.81087542 170 175 182
0.10882322 0.20815612 0.80990660 168 173 180
0.11009154 0.20790772 0.80894017 169 174 181
0.11148973 0.20790772 0.80894017 169 174 181
0.11248523 0.20716608 0.80605453 169 177 183
0.11374318 0.20692004 0.80509722 172 180 186
0.11527163 0.20716608 0.80605453 168 176 181
0.11708248 0.20790772 0.80894017 160 165 170
0.11862222 0.20815612 0.80990660 148 152 158
0.11987886 0.20790772 0.80894017 142 146 152
0.12127704 0.20790772 0.80894017 141 143 151
0.12252901 0.20765993 0.80797595 141 143 151
0.12377801 0.20741270 0.80701411 154 156 162
0.12487554 0.20692004 0.80509722 161 163 166
0.22190201 0.29529944 1.14896917 164 168 171
0.22664210 0.29630387 1.15287733 141 143 151
0.22824658 0.29580081 1.15091991 117 117 126
0.22868283 0.29380551 1.14315653 123 127 135
0.22949764 0.29232663 1.13740242 123 127 138
0.23068942 0.29134896 1.13359845 127 130 150
0.23187326 0.29037780 1.12981975 137 143 159
0.23304923 0.28941309 1.12606621 153 158 173
0.23538655 0.28989464 1.12793982 162 165 178
0.17867981 0.18613961 0.72424340 157 164 169
0.17916594 0.18534753 0.72116154 163 171 175
0.17888995 0.18378341 0.71507579 164 173 175
0.17918085 0.18281917 0.71132410 167 176 177
0.17965625 0.18205504 0.70835096 167 177 177
0.17956713 0.18073307 0.70320731 166 174 174
0.18003553 0.17998624 0.70030147 162 171 172
0.18105890 0.17980050 0.69957876 154 162 164
0.18226807 0.17980050 0.69957876 147 155 160
0.18328808 0.17961513 0.69885755 149 157 165
0.18411638 0.17924555 0.69741958 150 157 171
0.18551266 0.17943016 0.69813782 146 151 167
0.18671934 0.17943016 0.69813782 145 150 165
0.18773268 0.17924555 0.69741958 150 154 168
0.18816377 0.17851093 0.69456130 157 159 168
0.18859135 0.17778233 0.69172639 162 163 172
0.30176127 0.15486816 0.60257053 158 162 165
0.24662797 0.12235019 0.47604764 172 180 181
0.24710372 0.12217859 0.47537997 171 180 180
0.24757814 0.12200747 0.47471419 169 178 179
0.24839865 0.12200747 0.47471419 169 178 179
0.24939381 0.12209298 0.47504684 172 180 181
0.25003967 0.12200747 0.47471419 174 180 182
0.25086015 0.12200747 0.47471419 174 180 181
0.25150454 0.12192210 0.47438198 172 179 178
0.25197181 0.12175170 0.47371897 174 180 180
0.25261408 0.12166667 0.47338817 176 182 182
1.05061340 0.42598209 1.65743732 166 170 169
1.05347812 0.42598209 1.65743732 167 173 173
1.08553827 0.43775547 1.70324588 165 171 171
1.09397960 0.43996635 1.71184814 143 152 151
1.09142613 0.43775547 1.70324588 137 146 145
1.11173236 0.43996635 1.71184814 161 173 172
1.23319805 0.44108018 1.71618187 176 186 185
1.22993684 0.43885812 1.70753610 173 183 181
1.25642467 0.40994513 1.59503961 155 164 165
1.25328374 0.40802500 1.58756876 160 168 170
1.25017214 0.40612277 1.58016741 164 173 175
1.23846900 0.40144396 1.56196272 165 173 176
1.22983384 0.39777780 1.54769826 167 176 178
1.22970140 0.39687169 1.54417276 169 178 179
1.27822912 0.40898281 1.59129536 167 176 177
1.26027083 0.40237108 1.56557012 166 175 176
1.24855936 0.39777780 1.54769826 164 173 174
1.25409758 0.39868805 1.55123997 165 171 173
1.26255715 0.40052110 1.55837202 164 170 171
1.26525056 0.40052110 1.55837202 164 170 171
1.26794410 0.40052110 1.55837202 163 170 171
1.25619864 0.39596972 1.54066324 164 171 171
1.26750362 0.39868805 1.55123997 165 171 171
1.25298142 0.39328820 1.53022993 166 171 171
0.60605735 0.15625711 0.60797477 156 169 169
0.60710818 0.15625711 0.60797477 159 172 172
0.60870492 0.15639737 0.60852051 162 173 174
-0.36384615 0.37239566 1.43926084 99 110 120
-0.35983059 0.37082106 1.43317509 95 105 120
-0.35811055 0.37160668 1.43621159 96 106 121
-0.35412765 0.37003872 1.43015158 98 108 121
-0.35314581 0.37160668 1.43621159 104 111 122
-0.35066342 0.37160668 1.43621159 110 116 125
-0.34744495 0.37082106 1.43317509 110 115 123
-0.34424004 0.37003872 1.43015158 108 111 119
-0.34104863 0.36925969 1.42714071 106 110 118
-0.33787063 0.36848393 1.42414248 107 111 121
0.06131021 0.51739931 1.99968100 136 138 153
0.06457601 0.51587754 1.99379957 135 137 150
0.06762434 0.51286072 1.98213995 142 146 156
0.07022892 0.50693166 1.95922494 147 152 160
0.07134702 0.49131194 1.89885676 148 153 163
0.07279390 0.47923049 1.85216355 148 155 169
0.07377785 0.46524763 1.79812157 148 155 171
0.07470600 0.45205763 1.74714386 150 158 173
0.10653262 0.21056226 0.81379575 168 175 181
0.10742336 0.20955598 0.80990660 169 175 182
0.10882322 0.20955598 0.80990660 169 177 183
0.11009154 0.20930591 0.80894017 171 179 185
0.11148973 0.20930591 0.80894017 170 178 184
0.11248523 0.20855929 0.80605453 170 176 182
0.11387843 0.20855929 0.80605453 178 184 189
0.11540885 0.20880757 0.80701411 172 178 183
0.11708248 0.20930591 0.80894017 165 170 175
0.11862222 0.20955598 0.80990660 163 168 175
0.12002208 0.20955598 0.80990660 143 147 155
0.12142194 0.20955598 0.80990660 136 136 145
0.12267523 0.20930591 0.80894017 139 138 147
0.12392554 0.20905644 0.80797595 151 150 158
0.12502402 0.20855929 0.80605453 157 157 160
0.22702821 0.29880470 1.15484130 142 143 148
0.22824658 0.29779008 1.15091991 128 127 138
0.22868283 0.29578137 1.14315653 113 111 128
0.22911322 0.29379958 1.13549721 119 117 136
0.23030430 0.29281864 1.13170588 122 122 144
0.23148745 0.29184419 1.12793982 134 136 156
0.23266275 0.29087621 1.12419879 146 149 167
0.17887092 0.18759182 0.72501802 163 171 175
0.17935675 0.18679272 0.72192955 165 173 177
0.17926815 0.18541053 0.71658754 166 174 177
0.17936906 0.18424197 0.71207124 166 175 177
0.17946872 0.18308805 0.70761150 166 175 175
0.17919536 0.18157180 0.70175141 165 171 172
0.17966433 0.18082304 0.69885755 164 170 172
0.18087225 0.18082304 0.69885755 163 170 171
0.18208016 0.18082304 0.69885755 164 169 172
0.18291095 0.18045099 0.69741958 164 170 174
0.18373832 0.18008044 0.69598752 161 167 172
0.18513134 0.18026553 0.69670284 160 164 172
0.18633553 0.18026553 0.69670284 155 159 168
0.18734719 0.18008044 0.69598752 155 159 167
0.18777898 0.17934392 0.69314092 156 159 167
0.18839911 0.17879547 0.69102126 158 161 169
0.24675764 0.12282798 0.47471419 168 174 175
0.24723189 0.12265620 0.47405025 168 173 175
0.24805124 0.12265620 0.47405025 168 172 174
0.24904475 0.12274203 0.47438198 168 172 175
0.24968995 0.12265620 0.47405025 169 173 176
0.25050932 0.12265620 0.47405025 170 174 177
0.25115302 0.12257048 0.47371897 170 174 177
0.25179586 0.12248489 0.47338817 169 173 176
0.25226176 0.12231406 0.47272792 171 175 178
1.03979933 0.42675999 1.64937186 149 152 151
1.04519308 0.42780086 1.65339470 154 160 158
1.04550087 0.42675999 1.64937186 156 162 160
1.04835165 0.42675999 1.64937186 162 171 170
1.06677592 0.43308237 1.67380702 155 164 163
1.08575416 0.43959486 1.69897699 139 148 147
1.08056617 0.43631431 1.68629813 139 148 147
1.07017016 0.43095419 1.66558194 149 158 157
1.08391738 0.43415436 1.67795014 160 169 168
1.09768581 0.43849590 1.69472957 160 170 169
1.10614574 0.44069940 1.70324588 162 172 171
1.22071230 0.43849590 1.69472957 168 177 176
1.21755373 0.43631431 1.68629813 165 174 172
1.25622571 0.41173324 1.59129536 167 176 175
1.25017214 0.40885398 1.58016741 169 178 177
1.23846900 0.40414369 1.56196272 170 179 178
1.23264813 0.40136924 1.55123997 171 180 179
1.23250890 0.40045288 1.54769826 170 179 180
1.23518395 0.40045288 1.54769826 170 179 179
1.27822912 0.41173324 1.59129536 169 178 179
1.26318824 0.40601471 1.56919408 173 180 181
1.25428665 0.40228981 1.55479777 167 173 175
1.26276648 0.40414369 1.56196272 164 170 172
1.27132487 0.40601471 1.56919408 161 167 169
1.27403712 0.40601471 1.56919408 158 164 166
1.27380073 0.40507704 1.56557012 158 163 166
1.26482236 0.40136924 1.55123997 159 163 166
1.26750362 0.40136924 1.55123997 160 163 166
1.25581622 0.39682886 1.53369200 161 164 165
0.60925186 0.15759061 0.60906726 158 169 169
0.60866398 0.15716699 0.60742998 158 167 167
0.60699433 0.15646598 0.60472065 157 166 167
-0.36462030 0.37568092 1.44232309 96 111 120
-0.36059293 0.37408906 1.43621159 92 107 119
-0.35887086 0.37488329 1.43926084 92 106 118
-0.35412765 0.37251064 1.43015158 88 100 112
-0.35314581 0.37408906 1.43621159 91 98 110
-0.35066342 0.37408906 1.43621159 101 109 116
-0.34744495 0.37329817 1.43317509 99 106 112
-0.34424004 0.37251064 1.43015158 105 109 117
-0.34104863 0.37172639 1.42714071 112 115 127
0.05768377 0.51932365 1.99379957 139 140 153
0.06059522 0.51478148 1.97636104 139 142 151
0.06382512 0.51328498 1.97061586 140 145 152
0.06723117 0.51328498 1.97061586 143 149 158
0.06922851 0.50304854 1.93131578 145 152 163
0.07094955 0.49183854 1.88827813 146 155 167
0.07279390 0.48243180 1.85216355 151 161 173
0.07397407 0.46960115 1.80290389 153 163 175
0.07607856 0.46343842 1.77924371 157 166 178
0.10768066 0.21146113 0.81184649 165 173 180
0.10895339 0.21120818 0.81087542 168 176 182
0.11022308 0.21095584 0.80990660 170 177 183
0.11148973 0.21070410 0.80894017 173 179 186
0.11261914 0.21020243 0.80701411 175 178 186
0.11387843 0.20995249 0.80605453 178 181 188
0.11554641 0.21045296 0.80797595 180 183 189
0.11722236 0.21095584 0.80990660 173 177 181
0.11890635 0.21146113 0.81184649 171 174 178
0.12030956 0.21146113 0.81184649 156 157 162
0.12156718 0.21120818 0.81087542 136 136 145
0.12267523 0.21070410 0.80894017 129 128 137
0.12392554 0.21045296 0.80797595 129 128 137
0.12517287 0.21020243 0.80701411 139 138 145
0.22902425 0.30080074 1.15484130 132 131 145
0.22945671 0.29876485 1.14702511 108 106 128
0.22949764 0.29625845 1.13740242 115 112 138
0.23030430 0.29477468 1.13170588 107 107 133
0.23148745 0.29379374 1.12793982 127 128 151
0.23266275 0.29281929 1.12419879 135 137 158
0.17954797 0.18824098 0.72269917 163 171 177
0.17926815 0.18664908 0.71658754 165 173 179
0.17936906 0.18547273 0.71207124 165 173 178
0.17890847 0.18373573 0.70540255 164 172 176
0.17882511 0.18240707 0.70030147 164 169 174
0.17947929 0.18184350 0.69813782 164 168 173
0.18068597 0.18184350 0.69813782 166 169 175
0.18189265 0.18184350 0.69813782 170 174 177
0.18253535 0.18128340 0.69598752 170 174 177
0.18336180 0.18091193 0.69456130 169 172 178
0.18475159 0.18109748 0.69527370 163 166 172
0.18595332 0.18109748 0.69527370 156 159 165
0.18696328 0.18091193 0.69456130 155 158 166
0.18739575 0.18017350 0.69172639 156 159 167
0.18820725 0.17980656 0.69031757 157 160 168
0.18920773 0.17962363 0.68961531 158 161 169
0.24658497 0.12356196 0.47438198 166 170 176
0.24705911 0.12338927 0.47371897 164 168 175
0.24787790 0.12338927 0.47371897 160 163 169
0.24887060 0.12347555 0.47405025 161 164 171
0.24951547 0.12338927 0.47371897 163 166 172
0.25033426 0.12338927 0.47371897 163 167 172
0.25097767 0.12330310 0.47338817 165 170 173
0.25191042 0.12295964 0.47206953 161 167 169
1.05753303 0.43813905 1.68211377 140 144 144
1.04488385 0.43171158 1.65743732 147 151 151
1.04519308 0.43065864 1.65339470 152 157 156
1.04550087 0.42961079 1.64937186 151 157 156
1.05090868 0.43065864 1.65339470 158 163 163
1.06414831 0.43490157 1.66968429 148 154 154
1.07765150 0.43922895 1.68629813 141 146 147
1.07521677 0.43705454 1.67795014 147 153 153
1.06493711 0.43171158 1.65743732 153 160 160
1.07304907 0.43383300 1.66558194 153 162 163
1.07592785 0.43383300 1.66558194 152 161 161
1.09222472 0.43922895 1.68629813 152 161 161
1.10614574 0.44364330 1.70324588 153 162 162
1.20862603 0.43705454 1.67795014 161 170 170
1.20853484 0.43597540 1.67380702 160 169 169
1.21442640 0.43705454 1.67795014 160 169 169
1.25309312 0.41254681 1.58385944 169 178 177
1.23562193 0.40590814 1.55837202 170 179 178
1.22703242 0.40220964 1.54417276 172 181 180
1.23250890 0.40312794 1.54769826 172 181 180
1.28320634 0.41254681 1.58385944 167 173 175
1.28594398 0.41254681 1.58385944 161 167 169
1.28268766 0.41062799 1.57649267 157 161 164
1.26193464 0.40312794 1.54769826 154 158 161
1.25886154 0.40129554 1.54066324 154 158 161
0.60979974 0.15878600 0.60961497 151 160 161
0.60975671 0.15850092 0.60852051 151 160 160
0.60862315 0.15793385 0.60634333 153 162 162
-0.36307532 0.37657145 1.43621159 96 114 119
-0.35983059 0.37577531 1.43317509 90 108 114
-0.35735345 0.37577531 1.43317509 87 103 113
-0.35338211 0.37419310 1.42714071 84 96 108
-0.35165572 0.37498254 1.43015158 86 92 108
-0.34918383 0.37498254 1.43015158 100 108 115
-0.34598202 0.37419310 1.42714071 109 117 123
0.06006983 0.51370442 1.95922494 141 149 155
0.06309150 0.51075208 1.94796503 144 152 158
0.06645840 0.51075208 1.94796503 145 153 161
0.06825619 0.49927449 1.90419054 144 153 163
0.07055647 0.49235934 1.87781680 150 163 176
0.07181285 0.47908819 1.82720172 157 171 182
0.07377785 0.47146344 1.79812157 159 172 181
0.07587940 0.46529245 1.77458596 164 173 182
0.07792664 0.45928094 1.75165856 166 176 183
0.11189029 0.21286434 0.81184649 175 180 187
0.11275337 0.21184948 0.80797595 176 179 187
0.11428610 0.21210229 0.80894017 176 179 186
0.11596105 0.21260971 0.81087542 176 179 185
0.11792683 0.21363187 0.81477386 176 179 185
0.11962265 0.21414664 0.81673717 173 175 178
0.12088867 0.21388896 0.81575429 161 162 164
0.12185871 0.21311957 0.81281996 144 148 151
0.12296871 0.21260971 0.81087542 136 137 145
0.12422165 0.21235570 0.80990660 131 131 142
0.12532206 0.21184948 0.80797595 123 126 137
0.22984561 0.30125716 1.14896917 129 127 147
0.22988336 0.29872558 1.13931406 111 108 136
0.23030430 0.29673076 1.13170588 102 102 129
0.23148745 0.29574329 1.12793982 108 111 133
0.17911038 0.18267392 0.69670284 163 168 173
0.18050008 0.18286185 0.69741958 162 170 174
0.18170550 0.18286185 0.69741958 164 171 177
0.18216130 0.18211241 0.69456130 165 171 177
0.18261339 0.18136910 0.69172639 166 170 175
0.18418486 0.18174000 0.69314092 166 169 176
0.18538290 0.18174000 0.69314092 162 165 173
0.18639036 0.18155436 0.69243294 155 157 165
0.18720473 0.18118422 0.69102126 155 157 165
0.18782473 0.18063183 0.68891448 155 157 166
0.18901545 0.18063183 0.68891448 160 160 171
0.24688658 0.12412132 0.47338817 168 171 178
0.24770480 0.12412132 0.47338817 159 162 170
0.24869668 0.12420805 0.47371897 160 163 171
0.24951547 0.12420805 0.47371897 161 165 172
0.25015944 0.12412132 0.47338817 162 166 173
1.04073846 0.43886843 1.67380702 139 139 146
1.03595781 0.43564147 1.66149962 144 144 151
1.08146095 0.45226902 1.72491562 148 151 154
1.05231071 0.43886843 1.67380702 150 153 155
1.04488385 0.43457633 1.65743732 153 157 158
1.04519308 0.43351638 1.65339470 154 158 159
1.04550087 0.43246159 1.64937186 153 157 158
1.04580712 0.43141195 1.64536858 151 155 157
1.06153369 0.43671185 1.66558194 146 150 153
1.07497740 0.44104645 1.68211377 142 147 149
1.07521677 0.43995476 1.67795014 147 152 155
1.06754720 0.43564147 1.66149962 151 156 159
1.07834804 0.43886843 1.67380702 146 154 158
1.08124101 0.43886843 1.67380702 146 154 158
1.09768581 0.44435430 1.69472957 147 155 159
1.11454678 0.44997904 1.71618187 149 157 160
1.20298064 0.44214359 1.68629813 164 168 169
1.21496212 0.44546798 1.69897699 164 167 173
1.21485388 0.44435430 1.69472957 161 164 170
1.21474624 0.44324619 1.69050336 159 165 169
1.21766818 0.44324619 1.69050336 158 167 170
1.21453249 0.44104645 1.68211377 159 168 171
1.22046840 0.44214359 1.68629813 162 170 173
1.22643387 0.44324619 1.69050336 166 175 177
1.25602770 0.41625696 1.58756876 169 178 177
1.23562193 0.40860164 1.55837202 170 179 178
1.22146761 0.40304244 1.53716969 172 181 180
1.22412443 0.40304244 1.53716969 172 181 180
1.25966132 0.40766451 1.55479777 172 177 179
1.25051439 0.40213057 1.53369200 155 159 162
0.61034858 0.15998355 0.61016369 147 156 157
0.60975671 0.15955271 0.60852051 149 158 159
0.60862315 0.15898186 0.60634333 153 162 163
-0.35831550 0.37665978 1.42714071 106 123 126
-0.35584879 0.37665978 1.42714071 92 105 114
-0.35190043 0.37508050 1.42115688 93 104 113
-0.35017818 0.37586850 1.42414248 100 108 118
-0.34844872 0.37665978 1.42714071 114 122 126
-0.34453136 0.37508050 1.42115688 125 134 137
0.06024395 0.51858956 1.96490383 145 153 161
0.06291072 0.51264584 1.94238353 147 157 162
0.06645840 0.51411897 1.94796503 149 158 166
0.06844846 0.50398141 1.90955448 148 156 168
0.07075246 0.49698168 1.88303292 157 166 180
0.07161980 0.48095000 1.82228994 167 176 187
0.07358266 0.47331586 1.79336464 168 177 187
0.07509308 0.46350622 1.75619650 169 178 184
0.07732721 0.45875230 1.73818421 170 178 184
0.11302279 0.21375556 0.80990660 173 177 184
0.11455952 0.21401124 0.81087542 174 178 185
0.11637868 0.21478200 0.81379575 172 175 181
0.11835358 0.21581833 0.81772238 172 175 177
0.11991160 0.21607898 0.81870997 169 171 173
0.12103432 0.21555832 0.81673717 162 163 165
0.12215164 0.21504015 0.81477386 146 150 152
0.12326360 0.21452446 0.81281996 141 142 148
0.12422165 0.21375556 0.80990660 139 139 148
0.12532206 0.21324600 0.80797595 133 134 145
0.22911322 0.29968745 1.13549721 131 135 144
0.23030430 0.29868680 1.13170588 119 123 137
0.18133239 0.18368933 0.69598752 170 177 181
0.18160310 0.18275118 0.69243294 170 178 183
0.18224147 0.18219288 0.69031757 168 175 179
0.18362162 0.18237859 0.69102126 166 172 177
0.18500458 0.18256469 0.69172639 163 167 174
0.18620017 0.18256469 0.69172639 156 158 164
0.18701410 0.18219288 0.69031757 154 155 162
0.18763404 0.18163797 0.68821508 153 153 162
0.18863206 0.18145375 0.68751711 149 149 158
0.18982036 0.18145375 0.68751711 156 156 165
0.24688658 0.12493952 0.47338817 170 174 178
0.24770480 0.12493952 0.47338817 166 169 173
0.24869668 0.12502684 0.47371897 166 170 174
0.24934122 0.12493952 0.47338817 166 171 175
0.25015944 0.12493952 0.47338817 165 170 174
0.25080252 0.12485234 0.47305781 165 170 173
1.06682086 0.45409492 1.72053766 141 145 148
1.04850519 0.44505820 1.68629813 143 144 146
1.04363155 0.44176149 1.67380702 145 146 148
1.06226182 0.44840452 1.69897699 143 147 148
1.07871604 0.45409492 1.72053766 147 151 152
1.06280756 0.44616809 1.69050336 151 155 156
1.05260468 0.44067341 1.66968429 153 157 158
1.05031657 0.43851325 1.66149962 154 158 159
1.04805088 0.43637416 1.65339470 154 158 159
1.04580712 0.43425584 1.64536858 155 159 160
1.06153369 0.43959066 1.66558194 156 160 161
1.07497740 0.44395384 1.68211377 155 160 161
1.07521677 0.44285494 1.67795014 157 166 167
1.07017016 0.43959066 1.66558194 158 167 168
1.07834804 0.44176149 1.67380702 155 163 167
1.08391738 0.44285494 1.67795014 154 162 166
1.10043693 0.44840452 1.69897699 153 161 165
1.11454678 0.45294532 1.71618187 151 159 163
1.12606549 0.45641175 1.72931588 146 154 158
1.19708812 0.44395384 1.68211377 163 168 171
1.20598054 0.44616809 1.69050336 162 167 170
1.21801472 0.44953117 1.70324588 161 166 169
1.22095871 0.44953117 1.70324588 161 165 168
1.22698545 0.45066348 1.70753610 162 167 171
1.22684658 0.44953117 1.70324588 162 170 174
1.22364151 0.44728351 1.69472957 162 170 174
1.22964478 0.44840452 1.69897699 162 170 172
1.25602770 0.41900092 1.58756876 168 177 177
1.23562193 0.41129518 1.55837202 170 179 178
1.22146761 0.40569931 1.53716969 171 180 179
1.22690654 0.40662137 1.54066324 172 181 180
1.25105321 0.40754762 1.54417276 175 180 180
1.24488151 0.40295810 1.52678347 157 159 163
1.24471700 0.40205258 1.52335250 152 154 158
0.61034858 0.16103816 0.61016369 153 163 163
-0.35584879 0.37912649 1.42714071 92 103 108
-0.35116422 0.37674704 1.41818380 101 111 117
0.06309150 0.51748586 1.94796503 149 155 162
0.06664992 0.51897717 1.95357883 155 162 169
0.06942630 0.51452881 1.93683386 160 168 175
0.07114772 0.50303096 1.89355266 165 172 180
0.07279390 0.49203575 1.85216355 170 177 184
0.07377785 0.47767925 1.79812157 173 179 185
0.07568128 0.47019604 1.76995254 174 179 184
0.11497210 0.21618858 0.81379575 171 174 181
0.11694022 0.21723171 0.81772238 165 167 170
0.11863980 0.21775705 0.81969994 172 173 175
0.12005659 0.21775705 0.81969994 160 161 163
0.12118032 0.21723171 0.81772238 156 160 161
0.12229863 0.21670888 0.81575429 148 152 155
0.12341157 0.21618858 0.81379575 141 145 149
0.12437025 0.21541278 0.81087542 142 145 151
0.12532206 0.21464252 0.80797595 144 144 151
0.18123285 0.18357296 0.69102126 174 179 184
0.18205607 0.18319947 0.68961531 173 179 182
0.18324801 0.18319947 0.68961531 169 175 178
0.18462779 0.18338603 0.69031757 166 172 174
0.18601036 0.18357296 0.69102126 164 168 171
0.18682384 0.18319947 0.68961531 148 152 155
0.18763404 0.18282749 0.68821508 144 148 152
0.18863206 0.18264207 0.68751711 140 141 148
0.18982036 0.18264207 0.68751711 141 141 150
0.24688658 0.12575774 0.47338817 174 180 180
0.24753194 0.12566999 0.47305781 172 178 180
0.24869668 0.12584563 0.47371897 173 178 181
0.24934122 0.12575774 0.47338817 173 179 181
0.25015944 0.12575774 0.47338817 170 176 178
0.25097767 0.12575774 0.47338817 167 175 175
0.25144470 0.12558234 0.47272792 166 174 174
0.25191042 0.12540744 0.47206953 163 172 171
1.04590344 0.44686124 1.68211377 142 144 147
1.04106104 0.44355932 1.66968429 142 143 147
1.05171824 0.44686124 1.68211377 140 144 146
1.07326806 0.45476031 1.71184814 144 150 150
1.06280756 0.44908997 1.69050336 150 155 155
1.05520368 0.44465452 1.67380702 154 158 159
1.05031657 0.44138500 1.66149962 157 161 162
1.04550087 0.43816322 1.64937186 161 165 166
1.04327488 0.43604136 1.64138460 165 169 170
1.05893195 0.44138500 1.66149962 168 172 174
1.07231665 0.44575515 1.67795014 167 171 173
1.07256198 0.44465452 1.67380702 169 175 177
1.07017016 0.44246948 1.66558194 167 174 176
1.07569194 0.44355932 1.66968429 163 171 174
1.07857788 0.44355932 1.66968429 160 168 172
1.09222472 0.44797283 1.68629813 159 168 172
1.10337341 0.45134106 1.69897699 160 170 173
1.11751306 0.45591161 1.71618187 156 166 169
1.21212697 0.45247507 1.70324588 170 179 180
1.21507084 0.45247507 1.70324588 170 179 180
1.22416639 0.45476031 1.71184814 170 179 178
1.23023176 0.45591161 1.71618187 169 178 177
1.23319805 0.45591161 1.71618187 168 177 177
1.23304272 0.45476031 1.71184814 168 177 178
1.23288822 0.45361480 1.70753610 166 175 176
1.23896027 0.45476031 1.71184814 163 172 172
1.24506319 0.45591161 1.71618187 165 174 174
1.25897622 0.42273495 1.59129536 171 176 177
1.24132919 0.41590089 1.56557012 173 179 178
1.22424364 0.40928426 1.54066324 171 178 176
1.22970140 0.41021660 1.54417276 168 176 175
1.24521267 0.40743232 1.53369200 174 178 177
1.24208403 0.40468559 1.52335250 169 170 172
1.23362815 0.40108037 1.50978136 156 157 159
0.60979974 0.16194701 0.60961497 162 172 170
0.60703218 0.16093394 0.60580146 163 173 171
0.06059522 0.52844536 1.97636104 152 160 168
0.06382512 0.52690917 1.97061586 160 165 173
0.06723117 0.52690917 1.97061586 163 168 176
0.07022892 0.52386349 1.95922494 168 174 181
0.07195166 0.51202476 1.91494870 173 176 184
0.07359825 0.50070930 1.87262940 174 177 185
0.07436965 0.48464376 1.81254506 173 176 184
0.07648002 0.47825003 1.78863287 172 175 181
0.07894663 0.47449413 1.77458596 172 175 181
0.11708145 0.21890913 0.81870997 160 161 165
0.11878344 0.21943918 0.82069230 165 166 170
0.12020194 0.21943918 0.82069230 151 153 156
0.12118032 0.21864507 0.81772238 149 153 156
0.12259368 0.21864507 0.81772238 143 145 151
0.12370860 0.21811885 0.81575429 141 143 150
0.12451919 0.21707396 0.81184649 142 145 151
0.12547161 0.21629685 0.80894017 146 147 154
0.18123285 0.18476734 0.69102126 174 179 186
0.18187106 0.18420403 0.68891448 174 179 186
0.18324801 0.18439141 0.68961531 171 176 183
0.18443996 0.18439141 0.68961531 169 174 179
0.18582094 0.18457919 0.69031757 170 175 178
0.18682384 0.18439141 0.68961531 143 146 150
0.18763404 0.18401702 0.68821508 128 131 140
0.18863206 0.18383038 0.68751711 132 135 146
0.18982036 0.18383038 0.68751711 128 129 144
0.19081517 0.18364413 0.68682051 141 141 154
0.19180794 0.18345827 0.68612534 142 142 154
0.24671429 0.12648763 0.47305781 172 178 180
0.24753194 0.12648763 0.47305781 171 177 179
0.24869668 0.12666440 0.47371897 171 177 179
0.24934122 0.12657595 0.47338817 173 179 181
0.25015944 0.12657595 0.47338817 174 180 182
0.25097767 0.12657595 0.47338817 172 180 180
0.25162014 0.12648763 0.47305781 170 179 178
0.25208595 0.12631133 0.47239849 169 178 177
1.03342485 0.44317058 1.65743732 137 142 141
1.05724907 0.45088747 1.68629813 141 147 148
1.04971874 0.44644523 1.66968429 151 157 157
1.05001843 0.44534832 1.66558194 159 165 165
1.04774857 0.44317058 1.65743732 161 166 167
1.04296327 0.43994361 1.64536858 161 165 166
1.03824711 0.43676329 1.63347435 163 167 168
1.05893195 0.44425678 1.66149962 164 168 171
1.07231665 0.44865537 1.67795014 165 169 172
1.07256198 0.44754755 1.67380702 166 170 173
1.07017016 0.44534832 1.66558194 166 170 173
1.07569194 0.44644523 1.66968429 164 170 173
1.07857788 0.44644523 1.66968429 162 170 174
1.08681762 0.44865537 1.67795014 162 170 175
1.09787035 0.45201188 1.69050336 162 172 177
1.11188328 0.45656615 1.70753610 163 173 178
1.21222878 0.45656615 1.70753610 173 182 183
1.21212697 0.45541900 1.70324588 175 184 184
1.21507084 0.45541900 1.70324588 176 185 184
1.22108281 0.45656615 1.70753610 177 186 185
1.23023176 0.45887789 1.71618187 178 186 185
1.23319805 0.45887789 1.71618187 177 186 184
1.22993684 0.45656615 1.70753610 174 183 182
1.22979045 0.45541900 1.70324588 169 178 178
1.23583949 0.45656615 1.70753610 167 175 174
1.23879087 0.45656615 1.70753610 167 174 174
1.25897622 0.42548537 1.59129536 172 176 175
1.24420261 0.41957584 1.56919408 171 176 175
1.22703242 0.41288558 1.54417276 168 174 172
1.24256182 0.41008317 1.53369200 169 176 175
1.23960364 0.40823594 1.52678347 172 180 177
1.23390532 0.40549612 1.51653659 168 176 173
1.22828305 0.40279281 1.50642633 172 177 176
0.60284382 0.16198102 0.60580146 170 176 174
0.60660136 0.16270804 0.60852051 170 176 174
0.60925186 0.16285424 0.60906726 169 178 175
0.60379463 0.16111712 0.60257053 168 177 174
0.60215986 0.16040422 0.59990430 169 176 174
0.06077240 0.53341651 1.98213995 167 175 183
0.06401120 0.53186136 1.97636104 169 174 182
0.06723117 0.53031522 1.97061586 175 178 185
0.07063723 0.53031522 1.97061586 173 176 184
0.07256663 0.51973915 1.93131578 173 176 184
0.07421328 0.50815725 1.88827813 173 176 183
0.07683494 0.50394601 1.87262940 171 174 181
0.07978204 0.48261493 1.79336464 173 176 180
0.11736494 0.22085768 0.82069230 153 158 160
0.11892742 0.22112538 0.82168710 146 150 155
0.12020194 0.22085768 0.82069230 143 147 152
0.12132667 0.22032420 0.81870997 134 137 144
0.12274174 0.22032420 0.81870997 127 129 137
0.12400705 0.22005844 0.81772238 135 137 145
0.12496818 0.21926495 0.81477386 139 143 150
0.12577178 0.21821584 0.81087542 148 152 159
0.18306179 0.18539476 0.68891448 170 175 182
0.18443996 0.18558337 0.68961531 168 172 177
0.18563190 0.18558337 0.68961531 163 166 172
0.18663399 0.18539476 0.68891448 150 153 159
0.18763404 0.18520655 0.68821508 128 129 139
0.18863206 0.18501870 0.68751711 130 131 142
0.18962805 0.18483125 0.68682051 131 130 144
0.19062203 0.18464418 0.68612534 134 135 146
0.19161400 0.18445748 0.68543160 139 140 151
0.19182891 0.18352962 0.68198377 138 138 149
0.24641253 0.12757234 0.47405025 167 176 177
0.24705911 0.12748319 0.47371897 166 175 176
0.24770480 0.12739417 0.47338817 167 176 177
0.24887060 0.12757234 0.47405025 169 178 179
0.24951547 0.12748319 0.47371897 168 177 178
0.25033426 0.12748319 0.47371897 170 179 180
0.25115302 0.12748319 0.47371897 172 181 182
1.05724907 0.45380211 1.68629813 143 150 152
1.04971874 0.44933113 1.66968429 149 156 157
1.04744482 0.44712853 1.66149962 157 163 165
1.04519308 0.44494742 1.65339470 155 161 163
1.04296327 0.44278750 1.64536858 155 161 163
1.04075491 0.44064841 1.63741994 156 162 164
1.06153369 0.44822714 1.66558194 158 162 165
1.07231665 0.45155555 1.67795014 159 163 166
1.07521677 0.45155555 1.67795014 160 164 167
1.07545495 0.45044062 1.67380702 162 166 169
1.08101726 0.45155555 1.67795014 162 168 171
1.08391738 0.45155555 1.67795014 162 170 174
1.08951437 0.45267603 1.68211377 162 171 175
1.10337341 0.45721415 1.69897699 161 171 175
1.11469114 0.46067789 1.71184814 159 169 174
1.12332320 0.46301636 1.72053766 155 165 169
1.13784885 0.46776524 1.73818421 162 172 175
1.21222878 0.45951748 1.70753610 171 181 182
1.21212697 0.45836294 1.70324588 173 183 183
1.20899546 0.45607111 1.69472957 175 184 184
1.21496212 0.45721415 1.69897699 179 187 187
1.22712517 0.46067789 1.71184814 184 190 188
1.23008394 0.46067789 1.71184814 183 189 187
1.22684658 0.45836294 1.70324588 180 186 185
1.22059000 0.45493376 1.69050336 175 181 181
1.22964478 0.45721415 1.69897699 170 176 176
1.23258138 0.45721415 1.69897699 163 169 171
1.23846900 0.42034203 1.56196272 165 172 171
1.22146761 0.41366994 1.53716969 161 169 168
1.24256182 0.41273403 1.53369200 158 167 166
1.24240184 0.41180235 1.53022993 166 175 172
1.23945105 0.40995157 1.52335250 161 170 167
1.23929906 0.40903237 1.51993692 167 173 171
1.23638189 0.40720636 1.51315141 171 175 174
0.60134250 0.16375983 0.60852051 161 168 172
0.60293549 0.16390696 0.60906726 163 171 175
0.60449785 0.16375983 0.60852051 168 176 176
0.60554957 0.16375983 0.60852051 169 177 176
0.60823935 0.16420202 0.61016369 169 177 176
0.60984290 0.16434994 0.61071336 170 177 175
0.61034858 0.16420202 0.61016369 170 177 175
0.60594916 0.16273724 0.60472065 169 176 174
0.06077240 0.53684247 1.98213995 172 176 179
0.06382512 0.53372127 1.97061586 175 179 183
0.06723117 0.53372127 1.97061586 174 178 182
0.07022892 0.53063619 1.95922494 175 178 184
0.11750720 0.22254561 0.82168710 141 147 152
0.11907174 0.22281569 0.82268429 134 139 147
0.12020194 0.22227618 0.82069230 133 136 147
0.12147337 0.22200741 0.81969994 124 126 138
0.12303894 0.22227618 0.82069230 121 123 135
0.12430695 0.22200741 0.81969994 130 132 144
0.12542042 0.22147180 0.81772238 137 140 149
0.12622474 0.22040831 0.81379575 140 147 154
0.18725382 0.18601836 0.68682051 136 135 144
0.18825021 0.18583009 0.68612534 129 128 137
0.18943612 0.18583009 0.68612534 128 128 138
0.19042929 0.18564218 0.68543160 131 131 141
0.19142045 0.18545467 0.68473923 136 136 147
0.19163612 0.18452273 0.68129832 145 147 157
0.24658497 0.12848154 0.47438198 167 175 178
0.24705911 0.12830198 0.47371897 167 175 178
0.24770480 0.12821238 0.47338817 169 178 180
0.24869668 0.12830198 0.47371897 170 179 181
0.24951547 0.12830198 0.47371897 170 179 181
0.25015944 0.12821238 0.47338817 172 180 182
0.25097767 0.12821238 0.47338817 172 181 183
1.04201913 0.44890007 1.65743732 153 162 163
1.03979933 0.44671562 1.64937186 158 164 166
1.03760087 0.44455236 1.64138460 152 158 160
1.03542376 0.44240993 1.63347435 152 158 160
1.03326750 0.44028807 1.62563992 154 160 162
1.06966889 0.45333365 1.67380702 157 163 165
1.07256198 0.45333365 1.67380702 159 164 167
1.07280612 0.45221704 1.66968429 161 167 169
1.07834804 0.45333365 1.67380702 163 169 171
1.08124101 0.45333365 1.67380702 162 171 173
1.08951437 0.45558342 1.68211377 164 173 175
1.21540034 0.46481043 1.71618187 168 179 179
1.21222878 0.46246883 1.70753610 169 180 180
1.20908904 0.46015069 1.69897699 171 182 182
1.20298064 0.45671672 1.68629813 173 183 182
1.20589519 0.45671672 1.68629813 176 186 185
1.21789861 0.46015069 1.69897699 179 185 184
1.22390258 0.46130684 1.70324588 180 184 183
1.22071230 0.45900032 1.69472957 181 186 184
1.21755373 0.45671672 1.68629813 180 185 184
1.22046840 0.45671672 1.68629813 174 179 178
1.22338295 0.45671672 1.68629813 170 176 178
1.22325468 0.45558342 1.68211377 162 168 170
1.23227763 0.45785567 1.69050336 157 162 166
1.25390947 0.41917837 1.54769826 158 167 166
1.25372219 0.41822353 1.54417276 172 179 177
1.25639117 0.41822353 1.54417276 175 181 179
1.25906014 0.41822353 1.54417276 175 179 178
1.25886154 0.41727301 1.54066324 178 179 179
1.25015938 0.41351378 1.52678347 175 177 177
0.60188276 0.16495968 0.60906726 162 172 175
0.60402089 0.16525663 0.61016369 162 172 175
0.60562062 0.16540551 0.61071336 162 172 175
0.60504097 0.16495968 0.60906726 163 173 175
0.60609365 0.16495968 0.60906726 164 174 174
0.60933626 0.16555467 0.61126405 165 176 175
0.61094368 0.16570409 0.61181575 167 176 175
0.61034858 0.16525663 0.61016369 168 176 174
0.60757512 0.16422194 0.60634333 168 176 174
-0.00022359 0.13496844 0.49517301 157 163 171
0.00063459 0.13546321 0.49698815 161 169 173
0.00149141 0.13526486 0.49626049 168 175 179
0.00498073 0.13686800 0.50214213 176 177 185
0.06077240 0.54026842 1.98213995 174 178 181
0.06382512 0.53712732 1.97061586 174 177 182
0.06684256 0.53402257 1.95922494 174 175 182
0.07002652 0.53248358 1.95357883 173 174 182
0.07769343 0.51612234 1.89355266 154 158 161
0.08217333 0.50346541 1.84711671 146 150 153
0.08288173 0.48881429 1.79336464 139 143 147
0.11764980 0.22423764 0.82268429 133 137 150
0.11921643 0.22451009 0.82368392 128 132 146
0.12034763 0.22396582 0.82168710 115 119 133
0.12162044 0.22369468 0.82069230 106 109 126
0.12318808 0.22396582 0.82168710 116 119 133
0.12460829 0.22396582 0.82168710 127 129 142
0.12572373 0.22342420 0.81969994 132 134 147
0.12683378 0.22288518 0.81772238 146 150 159
0.18744373 0.18739533 0.68751711 138 139 147
0.18844093 0.18720548 0.68682051 132 132 141
0.18943612 0.18701600 0.68612534 121 121 131
0.19042929 0.18682690 0.68543160 132 134 144
0.19142045 0.18663819 0.68473923 142 145 155
0.19182891 0.18588713 0.68198377 154 157 166
0.19300766 0.18588713 0.68198377 162 168 175
0.19477426 0.18644986 0.68404830 166 174 180
0.24688658 0.12903059 0.47338817 170 178 182
0.24770480 0.12903059 0.47338817 171 179 183
0.24852301 0.12903059 0.47338817 171 179 183
0.24916722 0.12894055 0.47305781 170 178 182
0.24998486 0.12894055 0.47305781 170 178 182
0.25080252 0.12894055 0.47305781 171 179 183
1.03694844 0.44956642 1.64937186 147 156 159
1.02977717 0.44523326 1.63347435 148 155 159
1.02764797 0.44309786 1.62563992 146 151 155
1.02309728 0.43993288 1.61402822 145 151 154
1.01861119 0.43681279 1.60258114 150 156 158
1.03359866 0.44203782 1.62175083 156 162 165
1.21233118 0.46659547 1.71184814 167 178 178
1.20918298 0.46425077 1.70324588 168 179 179
1.20908904 0.46308723 1.69897699 170 181 181
1.19999552 0.45849082 1.68211377 172 181 182
1.19992542 0.45735595 1.67795014 172 182 182
1.20880985 0.45963135 1.68629813 173 182 181
1.21778309 0.46192950 1.69472957 175 182 180
1.21463907 0.45963135 1.68629813 177 183 182
1.21152627 0.45735595 1.67795014 180 185 183
1.21743989 0.45849082 1.68211377 175 181 179
1.21732664 0.45735595 1.67795014 171 177 175
1.21721399 0.45622668 1.67380702 164 170 168
1.22312701 0.45735595 1.67795014 156 162 163
1.25966132 0.42378855 1.55479777 168 173 173
1.25945997 0.42281878 1.55123997 176 181 181
1.25925958 0.42185342 1.54769826 179 185 183
1.26482236 0.42281878 1.55123997 176 182 180
1.26172912 0.42089251 1.54417276 176 180 179
1.25298142 0.41709211 1.53022993 176 179 178
1.24161255 0.41243708 1.51315141 172 175 175
0.60191166 0.16631125 0.61016369 160 165 170
0.60242403 0.16616170 0.60961497 161 167 171
0.60456508 0.16646108 0.61071336 161 169 173
0.60507554 0.16631125 0.61016369 161 169 173
0.60449785 0.16586338 0.60852051 161 170 173
0.61043715 0.16691220 0.61236840 163 172 175
0.61149561 0.16691220 0.61236840 165 173 175
0.61034858 0.16631125 0.61016369 167 175 174
0.60433185 0.16438773 0.60310662 166 174 173
-0.00364706 0.13582431 0.49517301 169 174 180
-0.00279323 0.13592359 0.49553499 167 172 179
-0.00193391 0.13572517 0.49481156 169 174 183
-0.00107788 0.13562618 0.49445066 169 173 180
-0.00022310 0.13552733 0.49409026 170 174 180
0.00148814 0.13582431 0.49517301 170 175 178
0.00234230 0.13572517 0.49481156 171 175 179
0.00409764 0.13722767 0.50028920 173 173 182
0.00496602 0.13732901 0.50065869 180 180 189
0.06077240 0.54369438 1.98213995 171 176 180
0.06382512 0.54053336 1.97061586 168 173 179
0.06684256 0.53740895 1.95922494 169 174 181
0.06982530 0.53432035 1.94796503 165 168 176
0.07215548 0.52675211 1.92037344 158 159 167
0.07791106 0.52085012 1.89885676 143 146 150
0.08051647 0.51650971 1.88303292 137 139 148
0.08239784 0.50804234 1.85216355 131 133 145
0.11779276 0.22593376 0.82368392 123 125 140
0.11921643 0.22593376 0.82368392 119 122 139
0.12049369 0.22565956 0.82268429 113 116 135
0.12191563 0.22565956 0.82268429 111 114 133
0.12348744 0.22593376 0.82368392 112 114 133
0.12475952 0.22565956 0.82268429 123 124 143
0.12602851 0.22538604 0.82168710 131 133 146
0.19062203 0.18820190 0.68612534 139 142 152
0.19161400 0.18801162 0.68543160 161 164 174
0.19182891 0.18706588 0.68198377 166 169 176
0.19320202 0.18725426 0.68267053 170 173 180
0.19497100 0.18782170 0.68473923 171 176 183
0.24705911 0.12993954 0.47371897 171 181 184
0.24770480 0.12984881 0.47338817 174 184 187
0.24869668 0.12993954 0.47371897 173 181 185
0.24934122 0.12984881 0.47338817 172 180 184
0.25033426 0.12993954 0.47371897 171 178 181
0.25097767 0.12984881 0.47338817 169 175 178
1.02238631 0.44484088 1.62175083 122 127 138
1.02030754 0.44272259 1.61402822 129 133 143
1.01824844 0.44062439 1.60637879 140 144 152
1.01381779 0.43751410 1.59503961 144 148 154
1.20632613 0.46837151 1.70753610 163 171 170
1.20927751 0.46837151 1.70753610 164 173 172
1.20615244 0.46602377 1.69897699 168 177 176
1.20606625 0.46485871 1.69472957 170 179 178
1.19702518 0.46025616 1.67795014 171 181 180
1.19696271 0.45911971 1.67380702 172 181 181
1.20282567 0.46025616 1.67795014 173 181 180
1.21172452 0.46254599 1.68629813 173 180 180
1.21162510 0.46139824 1.68211377 173 180 180
1.20853484 0.45911971 1.67380702 176 180 179
1.21442640 0.46025616 1.67795014 176 180 179
1.21432090 0.45911971 1.67380702 174 179 177
1.21421587 0.45798889 1.66968429 169 174 172
1.26193464 0.42452851 1.54769826 172 176 177
1.25298142 0.41973698 1.53022993 168 172 173
0.60737860 0.16888601 0.61570555 159 164 169
0.60789067 0.16873275 0.61514688 158 163 168
0.61061621 0.16919334 0.61682606 158 163 168
0.60781091 0.16812250 0.61292207 160 166 170
0.60667622 0.16751665 0.61071336 163 168 173
0.60937876 0.16797063 0.61236840 163 169 172
0.61376381 0.16888601 0.61570555 160 167 169
0.61427009 0.16873275 0.61514688 159 166 168
0.61200118 0.16781904 0.61181575 163 169 170
-0.01223253 0.13698035 0.49626049 198 202 205
-0.01139146 0.13718121 0.49698815 199 203 205
-0.01053246 0.13718121 0.49698815 199 203 206
-0.00964517 0.13678010 0.49553499 199 203 206
-0.00879511 0.13688016 0.49589747 199 203 206
-0.00793219 0.13678010 0.49553499 198 202 205
-0.00708087 0.13688016 0.49589747 200 204 206
-0.00621466 0.13668019 0.49517301 194 198 199
-0.00535097 0.13648079 0.49445066 186 190 193
-0.00449964 0.13658041 0.49481156 181 186 191
-0.00364440 0.13658041 0.49481156 174 179 185
-0.00278915 0.13658041 0.49481156 176 181 188
-0.00193250 0.13648079 0.49445066 175 180 187
-0.00107710 0.13638131 0.49409026 176 180 187
-0.00022294 0.13628198 0.49373040 176 179 187
0.00063181 0.13658041 0.49481156 175 179 182
0.00148814 0.13668019 0.49517301 174 175 181
0.00234230 0.13658041 0.49481156 175 175 182
0.00320221 0.13678010 0.49553499 177 177 184
0.00408558 0.13768592 0.49881667 178 178 187
0.00495504 0.13788885 0.49955183 182 182 190
0.00581847 0.13788885 0.49955183 184 184 192
0.00668684 0.13799053 0.49992025 183 184 191
0.06077240 0.54712039 1.98213995 164 169 176
0.06382512 0.54393947 1.97061586 164 168 176
0.06703630 0.54236281 1.96490383 163 167 174
0.07002652 0.53923678 1.95357883 156 156 165
0.07812991 0.52560443 1.90419054 133 133 143
0.08172794 0.50708717 1.83710527 130 130 145
0.11793605 0.22763403 0.82468593 121 124 142
0.11936146 0.22763403 0.82468593 120 123 142
0.12049369 0.22708151 0.82268429 118 121 140
0.12191563 0.22708151 0.82268429 116 119 138
0.12363767 0.22763403 0.82468593 115 117 135
0.12475952 0.22708151 0.82268429 121 124 140
0.12602851 0.22680627 0.82168710 133 137 149
0.19180794 0.18938783 0.68612534 161 164 172
0.19202209 0.18843421 0.68267053 168 172 175
0.19339679 0.18862416 0.68335873 171 175 178
0.24723189 0.13084976 0.47405025 176 185 186
0.24787790 0.13075833 0.47371897 177 185 187
0.24887060 0.13084976 0.47405025 176 185 186
0.24968995 0.13084976 0.47405025 172 181 182
1.01143789 0.43923748 1.59129536 129 133 140
1.20632613 0.47132283 1.70753610 157 163 163
1.20927751 0.47132283 1.70753610 166 172 172
1.20615244 0.46896031 1.69897699 169 175 175
1.20606625 0.46778792 1.69472957 171 177 177
1.19406962 0.46201277 1.67380702 174 180 180
1.19401443 0.46087480 1.66968429 175 181 181
1.20282567 0.46315634 1.67795014 174 180 180
1.20871770 0.46430564 1.68211377 174 180 180
1.21162510 0.46430564 1.68211377 174 180 180
1.21152627 0.46315634 1.67795014 175 180 179
1.21442640 0.46315634 1.67795014 175 179 178
1.21432090 0.46201277 1.67380702 176 180 179
0.61639166 0.17277485 0.62593889 157 164 167
0.61126494 0.17103763 0.61964518 158 163 168
0.61177677 0.17088144 0.61907929 152 157 162
0.61228758 0.17072552 0.61851448 154 157 163
0.61112624 0.17010470 0.61626530 156 159 165
0.61108035 0.16979598 0.61514688 157 160 166
0.61381459 0.17025948 0.61682606 157 162 166
0.61544073 0.17041454 0.61738783 157 162 166
0.61538690 0.17010470 0.61626530 155 161 165
0.61366272 0.16933499 0.61347675 157 162 166
-0.01222358 0.13773727 0.49589747 199 203 205
-0.01139146 0.13804021 0.49698815 199 203 204
-0.01052474 0.13793908 0.49662405 199 203 204
-0.00963812 0.13753605 0.49517301 199 203 204
-0.00878868 0.13763659 0.49553499 199 203 205
-0.00793219 0.13763659 0.49553499 198 202 204
-0.00708087 0.13773727 0.49589747 199 203 204
-0.00621466 0.13753605 0.49517301 190 194 195
-0.00535097 0.13733540 0.49445066 186 190 192
-0.00449964 0.13743566 0.49481156 180 184 189
-0.00364440 0.13743566 0.49481156 175 179 184
-0.00279119 0.13753605 0.49517301 177 180 186
-0.00193250 0.13733540 0.49445066 179 182 188
-0.00107788 0.13733540 0.49445066 177 180 186
-0.00022310 0.13723531 0.49409026 177 180 186
0.00063181 0.13743566 0.49481156 176 179 185
0.00148814 0.13753605 0.49517301 177 178 185
0.00234401 0.13753605 0.49517301 178 178 185
0.00320690 0.13783811 0.49626049 177 177 184
0.00409160 0.13875228 0.49955183 181 181 187
0.00495869 0.13885461 0.49992025 179 180 185
0.00580991 0.13854809 0.49881667 179 180 184
0.00666227 0.13834448 0.49808365 178 178 183
0.06112989 0.55378485 1.99379957 160 164 171
0.06419837 0.55054635 1.98213995 159 162 170
0.06723117 0.54734552 1.97061586 156 156 165
0.07063723 0.54734552 1.97061586 150 150 159
0.07677973 0.54261339 1.95357883 131 133 141
0.07901775 0.53490585 1.92582905 128 131 141
0.08172794 0.51026249 1.83710527 124 126 139
0.11636908 0.22878110 0.82368392 119 122 141
0.11836806 0.22989847 0.82770675 121 124 143
0.11950684 0.22933842 0.82569045 121 124 143
0.12078686 0.22905943 0.82468593 121 124 143
0.12206377 0.22878110 0.82368392 117 123 139
0.12378826 0.22933842 0.82569045 116 122 137
0.12491111 0.22878110 0.82368392 119 126 139
0.12602851 0.22822648 0.82168710 123 130 141
0.12714052 0.22767454 0.81969994 128 135 145
0.19200228 0.19076681 0.68682051 155 158 166
0.19240962 0.18999682 0.68404830 158 164 170
0.19339679 0.18980528 0.68335873 160 167 172
0.24757814 0.13185354 0.47471419 178 184 186
0.24921915 0.13185354 0.47471419 179 185 186
0.25039035 0.13203846 0.47537997 180 186 186
0.25121200 0.13203846 0.47537997 178 183 184
0.25168067 0.13185354 0.47471419 172 176 177
1.00906920 0.44095281 1.58756876 124 128 136
1.19727874 0.47071713 1.69472957 150 153 152
1.20321596 0.47189686 1.69897699 159 162 161
1.20313704 0.47071713 1.69472957 165 170 170
1.20305860 0.46954328 1.69050336 171 177 177
1.19406962 0.46490580 1.67380702 175 181 180
1.19401443 0.46376070 1.66968429 177 183 181
1.20282567 0.46605656 1.67795014 175 181 179
1.21172452 0.46837524 1.68629813 174 180 179
1.21463907 0.46837524 1.68629813 174 180 179
1.21453249 0.46721303 1.68211377 175 179 178
1.22046840 0.46837524 1.68629813 175 179 178
1.22034729 0.46721303 1.68211377 175 179 178
0.62097877 0.17515056 0.63059705 153 161 163
0.61855543 0.17385674 0.62593889 150 155 160
0.61396819 0.17226610 0.62021214 148 153 158
0.61223942 0.17148165 0.61738783 149 153 159
0.61330652 0.17148165 0.61738783 149 154 159
0.61421859 0.17054968 0.61403245 152 160 165
-0.01137478 0.13869585 0.49626049 199 203 205
-0.01051704 0.13869585 0.49626049 202 206 208
-0.00963109 0.13829090 0.49481156 199 203 205
-0.00878226 0.13839191 0.49517301 199 203 205
-0.00792639 0.13839191 0.49517301 199 203 205
-0.00707569 0.13849308 0.49553499 198 202 203
-0.00621466 0.13839191 0.49517301 189 193 194
-0.00535097 0.13819003 0.49445066 184 188 189
-0.00449964 0.13829090 0.49481156 178 182 185
-0.00364174 0.13819003 0.49445066 176 179 183
-0.00278915 0.13829090 0.49481156 177 180 186
-0.00193250 0.13819003 0.49445066 177 180 186
-0.00107788 0.13819003 0.49445066 177 180 185
-0.00022310 0.13808931 0.49409026 177 180 185
0.00063181 0.13829090 0.49481156 177 180 185
0.00148814 0.13839191 0.49517301 177 179 184
0.00234230 0.13829090 0.49481156 177 179 184
0.00320221 0.13849308 0.49553499 175 176 181
0.00407359 0.13900112 0.49735278 178 179 182
0.00494411 0.13930774 0.49844989 173 174 176
0.00578861 0.13889922 0.49698815 177 178 180
0.00662818 0.13849308 0.49553499 173 173 175
0.00751764 0.13910317 0.49771795 173 173 175
0.00843364 0.14002848 0.50102872 172 172 174
0.00927905 0.13971868 0.49992025 168 168 172
0.01011329 0.13930774 0.49844989 159 160 165
0.06723117 0.55075157 1.97061586 144 144 153
0.07063723 0.55075157 1.97061586 140 140 149
0.07361528 0.54756802 1.95922494 129 130 139
0.07992600 0.54442108 1.94796503 123 130 142
0.08119308 0.53069615 1.89885676 120 127 140
0.11466676 0.22964670 0.82168710 119 122 139
0.11651065 0.23048483 0.82468593 114 117 136
0.11836806 0.23132910 0.82770675 117 124 142
0.11965258 0.23104699 0.82669735 123 131 148
0.12093398 0.23076557 0.82569045 117 128 140
0.12221226 0.23048483 0.82468593 122 129 141
0.12363767 0.23048483 0.82468593 115 122 133
0.12491111 0.23020478 0.82368392 119 125 137
0.12618147 0.22992539 0.82268429 120 125 137
0.12714052 0.22909133 0.81969994 123 127 140
0.24792539 0.13286012 0.47537997 175 179 181
0.25156483 0.13304672 0.47604764 174 179 180
0.25221053 0.13295336 0.47571358 174 178 179
1.19423676 0.47128987 1.68629813 153 154 153
1.19418073 0.47012043 1.68211377 157 159 159
1.19708812 0.47012043 1.68211377 160 163 162
1.19112861 0.46664664 1.66968429 164 168 167
1.19401443 0.46664664 1.66968429 173 176 176
1.19985569 0.46779883 1.67380702 175 179 178
1.20871770 0.47012043 1.68211377 176 180 179
1.21463907 0.47128987 1.68629813 173 178 176
1.21152627 0.46895677 1.67795014 171 176 175
1.21743989 0.47012043 1.68211377 172 176 176
1.21732664 0.46895677 1.67795014 172 176 176
0.62563467 0.17756188 0.63532507 147 155 161
0.62439203 0.17689872 0.63295221 146 154 158
0.62084848 0.17558715 0.62825936 142 150 154
0.61735713 0.17429487 0.62363553 141 149 153
0.61447799 0.17317964 0.61964518 145 153 157
0.61589217 0.17207859 0.61570555 150 159 164
0.61250585 0.17083727 0.61126405 151 159 165
-0.01298571 0.13843879 0.49229619 199 203 206
-0.01217016 0.13884211 0.49373040 199 203 206
-0.01134157 0.13914613 0.49481156 199 203 205
-0.01049399 0.13924778 0.49517301 201 205 207
-0.00961705 0.13894330 0.49409026 200 204 206
-0.00877585 0.13914613 0.49481156 199 203 206
-0.00792061 0.13914613 0.49481156 199 203 204
-0.00707052 0.13924778 0.49517301 194 198 199
-0.00620559 0.13904464 0.49445066 186 190 191
-0.00535097 0.13904464 0.49445066 182 186 187
-0.00449636 0.13904464 0.49445066 167 171 172
-0.00364174 0.13904464 0.49445066 172 176 178
-0.00278915 0.13914613 0.49481156 176 180 183
-0.00193250 0.13904464 0.49445066 176 180 183
-0.00107710 0.13894330 0.49409026 176 180 183
-0.00022310 0.13894330 0.49409026 176 180 183
0.00063181 0.13914613 0.49481156 176 180 183
0.00148814 0.13924778 0.49517301 176 180 183
0.00234230 0.13914613 0.49481156 175 179 182
0.00319987 0.13924778 0.49517301 174 175 177
0.00406167 0.13945150 0.49589747 169 170 172
0.00492600 0.13965583 0.49662405 164 165 167
0.00577591 0.13945150 0.49589747 162 162 164
0.00662334 0.13924778 0.49517301 152 152 156
0.00835950 0.13965583 0.49662405 158 157 162
0.00920438 0.13945150 0.49589747 157 157 163
