ply
format ascii 1.0
element vertex 1055
property float x
property float y
property float z
property uchar red
property uchar green
property uchar blue
end_header
0.58991997 -0.30983210 0.85028829 171 173 175
0.59002787 -0.28982934 0.84560261 163 163 164
0.59188914 -0.26137013 0.83960016 172 174 175
0.58951322 -0.27122558 0.84181132 170 170 171
0.59004293 -0.24947073 0.83734767 171 172 176
0.59002947 -0.22960316 0.83392336 167 168 170
0.59005910 -0.21017979 0.83115534 166 167 170
0.58992228 -0.19027132 0.82866263 163 164 167
0.58997185 -0.16972560 0.82629449 162 164 167
0.58999878 -0.15008337 0.82420836 161 162 165
0.59000460 -0.13057446 0.82229327 154 154 156
0.59181378 -0.10331246 0.81973151 156 157 158
0.58930164 -0.11299537 0.82070905 148 148 152
0.59000173 -0.09045052 0.81863440 158 158 159
0.58999273 -0.07043425 0.81679801 165 165 167
0.59002589 -0.05051079 0.81502783 159 159 162
0.58998136 -0.02990468 0.81335033 160 161 162
0.58996918 -0.00939051 0.81188020 160 162 163
0.59001394 0.00994310 0.81066251 151 151 153
0.58993561 0.02976868 0.80950037 152 152 154
0.59004999 0.04996041 0.80836845 149 150 153
0.59002786 0.06990268 0.80725784 150 151 152
0.59001513 0.09031962 0.80614909 141 141 142
0.59002464 0.11003788 0.80508034 153 152 154
0.58995606 0.13037303 0.80397985 159 159 161
0.58997957 0.15003767 0.80291730 169 170 170
0.58998660 0.17013814 0.80188890 164 164 165
0.58999210 0.18985531 0.80097992 161 161 162
0.59081751 0.21650614 0.79985890 157 157 158
0.58962587 0.20646649 0.80027598 161 160 162
0.59000880 0.23013862 0.79931201 158 159 160
0.59004076 0.25025856 0.79854557 154 154 155
0.58986026 0.26987008 0.79785066 146 146 148
0.59005668 0.29031287 0.79718443 147 147 147
0.59011609 0.31019356 0.79658750 144 145 146
0.58990211 0.32979966 0.79604613 139 140 143
0.59002458 0.35007591 0.79554382 89 90 105
0.58996677 0.36999859 0.79520610 42 43 45
0.58992745 0.38992227 0.79495749 0 0 0
0.59028456 0.41028799 0.79470873 0 0 0
0.59007912 0.43005527 0.79443210 0 0 0
0.58989455 0.44570688 0.79418359 0 0 0
0.61544240 -0.64148879 0.96827555 162 165 166
0.61139798 -0.64496168 0.99000567 165 168 168
0.61337196 -0.62067626 0.92480478 164 172 175
0.60791747 -0.63106026 0.95252413 160 165 165
0.61587056 -0.62021051 0.97960460 169 178 177
0.60938652 -0.63081510 0.98731241 162 165 165
0.60593988 -0.61047544 0.90725638 151 159 161
0.61045191 -0.60946674 0.97316272 172 178 178
0.60239386 -0.61767176 0.98125034 173 182 180
0.61181693 -0.58535407 0.95650014 166 170 170
0.60823685 -0.59434447 0.96322829 173 175 176
0.61896587 -0.56062037 0.93933555 173 179 181
0.60993510 -0.57009285 0.94756751 176 178 179
0.61058000 -0.54861455 0.93516797 174 177 178
0.60503516 -0.55756939 0.94139757 173 179 179
0.61858569 -0.52015472 0.91946429 173 172 172
0.60997020 -0.52996796 0.92606431 171 172 173
0.61074160 -0.50835265 0.91597352 174 174 174
0.60566530 -0.51720255 0.92109714 172 175 176
0.61003907 -0.49006192 0.90823196 175 176 176
0.61110502 -0.46573539 0.89765572 176 178 179
0.60855646 -0.47517501 0.90204185 178 179 179
0.61018302 -0.45002518 0.89154678 173 175 176
0.61770924 -0.42013318 0.87973920 168 171 173
0.60978621 -0.43006340 0.88409526 173 174 176
0.61038055 -0.40906910 0.87674390 173 175 177
0.60437370 -0.41850408 0.88047035 173 174 176
0.60973436 -0.38999079 0.87076497 173 174 175
0.61026712 -0.37024656 0.86485616 172 174 175
0.61076586 -0.34657579 0.85829225 177 178 179
0.60871118 -0.35635895 0.86106421 172 173 174
0.60981576 -0.33018459 0.85422201 177 178 180
0.61003532 -0.30991295 0.84914247 171 172 174
0.60982635 -0.28968378 0.84453834 163 164 165
0.61094720 -0.26404315 0.83933774 168 169 172
0.60977056 -0.27345938 0.84125208 173 174 175
0.60985307 -0.25019145 0.83681688 168 170 174
0.61019886 -0.22976445 0.83337234 167 170 174
0.60996388 -0.21004821 0.83057297 165 166 168
0.60997810 -0.19007146 0.82810336 162 164 166
0.60999069 -0.16951713 0.82576606 161 162 165
0.60998199 -0.14980557 0.82365058 158 159 161
0.61001937 -0.13026845 0.82174552 153 154 157
0.61063277 -0.10582653 0.81947820 155 154 157
0.60906981 -0.11569636 0.82041690 152 152 155
0.61002843 -0.09006044 0.81808074 161 162 163
0.61001108 -0.07017541 0.81630652 165 165 166
0.61000689 -0.05041310 0.81462746 155 154 157
0.60999564 -0.03010279 0.81306278 157 158 161
0.61005730 -0.00965461 0.81162723 159 160 162
0.60992617 0.01024589 0.81036168 158 159 161
0.60999717 0.02953093 0.80922177 152 152 154
0.61000696 0.04985824 0.80809881 151 152 154
0.60998111 0.07010035 0.80700048 151 151 153
0.61004321 0.08995124 0.80594735 142 143 145
0.60997682 0.11034168 0.80488364 149 151 152
0.60999835 0.13001014 0.80386892 156 157 158
0.60992827 0.15028185 0.80279343 169 170 171
0.60999667 0.16995115 0.80178901 162 163 164
0.60999064 0.18999190 0.80086509 157 159 161
0.61023471 0.21526603 0.79980954 154 155 158
0.60980115 0.20495263 0.80022786 161 161 162
0.61003045 0.23040785 0.79921142 159 161 163
0.60998204 0.24990570 0.79848248 149 149 149
0.60999827 0.26998921 0.79778381 148 149 149
0.60999265 0.29029234 0.79712805 150 151 152
0.61002639 0.30990469 0.79654251 148 149 150
0.60995890 0.32989479 0.79599512 144 144 145
0.61011383 0.35019339 0.79548966 140 141 144
0.60982398 0.36995470 0.79511183 72 73 73
0.60977958 0.38965899 0.79488445 0 0 0
0.61015093 0.41025388 0.79464261 0 0 0
0.60994653 0.43002514 0.79437640 0 0 0
0.60992151 0.44575431 0.79413433 0 0 0
0.63561815 -0.64660386 0.96841681 168 174 176
0.63037894 -0.64850570 0.99255236 168 173 173
0.62499986 -0.63715958 0.95330454 165 172 173
0.63248919 -0.62358217 0.97752552 169 175 175
0.62901931 -0.63289626 0.98512552 168 174 174
0.63776619 -0.60057416 0.95906246 164 172 171
0.62988807 -0.61014843 0.96837524 169 173 175
0.63034532 -0.58902284 0.95352937 170 174 176
0.62474766 -0.59860568 0.96122544 167 173 173
0.63212328 -0.56341678 0.93804305 173 181 181
0.62922256 -0.57284933 0.94411817 175 179 181
0.62992009 -0.55002959 0.93136340 171 175 175
0.63229736 -0.52394985 0.91829106 170 170 170
0.62884367 -0.53307304 0.92313630 171 172 172
0.62990417 -0.51000602 0.91265824 172 173 173
0.63799041 -0.48121089 0.89954488 170 175 177
0.62971895 -0.49023654 0.90454143 176 178 178
0.63041775 -0.46927855 0.89618083 168 172 173
0.62436916 -0.47815789 0.90053005 175 177 178
0.62986166 -0.44993935 0.88911976 170 172 173
0.63269213 -0.42262831 0.87928041 171 172 177
0.62960071 -0.43197419 0.88274781 170 171 173
0.62978381 -0.41021756 0.87546634 173 176 179
0.63014504 -0.39003459 0.86924347 171 173 175
0.63006298 -0.36979333 0.86341539 173 174 176
0.63049946 -0.34855028 0.85761385 176 179 181
0.62645887 -0.35811719 0.86043061 172 174 176
0.62999833 -0.32997113 0.85290569 176 178 181
0.62985278 -0.30987515 0.84798524 170 171 174
0.63013871 -0.29007515 0.84370849 166 167 168
0.63064022 -0.26590512 0.83900611 169 169 173
0.62930695 -0.27581636 0.84091019 167 169 171
0.62995566 -0.25051683 0.83629550 166 170 172
0.63002747 -0.23012000 0.83299412 154 154 159
0.62996665 -0.20993432 0.83015363 145 144 150
0.63004863 -0.18997734 0.82767839 163 164 167
0.62986322 -0.16969780 0.82540201 158 160 161
0.63015825 -0.15010869 0.82328541 161 163 165
0.62998850 -0.13033841 0.82133923 158 159 162
0.63040161 -0.10822843 0.81928827 153 153 156
0.62830331 -0.11798910 0.82019794 152 152 156
0.63003535 -0.09019593 0.81771560 156 157 159
0.62998461 -0.07022148 0.81594674 165 166 168
0.62997087 -0.05030867 0.81429507 158 159 162
0.62998875 -0.02975325 0.81278005 150 150 152
0.63001423 -0.00954176 0.81138038 159 161 163
0.63003695 0.00991195 0.81013677 163 165 166
0.62994553 0.02980190 0.80896158 151 150 151
0.62998767 0.04975891 0.80787666 152 153 153
0.62999994 0.06996248 0.80681128 149 149 150
0.63002025 0.09024470 0.80575573 151 151 152
0.63001220 0.10999306 0.80473912 146 145 148
0.62996416 0.13034007 0.80372647 161 161 162
0.62997048 0.14996109 0.80272281 166 166 167
0.62999056 0.17013033 0.80170307 164 165 166
0.62999794 0.18981235 0.80079852 161 160 161
0.63019448 0.21438636 0.79977936 160 160 160
0.62977008 0.20423328 0.80018914 158 158 158
0.63000676 0.23011555 0.79916704 157 159 160
0.63001803 0.25021539 0.79842107 153 151 153
0.62994388 0.26969741 0.79774593 150 150 152
0.62993608 0.29027654 0.79708466 147 148 150
0.63015911 0.31002424 0.79649589 143 144 146
0.62986233 0.32965093 0.79595633 143 143 145
0.63001897 0.35017588 0.79544986 140 139 141
0.63010051 0.37008408 0.79504262 89 89 89
0.63021601 0.38974440 0.79483138 0 0 0
0.63003604 0.41023415 0.79460438 0 0 0
0.62982495 0.43000444 0.79433817 0 0 0
0.62978065 0.44558781 0.79410010 0 0 0
0.65153329 -0.66255580 0.99774092 164 168 171
0.64906616 -0.65111857 0.96765870 163 173 174
0.65004045 -0.65007188 0.99116327 167 171 172
0.65068183 -0.62678338 0.97499083 168 172 174
0.64829036 -0.63646274 0.98263819 166 172 173
0.65203869 -0.60330712 0.95787318 162 166 169
0.64934618 -0.61290917 0.96528712 167 171 173
0.64980207 -0.59012857 0.95035075 162 166 168
0.65057197 -0.56643492 0.93651236 171 176 177
0.64890498 -0.57604135 0.94217339 155 159 161
0.65003837 -0.54988466 0.92781849 158 161 162
0.65060864 -0.52729127 0.91660893 170 173 174
0.64813571 -0.53686348 0.92148795 166 169 170
0.65001801 -0.50980169 0.90898617 174 175 177
0.65148503 -0.48382452 0.89863336 165 166 167
0.64902838 -0.49330320 0.90249719 171 173 175
0.65018921 -0.47001912 0.89402423 162 164 166
0.64982051 -0.44982491 0.88700236 166 170 171
0.65080294 -0.42445296 0.87837183 172 175 178
0.64932352 -0.43423672 0.88173649 167 169 171
0.65006821 -0.40980648 0.87376622 173 176 178
0.64992168 -0.38977712 0.86785967 170 171 173
0.65229947 -0.36123703 0.85976596 174 176 178
0.64962243 -0.37051188 0.86243643 174 176 177
0.65002919 -0.34993933 0.85685538 176 178 181
0.65020267 -0.32976558 0.85166729 172 175 176
0.65009507 -0.31005616 0.84698319 169 172 175
0.65002924 -0.29032026 0.84285493 162 164 166
0.65051018 -0.26780349 0.83868400 170 170 172
0.64840616 -0.27761882 0.84049299 166 168 170
0.64994533 -0.25031578 0.83575656 170 172 175
0.65001646 -0.22996417 0.83257450 144 146 151
0.64999790 -0.20979646 0.82979475 116 116 124
0.65004863 -0.18987570 0.82731457 164 166 168
0.64996805 -0.17014437 0.82507137 157 158 158
0.64992973 -0.15055413 0.82296822 161 163 165
0.65794017 -0.12089381 0.81996623 160 161 165
0.64985644 -0.13048222 0.82100398 155 156 159
0.65019718 -0.10996254 0.81907110 152 153 155
0.64384262 -0.11949049 0.82006177 162 163 166
0.64999584 -0.09028187 0.81737329 151 152 153
0.64998173 -0.07037106 0.81564749 163 163 166
0.65005371 -0.05054344 0.81403608 163 164 166
0.65005042 -0.03001028 0.81253398 155 156 158
0.64995150 -0.00942868 0.81112448 161 163 163
0.65000701 0.01018959 0.80988285 163 163 165
0.65002938 0.02946368 0.80875397 157 158 160
0.64992473 0.04998890 0.80764479 155 155 157
0.64995550 0.06993582 0.80660695 151 152 155
0.65005801 0.08994398 0.80558550 148 149 150
0.65000624 0.11028739 0.80455646 149 149 152
0.64998051 0.12996188 0.80359931 158 158 160
0.64995663 0.15025548 0.80259323 165 165 166
0.65000775 0.16988523 0.80162926 162 163 165
0.65001640 0.18995775 0.80072102 163 163 165
0.65019146 0.21367892 0.79975269 160 162 164
0.64970658 0.20337973 0.80016375 158 160 160
0.65000683 0.23037831 0.79910882 160 161 163
0.64998062 0.24987977 0.79839132 153 154 156
0.65001236 0.26999154 0.79770018 153 154 156
0.64988433 0.29026388 0.79704989 140 140 141
0.65009151 0.31001020 0.79645981 146 146 148
0.65006528 0.32991215 0.79590830 144 145 147
0.64992204 0.35015836 0.79541004 133 134 137
0.64996852 0.36973963 0.79500076 116 116 116
0.65011371 0.38973095 0.79480392 0 0 0
0.64992994 0.41022117 0.79457926 0 0 0
0.65010771 0.43014690 0.79430299 0 0 0
0.65019156 0.44563764 0.79406018 0 0 0
0.67033669 -0.66394666 0.99617965 170 178 178
0.67185430 -0.67292305 1.00495707 169 177 178
0.67572202 -0.64114206 0.97899060 171 178 178
0.66961132 -0.65033410 0.98737683 170 177 177
0.67025662 -0.62956431 0.97224207 167 172 173
0.66317429 -0.63870323 0.98070149 170 173 174
0.67057406 -0.60579574 0.95644533 158 163 163
0.66898290 -0.61550054 0.96273845 161 167 167
0.67002319 -0.58986743 0.94712740 161 165 165
0.67046778 -0.56877357 0.93474581 169 172 174
0.66583168 -0.57811322 0.94094097 146 150 152
0.67720571 -0.54121505 0.91937298 171 178 179
0.66981780 -0.55045067 0.92515772 172 175 176
0.67011357 -0.52955158 0.91485483 159 162 165
0.66372675 -0.53935046 0.92035553 174 176 177
0.67015703 -0.50996657 0.90626108 170 174 175
0.67061645 -0.48703079 0.89758263 161 163 164
0.66819159 -0.49668182 0.90119450 162 164 166
0.67007668 -0.46995953 0.89190404 165 167 169
0.67013740 -0.45013884 0.88525658 165 168 170
0.67054293 -0.42735044 0.87767693 170 172 174
0.66842993 -0.43712201 0.88106641 164 169 171
0.66994460 -0.40995277 0.87238297 171 175 176
0.67017379 -0.39004684 0.86666742 171 173 175
0.67166290 -0.36331342 0.85916263 173 177 179
0.66936574 -0.37317630 0.86203913 174 176 177
0.67006967 -0.35029575 0.85575918 176 177 180
0.66988837 -0.32994012 0.85064793 170 171 174
0.67017344 -0.30993232 0.84608728 169 171 173
0.67001157 -0.29011157 0.84206585 163 163 167
0.67030733 -0.26949268 0.83836993 170 171 172
0.66455762 -0.27895997 0.84015797 166 166 166
0.66995562 -0.25016965 0.83521677 169 169 172
0.66995115 -0.22986290 0.83218432 168 171 173
0.67003664 -0.20981166 0.82948478 153 155 158
0.67001892 -0.18983342 0.82700460 162 163 164
0.66989411 -0.17011042 0.82475607 166 167 169
0.66996254 -0.15046741 0.82261286 158 159 161
0.67180980 -0.12190480 0.81983296 161 162 164
0.66961685 -0.13173331 0.82078526 157 159 161
0.67001212 -0.10999162 0.81875134 160 161 162
0.66996530 -0.08994413 0.81702611 152 153 153
0.66999993 -0.07002976 0.81534961 156 157 159
0.67004748 -0.05021844 0.81375833 161 163 164
0.67002120 -0.02991028 0.81227707 159 161 163
0.67003754 -0.00969310 0.81091460 158 159 161
0.66997451 0.01007103 0.80967554 156 157 160
0.66998935 0.02977815 0.80853384 158 160 162
0.66998433 0.04965599 0.80745156 158 158 160
0.66995518 0.07004406 0.80639660 153 153 154
0.67001948 0.09014778 0.80540476 137 134 137
0.67003838 0.10996114 0.80442472 151 151 153
0.66997791 0.13029066 0.80345576 149 149 152
0.66997352 0.14991085 0.80250414 162 162 164
0.66999150 0.17012067 0.80153646 162 162 163
0.67003209 0.18978257 0.80067276 162 164 166
0.67010298 0.21309193 0.79972979 156 159 162
0.66982982 0.20289711 0.80013124 152 154 155
0.66999060 0.23009024 0.79907908 155 158 159
0.67002764 0.25018245 0.79835064 156 157 157
0.66996549 0.26964275 0.79768106 154 155 156
0.66997309 0.29036621 0.79701129 151 152 154
0.67002058 0.30999547 0.79642195 144 144 145
0.66996584 0.32955887 0.79588003 149 150 151
0.66996284 0.35025410 0.79536372 139 140 141
0.67015337 0.36987767 0.79494663 135 136 137
0.67000624 0.38971538 0.79477206 0 0 0
0.66981813 0.41020549 0.79454889 0 0 0
0.66996545 0.42980561 0.79427225 0 0 0
0.67005673 0.44561394 0.79401798 0 0 0
0.69223382 -0.66616634 0.99305019 165 170 172
0.68695483 -0.67541543 1.00494460 169 177 177
0.69142147 -0.64347993 0.97761707 170 174 176
0.68940559 -0.65315075 0.98452712 163 169 170
0.68995750 -0.62978817 0.96850903 167 171 172
0.69063924 -0.60837561 0.95471793 161 164 164
0.68699599 -0.61787160 0.96133013 162 164 165
0.69275997 -0.58213508 0.93868441 164 165 166
0.68929520 -0.59174753 0.94481083 163 165 166
0.68984888 -0.56974601 0.93223566 167 171 173
0.69148520 -0.54319027 0.91852951 168 173 174
0.68959472 -0.55292373 0.92347869 172 176 177
0.68992284 -0.53004128 0.91265340 165 167 169
0.69868388 -0.50126400 0.89981765 161 165 166
0.68986405 -0.51000280 0.90400004 167 171 172
0.69039435 -0.48963572 0.89659750 159 163 164
0.68546244 -0.49900088 0.90022414 165 171 170
0.69002114 -0.46972373 0.89003629 164 166 167
0.68996222 -0.44959019 0.88354741 161 165 165
0.69032419 -0.42893580 0.87675439 171 174 176
0.68395785 -0.43850064 0.88036313 164 164 165
0.68998962 -0.40994692 0.87100112 167 169 171
0.68999614 -0.39016238 0.86551552 170 173 175
0.69084537 -0.36506368 0.85844743 177 181 182
0.68926032 -0.37501615 0.86136729 175 177 179
0.69000873 -0.34971527 0.85441617 172 174 175
0.69005298 -0.33017316 0.84970026 170 173 175
0.69002364 -0.31021969 0.84538631 170 172 173
0.69172433 -0.28120534 0.83977389 167 172 174
0.68971802 -0.29107900 0.84164625 169 170 172
0.69002173 -0.26983400 0.83788068 168 171 173
0.69001688 -0.25000689 0.83469963 168 169 170
0.68979581 -0.22980305 0.83176929 168 171 173
0.69016587 -0.20973079 0.82910558 171 171 175
0.68995901 -0.18978686 0.82667648 165 165 166
0.68997276 -0.17003748 0.82444165 164 165 167
0.69002506 -0.15030449 0.82230666 160 160 163
0.69108279 -0.12355932 0.81969723 158 160 162
0.68951707 -0.13337971 0.82064118 162 164 166
0.68999556 -0.11006883 0.81848470 158 160 164
0.68998997 -0.09008874 0.81674516 154 155 157
0.69000953 -0.07018346 0.81510060 156 158 160
0.68999087 -0.05032755 0.81353310 165 166 170
0.68995974 -0.02980440 0.81205196 162 164 166
0.68999556 -0.00937673 0.81069447 156 155 157
0.68995145 0.00995266 0.80949122 158 158 161
0.69008399 0.02946212 0.80836193 159 160 162
0.68997420 0.04998479 0.80724532 162 162 163
0.69000057 0.06986370 0.80621795 154 155 156
0.69000695 0.09000625 0.80523787 144 144 146
0.69003366 0.11023099 0.80426565 149 150 150
0.69000118 0.12992902 0.80335097 149 150 151
0.68996662 0.15022277 0.80239537 158 160 162
0.69001707 0.16982945 0.80148539 162 161 164
0.69000880 0.18996188 0.80060983 161 162 164
0.69011984 0.21239135 0.79970671 158 160 164
0.68971849 0.20210936 0.80011013 150 150 152
0.69003744 0.23033002 0.79902961 157 160 161
0.68999207 0.24986854 0.79832514 155 157 157
0.69002908 0.26997298 0.79763137 147 147 148
0.68990686 0.29012731 0.79698153 152 154 154
0.68994472 0.30997935 0.79638058 150 152 154
0.69015429 0.32970955 0.79582865 142 143 144
0.68984457 0.35000793 0.79532158 142 145 147
0.69002570 0.36985044 0.79488822 141 141 143
0.68987360 0.38968657 0.79471304 7 6 7
0.69015458 0.41033497 0.79449744 0 0 0
0.69012866 0.42993837 0.79421619 0 0 0
0.68990753 0.44558236 0.79396172 0 0 0
0.70884410 -0.66342649 0.98619655 158 161 162
0.71102543 -0.64695953 0.97573966 167 169 171
0.70824690 -0.65616545 0.98227378 166 168 170
0.71372208 -0.62167679 0.95907031 153 161 160
0.70956216 -0.63098470 0.96564571 165 169 170
0.71013013 -0.61001327 0.95248103 159 161 162
0.71110348 -0.58466652 0.93735874 168 169 169
0.70896294 -0.59434918 0.94326823 167 170 170
0.70994431 -0.56998649 0.92968598 170 173 174
0.71057764 -0.54550431 0.91753250 172 174 175
0.70941601 -0.55522557 0.92227922 173 176 178
0.71027877 -0.52983826 0.91050053 158 161 161
0.71172936 -0.50201358 0.89909270 159 164 164
0.70942068 -0.51176917 0.90295333 153 156 159
0.70977342 -0.48983740 0.89517633 159 163 165
0.71026935 -0.47029988 0.88870733 163 166 167
0.71415315 -0.44172004 0.87946932 156 158 160
0.70960873 -0.45136258 0.88286512 160 163 164
0.70984051 -0.43030117 0.87571412 170 173 175
0.71006624 -0.40997080 0.86968817 169 171 174
0.70979910 -0.38971916 0.86418623 172 175 176
0.71039897 -0.36762062 0.85790032 177 180 182
0.70903646 -0.37721845 0.86074859 174 176 178
0.71015002 -0.34976755 0.85331819 171 174 174
0.71007758 -0.32980945 0.84876506 168 171 172
0.71003764 -0.30993515 0.84465532 168 171 173
0.71075624 -0.28247465 0.83949972 172 174 176
0.70969749 -0.29244472 0.84132414 168 171 173
0.71001598 -0.26963030 0.83734663 165 167 169
0.71005805 -0.24993916 0.83426438 167 169 171
0.70990005 -0.23037217 0.83147147 169 171 173
0.71007549 -0.21029403 0.82882970 171 172 175
0.70992914 -0.18961739 0.82632929 163 165 167
0.71007495 -0.16986729 0.82410084 161 161 164
0.70998050 -0.15031739 0.82202596 163 164 167
0.71052544 -0.12497740 0.81954267 163 166 167
0.70949415 -0.13492415 0.82050455 160 164 167
0.70999782 -0.11009645 0.81819224 160 161 163
0.70998942 -0.09013276 0.81644305 158 159 161
0.70998855 -0.07023658 0.81482243 151 151 151
0.70997600 -0.05048890 0.81331497 162 163 164
0.71003471 -0.03007600 0.81186368 163 163 164
0.71003470 -0.00960379 0.81050954 159 159 159
0.70993619 0.01023085 0.80929415 157 158 161
0.71004380 0.02969314 0.80817206 158 158 160
0.71004376 0.04961590 0.80708875 159 160 162
0.70991307 0.07008524 0.80603561 154 155 157
0.70999672 0.09002516 0.80507083 146 147 150
0.71005016 0.10993845 0.80412923 142 140 142
0.71002777 0.13024994 0.80320390 149 148 148
0.70998204 0.14987321 0.80231590 148 149 151
0.70996539 0.17012669 0.80140973 155 156 157
0.71001059 0.18972422 0.80055678 162 163 165
0.71021461 0.21155084 0.79967881 157 160 162
0.70901673 0.20133643 0.80008038 163 166 168
0.71001173 0.23008973 0.79898935 156 157 159
0.71002439 0.25014106 0.79827429 155 155 154
0.70996991 0.26960821 0.79760238 149 150 153
0.71003638 0.29039731 0.79692830 150 150 150
0.70985696 0.30995894 0.79632820 146 149 149
0.71004774 0.32968555 0.79577072 142 145 147
0.71014644 0.35020238 0.79525689 141 143 145
0.70989538 0.36982343 0.79483017 133 134 139
0.70972314 0.38964957 0.79463739 25 25 25
0.70998973 0.40998716 0.79443532 0 0 0
0.70996902 0.42989941 0.79414423 0 0 0
0.71013150 0.44564497 0.79388664 0 0 0
0.73238741 -0.66056588 0.97918858 162 166 168
0.72442603 -0.66197057 0.98195693 159 164 165
0.73050898 -0.64972471 0.97340728 165 168 169
0.72327136 -0.65897333 0.98059657 161 164 166
0.73166776 -0.62391167 0.95732188 162 166 167
0.72922575 -0.63348733 0.96373423 165 169 170
0.73009281 -0.60979458 0.94902658 164 168 169
0.73068600 -0.58704423 0.93606052 170 172 172
0.72876813 -0.59689095 0.94177087 168 170 171
0.72992830 -0.56994398 0.92724761 173 174 176
0.73029669 -0.54752553 0.91642583 164 169 171
0.72903187 -0.55740449 0.92120951 170 175 178
0.73019989 -0.53005107 0.90881428 160 162 163
0.73041482 -0.50389439 0.89863891 157 163 163
0.72981794 -0.51387596 0.90243600 149 151 153
0.73030666 -0.48993701 0.89379698 158 162 164
0.73004006 -0.46964333 0.88707396 161 163 164
0.73150691 -0.44299782 0.87860626 165 168 172
0.72942888 -0.45278604 0.88203875 160 162 163
0.72992307 -0.42952610 0.87408017 169 172 175
0.72982231 -0.40993701 0.86846363 169 172 176
0.73976958 -0.38093156 0.85989606 176 178 180
0.73020006 -0.39025692 0.86311812 175 177 179
0.73043406 -0.36953011 0.85721569 172 176 177
0.72503658 -0.37914752 0.86034429 171 179 178
0.72985788 -0.35033001 0.85248956 168 171 172
0.73011759 -0.33018386 0.84808102 168 170 171
0.73001324 -0.30974225 0.84399976 168 171 172
0.73052201 -0.28381366 0.83924429 166 167 169
0.72951895 -0.29377554 0.84101017 170 171 172
0.73002754 -0.26953424 0.83687771 167 169 170
0.73005363 -0.24980816 0.83385435 168 170 173
0.73000605 -0.23023140 0.83107559 168 171 172
0.72998434 -0.21022585 0.82849005 166 171 173
0.73001094 -0.18962482 0.82603384 166 168 170
0.73002243 -0.16986762 0.82380392 164 166 168
0.72991856 -0.15032949 0.82174095 163 164 168
0.73027484 -0.12628410 0.81939876 161 162 165
0.72951628 -0.13640216 0.82037094 163 164 166
0.73004123 -0.10992233 0.81789112 159 160 162
0.72998255 -0.08988022 0.81612703 155 156 159
0.72996410 -0.06999425 0.81453231 154 155 158
0.72995707 -0.05015873 0.81306537 157 159 160
0.73005522 -0.02972326 0.81163113 160 160 161
0.72997174 -0.00956774 0.81031146 160 160 161
0.73005388 0.00989818 0.80913750 160 162 165
0.72995272 0.02965750 0.80801286 157 159 161
0.73000062 0.04994759 0.80691865 161 163 165
0.72997216 0.06976487 0.80590331 158 159 161
0.72994090 0.09007667 0.80491159 149 151 151
0.73002873 0.11016702 0.80397189 148 151 151
0.73002106 0.12988507 0.80307881 149 150 151
0.72999940 0.15018452 0.80219035 142 143 145
0.72997408 0.16977038 0.80135112 147 149 150
0.72997671 0.18995618 0.80048451 161 163 165
0.73016177 0.21084668 0.79965017 157 159 162
0.72884239 0.20070496 0.80004531 161 166 166
0.72999841 0.23030177 0.79893144 152 153 155
0.72998220 0.24985912 0.79824235 155 156 156
0.73003495 0.26992845 0.79756001 150 152 154
0.72996541 0.29003468 0.79690639 149 151 150
0.72998424 0.31008090 0.79628801 144 145 146
0.72995481 0.32966898 0.79573078 142 146 148
0.73002519 0.34995702 0.79521665 143 145 146
0.73002105 0.36995147 0.79477493 138 139 141
0.73024335 0.38960593 0.79454836 42 42 42
0.73006578 0.41010545 0.79435516 0 0 0
0.72979941 0.42985670 0.79406534 0 0 0
0.72993579 0.44539270 0.79381183 0 0 0
0.74959432 -0.64872044 0.96834087 163 169 169
0.75071438 -0.62727041 0.95569600 166 172 172
0.74816700 -0.63688075 0.96194679 163 168 169
0.75890397 -0.60145629 0.93972114 175 176 176
0.74986217 -0.61011037 0.94587414 168 171 171
0.75033338 -0.58954885 0.93464942 171 172 173
0.74332087 -0.59873926 0.94055596 168 170 171
0.75504396 -0.56103369 0.91978400 171 175 176
0.74963279 -0.57035515 0.92492347 171 175 176
0.75035343 -0.54966835 0.91514714 164 171 171
0.74167068 -0.55883474 0.92035156 169 174 177
0.74980082 -0.52975481 0.90684768 162 166 167
0.75081090 -0.50585834 0.89773938 160 165 166
0.74930840 -0.51579159 0.90151843 161 166 167
0.74986948 -0.48987369 0.89223375 157 158 162
0.75017434 -0.47022901 0.88567524 161 163 164
0.75109926 -0.44631020 0.87820132 167 171 173
0.74871747 -0.45592442 0.88136054 159 162 164
0.74977714 -0.43016108 0.87312782 168 172 174
0.75020856 -0.40997538 0.86717250 170 172 175
0.75246295 -0.38213744 0.85936000 176 179 183
0.74936125 -0.39192866 0.86228587 175 177 180
0.75007147 -0.36968983 0.85618380 170 173 175
0.74992689 -0.34998208 0.85152762 162 163 166
0.75004325 -0.32994751 0.84728814 167 171 173
0.74984090 -0.30954817 0.84331741 170 173 174
0.75003377 -0.28567231 0.83902893 169 170 172
0.74943699 -0.29539909 0.84070845 169 170 172
0.75021726 -0.26967160 0.83643368 167 169 171
0.75006433 -0.24963773 0.83341661 173 176 178
0.75004213 -0.23018039 0.83069538 173 176 177
0.74992190 -0.21011504 0.82813856 169 172 174
0.74993893 -0.18969945 0.82572429 166 169 171
0.75003759 -0.17000203 0.82353198 165 167 169
0.74997294 -0.15018114 0.82147313 164 166 169
0.75015472 -0.12749030 0.81929500 159 160 162
0.74960103 -0.13754170 0.82023842 159 159 161
0.75003145 -0.10994885 0.81767144 161 162 164
0.74997806 -0.09000773 0.81591406 156 157 159
0.74999406 -0.07015333 0.81434728 153 155 157
0.74998143 -0.05032400 0.81291418 153 155 156
0.75002748 -0.02988133 0.81149667 161 163 163
0.74994583 -0.00940639 0.81015440 158 158 161
0.75001379 0.01020230 0.80898545 153 155 156
0.74998546 0.02945892 0.80790053 154 156 157
0.75002279 0.04970264 0.80681964 155 158 159
0.74992361 0.07007511 0.80577435 156 158 160
0.74995360 0.08987762 0.80480278 153 156 157
0.75002542 0.10997124 0.80387548 142 144 147
0.74998110 0.13018236 0.80297673 146 147 148
0.75002396 0.14983864 0.80213019 150 150 151
0.74997686 0.17010835 0.80128906 148 148 149
0.75001538 0.18968251 0.80048048 160 161 162
0.74984494 0.21068855 0.79963920 157 158 160
0.75144939 0.20045342 0.80004187 163 164 166
0.74999509 0.23006967 0.79891964 151 153 154
0.75003516 0.25010054 0.79822134 152 154 155
0.75000916 0.26961392 0.79756719 151 153 154
0.75000082 0.29038607 0.79689969 152 155 156
0.74993184 0.30981392 0.79629890 146 149 151
0.74994414 0.32971357 0.79572833 148 150 152
0.75008946 0.35006811 0.79520517 144 145 146
0.74999512 0.37021307 0.79474957 142 142 144
0.75001765 0.39015966 0.79448950 53 53 53
0.74992058 0.41007619 0.79429852 0 0 0
0.75018562 0.42993070 0.79399997 0 0 0
0.75008105 0.44545905 0.79374199 0 0 0
0.77571160 -0.64187351 0.95909753 165 165 167
0.76847093 -0.64682625 0.96311623 161 165 166
0.77022492 -0.62992241 0.95370333 164 168 168
0.76330022 -0.63971389 0.96058432 163 167 168
0.77219536 -0.60304641 0.93848206 163 169 168
0.76936516 -0.61247927 0.94403815 168 172 172
0.76999467 -0.58997004 0.93205129 167 170 171
0.77138011 -0.56289261 0.91873933 171 176 176
0.76947056 -0.57252565 0.92348113 169 171 173
0.77036064 -0.54999821 0.91317826 166 172 172
0.76993669 -0.52995625 0.90497342 163 169 169
0.77051514 -0.50861965 0.89700601 156 163 164
0.76641313 -0.51798296 0.90073886 157 163 164
0.77006606 -0.48999880 0.89064762 157 161 163
0.76982984 -0.46961355 0.88403768 162 164 166
0.77064409 -0.44823972 0.87734612 165 169 171
0.76684635 -0.45772145 0.88051548 162 165 166
0.76993752 -0.42982511 0.87164268 169 172 173
0.76983406 -0.40981678 0.86579280 170 175 177
0.77065386 -0.38454788 0.85882947 171 174 176
0.76929022 -0.39408156 0.86151430 175 178 182
0.77004804 -0.36992303 0.85515939 166 168 170
0.77008383 -0.34985250 0.85066128 167 170 171
0.76997226 -0.32966203 0.84653492 169 171 173
0.76994278 -0.31002079 0.84277131 168 171 173
0.77032386 -0.28763673 0.83883872 168 171 172
0.76909133 -0.29757240 0.84052528 170 173 175
0.76999720 -0.26995209 0.83606465 170 173 175
0.76999382 -0.24953279 0.83304031 170 172 174
0.77007943 -0.23011146 0.83039074 172 174 175
0.76995290 -0.21004691 0.82785618 168 172 174
0.77006231 -0.19019600 0.82551382 166 170 172
0.76987784 -0.17049007 0.82334910 163 165 167
0.77005438 -0.15019234 0.82126447 161 165 167
0.77006968 -0.12849335 0.81921230 158 160 161
0.76949865 -0.13849710 0.82014015 159 163 164
0.76993537 -0.10996923 0.81753159 163 164 165
0.76996108 -0.09006253 0.81579919 157 158 160
0.76999316 -0.07020809 0.81423706 151 152 153
0.77000170 -0.05044097 0.81281535 153 155 156
0.77000731 -0.02999659 0.81142316 156 160 162
0.77007883 -0.00964838 0.81009765 157 159 161
0.77002403 0.01006186 0.80892775 155 157 158
0.76993990 0.02975239 0.80783218 153 155 156
0.76997336 0.04969143 0.80678061 152 154 157
0.77008281 0.06974472 0.80576199 157 157 157
0.76991473 0.09016878 0.80475749 151 152 154
0.76999380 0.10998833 0.80384280 140 142 143
0.77003358 0.12994348 0.80296651 151 152 153
0.76997342 0.15013934 0.80210207 148 149 151
0.77004543 0.16975408 0.80129979 148 148 150
0.76996833 0.18999231 0.80049880 150 150 152
0.76991621 0.21114945 0.79965869 158 160 163
0.77077582 0.20102974 0.80006099 161 163 168
0.76996475 0.23034954 0.79894124 154 157 158
0.77006294 0.24988867 0.79826138 151 151 154
0.76999767 0.26995249 0.79759170 146 148 150
0.76999687 0.29004939 0.79694904 146 146 148
0.76998679 0.31011296 0.79632816 148 150 152
0.76991778 0.32964077 0.79576644 145 147 150
0.77005234 0.35008325 0.79523960 137 140 141
0.76987532 0.37028081 0.79476905 149 151 153
0.77016509 0.38987358 0.79446495 71 72 74
0.76979670 0.41005984 0.79426688 0 0 0
0.77004163 0.42969222 0.79397173 0 0 0
0.76994391 0.44544165 0.79371099 0 0 0
0.78960786 -0.64350753 0.95685474 162 163 164
0.78253569 -0.64813343 0.96075936 159 163 163
0.79019317 -0.63010738 0.94991226 161 163 163
0.79118383 -0.60594253 0.93680973 165 170 169
0.78881889 -0.61571514 0.94240038 165 169 170
0.78983943 -0.58992570 0.92901508 165 168 169
0.79113110 -0.56554265 0.91758212 164 166 167
0.78898425 -0.57527006 0.92217133 163 165 166
0.79003001 -0.54993258 0.91104821 162 168 169
0.79435356 -0.52145286 0.89952276 163 172 170
0.78963419 -0.53077794 0.90341443 163 168 170
0.79003738 -0.50992361 0.89581355 160 165 166
0.79014250 -0.49000080 0.88903940 164 168 170
0.79569451 -0.46160272 0.87965955 167 170 173
0.78961996 -0.47095035 0.88295168 161 165 166
0.79000390 -0.45024403 0.87668401 169 171 174
0.78076970 -0.45987999 0.88014552 163 164 165
0.79008683 -0.42987123 0.87038048 168 173 174
0.79001655 -0.40995169 0.86456098 172 176 177
0.79064422 -0.38676537 0.85829735 167 170 173
0.78879031 -0.39663715 0.86099483 174 179 181
0.78996723 -0.37033992 0.85437280 165 169 171
0.78987529 -0.35012205 0.85002747 169 170 172
0.78975223 -0.33002937 0.84603149 170 173 174
0.79005656 -0.31040611 0.84232923 169 171 174
0.79018092 -0.28881398 0.83864940 167 171 172
0.78930821 -0.29870183 0.84027326 168 172 173
0.78984588 -0.27037425 0.83579794 170 174 176
0.79011266 -0.24999302 0.83280057 173 176 178
0.79008770 -0.22999761 0.83012118 172 173 175
0.78997567 -0.21000489 0.82763403 170 172 173
0.79002218 -0.19016831 0.82532635 166 169 170
0.78995029 -0.17042005 0.82318390 160 162 165
0.79006412 -0.15015157 0.82114016 157 159 162
0.79010775 -0.12917439 0.81917871 161 164 165
0.78849468 -0.13909019 0.82009749 162 163 165
0.78994999 -0.10998039 0.81745920 162 164 166
0.79000986 -0.08988996 0.81574100 158 159 161
0.79000654 -0.06994541 0.81417549 150 153 155
0.79002711 -0.05015590 0.81274896 152 155 156
0.78998214 -0.02980478 0.81137523 153 155 157
0.79001829 -0.00952624 0.81007499 155 156 158
0.79008470 0.00992193 0.80892451 156 158 160
0.79002867 0.02955495 0.80783890 157 158 159
0.78993117 0.04995691 0.80678001 153 154 156
0.79001213 0.06991050 0.80578424 158 160 162
0.79010860 0.08981617 0.80480718 157 157 159
0.78991891 0.11019936 0.80385534 152 153 154
0.78998902 0.12999417 0.80297987 150 150 151
0.79007621 0.14986992 0.80212232 149 151 153
0.78996224 0.17007468 0.80129756 149 150 152
0.79004943 0.18966868 0.80054220 141 142 144
0.78988701 0.21197623 0.79968749 154 157 159
0.79033550 0.20160947 0.80008745 151 152 157
0.79003653 0.23005235 0.79901186 155 158 160
0.78998774 0.25018024 0.79830867 149 151 152
0.79002915 0.26963237 0.79765734 147 148 149
0.78998844 0.29041979 0.79698998 136 136 138
0.78998448 0.30983210 0.79639050 150 151 152
0.78996821 0.32979000 0.79581936 143 145 146
0.79004141 0.35010925 0.79529864 142 144 145
0.79000747 0.36966991 0.79483110 148 151 155
0.78989263 0.38956127 0.79445789 88 90 92
0.79013962 0.41019973 0.79423569 0 0 0
0.79022200 0.43025785 0.79394228 0 0 0
0.78954361 0.44587056 0.79369296 0 0 0
0.80776879 -0.64156832 0.95175952 158 162 161
0.81903112 -0.62097025 0.93975621 164 166 168
0.80987110 -0.63021365 0.94596105 160 164 164
0.81054634 -0.60928978 0.93529336 161 166 166
0.80498484 -0.61841217 0.94080669 162 169 169
0.80993338 -0.59006262 0.92619766 159 163 163
0.81086572 -0.56816613 0.91628755 161 164 165
0.80754257 -0.57783294 0.92094593 163 164 166
0.80991133 -0.55000882 0.90883861 162 166 168
0.81105125 -0.52357358 0.89874637 161 166 167
0.80949875 -0.53331162 0.90240191 162 166 169
0.81031667 -0.50997025 0.89407236 172 175 176
0.81006950 -0.48981819 0.88742451 168 172 174
0.81138566 -0.46292578 0.87893677 171 175 176
0.80925018 -0.47265779 0.88206290 166 169 170
0.80993338 -0.44967937 0.87505996 174 176 179
0.81000920 -0.43006983 0.86921000 171 175 177
0.80998105 -0.41012192 0.86350768 173 176 180
0.81036484 -0.38870193 0.85782813 164 168 170
0.80713143 -0.39840983 0.86040898 171 177 179
0.80999833 -0.37005121 0.85363714 168 172 174
0.80994606 -0.34983853 0.84943669 169 172 174
0.80999792 -0.33000779 0.84554988 169 172 175
0.80988903 -0.31040547 0.84193033 171 172 174
0.81021457 -0.28985346 0.83848880 170 175 177
0.80697519 -0.29956635 0.84011861 171 174 175
0.81002363 -0.27045028 0.83548271 171 173 175
0.81001176 -0.25011046 0.83252851 175 177 179
0.81005618 -0.22994051 0.82988715 168 170 173
0.81004220 -0.20997699 0.82746771 171 176 176
0.80994407 -0.19013587 0.82521962 160 162 164
0.81003927 -0.17045728 0.82310467 163 166 167
0.81002127 -0.15015775 0.82107586 158 159 161
0.80990494 -0.12930012 0.81913440 160 162 163
0.80967499 -0.13933344 0.82005709 167 168 168
0.81004627 -0.10990033 0.81741679 165 168 170
0.81006321 -0.08990318 0.81570389 162 164 165
0.81003009 -0.07005237 0.81415378 157 161 163
0.81000239 -0.05026242 0.81271409 151 154 157
0.81000191 -0.02981020 0.81134128 147 148 149
0.80996437 -0.00940409 0.81006035 152 153 155
0.81000897 0.01017745 0.80890676 152 153 155
0.81002246 0.02948069 0.80784114 157 160 161
0.81006574 0.04968185 0.80680639 154 157 158
0.80989346 0.07008063 0.80580716 153 154 155
0.81004443 0.09008385 0.80483323 156 157 158
0.81009487 0.10987800 0.80390808 154 156 157
0.80990885 0.13021332 0.80299216 149 150 151
0.81000055 0.15000633 0.80213208 144 146 148
0.81005263 0.16980011 0.80132417 148 151 152
0.80998962 0.18997484 0.80054557 144 144 146
0.81005675 0.21232330 0.79971007 147 152 153
0.81001256 0.20217575 0.80008979 146 146 147
0.80998041 0.23040098 0.79904595 158 160 161
0.81002858 0.24987152 0.79836479 148 150 152
0.80998674 0.26999438 0.79769205 141 142 142
0.81000309 0.29008808 0.79705304 139 141 141
0.80996074 0.31013827 0.79643535 150 151 152
0.80996207 0.32964991 0.79587828 144 146 147
0.81003201 0.35013467 0.79535639 143 146 147
0.81008489 0.36995160 0.79487070 150 152 155
0.80979956 0.38955922 0.79445411 104 106 107
0.80999088 0.40986743 0.79420345 0 0 0
0.80993035 0.43045834 0.79390939 0 0 0
0.81020555 0.44617232 0.79366636 0 0 0
0.83229551 -0.62289484 0.93842804 160 163 163
0.82874250 -0.63209153 0.94329312 159 161 161
0.82989685 -0.60993787 0.93262566 162 167 166
0.83356884 -0.58182254 0.91930638 169 173 173
0.82944316 -0.59105571 0.92397837 163 166 166
0.83035852 -0.56999915 0.91464147 157 162 163
0.82983751 -0.54982839 0.90653701 162 167 167
0.83095136 -0.52623959 0.89783835 166 168 168
0.82899801 -0.53596443 0.90140551 163 167 167
0.82976128 -0.50988786 0.89238223 172 176 177
0.83023869 -0.49014738 0.88598912 171 174 175
0.83077322 -0.46573315 0.87840883 171 174 175
0.82909973 -0.47551881 0.88153331 171 173 175
0.82970556 -0.45018861 0.87384208 172 177 179
0.83030965 -0.42999555 0.86803561 171 176 178
0.83333741 -0.40062354 0.85970985 167 169 170
0.82969613 -0.41043711 0.86262003 171 176 178
0.83011386 -0.38944524 0.85722837 166 169 170
0.83006022 -0.36981189 0.85297485 165 168 171
0.82983972 -0.34984235 0.84887194 168 172 173
0.83017103 -0.33001332 0.84499779 169 174 176
0.83312336 -0.30132598 0.83978533 173 176 176
0.82958278 -0.31110019 0.84156330 171 174 176
0.83008194 -0.29009465 0.83806707 171 175 176
0.83001849 -0.27032203 0.83503852 172 174 176
0.83001591 -0.24993808 0.83217211 171 175 175
0.82999276 -0.22987767 0.82963263 167 168 172
0.83007309 -0.20994224 0.82727406 169 172 174
0.82991991 -0.19009157 0.82506106 158 162 164
0.83007987 -0.17043418 0.82297633 161 167 169
0.82993869 -0.15016444 0.82097590 161 162 164
0.83016251 -0.12973825 0.81909880 158 161 163
0.82309610 -0.13932594 0.82001292 155 157 156
0.83006985 -0.10986372 0.81735643 166 171 172
0.83000584 -0.08995688 0.81561238 155 157 158
0.83001651 -0.07013534 0.81409513 154 156 158
0.82995693 -0.05034701 0.81265896 156 159 162
0.82998709 -0.02993876 0.81128312 149 151 153
0.83003005 -0.00957789 0.81003736 148 149 150
0.83000024 0.01010282 0.80888092 153 155 156
0.82995299 0.02975152 0.80780626 153 154 156
0.82994875 0.04969238 0.80679405 156 157 159
0.83008871 0.06974651 0.80583051 154 157 157
0.82995945 0.09009081 0.80485482 157 159 160
0.82997393 0.11012879 0.80391906 150 153 155
0.83004771 0.12987448 0.80302811 153 155 157
0.82992882 0.15014341 0.80214529 148 150 151
0.83001677 0.16998544 0.80133139 147 149 151
0.83005848 0.18970787 0.80056966 137 138 142
0.82994761 0.21257203 0.79972421 144 147 150
0.83008423 0.20218056 0.80010883 140 141 144
0.83003346 0.23005955 0.79909503 147 150 152
0.82998979 0.25020774 0.79839135 150 153 156
0.83000779 0.26965657 0.79774286 147 150 152
0.82999149 0.29044957 0.79708690 139 141 142
0.82996175 0.30988942 0.79649300 152 153 154
0.82996676 0.32983326 0.79592371 147 148 149
0.83001537 0.35015580 0.79540438 147 148 150
0.83004750 0.36975376 0.79492574 150 151 152
0.83001225 0.38973814 0.79446935 122 125 126
0.83010478 0.41001221 0.79417476 0 0 0
0.82979292 0.43044047 0.79387643 0 0 0
0.83005135 0.44601565 0.79364018 0 0 0
0.85084407 -0.62662562 0.93727624 161 167 167
0.84517050 -0.63379549 0.94119271 160 165 166
0.84981351 -0.61005370 0.92990753 163 168 167
0.85069020 -0.58406581 0.91820848 166 172 173
0.84928541 -0.59385541 0.92263248 160 162 164
0.85022564 -0.56988533 0.91234808 163 168 169
0.85011103 -0.54994501 0.90453284 170 172 173
0.85050165 -0.52877597 0.89701789 167 169 170
0.84592448 -0.53822615 0.90071457 169 171 171
0.85013419 -0.50990362 0.89072485 171 176 177
0.84991134 -0.48967586 0.88434568 170 173 174
0.85056430 -0.46749475 0.87754378 167 172 174
0.84820005 -0.47734826 0.88071046 164 169 170
0.84998548 -0.44978125 0.87234403 171 176 178
0.84990507 -0.42989292 0.86671506 170 175 177
0.85168188 -0.40293734 0.85945205 162 167 169
0.84977880 -0.41240127 0.86200394 172 176 178
0.84978256 -0.39024090 0.85669261 162 165 166
0.85027275 -0.36987331 0.85231880 169 172 174
0.84999878 -0.35013360 0.84827859 170 174 176
0.84993830 -0.33025023 0.84439979 170 176 177
0.85124870 -0.30297500 0.83946673 173 176 177
0.84942617 -0.31286572 0.84123652 171 175 175
0.85008607 -0.28994184 0.83742273 172 175 176
0.84998504 -0.27017259 0.83448125 171 172 174
0.85006723 -0.24987848 0.83174626 169 171 173
0.84999404 -0.22972695 0.82928413 163 166 167
0.85000157 -0.20982497 0.82698314 164 170 171
0.85001146 -0.19004230 0.82481404 164 167 170
0.85004683 -0.17037524 0.82277829 163 167 168
0.85349817 -0.14073167 0.81994538 165 168 171
0.84975997 -0.15056958 0.82085955 156 158 159
0.85011134 -0.12991646 0.81902046 158 161 163
0.85002203 -0.10990734 0.81728481 167 172 174
0.84989814 -0.08997918 0.81552288 154 158 158
0.85003903 -0.07014297 0.81402043 152 152 153
0.84998137 -0.05035866 0.81262015 153 155 157
0.84999380 -0.02990435 0.81123774 153 157 158
0.84997476 -0.00964122 0.80998783 153 154 155
0.85007809 0.00990440 0.80885198 149 151 152
0.85005911 0.02952227 0.80778443 151 152 155
0.84992447 0.04995534 0.80676623 151 151 153
0.85004084 0.06999794 0.80581824 155 159 160
0.85004485 0.08982973 0.80487792 156 160 160
0.84993589 0.11010104 0.80393312 154 156 157
0.85000917 0.13020917 0.80302687 150 153 155
0.85003725 0.14987444 0.80216848 147 152 155
0.84996593 0.17000909 0.80133441 147 149 151
0.85002697 0.18992333 0.80055821 142 143 146
0.84998636 0.21233392 0.79974125 144 148 151
0.85013339 0.20217981 0.80010585 144 147 150
0.84999651 0.23039910 0.79910037 147 149 149
0.85001495 0.24989296 0.79842819 149 152 154
0.84999416 0.27001110 0.79775788 145 148 149
0.84998609 0.29012144 0.79712515 139 141 141
0.85001402 0.31018478 0.79651254 146 147 148
0.84993745 0.32968200 0.79595576 145 146 147
0.84997547 0.35016638 0.79542843 146 149 150
0.85010229 0.36992045 0.79494728 149 151 153
0.84992534 0.38940851 0.79449256 135 138 141
0.84998643 0.41000157 0.79415419 0 0 0
0.85012216 0.43057879 0.79384401 0 0 0
0.85008475 0.44606824 0.79360529 0 0 0
0.86987379 -0.62659232 0.93487967 163 167 167
0.86982471 -0.60988568 0.92758236 162 167 166
0.87072118 -0.58630055 0.91709980 159 163 163
0.86909059 -0.59635061 0.92162441 159 164 166
0.86981193 -0.56997649 0.91044855 157 161 164
0.87271092 -0.54183927 0.89947370 165 173 172
0.86969201 -0.55128693 0.90320133 166 170 172
0.87002415 -0.52994217 0.89564628 170 172 173
0.87007860 -0.51002018 0.88912803 169 172 173
0.87647274 -0.48114146 0.87968192 162 168 167
0.86980009 -0.49064741 0.88307997 165 169 170
0.87028710 -0.46998844 0.87680247 166 171 172
0.86324744 -0.47944530 0.88022337 168 174 174
0.86980310 -0.45001745 0.87091719 169 175 175
0.87027640 -0.43008262 0.86534076 169 174 176
0.87088003 -0.40475147 0.85899404 157 163 167
0.86927360 -0.41463589 0.86142923 169 175 177
0.87004370 -0.39031551 0.85592828 161 167 168
0.87000607 -0.36992236 0.85158482 168 173 174
0.87000797 -0.34982631 0.84748239 169 173 174
0.86995278 -0.32996837 0.84361867 170 174 176
0.87061528 -0.30494559 0.83909809 172 176 176
0.86924062 -0.31482552 0.84086658 170 173 174
0.87008600 -0.28970327 0.83668938 170 174 175
0.86994534 -0.27002747 0.83384221 170 173 175
0.86988153 -0.25002608 0.83124450 163 166 168
0.87017449 -0.22993294 0.82885888 161 166 167
0.86996613 -0.20968706 0.82659310 163 166 167
0.87007707 -0.18997010 0.82450147 162 166 169
0.86996199 -0.17030803 0.82254059 161 163 166
0.87171745 -0.14178963 0.81985416 158 160 161
0.86971560 -0.15170819 0.82076135 161 163 164
0.87000848 -0.12992292 0.81885892 158 161 162
0.86995207 -0.10989549 0.81714389 166 170 173
0.86995079 -0.08989794 0.81539259 158 159 160
0.87003437 -0.06995053 0.81391082 150 151 152
0.86996985 -0.05017084 0.81253657 155 157 158
0.87001439 -0.02977098 0.81115790 155 158 160
0.86992874 -0.00935749 0.80987978 149 151 153
0.87000914 0.01019939 0.80874792 150 153 154
0.87002272 0.02955297 0.80770633 152 154 155
0.87007196 0.04959367 0.80672195 153 154 156
0.86999791 0.06996527 0.80578381 154 157 159
0.87001709 0.09016160 0.80484415 158 160 161
0.86996175 0.10990634 0.80392454 157 162 162
0.87007634 0.12993473 0.80303274 149 151 152
0.86999434 0.15017696 0.80214989 149 151 154
0.86998841 0.16982263 0.80133254 146 148 150
0.87001775 0.18979950 0.80054460 144 146 149
0.87002062 0.21250116 0.79972084 143 146 149
0.87000129 0.20213722 0.80008656 136 138 142
0.87000946 0.23008345 0.79910683 144 147 150
0.86998671 0.25020641 0.79841733 147 151 153
0.86998769 0.26967589 0.79777889 146 150 151
0.87003160 0.29046867 0.79712409 145 147 149
0.86997196 0.30988581 0.79652856 145 145 149
0.87003182 0.32991931 0.79594895 145 147 150
0.86990982 0.35016610 0.79542778 144 146 148
0.87001460 0.36983050 0.79494328 145 147 149
0.87011196 0.38968093 0.79447583 138 142 144
0.86986275 0.40998898 0.79412971 0 0 0
0.86998149 0.43025584 0.79383029 0 0 0
0.86994288 0.44605219 0.79357675 0 0 0
0.89000405 -0.62580750 0.93243788 165 170 170
0.89004671 -0.60987012 0.92539811 163 168 169
0.89064171 -0.58884681 0.91625229 161 166 167
0.88612319 -0.59840503 0.92086168 161 169 168
0.88985621 -0.56995085 0.90856098 159 164 165
0.89091429 -0.54415671 0.89843486 169 175 175
0.88935884 -0.55390037 0.90225152 167 172 172
0.89028127 -0.52997935 0.89371765 163 168 169
0.88990081 -0.50978682 0.88733909 162 167 167
0.89147302 -0.48335188 0.87905309 161 168 168
0.88925674 -0.49278624 0.88211006 163 169 171
0.89011234 -0.46979378 0.87510822 165 171 172
0.89014992 -0.44995260 0.86932994 167 173 174
0.88999227 -0.42974238 0.86391163 170 175 176
0.89067888 -0.40663371 0.85848130 158 162 163
0.88851170 -0.41631488 0.86068716 163 169 170
0.89015997 -0.38980665 0.85498263 162 168 168
0.88993502 -0.37021857 0.85085715 169 174 175
0.89010121 -0.35020116 0.84678305 171 175 176
0.89004779 -0.32971860 0.84280124 167 172 173
0.89033044 -0.30702638 0.83869996 170 174 175
0.88840149 -0.31675957 0.84048644 167 173 172
0.89022902 -0.28951517 0.83590785 169 173 173
0.88996490 -0.26961801 0.83309969 168 172 173
0.88999555 -0.25019056 0.83065115 163 168 169
0.88995910 -0.23028931 0.82835732 161 165 167
0.89003968 -0.20968373 0.82610699 164 167 169
0.88997622 -0.18990008 0.82409810 164 165 167
0.89001154 -0.17030369 0.82221429 163 167 169
0.89095779 -0.14310301 0.81972640 160 164 167
0.88962371 -0.15299213 0.82061999 166 169 171
0.88996620 -0.12993452 0.81862100 160 161 161
0.89004805 -0.10986366 0.81693361 169 172 173
0.89002891 -0.08987299 0.81520355 155 157 158
0.89001536 -0.07006813 0.81376768 149 150 150
0.89001040 -0.05031844 0.81243485 149 149 150
0.89000777 -0.02993095 0.81107475 156 157 159
0.88998782 -0.00960564 0.80977030 154 157 159
0.89001040 0.01003441 0.80865155 148 149 153
0.88996799 0.02970835 0.80760707 151 151 152
0.89001585 0.04991077 0.80662237 149 152 155
0.89000541 0.06976557 0.80571701 157 159 163
0.89003171 0.08991855 0.80480099 158 161 163
0.88996645 0.11020068 0.80386526 157 162 163
0.89002138 0.13008024 0.80298579 150 153 155
0.89004899 0.14983810 0.80212741 150 152 154
0.88994948 0.17008797 0.80128938 144 146 149
0.88995458 0.18978480 0.80052026 147 149 151
0.88998262 0.21165415 0.79972894 142 144 147
0.89021874 0.20148404 0.80008851 142 144 147
0.88998775 0.23037644 0.79908627 142 143 144
0.88998483 0.24990330 0.79842625 144 147 150
0.88999914 0.27001661 0.79777404 147 150 153
0.89001448 0.29012337 0.79714996 144 147 150
0.89001778 0.31020445 0.79653880 135 135 140
0.88997915 0.32961048 0.79596700 147 150 152
0.88998439 0.35027998 0.79542265 142 143 144
0.88997154 0.36986819 0.79492689 149 150 151
0.88999218 0.38944656 0.79446166 145 147 150
0.88998281 0.41013854 0.79411016 0 0 0
0.89010051 0.43040794 0.79381657 0 0 0
0.88980641 0.44603955 0.79355429 0 0 0
0.90969731 -0.62469258 0.92978765 164 169 169
0.91396093 -0.60159195 0.91919833 167 168 172
0.90954457 -0.61128406 0.92392022 164 167 168
0.90981247 -0.58999388 0.91472091 161 164 166
0.91006939 -0.56986752 0.90636300 145 148 150
0.91030266 -0.54673008 0.89731765 162 168 169
0.90870223 -0.55663373 0.90133106 168 171 172
0.91003853 -0.53001007 0.89180282 155 160 161
0.91007253 -0.51012488 0.88553582 162 168 169
0.91104180 -0.48605710 0.87810145 163 169 170
