ply
format ascii 1.0
element vertex 779
property float x
property float y
property float z
property uchar red
property uchar green
property uchar blue
end_header
-0.62316553 -0.48266056 1.35578551 106 133 155
-0.62333259 -0.47373460 1.35329319 104 132 153
-0.62231574 -0.45132452 1.34972352 97 130 148
-0.62328639 -0.44378438 1.36718686 102 129 146
-0.62519699 -0.43509984 1.35850072 104 130 148
-0.62501796 -0.43344499 1.36562564 104 128 147
-0.61805959 -0.48295874 1.35443333 108 132 154
-0.61649324 -0.46999274 1.35287354 103 130 151
-0.61252305 -0.45051175 1.35170668 100 129 152
-0.61648569 -0.44230118 1.36259806 102 129 147
-0.61042806 -0.43331297 1.35699126 98 127 146
-0.61824561 -0.43298704 1.36240242 101 127 147
-0.56405008 -0.64879388 1.53022993 107 131 150
-0.56481163 -0.35304066 0.90408388 102 138 156
-0.54471552 -0.64505546 1.51729559 107 130 145
-0.55203017 -0.64596677 1.52564370 106 129 147
-0.54285856 -0.63006487 1.51870044 106 127 144
-0.54434177 -0.63174329 1.52806058 106 129 145
-0.54783767 -0.62000877 1.54417276 103 127 138
-0.54400507 -0.61655376 1.51857679 104 129 144
-0.54409069 -0.61714869 1.53485384 102 127 140
-0.54392964 -0.61859965 1.54066324 105 127 139
-0.54661237 -0.36564956 0.90310887 109 141 162
-0.55045183 -0.34552933 0.89846570 103 137 157
-0.54958309 -0.35336100 0.90241397 104 138 158
-0.52631527 -0.64164555 1.49810535 103 129 146
-0.53451145 -0.64286104 1.51057755 105 129 144
-0.53171630 -0.63438641 1.51576816 104 127 143
-0.53641171 -0.62908149 1.52616106 105 128 144
-0.53059122 -0.61344236 1.51554897 105 127 142
-0.53621265 -0.61319967 1.52721621 105 127 142
-0.53846695 -0.36428209 0.90145300 109 140 163
-0.53801208 -0.35448781 0.90185311 102 138 160
-0.51920881 -0.61311708 1.50754468 105 127 141
-0.38181667 0.34646873 1.48595719 84 87 92
-0.36395590 -0.12442576 0.50692095 127 106 89
-0.36531049 -0.11524947 0.50594912 139 122 99
-0.36925765 0.33774111 1.48092285 97 99 101
-0.37591118 0.34128857 1.47688854 83 84 88
-0.36958999 0.34965275 1.48561407 112 117 119
-0.36115938 0.36100979 1.42868423 109 110 111
-0.36309681 0.36335839 1.44952957 111 113 114
-0.36789327 0.36570074 1.47241172 101 102 105
-0.37019088 0.36400242 1.48627754 100 103 107
-0.35876407 -0.12428836 0.50532420 122 104 90
-0.34091026 -0.07264103 0.47775376 134 108 91
-0.34108620 -0.06618645 0.48328848 138 113 96
-0.34056812 -0.05477133 0.47794997 134 108 91
-0.34476554 0.33781621 1.45532923 133 134 135
-0.34282090 0.33634831 1.46097374 131 136 137
-0.34394500 0.35995743 1.43926084 126 126 131
-0.34583031 0.35193797 1.45346286 108 108 115
-0.35239743 0.34629749 1.47103930 123 124 127
-0.35871589 0.35028994 1.48158533 113 118 120
-0.34991947 0.36212753 1.43017191 112 113 117
-0.35297889 0.36284747 1.45081642 99 99 109
-0.35500104 0.36226090 1.46731601 86 83 94
-0.33872619 -0.06862770 0.47726654 137 112 94
-0.33875501 -0.07069770 0.48094653 139 115 100
-0.33762128 -0.05672436 0.47547484 133 108 88
-0.33010504 0.31632426 1.43317509 115 116 118
-0.33136629 0.32797780 1.43865099 120 123 125
-0.33622068 0.33019189 1.44635576 126 127 129
-0.32938109 0.35572508 1.39341885 116 118 119
-0.33449336 0.35742366 1.40646323 122 123 123
-0.33716229 0.35788602 1.42115688 130 131 131
-0.33936414 0.34046000 1.45158851 119 120 123
-0.32937583 0.36173439 1.39340711 105 108 110
-0.33489101 0.36511369 1.40643883 107 110 113
-0.33961865 0.37016779 1.42115688 104 107 110
-0.24257325 0.12292009 1.66558194 159 160 162
-0.22338376 -0.04361620 0.45651269 152 118 108
-0.22404166 -0.02931483 0.45589245 152 126 114
-0.22366727 -0.01936399 0.45530649 155 132 121
-0.22771118 0.11369010 1.65693200 127 128 133
-0.22841983 0.11015670 1.66868152 124 126 132
-0.22704489 0.10584800 1.68715172 125 126 133
-0.22156326 0.10803615 1.70324588 114 114 125
-0.23071288 0.12810365 1.61480231 115 118 125
-0.22534817 0.12931161 1.63119481 129 130 136
-0.22835926 0.12808858 1.65045214 137 137 142
-0.23288396 0.12047085 1.66490155 147 150 151
-0.22626285 0.14213679 1.64637911 122 122 128
-0.20417996 -0.20655925 0.55215807 102 127 146
-0.20466165 -0.19945931 0.55135581 103 127 146
-0.21645463 -0.04422575 0.45648977 151 124 101
-0.21663411 -0.02971361 0.45567106 150 123 102
-0.21669840 -0.01750946 0.45564150 149 119 100
-0.21373416 0.11052189 1.66970460 119 120 132
-0.21592039 0.10610387 1.69136961 121 122 129
-0.21861935 0.10362027 1.70324588 133 133 139
-0.21637358 0.12975838 1.63087231 126 128 131
-0.21680435 0.12864819 1.64699130 147 148 150
-0.21803425 0.14116444 1.64337659 129 128 136
-0.20190271 0.21607005 1.04613340 116 117 120
-0.19908614 -0.20742170 0.54995388 104 127 147
-0.18186926 0.11903339 0.75377234 100 103 104
-0.18410801 0.12819346 0.75582995 125 127 130
-0.18618669 0.19475394 1.01371730 125 127 131
-0.19242681 0.19762171 1.02362320 123 123 130
-0.18378797 0.20361424 1.01568471 121 122 129
-0.19114511 0.20769315 1.02875247 116 118 122
-0.19785230 0.21412676 1.04194934 117 118 120
-0.16859967 0.11755104 0.75151279 122 125 128
-0.16228804 0.12920959 0.73599162 142 144 147
-0.17303369 0.12691419 0.74938486 118 119 124
-0.16734195 0.17556835 0.97820065 127 128 130
-0.16425184 0.17389597 0.99058562 128 128 131
-0.16814479 0.17133739 1.00849998 152 152 148
-0.16517014 0.19885311 0.97749415 123 123 127
-0.16806102 0.19089895 0.99301062 117 118 124
-0.16467494 0.19009052 1.00257138 120 123 130
-0.16601551 0.20054263 0.97749415 113 113 121
-0.16315789 0.20520244 0.99243221 143 146 144
-0.17911077 0.20155077 1.00354141 119 121 128
-0.15198382 0.11777763 0.73699467 114 114 121
-0.15652963 0.11611664 0.74223993 117 120 125
-0.14793469 0.13185318 0.71765207 104 105 113
-0.15412283 0.12723914 0.73013059 119 120 125
-0.15955611 0.12095276 0.74289718 113 119 124
-0.15960133 0.17557952 0.97961247 116 115 120
-0.15791430 0.17251720 0.99437208 121 122 126
-0.15763932 0.16793167 1.00305281 134 135 139
-0.14668948 0.19701315 0.97258714 120 121 124
-0.15484238 0.19257752 0.99679240 137 138 139
-0.15733847 0.18900929 1.00296512 134 135 138
-0.15596256 0.20361797 0.99144960 122 123 125
-0.09784757 -0.08120908 0.45927674 90 105 129
-0.09510967 -0.07525615 0.45938497 88 103 129
-0.09618352 -0.07192670 0.46121823 88 101 129
-0.04176929 0.25783427 0.65106469 194 195 186
-0.04088611 0.25586735 0.67806267 192 193 185
-0.04196508 0.26161327 0.65157392 195 196 187
-0.03234420 0.25334623 0.63952059 172 173 164
-0.03656544 0.25531633 0.65023846 191 192 182
-0.03552711 0.25365063 0.67071405 192 193 184
-0.03905117 0.26140834 0.64994663 195 196 187
-0.02189973 0.46781418 1.23477978 144 139 135
-0.02076792 0.51396713 1.29740185 121 123 122
-0.02086775 0.51981640 1.30363810 130 130 131
-0.02102951 0.52611667 1.31374383 135 135 134
-0.02270215 0.53474758 1.33183782 135 134 131
-0.00529032 0.13777597 0.49288770 186 186 178
-0.00499652 0.14350918 0.49042133 168 166 161
-0.00560649 0.45752597 1.21269572 142 142 140
-0.00962108 0.46317330 1.21732001 142 141 138
-0.01050107 0.47050307 1.22897686 147 145 143
-0.01782606 0.48269385 1.24841964 130 130 128
-0.01475985 0.49596007 1.26296380 134 134 133
-0.01488459 0.50235191 1.27363735 132 133 131
-0.01293472 0.51166130 1.29049240 137 138 137
-0.00591374 0.51746840 1.30547020 148 147 145
-0.01237055 0.52175280 1.29864335 157 157 150
-0.00865267 0.52611935 1.30809646 153 152 147
0.00612585 0.13879572 0.49402667 165 165 159
0.01164394 0.14426058 0.49138758 155 152 151
0.00956996 0.18965151 0.61656343 143 142 141
0.00506800 0.18814825 0.62343479 152 151 147
0.00974089 0.43927360 1.18928397 154 154 152
0.00726842 0.44734829 1.19485142 154 154 151
0.00320373 0.45378844 1.20600818 153 153 150
0.00619499 0.46357521 1.21222693 160 160 152
0.00341791 0.47122001 1.22558168 162 162 154
0.00159407 0.48269385 1.24841964 162 163 154
0.00820342 0.49960577 1.26946032 158 154 151
0.01079452 0.50557669 1.27344485 155 152 149
0.00685758 0.51417639 1.29261031 151 149 147
0.00222601 0.51787704 1.30301258 146 144 142
0.00950413 0.52181461 1.29740185 147 147 143
0.00424864 0.52738514 1.30723407 150 150 144
0.03897183 0.13927111 0.45948418 130 127 126
0.03674509 0.13960950 0.46077514 127 125 123
0.03605794 0.14438440 0.45842829 145 145 143
0.03265455 0.14455483 0.46189639 156 156 153
0.03741469 0.18864860 0.51193336 139 138 135
0.04070323 0.14486024 0.45720455 145 144 139
0.04514763 0.18617044 0.50829263 150 149 147
0.07813887 0.19715808 0.51220712 130 130 130
0.07794477 0.20066166 0.51155577 141 141 140
0.07476194 0.23551020 0.71497113 144 142 138
0.07445003 0.23350233 0.72103408 141 138 134
0.07498056 0.24754491 0.71558137 153 152 147
0.07064467 0.25020180 0.72325799 164 162 156
0.06673118 0.26090495 0.73206547 147 142 141
0.07508259 0.29154485 0.73538763 132 131 128
0.06946743 0.29661187 0.74436652 150 150 144
0.07497068 0.30083108 0.73844427 125 124 125
0.06859722 0.30976069 0.74918108 80 78 77
0.06708211 0.32244231 0.75228317 0 0 0
0.08628310 0.19735508 0.49513869 161 161 153
0.08336728 0.19700631 0.50906127 147 147 143
0.08611567 0.20206761 0.49830070 153 153 150
0.08297615 0.20169020 0.50607027 163 161 155
0.09491550 0.23195103 0.69451478 157 157 153
0.08523535 0.23222274 0.70791781 127 129 131
0.09307574 0.24305122 0.69587314 138 137 139
0.08494243 0.24475310 0.70767278 128 128 129
0.08450709 0.46695772 1.97636104 136 133 132
0.08132821 0.46832311 1.98213995 139 137 135
0.09559110 0.49520078 1.99379957 178 175 167
0.11147368 -0.17532943 0.51855682 102 109 119
0.11034805 -0.16926722 0.52211131 101 109 120
0.11352885 0.17444977 0.83720200 134 132 136
0.11282879 0.17738013 0.84189498 143 143 146
0.11316293 0.18727053 0.83862938 172 171 169
0.11348915 0.18943414 0.84407458 164 164 164
0.11476887 0.20381695 0.79677470 167 169 163
0.11196247 0.20576469 0.80581606 166 166 163
0.11018793 0.21351308 0.83074981 172 173 166
0.11257999 0.20188434 0.84881967 173 173 170
0.10001541 0.23672263 0.69102126 125 125 128
0.11155588 0.22200741 0.81969994 161 161 162
0.11385574 0.22962573 0.82705966 146 145 142
0.11609229 0.45834094 1.99087608 161 160 154
0.11998402 0.47907332 1.94238353 177 174 164
0.11832221 0.46900464 1.97062060 151 149 147
0.11382960 0.46694683 1.98956285 150 147 145
0.11729897 0.48521116 1.95357883 155 154 154
0.11832293 0.48433271 1.97063243 174 174 167
0.11557913 0.49184584 1.99186778 160 158 156
0.13923161 0.04986643 0.65276071 140 139 139
0.13571699 0.09736615 0.75378255 115 117 122
0.13539181 0.10380240 0.75401267 124 124 129
0.12142960 0.17647436 0.83897507 143 144 145
0.12092910 0.17898230 0.84053579 165 166 165
0.12164030 0.18795446 0.84399265 158 154 155
0.12668074 0.20464495 0.79892996 148 147 147
0.12527126 0.21244144 0.80755101 147 144 143
0.12303894 0.21872993 0.82069230 170 168 158
0.12791777 0.22294249 0.81520512 142 139 141
0.12267428 0.22906103 0.82759071 127 125 130
0.13296053 0.43961877 1.88827813 143 143 142
0.12455714 0.43797120 1.90955448 147 147 146
0.12801086 0.44453018 1.89356375 143 143 141
0.12507769 0.45265177 1.90741496 139 138 138
0.12672580 0.45501620 1.92583942 141 139 139
0.12168040 0.45439755 1.95172910 139 136 134
0.12137514 0.45406219 1.96490383 152 148 143
0.12777082 0.46486629 1.92802997 148 148 146
0.12310782 0.46968390 1.95219153 151 149 148
0.15606919 -0.38367790 1.05154281 103 112 121
0.15532897 -0.37617102 1.05216032 104 111 122
0.15194896 -0.37519869 1.06252635 105 112 123
0.15829875 -0.10649984 0.63374198 91 98 112
0.14658967 0.03837060 0.65878701 113 117 120
0.15413198 0.03640315 0.66312930 148 148 148
0.15049801 0.05121611 0.65611301 136 136 139
0.15484136 0.04508042 0.66306282 136 136 138
0.15727396 0.07412857 0.50753539 112 115 120
0.15595054 0.08166951 0.50835569 127 130 132
0.14358610 0.09727911 0.75498725 112 113 124
0.14407121 0.10281227 0.75548415 112 113 123
0.14233043 0.20905374 0.45436417 0 0 0
0.14446548 0.21545412 0.46840305 0 0 0
0.14583202 0.22005990 0.47738862 0 0 0
0.14794898 0.22605191 0.49130854 0 0 0
0.15110379 0.23559636 0.51205275 0 0 0
0.15403381 0.24446074 0.53131888 0 0 0
0.15719297 0.25401833 0.55209168 0 0 0
0.15942970 0.26078528 0.56679922 0 0 0
0.16574516 -0.38806420 1.05186468 104 112 120
0.16610252 -0.37483579 1.05026846 104 111 122
0.16559216 -0.10584624 0.63286917 91 97 112
0.16566687 -0.09803977 0.63518341 91 98 112
0.16067640 0.03989698 0.66525203 158 159 159
0.16077144 0.05203414 0.65878735 128 127 132
0.16299154 0.04723076 0.66400308 153 152 153
0.16377809 0.07438884 0.50870502 122 124 127
0.17951251 0.17884971 0.71020800 162 159 153
0.17873172 0.18461541 0.71413099 137 137 139
0.16059852 0.26432136 0.57448459 0 0 0
0.16304551 0.27172440 0.59057462 0 0 0
0.16560890 0.27895463 0.60742998 0 0 0
0.16650469 0.28236467 0.61332019 0 0 0
0.16904835 0.28988519 0.63004583 0 0 0
0.17122890 0.29648215 0.64438391 0 0 0
0.17274240 0.30106102 0.65433574 0 0 0
0.17510873 0.30822006 0.66989547 0 0 0
0.17757700 0.31568746 0.68612534 0 0 0
0.17929465 0.32088396 0.69741958 0 0 0
0.16652560 0.38956931 1.89885676 165 165 167
0.17077494 0.39175788 1.90956962 169 169 169
0.17563735 0.39379204 1.92684365 170 170 169
0.17695327 0.38953966 1.95358960 171 172 172
0.17455651 0.40280023 1.91494870 163 163 163
0.17471046 0.40259801 1.92584461 170 170 169
0.17419921 0.41311198 1.94796503 160 160 162
0.18792295 0.17930022 0.69369608 135 135 139
0.18094819 0.17832713 0.70492354 155 153 148
0.19186942 0.18562400 0.67695197 138 137 139
0.18720105 0.18329301 0.68875912 156 154 152
0.18181570 0.18272600 0.70534717 151 151 151
0.18106978 0.32625440 0.70909190 0 0 0
0.18385492 0.33468046 0.72740537 0 0 0
0.18778886 0.34658206 0.75327268 0 0 0
0.19091816 0.35604933 0.77384913 0 0 0
0.19310771 0.36267351 0.78824633 0 0 0
0.19656046 0.37311935 0.81094968 0 0 0
0.19772534 0.37963140 1.91494870 132 131 131
0.19758184 0.37448629 1.92740113 155 151 150
0.19439930 0.37540378 1.94799087 170 167 165
0.19061417 0.37744648 1.96680784 175 175 172
0.19095920 0.37582195 1.98213995 180 180 178
0.19276059 0.39121582 1.91494870 159 155 155
0.19224190 0.39189466 1.92988014 158 156 155
0.18861560 0.38761591 1.95038940 171 168 167
0.18590251 0.38613865 1.96490383 168 166 166
0.18307274 0.40366911 1.93499450 172 172 171
0.18712908 0.40353514 1.94238353 174 173 173
0.21847904 0.15880414 0.54195302 168 170 163
0.21644889 0.17304993 0.51957124 160 159 151
0.21841379 0.16781289 0.52984525 160 159 155
0.21708692 0.16361023 0.54158108 162 163 161
0.21817390 0.18878110 0.52168143 153 153 148
0.21584247 0.35793176 1.95922494 136 135 140
0.20080866 0.37258958 1.91279101 145 142 142
0.21048890 0.37450804 1.92921031 142 140 139
0.21383302 0.36713963 1.94996347 146 146 149
0.20019406 0.38411233 0.83484215 0 0 0
0.20274611 0.39183317 0.85162294 0 0 0
0.20540285 0.39911970 0.86909211 0 0 0
0.20763178 0.38560009 1.92828148 140 138 137
0.21250831 0.39410723 1.94722729 148 147 144
0.20540285 0.40062186 0.86909211 0 0 0
0.20817086 0.40824504 0.88729298 0 0 0
0.21105729 0.41697755 0.90627253 0 0 0
0.20987869 0.40486025 1.94950487 161 158 155
0.21406992 0.42609181 0.92608178 0 0 0
0.21721718 0.43561342 0.94677633 0 0 0
0.22067012 0.15817977 0.53929341 171 174 165
0.22038155 0.15810985 0.54144801 161 162 156
0.22099897 0.16711779 0.52539840 157 156 150
0.22736766 0.18917322 0.51945764 153 153 149
0.22912060 0.19402720 0.52604506 147 147 142
0.23703452 0.20028059 0.53105584 157 157 149
0.22007102 0.37727472 1.93683386 137 135 130
0.22296120 0.37108228 1.94958282 146 146 145
0.22500638 0.39007917 1.95059772 144 142 139
0.22433328 0.40324184 1.95451985 160 155 151
0.22050831 0.44557030 0.96841693 0 0 0
0.22395341 0.45599300 0.99106997 0 0 0
0.22756355 0.46691500 1.01480818 0 0 0
0.23135087 0.47837302 1.03971136 0 0 0
0.23532876 0.49040756 1.06586766 0 0 0
0.23951195 0.50306326 1.09337389 0 0 0
0.24828646 0.11819672 0.46622819 160 161 156
0.25891402 0.13224542 0.45087670 170 168 161
0.24758726 0.12356750 0.46419388 167 167 161
0.24391676 0.51638943 1.12233746 0 0 0
0.24856131 0.53044084 1.15287733 0 0 0
0.25346568 0.54527834 1.18512559 0 0 0
0.25865230 0.55991614 1.21922994 0 0 0
0.25865230 0.56202346 1.21922994 0 0 0
0.26165544 0.13408127 0.45209682 164 161 156
0.26414630 0.57759115 1.25535524 0 0 0
0.26997581 0.59522751 1.29368675 0 0 0
0.27617252 0.61397481 1.33443272 0 0 0
0.29404005 -0.28835440 1.44901480 93 101 118
0.29272950 -0.28609550 1.47259136 91 98 118
0.29012008 -0.28559165 1.48011315 92 97 118
0.29351692 -0.26140019 1.43621796 89 99 114
0.29141994 -0.26438473 1.45263573 88 97 115
0.29163033 -0.27399219 1.47219589 91 99 118
0.28841457 -0.27194762 1.48011315 92 100 119
0.29082727 -0.25754759 1.43318800 88 99 116
0.28277227 0.63394147 1.37782896 0 0 0
0.28981572 0.65525043 1.42414248 0 0 0
0.29734913 0.67804176 1.47367787 0 0 0
0.30533764 -0.28810007 1.47262312 92 100 118
0.31183481 -0.28459911 1.48894994 92 100 117
0.30244410 -0.27459075 1.47368139 92 99 117
0.31092729 -0.27760555 1.48988895 94 100 117
0.30542549 0.70247570 1.52678347 0 0 0
0.31410569 0.72873649 1.58385944 0 0 0
0.33083445 0.15912600 0.75237781 153 153 155
0.33109761 0.16127099 0.75675119 123 123 129
0.33505186 0.17105695 0.77036182 159 158 155
0.33036381 0.17439964 0.78098136 170 169 166
0.32346007 0.75703692 1.64536858 0 0 0
0.33357039 0.78762427 1.71184814 0 0 0
0.35218919 0.05892806 0.77429470 152 152 148
0.35173947 0.06983524 0.77192255 144 143 144
0.34181415 0.17245512 0.76671165 151 151 150
0.35746230 0.19933359 0.45850111 160 163 151
0.35810373 0.19617797 0.46195717 132 133 128
0.35492272 0.20275410 0.45785523 143 148 141
0.35754296 0.20143934 0.46082148 158 163 151
0.34453207 0.81924570 1.78392589 0 0 0
0.34453207 0.82232910 1.78392589 0 0 0
0.35645744 0.85686594 1.86234021 0 0 0
0.37911630 -0.31452305 0.75288062 96 106 111
0.36174932 0.05949802 0.77591612 144 144 144
0.36342338 0.07279348 0.77512009 135 135 137
0.36512007 0.08101944 0.77226365 138 139 145
0.36043194 0.19199526 0.45958769 142 144 135
0.36127744 0.19590587 0.46252359 134 135 127
0.36012420 0.20149697 0.46225156 158 163 150
0.36839275 0.33422047 1.05427505 146 141 139
0.36904070 0.33587536 1.06363841 152 149 144
0.37238695 0.34546764 1.07150453 152 152 151
0.37742653 0.35487482 1.08376619 160 160 159
0.37935776 0.36038271 1.09337389 162 162 162
0.36947939 0.89626208 1.94796503 0 0 0
0.38680331 -0.31057402 0.75524270 97 104 109
0.38525174 -0.30383630 0.76219649 97 103 109
0.39134091 -0.29832678 0.75863329 97 102 108
0.38717877 -0.29877117 0.76261214 96 103 108
0.39243578 -0.22338991 0.45945325 102 110 113
0.39600043 -0.22274382 0.46080971 100 111 111
0.39119183 -0.21741920 0.45956199 100 111 113
0.39574450 -0.21684679 0.46128179 98 109 109
0.39026590 -0.13246117 0.51937861 87 95 100
0.39178393 -0.13486285 0.52122299 87 96 102
0.38593513 0.35386433 1.07830423 162 162 158
0.38518338 0.35581152 1.08691124 163 162 159
0.38867509 0.36289001 1.09409131 172 171 165
0.38983975 0.36937830 1.10801183 169 169 165
0.39043607 0.37575070 1.12758577 163 163 161
0.39733624 0.38339839 1.13002913 160 160 154
0.39619583 0.38778573 1.14938780 158 160 155
0.39634502 0.39586248 1.16437547 143 145 144
0.40075130 -0.13438396 0.52075431 88 97 99
0.41222543 0.01935227 0.57081776 114 117 119
0.41410176 0.02375616 0.57159496 120 125 126
0.40063894 0.37555243 1.11312586 167 167 160
0.40104619 0.37768877 1.12233746 170 170 164
0.40455627 0.38127592 1.11863339 157 158 149
0.40646604 0.38646712 1.13021711 154 154 146
0.40786803 0.39586539 1.15004949 148 145 140
0.40477427 0.39598466 1.16276705 149 149 145
0.41336501 0.40128684 1.15681207 143 136 130
0.40816261 0.40335869 1.17352184 141 140 139
0.41161638 0.41269616 1.19234065 136 135 134
0.41029594 0.41820481 1.20658052 141 140 139
0.40827346 0.42293903 1.21922994 156 155 151
0.41774756 0.43260011 1.23477566 134 134 132
0.42031977 0.02790859 0.57254747 139 141 143
0.43902440 0.13731492 0.45034108 146 144 134
0.43995595 0.14116111 0.45072597 147 142 130
0.42881743 0.19507255 0.45278944 140 140 131
0.42983241 0.19448707 0.46243529 140 141 134
0.43366983 0.20407247 0.45397750 136 135 128
0.43215592 0.20479441 0.46068130 147 144 131
0.42218150 0.42419396 1.21377331 129 129 125
0.42531674 0.43422840 1.23130957 118 117 114
0.42605419 0.43803028 1.24658875 120 120 117
0.42628440 0.44113696 1.23477566 113 109 110
0.42927023 0.44371182 1.25238654 103 102 102
0.45291510 -0.46104424 1.11313091 101 107 113
0.45924228 -0.46033484 1.12233746 100 108 114
0.45476379 -0.45700825 1.11752827 99 106 112
0.45062093 -0.44932801 1.12844144 100 107 113
0.44372290 -0.44135390 1.15386766 101 109 115
0.44487521 -0.44199258 1.16077375 101 109 115
0.44854050 -0.43802889 1.13491593 99 107 114
0.44480014 -0.43734278 1.14509408 101 109 115
0.45858162 0.01539843 0.45085902 125 128 128
0.44268274 0.13697390 0.45147715 142 139 131
0.44054046 0.14057633 0.45072646 150 146 133
0.44067595 0.21171156 0.45325446 141 142 134
0.44919749 0.23131238 0.47693259 78 78 74
0.44951804 0.23547749 0.48172015 46 46 42
0.45235963 0.23876368 0.65719172 153 153 148
0.45263028 0.23923975 0.66006994 152 152 148
0.45495195 0.24126557 0.48443969 0 0 0
0.45173994 0.25451457 0.65805734 136 134 127
0.45718245 0.25293249 0.66451307 141 142 133
0.45567237 0.26143064 0.65869618 140 142 128
0.45543606 0.26120800 0.66132243 140 142 129
0.46159357 -0.46074906 1.11863339 102 110 117
0.46266185 -0.45795428 1.11771196 99 108 114
0.46094608 -0.45621424 1.12271342 102 109 116
0.46449203 0.01415611 0.45096164 133 136 137
0.46753335 0.02003320 0.45102584 114 117 118
0.47820139 0.06862618 0.46663508 115 120 120
0.46092184 0.24151160 0.48420926 0 0 0
0.46085981 0.25813198 0.65878701 155 152 135
0.46226796 0.25347478 0.66559549 141 140 129
0.47758504 0.26742804 0.89462032 148 149 147
0.47849309 0.27157060 0.90326206 132 133 131
0.49822312 -0.32275507 0.51449028 104 120 118
0.49895965 -0.31663491 0.51438137 107 118 117
0.49190597 0.05615768 0.47231833 142 144 141
0.48521121 0.06511027 0.46796399 112 119 118
0.49518754 0.07647883 0.52413690 120 122 122
0.48832554 0.08312202 0.51900298 108 112 112
0.49123572 0.08128180 0.52180350 107 112 111
0.49389089 0.18795658 0.75176722 145 144 141
0.48134476 0.25940812 0.87923717 171 171 169
0.48868952 0.25719934 0.89178079 134 132 135
0.49387015 0.25691746 0.90551078 135 132 130
0.48386226 0.26253558 0.89158432 156 156 155
0.48800944 0.26513876 0.90894886 145 145 144
0.49537839 0.26969085 0.93046678 145 145 142
0.50242112 -0.32327306 0.51346870 105 119 118
0.50284524 -0.31455217 0.51412796 110 117 117
0.50197960 0.05914859 0.47563181 136 137 135
0.50122821 0.06068207 0.47638217 109 113 114
0.50126691 0.07618037 0.52347070 121 122 122
0.50201055 0.19194652 0.75337786 165 166 159
0.50719932 0.20117618 0.75975570 163 163 157
0.50568956 0.20175255 0.76110631 156 155 152
0.51855801 0.23566151 0.58684612 128 129 123
0.51704655 0.24298594 0.58914075 110 110 105
0.51966888 0.24149503 0.60043561 121 114 109
0.50061685 0.25553647 0.90870219 116 107 111
0.53571118 -0.24803307 0.78380152 91 99 105
0.52249676 0.23576485 0.59450998 129 130 123
0.52934246 0.23614131 0.60535391 144 144 136
0.52180943 0.24253750 0.59645200 110 109 106
0.52232149 0.24228832 0.60086166 109 107 103
0.54771572 -0.26520859 0.78660623 92 101 106
0.54310284 -0.25106976 0.78617927 92 99 109
0.54997861 -0.14092322 0.83793801 87 92 100
0.55269030 -0.13052989 0.83699487 69 70 75
0.55080721 -0.12892681 0.84218937 61 62 64
0.55710334 -0.11857980 0.83613019 60 57 60
0.56327830 -0.12582121 0.83704239 57 57 60
0.56318965 -0.12244783 0.84036209 56 57 59
0.56263676 -0.11854731 0.83845654 61 57 60
0.56295681 -0.11949401 0.84001470 61 57 60
0.59992820 0.16580276 0.59325465 157 158 149
0.59908078 0.16632709 0.60132406 158 159 153
0.61207477 0.13357842 0.79563365 153 155 151
0.60947245 0.13422680 0.80310220 147 151 149
0.61140636 0.14252829 0.79481797 168 168 161
0.61937076 0.14068201 0.80034459 166 166 158
0.60282982 0.17191313 0.59595693 148 150 145
0.60632154 0.17372123 0.60643750 140 141 135
0.60799142 0.18151945 0.60930017 152 153 144
0.61909598 0.30965631 0.79378545 96 95 91
0.61852187 0.32116471 0.78008264 137 137 127
0.62484350 0.13424655 0.79908689 142 143 141
0.63040990 0.13433028 0.80347450 134 136 134
0.62490952 0.14190484 0.79814678 150 149 145
0.62783555 0.14174454 0.80244577 153 153 150
0.62529186 0.29787984 0.77621361 135 135 131
0.62847212 0.29877514 0.78324378 130 130 128
0.62615889 0.30142172 0.77784517 155 155 146
0.62703873 0.31064348 0.79311037 134 134 131
0.62915810 0.31764108 0.80313380 119 119 116
0.62416523 0.32416910 0.79228126 141 141 133
0.62942422 0.32430843 0.80644401 126 126 120
0.64225805 0.12584352 0.81624812 112 117 117
0.65282673 0.28510642 0.77918601 141 142 135
0.65471359 0.28703610 0.78621198 148 149 144
0.67427948 0.09037980 0.56522579 148 149 145
0.67367098 0.10023313 0.56467703 164 165 159
0.66433856 0.27477329 0.79407353 170 170 160
0.67090842 0.27878536 0.80367370 168 169 158
0.66456371 0.28402666 0.79366308 150 151 146
0.67347201 0.28614554 0.80983219 155 155 147
0.67839839 0.29182093 0.82496806 140 142 136
0.68440965 0.09075980 0.56851995 140 141 137
0.68055501 0.28977958 0.81903996 149 150 142
0.68136255 0.29396776 0.82810819 129 132 130
0.79991257 0.22519045 1.07944560 166 167 160
0.81377593 0.23423887 1.07283759 156 157 148
0.80932705 0.23380286 1.09352988 159 160 151
0.80854301 0.23928206 1.10136849 152 152 142
0.81049701 0.24549486 1.09780230 149 148 142
0.81110330 0.25079113 1.10217344 155 155 150
0.81631666 0.26325410 1.11283573 143 140 141
0.81267709 0.41930214 1.18512559 169 170 161
0.82099408 0.23973459 1.07772946 172 173 163
0.82222199 0.23864689 1.08550161 162 162 153
0.82196820 0.23986647 1.10405838 154 149 142
0.82043564 0.24011633 1.07944560 173 174 164
0.82963147 0.24425450 1.09439993 166 166 156
0.82963739 0.25125264 1.10417203 156 156 149
0.83156306 0.26465168 1.11222666 159 160 158
0.82946990 0.26847163 1.12506002 147 148 147
0.83996069 0.39866090 1.21268666 169 170 161
0.83058615 0.41400314 1.19373922 131 132 128
0.83173355 0.41446415 1.20784245 133 135 131
0.82641838 0.42326999 1.19488287 146 148 141
0.83161579 0.42921318 1.20667015 153 154 146
0.83568081 0.42371619 1.22835563 137 138 135
0.84701150 0.25043035 1.10436101 161 162 153
0.85570107 0.27609508 0.89113540 145 143 130
0.85574555 0.27867272 0.90225643 153 155 143
0.84055310 0.26816809 1.11863339 161 163 160
0.84904101 0.28138638 0.89846539 131 132 128
0.85501986 0.28473610 0.90396414 136 137 133
0.84297669 0.39588524 1.21704102 163 165 156
0.84275731 0.41668510 1.19642735 143 143 132
0.84532263 0.41297451 1.20976105 145 146 136
0.84862272 0.41158107 1.23010241 149 150 143
0.85459492 0.41351765 1.24156010 154 155 147
0.84228727 0.42130770 1.19664007 128 126 121
0.84478558 0.42264295 1.23273399 128 129 124
0.85075686 0.42516928 1.24875716 135 136 129
0.85689404 0.42971184 1.26394733 140 140 132
0.87608496 0.06430336 1.02493720 155 157 148
0.86070816 0.27923936 0.89285287 132 131 116
0.86312999 0.27852735 0.90345944 147 149 134
0.86462940 0.28328836 0.89655628 132 132 124
0.86625233 0.28647105 0.90625710 134 134 129
0.86407292 0.41645834 1.25690798 165 166 155
0.86083469 0.42354022 1.25535959 137 137 131
0.86226296 0.43041075 1.27029574 141 141 134
0.88841269 0.06736320 1.03053605 152 153 149
0.89109459 0.07468724 1.04884963 146 147 143
0.89500595 0.07478248 1.06720872 145 146 146
0.89218957 0.08530570 1.03479752 130 132 129
0.89283194 0.08273863 1.04856201 139 143 139
0.89635008 0.08231116 1.06545860 130 132 133
0.90327406 0.07262094 1.03481105 145 146 145
0.90501943 0.07597523 1.04412122 129 131 128
0.90347236 0.06992674 1.07318747 162 165 163
0.91104078 0.06796657 1.08812755 163 165 162
0.90279057 0.08370610 1.03706502 120 121 123
0.90371766 0.08214597 1.04255511 127 129 131
0.90038675 0.08603019 1.06586766 109 112 114
0.97469808 0.07620830 1.05094383 130 132 131
0.97530570 0.08508738 1.05062763 118 118 120
0.96254025 0.37909420 1.07149474 131 132 128
0.96783460 0.38576479 1.07383595 139 141 139
0.97442422 0.38859852 1.08658065 134 135 131
0.97765264 0.38744386 1.10316223 114 116 113
0.98572996 0.07577407 1.05250167 129 131 133
0.98450964 0.08617069 1.05068422 120 121 122
0.98183854 0.39326775 1.09550157 139 140 137
0.98481940 0.39215055 1.10658087 122 124 121
0.99567511 0.39632607 1.12569396 120 121 118
0.99758339 0.39982736 1.14123201 151 151 144
0.98629549 0.40226181 1.09162462 156 157 150
0.99558856 0.40671080 1.10744770 144 145 140
0.99439790 0.40277704 1.13353078 146 145 139
0.99683580 0.40694929 1.14833546 161 161 153
0.98854836 0.41455557 1.53716969 157 158 150
0.99330412 0.41179269 1.54536405 154 154 146
0.99446678 0.43735981 1.11129808 152 153 145
0.98675735 0.42510754 1.53369851 142 143 140
0.99105382 0.42639138 1.54883879 143 145 142
0.99410897 0.42672772 1.56558529 140 140 137
0.99417579 0.44000190 1.11312294 148 149 141
1.00182664 0.39759499 1.13486644 122 123 118
1.01599824 0.39924294 1.15091991 124 125 124
1.00203458 0.41456877 1.11459537 137 138 136
1.00641782 0.41264092 1.13036576 133 134 132
1.01115633 0.41150533 1.14698143 133 133 130
1.00955621 0.41351860 1.16879527 165 165 156
1.00360394 0.41366994 1.53716969 166 166 158
1.00740933 0.41290856 1.54906982 157 155 150
1.00823948 0.41252244 1.56921427 154 152 145
1.00709605 0.41568196 1.58016741 143 140 134
1.00572777 0.42294372 1.11633584 137 140 135
1.01063711 0.42803381 1.13173036 136 138 135
1.01528781 0.42552040 1.14704278 127 128 125
1.00872763 0.42458578 1.54791231 160 161 153
1.00255851 0.42203600 1.57163254 151 150 142
1.00436485 0.42250994 1.58016741 148 145 139
1.01031864 0.44163924 1.13046948 151 153 146
1.02023399 0.41842526 1.14896917 130 131 131
1.02366161 0.41520536 1.18512559 161 162 153
1.02416900 0.41443536 1.57283911 153 151 147
1.02419139 0.43252647 1.15153242 133 136 133
1.03071582 0.43877459 1.16077375 135 136 136
1.02761292 0.42175974 1.19208558 167 167 158
1.02737484 0.44310126 1.15290389 150 151 143
1.03644774 0.44628652 1.16677704 147 148 142
1.04724514 0.42562267 1.21485996 165 166 157
1.05963039 0.69122146 1.61019444 125 126 125
1.05823886 0.70467305 1.61019444 126 127 126
1.06952303 0.25094894 0.93853735 152 153 145
1.07479263 0.25292022 0.94498203 154 155 147
1.07498631 0.26293778 0.94810884 158 159 151
1.06227887 0.43473431 1.23477566 169 169 160
1.07599831 0.43818718 1.25072300 167 168 159
1.07754683 0.66139996 1.63741994 139 140 133
1.06451081 0.68964999 1.61458114 123 124 121
1.07166912 0.69252556 1.62789444 115 117 112
1.07993376 0.69589335 1.64536858 109 110 107
1.06189191 0.70943481 1.61788034 126 126 124
1.07162395 0.70745847 1.63270788 129 131 129
1.06930375 0.72191942 1.63347435 105 105 106
1.07883704 0.72265633 1.64803743 125 125 123
1.08362460 0.25104815 0.93890840 141 141 132
1.08602968 0.25491588 0.94680231 144 145 138
1.08840401 0.26082475 0.94730600 150 151 142
1.09397319 0.26730511 0.96688092 155 156 148
1.08805954 0.67071038 1.65339470 133 132 130
1.09733945 0.67876187 1.66969448 131 131 126
1.08541296 0.69331192 1.64937838 117 118 111
1.09032851 0.69724604 1.66559196 112 114 110
1.08267473 0.70950384 1.65390003 119 122 121
1.09300745 0.70329159 1.66968429 109 111 106
1.09551823 0.73867542 1.67795014 114 114 112
1.10373646 0.26951586 0.97644208 156 157 148
1.11075084 0.27473748 0.98302228 158 159 150
1.10539639 0.28143650 0.97678941 160 162 155
1.11660054 0.28376189 0.98782198 158 159 151
1.10969043 0.45169534 1.29248279 167 168 159
1.11425751 0.45574479 1.52679121 121 121 119
1.11565785 0.45296233 1.54888692 143 143 135
1.11049366 0.68828726 1.69194011 130 129 124
1.10951239 0.71292692 1.69263756 108 109 108
1.11680198 0.71334052 1.70754337 115 115 112
1.10426874 0.72995881 1.69135280 122 124 123
1.11343414 0.72275126 1.70539099 109 111 111
1.10647345 0.74166840 1.69472957 129 129 127
1.12305689 0.27992690 0.99543589 158 159 150
1.12631075 0.29062045 0.99709898 158 159 150
1.13104823 0.29348354 1.00354508 157 158 149
1.12802613 0.30190322 0.99984050 162 163 154
1.13133729 0.30041830 1.00354582 160 161 154
1.12050641 0.45883679 1.53716969 122 120 118
1.12979722 0.45384706 1.55109221 134 133 129
1.13496040 0.45414908 1.56816827 139 140 132
1.13803625 0.45741922 1.58757740 151 152 142
1.13803649 0.46016070 1.58756876 155 156 146
1.12916291 0.69972330 1.72491562 130 129 125
1.12499344 0.70862719 1.71401501 115 113 113
1.13329494 0.71304764 1.73091481 119 117 115
1.12047935 0.72287691 1.71618187 112 112 110
1.12962992 0.72881962 1.73651999 116 116 114
1.13379719 0.72729246 1.74715388 116 116 113
1.13740945 0.73556632 1.76075804 125 124 119
1.13184023 0.74716613 1.73818421 112 113 114
1.13474977 0.75812298 1.74265254 127 127 125
1.13767445 0.76309669 1.74714386 130 130 128
1.15013095 0.41420551 1.57284053 159 160 150
1.15673586 0.41785930 1.58894291 168 169 159
1.15987778 0.41742325 1.60258114 175 176 164
1.15734506 0.43651398 1.57649267 173 170 165
1.15617517 0.43033919 1.58902891 167 167 159
1.15931258 0.43611753 1.60410020 172 174 163
1.14980617 0.45145866 1.57067060 150 149 143
1.15235942 0.44996723 1.59131497 160 161 151
1.15168968 0.44954534 1.60575389 160 160 150
1.14952517 0.71917433 1.76534331 128 129 123
1.14157232 0.72797753 1.75468385 114 114 112
1.14843245 0.72917574 1.77151314 122 122 118
1.15541589 0.73793662 1.78863287 121 123 116
1.14644518 0.74780310 1.76813781 110 112 111
1.15655331 0.75230908 1.79160272 121 121 117
1.15550125 0.76327810 1.77924371 106 107 109
1.15849000 0.76212764 1.79099876 114 115 115
1.16135585 0.41810875 1.58948445 169 169 160
1.16448935 0.41590416 1.60384703 174 176 165
1.16597659 0.43162631 1.59415148 167 166 162
1.16737962 0.43593064 1.61103153 173 174 167
1.16534269 0.43923473 1.62175083 171 173 161
1.16009688 0.45317155 1.57283485 156 157 150
1.16093369 0.44522547 1.58324699 171 171 162
1.16481915 0.44307225 1.61328332 174 176 162
1.17001096 0.44604466 1.62955399 170 173 159
1.16462415 0.74424684 1.80772448 126 127 121
1.16465950 0.77328211 1.79653593 117 117 117
1.16600871 0.77069139 1.80664894 114 114 114
1.17401421 0.77753529 1.82720172 124 125 119
1.17191116 0.78503260 1.80934425 118 118 117
1.17639187 0.78620912 1.83091885 126 126 121
1.18037748 0.77698660 1.83710527 123 124 117
1.18681440 0.77324446 1.84712359 130 128 122
1.19659138 0.77156502 1.86234021 130 129 121
1.18192808 0.79264346 1.83049844 120 120 119
1.18553827 0.79271196 1.84712772 128 128 124
1.19311681 0.79523871 1.87092565 141 140 132
1.19693840 0.79862970 1.88827813 154 153 145
1.18287158 0.80145332 1.82918239 116 116 111
1.18841523 0.80677278 1.84713736 124 123 118
1.19305178 0.80665659 1.86576679 136 136 130
1.19529358 0.80541712 1.88697416 157 154 147
1.20004404 0.79420519 1.87781680 136 137 127
1.20418136 0.79735984 1.89146640 144 144 134
1.20036185 0.80966789 1.89885676 161 156 150
1.20489403 0.81126972 1.90776650 161 158 149
1.21402848 0.81501275 1.92310125 160 157 148
1.22032654 0.80102736 1.90955448 138 138 129
1.23106444 0.81247056 1.93683386 146 147 136
1.23495436 0.81949484 1.95357883 151 152 141
1.22102141 0.82251358 1.93683386 163 158 151
1.22725537 0.82783720 1.94939271 164 161 151
1.23891222 0.83345366 1.97061586 162 158 151
1.24130630 0.81144130 1.94238353 139 139 130
1.25324786 0.83391410 1.98795259 154 154 144
1.25718534 0.84229022 1.99968100 159 157 149
