ply
format ascii 1.0
element vertex 1075
property float x
property float y
property float z
property uchar red
property uchar green
property uchar blue
end_header
-0.43544422 -0.54115915 1.07645439 107 108 104
-0.43637436 -0.54610337 1.09381729 120 121 123
-0.42960197 -0.54974702 1.11742474 113 133 138
-0.43588805 -0.52992797 1.07652893 130 129 124
-0.43412504 -0.52918561 1.08845178 127 130 133
-0.42979819 -0.53009123 1.11842515 115 131 138
-0.43623574 -0.51054520 1.07721811 133 131 126
-0.43472956 -0.51151746 1.08827433 126 129 131
-0.43216016 -0.51108169 1.11782499 119 131 137
-0.42332463 -0.50472405 1.12021784 116 129 139
-0.43638194 -0.49047940 1.07775054 125 121 120
-0.43525293 -0.48990589 1.08890449 128 128 129
-0.43735849 -0.49365574 1.11576676 121 129 137
-0.42831804 -0.48833820 1.12040894 113 129 138
-0.43582649 -0.47039369 1.07868083 109 100 102
-0.43727530 -0.47138450 1.09396399 123 125 128
-0.43966121 -0.46353208 1.11054661 118 125 133
-0.43018174 -0.47035362 1.12050717 111 128 139
-0.43602381 -0.45008943 1.07916861 108 99 100
-0.43542252 -0.44836710 1.09156224 122 123 129
-0.43958756 -0.45280143 1.11646296 113 126 132
-0.42970933 -0.44978074 1.12059683 112 127 134
-0.43663296 -0.43035616 1.07936552 115 114 115
-0.43442632 -0.42907086 1.08738132 121 122 126
-0.43027101 -0.42959141 1.12074113 110 126 135
-0.43766018 -0.41096591 1.07950323 125 124 122
-0.43461063 -0.40937834 1.08549345 122 124 127
-0.42958959 -0.41027523 1.12100757 108 124 136
-0.43806149 -0.39055486 1.07959221 122 120 119
-0.43483966 -0.39076403 1.08450503 120 122 124
-0.43930472 -0.38710943 1.11054837 114 122 129
-0.43002493 -0.39010844 1.12121408 107 122 135
-0.43726653 -0.36924203 1.07947292 113 112 112
-0.43503449 -0.37164727 1.08504842 116 117 119
-0.43908182 -0.37664499 1.10872577 115 120 126
-0.43053643 -0.36961112 1.12119626 105 118 133
-0.43719799 -0.34974529 1.07962033 105 99 97
-0.43483408 -0.34820443 1.08351696 114 109 107
-0.43993141 -0.34308890 1.11029500 104 111 120
-0.43058619 -0.35042254 1.12108937 100 117 133
-0.43754209 -0.33087386 1.07969207 99 96 97
-0.43517400 -0.32757296 1.08378926 110 108 109
-0.43987956 -0.33125445 1.11537879 104 114 126
-0.42952672 -0.33000845 1.12082731 101 115 133
-0.43841979 -0.31202324 1.07979862 116 109 109
-0.43535426 -0.30900475 1.08402675 110 108 110
-0.43680722 -0.30828300 1.11809409 102 112 129
-0.42710319 -0.31065516 1.12053858 99 113 131
-0.43914857 -0.29922642 1.07997084 147 143 135
-0.43587507 -0.28990744 1.08353684 114 109 111
-0.43341927 -0.28919425 1.11944748 99 110 130
-0.42342473 -0.29140573 1.12026957 95 109 129
-0.43584588 -0.26973145 1.08320758 112 107 112
-0.43125558 -0.27027325 1.11937736 98 108 126
-0.42107025 -0.27222415 1.12011396 95 108 126
-0.43571054 -0.25000592 1.08324099 98 89 92
-0.43094897 -0.25014587 1.11928158 95 105 126
-0.42060547 -0.25032123 1.12006595 93 106 125
-0.43529339 -0.22983257 1.08364547 88 84 88
-0.43178338 -0.23003244 1.11841922 92 101 122
-0.42060095 -0.22999140 1.12005390 90 104 124
-0.43561398 -0.21010348 1.08328765 91 84 86
-0.43151225 -0.21082162 1.11830192 89 100 121
-0.42059377 -0.21062862 1.12003479 87 100 123
-0.43582979 -0.18970351 1.08363550 116 113 112
-0.43003229 -0.19005384 1.11884754 91 98 123
-0.43590802 -0.17003543 1.08323551 117 116 116
-0.43101605 -0.16962465 1.11718006 87 100 120
-0.43533341 -0.14997031 1.08414119 108 102 101
-0.43043311 -0.15041658 1.11725103 87 98 122
-0.43544061 -0.12983817 1.08394980 80 71 75
-0.43060313 -0.12975277 1.11513465 69 74 93
-0.43552022 -0.10951177 1.08399252 72 65 68
-0.43046269 -0.10975284 1.11403367 60 63 76
-0.43504491 -0.09020071 1.08341124 93 87 86
-0.42968734 -0.09007878 1.11352526 59 60 73
-0.43452540 -0.06953404 1.08378082 113 108 105
-0.42851704 -0.07011050 1.11221839 58 60 67
-0.43421087 -0.05009586 1.08418941 111 109 104
-0.42823235 -0.04990127 1.11084990 58 60 72
-0.43440473 -0.03044153 1.08428546 88 81 82
-0.42771529 -0.03051831 1.10698491 104 108 127
-0.43078685 -0.00933297 1.08929828 90 85 92
-0.42636983 -0.01781116 1.10152924 121 125 135
-0.43008727 0.01053421 1.08438301 79 72 73
-0.43020133 0.03050010 1.07536905 122 115 109
-0.42426340 0.02183851 1.08009329 129 121 111
-0.43168516 0.05957926 1.05919087 101 99 101
-0.42977306 0.04902348 1.06512485 109 105 104
-0.43001252 0.07041660 1.05303691 111 110 107
-0.42999756 0.09719904 1.03762142 90 90 95
-0.43008555 0.08695447 1.04353432 97 96 99
-0.42999261 0.11076744 1.02969315 96 93 96
-0.43002461 0.13385093 1.01593784 116 112 110
-0.42984972 0.12403082 1.02177924 117 113 113
-0.43002287 0.14995835 1.00636239 115 111 108
-0.42991889 0.17046054 0.99405662 117 115 112
-0.43006113 0.16025736 1.00022669 115 112 108
-0.43011624 0.19648187 0.97822630 87 87 91
-0.42999279 0.18660670 0.98424804 109 106 107
-0.43002904 0.20989559 0.97008339 84 84 87
-0.42992818 0.23333401 0.95589287 107 104 101
-0.42984810 0.22314058 0.96202662 85 85 85
-0.43011637 0.25943642 0.93990146 90 88 88
-0.43003367 0.24965786 0.94590017 105 101 100
-0.42999854 0.27045687 0.93306076 56 55 57
-0.42992541 0.29536953 0.91783170 32 31 36
-0.43000045 0.28606018 0.92350207 36 35 40
-0.43005994 0.30993407 0.90916669 29 27 32
-0.42994822 0.33246671 0.89584034 26 26 29
-0.42986778 0.32285339 0.90147233 26 26 30
-0.43003562 0.35998074 0.87990456 24 24 28
-0.43002809 0.34941995 0.88597182 25 25 29
-0.43000925 0.37042890 0.87393703 24 24 28
-0.43008275 0.39843633 0.85945787 23 23 27
-0.42999359 0.38876712 0.86442050 25 23 26
-0.43018121 0.40988818 0.85450094 24 23 27
-0.42999256 0.42996120 0.84711077 3 3 4
-0.43185332 0.45717502 0.83924648 0 0 0
-0.42924397 0.44764834 0.84214132 0 0 0
-0.43001221 0.46734187 0.83658871 0 0 0
-0.40884395 -0.70209892 1.04305930 0 0 0
-0.41001738 -0.68970038 1.04444559 0 0 0
-0.40995508 -0.67004673 1.04708012 0 0 0
-0.41018773 -0.64963192 1.05020832 0 0 0
-0.41001501 -0.62960826 1.05371729 0 0 0
-0.41049998 -0.61130473 1.05779002 0 0 0
-0.40629269 -0.60160879 1.06065054 0 0 0
-0.41006494 -0.58957472 1.06445716 0 0 0
-0.40933224 -0.58458482 1.09102342 108 120 129
-0.40968028 -0.58774651 1.11606030 116 130 134
-0.40984734 -0.57807531 1.07018336 4 5 6
-0.41038473 -0.57028449 1.11796803 116 130 135
-0.41022817 -0.55037928 1.11911975 113 130 136
-0.40125118 -0.54265562 1.12008031 112 131 137
-0.41361133 -0.53159484 1.11961927 110 131 136
-0.40539898 -0.52807766 1.12036839 114 129 135
-0.41796476 -0.51869833 1.11990670 116 129 140
-0.41000284 -0.50982268 1.12081192 111 129 137
-0.40966838 -0.48986607 1.12143899 110 129 135
-0.40937039 -0.47011944 1.12175073 108 127 136
-0.40990212 -0.44987183 1.12191963 107 127 133
-0.40974596 -0.43019228 1.12214352 108 123 133
-0.40986126 -0.40994173 1.12245863 107 122 131
-0.40998264 -0.38968665 1.12279044 105 118 134
-0.41000197 -0.37029770 1.12284311 101 118 134
-0.40980704 -0.35004221 1.12271153 103 115 131
-0.40998839 -0.32959730 1.12238045 100 112 130
-0.40967053 -0.30988525 1.12193778 99 110 130
-0.40950312 -0.29037491 1.12148026 99 107 129
-0.40938015 -0.26994061 1.12114377 95 106 127
-0.40934619 -0.24957256 1.12105071 91 104 125
-0.40969306 -0.23040499 1.12099879 88 101 123
-0.41026971 -0.20982733 1.12092470 88 97 121
-0.41829687 -0.18383200 1.11993212 86 98 121
-0.40967972 -0.18980956 1.12077586 86 97 121
-0.41647314 -0.16842675 1.11972517 86 98 121
-0.40745078 -0.17068031 1.12063610 84 98 122
-0.41374732 -0.14945953 1.11930633 83 96 122
-0.40438904 -0.15153952 1.12040245 82 96 123
-0.41061212 -0.12962184 1.11803035 66 70 91
-0.40282191 -0.13843313 1.12014155 84 94 121
-0.40985771 -0.10968126 1.11716501 58 61 74
-0.40963265 -0.09032282 1.11655088 55 58 71
-0.40975325 -0.07024627 1.11550712 54 57 69
-0.41006062 -0.04944196 1.11371713 57 58 71
-0.40993806 -0.03039911 1.10830831 103 108 127
-0.41023778 -0.00636422 1.09616093 115 119 129
-0.40990942 -0.01689919 1.10172615 133 135 145
-0.41009905 0.01069918 1.08663616 104 101 101
-0.40999775 0.03108011 1.07529286 118 112 107
-0.40944640 0.02184482 1.08040527 120 117 109
-0.41056096 0.05986117 1.05919173 105 104 107
-0.40996072 0.04906258 1.06525243 104 102 102
-0.41004233 0.07042523 1.05316722 105 103 103
-0.41007859 0.09722565 1.03769234 92 93 97
-0.41005633 0.08688483 1.04367275 104 103 105
-0.40999249 0.11067514 1.02980742 94 91 94
-0.41004828 0.13372640 1.01601613 115 111 109
-0.40997996 0.12392150 1.02184867 123 117 115
-0.40994842 0.14994140 1.00637381 113 108 105
-0.40996343 0.17043938 0.99411346 117 114 110
-0.41019241 0.16026230 1.00025747 106 101 100
-0.41004956 0.19647151 0.97826419 92 92 93
-0.40997734 0.18664504 0.98428083 111 111 107
-0.40997085 0.20994558 0.97005892 90 91 93
-0.40992006 0.23327678 0.95588156 108 105 102
-0.40988675 0.22313627 0.96200802 74 73 77
-0.41056675 0.25940159 0.93977527 86 82 82
-0.40999546 0.24965820 0.94578552 108 105 100
-0.40994835 0.27043099 0.93293777 86 85 83
-0.40972007 0.29585780 0.91744275 56 54 57
-0.41001663 0.28598526 0.92346676 70 69 73
-0.41017816 0.31031654 0.90883155 45 43 46
-0.40987673 0.33255074 0.89568959 36 35 40
-0.40996276 0.32284690 0.90136876 38 37 44
-0.40949833 0.35997538 0.87989145 34 34 37
-0.41013096 0.34951872 0.88585484 34 32 37
-0.41002633 0.37042370 0.87402682 35 34 37
-0.41035908 0.39912226 0.85960755 37 35 38
-0.40999909 0.38948103 0.86437953 35 34 38
-0.41004626 0.40988248 0.85533424 35 34 37
-0.40996421 0.43001243 0.84849413 0 0 0
-0.41815107 0.45943012 0.83984557 0 0 0
-0.40994291 0.44996263 0.84305115 0 0 0
-0.41036516 0.46864171 0.83797792 0 0 0
-0.40462952 0.46115762 0.84051593 0 0 0
-0.39040538 -0.70279070 1.04445683 0 0 0
-0.38997644 -0.69025825 1.04592023 0 0 0
-0.39005533 -0.67014916 1.04858805 0 0 0
-0.38983729 -0.65056877 1.05159871 0 0 0
-0.38984307 -0.63011666 1.05520610 0 0 0
-0.39127105 -0.61404659 1.05854306 0 0 0
-0.38881645 -0.60450546 1.06122290 0 0 0
-0.39008085 -0.59001352 1.06576915 0 0 0
-0.39019468 -0.58764279 1.11745153 116 127 134
-0.38966511 -0.57752533 1.07151029 5 6 7
-0.38935591 -0.57964670 1.08425549 100 114 118
-0.39205760 -0.57152913 1.11937303 115 128 132
-0.38414294 -0.56514103 1.12035622 115 125 133
-0.39772575 -0.55636498 1.11979829 112 129 137
-0.38904657 -0.54917734 1.12078783 112 127 134
-0.39006466 -0.52987924 1.12155364 111 127 133
-0.39049450 -0.50988242 1.12230613 112 125 134
-0.38967586 -0.49013376 1.12296686 111 124 132
-0.39000027 -0.46980069 1.12335674 110 124 132
-0.38988149 -0.45016506 1.12358459 108 120 133
-0.38973350 -0.43009291 1.12370713 106 119 132
-0.39015053 -0.40976785 1.12378897 107 120 131
-0.39000927 -0.39008990 1.12395170 105 117 130
-0.38978719 -0.37025421 1.12395774 100 116 133
-0.39021391 -0.34988516 1.12390787 100 114 131
-0.38993774 -0.32980747 1.12374622 96 111 129
-0.38987268 -0.31033265 1.12355949 98 109 128
-0.38972763 -0.28998298 1.12337312 97 107 128
-0.38981504 -0.26955738 1.12314499 95 105 126
-0.38969495 -0.25001716 1.12304782 92 103 122
-0.39005172 -0.23035099 1.12289303 89 98 120
-0.39050413 -0.21013830 1.12258453 87 96 120
-0.39041032 -0.18971956 1.12231449 84 95 121
-0.39032172 -0.17028269 1.12206003 86 96 121
-0.39016222 -0.14985839 1.12160194 84 94 120
-0.39569885 -0.12532851 1.11952686 59 60 82
-0.38753007 -0.13088611 1.12078375 64 69 89
-0.39172104 -0.10896478 1.11924727 56 59 71
-0.38291143 -0.11455853 1.12023290 57 61 74
-0.39006531 -0.09048430 1.11854398 54 57 69
-0.39014879 -0.06985236 1.11720847 52 55 69
-0.38989325 -0.04974098 1.11528636 54 57 72
-0.39007562 -0.03019630 1.10944101 108 112 129
-0.39009813 -0.00623995 1.09650048 111 114 126
-0.39010688 -0.01677186 1.10227229 132 137 145
-0.39004780 0.00988399 1.08747020 110 108 107
-0.38994654 0.03102995 1.07555679 113 108 106
-0.38920078 0.02092658 1.08122746 119 117 111
-0.39046958 0.05986833 1.05931836 96 96 98
-0.39002073 0.04922000 1.06533064 98 97 98
-0.39006722 0.07043398 1.05329803 102 101 103
-0.38994309 0.09727338 1.03777698 95 94 94
-0.39002548 0.08698944 1.04371245 100 100 100
-0.39006940 0.11075132 1.02984222 106 102 102
-0.38999626 0.13388740 1.01600025 118 113 110
-0.38991331 0.12398349 1.02187330 114 110 108
-0.39004118 0.14996913 1.00642730 116 114 113
-0.38995048 0.17043296 0.99421925 110 107 107
-0.39033886 0.16027401 1.00033058 108 105 105
-0.39001074 0.19653875 0.97833015 99 98 98
-0.38997863 0.18669190 0.98435790 112 109 107
-0.38998380 0.20991688 0.97011420 85 86 90
-0.38999635 0.23326196 0.95584932 111 108 107
-0.38992270 0.22312992 0.96198067 87 87 90
-0.39020835 0.25936542 0.93964425 114 106 102
-0.39001870 0.24954958 0.94572615 117 113 111
-0.38996915 0.27037436 0.93271653 86 85 84
-0.39000188 0.29592636 0.91707113 83 83 81
-0.39004289 0.28594108 0.92314256 75 75 75
-0.39002161 0.31035660 0.90847651 66 65 66
-0.38986615 0.33261262 0.89534526 55 55 56
-0.39060560 0.32242650 0.90133708 66 63 65
-0.38963149 0.35988608 0.87967318 53 52 52
-0.38998318 0.34992942 0.88531465 52 50 52
-0.39000011 0.37034179 0.87390675 58 55 55
-0.38975122 0.39931713 0.85981378 70 65 64
-0.39006538 0.38952018 0.86446562 67 63 63
-0.39003979 0.41003328 0.85586981 53 50 50
-0.38999427 0.43010802 0.84985734 0 0 0
-0.38995841 0.45003110 0.84463866 0 0 0
-0.39101285 0.47191076 0.83875657 0 0 0
-0.38875277 0.46412024 0.84103944 0 0 0
-0.36979968 -0.70304688 1.04600605 0 0 0
-0.36993397 -0.68986270 1.04752538 0 0 0
-0.37008303 -0.66961335 1.05021761 0 0 0
-0.37011147 -0.64965605 1.05329821 0 0 0
-0.36992276 -0.62997851 1.05681868 0 0 0
-0.37212086 -0.61695616 1.05934971 0 0 0
-0.36902595 -0.60740087 1.06191596 0 0 0
-0.37016034 -0.58982687 1.06736382 0 0 0
-0.37551515 -0.58393691 1.09582341 117 124 136
-0.37295281 -0.58819017 1.11715807 115 125 131
-0.36556211 -0.58534436 1.12037937 109 126 131
-0.36935086 -0.57709283 1.07317738 4 5 6
-0.37358452 -0.57878669 1.08381627 61 74 77
-0.37925220 -0.57870523 1.11990905 113 127 133
-0.36972212 -0.57022441 1.12099806 112 126 131
-0.36975801 -0.55011962 1.12191166 111 124 131
-0.37033173 -0.53018595 1.12275433 109 125 132
-0.37042581 -0.51031754 1.12347514 107 124 130
-0.36972012 -0.49009189 1.12403607 109 122 131
-0.36974491 -0.46990783 1.12435659 109 121 131
-0.36979978 -0.45054104 1.12452297 107 120 129
-0.36983543 -0.43017433 1.12463166 103 118 130
-0.36988182 -0.40981533 1.12477273 103 117 129
-0.36990273 -0.39039687 1.12483608 100 117 129
-0.36991457 -0.36999460 1.12487217 103 113 129
-0.36991562 -0.34958118 1.12487562 99 112 130
-0.36988978 -0.33011577 1.12479729 97 110 127
-0.36975740 -0.31054056 1.12466112 95 109 125
-0.36987376 -0.29010435 1.12450222 96 106 124
-0.36970532 -0.26971371 1.12423665 92 104 122
-0.36965680 -0.25024905 1.12408911 92 101 121
-0.36993125 -0.23004558 1.12391381 87 98 118
-0.37049275 -0.20937179 1.12367771 86 95 118
-0.37039139 -0.18989810 1.12337024 85 95 117
-0.37029309 -0.17043625 1.12307180 86 95 120
-0.37014207 -0.14999345 1.12261367 83 93 117
-0.36981840 -0.12950759 1.12163211 62 65 82
-0.37926306 -0.10188762 1.11994116 54 57 69
-0.36973090 -0.11002627 1.12067577 56 58 69
-0.37163978 -0.08829860 1.11954078 53 55 69
-0.36638765 -0.09639625 1.12022300 54 56 69
-0.36986813 -0.07032035 1.11836012 51 54 67
-0.37003107 -0.04979189 1.11642543 52 56 68
-0.37009240 -0.03042783 1.11058330 108 113 131
-0.37025131 -0.00551685 1.09646889 120 123 131
-0.36982157 -0.01597211 1.10243384 124 127 140
-0.36992820 0.00975770 1.08775911 111 107 108
-0.36986321 0.03097835 1.07575727 119 117 115
-0.37012143 0.02097411 1.08138352 121 119 116
-0.37038814 0.05987786 1.05948693 92 94 96
-0.37006562 0.04916606 1.06550953 99 98 100
-0.37001936 0.07048875 1.05344741 109 107 106
-0.37002868 0.09722815 1.03793207 100 97 97
-0.36989908 0.08699209 1.04387208 98 96 97
-0.37007970 0.11068722 1.02998594 117 113 112
-0.37015497 0.13381680 1.01612163 108 106 105
-0.36985921 0.12404952 1.02193318 113 113 110
-0.36999840 0.14991847 1.00655632 111 111 111
-0.37000937 0.17052080 0.99426267 96 96 96
-0.36962330 0.16028800 1.00041789 99 97 100
-0.36996159 0.19650821 0.97844695 106 105 105
-0.36997214 0.18660820 0.98450895 105 102 99
-0.37000414 0.20997333 0.97014181 89 88 91
-0.36998776 0.23322699 0.95581736 94 93 92
-0.36997184 0.22313095 0.96198516 92 92 93
-0.36983909 0.25931775 0.93947155 118 114 107
-0.37004899 0.24953163 0.94561860 105 105 100
-0.36994837 0.27025329 0.93253747 100 97 96
-0.36964480 0.29541120 0.91692566 75 75 78
-0.37025843 0.28545702 0.92308009 75 75 77
-0.37000580 0.31031652 0.90797232 74 75 77
-0.37002894 0.33212361 0.89507290 79 78 77
-0.36978613 0.32189474 0.90112485 66 65 66
-0.36832231 0.35921399 0.87944639 68 69 71
-0.37016578 0.34941716 0.88503927 66 66 67
-0.37004864 0.37018910 0.87348645 65 65 66
-0.37041434 0.39929819 0.85977301 83 83 81
-0.36995999 0.38943624 0.86426206 79 77 79
-0.37021124 0.40978833 0.85633706 55 55 55
-0.36981235 0.42997047 0.85114953 0 0 0
-0.37020296 0.45006391 0.84606632 0 0 0
-0.37161646 0.47511605 0.83930236 0 0 0
-0.36939377 0.46672362 0.84182588 0 0 0
-0.34970357 -0.70384008 1.04751155 0 0 0
-0.35016565 -0.69012740 1.04905798 0 0 0
-0.34981039 -0.67045642 1.05171247 0 0 0
-0.35012899 -0.65005759 1.05483863 0 0 0
-0.35050240 -0.63126825 1.05812261 0 0 0
-0.34517209 -0.62178050 1.06042971 0 0 0
-0.35859779 -0.61970567 1.05981946 0 0 0
-0.35005157 -0.60979786 1.06272417 0 0 0
-0.35013946 -0.58975198 1.06863212 0 0 0
-0.34074774 -0.58223239 1.09975898 107 124 129
-0.35260676 -0.58766467 1.10807983 110 123 130
-0.35012677 -0.58584188 1.12105950 110 123 127
-0.34981755 -0.57590235 1.07398107 8 9 9
-0.34201714 -0.57984011 1.09167624 89 98 106
-0.35012857 -0.56964127 1.12200933 108 124 129
-0.34985411 -0.54983811 1.12289004 111 123 128
-0.35012249 -0.52986580 1.12375130 109 122 129
-0.35021565 -0.50980559 1.12430876 109 121 128
-0.34954124 -0.48958058 1.12466313 109 120 128
-0.34949974 -0.47012271 1.12487061 107 119 130
-0.34940393 -0.44995032 1.12502600 108 118 129
-0.34973859 -0.42960939 1.12514882 106 117 127
-0.34963419 -0.41000869 1.12530328 100 115 128
-0.34966248 -0.39059052 1.12539428 103 114 128
-0.34965888 -0.37016266 1.12538287 99 112 127
-0.34966201 -0.34974186 1.12539267 97 111 125
-0.34963361 -0.33026364 1.12530119 98 108 124
-0.34958971 -0.30980237 1.12515967 97 106 124
-0.34953652 -0.28933845 1.12498847 94 103 121
-0.34947386 -0.26984578 1.12478742 89 101 121
-0.34942949 -0.25037275 1.12464460 88 98 119
-0.34975400 -0.22969053 1.12448189 88 96 118
-0.35029872 -0.20949034 1.12431470 86 93 118
-0.35021546 -0.19001264 1.12404779 83 92 117
-0.35012123 -0.17053852 1.12374569 81 94 117
-0.34997974 -0.15008416 1.12329156 82 92 116
-0.35017793 -0.12978919 1.12213160 61 64 77
-0.35027070 -0.11006952 1.12111461 54 56 68
-0.35173498 -0.08395064 1.11982702 52 52 70
-0.34931150 -0.09321308 1.12036800 52 54 67
-0.34977936 -0.07005478 1.11893517 50 52 67
-0.34999896 -0.04982429 1.11715620 51 53 68
-0.35004335 -0.03025153 1.11111593 110 112 126
-0.34990429 -0.00537620 1.09671956 129 131 137
-0.35004886 -0.01586347 1.10273956 122 124 137
-0.34997694 0.00976811 1.08798015 109 107 108
-0.35031677 0.03165859 1.07556779 117 114 112
-0.34905152 0.02160240 1.08121676 129 120 117
-0.35030484 0.05988819 1.05966977 101 101 103
-0.35004050 0.04910068 1.06575268 98 97 99
-0.34996699 0.07045746 1.05364953 113 112 111
-0.35011883 0.09718594 1.03812050 119 115 116
-0.34988864 0.08696987 1.04408579 122 117 116
-0.35002597 0.11075727 1.03008738 126 123 122
-0.35009634 0.13385434 1.01619502 108 107 104
-0.35002071 0.12395378 1.02211478 121 120 116
-0.34995295 0.15003280 1.00660047 98 97 98
-0.35005294 0.17044737 0.99437634 103 100 100
-0.34976583 0.16030069 1.00049708 106 102 101
-0.34988245 0.19646393 0.97849508 89 86 88
-0.34993690 0.18664001 0.98450770 108 108 107
-0.35000339 0.20993878 0.97016944 79 79 81
-0.34998818 0.23324396 0.95577606 82 82 83
-0.35001463 0.22312794 0.96197223 87 87 87
-0.35030464 0.25928159 0.93934055 94 93 90
-0.34996951 0.24963401 0.94546504 87 87 85
-0.34995127 0.27024045 0.93234453 90 89 91
-0.35000806 0.29501064 0.91679315 77 78 81
-0.34990810 0.28506095 0.92300865 72 72 74
-0.34994364 0.31010491 0.90752379 75 76 78
-0.34984846 0.33136549 0.89479198 76 76 77
-0.35069231 0.32124811 0.90087536 73 73 76
-0.34897509 0.35835209 0.87909301 62 63 67
-0.35023771 0.34849862 0.88474198 70 70 73
-0.35003743 0.36992955 0.87288205 77 76 78
-0.34918915 0.39905655 0.85965278 91 90 90
-0.35003233 0.38917447 0.86394741 80 79 79
-0.35005072 0.40979032 0.85672283 38 38 37
-0.35009303 0.42991136 0.85220694 0 0 0
-0.34998712 0.45006897 0.84728588 0 0 0
-0.35509223 0.47692782 0.83979198 0 0 0
-0.34970736 0.46878608 0.84251330 0 0 0
-0.33046207 -0.70404386 1.04901427 0 0 0
-0.32988137 -0.68989801 1.05073944 0 0 0
-0.33002762 -0.66966739 1.05341443 0 0 0
-0.32993748 -0.64977831 1.05651474 0 0 0
-0.33123158 -0.63452021 1.05902378 0 0 0
-0.32928256 -0.62523607 1.06096479 0 0 0
-0.32983429 -0.61033228 1.06401141 0 0 0
-0.33006617 -0.59018880 1.06942139 0 0 0
-0.33693500 -0.58057470 1.09662783 105 127 128
-0.32370222 -0.59085316 1.11969801 105 119 122
-0.33041403 -0.58567791 1.12151787 110 121 125
-0.32973077 -0.57561087 1.07439688 4 5 5
-0.32884740 -0.57876140 1.09249493 99 116 114
-0.32991747 -0.57033242 1.12266363 110 120 127
-0.32967528 -0.55017083 1.12356921 108 120 125
-0.32989403 -0.53013138 1.12431382 110 119 125
-0.33001437 -0.50991274 1.12472336 105 121 125
-0.33009693 -0.48962349 1.12500479 107 118 125
-0.33016043 -0.47026916 1.12522105 105 117 129
-0.33021218 -0.44991875 1.12539751 104 116 124
-0.33026270 -0.42956037 1.12556991 103 115 125
-0.33031294 -0.41016833 1.12574140 102 113 125
-0.33026686 -0.38986772 1.12585817 99 111 126
-0.33043560 -0.36945408 1.12586445 97 111 123
-0.33033314 -0.34987186 1.12581064 99 108 124
-0.33030174 -0.33038176 1.12570361 98 106 123
-0.33025759 -0.30991067 1.12555292 94 103 123
-0.33021235 -0.28944388 1.12539851 93 99 121
-0.33015842 -0.26994827 1.12521475 90 98 121
-0.33011398 -0.25046602 1.12506326 88 96 120
-0.33006441 -0.23001347 1.12489403 86 95 116
-0.33000995 -0.20956377 1.12470832 83 94 113
-0.32993252 -0.19007967 1.12444453 82 91 114
-0.32984251 -0.17059806 1.12413776 83 91 114
-0.32970333 -0.15013399 1.12366319 79 91 115
-0.32992576 -0.12937244 1.12236304 57 59 71
-0.32999962 -0.11009465 1.12136989 51 54 64
-0.33732949 -0.08188684 1.11996508 52 50 69
-0.32970944 -0.09103963 1.12050928 50 52 63
-0.33054750 -0.06996149 1.11929957 49 51 64
-0.32379717 -0.07995553 1.12002750 48 49 61
-0.32985550 -0.04984405 1.11759880 52 52 66
-0.33007577 -0.03045761 1.11156509 109 110 124
-0.32994652 -0.00518261 1.09695564 134 136 139
-0.32995837 -0.01572342 1.10301982 120 125 138
-0.33004411 0.00983283 1.08824611 110 107 106
-0.33014109 0.03193339 1.07567121 107 102 101
-0.32972984 0.02180444 1.08135557 115 107 106
-0.33022375 0.05990016 1.05988162 99 98 98
-0.33002021 0.04920127 1.06594162 98 97 100
-0.32999409 0.07047017 1.05384042 114 110 109
-0.32998427 0.09723818 1.03825204 106 105 105
-0.32998088 0.08697487 1.04426654 127 122 121
-0.32996275 0.11069138 1.03026757 123 120 119
-0.32993190 0.13381430 1.01632246 118 113 111
-0.32996771 0.12402333 1.02220185 115 109 107
-0.33003855 0.14993088 1.00672707 94 93 95
-0.33001127 0.17054204 0.99435570 116 114 112
-0.32989461 0.16030817 1.00054377 107 107 106
-0.33000672 0.19649254 0.97845874 105 104 104
-0.32999142 0.18672667 0.98445203 92 91 94
-0.32999377 0.20989003 0.97017594 90 91 93
-0.33006145 0.23325919 0.95569883 79 79 82
-0.33005201 0.22312088 0.96194182 105 102 103
-0.32995906 0.25924162 0.93919574 106 108 104
-0.32994269 0.24948168 0.94543051 79 79 81
-0.32995983 0.27021836 0.93214800 98 98 99
-0.33008624 0.29495781 0.91643170 68 66 70
-0.32998414 0.28504145 0.92271039 82 81 84
-0.32991391 0.30991418 0.90711150 75 76 79
-0.32973229 0.33078947 0.89441615 78 78 79
-0.33204313 0.32073688 0.90059956 57 57 60
-0.32940413 0.35740374 0.87871331 78 77 79
-0.33024014 0.34754572 0.88442293 83 81 81
-0.33001632 0.36964597 0.87216994 77 77 78
-0.33022023 0.39846918 0.85958794 81 82 85
-0.32993508 0.38850449 0.86367050 74 75 75
-0.32993877 0.40991565 0.85705374 20 21 22
-0.33002264 0.43009831 0.85306216 0 0 0
-0.33021658 0.44995928 0.84828040 0 0 0
-0.32978518 0.46926240 0.84341691 0 0 0
-0.30960350 -0.70472051 1.05064730 0 0 0
-0.30980274 -0.69022427 1.05232348 0 0 0
-0.31024829 -0.67002105 1.05495617 0 0 0
-0.30999457 -0.65064394 1.05795267 0 0 0
-0.30237076 -0.64052788 1.06017429 0 0 0
-0.31448038 -0.63822400 1.05964530 0 0 0
-0.30963012 -0.62871491 1.06177725 0 0 0
-0.31006444 -0.60971036 1.06547059 0 0 0
-0.30991719 -0.58981985 1.07042435 0 0 0
-0.30994875 -0.58891938 1.11703226 105 119 122
-0.31025194 -0.58496016 1.12205232 109 118 124
-0.31016091 -0.57562930 1.07500973 0 0 0
-0.30959639 -0.57906990 1.09378546 69 80 79
-0.30996841 -0.56983319 1.12332645 109 118 123
-0.31060991 -0.54984161 1.12404076 107 119 123
-0.31054030 -0.53026625 1.12459956 108 118 123
-0.31062589 -0.50999709 1.12490924 105 118 124
-0.30981756 -0.48961962 1.12518031 103 117 126
-0.30978378 -0.47033624 1.12538154 103 115 125
-0.30983552 -0.44998746 1.12556947 103 116 123
-0.30989211 -0.42963866 1.12577520 104 113 122
-0.30994651 -0.41025263 1.12597280 101 111 124
-0.30997982 -0.38986006 1.12609391 99 110 123
-0.30999127 -0.36943696 1.12613541 98 107 121
-0.30998137 -0.34996169 1.12609969 98 106 122
-0.30994836 -0.33046284 1.12597963 95 104 120
-0.30989311 -0.30997293 1.12577889 93 100 119
-0.30984425 -0.28949600 1.12560124 89 98 119
-0.30979742 -0.27000019 1.12543113 87 97 118
-0.30975644 -0.25051481 1.12528232 86 94 116
-0.31012391 -0.23030603 1.12509494 85 91 115
-0.31062073 -0.20959773 1.12489044 83 90 115
-0.31054553 -0.19010902 1.12461803 82 89 113
-0.31045939 -0.17062358 1.12430593 82 89 113
-0.31031781 -0.15015145 1.12379309 81 88 114
-0.30994052 -0.12959945 1.12242646 55 59 71
-0.30966406 -0.11010003 1.12142525 50 52 63
-0.30963847 -0.09049661 1.12057645 50 51 60
-0.31007629 -0.06927222 1.11941502 49 51 60
-0.31026158 -0.07995954 1.12008373 48 50 60
-0.31010379 -0.05008541 1.11785451 51 52 63
-0.31004549 -0.03032153 1.11164241 104 107 121
-0.31029978 -0.00477536 1.09699644 133 134 138
-0.30967953 -0.01516474 1.10295681 119 120 135
-0.31000003 0.00976453 1.08858263 107 105 105
-0.30999792 0.03196230 1.07592556 104 102 102
-0.31020568 0.02192741 1.08156866 112 111 109
-0.31001310 0.05012623 1.06569876 98 98 100
-0.31002791 0.07048604 1.05407874 120 114 113
-0.31005649 0.09734951 1.03835642 111 109 110
-0.30985764 0.08709699 1.04441059 124 120 120
-0.30997135 0.11082983 1.03032939 119 117 115
-0.30997892 0.13386407 1.01640930 109 103 103
-0.30990967 0.12409179 1.02228178 120 115 115
-0.31004244 0.15000749 1.00673273 96 96 99
-0.31003499 0.17044862 0.99441858 102 99 101
-0.31000869 0.16030900 1.00054894 78 80 86
-0.31012486 0.19651624 0.97839755 91 91 92
-0.31003933 0.18663608 0.98448855 100 99 101
-0.30998028 0.20993559 0.97010820 84 84 86
-0.30997451 0.23322816 0.95565641 74 74 77
-0.31008442 0.22310945 0.96189252 80 79 81
-0.30804801 0.25880817 0.93935657 84 84 83
-0.31024321 0.24920363 0.94550819 83 83 85
-0.30998952 0.27009130 0.93207095 91 91 90
-0.30970400 0.29450650 0.91636285 71 70 73
-0.31035623 0.28458586 0.92274725 92 89 90
-0.31003455 0.30986379 0.90669598 77 77 79
-0.30994605 0.33020718 0.89413118 86 85 85
-0.31009132 0.32010742 0.90036074 75 73 74
-0.30929371 0.35668007 0.87827844 80 78 80
-0.31016622 0.34666588 0.88413539 85 87 87
-0.31000436 0.37000224 0.87113578 72 71 73
-0.31012091 0.39841572 0.85947258 121 122 118
-0.31009387 0.38868864 0.86305719 90 91 92
-0.30990525 0.41006487 0.85766768 8 8 8
-0.31002310 0.43036799 0.85376789 0 0 0
-0.31000567 0.45010816 0.84912863 0 0 0
-0.30994498 0.46945569 0.84429552 0 0 0
-0.28964221 -0.70528511 1.05221892 0 0 0
-0.29011427 -0.69003629 1.05393359 0 0 0
-0.29006984 -0.66978389 1.05655496 0 0 0
-0.29079461 -0.65316017 1.05901306 0 0 0
-0.28818305 -0.64390744 1.06064879 0 0 0
-0.29015634 -0.62977483 1.06300440 0 0 0
-0.28995415 -0.60992073 1.06674676 0 0 0
-0.28978776 -0.59017766 1.07146556 0 0 0
-0.29060310 -0.58642033 1.11464793 105 120 122
-0.29017232 -0.58450683 1.12259294 109 120 122
-0.29054045 -0.57605218 1.07585482 0 0 0
-0.28870109 -0.57497878 1.08773599 56 62 66
-0.28993543 -0.56972954 1.12384480 109 117 119
-0.29007105 -0.54959184 1.12436966 107 117 123
-0.29018035 -0.53035734 1.12479257 107 115 124
-0.29025375 -0.51007314 1.12507689 106 116 122
-0.28945524 -0.48985633 1.12534056 104 115 122
-0.28939397 -0.47039162 1.12551397 105 113 123
-0.28944102 -0.45003841 1.12569698 104 114 121
-0.28949327 -0.42968633 1.12590000 103 110 123
-0.28953902 -0.41029088 1.12607779 100 110 122
-0.28957059 -0.38989702 1.12620055 97 110 121
-0.28957773 -0.36946738 1.12622811 97 107 119
-0.28957557 -0.34999895 1.12621978 97 104 120
-0.28955080 -0.33050508 1.12612371 93 103 118
-0.28950046 -0.31001399 1.12592801 90 98 116
-0.28945351 -0.28953312 1.12574554 88 96 116
-0.28940692 -0.27003211 1.12556422 86 96 115
-0.28936685 -0.25054287 1.12540830 84 92 115
-0.28977941 -0.22982322 1.12520404 83 91 113
-0.29023249 -0.20961697 1.12499358 79 91 112
-0.29016098 -0.19012565 1.12471638 79 89 113
-0.29007061 -0.17063276 1.12436600 82 88 113
-0.28993296 -0.15015662 1.12383217 80 86 112
-0.29043813 -0.12968747 1.12243988 54 56 70
-0.29028282 -0.11010070 1.12143167 50 52 61
-0.29005815 -0.09064748 1.12056360 48 49 62
-0.28975109 -0.06926981 1.11937715 48 49 60
-0.28992353 -0.07995667 1.12004344 49 48 58
-0.28984873 -0.04962309 1.11780030 51 51 65
-0.28998277 -0.03038967 1.11176290 99 101 117
-0.29001724 -0.00425872 1.09688684 132 133 138
-0.28994828 -0.01475867 1.10288263 115 118 131
-0.29001432 0.00975806 1.08879590 110 105 105
-0.28995102 0.03202207 1.07612454 99 97 101
-0.29031767 0.02187255 1.08183687 119 116 115
-0.29004265 0.05011631 1.06593177 101 99 102
-0.28995970 0.07055675 1.05424431 118 114 115
-0.28964728 0.09818953 1.03804501 113 107 107
-0.29002978 0.08787557 1.04415657 120 117 117
-0.29005984 0.11083015 1.03051306 120 116 116
-0.29037352 0.13419537 1.01635620 105 101 101
-0.28948983 0.12441788 1.02225718 122 118 116
-0.29004002 0.14994218 1.00680543 95 93 96
-0.29003477 0.17046507 0.99433682 105 104 106
-0.29011121 0.16030361 1.00051532 100 99 103
-0.29024057 0.19653633 0.97831809 88 88 90
-0.28988013 0.18665064 0.98439620 106 105 105
-0.28995585 0.20992789 0.97002648 86 85 89
-0.28995604 0.23319089 0.95555899 88 87 89
-0.29010020 0.22308351 0.96178068 79 78 83
-0.29026456 0.25849811 0.93944483 92 91 92
-0.29000680 0.24882788 0.94562507 89 87 89
-0.28996272 0.27012863 0.93184221 96 93 94
-0.28997924 0.29408453 0.91632859 76 75 77
-0.29001214 0.28421924 0.92269776 78 75 75
-0.28734813 0.31990925 0.89980337 89 93 94
-0.29017800 0.30976634 0.90627774 100 99 99
-0.28985018 0.33022569 0.89343707 74 75 77
-0.29910774 0.32001183 0.90009189 76 72 75
-0.28969541 0.35635425 0.87782110 95 97 97
-0.29035879 0.34604127 0.88376662 76 76 79
-0.28999302 0.37036387 0.87040572 102 102 103
-0.29052470 0.39805442 0.85959480 76 76 73
-0.28993847 0.38854038 0.86283467 153 153 149
-0.29018667 0.41018484 0.85837014 0 0 0
-0.29004145 0.42997664 0.85452632 0 0 0
-0.28983187 0.45022625 0.84993749 0 0 0
-0.28993225 0.46992664 0.84507927 0 0 0
-0.26971589 -0.70557494 1.05367990 0 0 0
-0.27042578 -0.69000541 1.05541016 0 0 0
-0.26979177 -0.67040058 1.05793808 0 0 0
-0.26065035 -0.66014347 1.06004095 0 0 0
-0.27363446 -0.65752306 1.05956624 0 0 0
-0.26925433 -0.64846032 1.06125259 0 0 0
-0.27003147 -0.63041639 1.06428665 0 0 0
-0.26989388 -0.61029593 1.06800567 0 0 0
-0.27010816 -0.58990642 1.07274987 0 0 0
-0.26932996 -0.58640880 1.11492759 103 117 120
-0.26989215 -0.58483331 1.12279466 104 118 118
-0.27057677 -0.57564073 1.07730799 0 0 0
-0.26905833 -0.57266187 1.08365199 31 39 37
-0.26963458 -0.56993000 1.12424001 106 116 120
-0.26974340 -0.54975027 1.12469356 105 116 121
-0.26982656 -0.53047404 1.12503987 106 115 122
-0.26988312 -0.51016321 1.12527548 104 114 120
-0.26993686 -0.48983882 1.12549933 104 113 120
-0.26997311 -0.47044866 1.12565040 104 112 120
-0.27001288 -0.45008600 1.12581597 103 111 123
-0.27005580 -0.42972264 1.12599495 100 110 120
-0.27009132 -0.41031460 1.12614288 100 108 120
-0.27011318 -0.38990859 1.12623378 100 107 118
-0.27011366 -0.36946990 1.12623572 99 104 118
-0.27011363 -0.35000379 1.12623560 96 102 119
-0.27010516 -0.33052759 1.12620054 92 100 116
-0.27006165 -0.31003912 1.12601925 88 96 115
-0.27001840 -0.28955715 1.12583888 87 94 113
-0.26997170 -0.27005132 1.12564419 84 93 112
-0.26992984 -0.25055654 1.12546955 82 90 111
-0.26987835 -0.23008730 1.12525487 82 89 111
-0.26982497 -0.20962419 1.12503223 81 88 111
-0.26975521 -0.19012986 1.12474118 79 87 112
-0.26966700 -0.17063389 1.12437332 80 86 112
-0.26953258 -0.15015414 1.12381286 79 85 109
-0.27006835 -0.12951315 1.12237343 52 53 67
-0.26992678 -0.11009907 1.12141532 49 50 60
-0.27008316 -0.09086542 1.12054713 48 48 60
-0.27017568 -0.06967808 1.11935847 46 47 57
-0.27443037 -0.07995495 1.12001940 47 47 56
-0.27001198 -0.04985118 1.11775606 48 50 62
-0.26993057 -0.03038245 1.11184521 93 96 111
-0.26994673 -0.00443925 1.09713671 125 127 129
-0.26996159 -0.01500474 1.10316526 117 120 132
-0.27011045 0.00977702 1.08893850 103 100 100
-0.27018178 0.03226963 1.07620068 99 98 99
-0.26939546 0.02208757 1.08191580 113 107 107
-0.27012584 0.05015158 1.06607776 104 104 104
-0.26986954 0.07050900 1.05442252 122 118 117
-0.26963220 0.09815030 1.03818798 92 91 95
-0.27010943 0.08790338 1.04427185 118 116 115
-0.27011854 0.11073464 1.03067178 116 115 113
-0.27004488 0.13469582 1.01611278 107 102 103
-0.27003047 0.12485749 1.02206322 117 114 112
-0.26995905 0.15007500 1.00672927 98 97 100
-0.26996815 0.17054266 0.99421543 97 95 95
-0.27021076 0.16029562 1.00046548 111 108 110
-0.27012613 0.19646681 0.97824087 77 76 77
-0.26991012 0.18659112 0.98433748 102 101 102
-0.26998422 0.20989862 0.96991379 91 91 92
-0.26992502 0.23318392 0.95536419 75 73 78
-0.27010314 0.22304317 0.96160681 87 87 90
-0.26991112 0.25844378 0.93924739 101 100 100
-0.27000373 0.24871247 0.94550006 84 84 86
-0.26998024 0.27006734 0.93162827 77 77 79
-0.27000930 0.29401040 0.91601062 87 85 87
-0.27001307 0.28409948 0.92251548 80 80 81
-0.27011465 0.31976001 0.89938359 103 104 107
-0.26999206 0.30958590 0.90591382 100 99 99
-0.27002257 0.33051312 0.89263284 88 88 92
-0.27007036 0.35597029 0.87760896 132 130 129
-0.26990948 0.34604531 0.88317507 94 95 96
-0.26997128 0.37019679 0.87014595 157 156 150
-0.27004173 0.39013822 0.86257816 121 120 115
-0.27042439 0.41194648 0.85873678 0 0 0
-0.26859164 0.40267249 0.86032309 0 0 0
-0.26997382 0.42986537 0.85524627 0 0 0
-0.27020229 0.45000037 0.85076970 0 0 0
-0.26982986 0.46998160 0.84591901 0 0 0
-0.25028240 -0.70621113 1.05496102 0 0 0
-0.25039480 -0.68986837 1.05679522 0 0 0
-0.25027815 -0.67233594 1.05895782 0 0 0
-0.24741354 -0.66300205 1.06046216 0 0 0
-0.25019030 -0.64961774 1.06231213 0 0 0
-0.24992454 -0.62961415 1.06574960 0 0 0
-0.25001700 -0.60960375 1.06942486 0 0 0
-0.24994470 -0.58996229 1.07409054 0 0 0
-0.25032352 -0.58380010 1.11179427 107 118 120
-0.25043052 -0.58426870 1.12313503 106 116 119
-0.25067114 -0.57670436 1.07835330 0 0 0
-0.24873123 -0.57300454 1.08397195 14 17 17
-0.25025640 -0.57005125 1.12447928 103 115 116
-0.25035949 -0.54987223 1.12494288 103 114 118
-0.25042350 -0.53056386 1.12523024 104 113 117
-0.25046605 -0.51022924 1.12542096 104 112 117
-0.25050920 -0.48988907 1.12561471 104 111 120
-0.25053911 -0.47048990 1.12574901 103 111 118
-0.25056828 -0.45011163 1.12587995 102 109 120
-0.25060561 -0.42974267 1.12604749 101 109 118
-0.25063597 -0.41032959 1.12618381 100 106 117
-0.25064757 -0.38990926 1.12623565 98 106 115
-0.25064759 -0.36946990 1.12623572 95 102 117
-0.25064759 -0.35000383 1.12623572 92 100 116
-0.25064369 -0.33053271 1.12621816 90 97 113
-0.25060638 -0.31004772 1.12605056 88 95 113
-0.25056625 -0.28956529 1.12587033 86 92 110
-0.25051954 -0.27005517 1.12566034 85 91 109
-0.25047792 -0.25055737 1.12547313 82 90 109
-0.25042616 -0.23008435 1.12524037 82 89 108
-0.25037642 -0.20962136 1.12501688 80 87 109
-0.25030746 -0.19012409 1.12470696 79 85 109
-0.25022440 -0.17062789 1.12433368 79 84 109
-0.25010008 -0.15014913 1.12377515 78 84 106
-0.24976570 -0.12958158 1.12227223 51 52 63
-0.24954958 -0.11008793 1.12130123 48 49 58
-0.24634931 -0.08188713 1.11996904 45 48 54
-0.25000355 -0.09102555 1.12042636 46 47 57
-0.25006798 -0.07023170 1.11928428 46 47 55
-0.25006950 -0.05006550 1.11766047 48 49 60
-0.25003808 -0.03029696 1.11181086 95 96 111
-0.25007298 -0.00429495 1.09717421 126 126 129
-0.24997822 -0.01476222 1.10315143 119 120 133
-0.24999565 0.00979520 1.08905004 102 99 100
-0.24995944 0.03278558 1.07606870 101 97 101
-0.25007339 0.02280258 1.08165694 96 94 96
-0.25011202 0.05009446 1.06622482 115 111 111
-0.24992259 0.07055783 1.05447208 123 117 117
-0.24990763 0.09815577 1.03824587 97 97 101
-0.25006471 0.08792412 1.04430423 114 111 112
-0.25001614 0.11075864 1.03071042 118 113 113
-0.24997870 0.13473870 1.01610869 108 106 106
-0.24991193 0.12497884 1.02204277 117 113 111
-0.25000748 0.14992474 1.00677728 94 94 96
-0.24996554 0.17037776 0.99422383 99 98 100
-0.25030917 0.16028568 1.00040343 95 95 96
-0.24980910 0.19644533 0.97813400 103 102 101
-0.25004203 0.18663084 0.98420550 87 86 92
-0.25000856 0.20988827 0.96975031 87 86 89
-0.24988168 0.23309189 0.95515389 80 81 83
-0.25010941 0.22299957 0.96141891 82 83 84
-0.24955750 0.25838064 0.93901793 79 75 76
-0.25011818 0.24859974 0.94526351 84 84 85
-0.24994987 0.26994645 0.93142345 76 76 77
-0.24968569 0.29378546 0.91586170 91 90 91
-0.25034906 0.28394458 0.92234047 101 102 101
-0.25032834 0.31903724 0.89945054 95 96 96
-0.24996850 0.30887204 0.90601574 82 82 85
-0.25001205 0.33034570 0.89231300 103 103 103
-0.24973839 0.35562598 0.87748979 164 164 156
-0.25026250 0.34571294 0.88302053 155 155 150
-0.24995960 0.37022131 0.86997777 159 158 153
-0.25006115 0.39028797 0.86288798 95 94 90
-0.25051942 0.41383803 0.85898455 0 0 0
-0.24890272 0.40393099 0.86059948 0 0 0
-0.24996128 0.42987925 0.85597748 0 0 0
-0.24997576 0.44988083 0.85163493 0 0 0
-0.25004205 0.47002973 0.84672499 0 0 0
-0.23017367 -0.70637858 1.05612081 0 0 0
-0.23013508 -0.69010934 1.05799651 0 0 0
-0.23178165 -0.67663154 1.05949268 0 0 0
-0.22873781 -0.66732604 1.06093737 0 0 0
-0.23022663 -0.65027718 1.06339052 0 0 0
-0.22997476 -0.63025530 1.06684692 0 0 0
-0.22992215 -0.61023407 1.07053061 0 0 0
-0.22986916 -0.58995146 1.07545979 0 0 0
-0.23865795 -0.58019116 1.10674310 98 116 113
-0.23032865 -0.58397118 1.12335016 108 110 116
-0.23211574 -0.57811139 1.07916441 0 0 0
-0.22965851 -0.57331255 1.08227705 15 17 17
-0.22798548 -0.57980482 1.10600613 107 112 116
-0.22988736 -0.57014656 1.12466708 105 113 116
-0.22998814 -0.54997822 1.12515982 103 112 116
-0.22988436 -0.53046083 1.12541678 102 112 116
-0.23021658 -0.51012774 1.12555754 103 111 116
-0.23010442 -0.48993861 1.12572852 104 111 116
-0.23013149 -0.47053675 1.12586105 103 110 116
-0.23015401 -0.45014814 1.12597119 101 108 117
-0.23017939 -0.42976090 1.12609508 100 108 116
-0.23020309 -0.41033947 1.12621083 97 105 117
-0.23020821 -0.38990928 1.12623572 95 104 114
-0.23020821 -0.36946990 1.12623572 94 101 114
-0.23020821 -0.35000383 1.12623572 91 99 113
-0.23020186 -0.33052877 1.12620457 90 96 112
-0.23016784 -0.31004428 1.12603815 88 94 111
-0.23013227 -0.28956369 1.12586410 84 91 108
-0.23009025 -0.27005478 1.12565861 83 89 109
-0.23004944 -0.25055422 1.12545893 82 88 106
-0.22999778 -0.23007739 1.12520611 82 88 106
-0.22994833 -0.20961151 1.12496394 80 85 107
-0.22988328 -0.19011377 1.12464559 78 85 108
-0.22980160 -0.17061458 1.12424581 78 84 107
-0.23028508 -0.15037685 1.12369434 77 83 104
-0.23033980 -0.12956564 1.12213416 50 50 60
-0.23014528 -0.11007665 1.12118664 47 47 56
-0.22843156 -0.08260879 1.11991091 44 46 56
-0.23025415 -0.09215295 1.12036982 46 46 55
-0.22973809 -0.07022653 1.11920306 45 45 54
-0.22980520 -0.04961866 1.11754075 48 48 58
-0.23006608 -0.03043103 1.11193878 92 95 110
-0.22997368 -0.00436957 1.09725406 125 124 129
-0.22995496 -0.01500699 1.10333139 115 116 129
-0.23005194 0.00981483 1.08908165 101 98 102
-0.23004494 0.03288440 1.07606667 100 98 99
-0.23022882 0.02286820 1.08166972 96 95 95
-0.23000062 0.05010974 1.06625023 117 113 113
-0.22996321 0.07051569 1.05452355 122 120 119
-0.23016610 0.09815500 1.03823775 92 92 96
-0.23000818 0.08794071 1.04428783 102 99 102
-0.22989740 0.11087281 1.03061037 100 99 102
-0.23002252 0.13463171 1.01613404 114 112 112
-0.23011417 0.12488872 1.02206590 116 113 111
-0.23005036 0.15002032 1.00661670 98 97 102
-0.23004015 0.17050448 0.99402449 90 89 93
-0.22953751 0.16027010 1.00030618 105 103 106
-0.22969088 0.19636714 0.97801307 89 90 90
-0.22996815 0.18655831 0.98407859 83 82 86
-0.22997951 0.20979382 0.96964020 87 87 90
-0.22990802 0.23239277 0.95542606 84 82 86
-0.23036377 0.22232889 0.96171990 77 77 81
-0.23002572 0.25831836 0.93879158 88 87 87
-0.23005788 0.24856895 0.94506088 76 76 78
-0.22992341 0.26987190 0.93116483 84 85 87
-0.22995993 0.29317234 0.91591563 89 87 89
-0.23000128 0.28330813 0.92242656 86 82 85
-0.23042290 0.31891107 0.89918250 136 135 133
-0.22992618 0.30866689 0.90578766 105 104 109
-0.22999428 0.33025994 0.89206066 157 156 149
-0.22999989 0.35524712 0.87754717 166 166 157
-0.23001687 0.34525501 0.88308214 160 161 153
-0.22995358 0.37026256 0.87000672 160 158 153
-0.22996847 0.38967471 0.86355943 77 77 74
-0.23071959 0.41589622 0.85930708 0 0 0
-0.22949254 0.40575362 0.86086233 0 0 0
-0.23007196 0.43048140 0.85658320 0 0 0
-0.22995895 0.45025551 0.85237547 0 0 0
-0.23009556 0.47029950 0.84746492 0 0 0
-0.22163506 0.48003700 0.84494522 0 0 0
-0.21059011 -0.70671628 1.05708106 0 0 0
-0.21062170 -0.69099993 1.05891652 0 0 0
-0.20491009 -0.68195811 1.06024898 0 0 0
-0.20949321 -0.66962933 1.06164429 0 0 0
-0.21019008 -0.64988124 1.06452755 0 0 0
-0.21007171 -0.63009485 1.06795803 0 0 0
-0.20981347 -0.60989916 1.07171467 0 0 0
-0.21028500 -0.58994205 1.07662809 0 0 0
-0.20996112 -0.58406676 1.12326806 104 112 119
-0.21418131 -0.57912410 1.07978690 0 0 0
-0.20959939 -0.57435701 1.08225434 8 9 10
-0.20972536 -0.57952880 1.10547961 100 112 116
-0.20950254 -0.57021789 1.12480760 104 112 115
-0.20958596 -0.55002485 1.12525506 102 111 115
-0.20963110 -0.52971707 1.12549712 102 110 116
-0.20965852 -0.50935778 1.12564424 105 109 115
-0.20968822 -0.48997126 1.12580356 101 109 114
-0.20971383 -0.47057019 1.12594110 101 108 116
-0.20973668 -0.45018526 1.12606397 101 107 115
-0.20975562 -0.42978778 1.12616540 98 108 114
-0.20976759 -0.41034624 1.12622918 97 103 114
-0.20976883 -0.38990928 1.12623572 93 102 116
-0.20976883 -0.36946990 1.12623572 93 99 111
-0.20976883 -0.35000383 1.12623572 91 97 113
-0.20976049 -0.33052471 1.12619073 87 94 111
-0.20972935 -0.31004028 1.12602360 85 93 108
-0.20969563 -0.28955814 1.12584249 83 90 108
-0.20965674 -0.27004875 1.12563354 82 88 110
-0.20961857 -0.25054747 1.12542846 80 87 106
-0.20956780 -0.23006714 1.12515575 79 84 107
-0.20951850 -0.20959795 1.12489099 78 83 105
-0.20945645 -0.19009891 1.12455770 77 84 105
-0.20938009 -0.17059971 1.12414775 78 83 103
-0.20991247 -0.14989012 1.12357507 75 81 102
-0.20994016 -0.12954403 1.12194780 49 49 60
-0.20985412 -0.11013965 1.12101362 47 47 54
-0.20983240 -0.08426976 1.11985250 44 45 54
-0.21095041 -0.09388140 1.12029268 45 45 53
-0.21036567 -0.07021725 1.11905442 45 45 53
-0.21006587 -0.04983772 1.11745980 48 47 56
-0.20999597 -0.03038536 1.11198668 93 94 109
-0.20987178 -0.00444438 1.09733981 127 126 128
-0.20996007 -0.01476383 1.10327065 115 116 130
-0.21010492 0.00969091 1.08917981 107 103 103
-0.21012504 0.03298258 1.07603097 115 111 112
-0.20989283 0.02280421 1.08172968 105 101 102
-0.20995508 0.05015736 1.06620842 115 111 111
-0.20999191 0.07057248 1.05446224 117 114 115
-0.21041779 0.09815090 1.03819450 101 99 104
-0.20994316 0.08795339 1.04422556 100 99 101
-0.20991976 0.11075030 1.03063320 102 101 105
-0.20965872 0.13434623 1.01622920 106 104 106
-0.21062640 0.12440796 1.02229805 101 97 101
-0.21002263 0.14997497 1.00655552 95 94 97
-0.20996802 0.17038248 0.99396459 90 89 91
-0.20963430 0.16025457 1.00020924 76 75 78
-0.21000969 0.19638061 0.97781198 90 91 92
-0.20999505 0.18662915 0.98385469 83 84 88
-0.20995214 0.20976736 0.96947178 84 83 87
-0.20997263 0.23230593 0.95527612 82 81 84
-0.21013073 0.22221331 0.96160795 74 76 77
-0.20955605 0.25759963 0.93896693 89 90 91
-0.21006138 0.24798704 0.94517643 84 84 87
-0.20995845 0.26987768 0.93082791 103 100 101
-0.21002688 0.29306436 0.91563859 134 133 133
-0.21017547 0.28327021 0.92213348 95 95 96
-0.21015500 0.31881451 0.89891022 165 165 157
-0.20994951 0.30859773 0.90545602 166 164 158
-0.20999785 0.33019004 0.89185069 161 161 154
-0.20990297 0.35529190 0.87751649 169 168 159
-0.20996172 0.34523032 0.88298172 165 164 157
-0.21006819 0.37030822 0.87019429 165 164 159
-0.20995491 0.39023747 0.86401697 48 48 46
-0.21218723 0.41806744 0.85960905 0 0 0
-0.20959397 0.40794394 0.86121564 0 0 0
-0.20998964 0.43015013 0.85742303 0 0 0
-0.21014952 0.45017255 0.85318430 0 0 0
-0.20986377 0.47000198 0.84836866 0 0 0
-0.21005524 0.48027703 0.84536772 0 0 0
-0.19064077 -0.70726711 1.05790507 0 0 0
-0.19141518 -0.69508148 1.05931841 0 0 0
-0.18811206 -0.68540309 1.06061495 0 0 0
-0.18963812 -0.66995450 1.06253246 0 0 0
-0.19017220 -0.64974058 1.06552489 0 0 0
-0.19026536 -0.62980572 1.06901985 0 0 0
-0.18962784 -0.60971047 1.07286584 0 0 0
-0.19058877 -0.59111471 1.07749727 0 0 0
-0.18687984 -0.58180957 1.08036296 0 0 0
-0.18980055 -0.58399582 1.12326307 103 112 114
-0.18964532 -0.57507834 1.08285876 5 6 6
-0.18958901 -0.57930556 1.10505378 99 111 110
-0.19008879 -0.57030070 1.12497025 101 112 113
-0.19015460 -0.55007570 1.12535904 104 109 114
-0.19018961 -0.52974950 1.12556602 101 110 113
-0.19021570 -0.50939237 1.12572075 100 109 114
-0.19024087 -0.49000010 1.12586978 102 107 114
-0.19026470 -0.47059927 1.12601075 100 109 115
-0.19028734 -0.45021751 1.12614465 99 107 115
-0.19030022 -0.42980902 1.12622089 99 105 113
-0.19030275 -0.41034865 1.12623569 96 103 111
-0.19030276 -0.38990928 1.12623572 93 100 109
-0.19030276 -0.36946990 1.12623572 93 98 109
-0.19030254 -0.35000342 1.12623436 89 95 113
-0.19029152 -0.33051831 1.12616890 88 93 109
-0.19026420 -0.31003578 1.12600726 85 90 107
-0.19023048 -0.28954916 1.12580749 83 89 108
-0.19019207 -0.27003598 1.12558016 82 88 107
-0.19015368 -0.25053063 1.12535276 78 87 105
-0.19010555 -0.23004918 1.12506787 79 85 106
-0.19006007 -0.20958072 1.12479860 77 83 106
-0.19000266 -0.19008219 1.12445874 78 84 103
-0.18993262 -0.17058399 1.12404403 76 82 106
-0.18982723 -0.15010203 1.12342005 75 80 102
-0.18954228 -0.12951917 1.12173342 47 47 58
-0.18949451 -0.10995498 1.12082659 45 46 52
-0.18928917 -0.08559682 1.11979597 45 44 53
-0.19105370 -0.09509105 1.12020821 45 44 52
-0.19003609 -0.07020972 1.11893332 44 44 53
-0.18986076 -0.04991366 1.11738050 47 46 56
-0.19011654 -0.03018894 1.11194460 97 98 109
-0.18997480 -0.00429936 1.09727636 126 123 126
-0.18992845 -0.01500872 1.10345271 122 123 132
-0.19005775 0.00991111 1.08906337 107 104 104
-0.19006123 0.03298086 1.07600310 112 108 110
-0.18977946 0.02271619 1.08177752 102 96 97
-0.18990938 0.05014894 1.06618249 123 120 122
-0.19001966 0.07065621 1.05437189 112 108 110
-0.19036230 0.09809824 1.03819600 108 107 109
-0.18998321 0.08788204 1.04423329 96 94 99
-0.19001689 0.11079449 1.03054967 99 97 102
-0.18997221 0.13374799 1.01649306 103 102 104
-0.18978124 0.12410657 1.02240366 93 92 96
-0.18999550 0.14989917 1.00647801 90 88 91
-0.18989686 0.17044966 0.99377836 96 94 98
-0.18972803 0.16023321 1.00007593 104 103 103
-0.18983658 0.19603391 0.97786886 97 95 98
-0.19028160 0.18621701 0.98396318 86 86 87
-0.18993139 0.20974037 0.96930121 87 87 89
-0.19003325 0.23223215 0.95502487 92 91 92
-0.19014341 0.22216332 0.96139169 91 89 91
-0.18972363 0.25752106 0.93868518 83 82 84
-0.18996370 0.24774415 0.94498030 85 84 87
-0.19005002 0.26967184 0.93059642 118 117 117
-0.18973595 0.29270531 0.91542336 164 162 155
-0.19061484 0.28284286 0.92196605 156 154 150
