ply
format ascii 1.0
element vertex 1064
property float x
property float y
property float z
property uchar red
property uchar green
property uchar blue
end_header
-0.12418530 -0.00486649 0.85269415 118 86 75
-0.12255733 -0.00486037 0.85162294 119 87 75
-0.12108537 -0.00486037 0.85162294 120 88 75
-0.11961340 -0.00486037 0.85162294 120 87 79
-0.11814144 -0.00486037 0.85162294 120 86 80
-0.11652309 -0.00485427 0.85055441 114 84 79
-0.11519752 -0.00486037 0.85162294 114 87 81
0.32352379 -0.00652421 1.14315653 192 191 187
0.33026016 -0.00657969 1.15287733 184 175 178
0.33225280 -0.00657969 1.15287733 182 173 174
0.33424547 -0.00657969 1.15287733 191 184 185
0.33566725 -0.00656852 1.15091991 195 189 189
0.33765653 -0.00656852 1.15091991 204 200 199
0.33907014 -0.00655738 1.14896917 207 203 202
1.30279243 -0.01037227 1.81740439 110 91 78
1.28525925 -0.01020806 1.78863287 111 91 78
1.26498687 -0.01002294 1.75619650 111 91 78
1.25160277 -0.00986953 1.72931588 112 92 79
1.25459170 -0.00986953 1.72931588 112 92 79
1.25119710 -0.00981943 1.72053766 111 91 78
-0.35332876 -0.00332985 0.83690351 192 194 193
-0.35101554 -0.00332164 0.83484215 189 191 190
-0.35000363 -0.00332574 0.83587158 190 191 189
-0.34855887 -0.00332574 0.83587158 192 192 190
-0.34668666 -0.00332164 0.83484215 193 192 190
-0.34524369 -0.00332164 0.83484215 194 193 191
-0.34337786 -0.00331756 0.83381528 197 196 194
-0.34193668 -0.00331756 0.83381528 198 197 197
-0.33841422 -0.00329728 0.82871866 191 188 187
-0.33698186 -0.00329728 0.82871866 186 182 181
-0.33554950 -0.00329728 0.82871866 187 181 181
-0.33249125 -0.00328123 0.82468593 188 182 182
-0.12697321 -0.00338841 0.85162294 123 86 75
-0.12565911 -0.00339267 0.85269415 121 86 73
-0.12418530 -0.00339267 0.85269415 121 87 74
-0.12240355 -0.00338416 0.85055441 121 88 75
-0.12093344 -0.00338416 0.85055441 122 88 75
-0.11946332 -0.00338416 0.85055441 121 86 75
-0.11799321 -0.00338416 0.85055441 120 85 75
-0.11637708 -0.00337992 0.84948850 113 82 74
0.33082280 -0.00459485 1.15484130 192 184 184
0.33281884 -0.00459485 1.15484130 176 174 172
0.33481488 -0.00459485 1.15484130 188 185 184
0.33623812 -0.00458703 1.15287733 191 189 187
0.33823079 -0.00458703 1.15287733 194 190 189
1.31691480 -0.00730942 1.83710527 116 99 78
1.29551399 -0.00717334 1.80290389 113 96 75
1.26102555 -0.00691583 1.73818421 110 94 75
-0.35534441 -0.00187869 0.83484215 200 201 199
-0.35390145 -0.00187869 0.83484215 200 200 198
-0.35332876 -0.00188333 0.83690351 195 195 193
-0.35101554 -0.00187869 0.83484215 191 191 189
-0.35000363 -0.00188100 0.83587158 193 193 191
-0.34855887 -0.00188100 0.83587158 196 196 192
-0.34668666 -0.00187869 0.83484215 201 201 197
-0.34481904 -0.00187638 0.83381528 202 202 200
-0.34337786 -0.00187638 0.83381528 202 202 200
-0.34193668 -0.00187638 0.83381528 192 192 192
-0.33800104 -0.00186263 0.82770675 186 185 184
-0.33657041 -0.00186263 0.82770675 188 184 184
-0.33473107 -0.00186036 0.82669735 187 181 181
-0.33208725 -0.00185358 0.82368392 186 180 180
-0.12534378 -0.00191404 0.85055441 120 87 74
-0.12402929 -0.00191645 0.85162294 123 88 75
-0.12225016 -0.00191165 0.84948850 124 87 73
-0.12078189 -0.00191165 0.84948850 124 85 76
-0.11916429 -0.00190925 0.84842533 120 86 77
-0.11769786 -0.00190925 0.84842533 115 85 76
-0.11594120 -0.00190449 0.84630692 113 85 77
0.33082280 -0.00259880 1.15484130 206 205 202
0.33281884 -0.00259880 1.15484130 177 176 174
0.33538625 -0.00260323 1.15681207 187 186 185
0.33681092 -0.00259880 1.15484130 193 192 192
1.34658301 -0.00423748 1.88303292 111 93 75
1.33868194 -0.00420246 1.86747062 113 97 78
1.33455682 -0.00417944 1.85723794 112 96 77
-0.35634851 -0.00043519 0.83381528 210 206 205
-0.35490733 -0.00043519 0.83381528 200 200 198
-0.35346615 -0.00043519 0.83381528 200 200 198
-0.35289308 -0.00043627 0.83587158 194 194 192
-0.35058379 -0.00043519 0.83381528 192 192 189
-0.35000363 -0.00043627 0.83587158 196 196 192
-0.34855887 -0.00043627 0.83587158 199 199 195
-0.34668666 -0.00043573 0.83484215 199 199 195
-0.34524369 -0.00043573 0.83484215 198 198 196
-0.34337786 -0.00043519 0.83381528 192 192 190
-0.34235778 -0.00043573 0.83484215 178 178 177
-0.33882844 -0.00043306 0.82973295 180 179 178
-0.12633835 -0.00044227 0.84736478 118 88 76
-0.12503003 -0.00044282 0.84842533 118 88 76
-0.12356360 -0.00044282 0.84842533 120 89 77
-0.12194454 -0.00044227 0.84736478 122 87 76
-0.12032953 -0.00044171 0.84630692 122 87 78
-0.11871854 -0.00044116 0.84525168 117 85 78
-0.11725759 -0.00044116 0.84525168 114 86 82
-0.11550859 -0.00044007 0.84314907 112 86 81
0.32572091 -0.00060070 1.15091991 188 187 187
0.32771018 -0.00060070 1.15091991 208 207 206
0.33082280 -0.00060275 1.15484130 206 205 203
0.33281884 -0.00060275 1.15484130 170 168 167
0.33681092 -0.00060275 1.15484130 183 181 182
0.13801306 -0.00024267 0.46494639 154 153 156
0.14103410 -0.00024234 0.46430948 191 190 189
1.34658301 -0.00098281 1.88303292 108 95 78
1.34238005 -0.00097738 1.87262940 106 96 78
1.33822322 -0.00097201 1.86234021 106 96 78
-0.35591075 0.00100475 0.83279097 207 204 205
-0.35447133 0.00100475 0.83279097 196 196 195
-0.35303190 0.00100475 0.83279097 194 194 193
-0.35245848 0.00100723 0.83484215 193 193 191
-0.35015309 0.00100475 0.83279097 194 194 192
-0.34957257 0.00100723 0.83484215 198 198 194
-0.34812963 0.00100723 0.83484215 193 193 189
-0.34626022 0.00100599 0.83381528 195 195 191
-0.34481904 0.00100599 0.83381528 195 195 191
-0.34295604 0.00100475 0.83279097 189 189 185
-0.34193668 0.00100599 0.83381528 180 180 178
-0.33882844 0.00100106 0.82973295 186 186 183
-0.12586634 0.00101852 0.84419906 116 86 74
-0.12456234 0.00101979 0.84525168 118 88 76
-0.12310138 0.00101979 0.84525168 119 87 76
-0.12148896 0.00101852 0.84419906 121 86 78
-0.12002983 0.00101852 0.84419906 123 87 81
-0.11842322 0.00101725 0.84314907 122 87 81
-0.11696590 0.00101725 0.84314907 121 85 79
-0.11536510 0.00101599 0.84210169 116 84 77
-0.11376827 0.00101473 0.84105688 113 84 76
0.32826751 0.00139093 1.15287733 193 190 189
0.33082280 0.00139330 1.15484130 191 188 187
0.13810779 0.00056134 0.46526551 144 140 141
0.13881670 0.00056095 0.46494639 145 143 143
0.13962032 0.00056095 0.46494639 173 172 172
0.14032769 0.00056057 0.46462771 175 174 174
0.14103410 0.00056018 0.46430948 185 185 182
0.14173953 0.00055980 0.46399167 196 197 192
0.14263915 0.00056018 0.46430948 178 178 172
0.14363843 0.00056095 0.46494639 174 173 170
0.14444205 0.00056095 0.46494639 176 173 174
1.32662463 0.00226556 1.87781680 122 97 87
1.32254314 0.00225308 1.86747062 122 97 87
1.33681893 0.00227186 1.88303292 122 96 85
1.34007370 0.00227186 1.88303292 119 93 81
1.33960724 0.00226556 1.87781680 118 92 80
1.34658301 0.00227186 1.88303292 110 95 79
1.34238005 0.00225930 1.87262940 108 96 79
1.34190977 0.00225308 1.86747062 108 96 78
-0.35591075 0.00244416 0.83279097 203 203 203
-0.35447133 0.00244416 0.83279097 195 195 195
-0.35303190 0.00244416 0.83279097 187 187 187
-0.35245848 0.00245018 0.83484215 183 183 183
-0.35015309 0.00244416 0.83279097 190 190 189
-0.34957257 0.00245018 0.83484215 200 201 194
-0.34812963 0.00245018 0.83484215 193 193 186
-0.34626022 0.00244717 0.83381528 192 192 183
-0.34524369 0.00245018 0.83484215 193 192 182
-0.34295604 0.00244416 0.83279097 190 189 179
-0.34193668 0.00244717 0.83381528 188 186 176
-0.33882844 0.00243519 0.82973295 192 190 181
-0.12539786 0.00246842 0.84105688 118 86 76
-0.12409813 0.00247149 0.84210169 118 86 76
-0.12279516 0.00247456 0.84314907 117 85 76
-0.12118712 0.00247149 0.84210169 115 80 76
-0.11973161 0.00247149 0.84210169 123 86 82
-0.11812937 0.00246842 0.84105688 122 86 82
-0.11667567 0.00246842 0.84105688 121 85 82
-0.11507919 0.00246536 0.84001470 118 86 79
-0.11362729 0.00246536 0.84001470 116 85 77
-0.11217540 0.00246536 0.84001470 116 86 76
-0.11086087 0.00246842 0.84105688 114 87 76
-0.10940717 0.00246842 0.84105688 112 85 74
0.13820265 0.00136645 0.46558505 167 164 163
0.13891198 0.00136551 0.46526551 167 165 165
0.13971615 0.00136551 0.46526551 162 161 161
0.14042394 0.00136457 0.46494639 167 166 164
0.14103410 0.00136271 0.46430948 188 187 183
0.14183661 0.00136271 0.46430948 207 206 202
0.14263915 0.00136271 0.46430948 175 172 168
0.14363843 0.00136457 0.46494639 161 159 157
0.14444205 0.00136457 0.46494639 167 166 168
0.14514612 0.00136364 0.46462771 194 193 195
1.32295990 0.00549599 1.87262940 122 97 87
1.31529629 0.00545082 1.85723794 122 97 86
1.34007370 0.00552653 1.88303292 118 95 78
1.33590662 0.00549599 1.87262940 116 93 76
1.34658301 0.00552653 1.88303292 115 95 76
1.33868194 0.00548085 1.86747062 114 95 76
1.34190977 0.00548085 1.86747062 112 94 75
-0.35591075 0.00388358 0.83279097 192 192 192
-0.35490733 0.00388835 0.83381528 194 194 194
-0.35346615 0.00388835 0.83381528 190 190 190
-0.35289308 0.00389794 0.83587158 187 187 185
-0.35058379 0.00388835 0.83381528 188 188 186
-0.35000363 0.00389794 0.83587158 198 197 195
-0.34855887 0.00389794 0.83587158 197 196 192
-0.34711415 0.00389794 0.83587158 194 193 185
-0.34566942 0.00389794 0.83587158 197 193 182
-0.34380075 0.00389314 0.83484215 197 193 181
-0.34277993 0.00389794 0.83587158 197 190 178
-0.33965993 0.00387881 0.83176911 192 185 174
-0.33739433 0.00386932 0.82973295 191 183 181
-0.12669437 0.00391726 0.84001470 118 86 78
-0.12539786 0.00392212 0.84105688 117 85 75
-0.12394416 0.00392212 0.84105688 116 84 74
-0.12264262 0.00392699 0.84210169 117 85 74
-0.12118712 0.00392699 0.84210169 113 86 75
-0.11958306 0.00392212 0.84105688 118 87 77
-0.11798298 0.00391726 0.84001470 119 88 79
-0.11667567 0.00392212 0.84105688 116 87 78
-0.11507919 0.00391726 0.84001470 115 85 76
-0.11348666 0.00391241 0.83897507 113 86 77
0.13839275 0.00217416 0.46622548 182 179 177
0.13910292 0.00217267 0.46590504 176 175 173
0.13981210 0.00217117 0.46558505 174 173 172
0.14052032 0.00216968 0.46526551 191 188 182
0.14122756 0.00216820 0.46494639 193 191 185
0.14193383 0.00216671 0.46462771 185 185 178
0.14273691 0.00216671 0.46462771 181 172 171
0.14383574 0.00217117 0.46558505 171 163 163
0.14454119 0.00216968 0.46526551 167 163 164
0.14524567 0.00216820 0.46494639 179 175 176
0.14614953 0.00216968 0.46526551 200 197 198
0.14685291 0.00216820 0.46494639 198 196 195
1.31931531 0.00870862 1.86747062 122 97 85
1.31170261 0.00863724 1.85216355 121 96 83
1.32856643 0.00868470 1.86234021 117 93 74
1.34285283 0.00875687 1.87781680 118 94 75
1.33134675 0.00866091 1.85723794 119 95 76
-0.35490733 0.00532953 0.83381528 194 194 194
-0.35346615 0.00532953 0.83381528 190 190 191
-0.35245848 0.00533610 0.83484215 191 191 189
-0.35015309 0.00532299 0.83279097 184 184 182
-0.34957257 0.00533610 0.83484215 191 190 188
-0.12264262 0.00538250 0.84210169 114 85 73
-0.12118712 0.00538250 0.84210169 112 86 75
-0.11973161 0.00538250 0.84210169 113 86 75
-0.11798298 0.00536916 0.84001470 117 90 80
-0.11653109 0.00536916 0.84001470 113 88 76
-0.11493677 0.00536251 0.83897507 112 87 75
-0.11348666 0.00536251 0.83897507 112 87 75
0.13839275 0.00297999 0.46622548 178 174 171
0.13910292 0.00297795 0.46590504 182 179 175
0.13981210 0.00297590 0.46558505 186 185 178
0.14052032 0.00297386 0.46526551 193 186 182
0.14122756 0.00297182 0.46494639 188 182 178
0.14193383 0.00296978 0.46462771 190 186 182
0.14283481 0.00297182 0.46494639 197 189 189
0.14383574 0.00297590 0.46558505 188 180 181
0.14454119 0.00297386 0.46526551 183 179 181
0.14514612 0.00296978 0.46462771 183 178 180
0.14604929 0.00297182 0.46494639 198 192 194
0.14675227 0.00296978 0.46462771 190 186 187
1.31569088 0.01190360 1.86234021 118 96 81
1.29402471 0.01167901 1.82720172 119 97 82
1.31412554 0.01177422 1.84209740 116 92 73
1.31335557 0.01171057 1.83214009 117 91 78
-0.35346615 0.00677072 0.83381528 177 178 180
-0.35202497 0.00677072 0.83381528 179 179 180
-0.34844086 0.00672933 0.82871866 182 182 182
-0.12249047 0.00682952 0.84105688 114 87 75
-0.12103676 0.00682952 0.84105688 112 87 75
-0.11958306 0.00682952 0.84105688 112 87 76
-0.11798298 0.00682106 0.84001470 114 89 79
-0.11653109 0.00682106 0.84001470 112 87 77
-0.11493677 0.00681262 0.83897507 105 86 74
-0.11334638 0.00680419 0.83793801 106 86 76
0.13839275 0.00378583 0.46622548 175 170 167
0.13910292 0.00378323 0.46590504 185 180 176
0.13990819 0.00378323 0.46590504 191 186 179
0.14052032 0.00377803 0.46526551 190 182 178
0.14122756 0.00377544 0.46494639 185 177 173
0.14193383 0.00377285 0.46462771 191 183 177
0.14373702 0.00377803 0.46526551 189 181 177
0.14444205 0.00377544 0.46494639 190 184 183
0.14514612 0.00377285 0.46462771 194 189 188
0.14604929 0.00377544 0.46494639 196 191 190
0.14675227 0.00377285 0.46462771 197 192 192
1.32705498 0.01529054 1.88303292 124 99 85
1.29786313 0.01491760 1.83710527 122 97 83
1.30702209 0.01487728 1.83214009 117 93 76
1.30665731 0.01483718 1.82720172 117 92 78
1.31335557 0.01487728 1.83214009 118 91 80
1.30593359 0.01475762 1.81740439 118 91 80
-0.35159251 0.00820181 0.83279097 181 182 184
-0.12249047 0.00828322 0.84105688 114 89 77
-0.12103676 0.00828322 0.84105688 113 88 76
-0.11958306 0.00828322 0.84105688 113 88 77
-0.11783697 0.00826272 0.83897507 114 88 77
-0.11638687 0.00826272 0.83897507 112 84 75
-0.11479469 0.00825250 0.83793801 112 85 76
-0.11320645 0.00824231 0.83690351 112 85 77
-0.11189808 0.00825250 0.83793801 113 83 78
-0.11058646 0.00826272 0.83897507 113 85 79
0.13848799 0.00459482 0.46654636 171 165 163
0.13919859 0.00459166 0.46622548 183 177 175
0.14000441 0.00459166 0.46622548 191 185 183
0.14132449 0.00458221 0.46526551 191 186 180
0.14193383 0.00457592 0.46462771 189 184 177
0.14383574 0.00458535 0.46558505 192 187 182
0.14444205 0.00457906 0.46494639 195 190 184
0.14514612 0.00457592 0.46462771 190 185 181
0.14604929 0.00457906 0.46494639 185 180 177
0.14675227 0.00457592 0.46462771 195 190 188
1.28394496 0.01789886 1.81740439 121 99 85
1.27343011 0.01770895 1.79812157 120 98 83
1.30738890 0.01809288 1.83710527 116 94 79
1.30349922 0.01799535 1.82720172 115 93 78
1.29965115 0.01789886 1.81740439 115 93 78
1.31691480 0.01809288 1.83710527 115 93 79
1.31297374 0.01799535 1.82720172 114 93 79
1.31259382 0.01794697 1.82228994 117 92 80
-0.48014903 0.00953579 0.82368392 204 204 204
-0.47930777 0.00954739 0.82468593 204 204 204
-0.47788236 0.00954739 0.82468593 206 207 207
-0.47645694 0.00954739 0.82468593 202 202 202
-0.47503155 0.00954739 0.82468593 191 190 190
-0.47418302 0.00955902 0.82569045 192 191 191
-0.35202497 0.00965308 0.83381528 202 204 205
-0.34716761 0.00955902 0.82569045 188 189 191
-0.12088678 0.00972485 0.84001470 115 88 77
-0.11943489 0.00972485 0.84001470 114 87 76
-0.11769131 0.00970081 0.83793801 114 87 76
-0.11638687 0.00971282 0.83897507 114 84 76
-0.11465297 0.00968883 0.83690351 120 86 81
-0.11306686 0.00967689 0.83587158 118 82 78
-0.11162212 0.00967689 0.83587158 116 81 77
0.13848799 0.00540121 0.46654636 183 179 178
0.13910292 0.00539378 0.46590504 178 174 172
0.14000441 0.00539749 0.46622548 182 178 175
0.14122756 0.00538269 0.46494639 191 188 180
0.14183661 0.00537531 0.46430948 190 186 178
0.14363843 0.00538269 0.46494639 192 187 180
0.14434305 0.00537900 0.46462771 191 186 179
0.14504671 0.00537531 0.46430948 185 178 174
0.14584923 0.00537531 0.46430948 180 171 170
1.27709723 0.02092788 1.80771160 122 99 85
1.27006125 0.02076179 1.79336464 120 98 83
1.29684544 0.02109665 1.82228994 114 94 79
1.29999518 0.02109665 1.82228994 113 93 78
1.29271972 0.02092788 1.80771160 113 93 78
1.31335557 0.02121069 1.83214009 113 93 78
1.31652224 0.02121069 1.83214009 113 93 78
1.31613183 0.02115352 1.82720172 115 94 81
-0.48500937 0.01097279 0.82468593 211 211 209
-0.48299637 0.01095946 0.82368392 211 211 209
-0.48215857 0.01097279 0.82468593 207 208 207
-0.48014903 0.01095946 0.82368392 205 206 206
-0.47930777 0.01097279 0.82468593 206 207 207
-0.47788236 0.01097279 0.82468593 203 204 204
-0.47645694 0.01097279 0.82468593 202 203 203
-0.47445434 0.01095946 0.82368392 205 206 206
-0.47360614 0.01097279 0.82468593 205 206 206
-0.35245848 0.01110793 0.83484215 202 211 210
-0.34801540 0.01101299 0.82770675 180 189 188
-0.11943489 0.01117675 0.84001470 113 86 75
-0.11783697 0.01116292 0.83897507 114 87 76
-0.11638687 0.01116292 0.83897507 115 88 77
-0.11465297 0.01113535 0.83690351 116 86 76
-0.11292762 0.01110793 0.83484215 116 84 74
0.13848799 0.00620760 0.46654636 180 173 173
0.13910292 0.00619906 0.46590504 172 165 165
0.13990819 0.00619906 0.46590504 181 173 174
0.14052032 0.00619055 0.46526551 187 180 178
0.14122756 0.00618631 0.46494639 178 172 169
0.14183661 0.00617783 0.46430948 195 192 184
0.14254151 0.00617360 0.46399167 197 194 187
0.14363843 0.00618631 0.46494639 184 182 177
0.14434305 0.00618207 0.46462771 183 179 175
0.14494742 0.00617360 0.46399167 187 180 178
0.14584923 0.00617783 0.46430948 187 175 175
0.14645113 0.00616938 0.46367431 184 170 172
1.27709723 0.02405236 1.80771160 123 98 85
1.27006125 0.02386147 1.79336464 122 98 84
1.29684544 0.02424634 1.82228994 116 94 80
1.29999518 0.02424634 1.82228994 115 95 81
1.29271972 0.02405236 1.80771160 114 94 81
1.30629456 0.02424634 1.82228994 112 94 80
1.30593359 0.02418133 1.81740439 114 96 81
1.30209315 0.02405236 1.80771160 116 97 83
-0.48442006 0.01238313 0.82368392 208 209 207
-0.48299637 0.01238313 0.82368392 207 208 208
-0.48157272 0.01238313 0.82368392 206 207 206
-0.48014903 0.01238313 0.82368392 205 206 205
-0.47872537 0.01238313 0.82368392 202 203 203
-0.47788236 0.01239820 0.82468593 198 199 199
-0.47587803 0.01238313 0.82368392 200 201 200
-0.47445434 0.01238313 0.82368392 204 205 204
-0.47303069 0.01238313 0.82368392 206 207 206
-0.35245848 0.01255088 0.83484215 191 200 199
-0.34801540 0.01244361 0.82770675 173 180 180
-0.34828579 0.01250468 0.83176911 171 171 173
-0.34812963 0.01255088 0.83484215 190 189 191
-0.34711415 0.01256636 0.83587158 196 193 193
-0.11958306 0.01264431 0.84105688 116 89 79
-0.11783697 0.01261302 0.83897507 115 89 76
-0.11465297 0.01258187 0.83690351 113 87 74
-0.11306686 0.01256636 0.83587158 112 87 73
0.13858338 0.00701881 0.46686766 157 149 150
0.13929439 0.00701398 0.46654636 141 131 132
0.14010078 0.00701398 0.46654636 150 135 137
0.14071347 0.00700434 0.46590504 147 131 133
0.14142156 0.00699953 0.46558505 154 137 140
0.14203118 0.00698993 0.46494639 183 176 176
0.14283481 0.00698993 0.46494639 184 180 180
0.14393459 0.00700434 0.46590504 181 180 180
0.14454119 0.00699473 0.46526551 182 181 180
0.14514612 0.00698514 0.46462771 193 191 191
0.14594918 0.00698514 0.46462771 188 184 185
1.29086649 0.02746986 1.82720172 122 97 85
1.27681684 0.02710457 1.80290389 119 96 83
1.28677762 0.02724951 1.81254506 116 94 81
1.31810522 0.02784513 1.85216355 114 93 80
1.31056416 0.02761875 1.83710527 113 93 80
1.29965115 0.02732257 1.81740439 113 93 80
1.30981553 0.02746986 1.82720172 113 93 80
1.31297374 0.02746986 1.82720172 115 95 82
1.30557466 0.02724951 1.81254506 117 96 83
-0.48500937 0.01382360 0.82468593 209 211 208
-0.48299637 0.01380680 0.82368392 205 207 205
-0.48215857 0.01382360 0.82468593 203 205 202
-0.48014903 0.01380680 0.82368392 204 205 203
-0.47788236 0.01382360 0.82468593 196 197 195
-0.47645694 0.01382360 0.82468593 201 202 200
-0.35245848 0.01399384 0.83484215 170 175 176
-0.34844086 0.01389120 0.82871866 166 170 171
-0.34871367 0.01395946 0.83279097 189 189 190
-0.34855887 0.01401110 0.83587158 200 200 200
-0.12103676 0.01409801 0.84105688 110 89 72
-0.11958306 0.01409801 0.84105688 108 88 69
-0.11798298 0.01408054 0.84001470 106 87 68
-0.11638687 0.01406312 0.83897507 112 91 73
-0.11479469 0.01404573 0.83793801 112 90 73
-0.11320645 0.01402839 0.83690351 111 88 72
0.13858338 0.00782576 0.46686766 146 139 140
0.13929439 0.00782037 0.46654636 139 130 132
0.14010078 0.00782037 0.46654636 135 116 120
0.14081025 0.00781499 0.46622548 132 113 117
0.14161608 0.00781499 0.46622548 149 131 135
0.14222628 0.00780426 0.46558505 181 172 175
0.14312930 0.00780962 0.46590504 189 183 185
0.14413270 0.00782037 0.46654636 188 187 187
0.14464046 0.00780426 0.46558505 187 186 186
0.14604929 0.00779355 0.46494639 199 195 196
1.29752207 0.03071081 1.83214009 114 95 82
1.30775774 0.03087771 1.84209740 115 95 82
1.32899868 0.03130303 1.86747062 114 94 81
1.32130659 0.03104644 1.85216355 113 93 80
1.30665731 0.03062803 1.82720172 113 93 80
1.31691480 0.03079403 1.83710527 115 95 81
1.32367730 0.03087771 1.84209740 116 95 80
1.31613183 0.03062803 1.82720172 116 95 81
-0.48619232 0.01528619 0.82669735 211 213 212
-0.48417300 0.01526758 0.82569045 209 213 210
-0.48333457 0.01528619 0.82669735 206 209 206
-0.48131871 0.01526758 0.82569045 206 207 205
-0.47989157 0.01526758 0.82569045 201 202 200
-0.47904792 0.01528619 0.82669735 196 197 195
-0.47703728 0.01526758 0.82569045 201 202 200
-0.47503155 0.01524900 0.82468593 206 206 204
-0.35202497 0.01541781 0.83381528 155 158 161
-0.34801540 0.01530486 0.82770675 168 169 173
-0.34871367 0.01539887 0.83279097 200 200 200
-0.11958306 0.01555171 0.84105688 113 89 76
-0.11783697 0.01551322 0.83897507 111 88 73
-0.11638687 0.01551322 0.83897507 112 88 73
-0.11465297 0.01547491 0.83690351 112 87 74
-0.11320645 0.01547491 0.83690351 113 86 75
-0.11175993 0.01547491 0.83690351 111 84 75
0.13436359 0.00862082 0.46622548 180 179 177
0.13526244 0.00862676 0.46654636 183 183 180
0.13597526 0.00862082 0.46622548 180 179 177
0.13696949 0.00863270 0.46686766 166 166 164
0.13777643 0.00863270 0.46686766 164 163 162
0.13858338 0.00863270 0.46686766 161 156 158
0.13929439 0.00862676 0.46654636 163 157 159
0.14010078 0.00862676 0.46654636 158 152 156
0.14081025 0.00862082 0.46622548 134 127 131
0.14161608 0.00862082 0.46622548 139 131 133
0.14232403 0.00861490 0.46590504 167 163 164
0.14312930 0.00861490 0.46590504 166 162 163
0.14413270 0.00862676 0.46654636 172 169 169
0.14473987 0.00861490 0.46590504 188 187 186
1.32534754 0.03443593 1.86234021 114 94 81
1.31770623 0.03415444 1.84711671 113 93 79
1.30665731 0.03378620 1.82720172 113 93 79
1.31335557 0.03387751 1.83214009 116 96 76
1.32367730 0.03406163 1.84209740 117 96 76
1.31259382 0.03369537 1.82228994 118 96 78
-0.48881343 0.01675594 0.82871866 207 211 212
-0.48738104 0.01675594 0.82871866 209 213 213
-0.48476344 0.01671507 0.82669735 213 217 216
-0.48451632 0.01675594 0.82871866 212 215 214
-0.48249409 0.01673548 0.82770675 206 207 205
-0.48106346 0.01673548 0.82770675 200 201 199
-0.47963285 0.01673548 0.82770675 198 199 197
-0.47761905 0.01671507 0.82669735 207 208 207
-0.47561014 0.01669472 0.82569045 202 203 203
-0.47360614 0.01667440 0.82468593 204 205 205
-0.35159251 0.01683828 0.83279097 154 154 165
-0.34759098 0.01671507 0.82669735 171 170 181
-0.34914261 0.01685899 0.83381528 203 203 207
-0.11928707 0.01696332 0.83897507 116 86 74
-0.11769131 0.01694235 0.83793801 115 85 75
-0.11609949 0.01692143 0.83690351 115 85 75
-0.11437058 0.01687975 0.83484215 115 84 74
-0.11292762 0.01687975 0.83484215 113 82 72
0.13364968 0.00943315 0.46654636 186 185 183
0.13436359 0.00942666 0.46622548 188 187 185
0.13526244 0.00943315 0.46654636 193 192 190
0.13597526 0.00942666 0.46622548 194 188 188
0.13696949 0.00943964 0.46686766 167 158 159
0.13768160 0.00943315 0.46654636 159 150 153
0.13858338 0.00943964 0.46686766 168 163 165
0.13919859 0.00942666 0.46622548 186 185 185
0.14000441 0.00942666 0.46622548 193 193 194
0.14081025 0.00942666 0.46622548 178 178 179
0.14161608 0.00942666 0.46622548 157 157 156
0.14222628 0.00941371 0.46558505 182 181 180
0.14312930 0.00942018 0.46590504 191 190 189
0.14403358 0.00942666 0.46622548 187 186 184
0.14473987 0.00942018 0.46590504 188 188 182
0.14544518 0.00941371 0.46558505 192 192 186
0.14614953 0.00940725 0.46526551 189 189 182
1.32534754 0.03765484 1.86234021 114 94 80
1.31770623 0.03734703 1.84711671 113 93 79
1.30665731 0.03694437 1.82720172 113 93 79
1.30981553 0.03694437 1.82720172 118 97 80
1.32009006 0.03714461 1.83710527 120 98 81
1.30907488 0.03674627 1.81740439 120 97 81
-0.49001151 0.01823290 0.83074981 212 213 213
-0.48857561 0.01823290 0.83074981 215 216 216
-0.48594868 0.01818831 0.82871866 213 215 215
-0.48570386 0.01823290 0.83074981 211 213 212
-0.48367521 0.01821058 0.82973295 204 204 204
-0.48283207 0.01823290 0.83074981 199 199 199
-0.48139620 0.01823290 0.83074981 194 195 195
-0.47937286 0.01821058 0.82973295 209 210 210
-0.47677159 0.01816611 0.82770675 200 204 203
-0.47476128 0.01814395 0.82669735 196 201 199
-0.47218075 0.01809981 0.82468593 199 201 202
-0.35030147 0.01821058 0.82973295 177 177 184
-0.34674528 0.01809981 0.82468593 185 185 189
-0.34700847 0.01818831 0.82871866 202 203 204
-0.34684816 0.01825527 0.83176911 207 208 208
0.13436359 0.01023249 0.46622548 189 187 186
0.13526244 0.01023953 0.46654636 189 180 179
0.13597526 0.01023249 0.46622548 179 170 170
0.13696949 0.01024659 0.46686766 172 162 163
0.13777643 0.01024659 0.46686766 171 162 165
0.13858338 0.01024659 0.46686766 171 165 167
0.13929439 0.01023953 0.46654636 178 177 177
0.14000441 0.01023249 0.46622548 187 187 187
0.14081025 0.01023249 0.46622548 180 180 180
0.14161608 0.01023249 0.46622548 161 161 161
0.14222628 0.01021843 0.46558505 165 165 163
0.14312930 0.01022546 0.46590504 190 189 187
0.14393459 0.01022546 0.46590504 183 182 180
0.14464046 0.01021843 0.46558505 176 173 169
0.14534536 0.01021142 0.46526551 180 176 171
1.32171643 0.04076176 1.85723794 117 95 86
1.31412554 0.04042946 1.84209740 113 92 83
1.30314481 0.03999474 1.82228994 115 95 85
1.30279243 0.03988751 1.81740439 118 97 85
1.30244184 0.03978086 1.81254506 120 98 84
-0.49084586 0.01964470 0.82973295 215 218 217
-0.49061275 0.01969291 0.83176911 209 211 211
-0.48917508 0.01969291 0.83176911 206 210 209
-0.48713973 0.01966878 0.83074981 201 207 205
-0.48689723 0.01971710 0.83279097 199 205 203
-0.48486215 0.01969291 0.83176911 195 198 197
-0.48342451 0.01969291 0.83176911 197 201 199
-0.48257899 0.01971710 0.83279097 196 202 200
-0.47996032 0.01966878 0.83074981 207 214 211
-0.47793871 0.01964470 0.82973295 204 213 210
-0.47592208 0.01962069 0.82871866 199 208 205
-0.47333241 0.01957283 0.82669735 203 206 207
-0.34901989 0.01957283 0.82669735 190 190 192
-0.34632397 0.01950148 0.82368392 192 193 195
-0.34531987 0.01952521 0.82468593 197 198 200
-0.34473324 0.01957283 0.82669735 196 196 198
0.13436359 0.01103832 0.46622548 183 178 176
0.13526244 0.01104592 0.46654636 185 176 175
0.13597526 0.01103832 0.46622548 186 177 176
0.13696949 0.01105353 0.46686766 184 175 174
0.13768160 0.01104592 0.46654636 181 179 178
0.13858338 0.01105353 0.46686766 183 182 180
0.13919859 0.01103832 0.46622548 176 175 175
0.14000441 0.01103832 0.46622548 185 184 184
0.14081025 0.01103832 0.46622548 193 192 192
0.14161608 0.01103832 0.46622548 192 192 191
0.14222628 0.01102316 0.46558505 178 174 172
0.14312930 0.01103074 0.46590504 185 180 178
0.14393459 0.01103074 0.46590504 180 172 172
0.14464046 0.01102316 0.46558505 180 172 171
1.29617620 0.04291370 1.81254506 121 95 88
1.29584420 0.04279926 1.80771160 122 97 88
0.73882169 0.01936034 0.81772238 172 176 177
0.75224036 0.01952521 0.82468593 172 173 175
0.75366575 0.01952521 0.82468593 168 169 171
0.75509113 0.01952521 0.82468593 153 154 156
0.75559735 0.01950148 0.82368392 143 144 146
0.75702101 0.01950148 0.82368392 138 138 141
-0.49326083 0.02118254 0.83381528 213 214 214
-0.48809648 0.02120863 0.83484215 198 204 202
-0.48665351 0.02120863 0.83484215 196 202 200
-0.48521057 0.02120863 0.83484215 198 204 202
-0.48376760 0.02120863 0.83484215 204 210 208
-0.48173138 0.02118254 0.83381528 208 214 212
-0.47970018 0.02115652 0.83279097 207 213 211
-0.34959608 0.02095061 0.82468593 191 191 191
-0.34817067 0.02095061 0.82468593 188 188 188
-0.34548438 0.02087443 0.82168710 185 185 186
-0.34448171 0.02089976 0.82268429 191 191 192
-0.34347662 0.02092516 0.82368392 193 193 194
-0.34205294 0.02092516 0.82368392 193 193 193
-0.34187546 0.02100171 0.82669735 194 194 194
0.13526244 0.01185231 0.46654636 189 183 181
0.13597526 0.01184416 0.46622548 187 180 179
0.13687523 0.01185231 0.46654636 185 177 176
0.13768160 0.01185231 0.46654636 186 185 182
0.13858338 0.01186047 0.46686766 187 186 183
0.13919859 0.01184416 0.46622548 177 176 174
0.13990819 0.01183602 0.46590504 189 189 187
0.14071347 0.01183602 0.46590504 192 192 190
0.14151876 0.01183602 0.46590504 191 190 186
0.14222628 0.01182789 0.46558505 188 184 181
0.14303100 0.01182789 0.46558505 185 179 177
0.14393459 0.01183602 0.46590504 192 183 182
0.14454119 0.01181977 0.46526551 197 188 188
0.73882169 0.02077371 0.81772238 177 183 181
0.74112904 0.02079880 0.81870997 175 180 178
0.75315660 0.02097613 0.82569045 171 171 173
0.75458372 0.02097613 0.82569045 165 165 167
0.75601089 0.02097613 0.82569045 159 159 162
0.75651658 0.02095061 0.82468593 156 156 160
0.75702101 0.02092516 0.82368392 157 157 161
0.75844467 0.02092516 0.82368392 165 166 170
-0.49265486 0.02259593 0.83279097 213 213 213
-0.49037847 0.02262372 0.83381528 204 204 204
-0.48893729 0.02262372 0.83381528 208 208 208
-0.48809648 0.02265158 0.83484215 196 196 196
-0.48665351 0.02265158 0.83484215 197 201 200
-0.48521057 0.02265158 0.83484215 209 213 212
-0.48376760 0.02265158 0.83484215 212 213 214
-0.48173138 0.02262372 0.83381528 209 209 211
-0.48029020 0.02262372 0.83381528 205 208 209
-0.35215861 0.02226766 0.82069230 185 184 184
-0.35116526 0.02229465 0.82168710 187 186 186
-0.35016948 0.02232170 0.82268429 191 190 190
-0.34959608 0.02237602 0.82468593 194 194 194
-0.34817067 0.02237602 0.82468593 191 191 191
-0.34548438 0.02229465 0.82168710 187 187 187
-0.34448171 0.02232170 0.82268429 192 192 192
-0.34347662 0.02234883 0.82368392 199 199 199
-0.34163782 0.02232170 0.82268429 197 197 197
0.13588180 0.01264130 0.46590504 189 185 184
0.13687523 0.01265870 0.46654636 196 194 192
0.13768160 0.01265870 0.46654636 184 183 181
0.13858338 0.01266741 0.46686766 187 186 184
0.13919859 0.01264999 0.46622548 184 183 181
0.13990819 0.01264130 0.46590504 190 189 186
0.14061683 0.01263261 0.46558505 195 194 190
0.14142156 0.01263261 0.46558505 189 188 184
0.14212866 0.01262394 0.46526551 188 185 182
0.14303100 0.01263261 0.46558505 183 177 175
0.14383574 0.01263261 0.46558505 190 184 185
0.14454119 0.01262394 0.46526551 183 178 179
0.73971397 0.02221387 0.81870997 170 176 174
0.74112904 0.02221387 0.81870997 170 173 172
0.74614871 0.02232170 0.82268429 168 168 168
0.75315660 0.02240327 0.82569045 165 165 165
0.75458372 0.02240327 0.82569045 165 165 165
0.75601089 0.02240327 0.82569045 166 166 168
0.75651658 0.02237602 0.82468593 167 168 171
0.75702101 0.02234883 0.82368392 167 167 170
0.75844467 0.02234883 0.82368392 163 164 167
-0.49205038 0.02400585 0.83176911 210 210 210
-0.49181965 0.02406490 0.83381528 202 202 202
-0.49037847 0.02406490 0.83381528 203 203 203
-0.48953944 0.02409454 0.83484215 201 200 201
-0.48809648 0.02409454 0.83484215 192 192 193
-0.48580885 0.02412425 0.83587158 211 211 213
-0.48436412 0.02412425 0.83587158 211 212 214
-0.35116526 0.02371487 0.82168710 176 175 175
-0.34732559 0.02374365 0.82268429 189 189 189
-0.34548438 0.02371487 0.82168710 193 193 191
-0.34406415 0.02371487 0.82168710 196 196 194
-0.34122372 0.02371487 0.82168710 198 198 197
0.13687523 0.01346508 0.46654636 203 202 200
0.13768160 0.01346508 0.46654636 185 184 181
0.13858338 0.01347436 0.46686766 187 186 183
0.13919859 0.01345582 0.46622548 188 185 177
0.13981210 0.01343734 0.46558505 192 188 182
0.14061683 0.01343734 0.46558505 191 187 181
0.14142156 0.01343734 0.46558505 176 174 169
0.14222628 0.01343734 0.46558505 180 177 175
0.14293283 0.01342812 0.46526551 183 179 180
0.14383574 0.01343734 0.46558505 178 174 175
0.14454119 0.01342812 0.46526551 164 160 161
0.69319487 0.04243984 1.47048128 167 158 158
0.73919165 0.02365752 0.81969994 173 173 173
0.73882169 0.02360044 0.81772238 170 170 170
0.74023503 0.02360044 0.81772238 168 168 168
0.74434203 0.02368616 0.82069230 168 168 168
0.74485874 0.02365752 0.81969994 161 161 161
0.75274998 0.02377250 0.82368392 163 163 163
0.75509113 0.02380142 0.82468593 168 169 169
0.75468034 0.02374365 0.82268429 173 174 175
0.75518578 0.02371487 0.82168710 172 173 174
0.75660604 0.02371487 0.82168710 164 168 169
-0.49531126 0.02553750 0.83484215 214 214 214
-0.49265486 0.02547475 0.83279097 213 213 213
-0.49098238 0.02553750 0.83484215 199 198 198
-0.49014306 0.02556899 0.83587158 193 192 194
-0.48869833 0.02556899 0.83587158 191 191 193
-0.48640862 0.02560055 0.83690351 208 208 211
-0.48496211 0.02560055 0.83690351 210 210 213
-0.35074010 0.02510466 0.82069230 184 179 180
-0.34690461 0.02513509 0.82168710 200 199 199
-0.34464887 0.02507430 0.81969994 197 197 195
0.13696949 0.01428130 0.46686766 190 184 182
0.13787138 0.01429114 0.46718940 191 185 180
0.13867888 0.01429114 0.46718940 189 183 176
0.13939032 0.01428130 0.46686766 186 179 173
0.14000441 0.01426166 0.46622548 193 187 181
0.14081025 0.01426166 0.46622548 182 177 171
0.14161608 0.01426166 0.46622548 180 176 175
0.14232403 0.01425185 0.46590504 192 188 188
0.14312930 0.01425185 0.46590504 194 190 191
0.14403358 0.01426166 0.46622548 197 193 192
0.14473987 0.01425185 0.46590504 199 193 193
0.69621533 0.04517745 1.47688854 173 164 165
0.73441255 0.02510466 0.82069230 158 159 161
0.73494124 0.02507430 0.81969994 160 161 163
0.73546875 0.02504402 0.81870997 166 167 169
0.73688382 0.02504402 0.81870997 171 171 173
0.73829889 0.02504402 0.81870997 164 163 164
0.73882169 0.02501381 0.81772238 162 161 161
0.74023503 0.02501381 0.81772238 160 160 159
0.74344200 0.02507430 0.81969994 158 158 158
0.74395919 0.02504402 0.81870997 158 158 157
0.75041449 0.02516559 0.82268429 154 154 153
0.75183648 0.02516559 0.82268429 165 165 164
0.75325841 0.02516559 0.82268429 172 173 172
0.75376558 0.02513509 0.82168710 177 178 178
0.75518578 0.02513509 0.82168710 171 172 172
0.75569004 0.02510466 0.82069230 164 168 167
0.75527978 0.02504402 0.81870997 157 166 163
-0.49326083 0.02694727 0.83381528 209 209 209
-0.49303254 0.02701372 0.83587158 200 200 200
-0.49158779 0.02701372 0.83587158 190 190 190
-0.49135479 0.02708051 0.83793801 188 189 191
-0.48930165 0.02704707 0.83690351 193 193 195
-0.48700985 0.02708051 0.83793801 207 207 209
-0.48556155 0.02708051 0.83793801 210 210 212
0.13796647 0.01510905 0.46751162 177 166 166
0.13877453 0.01510905 0.46751162 182 170 169
0.13958257 0.01510905 0.46751162 192 179 179
0.14019726 0.01508824 0.46686766 183 173 173
0.14100420 0.01508824 0.46686766 165 159 159
0.14171354 0.01507786 0.46654636 186 182 181
0.14251994 0.01507786 0.46654636 198 193 192
0.14332633 0.01507786 0.46654636 192 186 185
0.14423198 0.01508824 0.46686766 189 180 177
0.14483942 0.01506749 0.46622548 192 184 179
0.69773543 0.04783434 1.48011315 161 152 151
0.70491105 0.04814973 1.48987222 158 149 149
0.71534711 0.04868473 1.50642633 165 156 157
0.71795082 0.04868473 1.50642633 171 162 163
0.71578270 0.04836232 1.49644995 164 155 156
0.73441255 0.02652316 0.82069230 147 148 150
0.73494124 0.02649109 0.81969994 159 160 162
0.73635805 0.02649109 0.81969994 167 168 170
0.73688382 0.02645909 0.81870997 172 173 174
0.73829889 0.02645909 0.81870997 164 164 164
0.73882169 0.02642718 0.81772238 163 163 162
0.74023503 0.02642718 0.81772238 165 164 163
0.74344200 0.02649109 0.81969994 164 164 162
0.74395919 0.02645909 0.81870997 164 164 162
0.74808472 0.02655531 0.82168710 165 165 163
0.75041449 0.02658754 0.82268429 167 167 165
0.75183648 0.02658754 0.82268429 172 172 170
0.75325841 0.02658754 0.82268429 176 176 174
0.75376558 0.02655531 0.82168710 176 177 176
0.75427151 0.02652316 0.82069230 170 171 171
0.75477624 0.02649109 0.81969994 165 168 167
0.75436872 0.02642718 0.81772238 161 168 166
-0.49219468 0.02849359 0.83690351 203 203 203
-0.48761261 0.02856412 0.83897507 206 207 209
-0.48556155 0.02852882 0.83793801 207 208 209
0.13896620 0.01593910 0.46815735 177 166 165
0.13967891 0.01592810 0.46783426 184 172 172
0.14110138 0.01590614 0.46718940 178 168 170
0.14352387 0.01590614 0.46718940 192 177 177
0.14443092 0.01591711 0.46751162 189 174 171
0.14503892 0.01589519 0.46686766 185 170 166
0.69517720 0.05039260 1.48011315 185 176 177
0.69621533 0.05028281 1.47688854 179 170 170
0.71218187 0.05106153 1.49976075 178 169 170
0.71477407 0.05106153 1.49976075 162 153 154
0.71420610 0.05083659 1.49315381 146 137 138
0.73583102 0.02794166 0.82069230 161 162 164
0.73635805 0.02790787 0.81969994 169 170 172
0.73777485 0.02790787 0.81969994 176 177 179
0.74008656 0.02794166 0.82069230 171 172 172
0.74060839 0.02790787 0.81969994 167 167 167
0.74112904 0.02787417 0.81870997 164 164 163
0.74434203 0.02794166 0.82069230 164 164 163
0.74485874 0.02790787 0.81969994 164 164 163
0.75132632 0.02804351 0.82368392 177 177 176
0.75274998 0.02804351 0.82368392 176 176 174
0.75325841 0.02800948 0.82268429 172 173 171
0.75376558 0.02797553 0.82168710 172 175 174
0.75518578 0.02797553 0.82168710 170 173 172
0.75569004 0.02794166 0.82069230 168 171 171
0.75619304 0.02790787 0.81969994 168 173 171
0.14453059 0.01673671 0.46783426 191 169 167
0.69215471 0.05272064 1.47367787 190 181 182
0.69470179 0.05272064 1.47367787 190 181 182
0.69876802 0.05283549 1.47688854 180 171 172
0.70593464 0.05318310 1.48660493 175 168 168
0.71006125 0.05329998 1.48987222 161 154 154
0.71208149 0.05306672 1.48335195 168 159 160
0.73583102 0.02936016 0.82069230 160 160 162
0.73635805 0.02932466 0.81969994 166 167 169
0.73777485 0.02932466 0.81969994 173 174 176
0.74008656 0.02936016 0.82069230 169 170 172
0.74060839 0.02932466 0.81969994 165 166 168
0.74202520 0.02932466 0.81969994 163 164 166
0.74434203 0.02936016 0.82069230 164 164 164
0.74576056 0.02936016 0.82069230 165 165 164
0.74899256 0.02943142 0.82268429 167 168 167
0.75132632 0.02946718 0.82368392 172 175 173
0.75274998 0.02946718 0.82368392 168 171 170
0.75325841 0.02943142 0.82268429 163 166 164
0.75376558 0.02939575 0.82168710 171 175 174
0.75518578 0.02939575 0.82168710 173 177 176
0.75660604 0.02939575 0.82168710 173 177 176
0.75710851 0.02936016 0.82069230 172 174 174
0.69065326 0.05514788 1.47048128 186 177 178
0.69319487 0.05514788 1.47048128 184 177 177
0.69724894 0.05526777 1.47367787 172 165 166
0.70593464 0.05575257 1.48660493 168 162 162
0.71006125 0.05587510 1.48987222 175 170 169
0.71107358 0.05575257 1.48660493 174 170 169
0.71208149 0.05563058 1.48335195 171 168 167
0.73441255 0.03077866 0.82069230 157 157 159
0.73583102 0.03077866 0.82069230 162 162 164
0.73635805 0.03074144 0.81969994 168 169 171
0.73777485 0.03074144 0.81969994 168 169 171
0.74150503 0.03077866 0.82069230 165 166 168
0.74202520 0.03074144 0.81969994 166 167 169
0.74524426 0.03081597 0.82168710 165 167 168
0.75224036 0.03092843 0.82468593 168 172 172
0.75366575 0.03092843 0.82468593 169 173 174
0.75417364 0.03089085 0.82368392 170 174 174
0.75468034 0.03085336 0.82268429 178 182 181
0.75610226 0.03085336 0.82268429 180 184 183
0.69215471 0.05781490 1.47367787 180 174 172
0.69470179 0.05781490 1.47367787 180 174 172
0.69876802 0.05794086 1.47688854 168 163 161
0.70593464 0.05832205 1.48660493 159 156 157
0.71006125 0.05845023 1.48987222 159 156 157
0.71263641 0.05845023 1.48987222 162 161 159
0.71364307 0.05832205 1.48660493 170 169 166
0.71464533 0.05819443 1.48335195 175 173 169
0.75458372 0.03239325 0.82569045 172 174 174
0.75417364 0.03231452 0.82368392 176 178 178
0.75559735 0.03231452 0.82368392 176 178 178
0.69065326 0.06023110 1.47048128 176 172 171
0.69470179 0.06036203 1.47367787 179 178 174
0.69876802 0.06049354 1.47688854 178 177 173
0.70593464 0.06089152 1.48660493 182 182 181
0.71006125 0.06102535 1.48987222 171 171 169
0.71107358 0.06089152 1.48660493 154 151 145
0.71364307 0.06089152 1.48660493 172 168 163
0.71464533 0.06075828 1.48335195 184 179 174
0.69065326 0.06277271 1.47048128 181 175 174
0.69470179 0.06290916 1.47367787 168 163 161
0.69876802 0.06304622 1.47688854 165 160 157
0.70593464 0.06346100 1.48660493 173 168 167
0.70850414 0.06346100 1.48660493 155 150 149
0.70951766 0.06332213 1.48335195 150 138 135
0.71208149 0.06332213 1.48335195 164 152 149
0.71464533 0.06332213 1.48335195 177 165 160
0.68915832 0.06517294 1.46729839 178 170 166
0.69319487 0.06531432 1.47048128 166 159 156
0.69876802 0.06559891 1.47688854 167 161 159
0.70438993 0.06588599 1.48335195 177 169 169
0.70850414 0.06603048 1.48660493 169 161 162
0.71208149 0.06588599 1.48335195 170 157 158
0.71464533 0.06588599 1.48335195 172 153 151
0.71564323 0.06574214 1.48011315 171 152 150
0.68618786 0.06741720 1.46097374 179 170 167
0.69169444 0.06770904 1.46729839 171 165 162
0.69573647 0.06785592 1.47048128 178 173 171
0.70132071 0.06815159 1.47688854 182 179 177
0.70541024 0.06830039 1.48011315 177 175 173
0.70642608 0.06815159 1.47688854 169 161 160
0.70897871 0.06815159 1.47688854 169 161 160
0.71308500 0.06830039 1.48011315 172 156 154
0.71408409 0.06815159 1.47688854 170 154 151
0.67281222 0.06934457 1.44848680 171 161 163
0.67676187 0.06949306 1.45158851 171 161 163
0.67781937 0.06934457 1.44848680 174 165 166
0.68324280 0.06964219 1.45470357 171 165 164
0.68871301 0.06994237 1.46097374 169 165 163
0.69423056 0.07024515 1.46729839 175 175 173
0.69979608 0.07055057 1.47367787 181 181 178
0.70387340 0.07070427 1.47688854 184 184 180
0.70489037 0.07055057 1.47367787 184 183 179
0.70743746 0.07055057 1.47367787 171 170 166
0.70998460 0.07055057 1.47367787 164 157 155
0.71098614 0.07039753 1.47048128 153 147 144
0.67425293 0.07200202 1.45158851 183 181 178
0.67531580 0.07184816 1.44848680 179 177 176
0.67781937 0.07184816 1.44848680 167 164 163
0.68324280 0.07215653 1.45470357 162 158 159
0.69020051 0.07262406 1.46412921 162 158 158
0.69423056 0.07278126 1.46729839 168 164 165
0.69827807 0.07293914 1.47048128 174 172 171
0.70234323 0.07309770 1.47367787 179 179 175
0.70336133 0.07293914 1.47048128 176 175 171
0.70590293 0.07293914 1.47048128 157 155 151
0.70998460 0.07309770 1.47367787 162 156 153
0.70944721 0.07278126 1.46729839 160 154 151
0.67174399 0.07451097 1.45158851 176 173 170
0.67425293 0.07451097 1.45158851 174 174 170
0.67531580 0.07435176 1.44848680 185 184 181
0.67781937 0.07435176 1.44848680 177 176 174
0.68177980 0.07451097 1.45158851 174 170 170
0.69020051 0.07515469 1.46412921 167 163 164
0.69423056 0.07531736 1.46729839 153 148 150
0.69979608 0.07564483 1.47367787 148 142 144
0.70234323 0.07564483 1.47367787 155 149 151
0.70336133 0.07548074 1.47048128 158 151 152
0.70590293 0.07548074 1.47048128 150 144 144
0.67174399 0.07701992 1.45158851 174 173 172
0.67425293 0.07701992 1.45158851 176 175 173
0.67531580 0.07685535 1.44848680 185 182 181
0.67637414 0.07669148 1.44539833 186 182 181
0.68032300 0.07685535 1.44848680 185 180 180
0.68723190 0.07735119 1.45783186 181 176 176
0.69123816 0.07751790 1.46097374 164 153 155
0.69676667 0.07785347 1.46729839 147 133 137
0.69930279 0.07785347 1.46729839 144 125 132
0.69881374 0.07751790 1.46097374 156 137 144
0.70285368 0.07768532 1.46412921 172 152 159
0.67318547 0.07969954 1.45470357 175 172 171
0.67569983 0.07969954 1.45470357 176 173 171
0.67676187 0.07952888 1.45158851 180 177 175
0.67781937 0.07935894 1.44848680 181 177 176
0.68723190 0.07987093 1.45783186 162 154 153
0.68975163 0.07987093 1.45783186 148 135 135
0.69526178 0.08021595 1.46412921 141 126 127
0.69779241 0.08021595 1.46412921 136 113 121
0.69731086 0.07987093 1.45783186 141 118 126
0.69983065 0.07987093 1.45783186 170 148 155
0.67030859 0.08186253 1.44848680 183 177 177
0.67425293 0.08203782 1.45158851 178 172 172
0.67387587 0.08168798 1.44539833 177 171 171
0.67637414 0.08168798 1.44539833 175 169 169
0.67887241 0.08168798 1.44539833 176 167 167
0.68428874 0.08203782 1.45158851 165 156 155
0.68679768 0.08203782 1.45158851 143 130 132
0.69078583 0.08221387 1.45470357 136 123 125
0.69330019 0.08221387 1.45470357 136 118 125
0.69432455 0.08203782 1.45158851 131 115 122
0.69683349 0.08203782 1.45158851 166 158 162
0.69934243 0.08203782 1.45158851 162 156 156
0.69737148 0.08151418 1.44232309 157 154 149
0.67137766 0.08418623 1.44539833 170 164 164
0.67244214 0.08400711 1.44232309 170 165 165
0.67350209 0.08382875 1.43926084 162 158 157
0.67742801 0.08400711 1.44232309 157 151 151
0.68137068 0.08418623 1.44539833 174 167 167
0.68533015 0.08436612 1.44848680 168 157 159
0.68783379 0.08436612 1.44848680 133 122 124
0.69033736 0.08436612 1.44848680 112 100 106
0.65398645 0.04711616 0.80894017 115 89 74
0.66414756 0.04734214 0.81281996 110 90 71
0.67037529 0.04768520 0.81870997 107 88 69
0.67179036 0.04768520 0.81870997 105 86 67
0.66994917 0.08650006 1.44232309 162 157 158
0.67101443 0.08631640 1.43926084 169 165 165
0.67207515 0.08613353 1.43621159 170 166 166
0.67598969 0.08631640 1.43926084 152 146 146
0.67847735 0.08631640 1.43926084 150 142 142
0.68241388 0.08650006 1.44232309 161 151 154
0.68490678 0.08650006 1.44232309 153 142 146
0.68739974 0.08650006 1.44232309 116 105 111
0.64901739 0.04845653 0.80797595 110 84 74
0.65041393 0.04845653 0.80797595 111 84 75
0.65258831 0.04851435 0.80894017 113 86 77
0.65320700 0.04845653 0.80797595 114 88 74
0.65382421 0.04839884 0.80701411 114 90 71
0.65600002 0.04845653 0.80797595 114 90 71
0.65583318 0.04834129 0.80605453 110 89 67
0.65722638 0.04834129 0.80605453 109 88 66
0.66176713 0.04857231 0.80990660 108 88 66
0.66795516 0.04892302 0.81575429 108 89 69
0.66936511 0.04892302 0.81575429 106 87 67
0.66994917 0.08899299 1.44232309 170 166 167
0.67101443 0.08880405 1.43926084 179 175 176
0.67207515 0.08861590 1.43621159 185 181 182
0.67847735 0.08880405 1.43926084 108 99 102
0.68241388 0.08899299 1.44232309 127 117 122
0.68490678 0.08899299 1.44232309 154 145 151
0.68739974 0.08899299 1.44232309 133 131 136
0.64824480 0.04979370 0.80701411 112 86 78
0.64963967 0.04979370 0.80701411 112 87 77
0.65181047 0.04985305 0.80797595 112 87 77
0.65242934 0.04979370 0.80701411 112 87 74
0.65304679 0.04973449 0.80605453 112 88 69
0.65521908 0.04979370 0.80701411 113 89 70
0.65505427 0.04967542 0.80509722 114 90 71
0.65644580 0.04967542 0.80509722 114 90 71
0.66018957 0.04985305 0.80797595 113 89 70
0.66396022 0.05003195 0.81087542 112 88 69
0.66536176 0.05003195 0.81087542 111 87 68
0.66756183 0.05009186 0.81184649 110 86 68
0.66994917 0.09148593 1.44232309 173 173 168
0.67207515 0.09109828 1.43621159 170 161 162
0.67598969 0.09129170 1.43926084 125 115 117
0.67992091 0.09148593 1.44232309 102 89 95
0.68241388 0.09148593 1.44232309 114 103 111
0.68490678 0.09148593 1.44232309 136 126 134
0.68739974 0.09148593 1.44232309 126 124 130
0.69136369 0.09168100 1.44539833 116 115 121
0.69386190 0.09168100 1.44539833 121 120 122
0.64824480 0.05118856 0.80701411 108 87 81
0.64886719 0.05112769 0.80605453 108 85 78
0.65103447 0.05118856 0.80701411 109 86 78
0.65165359 0.05112769 0.80605453 110 87 76
0.65304679 0.05112769 0.80605453 112 88 71
0.65443999 0.05112769 0.80605453 112 88 71
0.65505427 0.05106697 0.80509722 112 88 72
0.65644580 0.05106697 0.80509722 113 89 72
0.65940362 0.05118856 0.80701411 114 90 73
0.66158611 0.05124957 0.80797595 111 87 71
0.66298264 0.05124957 0.80797595 110 86 70
0.66994917 0.09397887 1.44232309 176 173 165
0.67065430 0.09338281 1.43317509 159 153 149
0.67992091 0.09397887 1.44232309 130 118 121
0.68096501 0.09377934 1.43926084 132 123 125
0.68490678 0.09397887 1.44232309 133 127 130
0.68594033 0.09377934 1.43926084 137 134 135
0.68989271 0.09397887 1.44232309 147 146 146
0.69386190 0.09417925 1.44539833 163 162 159
0.69636017 0.09417925 1.44539833 164 163 160
0.64531344 0.05245851 0.80509722 105 84 76
0.64747399 0.05252089 0.80605453 106 85 77
0.64886719 0.05252089 0.80605453 105 85 77
0.65103447 0.05258342 0.80701411 104 84 76
0.65165359 0.05252089 0.80605453 104 83 74
0.65227121 0.05245851 0.80509722 111 86 73
0.65443999 0.05252089 0.80605453 111 87 74
0.65427721 0.05239629 0.80414218 110 86 72
0.65566713 0.05239629 0.80414218 109 85 71
0.65861958 0.05252089 0.80605453 109 85 72
0.66001278 0.05252089 0.80605453 103 78 67
0.66140598 0.05252089 0.80605453 105 80 70
0.66358823 0.05258342 0.80701411 111 85 75
0.66994917 0.09647181 1.44232309 142 140 138
0.66959280 0.09606303 1.43621159 160 159 156
