ply
format ascii 1.0
element vertex 1052
property float x
property float y
property float z
property uchar red
property uchar green
property uchar blue
end_header
0.00904557 0.03091185 0.48734137 155 154 154
0.00988080 0.03088965 0.48699126 155 154 154
0.01069180 0.03080114 0.48559588 156 155 155
0.01150639 0.03073509 0.48455456 155 154 154
0.01232628 0.03069121 0.48386285 155 154 154
0.48650688 0.09168100 1.44539833 157 158 162
0.48900512 0.09168100 1.44539833 172 173 177
0.49150339 0.09168100 1.44539833 173 173 177
0.50113517 0.09207363 1.45158851 167 167 166
0.50541526 0.09148593 1.44232309 167 166 166
0.31664920 0.04356473 0.68682051 154 154 155
0.31751460 0.04352064 0.68612534 158 159 161
0.31837827 0.04347663 0.68543160 156 156 158
0.31956297 0.04347663 0.68543160 162 163 164
0.32074770 0.04347663 0.68543160 167 168 170
0.32193241 0.04347663 0.68543160 168 169 170
0.32344416 0.04352064 0.68612534 165 165 167
0.32397425 0.04343272 0.68473923 164 164 165
0.34302348 0.04227963 0.66656029 147 147 145
0.34316328 0.04215528 0.66459984 148 148 146
0.34397477 0.04211399 0.66394889 150 150 148
0.57276946 0.03143157 0.49553499 143 145 147
0.57362592 0.03143157 0.49553499 140 143 144
0.57490265 0.03145456 0.49589747 136 139 141
0.57575983 0.03145456 0.49589747 136 140 141
0.57703906 0.03147759 0.49626049 140 144 145
0.57789677 0.03147759 0.49626049 144 148 149
0.57875454 0.03147759 0.49626049 146 150 151
0.58003688 0.03150065 0.49662405 145 149 150
0.58089530 0.03150065 0.49662405 140 144 145
0.58132780 0.03147759 0.49626049 130 134 135
0.58218551 0.03147759 0.49626049 134 138 140
0.58304328 0.03147759 0.49626049 136 139 141
0.58347386 0.03145456 0.49589747 135 137 140
0.58390385 0.03143157 0.49553499 137 138 142
0.58518809 0.03145456 0.49589747 137 140 143
0.58647424 0.03147759 0.49626049 137 142 144
0.58776230 0.03150065 0.49662405 139 143 146
-0.15228635 0.03132629 0.48077434 117 108 108
-0.15188625 0.03141541 0.48214212 130 126 127
-0.15062438 0.03132629 0.48077434 141 136 136
-0.14958124 0.03128192 0.48009336 149 143 142
0.00398873 0.03173137 0.48699126 141 141 143
0.00480972 0.03159519 0.48490116 135 133 139
0.00730837 0.03152753 0.48386285 146 145 145
0.00816801 0.03161780 0.48524827 154 150 149
0.00905208 0.03177703 0.48769197 155 151 150
0.00988080 0.03173137 0.48699126 157 152 151
0.01069180 0.03164045 0.48559588 157 151 151
0.01150639 0.03157260 0.48455456 153 147 147
0.01232628 0.03152753 0.48386285 155 149 150
0.48754641 0.09438049 1.44848680 146 146 150
0.49109936 0.09458259 1.45158851 170 170 172
0.49255359 0.09438049 1.44848680 171 170 171
0.50113517 0.09458259 1.45158851 164 163 162
0.31783631 0.04475184 0.68682051 159 159 159
0.31870052 0.04470655 0.68612534 158 158 158
0.31988642 0.04470655 0.68612534 162 161 162
0.32107234 0.04470655 0.68612534 165 164 165
0.32258475 0.04475184 0.68682051 167 167 167
0.32377186 0.04475184 0.68682051 164 164 164
0.32430184 0.04466134 0.68543160 164 164 164
0.34302348 0.04343173 0.66656029 146 146 144
0.34350005 0.04334649 0.66525203 150 150 148
0.34431198 0.04330399 0.66459984 155 155 153
0.57362592 0.03228806 0.49553499 140 146 146
0.57490265 0.03231168 0.49589747 138 143 144
0.57575983 0.03231168 0.49589747 137 142 143
0.57746178 0.03235903 0.49662405 139 143 144
0.57789677 0.03233534 0.49626049 142 146 147
0.57875454 0.03233534 0.49626049 141 145 146
0.58003688 0.03235903 0.49662405 139 143 144
0.58047003 0.03233534 0.49626049 137 140 142
0.58090252 0.03231168 0.49589747 135 137 139
0.58175963 0.03231168 0.49589747 140 142 144
0.58261675 0.03231168 0.49589747 139 140 142
0.58304733 0.03228806 0.49553499 131 132 134
0.58390385 0.03228806 0.49553499 134 135 138
0.58647424 0.03233534 0.49626049 140 141 144
0.58776230 0.03235903 0.49662405 146 147 149
-0.15597573 0.13335809 1.99379957 176 169 169
0.00399447 0.03261996 0.48769197 143 142 149
0.00481661 0.03247976 0.48559588 140 139 143
0.00731882 0.03241012 0.48455456 148 146 144
0.00820324 0.03259651 0.48734137 151 147 146
0.00906513 0.03266697 0.48839471 153 148 146
0.00988790 0.03259651 0.48734137 153 147 146
0.01069947 0.03250305 0.48594397 153 144 144
0.01150639 0.03241012 0.48455456 147 138 139
0.01232628 0.03236385 0.48386285 154 145 146
0.48963889 0.09729990 1.45470357 141 141 143
0.49321163 0.09750914 1.45783186 164 163 166
0.49360833 0.09709154 1.45158851 175 174 176
0.31783631 0.04593896 0.68682051 160 159 159
0.31870052 0.04589246 0.68612534 161 160 160
0.31988642 0.04589246 0.68612534 161 160 160
0.32107234 0.04589246 0.68612534 161 160 160
0.32258475 0.04593896 0.68682051 165 164 164
0.32377186 0.04593896 0.68682051 164 163 163
0.32463008 0.04589246 0.68612534 165 164 164
0.34302348 0.04458382 0.66656029 148 148 147
0.34383747 0.04454003 0.66590554 155 155 155
0.34498844 0.04454003 0.66590554 158 158 157
0.57448244 0.03314456 0.49553499 141 146 147
0.57533890 0.03314456 0.49553499 140 145 146
0.57703906 0.03319308 0.49626049 140 144 145
0.57789677 0.03319308 0.49626049 141 145 146
0.57833117 0.03316880 0.49589747 137 142 142
0.57961226 0.03319308 0.49626049 133 138 139
0.58047003 0.03319308 0.49626049 131 136 136
0.58090252 0.03316880 0.49589747 138 139 141
0.58175963 0.03316880 0.49589747 141 142 144
0.58219087 0.03314456 0.49553499 138 140 142
0.58262146 0.03312035 0.49517301 126 130 135
0.00399734 0.03348699 0.48804307 142 142 147
0.00482698 0.03339083 0.48664168 141 140 144
0.00566810 0.03339083 0.48664168 144 141 144
0.00732930 0.03329523 0.48524827 150 144 146
0.00821506 0.03348699 0.48804307 151 145 145
0.00906513 0.03351112 0.48839471 151 145 145
0.00989502 0.03346290 0.48769197 151 145 145
0.01070714 0.03336688 0.48629257 152 143 144
0.01150639 0.03324763 0.48455456 153 144 145
0.01232628 0.03320016 0.48386285 157 147 147
0.49321163 0.10002889 1.45783186 158 157 159
0.31783631 0.04712607 0.68682051 159 158 158
0.31837827 0.04703077 0.68543160 161 160 160
0.31956297 0.04703077 0.68543160 160 159 159
0.32074770 0.04703077 0.68543160 160 159 159
0.32225826 0.04707837 0.68612534 161 160 160
0.32344416 0.04707837 0.68612534 163 162 162
0.32397425 0.04698326 0.68473923 165 164 164
0.34302348 0.04573592 0.66656029 151 150 150
0.34417555 0.04573592 0.66656029 159 158 156
0.34532765 0.04573592 0.66656029 163 162 159
0.57448244 0.03400104 0.49553499 146 150 151
0.57533890 0.03400104 0.49553499 145 149 150
0.57703906 0.03405083 0.49626049 142 146 147
0.57789677 0.03405083 0.49626049 138 142 143
0.57875454 0.03405083 0.49626049 137 141 142
0.57961226 0.03405083 0.49626049 135 140 141
0.58047003 0.03405083 0.49626049 135 140 140
0.58090252 0.03402592 0.49589747 145 149 151
0.58175963 0.03402592 0.49589747 145 148 151
0.58219087 0.03400104 0.49553499 139 142 146
0.00482698 0.03423195 0.48664168 145 144 153
0.00566810 0.03423195 0.48664168 144 141 146
0.00732930 0.03413394 0.48524827 149 144 145
0.00821506 0.03433054 0.48804307 150 144 146
0.00905208 0.03430584 0.48769197 150 144 146
0.00988080 0.03425655 0.48699126 151 145 146
0.01070714 0.03420740 0.48629257 152 146 146
0.01150639 0.03408514 0.48455456 157 149 146
0.31719357 0.04821548 0.68543160 161 160 160
0.31805667 0.04816678 0.68473923 162 161 161
0.31891805 0.04811818 0.68404830 160 159 159
0.32010037 0.04811818 0.68404830 159 158 158
0.32160723 0.04816678 0.68473923 161 160 160
0.32279074 0.04816678 0.68473923 163 162 162
0.57448244 0.03485754 0.49553499 150 152 153
0.57533890 0.03485754 0.49553499 150 153 153
0.57746178 0.03493415 0.49662405 145 149 150
0.57789677 0.03490857 0.49626049 141 145 146
0.57875454 0.03490857 0.49626049 140 145 146
0.58003688 0.03493415 0.49662405 141 146 146
0.58089530 0.03493415 0.49662405 141 147 147
0.58132780 0.03490857 0.49626049 147 153 154
0.58218551 0.03490857 0.49626049 145 151 153
0.58261675 0.03488304 0.49589747 138 144 146
-0.23324281 0.13459171 1.86747062 166 166 168
-0.22505514 0.13168947 1.82720172 162 162 164
0.00481661 0.03499770 0.48559588 150 149 158
0.00565592 0.03499770 0.48559588 143 141 148
0.00648594 0.03494763 0.48490116 151 147 153
0.00901964 0.03502279 0.48594397 151 145 145
0.00985249 0.03499770 0.48559588 155 149 149
0.01068415 0.03497265 0.48524827 157 148 149
0.01148996 0.03487280 0.48386285 159 150 149
0.31655341 0.04930050 0.68404830 163 162 160
0.31741545 0.04925080 0.68335873 163 162 161
0.31859657 0.04925080 0.68335873 162 161 161
0.31945565 0.04920120 0.68267053 160 158 157
0.32063562 0.04920120 0.68267053 163 159 158
0.57788515 0.03581876 0.49698815 148 152 153
0.57832015 0.03579252 0.49662405 144 148 149
0.57960314 0.03581876 0.49698815 145 151 152
0.58046216 0.03581876 0.49698815 147 155 156
0.58132118 0.03581876 0.49698815 149 157 158
0.58175367 0.03579252 0.49662405 147 155 158
0.58261204 0.03579252 0.49662405 142 149 153
0.58347040 0.03579252 0.49662405 134 141 145
-0.23910534 0.13935508 1.88827813 166 166 166
-0.23388712 0.13820021 1.87262940 169 169 171
-0.22750805 0.13631737 1.84711671 166 166 168
-0.22189698 0.13484764 1.82720172 173 173 175
-0.21891315 0.13896799 1.88303292 178 178 179
-0.14734995 0.14543161 1.97061586 182 174 171
0.00564379 0.03576017 0.48455456 155 154 157
0.00647668 0.03573462 0.48420846 159 158 158
0.00900028 0.03578575 0.48490116 152 147 147
0.00983136 0.03576017 0.48455456 152 147 147
0.31709579 0.05038114 0.68267053 163 162 160
0.31795552 0.05033046 0.68198377 163 162 160
0.31881353 0.05027987 0.68129832 161 156 155
0.31999111 0.05027987 0.68129832 163 156 157
0.57958478 0.03678564 0.49844989 151 155 156
0.57959402 0.03673163 0.49771795 146 150 151
0.58045423 0.03673163 0.49771795 147 153 154
0.58131450 0.03673163 0.49771795 149 158 159
0.58174765 0.03670468 0.49735278 152 161 162
0.58218014 0.03667777 0.49698815 146 154 158
0.58303916 0.03667777 0.49698815 137 145 151
0.58347040 0.03665090 0.49662405 128 136 141
-0.27048579 0.14027441 1.85723794 166 163 162
-0.26157218 0.14065976 1.86234021 169 166 165
-0.25906497 0.14104725 1.86747062 167 162 163
-0.25099704 0.13837880 1.83214009 167 162 164
-0.23969835 0.14104725 1.86747062 169 164 163
-0.23844117 0.14222266 1.88303292 173 170 169
-0.23388712 0.14143689 1.87262940 173 172 172
-0.22812967 0.13989113 1.85216355 174 174 175
-0.22370592 0.13913086 1.84209740 179 179 179
-0.22216782 0.14222266 1.88303292 179 179 177
-0.21830674 0.14182869 1.87781680 178 178 176
-0.14692286 0.14840625 1.96490383 176 168 164
0.00563976 0.03657154 0.48420846 156 155 156
0.00647206 0.03654544 0.48386285 156 155 155
0.31795552 0.05150921 0.68198377 164 160 160
0.31849346 0.05140578 0.68061429 161 154 155
0.31966984 0.05140578 0.68061429 161 152 153
0.32116869 0.05145744 0.68129832 160 151 152
0.32169962 0.05135422 0.67993164 163 154 155
0.32948595 0.05074346 0.67184526 156 156 158
0.58043838 0.03770262 0.49918398 152 154 156
0.58044630 0.03764717 0.49844989 150 152 154
0.58130789 0.03764717 0.49844989 150 154 156
0.58174163 0.03761951 0.49808365 151 159 162
0.58174765 0.03756431 0.49735278 151 160 163
0.58218014 0.03753677 0.49698815 144 152 157
0.58303916 0.03753677 0.49698815 133 141 147
0.58347040 0.03750927 0.49662405 125 133 139
-0.27369589 0.14348449 1.85723794 165 159 159
-0.26755369 0.14192910 1.83710527 165 159 159
-0.26625401 0.14467359 1.87262940 171 167 168
-0.26014280 0.14309245 1.85216355 171 167 168
-0.25694150 0.14309245 1.85216355 167 162 163
-0.24964760 0.14078450 1.82228994 172 166 168
-0.24716233 0.14116398 1.82720172 176 170 170
-0.23903984 0.14387867 1.86234021 173 167 167
-0.23778066 0.14507434 1.87781680 176 171 171
-0.23324281 0.14427504 1.86747062 178 174 175
-0.22750805 0.14270255 1.84711671 179 178 178
-0.22370592 0.14231478 1.84209740 182 181 180
-0.22479805 0.14507434 1.87781680 182 181 179
-0.22155239 0.14507434 1.87781680 180 180 178
-0.21770369 0.14467359 1.87262940 181 181 179
-0.15643583 0.15448919 1.99968100 170 165 164
-0.15119553 0.15268756 1.97636104 170 165 165
-0.14565629 0.15049379 1.94796503 172 165 162
-0.13831481 0.14629005 1.89355266 170 162 158
0.00647206 0.03738175 0.48386285 158 154 157
0.31795552 0.05268797 0.68198377 165 161 162
0.31817400 0.05252942 0.67993164 160 155 156
0.31934920 0.05252942 0.67993164 158 152 154
0.32084623 0.05258217 0.68061429 158 152 154
0.32169962 0.05252942 0.67993164 160 154 156
0.32813913 0.05205948 0.67384875 156 156 158
0.32897681 0.05200778 0.67317957 153 153 156
0.32915974 0.05185330 0.67118007 153 152 158
0.57959402 0.03845216 0.49771795 152 153 155
0.58088076 0.03848041 0.49808365 153 155 158
0.58131450 0.03845216 0.49771795 153 157 161
0.58132118 0.03839577 0.49698815 153 156 160
0.58175367 0.03836765 0.49662405 144 148 152
0.58261204 0.03836765 0.49662405 130 135 141
0.58304328 0.03833956 0.49626049 130 134 140
-0.26468450 0.14354831 1.81740439 165 156 156
-0.26334414 0.14629376 1.85216355 169 160 161
-0.25663686 0.14432216 1.82720172 170 164 166
-0.25279728 0.14393419 1.82228994 170 164 166
-0.24765041 0.14278272 1.80771160 173 167 169
-0.24452594 0.14278272 1.80771160 175 169 168
-0.23708583 0.14589514 1.84711671 174 168 167
-0.23712382 0.14791027 1.87262940 177 172 170
-0.23260203 0.14709757 1.86234021 178 173 173
-0.22688983 0.14549869 1.84209740 178 174 173
-0.22249669 0.14471221 1.83214009 179 175 175
-0.22417706 0.14791027 1.87262940 180 177 177
-0.22155239 0.14831999 1.87781680 181 180 178
-0.21770369 0.14791027 1.87262940 183 183 181
-0.21387617 0.14750281 1.86747062 187 186 184
-0.15506358 0.15655999 1.98213995 172 166 166
-0.15031904 0.15519860 1.96490383 169 163 163
-0.14565629 0.15386069 1.94796503 169 161 162
-0.13831481 0.14956290 1.89355266 165 156 157
0.31731707 0.05375855 0.68061429 163 163 163
0.31785518 0.05365082 0.67925036 158 158 158
0.31902921 0.05365082 0.67925036 156 155 155
0.32052442 0.05370463 0.67993164 156 155 156
0.32137728 0.05365082 0.67925036 158 157 157
0.32424957 0.05354352 0.67789185 164 164 164
0.32509616 0.05349003 0.67721462 164 164 164
0.32762578 0.05333020 0.67519110 156 156 158
0.32781327 0.05317132 0.67317957 153 153 157
0.32897681 0.05317132 0.67317957 147 147 154
0.32915974 0.05301338 0.67118007 143 143 151
0.33115202 0.05296095 0.67051619 162 162 170
0.33165485 0.05285639 0.66919231 164 164 173
0.57874411 0.03925478 0.49698815 150 151 152
0.58002841 0.03928358 0.49735278 152 153 154
0.58088803 0.03928358 0.49735278 152 152 155
0.58047003 0.03919730 0.49626049 152 152 155
0.58132780 0.03919730 0.49626049 145 146 149
0.58261204 0.03922602 0.49662405 131 132 136
0.58304328 0.03919730 0.49626049 141 143 146
-0.26257265 0.14551915 1.80290389 160 151 151
-0.25771108 0.14629732 1.81254506 160 153 155
-0.25322413 0.14551915 1.80290389 168 162 164
-0.25010794 0.14551915 1.80290389 170 164 166
-0.24633662 0.14513315 1.79812157 172 167 168
-0.24322872 0.14513315 1.79812157 173 167 167
-0.23641336 0.14668955 1.81740439 171 162 160
-0.23389919 0.14708386 1.82228994 172 166 164
-0.23453230 0.14949508 1.85216355 177 171 170
-0.23133098 0.14949508 1.85216355 179 174 173
-0.22505514 0.14748032 1.82720172 179 175 174
-0.22130047 0.14708386 1.82228994 179 175 175
-0.22355948 0.15073058 1.86747062 176 172 173
-0.22094037 0.15114696 1.87262940 179 178 176
-0.21710394 0.15073058 1.86747062 183 182 180
-0.21328861 0.15031648 1.86234021 187 186 184
-0.15461151 0.15951954 1.97636104 173 167 167
-0.14607604 0.15768069 1.95357883 169 162 162
-0.13870226 0.15326387 1.89885676 165 156 157
-0.03032186 0.08203179 1.01632965 159 158 158
0.31668115 0.05482485 0.67925036 161 161 163
0.31721947 0.05471520 0.67789185 159 159 161
0.31839114 0.05471520 0.67789185 157 157 159
0.31988272 0.05476997 0.67857039 158 158 160
0.32073453 0.05471520 0.67789185 159 159 161
0.32158461 0.05466054 0.67721462 162 163 164
0.32211155 0.05455155 0.67586422 167 168 169
0.32392564 0.05466054 0.67721462 167 167 168
0.32444790 0.05455155 0.67586422 164 164 165
0.32529175 0.05449721 0.67519110 161 162 163
0.32645878 0.05449721 0.67519110 159 159 161
0.32729977 0.05444298 0.67451924 153 153 159
0.32716349 0.05422715 0.67184526 147 147 154
0.32799965 0.05417347 0.67118007 147 147 155
0.32883415 0.05411988 0.67051619 150 150 159
0.32934156 0.05401303 0.66919231 154 154 163
0.33049822 0.05401303 0.66919231 158 158 167
0.33132780 0.05395976 0.66853237 157 157 166
0.58043838 0.04029102 0.49918398 145 147 148
0.57959402 0.04017268 0.49771795 146 147 148
0.58088076 0.04020220 0.49808365 147 147 149
0.58131450 0.04017268 0.49771795 146 147 148
0.58089530 0.04008440 0.49662405 147 147 149
0.58175367 0.04008440 0.49662405 146 147 148
0.58261204 0.04008440 0.49662405 143 146 148
0.58304328 0.04005505 0.49626049 151 154 155
-0.26118338 0.14784889 1.79336464 152 144 146
-0.25740272 0.14745879 1.78863287 155 146 150
-0.25634030 0.14863533 1.80290389 155 146 151
-0.25255245 0.14824106 1.79812157 163 159 160
-0.24944453 0.14824106 1.79812157 165 161 162
-0.24633662 0.14824106 1.79812157 168 164 165
-0.24322872 0.14824106 1.79812157 169 164 165
-0.24012081 0.14824106 1.79812157 166 160 161
-0.23701289 0.14824106 1.79812157 168 159 161
-0.23578124 0.14943016 1.81254506 168 159 160
-0.23327212 0.14983077 1.81740439 171 164 164
-0.23262553 0.15145496 1.83710527 173 168 168
-0.23007375 0.15186653 1.84209740 175 172 171
-0.22445016 0.15023355 1.82228994 173 172 172
-0.22070718 0.14983077 1.81740439 173 171 173
-0.22294532 0.15353538 1.86234021 173 171 173
-0.22094037 0.15438364 1.87262940 177 173 176
-0.21650751 0.15353538 1.86234021 180 178 179
-0.21212310 0.15269640 1.85216355 184 183 182
-0.15989213 0.16485806 1.99968100 172 170 168
-0.15461151 0.16293551 1.97636104 175 171 170
-0.03403928 0.08429394 1.02246130 164 160 159
-0.03222343 0.08416699 1.02092147 161 158 158
-0.03041305 0.08404042 1.01938617 158 156 156
0.21400039 0.04562194 0.55338109 170 169 171
0.21694082 0.04543649 0.55113161 167 165 166
0.21771640 0.04539958 0.55068386 168 166 166
0.31690258 0.05583105 0.67721462 160 159 161
0.31807309 0.05583105 0.67721462 160 159 161
0.31988272 0.05594282 0.67857039 160 159 161
0.32073453 0.05588688 0.67789185 161 161 163
0.32126367 0.05577533 0.67653877 162 162 164
0.32179072 0.05566422 0.67519110 164 165 167
0.32360235 0.05577533 0.67653877 165 167 169
0.32444790 0.05571972 0.67586422 162 166 167
0.32496807 0.05560884 0.67451924 160 162 163
0.32613394 0.05560884 0.67451924 160 161 163
0.32697445 0.05555356 0.67384875 157 157 164
0.32651630 0.05527882 0.67051619 151 151 159
0.32735142 0.05522419 0.66985363 155 155 164
0.32818493 0.05516968 0.66919231 158 158 167
0.32869262 0.05506097 0.66787374 154 154 163
0.33017227 0.05511527 0.66853237 148 148 157
0.33100134 0.05506097 0.66787374 145 145 154
0.58216399 0.04115381 0.49918398 141 142 145
0.58216941 0.04109329 0.49844989 138 139 141
0.58132118 0.04097279 0.49698815 140 141 143
0.58218014 0.04097279 0.49698815 144 145 147
0.58303916 0.04097279 0.49698815 145 150 149
0.58304328 0.04091280 0.49626049 152 157 156
-0.25740272 0.15055029 1.78863287 148 141 148
-0.25634030 0.15175149 1.80290389 152 142 151
-0.25255245 0.15134896 1.79812157 160 155 157
-0.25010794 0.15175149 1.80290389 165 161 162
-0.24699177 0.15175149 1.80290389 166 165 165
-0.24322872 0.15134896 1.79812157 163 162 164
-0.24075943 0.15175149 1.80290389 160 158 160
-0.23827697 0.15215616 1.80771160 161 157 160
-0.23641336 0.15297201 1.81740439 163 158 160
-0.23389919 0.15338323 1.82228994 164 160 161
-0.23262553 0.15463024 1.83710527 167 164 165
-0.23007375 0.15505044 1.84209740 167 166 166
-0.22505514 0.15379666 1.82720172 167 167 169
-0.22130047 0.15338323 1.82228994 168 168 170
-0.22355948 0.15718612 1.86747062 168 168 170
-0.22033171 0.15718612 1.86747062 174 173 175
-0.21650751 0.15675429 1.86234021 175 174 175
-0.21212310 0.15589771 1.85216355 177 176 176
-0.15942185 0.16781931 1.99379957 170 169 169
-0.15461151 0.16635150 1.97636104 172 171 171
-0.03403928 0.08606118 1.02246130 164 160 159
-0.03222343 0.08593157 1.02092147 162 158 157
-0.03045885 0.08593157 1.02092147 161 157 157
-0.02856521 0.08554507 1.01632965 152 152 159
-0.01978200 0.08554507 1.01632965 138 137 139
-0.01789124 0.08490857 1.00876760 138 132 134
-0.01440409 0.08490857 1.00876760 137 127 130
-0.01269831 0.08516203 1.01177883 129 119 121
-0.01091694 0.08490857 1.00876760 142 134 136
-0.00913260 0.08453120 1.00428426 147 143 144
0.21304391 0.04657842 0.55338109 164 163 165
0.21400039 0.04657842 0.55338109 167 166 167
0.21460649 0.04650250 0.55247909 167 166 165
0.21616398 0.04642682 0.55158001 170 165 166
0.21694082 0.04638907 0.55113161 162 157 158
0.21771640 0.04635139 0.55068386 164 159 161
0.31690258 0.05700156 0.67721462 156 155 159
0.31839114 0.05705856 0.67789185 155 155 160
0.31956282 0.05705856 0.67789185 159 159 163
0.32041410 0.05700156 0.67721462 161 161 165
0.32126367 0.05694467 0.67653877 162 162 166
0.32412475 0.05683124 0.67519110 163 164 166
0.32496807 0.05677469 0.67451924 161 162 164
0.32645878 0.05683124 0.67519110 159 160 163
0.32697445 0.05671825 0.67384875 159 160 164
0.32651630 0.05643775 0.67051619 158 159 164
0.32735142 0.05638198 0.66985363 162 163 172
0.32818493 0.05632632 0.66919231 163 164 173
0.32869262 0.05621533 0.66787374 161 162 170
0.33017227 0.05627077 0.66853237 157 158 167
0.58259779 0.04198570 0.49881667 135 138 140
0.58217478 0.04189322 0.49771795 138 141 142
0.58303505 0.04189322 0.49771795 142 145 147
-0.25672534 0.15323748 1.78392589 143 141 148
-0.25634030 0.15486766 1.80290389 141 139 146
-0.25255245 0.15445688 1.79812157 158 158 162
-0.25010794 0.15486766 1.80290389 169 169 172
-0.24699177 0.15486766 1.80290389 166 166 169
-0.24387559 0.15486766 1.80290389 160 159 161
-0.24075943 0.15486766 1.80290389 159 158 160
-0.23827697 0.15528065 1.80771160 160 159 161
-0.23641336 0.15611325 1.81740439 160 159 161
-0.23389919 0.15653291 1.82228994 160 159 161
-0.23262553 0.15780553 1.83710527 160 159 161
-0.23007375 0.15823436 1.84209740 159 159 161
-0.22505514 0.15695482 1.82720172 160 160 162
-0.22189698 0.15695482 1.82720172 162 162 164
-0.22417706 0.16085702 1.87262940 164 164 166
-0.22094037 0.16085702 1.87262940 167 166 168
-0.21650751 0.15997319 1.86234021 172 171 173
-0.15989213 0.17177063 1.99968100 165 165 165
-0.15461151 0.16976747 1.97636104 167 164 164
-0.03403928 0.08782842 1.02246130 164 159 158
-0.03222343 0.08769615 1.02092147 163 157 157
-0.03045885 0.08769615 1.02092147 162 158 157
-0.02860810 0.08743279 1.01785564 152 153 157
-0.02672843 0.08704072 1.01329124 148 149 153
-0.01978200 0.08730172 1.01632965 137 136 138
-0.01794464 0.08691081 1.01177883 134 130 131
-0.01626871 0.08730172 1.01632965 133 124 127
-0.01444709 0.08691081 1.01177883 129 120 123
-0.01271729 0.08704072 1.01329124 127 118 121
-0.01093321 0.08678129 1.01027095 139 130 133
-0.00914615 0.08639502 1.00577426 147 138 141
-0.00739678 0.08626702 1.00428426 153 145 147
0.40092421 0.15124738 1.76075804 163 161 162
0.20932013 0.04734166 0.55113161 153 151 158
0.21174175 0.04745741 0.55247909 165 164 163
0.21287015 0.04749612 0.55292970 159 158 156
0.21400039 0.04753489 0.55338109 152 151 150
0.21460649 0.04745741 0.55247909 157 152 153
0.21521062 0.04738018 0.55158001 150 145 146
0.21616398 0.04738018 0.55158001 154 148 150
0.21676458 0.04730320 0.55068386 152 146 148
0.21753968 0.04726481 0.55023688 158 152 154
0.21831352 0.04722647 0.54979062 167 163 164
0.21926379 0.04722647 0.54979062 170 166 167
0.22152364 0.04730320 0.55068386 165 164 163
0.31721947 0.05823024 0.67789185 166 166 172
0.32412475 0.05799825 0.67519110 162 163 167
0.32613394 0.05794054 0.67451924 160 161 165
0.32664973 0.05782546 0.67317957 159 160 165
0.32651630 0.05759668 0.67051619 160 161 166
0.32735142 0.05753976 0.66985363 163 166 174
0.32818493 0.05748297 0.66919231 169 172 179
0.32869262 0.05736970 0.66787374 175 179 182
0.33017227 0.05742627 0.66853237 167 170 173
0.58302677 0.04287941 0.49918398 139 144 144
0.58217478 0.04275348 0.49771795 141 145 145
-0.25538123 0.15550242 1.77458596 153 152 156
-0.25498399 0.15714794 1.79336464 150 150 154
-0.25188431 0.15714794 1.79336464 164 164 167
-0.24944453 0.15756479 1.79812157 169 169 172
-0.24633662 0.15756479 1.79812157 168 168 170
-0.24322872 0.15756479 1.79812157 162 162 164
-0.24012081 0.15756479 1.79812157 159 159 161
-0.23764326 0.15798384 1.80290389 158 158 160
-0.23578124 0.15882868 1.81254506 158 157 159
-0.23327212 0.15925449 1.81740439 157 157 159
-0.23137148 0.16011301 1.82720172 157 156 158
-0.22945024 0.16098082 1.83710527 156 155 157
-0.22505514 0.16011301 1.82720172 157 156 159
-0.22189698 0.16011301 1.82720172 160 159 162
-0.22417706 0.16409372 1.87262940 161 160 164
-0.22094037 0.16409372 1.87262940 161 161 163
-0.21650751 0.16319209 1.86234021 167 165 167
-0.15895434 0.17419919 1.98795259 162 162 162
-0.03409069 0.08973100 1.02400577 164 156 151
-0.03222343 0.08946073 1.02092147 163 155 151
-0.03050479 0.08959566 1.02246130 160 155 155
-0.02869427 0.08946073 1.02092147 154 154 155
-0.01981170 0.08919208 1.01785564 136 136 138
-0.01799837 0.08892503 1.01480818 136 136 137
-0.01629314 0.08919208 1.01785564 141 132 135
-0.01446868 0.08879212 1.01329124 129 119 123
-0.01271729 0.08879212 1.01329124 131 120 124
-0.01094953 0.08865958 1.01177883 141 132 135
-0.00914615 0.08813342 1.00577426 145 136 139
-0.00739678 0.08800285 1.00428426 147 139 141
0.38566944 0.15550242 1.77458596 156 155 155
0.38470832 0.15389100 1.75619650 159 158 158
0.39077750 0.15270418 1.74265254 165 159 159
0.39378953 0.15270418 1.74265254 170 166 166
0.39988554 0.15389100 1.75619650 173 172 172
0.39878845 0.15231262 1.73818421 171 170 170
0.40076515 0.15192308 1.73373878 170 169 169
0.20898032 0.04821585 0.55023688 153 151 155
0.21027271 0.04829425 0.55113161 156 155 159
0.21156931 0.04837290 0.55202919 161 160 160
0.21287015 0.04845181 0.55292970 155 153 153
0.21382584 0.04845181 0.55292970 139 134 136
0.21443173 0.04837290 0.55202919 140 131 134
0.21503565 0.04829425 0.55113161 145 134 138
0.21616398 0.04833354 0.55158001 146 135 139
0.21676458 0.04825502 0.55068386 151 141 145
0.21753968 0.04821585 0.55023688 159 154 155
0.21813659 0.04813770 0.54934508 168 165 164
0.21944176 0.04821585 0.55023688 171 170 168
0.22111069 0.04837290 0.55202919 177 176 174
0.22170375 0.04829425 0.55113161 168 168 166
0.32444790 0.05922425 0.67586422 163 162 169
0.32496807 0.05910639 0.67451924 160 160 166
0.32645878 0.05916526 0.67519110 162 161 168
0.32664973 0.05898900 0.67317957 166 165 172
0.32619363 0.05869755 0.66985363 168 167 174
0.32702827 0.05863961 0.66919231 169 172 178
0.32818493 0.05863961 0.66919231 177 180 186
0.32836911 0.05846646 0.66721636 179 183 182
0.32984698 0.05852406 0.66787374 177 181 180
0.58345646 0.04377445 0.49955183 142 145 144
-0.25405112 0.15774377 1.76534331 159 158 161
-0.25431120 0.15982482 1.78863287 162 158 159
-0.25188431 0.16024764 1.79336464 167 165 164
-0.24258526 0.16024764 1.79336464 165 165 166
-0.23948556 0.16024764 1.79336464 160 160 162
-0.23515248 0.16152962 1.80771160 155 154 156
-0.23264840 0.16196151 1.81254506 155 154 156
-0.23074952 0.16283228 1.82228994 156 155 157
-0.22821331 0.16327117 1.82720172 156 155 157
-0.22445016 0.16283228 1.82228994 155 154 156
-0.22130047 0.16283228 1.82228994 155 154 156
-0.22294532 0.16641100 1.86234021 157 156 158
-0.22033171 0.16686943 1.86747062 161 160 160
-0.21532440 0.16550165 1.85216355 165 165 165
-0.15895434 0.17763521 1.98795259 155 155 155
-0.15461151 0.17659943 1.97636104 157 156 156
-0.03414227 0.09163934 1.02555501 154 146 142
-0.03227204 0.09136290 1.02246130 153 145 141
-0.03050479 0.09136290 1.02246130 161 152 153
-0.02869427 0.09122531 1.02092147 155 153 153
-0.01984149 0.09108813 1.01938617 139 137 137
-0.01805242 0.09095136 1.01785564 139 136 136
-0.01631764 0.09108813 1.01938617 141 134 136
-0.01451207 0.09081500 1.01632965 141 133 135
-0.01273633 0.09067905 1.01480818 141 132 133
-0.01096590 0.09054351 1.01329124 144 135 138
-0.00917337 0.09013929 1.00876760 145 136 139
-0.00741876 0.09000535 1.00726867 145 136 139
-0.00569470 0.09027363 1.01027095 148 142 144
-0.00394853 0.09027363 1.01027095 151 147 148
0.38566944 0.15856965 1.77458596 157 156 156
0.38470832 0.15692644 1.75619650 159 158 158
0.38774374 0.15692644 1.75619650 160 159 159
0.39281452 0.15774377 1.76534331 159 157 158
0.39178467 0.15611754 1.74714386 158 153 155
0.39378953 0.15571621 1.74265254 164 160 162
0.39885223 0.15652095 1.75165856 166 164 165
0.39878845 0.15531693 1.73818421 167 166 167
0.40076515 0.15491970 1.73373878 168 166 167
0.40068746 0.15374011 1.72053766 167 165 166
0.20864162 0.04908720 0.54934508 153 151 154
0.20993136 0.04916689 0.55023688 157 156 157
0.21122530 0.04924683 0.55113161 159 158 158
0.21252345 0.04932704 0.55202919 155 153 154
0.21347758 0.04932704 0.55202919 150 143 145
0.21425726 0.04928691 0.55158001 149 138 141
0.21503565 0.04924683 0.55113161 151 138 141
0.21598823 0.04924683 0.55113161 151 138 142
0.21676458 0.04920683 0.55068386 160 148 152
0.21753968 0.04916689 0.55023688 167 163 164
0.21831352 0.04912701 0.54979062 172 169 169
0.21962002 0.04920683 0.55068386 173 170 170
0.22129090 0.04936724 0.55247909 172 171 171
0.32444790 0.06039243 0.67586422 161 161 165
0.32613394 0.06027224 0.67451924 159 159 161
0.32600227 0.06003331 0.67184526 164 164 166
0.32587165 0.05979626 0.66919231 168 168 171
0.32786128 0.05973728 0.66853237 177 178 179
0.52686381 0.04936724 0.55247909 156 157 156
0.52610368 0.04920683 0.55068386 156 157 154
0.52877367 0.04936724 0.55247909 159 160 157
-0.25339124 0.16037737 1.76075804 161 161 161
-0.25431120 0.16291632 1.78863287 163 160 161
-0.25121972 0.16291632 1.78863287 166 165 164
-0.23515248 0.16465409 1.80771160 145 144 146
-0.23202801 0.16465409 1.80771160 154 152 154
-0.23013088 0.16553695 1.81740439 157 155 157
-0.22759983 0.16598195 1.82228994 158 157 159
-0.22384842 0.16553695 1.81740439 159 158 159
-0.22070718 0.16553695 1.81740439 162 161 162
-0.22172704 0.16870297 1.85216355 164 163 165
-0.21912442 0.16916516 1.85723794 165 164 165
-0.21415417 0.16778611 1.84209740 165 164 165
-0.15895434 0.18107122 1.98795259 158 153 153
-0.15416206 0.17949212 1.97061586 160 156 157
-0.14988458 0.17845458 1.95922494 162 158 159
-0.14692286 0.17897184 1.96490383 162 159 159
-0.03414227 0.09341193 1.02555501 151 143 139
-0.03232079 0.09327082 1.02400577 152 144 140
-0.03055087 0.09327082 1.02400577 156 147 148
-0.02873755 0.09313014 1.02246130 154 148 149
-0.02692969 0.09298989 1.02092147 153 148 149
-0.02347123 0.09327082 1.02400577 144 140 141
-0.01987137 0.09298989 1.02092147 140 136 137
-0.01810679 0.09298989 1.02092147 141 135 137
-0.01634221 0.09298989 1.02092147 144 136 135
-0.01455571 0.09285005 1.01938617 149 140 140
-0.01277457 0.09271064 1.01785564 150 141 142
-0.01099878 0.09257165 1.01632965 146 137 138
-0.00921451 0.09229489 1.01329124 146 138 139
-0.00746311 0.09229489 1.01329124 147 141 142
-0.00572027 0.09243307 1.01480818 147 143 143
-0.00396033 0.09229489 1.01329124 147 146 147
0.38668171 0.16206113 1.77924371 157 156 156
0.38671201 0.16079502 1.76534331 159 158 158
0.38976327 0.16079502 1.76534331 159 157 158
0.39487112 0.16163687 1.77458596 159 155 156
0.39381465 0.15996188 1.75619650 156 152 155
0.39788085 0.16037737 1.76075804 162 159 162
0.40092421 0.16037737 1.76075804 164 163 166
0.39878845 0.15832125 1.73818421 165 164 168
0.40076515 0.15791634 1.73373878 165 164 168
0.20864162 0.05003670 0.54934508 159 155 157
0.20993136 0.05011793 0.55023688 162 158 159
0.21105371 0.05015864 0.55068386 162 157 159
0.21235053 0.05024027 0.55158001 160 155 156
0.21347758 0.05028118 0.55202919 156 147 148
0.21408306 0.05019942 0.55113161 155 145 147
0.21503565 0.05019942 0.55113161 157 148 149
0.21598823 0.05019942 0.55113161 153 146 146
0.21676458 0.05015864 0.55068386 159 153 153
0.21753968 0.05011793 0.55023688 169 165 166
0.21849072 0.05011793 0.55023688 174 171 172
0.21979858 0.05019942 0.55113161 175 171 172
0.22129090 0.05032216 0.55247909 173 172 172
0.32535735 0.06107348 0.67051619 164 164 164
0.32555026 0.06089279 0.66853237 170 170 170
0.52686381 0.05032216 0.55247909 152 153 154
0.52695978 0.05024027 0.55158001 150 152 152
0.52920496 0.05036320 0.55292970 154 156 156
0.53016067 0.05036320 0.55292970 159 162 161
0.53111637 0.05036320 0.55292970 165 168 168
-0.25339124 0.16342069 1.76075804 162 162 162
-0.25431120 0.16600783 1.78863287 161 161 161
-0.25121972 0.16600783 1.78863287 165 165 164
-0.24194519 0.16600783 1.78863287 167 166 166
-0.23885368 0.16600783 1.78863287 159 157 157
-0.23515248 0.16777858 1.80771160 152 148 149
-0.23202801 0.16777858 1.80771160 156 152 153
-0.22951557 0.16822718 1.81254506 161 157 157
-0.22759983 0.16913164 1.82228994 162 161 161
-0.22445016 0.16913164 1.82228994 167 166 166
-0.22130047 0.16913164 1.82228994 170 169 169
-0.21972641 0.17284881 1.86234021 165 164 166
-0.21415417 0.17097002 1.84209740 165 164 166
-0.15848956 0.18396774 1.98213995 161 152 155
-0.15416206 0.18289816 1.97061586 161 155 157
-0.14945264 0.18131691 1.95357883 162 157 158
-0.14649822 0.18184094 1.95922494 164 159 159
-0.03770086 0.08344425 0.89906079 149 148 146
-0.03595616 0.08300392 0.89431643 146 144 144
-0.03436507 0.08289456 0.89313811 138 136 137
-0.03264928 0.08245999 0.88845587 139 138 138
-0.03419400 0.09532874 1.02710891 145 138 140
-0.03232079 0.09504074 1.02400577 150 142 143
-0.03055087 0.09504074 1.02400577 150 143 144
-0.02878096 0.09504074 1.02400577 151 145 145
-0.02697031 0.09489739 1.02246130 151 145 145
-0.02527933 0.09518452 1.02555501 146 142 143
-0.02347123 0.09504074 1.02400577 140 136 137
-0.02163595 0.09475447 1.02092147 140 137 138
-0.01987137 0.09475447 1.02092147 141 137 139
-0.01810679 0.09475447 1.02092147 146 140 140
-0.01636686 0.09489739 1.02246130 152 144 141
-0.01457763 0.09475447 1.02092147 155 147 142
-0.01279378 0.09461198 1.01938617 159 149 145
-0.01101529 0.09446992 1.01785564 158 149 144
-0.00922830 0.09418707 1.01480818 155 148 145
-0.00747429 0.09418707 1.01480818 149 144 143
-0.00572885 0.09432828 1.01632965 149 143 143
-0.00396626 0.09418707 1.01480818 149 145 145
-0.00220564 0.09390592 1.01177883 151 148 149
0.38668171 0.16513640 1.77924371 160 156 157
0.38772169 0.16427407 1.76995254 162 158 159
0.39180389 0.16470410 1.77458596 161 157 158
0.39694941 0.16557096 1.78392589 160 156 157
0.39586577 0.16384627 1.76534331 158 154 157
0.40100560 0.16470410 1.77458596 162 158 161
0.40301779 0.16427407 1.76995254 164 160 163
0.39981362 0.16174027 1.74265254 166 164 166
0.40179276 0.16132556 1.73818421 162 160 163
0.20881084 0.05102755 0.54979062 161 157 159
0.20993136 0.05106897 0.55023688 165 161 162
0.21105371 0.05111045 0.55068386 166 161 161
0.21235053 0.05119363 0.55158001 161 156 155
0.21347758 0.05123531 0.55202919 159 153 153
0.21408306 0.05115201 0.55113161 157 151 151
0.21486096 0.05111045 0.55068386 161 155 155
0.21598823 0.05115201 0.55113161 163 159 158
0.21676458 0.05111045 0.55068386 165 161 160
0.21753968 0.05106897 0.55023688 171 170 170
0.21866821 0.05111045 0.55068386 175 174 174
0.21979858 0.05115201 0.55113161 173 173 173
0.22129090 0.05127707 0.55247909 173 173 173
0.52624065 0.05140275 0.55383319 154 155 156
0.52633786 0.05131890 0.55292970 149 150 152
0.52686381 0.05127707 0.55247909 144 145 146
0.52738893 0.05123531 0.55202919 141 145 145
0.52963698 0.05136079 0.55338109 146 151 151
0.53059345 0.05136079 0.55338109 155 160 159
0.53154993 0.05136079 0.55338109 161 167 166
0.53250641 0.05136079 0.55338109 161 167 167
-0.25431120 0.16909933 1.78863287 162 161 161
-0.25188431 0.16954669 1.79336464 166 166 165
-0.24812821 0.16909933 1.78863287 170 170 170
-0.24194519 0.16909933 1.78863287 170 169 169
-0.23885368 0.16909933 1.78863287 167 165 165
-0.23701289 0.16999641 1.79812157 164 158 158
-0.23452708 0.17044853 1.80290389 162 157 157
-0.23202801 0.17090306 1.80771160 163 157 157
-0.22890352 0.17090306 1.80771160 163 159 158
-0.22759983 0.17228131 1.82228994 174 173 171
-0.22445016 0.17228131 1.82228994 171 169 167
-0.22130047 0.17228131 1.82228994 171 169 167
-0.21532440 0.17510560 1.85216355 164 163 165
-0.15416206 0.18630421 1.97061586 151 148 149
-0.14945264 0.18469352 1.95357883 156 154 153
-0.14649822 0.18522730 1.95922494 160 159 157
-0.05338572 0.08779267 0.92861897 165 161 162
-0.04293211 0.08614065 0.91114497 158 143 142
-0.04124639 0.08590972 0.90870219 158 144 144
-0.03962266 0.08579471 0.90748572 154 142 144
-0.03765092 0.08488563 0.89787000 150 144 144
-0.03595616 0.08454967 0.89431643 145 141 141
-0.03431985 0.08432717 0.89196295 133 129 130
-0.03260655 0.08388566 0.88729298 139 136 137
-0.03232079 0.09681065 1.02400577 143 139 140
-0.03059709 0.09695711 1.02555501 147 141 141
-0.02873755 0.09666463 1.02246130 148 143 144
-0.02692969 0.09651905 1.02092147 145 141 143
-0.02524114 0.09681065 1.02400577 133 134 136
-0.02343583 0.09666463 1.02246130 134 134 138
-0.01987137 0.09651905 1.02092147 141 140 144
-0.01810679 0.09651905 1.02092147 147 146 144
-0.01634221 0.09651905 1.02092147 157 150 148
-0.01455571 0.09637391 1.01938617 163 154 153
-0.01279378 0.09637391 1.01938617 171 161 156
-0.01101529 0.09622920 1.01785564 171 161 158
-0.00922830 0.09594109 1.01480818 163 155 154
-0.00745198 0.09565470 1.01177883 153 148 147
-0.00571172 0.09579768 1.01329124 151 146 146
-0.00395442 0.09565470 1.01177883 157 151 152
-0.00219908 0.09537001 1.00876760 158 152 153
0.38566944 0.16777132 1.77458596 162 157 157
0.38570756 0.16646402 1.76075804 162 158 158
0.39078093 0.16733329 1.76995254 162 158 157
0.39590752 0.16821167 1.77924371 161 156 155
0.39586577 0.16689752 1.76534331 159 154 154
0.40100560 0.16777132 1.77458596 162 157 157
0.40301779 0.16733329 1.76995254 165 160 162
0.40084407 0.16517693 1.74714386 171 167 168
0.40282565 0.16475230 1.74265254 173 169 171
0.40170702 0.16307545 1.72491562 164 163 167
0.20915009 0.05206227 0.55068386 160 159 159
0.21027271 0.05210459 0.55113161 161 160 160
0.21105371 0.05206227 0.55068386 160 158 157
0.21252345 0.05218945 0.55202919 160 156 156
0.21347758 0.05218945 0.55202919 160 156 156
0.21425726 0.05214699 0.55158001 161 156 156
0.21521062 0.05214699 0.55158001 163 157 158
0.21616398 0.05214699 0.55158001 165 160 161
0.21694082 0.05210459 0.55113161 168 164 164
0.21789341 0.05210459 0.55113161 169 168 168
0.21884599 0.05210459 0.55113161 173 172 172
0.21997742 0.05214699 0.55158001 174 174 174
0.22147140 0.05227459 0.55292970 173 173 173
0.40504447 0.04551750 0.48145726 137 137 138
0.52614307 0.05244570 0.55473965 154 157 158
0.52624065 0.05236001 0.55383319 152 154 156
0.52676755 0.05231727 0.55338109 147 148 150
0.52772403 0.05231727 0.55338109 139 141 143
0.52824926 0.05227459 0.55292970 139 143 144
0.53006965 0.05236001 0.55383319 144 150 150
0.53146112 0.05240282 0.55428606 153 159 159
0.53285486 0.05244570 0.55473965 158 163 164
0.53337717 0.05240282 0.55428606 161 166 166
-0.25605154 0.17128696 1.77924371 163 162 161
-0.25566036 0.17310432 1.79812157 166 166 164
-0.25255245 0.17310432 1.79812157 167 167 165
-0.24878462 0.17264637 1.79336464 169 169 167
-0.23515248 0.17402755 1.80771160 165 158 158
-0.23264840 0.17449287 1.81254506 167 159 159
-0.22951557 0.17449287 1.81254506 171 162 161
-0.22821331 0.17590386 1.82720172 177 170 169
-0.22566339 0.17637926 1.83214009 174 169 168
-0.22249669 0.17637926 1.83214009 174 170 169
-0.22233450 0.17879543 1.85723794 163 159 161
-0.21473770 0.17782106 1.84711671 162 161 163
-0.15371521 0.18916038 1.96490383 155 154 154
-0.14945264 0.18807012 1.95357883 154 153 153
-0.14649822 0.18861367 1.95922494 155 153 153
-0.05836074 0.08964331 0.93117011 161 157 158
-0.05491553 0.08927542 0.92734861 159 155 156
-0.05316722 0.08903183 0.92481834 161 157 158
-0.05121937 0.08842863 0.91855264 163 159 160
-0.04949759 0.08818963 0.91607004 162 158 157
-0.04620600 0.08795193 0.91360086 150 139 141
-0.04450695 0.08771550 0.91114497 146 134 137
-0.04287448 0.08759776 0.90992194 144 133 136
-0.04119118 0.08736323 0.90748572 140 129 133
-0.03956969 0.08724643 0.90627253 144 134 137
-0.03760112 0.08632319 0.89668232 142 136 136
-0.03590878 0.08598199 0.89313811 142 137 137
-0.03431985 0.08586886 0.89196295 139 134 136
-0.03260655 0.08541928 0.88729298 137 135 136
-0.03079082 0.08464375 0.87923717 135 134 134
-0.03232079 0.09858056 1.02400577 137 137 137
-0.03055087 0.09858056 1.02400577 139 139 139
-0.02873755 0.09843187 1.02246130 139 139 140
-0.02343583 0.09843187 1.02246130 127 128 132
-0.01805242 0.09798849 1.01785564 153 152 152
-0.01631764 0.09813584 1.01938617 156 156 155
-0.01453386 0.09798849 1.01785564 158 157 156
-0.01275542 0.09784158 1.01632965 160 159 156
-0.01099878 0.09784158 1.01632965 160 154 153
-0.00920075 0.09740347 1.01177883 159 153 152
-0.00740775 0.09682541 1.00577426 157 153 150
-0.00568622 0.09711359 1.00876760 156 152 151
-0.00394265 0.09711359 1.00876760 156 151 150
-0.00218930 0.09668197 1.00428426 158 152 152
0.38466248 0.17039250 1.76995254 164 159 158
0.38371423 0.16863135 1.75165856 163 159 157
0.38875088 0.16950735 1.76075804 162 158 155
0.39487112 0.17083856 1.77458596 161 157 155
0.39483753 0.16950735 1.76075804 159 153 153
0.39995858 0.17039250 1.76995254 161 155 155
0.40301779 0.17039250 1.76995254 170 166 167
0.40084407 0.16819672 1.74714386 173 172 172
0.40282565 0.16776435 1.74265254 175 175 175
0.40675840 0.16690621 1.73373878 166 166 168
0.21044381 0.05310035 0.55158001 156 153 154
0.21122530 0.05305718 0.55113161 158 154 155
0.21347758 0.05314359 0.55202919 161 157 158
0.21443173 0.05314359 0.55202919 163 159 160
0.21538587 0.05314359 0.55202919 164 160 161
0.21651632 0.05318690 0.55247909 165 160 161
0.21729414 0.05314359 0.55202919 166 162 163
0.21807070 0.05310035 0.55158001 169 168 168
0.21902406 0.05310035 0.55158001 173 173 173
0.22033598 0.05318690 0.55247909 174 174 174
0.40389702 0.04621837 0.48009336 142 143 145
0.52304417 0.05318690 0.55247909 158 160 161
0.52614307 0.05340452 0.55473965 155 158 158
0.52624065 0.05331726 0.55383319 154 156 156
0.52676755 0.05327374 0.55338109 152 152 153
0.52772403 0.05327374 0.55338109 147 147 148
0.52824926 0.05323029 0.55292970 142 146 145
0.53006965 0.05331726 0.55383319 143 148 148
0.53146112 0.05336086 0.55428606 152 157 157
0.53285486 0.05340452 0.55473965 156 160 161
0.53337717 0.05336086 0.55428606 159 163 164
-0.25538123 0.17390579 1.77458596 160 156 157
-0.25498399 0.17574605 1.79336464 167 167 167
-0.25255245 0.17621224 1.79812157 167 167 167
-0.24878462 0.17574605 1.79336464 170 170 170
-0.22890352 0.17715202 1.80771160 173 164 165
-0.22759983 0.17858067 1.82228994 173 164 165
-0.22566339 0.17954597 1.83214009 177 170 170
-0.22249669 0.17954597 1.83214009 177 171 171
-0.22172704 0.18150823 1.85216355 167 166 166
-0.21912442 0.18200551 1.85723794 163 163 164
-0.21415417 0.18052177 1.84209740 159 159 161
-0.14565629 0.19089659 1.94796503 152 150 152
-0.05820085 0.09100275 0.92861897 161 154 156
-0.05644117 0.09075411 0.92608178 155 150 153
-0.05484051 0.09075411 0.92608178 158 154 156
-0.05302255 0.09038369 0.92230183 160 156 158
-0.05115006 0.08989447 0.91730964 159 157 157
-0.04943079 0.08965184 0.91483378 157 153 154
-0.04784957 0.08965184 0.91483378 156 151 153
-0.04620600 0.08953101 0.91360086 144 138 140
-0.04444721 0.08917049 0.90992194 148 139 142
-0.04281701 0.08905096 0.90870219 146 137 140
-0.04108119 0.08869427 0.90506256 146 138 141
-0.03946417 0.08857601 0.90385580 144 138 140
-0.03760112 0.08787303 0.89668232 144 139 140
-0.03590878 0.08752570 0.89313811 144 139 139
-0.03427475 0.08729568 0.89079088 142 137 137
-0.03256392 0.08683923 0.88613313 137 135 136
-0.03071115 0.08594050 0.87696230 132 131 131
-0.03232079 0.10035047 1.02400577 131 130 130
-0.03055087 0.10035047 1.02400577 131 131 133
-0.02873755 0.10019911 1.02246130 130 129 132
-0.01794464 0.09915225 1.01177883 148 149 150
-0.01622007 0.09930047 1.01329124 151 151 151
-0.01446868 0.09930047 1.01329124 155 155 155
-0.01271729 0.09930047 1.01329124 162 161 161
-0.01096590 0.09930047 1.01329124 158 157 155
-0.00915974 0.09871027 1.00726867 156 155 153
-0.00737492 0.09812704 1.00131738 156 155 153
-0.00565258 0.09827220 1.00279856 156 155 153
-0.00393095 0.09856381 1.00577426 156 153 150
-0.00218607 0.09827220 1.00279856 157 153 150
0.38366073 0.17300002 1.76534331 163 157 155
0.38272527 0.17121652 1.74714386 165 159 157
0.38674185 0.17165895 1.75165856 161 155 153
0.39487112 0.17390579 1.77458596 159 153 153
0.39381465 0.17210366 1.75619650 157 152 152
0.40100560 0.17390579 1.77458596 156 153 152
0.40301779 0.17345172 1.76995254 167 166 166
0.40187982 0.17165895 1.75165856 175 175 175
0.40386385 0.17121652 1.74714386 176 176 176
0.40273178 0.16946942 1.72931588 179 179 179
0.40780139 0.17033848 1.73818421 169 168 169
0.41292325 0.17121652 1.74714386 165 164 166
0.21347758 0.05409773 0.55202919 162 160 161
0.21425726 0.05405371 0.55158001 163 162 162
0.21556140 0.05414182 0.55247909 163 162 162
0.21651632 0.05414182 0.55247909 164 162 162
0.21729414 0.05409773 0.55202919 166 162 163
0.21807070 0.05405371 0.55158001 169 167 167
0.21902406 0.05405371 0.55158001 172 171 171
0.40221265 0.04694842 0.47907552 151 154 153
0.40332574 0.04698162 0.47941431 149 151 151
0.52336890 0.05427452 0.55383319 163 164 164
0.52347076 0.05418598 0.55292970 162 163 163
0.52571291 0.05431890 0.55428606 157 158 158
0.52581108 0.05423021 0.55338109 155 156 156
0.52676755 0.05423021 0.55338109 154 154 154
0.52729356 0.05418598 0.55292970 152 153 153
0.52781874 0.05414182 0.55247909 150 151 151
0.52963698 0.05423021 0.55338109 150 151 151
0.53059345 0.05423021 0.55338109 153 155 154
0.53241915 0.05431890 0.55428606 155 157 158
0.53294146 0.05427452 0.55383319 156 160 161
-0.25364196 0.17790446 1.78392589 166 163 164
-0.25121972 0.17837386 1.78863287 168 166 167
-0.24747524 0.17790446 1.78392589 170 169 169
-0.24439186 0.17790446 1.78392589 172 171 171
-0.22759983 0.18173036 1.82228994 174 171 170
-0.22566339 0.18271267 1.83214009 175 173 172
-0.22249669 0.18271267 1.83214009 177 176 175
-0.22112288 0.18420625 1.84711671 173 173 173
-0.21852572 0.18470953 1.85216355 168 168 169
-0.05812123 0.09248111 0.92734861 160 151 154
-0.05644117 0.09235477 0.92608178 151 143 146
-0.05476570 0.09222878 0.92481834 151 147 148
-0.05295051 0.09185284 0.92104870 152 151 151
-0.05108094 0.09135634 0.91607004 154 154 154
-0.04943079 0.09123305 0.91483378 155 155 155
-0.04778508 0.09111010 0.91360086 156 154 155
-0.04614381 0.09098747 0.91237128 148 144 145
-0.04444721 0.09074321 0.90992194 147 142 144
-0.04281701 0.09062157 0.90870219 145 140 142
-0.04108119 0.09025860 0.90506256 147 142 144
-0.03946417 0.09013826 0.90385580 147 143 144
-0.03760112 0.08942287 0.89668232 147 143 143
-0.03590878 0.08906943 0.89313811 147 143 143
-0.03427475 0.08883534 0.89079088 147 143 142
-0.03260655 0.08848651 0.88729298 140 139 139
-0.03071115 0.08745626 0.87696230 137 136 136
-0.03241873 0.10242984 1.02710891 125 125 129
-0.03059709 0.10227487 1.02555501 113 113 120
-0.02878096 0.10212038 1.02400577 107 106 116
-0.01797147 0.10105186 1.01329124 134 135 137
-0.01619587 0.10090103 1.01177883 139 140 141
-0.01444709 0.10090103 1.01177883 150 150 151
-0.01271729 0.10105186 1.01329124 158 157 155
-0.01096590 0.10105186 1.01329124 157 156 154
-0.00914615 0.10030221 1.00577426 156 155 153
-0.00735320 0.09956361 0.99836797 157 155 151
-0.00564423 0.09985774 1.00131738 159 153 151
-0.00392513 0.10015362 1.00428426 158 152 150
-0.00218284 0.09985774 1.00131738 158 152 150
-0.00045214 0.09985774 1.00131738 160 151 150
0.38360643 0.17743751 1.77924371 154 149 152
0.38466248 0.17651094 1.76995254 161 155 155
0.38272527 0.17423631 1.74714386 164 158 158
0.38674185 0.17468654 1.75165856 160 154 153
0.39487112 0.17697302 1.77458596 159 153 152
0.39381465 0.17513910 1.75619650 157 153 152
0.40100560 0.17697302 1.77458596 151 148 147
0.40301779 0.17651094 1.76995254 159 159 161
0.40292096 0.17513910 1.75619650 168 168 170
0.40386385 0.17423631 1.74714386 178 178 180
0.40273178 0.17245840 1.72931588 178 177 177
0.40780139 0.17334279 1.73818421 168 167 167
0.41292325 0.17423631 1.74714386 165 164 164
0.20847267 0.05473983 0.54890031 166 166 168
0.20959112 0.05478419 0.54934508 162 161 161
0.21054061 0.05478419 0.54934508 160 159 159
