ply
format ascii 1.0
element vertex 1068
property float x
property float y
property float z
property uchar red
property uchar green
property uchar blue
end_header
0.59984106 0.13768592 0.49881667 60 70 74
0.59718776 0.13688016 0.49589747 53 66 71
0.59804487 0.13688016 0.49589747 58 71 75
0.59890199 0.13688016 0.49589747 60 74 80
0.60104245 0.29651472 1.06754625 121 113 112
0.59631407 0.29328170 1.05590630 122 113 111
0.59253877 0.28790039 1.03653193 111 110 106
0.60208011 0.13926542 0.50139928 60 68 73
0.60116816 0.13885461 0.49992025 63 72 77
0.59850121 0.13804021 0.49698815 58 71 75
0.59936023 0.13804021 0.49698815 60 72 77
0.60021925 0.13804021 0.49698815 59 75 79
0.59728003 0.29649222 1.06086361 122 113 113
0.59170574 0.29282618 1.04774630 122 113 112
0.59077740 0.29147467 1.04291058 121 112 111
0.59076226 0.29058057 1.03971136 120 111 109
0.59074718 0.28969195 1.03653193 115 110 107
0.58983308 0.28836915 1.03179884 111 110 106
0.58982098 0.28749397 1.02866745 112 112 108
0.60252577 0.14023577 0.50177044 62 70 76
0.60161179 0.13982180 0.50028920 66 74 80
0.60026151 0.13930774 0.49844989 65 74 80
0.60068136 0.13920538 0.49808365 65 74 79
0.60154229 0.13920538 0.49808365 62 75 80
0.58986992 0.29282674 1.04130852 118 109 110
0.59076226 0.29237762 1.03971136 118 109 110
0.59074718 0.29148349 1.03653193 116 109 109
0.58983308 0.29015252 1.03179884 111 110 108
0.59071738 0.28971156 1.03023076 111 111 108
0.59070259 0.28883365 1.02710891 112 111 108
0.60255051 0.14131224 0.50251436 63 71 76
0.60252577 0.14110304 0.50177044 64 72 78
0.60205615 0.14079040 0.50065869 67 75 81
0.60158855 0.14047915 0.49955183 67 75 81
0.60245198 0.14047915 0.49955183 66 74 80
0.60331541 0.14047915 0.49955183 65 76 81
0.16095142 0.12744312 0.45042646 113 106 108
0.59077740 0.29507983 1.04291058 117 108 109
0.59076226 0.29417467 1.03971136 115 109 109
0.59165186 0.29372418 1.03811920 115 109 109
0.59073222 0.29238093 1.03337169 111 111 111
0.59251833 0.29238093 1.03337169 111 111 111
0.59159893 0.29104993 1.02866745 111 111 110
0.60344517 0.14239191 0.50326043 64 70 77
0.60297209 0.14207548 0.50214213 66 73 79
0.60250109 0.14176045 0.50102872 67 74 80
0.60292149 0.14165576 0.50065869 68 74 81
0.60334122 0.14155121 0.50028920 68 75 81
0.60420591 0.14155121 0.50028920 67 77 83
0.16095142 0.12822165 0.45042646 115 106 109
0.16172995 0.12822165 0.45042646 115 106 109
0.16272472 0.12839226 0.45102584 115 106 109
0.16328700 0.12822165 0.45042646 115 106 109
0.16428384 0.12839226 0.45102584 115 106 109
0.16484405 0.12822165 0.45042646 116 108 111
0.16640110 0.12822165 0.45042646 116 110 110
0.58988231 0.29733986 1.04451752 114 108 107
0.58986992 0.29642639 1.04130852 114 108 106
0.58985758 0.29551849 1.03811920 113 109 106
0.59074718 0.29506662 1.03653193 113 109 106
0.59073222 0.29416704 1.03337169 112 111 109
0.59251833 0.29416704 1.03337169 112 111 109
0.59159893 0.29282787 1.02866745 112 111 109
0.60434246 0.14347477 0.50400883 64 67 75
0.60297209 0.14294338 0.50214213 69 73 80
0.60294676 0.14273193 0.50139928 69 73 81
0.60336709 0.14262643 0.50102872 69 74 81
0.60423309 0.14262643 0.50102872 70 75 82
0.60509908 0.14262643 0.50102872 70 76 84
0.15981914 0.12934394 0.45162681 117 108 111
0.16059974 0.12934394 0.45162681 117 108 111
0.16116560 0.12917183 0.45102584 116 107 110
0.16194516 0.12917183 0.45102584 116 107 110
0.16283306 0.12925783 0.45132613 115 106 109
0.16350429 0.12917183 0.45102584 115 106 109
0.16439323 0.12925783 0.45132613 115 106 109
0.16506341 0.12917183 0.45102584 117 108 111
0.16606395 0.12934394 0.45162681 118 109 112
0.16651174 0.12908594 0.45072597 120 111 113
0.16717963 0.12900017 0.45042646 119 110 112
0.16784663 0.12891451 0.45012739 118 109 110
0.59170574 0.30006996 1.04774630 114 109 108
0.59077740 0.29868501 1.04291058 114 108 108
0.59076226 0.29776880 1.03971136 113 109 107
0.59074718 0.29685819 1.03653193 114 110 107
0.59073222 0.29595312 1.03337169 114 110 108
0.59342295 0.29640496 1.03494942 114 110 109
0.59249800 0.29505357 1.03023076 114 110 109
0.60434246 0.14434591 0.50400883 63 66 74
0.60341907 0.14391790 0.50251436 70 73 81
0.60294676 0.14359856 0.50139928 70 73 81
0.15992568 0.13021129 0.45192790 118 109 112
0.16070682 0.13021129 0.45192790 118 109 112
0.16127290 0.13003790 0.45132613 117 108 111
0.16216095 0.13012454 0.45162681 116 107 110
0.16305017 0.13021129 0.45192790 115 106 109
0.16361314 0.13003790 0.45132613 115 106 109
0.16439323 0.13003790 0.45132613 116 107 110
0.16506341 0.12995139 0.45102584 116 108 111
0.16617465 0.13021129 0.45192790 118 109 112
0.16662253 0.12995139 0.45102584 120 111 114
0.16717963 0.12977870 0.45042646 121 112 115
0.16784663 0.12969252 0.45012739 120 111 112
0.59262168 0.30234820 1.04936814 113 109 107
0.59077740 0.30048761 1.04291058 113 109 107
0.59076226 0.29956585 1.03971136 114 110 107
0.59165186 0.29910710 1.03811920 115 111 108
0.59163409 0.29819378 1.03494942 115 111 108
0.59433031 0.29864976 1.03653193 114 110 107
0.59339988 0.29728606 1.03179884 113 109 106
0.60479212 0.14532509 0.50438380 62 65 73
0.60341907 0.14478646 0.50251436 69 72 80
0.60339302 0.14457212 0.50177044 70 73 81
0.15914457 0.13099241 0.45192790 115 109 111
0.15992568 0.13099241 0.45192790 118 110 113
0.16070682 0.13099241 0.45192790 119 112 114
0.16127290 0.13081799 0.45132613 119 111 114
0.16216095 0.13090514 0.45162681 118 111 113
0.16361314 0.13081799 0.45132613 116 108 110
0.16439323 0.13081799 0.45132613 115 109 111
0.16506341 0.13073096 0.45102584 116 110 112
0.16606395 0.13090514 0.45162681 117 112 113
0.16651174 0.13064402 0.45072597 119 112 113
0.16706863 0.13047053 0.45012739 120 111 112
0.59728003 0.30749393 1.06086361 113 109 106
0.59262168 0.30416194 1.04936814 113 110 106
0.59077740 0.30229017 1.04291058 115 111 106
0.59076226 0.30136290 1.03971136 116 112 107
0.59165186 0.30090141 1.03811920 115 112 107
0.59253877 0.30044132 1.03653193 115 111 107
0.59524047 0.30090141 1.03811920 113 111 106
0.59430444 0.29952532 1.03337169 112 110 105
0.60524249 0.14630574 0.50475937 63 66 75
0.60386670 0.14576307 0.50288713 66 69 78
0.60339302 0.14543939 0.50177044 68 71 80
0.15914457 0.13177353 0.45192790 113 110 111
0.15992568 0.13177353 0.45192790 116 111 112
0.16059974 0.13168575 0.45162681 117 113 114
0.16127290 0.13159807 0.45132613 118 114 115
0.16205299 0.13159807 0.45132613 119 115 115
0.16294155 0.13168575 0.45162681 118 114 114
0.16361314 0.13159807 0.45132613 116 112 112
0.16428384 0.13151051 0.45102584 115 110 112
0.16495366 0.13142307 0.45072597 117 112 113
0.16595338 0.13159807 0.45132613 117 113 114
0.16651174 0.13142307 0.45072597 117 112 112
0.59541643 0.30836239 1.05755353 114 111 105
0.59079260 0.30503133 1.04612935 114 111 105
0.58986992 0.30362564 1.04130852 115 112 105
0.58895564 0.30223286 1.03653193 118 115 107
0.58984530 0.30177146 1.03494942 116 113 106
0.59073222 0.30131143 1.03337169 115 112 105
0.59342295 0.30177146 1.03494942 114 111 105
0.59249800 0.30039558 1.03023076 114 111 105
0.59609056 0.30131143 1.03337169 112 109 103
0.60524249 0.14717819 0.50475937 63 66 77
0.60386670 0.14663227 0.50288713 66 68 79
0.60339302 0.14630666 0.50177044 66 69 79
0.60426033 0.14630666 0.50177044 64 68 79
0.60512757 0.14630666 0.50177044 57 67 79
0.60599482 0.14630666 0.50177044 69 79 91
0.15914457 0.13255465 0.45192790 111 110 108
0.15992568 0.13255465 0.45192790 113 112 110
0.16059974 0.13246635 0.45162681 116 113 112
0.16127290 0.13237815 0.45132613 118 114 113
0.16205299 0.13237815 0.45132613 118 114 111
0.16294155 0.13246635 0.45162681 118 114 111
0.16361314 0.13237815 0.45132613 118 113 111
0.16439323 0.13237815 0.45132613 115 109 108
0.16506341 0.13229008 0.45102584 116 111 109
0.16606395 0.13246635 0.45162681 116 111 111
0.16651174 0.13220212 0.45072597 116 111 111
0.16706863 0.13202655 0.45012739 115 110 110
0.58988231 0.30636668 1.04451752 112 111 109
0.58896518 0.30495703 1.03971136 113 112 108
0.58716005 0.30309752 1.03337169 116 115 111
0.58715600 0.30217627 1.03023076 115 115 108
0.58893669 0.30217627 1.03023076 114 113 106
0.59251833 0.30309752 1.03337169 113 112 107
0.59249800 0.30217627 1.03023076 113 111 106
0.59609056 0.30309752 1.03337169 113 111 106
0.60569346 0.14816093 0.50513548 65 67 80
0.60386670 0.14750147 0.50288713 67 69 82
0.60383999 0.14728294 0.50214213 68 70 83
0.60426033 0.14717393 0.50177044 68 70 83
0.60512757 0.14717393 0.50177044 61 70 85
0.60599482 0.14717393 0.50177044 69 79 94
0.16070682 0.13333577 0.45192790 116 110 110
0.16138035 0.13324694 0.45162681 118 112 111
0.16216095 0.13324694 0.45162681 119 113 111
0.16305017 0.13333577 0.45192790 119 112 110
0.16372214 0.13324694 0.45162681 120 112 108
0.16450275 0.13324694 0.45162681 116 110 106
0.16528335 0.13324694 0.45162681 113 108 103
0.16617465 0.13333577 0.45192790 114 108 106
0.16673347 0.13315824 0.45132613 115 109 107
0.16740209 0.13306963 0.45102584 116 110 108
0.16806984 0.13298115 0.45072597 116 110 108
0.16896121 0.13306963 0.45102584 116 110 108
0.58897477 0.30769795 1.04291058 112 111 108
0.58806324 0.30628431 1.03811920 112 112 106
0.58448708 0.30349571 1.02866745 111 111 104
0.58449119 0.30257741 1.02555501 110 109 104
0.58626378 0.30257741 1.02555501 112 111 107
0.58982098 0.30349571 1.02866745 114 113 109
0.59070259 0.30303586 1.02710891 114 113 109
0.59518325 0.30441958 1.03179884 114 113 109
0.60614514 0.14914516 0.50551218 67 69 82
0.60431498 0.14848082 0.50326043 68 70 83
0.60428762 0.14826068 0.50251436 67 70 84
0.60470790 0.14815086 0.50214213 67 70 83
0.60557580 0.14815086 0.50214213 66 75 90
0.60644370 0.14815086 0.50214213 72 83 98
0.16216095 0.13402754 0.45162681 118 112 108
0.16305017 0.13411689 0.45192790 117 110 105
0.16372214 0.13402754 0.45162681 114 107 100
0.16450275 0.13402754 0.45162681 113 107 100
0.16528335 0.13402754 0.45162681 111 108 100
0.16617465 0.13411689 0.45192790 111 108 102
0.16684455 0.13402754 0.45162681 113 110 104
0.16740209 0.13384920 0.45102584 114 111 105
0.16806984 0.13376020 0.45072597 116 112 108
0.60753661 0.15058035 0.50740409 67 68 81
0.60659748 0.15013085 0.50588942 69 70 83
0.60566390 0.14968403 0.50438380 68 71 85
0.60518485 0.14935066 0.50326043 66 72 87
0.60560513 0.14923987 0.50288713 59 66 80
0.60647428 0.14923987 0.50288713 65 72 87
0.60734349 0.14923987 0.50288713 74 82 98
0.16294155 0.13480814 0.45162681 115 110 105
0.16361314 0.13471839 0.45132613 113 108 102
0.16439323 0.13471839 0.45132613 113 107 101
0.16517331 0.13471839 0.45132613 112 106 100
0.16617465 0.13489802 0.45192790 112 107 103
0.16673347 0.13471839 0.45132613 112 107 104
0.16740209 0.13462876 0.45102584 113 108 105
0.16795816 0.13444985 0.45042646 115 109 106
0.60799170 0.15157080 0.50778413 69 69 82
0.60705054 0.15111801 0.50626725 70 70 83
0.60656655 0.15078020 0.50513548 71 71 84
0.60653573 0.15055582 0.50438380 69 76 85
0.60650498 0.15033211 0.50363433 62 69 77
0.60737544 0.15033211 0.50363433 62 74 80
0.60824597 0.15033211 0.50363433 70 87 92
0.16372214 0.13558875 0.45162681 115 110 106
0.16439323 0.13549846 0.45132613 114 108 104
0.16517331 0.13549846 0.45132613 114 105 103
0.16617465 0.13567914 0.45192790 113 106 105
0.16684455 0.13558875 0.45162681 113 107 107
0.16740209 0.13540831 0.45102584 113 107 107
0.60844749 0.15256275 0.50816482 72 73 82
0.60705054 0.15199305 0.50626725 70 70 81
0.60656655 0.15165327 0.50513548 70 70 81
0.60698736 0.15154035 0.50475937 70 73 81
0.60650498 0.15120260 0.50363433 67 70 78
0.60737544 0.15120260 0.50363433 67 76 83
0.60869819 0.15131502 0.50400883 74 91 97
0.16450275 0.13636935 0.45162681 118 113 108
0.16517331 0.13627855 0.45132613 114 109 107
0.16617465 0.13646026 0.45192790 113 108 106
0.16673347 0.13627855 0.45132613 114 109 108
0.16740209 0.13618788 0.45102584 114 109 109
0.60890394 0.15355618 0.50854599 73 76 83
0.60705054 0.15286809 0.50626725 69 72 80
0.60701889 0.15264010 0.50551218 68 71 79
0.60743964 0.15252636 0.50513548 64 69 76
0.60695589 0.15218616 0.50400883 68 73 80
0.60827929 0.15229939 0.50438380 74 81 90
0.60915107 0.15229939 0.50438380 77 92 105
0.16528335 0.13714994 0.45162681 117 113 110
0.16628551 0.13733293 0.45222938 115 111 109
0.16684455 0.13714994 0.45162681 116 112 113
0.60981888 0.15466721 0.50931019 71 74 81
0.60795861 0.15397312 0.50702459 66 71 78
0.60792553 0.15374315 0.50626725 64 69 76
0.60834628 0.15362841 0.50588942 63 70 77
0.60831273 0.15339945 0.50513548 68 76 84
0.60918581 0.15339945 0.50513548 78 86 95
0.61005890 0.15339945 0.50513548 80 92 106
0.16550387 0.13811457 0.45222938 118 114 112
0.16639651 0.13820678 0.45253128 118 114 112
0.16695578 0.13802250 0.45192790 118 114 113
0.61027741 0.15566447 0.50969309 68 73 80
0.60841364 0.15496539 0.50740409 63 68 75
0.60883492 0.15484947 0.50702459 62 67 74
0.60925561 0.15473375 0.50664562 65 71 80
0.60922062 0.15450279 0.50588942 70 77 88
0.61009502 0.15450279 0.50588942 78 85 96
0.61142570 0.15461819 0.50626725 81 93 106
0.61165708 0.15689935 0.51084542 66 67 76
0.60886937 0.15595913 0.50778413 63 66 78
0.60974705 0.15595913 0.50778413 65 69 81
0.61013132 0.15560944 0.50664562 71 84 93
0.61146396 0.15572582 0.50702459 78 92 101
0.61234033 0.15572582 0.50702459 87 100 112
0.61211836 0.15790129 0.51123065 64 67 75
0.60978293 0.15707210 0.50854599 63 68 77
0.61020416 0.15695435 0.50816482 64 69 78
0.61062473 0.15683679 0.50778413 62 73 82
0.61279869 0.15671939 0.50740409 80 105 116
0.61211836 0.15878491 0.51123065 64 67 77
0.61024070 0.15806967 0.50892782 65 71 79
0.61112034 0.15806967 0.50892782 65 73 81
0.61108243 0.15783268 0.50816482 64 76 83
0.61150235 0.15771446 0.50778413 62 88 94
0.61238003 0.15771446 0.50778413 68 95 102
0.61325771 0.15771446 0.50778413 77 104 113
0.61258036 0.15978904 0.51161647 61 69 77
0.61115837 0.15918833 0.50969309 63 71 79
0.61203933 0.15918833 0.50969309 67 77 84
0.61199999 0.15894930 0.50892782 72 83 90
0.61196077 0.15871100 0.50816482 69 94 104
0.61283910 0.15871100 0.50816482 74 101 111
0.61371744 0.15871100 0.50816482 81 108 120
0.61304301 0.16079468 0.51200289 63 68 77
0.61254007 0.16043116 0.51084542 62 70 81
0.61342299 0.16043116 0.51084542 62 74 89
0.61292028 0.16006929 0.50969309 67 80 94
0.61287963 0.15982895 0.50892782 68 92 105
0.61375928 0.15982895 0.50892782 73 102 114
0.61463892 0.15982895 0.50892782 82 111 124
-0.15362656 0.19729386 0.62478513 120 118 118
-0.15038688 0.19729386 0.62478513 117 116 114
-0.14930700 0.19729386 0.62478513 119 115 114
0.61447859 0.16229253 0.51394379 63 67 78
0.61350638 0.16180184 0.51238990 63 68 79
0.61346465 0.16155761 0.51161647 64 71 83
0.61434889 0.16155761 0.51161647 64 77 93
0.61430597 0.16131411 0.51084542 70 83 99
0.61426312 0.16107136 0.51007664 72 94 108
0.61468220 0.16095026 0.50969309 76 104 117
0.61602634 0.16107136 0.51007664 85 113 126
-0.15492959 0.19728278 0.62134910 123 122 122
-0.15427987 0.19782676 0.62306237 123 122 122
-0.15320295 0.19782676 0.62306237 121 120 120
-0.15156880 0.19710211 0.62078005 120 119 119
-0.15077198 0.19746378 0.62191910 118 117 117
-0.15011019 0.19800876 0.62363553 117 116 116
-0.14903228 0.19800876 0.62363553 117 116 116
-0.14822711 0.19837375 0.62478513 118 116 117
-0.14728296 0.19855675 0.62536150 118 116 118
-0.14620207 0.19855675 0.62536150 121 117 118
-0.14458765 0.19782676 0.62306237 123 120 121
0.61447859 0.16318083 0.51394379 62 66 80
0.61397046 0.16281052 0.51277751 63 67 81
0.61439198 0.16268747 0.51238990 65 70 84
0.61481291 0.16256459 0.51200289 71 80 96
0.61523318 0.16244189 0.51161647 79 89 105
0.61518890 0.16219707 0.51084542 81 97 111
0.61560798 0.16207494 0.51046073 82 105 117
0.61742008 0.16231939 0.51123065 90 114 125
-0.15629005 0.19872102 0.62249023 125 124 124
-0.15492959 0.19835673 0.62134910 124 123 123
-0.15427987 0.19890368 0.62306237 124 123 123
-0.15306227 0.19872102 0.62249023 123 122 122
-0.15156880 0.19817509 0.62078005 120 119 119
-0.15077198 0.19853871 0.62191910 120 119 119
-0.14997222 0.19890368 0.62306237 120 119 119
-0.14889531 0.19890368 0.62306237 118 117 117
-0.14809062 0.19926998 0.62420982 119 118 119
-0.14714722 0.19945364 0.62478513 118 117 119
-0.14593282 0.19926998 0.62420982 122 122 124
-0.14432235 0.19853871 0.62191910 123 123 125
0.38858721 0.39275354 1.23029375 115 109 112
0.39285260 0.39490363 1.23702896 113 109 108
0.39499071 0.39490363 1.23702896 114 110 109
0.61541176 0.16431829 0.51472425 62 66 80
0.61443526 0.16382074 0.51316565 63 67 81
0.61485678 0.16369683 0.51277751 65 70 84
0.61574304 0.16369683 0.51277751 76 84 99
0.61616325 0.16357309 0.51238990 84 92 108
0.61611748 0.16332619 0.51161647 86 99 113
0.61653644 0.16320302 0.51123065 85 107 118
0.61835277 0.16344954 0.51200289 92 114 125
-0.15657762 0.20016456 0.62363553 126 125 124
-0.15521413 0.19979694 0.62249023 124 123 122
-0.15456399 0.20034887 0.62420982 124 123 121
-0.15334390 0.20016456 0.62363553 124 123 122
-0.15184692 0.19961365 0.62191910 123 122 122
-0.15118809 0.20016456 0.62363553 122 122 122
-0.15024841 0.20034887 0.62420982 121 120 122
-0.14916952 0.20034887 0.62420982 122 121 123
-0.14822711 0.20053352 0.62478513 123 122 124
-0.14741896 0.20090386 0.62593889 124 123 125
-0.14337896 0.19979694 0.62249023 122 123 125
-0.14230303 0.19979694 0.62249023 123 123 125
0.38646075 0.39488000 1.23029375 118 110 108
0.39000282 0.39631853 1.23477566 118 109 108
0.39429164 0.39849612 1.24156010 120 108 105
0.39643759 0.39849612 1.24156010 119 108 106
0.61827779 0.16621763 0.51787001 57 60 75
0.61634773 0.16545922 0.51550710 60 63 78
0.61536694 0.16495745 0.51394379 64 67 84
0.61578834 0.16483249 0.51355445 66 69 85
0.61667597 0.16483249 0.51355445 75 85 101
0.61709613 0.16470771 0.51316565 81 94 110
0.61704886 0.16445871 0.51238990 85 100 115
0.61793453 0.16445871 0.51238990 86 108 119
0.61975706 0.16470771 0.51316565 92 114 125
-0.15838405 0.20217241 0.62651742 130 129 127
-0.15686624 0.20161341 0.62478513 129 128 127
-0.15549971 0.20124246 0.62363553 126 125 125
-0.15484917 0.20179941 0.62536150 125 124 124
-0.15362656 0.20161341 0.62478513 125 124 124
-0.15052563 0.20179941 0.62536150 123 123 123
-0.14944473 0.20179941 0.62536150 123 124 126
-0.14850084 0.20198575 0.62593889 124 124 126
-0.14755520 0.20217241 0.62651742 124 124 126
-0.14620207 0.20179941 0.62536150 124 125 127
-0.14472067 0.20124246 0.62363553 126 127 129
-0.14377503 0.20142777 0.62420982 126 126 128
-0.14256486 0.20124246 0.62363553 125 125 127
-0.02438173 0.55100894 1.70753610 115 109 111
0.37079495 0.39845276 1.23477566 116 110 110
0.38643831 0.39917985 1.23702896 118 110 107
0.38646075 0.39700645 1.23029375 118 110 106
0.39000282 0.39845276 1.23477566 118 110 105
0.39429164 0.40064204 1.24156010 118 108 105
0.39643759 0.40064204 1.24156010 119 108 106
0.61875045 0.16724049 0.51826596 59 66 77
0.61728656 0.16660362 0.51629233 60 67 80
0.61630142 0.16609761 0.51472425 61 71 86
0.61672276 0.16597159 0.51433372 63 72 87
0.61714351 0.16584577 0.51394379 71 86 101
0.61756361 0.16572012 0.51355445 80 97 113
0.61845130 0.16572012 0.51355445 87 105 121
0.62069678 0.16584577 0.51394379 91 115 126
-0.15853056 0.20344333 0.62709701 130 129 127
-0.15499215 0.20306763 0.62593889 125 125 126
-0.15376829 0.20288029 0.62536150 125 125 127
-0.15254667 0.20269331 0.62478513 124 124 125
-0.15160652 0.20288029 0.62536150 123 123 125
-0.15066461 0.20306763 0.62593889 124 124 126
-0.14944473 0.20288029 0.62536150 125 126 128
-0.14850084 0.20306763 0.62593889 126 127 129
-0.14755520 0.20325531 0.62651742 125 125 127
-0.14620207 0.20288029 0.62536150 127 127 129
-0.14472067 0.20232037 0.62363553 129 129 131
-0.14377503 0.20250666 0.62420982 129 129 131
-0.14256486 0.20232037 0.62363553 129 128 130
-0.14109755 0.20176353 0.62191910 128 127 128
-0.02740209 0.55535918 1.71184814 115 109 113
-0.02438173 0.55396032 1.70753610 117 108 111
0.37411228 0.40651062 1.25303483 118 112 114
0.37215069 0.40205163 1.23929036 115 109 110
0.37225109 0.39985862 1.23253059 115 109 111
0.38783887 0.40501332 1.24841964 114 108 108
0.38927975 0.40426883 1.24612474 116 107 106
0.38857642 0.40131795 1.23702896 116 107 104
0.39286524 0.40352705 1.24383819 117 109 104
0.39647004 0.40501332 1.24841964 117 108 104
0.39862785 0.40501332 1.24841964 118 110 106
0.61969799 0.16839375 0.51905960 57 67 77
0.61870021 0.16787957 0.51747471 59 70 81
0.61723876 0.16724125 0.51550710 59 76 87
0.61766005 0.16711417 0.51511538 61 77 88
0.61761177 0.16686058 0.51433372 68 86 99
0.61803186 0.16673407 0.51394379 80 99 114
0.61892015 0.16673407 0.51394379 92 111 126
0.62027872 0.16686058 0.51433372 95 117 131
0.62163937 0.16698727 0.51472425 90 112 126
-0.15867735 0.20471659 0.62767762 130 129 129
-0.15578634 0.20377320 0.62478513 127 127 129
-0.15513539 0.20433819 0.62651742 126 126 128
-0.15376829 0.20396118 0.62536150 125 125 127
-0.15254667 0.20377320 0.62478513 124 124 128
-0.15160652 0.20396118 0.62536150 124 124 128
-0.15066461 0.20414951 0.62593889 124 124 127
-0.14944473 0.20396118 0.62536150 126 126 128
-0.14863808 0.20433819 0.62651742 127 127 129
-0.14755520 0.20433819 0.62651742 128 128 130
-0.14620207 0.20396118 0.62536150 128 128 130
-0.14472067 0.20339827 0.62363553 129 129 130
-0.14377503 0.20358557 0.62420982 129 129 129
-0.14256486 0.20339827 0.62363553 130 130 130
-0.14096822 0.20265254 0.62134910 130 129 129
-0.02740209 0.55831796 1.71184814 117 111 113
-0.02438173 0.55691165 1.70753610 117 111 113
-0.02105908 0.54726219 1.67795014 118 112 114
-0.01838643 0.55412012 1.69897699 118 112 114
-0.01533459 0.54998487 1.68629813 116 110 112
0.37550044 0.41019282 1.25768435 120 114 116
0.37489212 0.40717113 1.24841964 119 113 115
0.37497821 0.40493393 1.24156010 118 112 114
0.37574777 0.40345606 1.23702896 117 111 112
0.38782376 0.40943319 1.25535524 114 108 108
0.38999355 0.40943319 1.25535524 115 109 109
0.39143842 0.40867639 1.25303483 114 108 106
0.39287800 0.40792236 1.25072300 115 108 106
0.39576995 0.40867639 1.25303483 117 108 107
0.39867264 0.40943319 1.25535524 117 109 107
0.40084243 0.40943319 1.25535524 118 109 108
0.40301222 0.40943319 1.25535524 118 112 112
0.62070191 0.16981100 0.52065426 55 65 72
0.61969799 0.16929090 0.51905960 55 68 76
0.61917287 0.16890292 0.51787001 61 75 83
0.61817896 0.16838837 0.51629233 62 81 89
0.61812973 0.16813226 0.51550710 64 85 93
0.61855042 0.16800450 0.51511538 72 92 102
0.61897039 0.16787693 0.51472425 83 103 116
0.61986005 0.16787693 0.51472425 92 112 126
0.62122142 0.16800450 0.51511538 99 118 134
0.62305862 0.16826022 0.51589942 93 111 128
-0.15897174 0.20618330 0.62884218 130 129 129
-0.15744668 0.20561111 0.62709701 128 128 129
-0.15607403 0.20523140 0.62593889 128 129 131
-0.15527891 0.20561111 0.62709701 128 128 130
-0.15405251 0.20542108 0.62651742 126 126 128
-0.15282838 0.20523140 0.62593889 127 127 129
-0.15188675 0.20542108 0.62651742 126 127 129
-0.15080386 0.20542108 0.62651742 125 125 127
-0.14958273 0.20523140 0.62593889 126 126 128
-0.14877559 0.20561111 0.62709701 129 129 131
-0.14769170 0.20561111 0.62709701 129 129 131
-0.14633708 0.20523140 0.62593889 129 129 131
-0.14485393 0.20466445 0.62420982 130 130 131
-0.14404030 0.20504206 0.62536150 130 130 130
-0.14282766 0.20485309 0.62478513 131 131 131
-0.14109755 0.20391339 0.62191910 131 131 131
-0.13963829 0.20335370 0.62021214 130 130 130
-0.02990774 0.55289948 1.68629813 120 114 116
-0.02740209 0.56127679 1.71184814 119 113 115
-0.02444330 0.56127679 1.71184814 119 113 116
-0.02116385 0.55289948 1.68629813 120 114 116
-0.01838643 0.55705667 1.69897699 119 113 115
-0.01533459 0.55289948 1.68629813 119 113 115
0.37550044 0.41236660 1.25768435 120 114 115
0.37489212 0.40932891 1.24841964 119 113 114
0.37497821 0.40707985 1.24156010 119 114 114
0.37574777 0.40559417 1.23702896 118 115 113
0.37788588 0.40559417 1.23702896 118 115 113
0.38002399 0.40559417 1.23702896 116 115 112
0.38639268 0.41008413 1.25072300 115 114 111
0.38927266 0.41084215 1.25303483 113 112 108
0.39071622 0.41008413 1.25072300 115 112 108
0.39287800 0.41008413 1.25072300 115 110 108
0.39576995 0.41084215 1.25303483 117 111 109
0.39867264 0.41160297 1.25535524 119 112 110
0.40158612 0.41236660 1.25768435 121 112 111
0.40301222 0.41160297 1.25535524 120 114 114
0.40593371 0.41236660 1.25768435 118 112 112
0.62117904 0.17084213 0.52105445 57 67 72
0.62017286 0.17031847 0.51945734 56 70 75
0.61964625 0.16992784 0.51826596 64 78 83
0.61959463 0.16966839 0.51747471 65 85 91
0.61954314 0.16940975 0.51668584 70 91 98
0.61949188 0.16915190 0.51589942 78 99 108
0.62038356 0.16915190 0.51589942 86 108 123
0.62127525 0.16915190 0.51589942 90 112 127
0.62359065 0.16953897 0.51707995 96 115 133
0.62496108 0.16966839 0.51747471 92 109 129
-0.15897174 0.20727021 0.62884218 129 129 131
-0.15744668 0.20669499 0.62709701 129 129 131
-0.15607403 0.20631328 0.62593889 130 130 132
-0.15513539 0.20650396 0.62651742 128 129 131
-0.15405251 0.20650396 0.62651742 128 129 131
-0.15268740 0.20612295 0.62536150 128 129 131
-0.15202725 0.20669499 0.62709701 127 128 130
-0.15080386 0.20650396 0.62651742 127 128 130
-0.14958273 0.20631328 0.62593889 127 128 130
-0.14877559 0.20669499 0.62709701 128 129 131
-0.14769170 0.20669499 0.62709701 128 129 130
-0.14633708 0.20631328 0.62593889 130 130 131
-0.14512119 0.20612295 0.62536150 130 130 131
-0.14417331 0.20631328 0.62593889 132 132 132
-0.14309143 0.20631328 0.62593889 132 132 132
-0.14122711 0.20517656 0.62249023 134 134 134
-0.13963829 0.20442569 0.62021214 132 132 132
-0.03573700 0.55581415 1.68629813 122 116 118
-0.03315224 0.56140023 1.70324588 122 116 117
-0.03028441 0.56281430 1.70753610 121 115 116
-0.02754119 0.56709969 1.72053766 119 113 115
-0.02456738 0.56709969 1.72053766 120 114 116
-0.02137655 0.56140023 1.70324588 120 114 116
-0.01847906 0.56281430 1.70753610 120 114 116
-0.01537283 0.55720019 1.69050336 119 113 115
0.37411228 0.41300792 1.25303483 120 114 114
0.37283227 0.40922579 1.24156010 120 114 114
0.37292916 0.40698957 1.23477566 120 115 114
0.37506336 0.40698957 1.23477566 119 116 114
0.37651175 0.40624961 1.23253059 117 116 112
0.37933177 0.40698957 1.23477566 117 116 112
0.38426575 0.40997666 1.24383819 117 116 112
0.38855445 0.41224590 1.25072300 116 115 111
0.38999668 0.41148672 1.24841964 117 115 111
0.39215446 0.41148672 1.24841964 118 115 111
0.39503977 0.41224590 1.25072300 119 114 111
0.39867264 0.41377276 1.25535524 120 114 113
0.40084243 0.41377276 1.25535524 120 114 114
0.40226728 0.41300792 1.25303483 120 114 114
0.40443304 0.41300792 1.25303483 119 113 113
0.40659881 0.41300792 1.25303483 119 113 113
0.62165684 0.17187484 0.52145529 60 68 73
0.62064844 0.17134760 0.51985568 61 73 78
0.62012035 0.17095432 0.51866245 65 77 82
0.62054199 0.17082360 0.51826596 69 87 92
0.62096304 0.17069311 0.51787001 75 96 102
0.62138343 0.17056282 0.51747471 82 104 112
0.62227786 0.17056282 0.51747471 90 113 130
0.62364835 0.17069311 0.51787001 88 112 129
0.62549913 0.17095432 0.51866245 90 110 129
0.62639558 0.17095432 0.51866245 89 104 126
-0.15882441 0.20816401 0.62825936 130 130 132
-0.15730117 0.20758684 0.62651742 130 130 132
-0.15578634 0.20701288 0.62478513 129 130 132
-0.15484917 0.20720384 0.62536150 126 127 129
-0.15376829 0.20720384 0.62536150 128 129 131
-0.15240620 0.20682225 0.62420982 128 129 131
-0.15174650 0.20739517 0.62593889 128 129 131
-0.15052563 0.20720384 0.62536150 128 129 131
-0.14944473 0.20720384 0.62536150 128 129 129
-0.14863808 0.20758684 0.62651742 129 129 129
-0.14769170 0.20777887 0.62709701 130 130 130
-0.14498743 0.20701288 0.62478513 131 131 131
-0.14417331 0.20739517 0.62593889 134 134 134
-0.14295942 0.20720384 0.62536150 129 129 129
-0.14109755 0.20606327 0.62191910 135 135 135
-0.13951065 0.20530984 0.61964518 134 134 134
-0.03827082 0.55322403 1.66968429 125 119 118
-0.03627847 0.56719434 1.71184814 125 119 119
-0.03348881 0.57007349 1.72053766 125 119 121
-0.03043775 0.56863028 1.71618187 125 119 121
-0.02761127 0.57152408 1.72491562 122 116 118
-0.02462989 0.57152408 1.72491562 123 117 121
-0.01852572 0.56719434 1.71184814 124 117 121
0.37273434 0.41364449 1.24841964 120 115 116
0.37215069 0.41061968 1.23929036 119 115 116
0.37292916 0.40912381 1.23477566 119 115 116
0.37438142 0.40837994 1.23253059 120 117 116
0.37582844 0.40763879 1.23029375 118 117 114
0.37864208 0.40837994 1.23253059 118 117 115
0.38356197 0.41137174 1.24156010 118 117 115
0.38855445 0.41440767 1.25072300 117 116 113
0.38927975 0.41288412 1.24612474 117 116 113
0.39143360 0.41288412 1.24612474 117 116 113
0.39503977 0.41440767 1.25072300 118 116 113
0.39793575 0.41517368 1.25303483 119 115 113
0.40084243 0.41594252 1.25535524 120 115 115
0.40152508 0.41440767 1.25072300 120 114 114
0.40368685 0.41440767 1.25072300 119 113 113
0.62261474 0.17304234 0.52225876 63 69 74
0.62112480 0.17237833 0.52025467 65 76 81
0.62059516 0.17198236 0.51905960 70 81 86
0.62149233 0.17198236 0.51905960 72 89 94
0.62191325 0.17185077 0.51866245 76 99 104
0.62233359 0.17171939 0.51826596 84 107 113
0.62735558 0.17211415 0.51945734 88 101 124
-0.15686624 0.20809276 0.62478513 132 132 133
-0.15492959 0.20694834 0.62134910 131 131 132
-0.15399680 0.20713821 0.62191910 128 128 129
-0.15306227 0.20732842 0.62249023 129 129 130
-0.15156880 0.20675883 0.62078005 130 130 132
-0.15077198 0.20713821 0.62191910 129 129 130
-0.14997222 0.20751898 0.62306237 129 129 129
-0.14875858 0.20732842 0.62249023 130 130 130
-0.14809062 0.20790115 0.62420982 130 130 130
-0.14728296 0.20828474 0.62536150 131 131 131
-0.14377503 0.20790115 0.62420982 133 133 133
-0.14269614 0.20790115 0.62420982 132 132 132
-0.14058165 0.20638084 0.61964518 135 135 135
-0.03923726 0.57015312 1.71184814 123 117 117
-0.03365967 0.57597101 1.72931588 128 120 123
-0.03067069 0.57597101 1.72931588 129 120 123
-0.02768171 0.57597101 1.72931588 129 120 123
-0.02469273 0.57597101 1.72931588 128 119 122
-0.01857262 0.57159656 1.71618187 128 119 122
0.37342203 0.41656947 1.25072300 120 116 117
0.37351638 0.41427642 1.24383819 119 115 116
0.37497821 0.41351765 1.24156010 121 117 118
0.37506336 0.41125801 1.23477566 120 117 117
0.37651175 0.41051027 1.23253059 118 117 115
0.37864208 0.41051027 1.23253059 121 118 115
0.38356197 0.41351765 1.24156010 121 117 114
0.38783887 0.41580230 1.24841964 119 116 111
0.38785383 0.41351765 1.24156010 119 116 111
0.38928679 0.41276169 1.23929036 119 117 112
0.39431226 0.41580230 1.24841964 120 117 113
0.39720154 0.41656947 1.25072300 118 116 111
0.40010151 0.41733944 1.25303483 119 115 113
0.40078562 0.41580230 1.24841964 119 115 113
0.62309474 0.17407914 0.52266139 67 72 77
0.62112480 0.17327754 0.52025467 68 77 82
0.62107068 0.17301199 0.51945734 73 83 88
0.62149233 0.17287952 0.51905960 76 92 97
0.62238944 0.17287952 0.51905960 76 101 106
0.62783670 0.17314467 0.51985568 87 98 122
-0.15643370 0.20859589 0.62306237 134 134 134
-0.15464610 0.20764165 0.62021214 132 132 132
-0.15371475 0.20783180 0.62078005 131 131 131
-0.15264177 0.20783180 0.62078005 132 132 132
-0.15143013 0.20764165 0.62021214 131 131 131
-0.15035816 0.20764165 0.62021214 131 131 131
-0.14942287 0.20783180 0.62078005 131 131 131
-0.14834990 0.20783180 0.62078005 131 131 131
-0.14754717 0.20821315 0.62191910 131 131 131
-0.04251815 0.57748681 1.72491562 126 121 123
-0.03674239 0.58044076 1.73373878 128 122 123
-0.03374576 0.58044076 1.73373878 127 121 122
-0.03067069 0.57896000 1.72931588 128 121 122
-0.02775250 0.58044076 1.73373878 129 122 124
-0.02469273 0.57896000 1.72931588 129 122 124
-0.02159357 0.57602113 1.72053766 128 121 123
-0.01861976 0.57602113 1.72053766 127 121 123
0.37480506 0.42028210 1.25535524 121 117 116
0.37558380 0.41873124 1.25072300 120 116 115
0.37704992 0.41796008 1.24841964 119 115 114
0.37643471 0.41490370 1.23929036 119 115 114
0.37788588 0.41414657 1.23702896 120 115 112
0.37933177 0.41339222 1.23477566 121 118 113
0.38568109 0.41796008 1.24841964 121 118 112
0.38927266 0.41950524 1.25303483 121 118 112
0.38856548 0.41642630 1.24383819 121 118 112
0.38999978 0.41566360 1.24156010 121 118 112
0.39503977 0.41873124 1.25072300 121 118 112
0.39720154 0.41873124 1.25072300 119 116 110
0.40010151 0.41950524 1.25303483 120 114 112
0.62309474 0.17498252 0.52266139 69 75 80
0.62160182 0.17431055 0.52065426 68 79 83
0.62154698 0.17404319 0.51985568 73 85 90
0.62838382 0.17444453 0.52105445 101 122 136
0.62880111 0.17431055 0.52065426 86 95 117
-0.04692857 0.56188178 1.66968429 123 122 122
-0.04415140 0.56326914 1.67380702 125 121 122
-0.04241024 0.57899493 1.72053766 126 121 123
-0.03674239 0.58343738 1.73373878 129 123 125
-0.03374576 0.58343738 1.73373878 128 122 123
-0.03067069 0.58194900 1.72931588 129 123 123
-0.02775250 0.58343738 1.73373878 130 124 124
-0.02469273 0.58194900 1.72931588 130 124 124
-0.02159357 0.57899493 1.72053766 130 124 124
-0.01861976 0.57899493 1.72053766 128 122 122
0.37550044 0.42323563 1.25768435 122 117 114
0.37627804 0.42167100 1.25303483 120 116 113
0.37774557 0.42089301 1.25072300 119 115 112
0.37712416 0.41780955 1.24156010 119 115 112
0.37927008 0.41780955 1.24156010 120 115 109
0.38071874 0.41704571 1.23929036 120 115 109
0.38854328 0.42323563 1.25768435 120 115 109
0.39071709 0.42323563 1.25768435 120 115 109
0.39143842 0.42167100 1.25303483 122 116 110
0.39287800 0.42089301 1.25072300 122 116 110
0.39650288 0.42245185 1.25535524 121 116 110
0.39867264 0.42245185 1.25535524 120 115 110
0.62357557 0.17602161 0.52306467 69 78 81
0.62207961 0.17534512 0.52105445 68 81 85
0.62202400 0.17507598 0.52025467 72 88 92
0.62292320 0.17507598 0.52025467 80 97 102
0.62382245 0.17507598 0.52025467 80 105 115
0.62520146 0.17521045 0.52065426 87 112 122
0.62706459 0.17548001 0.52145529 92 117 129
0.62893349 0.17575039 0.52225876 96 121 136
0.63032180 0.17588590 0.52266139 98 123 138
0.63025331 0.17561510 0.52185667 85 94 112
-0.04681326 0.56338006 1.66558194 124 121 122
-0.04404265 0.56476772 1.66968429 126 122 123
-0.04219605 0.57902950 1.71184814 127 122 123
-0.03933659 0.58049542 1.71618187 128 124 125
-0.03664865 0.58493799 1.72931588 128 124 124
-0.03374576 0.58643401 1.73373878 129 125 124
-0.03067069 0.58493799 1.72931588 131 127 126
-0.02775250 0.58643401 1.73373878 132 126 126
-0.02469273 0.58493799 1.72931588 131 125 125
-0.02159357 0.58196872 1.72053766 130 124 124
-0.01857262 0.58049542 1.71618187 129 123 123
0.37550044 0.42540944 1.25768435 123 116 112
0.37697485 0.42462164 1.25535524 121 114 111
0.37774557 0.42305478 1.25072300 120 115 111
0.37643471 0.41918772 1.23929036 120 115 111
0.37857673 0.41918772 1.23929036 119 115 110
0.38071874 0.41918772 1.23929036 120 115 110
0.38854328 0.42540944 1.25768435 120 115 110
0.39144331 0.42620015 1.26002204 120 114 111
0.39216331 0.42462164 1.25535524 120 114 112
0.39506468 0.42540944 1.25768435 119 113 111
0.39797688 0.42620015 1.26002204 120 114 112
0.40015471 0.42620015 1.26002204 118 112 112
0.62502235 0.17733619 0.52427828 71 81 84
0.62399817 0.17678927 0.52266139 72 86 89
0.62298024 0.17624572 0.52105445 74 92 95
0.62436074 0.17638130 0.52145529 81 99 102
0.62622547 0.17665307 0.52225876 84 109 122
0.63325125 0.17761092 0.52509052 95 120 136
0.63366801 0.17747344 0.52468407 80 90 110
-0.04704444 0.56905526 1.67380702 126 122 123
-0.04426068 0.57046378 1.67795014 126 122 123
-0.04208976 0.58052236 1.70753610 126 122 123
-0.03913842 0.58052236 1.70753610 128 124 125
-0.03655540 0.58643097 1.72491562 128 124 123
-0.03365967 0.58792698 1.72931588 131 127 126
-0.03059265 0.58643097 1.72491562 131 128 127
-0.02768171 0.58792698 1.72931588 131 128 127
-0.02462989 0.58643097 1.72491562 128 125 124
-0.02153890 0.58346170 1.71618187 129 126 126
-0.01857262 0.58346170 1.71618187 128 125 124
0.37550044 0.42758325 1.25768435 122 117 112
0.37697485 0.42679143 1.25535524 120 115 110
0.37704992 0.42443347 1.24841964 119 114 109
0.37643471 0.42132974 1.23929036 119 116 110
0.37857673 0.42132974 1.23929036 119 116 110
0.38002399 0.42056090 1.23702896 119 116 110
0.38782376 0.42679143 1.25535524 119 115 111
0.39144331 0.42837802 1.26002204 119 115 111
0.39216331 0.42679143 1.25535524 118 114 111
0.62447959 0.17782976 0.52306467 77 92 94
-0.04448089 0.57621652 1.68629813 124 123 123
-0.04208976 0.58347368 1.70753610 124 123 123
-0.03913842 0.58347368 1.70753610 125 124 124
-0.03365967 0.59091592 1.72931588 128 126 125
-0.03067069 0.59091592 1.72931588 129 127 125
-0.02775250 0.59242725 1.73373878 129 128 127
-0.02462989 0.58941233 1.72491562 127 126 126
-0.02159357 0.58791637 1.72053766 127 127 127
-0.01861976 0.58791637 1.72053766 126 125 125
0.37619841 0.43055585 1.26002204 125 116 115
0.37767425 0.42975706 1.25768435 119 115 110
0.37774557 0.42737833 1.25072300 118 115 109
0.37643471 0.42347175 1.23929036 120 116 113
0.37927008 0.42424735 1.24156010 121 117 114
0.38071874 0.42347175 1.23929036 121 117 114
-0.04470329 0.58202684 1.69472957 125 124 124
-0.04219605 0.58790588 1.71184814 125 124 124
-0.03913842 0.58642501 1.70753610 126 124 124
-0.03374576 0.59542388 1.73373878 128 125 125
-0.03067069 0.59390491 1.72931588 128 124 125
-0.02775250 0.59542388 1.73373878 127 126 126
-0.02462989 0.59239370 1.72491562 127 126 126
-0.02153890 0.58939427 1.71618187 125 124 124
-0.01857262 0.58939427 1.71618187 124 123 121
0.37682220 0.43597516 1.26946032 124 120 118
0.37689894 0.43353954 1.26236844 124 120 118
0.37908086 0.43353954 1.26236844 123 121 119
0.37984806 0.43193087 1.25768435 118 117 115
0.37920770 0.42874905 1.24841964 118 117 115
0.38206911 0.42954010 1.25072300 120 119 117
0.38565397 0.43113098 1.25535524 120 119 117
0.39071795 0.43434837 1.26472354 120 119 117
0.39363834 0.43516025 1.26708758 124 123 121
0.39582840 0.43516025 1.26708758 126 122 121
0.39951196 0.43679312 1.27184212 122 120 118
-0.04437051 0.58060151 1.68211377 127 123 124
-0.04198401 0.58789551 1.70324588 126 122 123
-0.03904008 0.58789551 1.70324588 127 123 124
-0.03357402 0.59537512 1.72491562 128 124 125
-0.03059265 0.59537512 1.72491562 128 124 125
-0.02761127 0.59537512 1.72491562 129 125 126
-0.02456738 0.59386402 1.72053766 127 124 125
-0.02148451 0.59086466 1.71184814 126 122 123
-0.01852572 0.59086466 1.71184814 125 122 123
0.37752920 0.43899140 1.27184212 124 120 120
0.37689894 0.43572143 1.26236844 125 120 121
0.38049799 0.43735030 1.26708758 124 121 121
0.38055408 0.43491155 1.26002204 122 121 120
0.38131443 0.43330076 1.25535524 120 120 118
0.38490978 0.43491155 1.26002204 120 120 118
0.38853198 0.43653435 1.26472354 122 121 119
0.39144829 0.43735030 1.26708758 123 122 120
0.39437547 0.43816930 1.26946032 123 122 120
0.39656964 0.43816930 1.26946032 123 122 120
0.40026292 0.43981656 1.27423275 122 121 119
0.40246531 0.43981656 1.27423275 121 120 118
0.40466774 0.43981656 1.27423275 117 116 114
-0.19366331 0.18663023 0.53800941 133 139 140
-0.19181998 0.18574573 0.53545958 134 139 142
-0.04404265 0.57919729 1.66968429 126 122 123
-0.04177409 0.58788526 1.69472957 127 123 124
-0.03884488 0.58788526 1.69472957 128 124 125
-0.03357402 0.59835649 1.72491562 124 121 121
-0.03051500 0.59683782 1.72053766 124 123 122
-0.02761127 0.59835649 1.72491562 126 125 124
-0.02450518 0.59532684 1.71618187 126 125 123
-0.02143040 0.59232771 1.70753610 124 123 122
-0.01847906 0.59232771 1.70753610 123 122 121
0.38126275 0.43790334 1.26236844 121 121 121
0.38202187 0.43627846 1.25768435 121 122 122
0.39437547 0.44036347 1.26946032 123 121 120
0.39731368 0.44118968 1.27184212 123 121 120
0.40026292 0.44201899 1.27423275 123 121 120
-0.19366331 0.18756014 0.53800941 138 144 145
-0.19181998 0.18667123 0.53545958 137 145 145
-0.04361296 0.57640433 1.65339470 130 126 127
-0.03051500 0.59981161 1.72053766 127 126 120
-0.02761127 0.60133785 1.72491562 126 125 121
-0.02450518 0.59829313 1.71618187 126 125 121
-0.02143040 0.59527904 1.70753610 125 124 121
-0.01852572 0.59678227 1.71184814 124 123 121
-0.19490258 0.18878971 0.53886473 143 148 149
-0.19381714 0.18863976 0.53843671 144 150 150
-0.02761127 0.60431921 1.72491562 128 125 124
-0.02450518 0.60125941 1.71618187 128 125 125
-0.02143040 0.59823036 1.70753610 128 124 125
-0.19474778 0.18957040 0.53843671 149 155 156
-0.19366331 0.18941996 0.53800941 147 154 155
-0.02444330 0.60269982 1.71184814 129 125 126
-0.02137655 0.59967119 1.70324588 131 127 128
-0.19536807 0.19019890 0.53758276 149 157 158
-0.19459322 0.19034986 0.53800941 149 157 158
-0.19350973 0.19019890 0.53758276 149 158 159
-0.19197161 0.18959749 0.53588289 149 158 159
-0.19029324 0.18885104 0.53377312 149 156 158
-0.02438173 0.60413307 1.70753610 132 128 129
-0.19660906 0.19143169 0.53843671 151 160 161
-0.19521326 0.19097662 0.53715676 150 159 160
-0.19459322 0.19127977 0.53800941 149 158 159
-0.19335639 0.19097662 0.53715676 150 159 160
-0.19181998 0.19037323 0.53545958 150 159 160
-0.19014351 0.18962431 0.53335315 152 158 160
-0.02438173 0.60708439 1.70753610 132 128 129
-0.19831283 0.19220966 0.53800941 152 161 162
-0.19645303 0.19220966 0.53800941 152 161 162
-0.19505870 0.19175312 0.53673148 152 159 161
-0.19443890 0.19205724 0.53758276 153 159 161
-0.19335639 0.19190505 0.53715676 152 160 161
-0.19166858 0.19114773 0.53503698 153 160 162
-0.18999404 0.19039637 0.53293383 154 160 162
-0.19815558 0.19298641 0.53758276 152 161 162
-0.19738294 0.19313957 0.53800941 152 161 162
-0.19629724 0.19298641 0.53758276 152 161 162
-0.19475031 0.19237618 0.53588289 150 157 159
-0.19428483 0.19283348 0.53715676 153 159 161
-0.19320330 0.19268081 0.53673148 154 160 162
-0.19166858 0.19207251 0.53503698 153 159 161
-0.19014351 0.19146803 0.53335315 151 160 161
-0.18907291 0.19131750 0.53293383 150 159 160
-0.19784179 0.19360851 0.53673148 152 161 162
-0.19707012 0.19376191 0.53715676 152 161 162
-0.19598639 0.19360851 0.53673148 152 161 162
-0.19444288 0.19299728 0.53503698 152 160 162
-0.19382407 0.19330241 0.53588289 152 160 161
-0.19289784 0.19330241 0.53588289 152 160 161
-0.19166858 0.19299728 0.53503698 151 160 161
-0.19029324 0.19254138 0.53377312 151 160 161
-0.18922167 0.19238989 0.53335315 151 160 161
-0.19752900 0.19422863 0.53588289 152 161 162
-0.19675830 0.19438230 0.53630686 151 160 161
-0.19567654 0.19422863 0.53588289 151 160 161
-0.19413644 0.19361641 0.53419375 150 159 160
-0.19351812 0.19392204 0.53503698 149 158 159
-0.19259335 0.19392204 0.53503698 149 158 159
-0.19166858 0.19392204 0.53503698 149 158 159
-0.19029324 0.19346395 0.53377312 151 160 161
-0.18937065 0.19346395 0.53377312 151 160 161
-0.18874530 0.19376911 0.53461504 151 160 161
-0.19752900 0.19515486 0.53588289 151 159 161
-0.19675830 0.19530927 0.53630686 151 160 162
-0.19567654 0.19515486 0.53588289 150 159 161
-0.19413644 0.19453973 0.53419375 149 157 161
-0.19351812 0.19484681 0.53503698 149 157 161
-0.19259335 0.19484681 0.53503698 149 158 159
-0.19166858 0.19484681 0.53503698 149 158 159
-0.19044319 0.19453973 0.53419375 149 158 159
-0.18937065 0.19438654 0.53377312 151 159 160
-0.20158252 0.19732903 0.53929341 152 160 164
-0.20017265 0.19685920 0.53800941 149 157 161
-0.19908474 0.19670308 0.53758276 149 157 161
-0.19784179 0.19639160 0.53673148 150 157 161
-0.19691409 0.19639160 0.53673148 151 157 162
-0.19598639 0.19639160 0.53673148 151 156 161
-0.19444288 0.19577157 0.53503698 151 156 161
-0.19382407 0.19608110 0.53588289 151 156 161
-0.19289784 0.19608110 0.53588289 149 157 159
-0.19197161 0.19608110 0.53588289 150 157 160
-0.19059339 0.19561718 0.53461504 150 157 160
-0.18966934 0.19561718 0.53461504 151 156 161
-0.20017265 0.19778910 0.53800941 150 155 160
-0.19908474 0.19763225 0.53758276 151 156 161
-0.19784179 0.19731930 0.53673148 151 156 161
-0.19691409 0.19731930 0.53673148 151 156 161
-0.19583134 0.19716319 0.53630686 151 156 161
-0.19459647 0.19685172 0.53545958 151 156 161
-0.19382407 0.19700733 0.53588289 150 156 160
-0.19305046 0.19716319 0.53630686 149 155 160
-0.19212349 0.19716319 0.53630686 149 156 160
-0.19089448 0.19685172 0.53545958 149 157 159
-0.19768527 0.19809015 0.53630686 150 157 161
-0.19675830 0.19809015 0.53630686 149 157 161
-0.19567654 0.19793355 0.53588289 149 157 161
-0.19428954 0.19746526 0.53461504 147 155 159
-0.19351812 0.19762111 0.53503698 148 156 160
-0.19274548 0.19777721 0.53545958 147 155 159
-0.19166858 0.19762111 0.53503698 147 155 159
-0.19567654 0.19885978 0.53588289 147 155 159
-0.19413644 0.19823296 0.53419375 146 154 158
-0.19336550 0.19838929 0.53461504 147 155 159
-0.19244146 0.19838929 0.53461504 147 156 157
-0.19151743 0.19838929 0.53461504 147 156 157
-0.19567654 0.19978602 0.53588289 147 155 159
-0.19413644 0.19915627 0.53419375 147 155 159
-0.19351812 0.19947065 0.53503698 147 155 159
-0.19259335 0.19947065 0.53503698 147 156 157
-0.19166858 0.19947065 0.53503698 145 151 153
0.47672173 0.52001917 1.39483917 123 123 116
0.48023978 0.52896041 1.41227472 123 121 116
0.47672173 0.52243000 1.39483917 123 121 117
0.47725692 0.52810079 1.40350282 124 120 117
0.47476798 0.52268988 1.38912261 124 120 117
0.49181196 0.52810079 1.40350282 127 123 117
0.47528884 0.52833885 1.39771509 125 122 116
0.47476798 0.52509087 1.38912261 124 120 116
0.49181196 0.53052664 1.40350282 125 122 117
0.49321663 0.52943051 1.40060294 125 122 116
0.50151533 0.53052664 1.40350282 117 116 112
0.47528884 0.53075469 1.39771509 121 120 114
0.47476798 0.52749187 1.38912261 123 122 115
0.48837498 0.53185129 1.40060294 123 120 115
0.49181196 0.53295243 1.40350282 123 119 115
0.49219969 0.53075469 1.39771509 122 119 114
0.49769405 0.53405815 1.40641463 120 118 113
0.50536734 0.53965628 1.42115688 117 117 111
0.50255579 0.53405815 1.40641463 117 116 112
0.47627085 0.53427213 1.40060294 120 120 113
0.47574285 0.53098094 1.39197505 118 117 111
0.48453444 0.53537828 1.40350282 124 121 115
0.48495218 0.53317058 1.39771509 123 120 114
0.48938611 0.53537828 1.40350282 119 116 112
0.49181196 0.53537828 1.40350282 119 116 112
0.49321663 0.53427213 1.40060294 118 116 112
0.49666363 0.53537828 1.40350282 118 116 113
0.50536734 0.54211259 1.42115688 117 116 113
0.50255579 0.53648907 1.40641463 118 116 113
0.49775782 0.52880925 1.38628185 121 118 116
0.47672173 0.53448439 1.39483917 117 116 114
0.47913262 0.53448439 1.39483917 117 116 113
0.48553970 0.53891993 1.40641463 119 118 115
0.48696026 0.53780413 1.40350282 118 117 115
0.49142098 0.54004031 1.40933859 116 115 115
0.49385691 0.54004031 1.40933859 115 114 114
0.49321663 0.53669298 1.40060294 115 114 114
0.49769405 0.53891993 1.40641463 117 116 115
0.50536734 0.54456896 1.42115688 117 116 114
0.50464982 0.54116541 1.41227472 117 116 114
0.49980202 0.53338683 1.39197505 120 118 116
0.48012051 0.53800225 1.39771509 115 114 114
0.48553970 0.54135078 1.40641463 114 113 113
0.48696026 0.54022998 1.40350282 112 112 112
0.49244478 0.54360640 1.41227472 113 113 113
0.49488577 0.54360640 1.41227472 114 114 114
0.49423781 0.54022998 1.40350282 114 114 114
0.49769405 0.54135078 1.40641463 115 115 115
0.50536734 0.54702532 1.42115688 116 115 115
0.50464982 0.54360640 1.41227472 117 116 114
0.50083041 0.53689522 1.39483917 118 117 115
0.48012051 0.54041809 1.39771509 114 113 113
0.48453444 0.54265583 1.40350282 114 113 113
0.48595417 0.54153460 1.40060294 114 112 113
0.49142098 0.54491216 1.40933859 114 112 113
0.49385691 0.54491216 1.40933859 114 113 115
0.49423781 0.54265583 1.40350282 114 114 116
0.49666363 0.54265583 1.40350282 115 115 117
0.50325722 0.54718739 1.41522300 115 115 117
0.50360060 0.54491216 1.40933859 116 116 117
0.49980202 0.53819871 1.39197505 116 116 116
0.48012051 0.54283392 1.39771509 118 115 115
0.48453444 0.54508168 1.40350282 117 114 115
0.48595417 0.54395545 1.40060294 117 113 114
0.49142098 0.54734814 1.40933859 116 112 113
0.49591896 0.54963350 1.41522300 117 113 115
0.49526319 0.54621255 1.40641463 117 113 116
0.49769405 0.54621255 1.40641463 118 114 117
0.50431007 0.55078334 1.41818380 117 116 118
0.50464982 0.54848844 1.41227472 118 116 118
0.47770467 0.54524976 1.39771509 122 120 121
0.48012051 0.54524976 1.39771509 122 120 120
0.48353332 0.54637629 1.40060294 119 117 118
0.48595417 0.54637629 1.40060294 119 115 116
0.49244478 0.55092943 1.41227472 117 113 114
0.49799827 0.55439436 1.42115688 118 113 114
0.49732679 0.55092943 1.41227472 119 115 116
0.50081116 0.55207962 1.41522300 120 116 117
