ply
format ascii 1.0
element vertex 1082
property float x
property float y
property float z
property uchar red
property uchar green
property uchar blue
end_header
-0.07048369 0.42995726 0.88149989 0 0 0
-0.07048369 0.45052588 0.88149989 0 0 0
-0.07048369 0.47033270 0.88149989 0 0 0
-0.07048369 0.49013951 0.88149989 0 0 0
-0.07048369 0.50080472 0.88149989 0 0 0
-0.04991507 -0.58780832 0.88149983 0 0 0
-0.04991507 -0.57028690 0.88149983 0 0 0
-0.04991507 -0.55048009 0.88149983 0 0 0
-0.04991507 -0.52991147 0.88149983 0 0 0
-0.04991507 -0.50934286 0.88149983 0 0 0
-0.04991507 -0.48953604 0.88149983 0 0 0
-0.04991507 -0.47125280 0.88149977 12 18 19
-0.04987934 -0.30151581 0.57993639 92 125 135
-0.04987934 -0.28998852 0.57993639 91 124 137
-0.04987934 -0.27044224 0.57993639 92 122 137
-0.04987934 -0.25039478 0.57993639 90 121 137
-0.04987934 -0.23034732 0.57993639 89 118 136
-0.04991507 -0.22823842 0.88149971 169 129 140
-0.04987934 -0.21029985 0.57993639 86 116 136
-0.04991507 -0.20995524 0.88149982 130 107 112
-0.04987934 -0.19025239 0.57993639 86 114 136
-0.04991507 -0.18938661 0.88149977 117 106 107
-0.04987934 -0.17020493 0.57993639 87 113 137
-0.04991507 -0.16957980 0.88149977 118 109 109
-0.04987934 -0.15717408 0.57993639 102 116 140
-0.04991507 -0.14977298 0.88149977 121 112 113
-0.04991507 -0.12996617 0.88149977 126 116 119
-0.04991507 -0.11015936 0.88149977 128 120 123
-0.04991507 -0.09035254 0.88149977 132 126 129
-0.04991507 -0.07054573 0.88149977 139 133 135
-0.04991507 -0.04997712 0.88149977 145 140 141
-0.04991507 -0.02940850 0.88149977 148 146 147
-0.04991507 -0.00960169 0.88149977 150 149 150
-0.04991507 0.01020513 0.88149977 149 147 149
-0.04991507 0.03001194 0.88149977 150 147 148
-0.04991507 0.04981875 0.88149977 148 147 147
-0.04991507 0.06962556 0.88149977 145 144 145
-0.04991507 0.08943238 0.88149980 167 168 170
-0.04991507 0.11000100 0.88149983 195 160 169
-0.04991507 0.13056961 0.88149983 158 135 145
-0.04991507 0.15037643 0.88149983 188 189 191
-0.04991507 0.17018324 0.88149983 188 190 192
-0.04991507 0.18999006 0.88149983 187 191 192
-0.04991508 0.20979688 0.88149986 188 194 195
-0.04991508 0.22960370 0.88149989 189 196 196
-0.04991508 0.24941052 0.88149989 188 196 195
-0.04991508 0.26997914 0.88149989 190 199 198
-0.04991508 0.29054775 0.88149989 181 189 189
-0.04991508 0.31035457 0.88149989 167 173 173
-0.04991508 0.33016138 0.88149989 160 168 168
-0.04991508 0.34996820 0.88149989 155 163 164
-0.04991508 0.36977502 0.88149989 95 100 103
-0.04991508 0.38958183 0.88149989 0 0 0
-0.04991508 0.40938865 0.88149989 0 0 0
-0.04991508 0.42995726 0.88149989 0 0 0
-0.04991508 0.45052588 0.88149989 0 0 0
-0.04991508 0.47033270 0.88149989 0 0 0
-0.04991508 0.49013951 0.88149989 0 0 0
-0.04991508 0.50080472 0.88149989 0 0 0
-0.02934646 -0.58780832 0.88149983 0 0 0
-0.02934646 -0.57028690 0.88149983 0 0 0
-0.02934646 -0.55048009 0.88149983 0 0 0
-0.02934646 -0.52991147 0.88149983 0 0 0
-0.02934646 -0.50934286 0.88149983 0 0 0
-0.02934646 -0.48953604 0.88149983 0 0 0
-0.02934644 -0.47125250 0.88149919 17 25 27
-0.02983187 -0.30201699 0.57993639 89 124 134
-0.02983187 -0.28998852 0.57993639 90 123 136
-0.02983187 -0.27044224 0.57993639 91 122 136
-0.02983187 -0.25039478 0.57993639 89 121 136
-0.02983187 -0.23034732 0.57993639 89 117 136
-0.02934646 -0.22823845 0.88149982 170 128 139
-0.02983187 -0.21029985 0.57993639 87 115 135
-0.02934646 -0.20995524 0.88149983 129 108 112
-0.02983187 -0.19025239 0.57993639 86 114 136
-0.02934646 -0.18938661 0.88149977 111 96 101
-0.02983187 -0.17020493 0.57993639 87 113 137
-0.02934646 -0.16957980 0.88149977 115 106 108
-0.02983187 -0.15767527 0.57993639 102 115 140
-0.02934646 -0.14977298 0.88149977 120 112 113
-0.02934646 -0.12996617 0.88149977 124 117 118
-0.02934646 -0.11015936 0.88149977 124 114 118
-0.02934646 -0.09035254 0.88149977 130 121 126
-0.02934646 -0.07054573 0.88149977 140 137 139
-0.02934646 -0.04997712 0.88149977 145 142 144
-0.02934646 -0.02940850 0.88149977 147 143 147
-0.02934646 -0.00960169 0.88149977 149 143 148
-0.02934646 0.01020513 0.88149977 151 150 152
-0.02934646 0.03001194 0.88149977 151 150 152
-0.02934646 0.04981875 0.88149977 150 148 151
-0.02934646 0.06962556 0.88149977 142 137 142
-0.02934646 0.08943238 0.88149980 168 168 171
-0.02934646 0.11000100 0.88149983 194 162 171
-0.02934646 0.13056961 0.88149983 165 137 146
-0.02934646 0.15037643 0.88149983 186 187 189
-0.02934646 0.17018324 0.88149983 188 190 192
-0.02934646 0.18999006 0.88149983 189 193 194
-0.02934646 0.20979688 0.88149986 188 193 194
-0.02934646 0.22960370 0.88149989 188 193 194
-0.02934646 0.24941052 0.88149989 173 179 179
-0.02934646 0.26997914 0.88149989 153 159 163
-0.02934646 0.29054775 0.88149989 143 150 154
-0.02934646 0.31035457 0.88149989 149 156 156
-0.02934646 0.33016138 0.88149989 123 131 134
-0.02934646 0.34996820 0.88149989 147 155 156
-0.02934646 0.36977502 0.88149989 91 97 97
-0.02934646 0.38958183 0.88149989 0 0 0
-0.02934646 0.40938865 0.88149989 0 0 0
-0.02934646 0.42995726 0.88149989 0 0 0
-0.02934646 0.45052588 0.88149989 0 0 0
-0.02934646 0.47033270 0.88149989 0 0 0
-0.02934646 0.49013951 0.88149989 0 0 0
-0.02934646 0.50080472 0.88149989 0 0 0
-0.00953964 -0.58780832 0.88149983 0 0 0
-0.00953964 -0.57028690 0.88149983 0 0 0
-0.00953964 -0.55048009 0.88149983 0 0 0
-0.00953964 -0.52991147 0.88149983 0 0 0
-0.00953964 -0.50934286 0.88149983 0 0 0
-0.00953964 -0.48953604 0.88149983 0 0 0
-0.00799985 -0.46269809 0.87971884 93 125 134
-0.01001277 -0.47182497 0.88149036 20 27 29
-0.00910098 -0.30233593 0.57993639 93 123 132
-0.00978441 -0.28998852 0.57993639 92 122 134
-0.00978441 -0.27044224 0.57993639 92 121 135
-0.00978441 -0.25039478 0.57993639 90 119 136
-0.00978441 -0.23034732 0.57993639 89 117 135
-0.00942092 -0.22966307 0.88149965 167 126 138
-0.00978441 -0.21029985 0.57993639 88 115 134
-0.00953964 -0.20995524 0.88149983 130 109 113
-0.00978441 -0.19025239 0.57993639 88 113 135
-0.00953964 -0.18938661 0.88149977 116 106 109
-0.00978441 -0.17020493 0.57993639 88 112 136
-0.00953964 -0.16957980 0.88149977 116 107 108
-0.01105057 -0.15815007 0.57993639 105 116 139
-0.00953964 -0.14977298 0.88149977 121 113 114
-0.00953964 -0.12996617 0.88149977 126 119 120
-0.00953964 -0.11015936 0.88149977 130 125 128
-0.00953964 -0.09035254 0.88149977 136 132 134
-0.00953964 -0.07054573 0.88149977 141 139 140
-0.00953964 -0.04997712 0.88149977 147 145 147
-0.00953964 -0.02940850 0.88149977 149 149 151
-0.00953964 -0.00960169 0.88149977 152 151 154
-0.00953964 0.01020513 0.88149977 152 152 153
-0.00953964 0.03001194 0.88149977 153 153 155
-0.00953964 0.04981875 0.88149977 153 153 156
-0.00953964 0.06962556 0.88149977 146 147 150
-0.00953964 0.08943238 0.88149980 166 166 170
-0.00953964 0.11000100 0.88149983 194 164 173
-0.00953964 0.13056961 0.88149983 164 134 143
-0.00953964 0.15037643 0.88149983 188 188 190
-0.00953964 0.17018324 0.88149983 189 191 192
-0.00953964 0.18999006 0.88149983 179 182 184
-0.00953964 0.20979688 0.88149986 164 168 170
-0.00953964 0.22960370 0.88149989 156 161 163
-0.00953964 0.24941052 0.88149989 150 154 156
-0.00953964 0.26997914 0.88149989 152 157 159
-0.00953964 0.29054775 0.88149989 143 150 152
-0.00953964 0.31035457 0.88149989 142 149 152
-0.00953964 0.33016138 0.88149989 149 158 159
-0.00953964 0.34996820 0.88149989 146 155 156
-0.00953964 0.36977502 0.88149989 84 88 88
-0.00953964 0.38958183 0.88149989 0 0 0
-0.00953964 0.40938865 0.88149989 0 0 0
-0.00953964 0.42995726 0.88149989 0 0 0
-0.00953964 0.45052588 0.88149989 0 0 0
-0.00953964 0.47033270 0.88149989 0 0 0
-0.00953964 0.49013951 0.88149989 0 0 0
-0.00953964 0.50080472 0.88149989 0 0 0
0.01026717 -0.58780832 0.88149983 0 0 0
0.01026717 -0.57028690 0.88149983 0 0 0
0.01026717 -0.55048009 0.88149983 0 0 0
0.01026717 -0.52991147 0.88149983 0 0 0
0.01026717 -0.50934286 0.88149983 0 0 0
0.01026717 -0.48953604 0.88149983 0 0 0
0.01012142 -0.47288189 0.88149882 19 26 29
0.01059605 -0.30326155 0.57993639 92 123 134
0.01026305 -0.28998852 0.57993639 93 123 134
0.01026305 -0.27044224 0.57993639 91 122 135
0.01026305 -0.25039478 0.57993639 90 119 135
0.01026305 -0.23034732 0.57993639 90 117 134
0.01026717 -0.22976204 0.88149979 167 124 136
0.01026305 -0.21029985 0.57993639 89 115 135
0.01026717 -0.20995524 0.88149983 129 111 115
0.01026305 -0.19025239 0.57993639 89 113 134
0.01026717 -0.18938661 0.88149977 117 107 108
0.01026305 -0.17020493 0.57993639 89 112 135
0.01026717 -0.16957980 0.88149977 115 107 107
0.00969027 -0.15874924 0.57993639 107 115 139
0.01026717 -0.14977298 0.88149977 116 103 107
0.01026717 -0.12996617 0.88149977 120 112 116
0.01026717 -0.11015936 0.88149977 128 124 125
0.01026717 -0.09035254 0.88149977 134 131 133
0.01026717 -0.07054573 0.88149977 141 137 141
0.01026717 -0.04997712 0.88149977 145 138 143
0.01026717 -0.02940850 0.88149977 151 151 154
0.01026717 -0.00960169 0.88149977 153 153 155
0.01026717 0.01020513 0.88149977 152 151 154
0.01026717 0.03001194 0.88149977 150 145 150
0.01026717 0.04981875 0.88149977 153 153 156
0.01026717 0.06962556 0.88149977 148 148 152
0.01026717 0.08943238 0.88149980 168 170 173
0.01026717 0.11000100 0.88149983 194 166 175
0.01026717 0.13056961 0.88149983 166 134 142
0.01026717 0.15037643 0.88149983 167 168 171
0.01026717 0.17018324 0.88149983 153 156 161
0.01026717 0.18999006 0.88149983 157 162 166
0.01026717 0.20979688 0.88149986 153 158 162
0.01026717 0.22960370 0.88149989 151 157 160
0.01026717 0.24941052 0.88149989 146 152 155
0.01026717 0.26997914 0.88149989 152 157 161
0.01026717 0.29054775 0.88149989 139 146 148
0.01026717 0.31035457 0.88149989 124 133 136
0.01026717 0.33016138 0.88149989 133 143 145
0.01026717 0.34996820 0.88149989 131 141 146
0.01026717 0.36977502 0.88149989 58 63 65
0.01026717 0.38958183 0.88149989 0 0 0
0.01026717 0.40938865 0.88149989 0 0 0
0.01026717 0.42995726 0.88149989 0 0 0
0.01026717 0.45052588 0.88149989 0 0 0
0.01026717 0.47033270 0.88149989 0 0 0
0.01026717 0.49013951 0.88149989 0 0 0
0.01026717 0.50080472 0.88149989 0 0 0
0.03007399 -0.58780832 0.88149983 0 0 0
0.03007399 -0.57028690 0.88149983 0 0 0
0.03007399 -0.55048009 0.88149983 0 0 0
0.03007399 -0.52991147 0.88149983 0 0 0
0.03007399 -0.50934286 0.88149983 0 0 0
0.03007399 -0.48953604 0.88149983 0 0 0
0.03007397 -0.47353802 0.88149944 25 33 37
0.03059024 -0.30383525 0.57993639 93 124 134
0.03031051 -0.28998852 0.57993639 93 124 134
0.03031051 -0.27044224 0.57993639 92 122 135
0.03031051 -0.25039478 0.57993639 93 120 136
0.03031051 -0.23034732 0.57993639 92 117 135
0.03021165 -0.23035857 0.88149958 166 120 132
0.03031051 -0.21029985 0.57993639 89 115 134
0.03007399 -0.20995524 0.88149983 128 110 113
0.03031051 -0.19025239 0.57993639 89 114 134
0.03007398 -0.18938661 0.88149977 115 106 107
0.03031051 -0.17020493 0.57993639 90 112 134
0.03007398 -0.16957980 0.88149977 113 104 107
0.03031051 -0.15917883 0.57993639 119 119 140
0.03007398 -0.14977298 0.88149977 120 111 113
0.03007398 -0.12996617 0.88149977 123 114 117
0.03007398 -0.11015936 0.88149977 128 124 126
0.03007398 -0.09035254 0.88149977 134 132 134
0.03007398 -0.07054573 0.88149977 143 142 144
0.03007398 -0.04997712 0.88149977 149 149 152
0.03007398 -0.02940850 0.88149977 152 152 156
0.03007398 -0.00960169 0.88149977 153 153 157
0.03007398 0.01020513 0.88149977 154 155 158
0.03007398 0.03001194 0.88149977 156 156 159
0.03007398 0.04981875 0.88149977 154 155 159
0.03007398 0.06962556 0.88149977 152 154 158
0.03007398 0.08943238 0.88149980 167 169 173
0.03007399 0.11000100 0.88149983 193 163 174
0.03007399 0.13056961 0.88149983 165 131 142
0.03007399 0.15037643 0.88149983 160 162 165
0.03007399 0.17018324 0.88149983 153 156 162
0.03007399 0.18999006 0.88149983 146 148 152
0.03007399 0.20979688 0.88149987 146 152 156
0.03007399 0.22960370 0.88149989 142 147 152
0.03007399 0.24941052 0.88149989 140 148 151
0.03007399 0.26997914 0.88149989 148 154 157
0.03007399 0.29054775 0.88149989 134 142 146
0.03007399 0.31035457 0.88149989 145 153 156
0.03007399 0.33016138 0.88149989 146 154 156
0.03007399 0.34996820 0.88149989 150 159 161
0.03007399 0.36977502 0.88149989 62 65 66
0.03007399 0.38958183 0.88149989 0 0 0
0.03007399 0.40938865 0.88149989 0 0 0
0.03007399 0.42995726 0.88149989 0 0 0
0.03007399 0.45052588 0.88149989 0 0 0
0.03007399 0.47033270 0.88149989 0 0 0
0.03007399 0.49013951 0.88149989 0 0 0
0.03007399 0.50080472 0.88149989 0 0 0
0.04988080 -0.58780832 0.88149983 0 0 0
0.04988080 -0.57028690 0.88149983 0 0 0
0.04988080 -0.55048009 0.88149983 0 0 0
0.04988080 -0.52991147 0.88149983 0 0 0
0.04988080 -0.50934286 0.88149983 0 0 0
0.04988080 -0.48953604 0.88149983 0 0 0
0.04970019 -0.47416544 0.88149319 35 44 48
0.04909809 -0.30436510 0.57993639 96 124 135
0.05035797 -0.28998852 0.57993639 96 124 135
0.05035797 -0.27044224 0.57993639 95 123 135
0.05035797 -0.25039478 0.57993639 95 121 136
0.05035797 -0.23034732 0.57993639 93 119 136
0.04988080 -0.23052385 0.88149982 165 118 131
0.05035797 -0.21029985 0.57993639 92 116 135
0.04988080 -0.20995524 0.88149983 127 111 113
0.05035797 -0.19025239 0.57993639 91 115 134
0.04988080 -0.18938661 0.88149978 108 92 97
0.05035797 -0.17020493 0.57993639 92 112 133
0.04988080 -0.16957980 0.88149977 112 101 104
0.04852029 -0.15917883 0.57993639 130 124 138
0.04988080 -0.14977298 0.88149977 116 107 108
0.04988080 -0.12996617 0.88149977 121 115 116
0.04988080 -0.11015936 0.88149977 125 117 122
0.04988080 -0.09035254 0.88149977 130 123 128
0.04988080 -0.07054573 0.88149977 142 142 145
0.04988080 -0.04997712 0.88149977 146 146 149
0.04988080 -0.02940850 0.88149977 148 148 152
0.04988080 -0.00960169 0.88149977 150 145 153
0.04988080 0.01020513 0.88149977 152 153 156
0.04988080 0.03001194 0.88149977 154 156 159
0.04988080 0.04981875 0.88149977 154 155 158
0.04988080 0.06962556 0.88149977 145 143 150
0.04988080 0.08943238 0.88149981 162 163 167
0.04988080 0.11000100 0.88149983 193 167 177
0.04988080 0.13056961 0.88149983 148 112 124
0.04988080 0.15037643 0.88149983 146 147 151
0.04988080 0.17018324 0.88149983 149 152 156
0.04988080 0.18999006 0.88149983 144 148 153
0.04988080 0.20979688 0.88149987 146 151 155
0.04988080 0.22960370 0.88149989 146 152 157
0.04988080 0.24941052 0.88149989 144 149 152
0.04988080 0.26997914 0.88149989 151 157 159
0.04988080 0.29054775 0.88149989 136 145 148
0.04988080 0.31035457 0.88149989 141 147 149
0.04988080 0.33016138 0.88149989 135 144 146
0.04988080 0.34996820 0.88149989 144 151 152
0.04988080 0.36977502 0.88149989 59 62 62
0.04988080 0.38958183 0.88149989 0 0 0
0.04988080 0.40938865 0.88149989 0 0 0
0.04988080 0.42995726 0.88149989 0 0 0
0.04988080 0.45052588 0.88149989 0 0 0
0.04988080 0.47033270 0.88149989 0 0 0
0.04988080 0.49013951 0.88149989 0 0 0
0.04988080 0.50080472 0.88149989 0 0 0
0.06968761 -0.58780832 0.88149983 0 0 0
0.06968761 -0.57028690 0.88149983 0 0 0
0.06968761 -0.55048009 0.88149983 0 0 0
0.06968761 -0.52991147 0.88149983 0 0 0
0.06968761 -0.50934286 0.88149983 0 0 0
0.06968761 -0.48953604 0.88149983 0 0 0
0.06039928 -0.46859092 0.87936366 98 125 136
0.06943602 -0.47567620 0.88147927 36 48 52
0.06030454 -0.45637160 0.85643274 96 123 135
0.06188527 -0.30090325 0.57993639 100 127 133
0.06327745 -0.28954302 0.57993639 101 126 135
0.06338883 -0.27044224 0.57993639 99 125 136
0.06338883 -0.25039478 0.57993639 99 123 136
0.07501272 -0.24192546 0.88140749 152 136 152
0.06338883 -0.23034732 0.57993639 98 120 137
0.06968761 -0.23052385 0.88149982 167 118 130
0.06365870 -0.20991433 0.57993639 97 118 136
0.06968761 -0.20995524 0.88149983 130 114 117
0.06389001 -0.19025239 0.57993639 94 116 135
0.06968761 -0.18938662 0.88149980 116 102 106
0.06386838 -0.17027344 0.57993639 94 114 133
0.06968761 -0.16957980 0.88149977 115 102 104
0.06343894 -0.15842705 0.57993639 101 113 131
0.06968761 -0.14977298 0.88149977 118 107 109
0.06968761 -0.12996617 0.88149977 121 110 113
0.06968761 -0.11015936 0.88149977 127 117 121
0.06968761 -0.09035254 0.88149977 134 129 132
0.06968761 -0.07054573 0.88149977 141 140 142
0.06968761 -0.04997712 0.88149977 146 144 149
0.06968761 -0.02940850 0.88149977 147 145 147
0.06968761 -0.00960169 0.88149977 150 149 152
0.06968761 0.01020513 0.88149977 151 148 151
0.06968761 0.03001194 0.88149978 152 151 155
0.06968761 0.04981875 0.88149979 153 151 155
0.06968761 0.06962557 0.88149979 153 151 156
0.06968761 0.08943238 0.88149983 159 156 163
0.06968761 0.11000100 0.88149983 183 158 169
0.06968761 0.13056961 0.88149983 152 113 125
0.06968761 0.15037643 0.88149983 152 154 158
0.06968761 0.17018324 0.88149983 160 161 164
0.06968761 0.18999006 0.88149983 146 149 154
0.06968762 0.20979688 0.88149987 156 160 163
0.06968762 0.22960370 0.88149989 136 141 147
0.06968762 0.24941052 0.88149989 129 136 139
0.06968762 0.26997914 0.88149989 142 146 148
0.06968762 0.29054775 0.88149989 156 163 163
0.06968762 0.31035457 0.88149989 151 158 160
0.06968762 0.33016138 0.88149989 141 148 150
0.06968762 0.34996820 0.88149989 128 136 140
0.06968762 0.36977502 0.88149989 50 53 53
0.06968762 0.38958183 0.88149989 0 0 0
0.06968762 0.40938865 0.88149989 0 0 0
0.06968762 0.42995726 0.88149989 0 0 0
0.06968762 0.45052588 0.88149989 0 0 0
0.06968762 0.47033270 0.88149989 0 0 0
0.06968762 0.49013951 0.88149989 0 0 0
0.06968762 0.50080472 0.88149989 0 0 0
0.08949443 -0.58780832 0.88149983 0 0 0
0.08949443 -0.57028690 0.88149983 0 0 0
0.08949443 -0.55048009 0.88149983 0 0 0
0.08949443 -0.52991147 0.88149983 0 0 0
0.08949443 -0.50934286 0.88149983 0 0 0
0.08949443 -0.48953604 0.88149983 0 0 0
0.08169136 -0.46638989 0.87951192 98 125 134
0.09058691 -0.47114607 0.88146367 85 107 114
0.09570617 -0.45521859 0.87557483 101 124 130
0.09839192 -0.45567639 0.88126205 103 128 135
0.08462524 -0.41299426 0.79303616 106 129 135
0.08339931 -0.24194886 0.88149254 152 140 153
0.08921219 -0.23015683 0.88149899 167 132 143
0.08949443 -0.20995524 0.88149983 168 128 137
0.08949443 -0.18938662 0.88149983 167 122 130
0.08949443 -0.16957981 0.88149983 163 125 131
0.08949443 -0.14977299 0.88149983 162 121 128
0.08949443 -0.12996618 0.88149983 161 123 128
0.08949443 -0.11015936 0.88149983 162 124 130
0.08949443 -0.09035255 0.88149983 162 127 132
0.08949443 -0.07054573 0.88149983 162 126 132
0.08949443 -0.04997712 0.88149983 158 122 128
0.08949443 -0.02940850 0.88149983 161 126 133
0.08949443 -0.00960169 0.88149983 159 125 130
0.08949443 0.01020513 0.88149983 158 122 127
0.08949443 0.03001194 0.88149983 162 127 132
0.08949443 0.04981876 0.88149983 162 126 130
0.08949443 0.06962557 0.88149983 159 123 129
0.08949443 0.08943238 0.88149983 163 125 131
0.08949443 0.11000100 0.88149983 167 131 136
0.08949443 0.13056961 0.88149983 148 125 128
0.08949443 0.15037643 0.88149983 138 139 143
0.08949443 0.17018324 0.88149983 138 140 144
0.08949443 0.18999006 0.88149983 142 146 151
0.08949443 0.20979689 0.88149988 139 143 147
0.08949444 0.22960370 0.88149989 124 130 138
0.08949444 0.24941052 0.88149989 118 127 133
0.08949444 0.26997914 0.88149989 122 130 136
0.08949444 0.29054775 0.88149989 130 138 142
0.08949444 0.31035457 0.88149989 144 151 152
0.08949444 0.33016138 0.88149989 126 134 134
0.08949444 0.34996820 0.88149989 142 151 154
0.08949444 0.36977502 0.88149989 42 45 46
0.08949444 0.38958183 0.88149989 0 0 0
0.08949444 0.40938865 0.88149989 0 0 0
0.08949444 0.42995726 0.88149989 0 0 0
0.08949444 0.45052588 0.88149989 0 0 0
0.08949444 0.47033270 0.88149989 0 0 0
0.08949444 0.49013951 0.88149989 0 0 0
0.08949444 0.50080472 0.88149989 0 0 0
0.11006304 -0.58780832 0.88149983 0 0 0
0.11006304 -0.57028690 0.88149983 0 0 0
0.11006304 -0.55048009 0.88149983 0 0 0
0.11006304 -0.52991147 0.88149983 0 0 0
0.11006304 -0.50934286 0.88149983 0 0 0
0.11006304 -0.48953604 0.88149983 3 3 3
0.11006299 -0.46972897 0.88149934 130 135 132
0.11045898 -0.45010434 0.88149806 141 143 139
0.11082484 -0.43011556 0.88149975 140 141 137
0.11082482 -0.41030869 0.88149962 143 144 141
0.11082484 -0.39050195 0.88149978 141 142 139
0.11082484 -0.36993334 0.88149980 144 143 140
0.11082480 -0.34936460 0.88149947 142 140 138
0.11087918 -0.32961210 0.88149917 143 139 135
0.10124934 -0.31904906 0.87773836 114 121 134
0.11158664 -0.30975111 0.88149981 144 139 135
0.11158664 -0.28994429 0.88149981 138 133 131
0.11158664 -0.27013747 0.88149979 140 136 135
0.10142280 -0.24361071 0.87924206 111 120 137
0.11146128 -0.25022457 0.88149976 138 132 133
0.11011775 -0.23047333 0.88149977 143 133 131
0.11006304 -0.20995524 0.88149983 148 133 127
0.11006304 -0.18938662 0.88149983 142 128 121
0.11006304 -0.16957981 0.88149983 144 130 123
0.11006304 -0.14977299 0.88149983 139 124 116
0.11006304 -0.12996618 0.88149983 147 133 124
0.11006304 -0.11015936 0.88149983 143 129 122
0.11006304 -0.09035255 0.88149983 144 127 122
0.11006304 -0.07054573 0.88149983 146 130 124
0.11006304 -0.04997712 0.88149983 140 123 116
0.11006304 -0.02940850 0.88149983 141 126 120
0.11006304 -0.00960169 0.88149983 141 125 119
0.11006304 0.01020513 0.88149983 141 122 116
0.11006304 0.03001194 0.88149983 139 124 116
0.11006304 0.04981876 0.88149983 139 122 114
0.11006304 0.06962557 0.88149983 133 114 108
0.11006304 0.08943238 0.88149983 141 123 117
0.11006304 0.11000100 0.88149983 137 119 111
0.11006304 0.13056961 0.88149983 127 112 108
0.11006304 0.15037643 0.88149983 134 136 141
0.11006304 0.17018324 0.88149983 139 143 148
0.11006304 0.18999006 0.88149983 157 161 165
0.11006305 0.20979689 0.88149988 156 160 163
0.11006305 0.22960370 0.88149989 140 145 150
0.11006305 0.24941052 0.88149989 136 142 147
0.11006305 0.26997914 0.88149989 155 162 163
0.11006305 0.29054775 0.88149989 137 144 149
0.11006305 0.31035457 0.88149989 146 153 154
0.11006305 0.33016138 0.88149989 128 135 138
0.11006305 0.34996820 0.88149989 155 162 163
0.11006305 0.36977502 0.88149989 39 41 42
0.11006305 0.38958183 0.88149989 0 0 0
0.11006305 0.40938865 0.88149989 0 0 0
0.11006305 0.42995726 0.88149989 0 0 0
0.11006305 0.45052588 0.88149989 0 0 0
0.11006305 0.47033270 0.88149989 0 0 0
0.11006305 0.49013951 0.88149989 0 0 0
0.11006305 0.50080472 0.88149989 0 0 0
0.13063166 -0.58780832 0.88149983 0 0 0
0.13063166 -0.57028690 0.88149983 0 0 0
0.13063166 -0.55048009 0.88149983 0 0 0
0.13063166 -0.52991147 0.88149983 0 0 0
0.13063166 -0.50934286 0.88149983 0 0 0
0.13063166 -0.48953604 0.88149983 23 22 20
0.13063166 -0.46972923 0.88149983 147 140 128
0.13063166 -0.44992241 0.88149983 148 141 132
0.13063166 -0.43011560 0.88149983 144 138 128
0.13063166 -0.41030878 0.88149983 145 138 130
0.13063166 -0.39050197 0.88149983 145 137 130
0.13063166 -0.36993335 0.88149983 144 137 127
0.13063166 -0.34936474 0.88149983 145 136 128
0.13063166 -0.32955793 0.88149983 145 136 128
0.13063166 -0.30975111 0.88149983 146 135 128
0.13063166 -0.28994430 0.88149983 141 132 123
0.13063166 -0.27013748 0.88149983 146 136 128
0.13063166 -0.25033067 0.88149983 143 133 126
0.13063166 -0.23052385 0.88149983 142 130 123
0.13063166 -0.20995524 0.88149983 145 131 122
0.13063166 -0.18938662 0.88149983 143 130 122
0.13063166 -0.16957981 0.88149983 141 130 119
0.13063166 -0.14977299 0.88149983 136 120 111
0.13063166 -0.12996618 0.88149983 153 139 131
0.13063166 -0.11015936 0.88149983 141 126 118
0.13063166 -0.09035255 0.88149983 145 131 124
0.13063166 -0.07054573 0.88149983 146 130 125
0.13063166 -0.04997712 0.88149983 139 122 115
0.13063166 -0.02940850 0.88149983 139 121 116
0.13063166 -0.00960169 0.88149983 140 125 117
0.13063166 0.01020513 0.88149983 138 120 112
0.13063166 0.03001194 0.88149983 138 120 112
0.13063166 0.04981876 0.88149983 137 121 111
0.13063166 0.06962557 0.88149983 133 112 106
0.13063166 0.08943238 0.88149983 138 122 113
0.13063166 0.11000100 0.88149983 135 116 107
0.13063166 0.13056961 0.88149983 129 112 107
0.13063166 0.15037643 0.88149983 153 156 159
0.13063166 0.17018324 0.88149983 132 135 141
0.13063166 0.18999006 0.88149983 149 151 154
0.13063167 0.20979689 0.88149988 132 136 142
0.13063167 0.22960370 0.88149989 135 140 145
0.13063167 0.24941052 0.88149989 129 133 136
0.13063167 0.26997914 0.88149989 135 140 143
0.13063167 0.29054775 0.88149989 159 167 169
0.13063167 0.31035457 0.88149989 133 140 141
0.13063167 0.33016138 0.88149989 148 156 157
0.13063167 0.34996820 0.88149989 131 136 138
0.13063167 0.36977502 0.88149989 33 35 36
0.13063167 0.38958183 0.88149989 0 0 0
0.13063167 0.40938865 0.88149989 0 0 0
0.13063167 0.42995726 0.88149989 0 0 0
0.13063167 0.45052588 0.88149989 0 0 0
0.13063167 0.47033270 0.88149989 0 0 0
0.13063167 0.49013951 0.88149989 0 0 0
0.13063167 0.50080472 0.88149989 0 0 0
0.15043847 -0.58780832 0.88149983 0 0 0
0.15043847 -0.57028690 0.88149983 0 0 0
0.15043847 -0.55048009 0.88149983 0 0 0
0.15043847 -0.52991147 0.88149983 0 0 0
0.15043847 -0.50934286 0.88149983 0 0 0
0.15043847 -0.48953604 0.88149983 46 44 40
0.15043847 -0.46972923 0.88149983 147 139 129
0.15043847 -0.44992241 0.88149983 146 140 128
0.15043847 -0.43011560 0.88149983 144 138 124
0.15043847 -0.41030878 0.88149983 146 139 126
0.15043847 -0.39050197 0.88149983 145 137 126
0.15043847 -0.36993335 0.88149983 145 137 126
0.15043847 -0.34936474 0.88149983 145 135 125
0.15043847 -0.32955793 0.88149983 146 136 126
0.15043847 -0.30975111 0.88149983 144 135 125
0.15043847 -0.28994430 0.88149983 140 130 120
0.15043847 -0.27013748 0.88149983 148 137 129
0.15043847 -0.25033067 0.88149983 145 134 124
0.15043847 -0.23052385 0.88149983 142 130 120
0.15043847 -0.20995524 0.88149983 142 129 119
0.15043847 -0.18938662 0.88149983 145 132 123
0.15043847 -0.16957981 0.88149983 142 130 120
0.15043847 -0.14977299 0.88149983 145 131 122
0.15043847 -0.12996618 0.88149983 144 130 122
0.15043847 -0.11015936 0.88149983 143 130 120
0.15043847 -0.09035255 0.88149983 146 130 122
0.15043847 -0.07054573 0.88149983 146 130 124
0.15043847 -0.04997712 0.88149983 140 124 116
0.15043847 -0.02940850 0.88149983 140 125 116
0.15043847 -0.00960169 0.88149983 139 122 114
0.15043847 0.01020513 0.88149983 139 121 112
0.15043847 0.03001194 0.88149983 138 120 110
0.15043847 0.04981876 0.88149983 138 119 111
0.15043847 0.06962557 0.88149983 134 115 108
0.15043847 0.08943238 0.88149983 140 124 116
0.15043847 0.11000100 0.88149983 135 119 109
0.15043847 0.13056961 0.88149983 126 110 105
0.15043847 0.15037643 0.88149983 144 146 151
0.15043847 0.17018324 0.88149983 143 146 151
0.15043847 0.18999006 0.88149983 147 150 155
0.15043848 0.20979689 0.88149988 134 139 144
0.15043848 0.22960370 0.88149989 141 145 150
0.15043848 0.24941052 0.88149989 123 129 134
0.15043848 0.26997914 0.88149989 135 141 146
0.15043848 0.29054775 0.88149989 126 133 138
0.15043848 0.31035457 0.88149989 116 125 131
0.15043848 0.33016138 0.88149989 112 121 126
0.15043848 0.34996820 0.88149989 117 125 129
0.15043848 0.36977502 0.88149989 31 33 34
0.15043848 0.38958183 0.88149989 0 0 0
0.15043848 0.40938865 0.88149989 0 0 0
0.15043848 0.42995726 0.88149989 0 0 0
0.15043848 0.45052588 0.88149989 0 0 0
0.15043848 0.47033270 0.88149989 0 0 0
0.15043848 0.49013951 0.88149989 0 0 0
0.15043848 0.50080472 0.88149989 0 0 0
0.17024529 -0.58780832 0.88149983 0 0 0
0.17024529 -0.57028690 0.88149983 0 0 0
0.17024529 -0.55048009 0.88149983 0 0 0
0.17024529 -0.52991147 0.88149983 0 0 0
0.17024529 -0.50934286 0.88149983 0 0 0
0.17024529 -0.48953604 0.88149983 67 65 58
0.17024529 -0.46972923 0.88149983 145 139 125
0.17024529 -0.44992241 0.88149983 149 142 129
0.17024529 -0.43011560 0.88149983 146 139 126
0.17024529 -0.41030878 0.88149983 148 140 128
0.17024529 -0.39050197 0.88149983 146 138 127
0.17024529 -0.36993335 0.88149983 145 138 126
0.17024529 -0.34936474 0.88149983 145 136 125
0.17024529 -0.32955793 0.88149983 146 137 126
0.17024529 -0.30975111 0.88149983 145 135 125
0.17024529 -0.28994430 0.88149983 139 129 119
0.17024529 -0.27013748 0.88149983 148 136 128
0.17024529 -0.25033067 0.88149983 145 135 124
0.17024529 -0.23052385 0.88149983 143 131 122
0.17024529 -0.20995524 0.88149983 144 131 123
0.17024529 -0.18938662 0.88149983 147 134 125
0.17024529 -0.16957981 0.88149983 145 133 122
0.17024529 -0.14977299 0.88149983 148 135 127
0.17024529 -0.12996618 0.88149983 145 129 122
0.17024529 -0.11015936 0.88149983 145 131 122
0.17024529 -0.09035255 0.88149983 145 129 122
0.17024529 -0.07054573 0.88149983 144 129 120
0.17024529 -0.04997712 0.88149983 140 125 115
0.17024529 -0.02940850 0.88149983 142 127 118
0.17024529 -0.00960169 0.88149983 138 121 110
0.17024529 0.01020513 0.88149983 137 121 109
0.17024529 0.03001194 0.88149983 140 123 112
0.17024529 0.04981876 0.88149983 137 119 112
0.17024529 0.06962557 0.88149983 133 112 105
0.17024529 0.08943238 0.88149983 137 119 110
0.17024529 0.11000100 0.88149983 135 117 108
0.17024529 0.13056961 0.88149983 128 114 108
0.17024529 0.15037643 0.88149983 150 153 156
0.17024529 0.17018324 0.88149983 142 145 149
0.17024529 0.18999006 0.88149983 144 149 151
0.17024530 0.20979689 0.88149989 143 147 151
0.17024530 0.22960370 0.88149989 138 142 147
0.17024530 0.24941052 0.88149989 139 145 148
0.17024530 0.26997914 0.88149989 149 155 157
0.17024530 0.29054775 0.88149989 136 141 145
0.17024530 0.31035457 0.88149989 147 154 156
0.17024530 0.33016138 0.88149989 128 135 137
0.17024530 0.34996820 0.88149989 140 150 152
0.17024530 0.36977502 0.88149989 33 36 37
0.17024530 0.38958183 0.88149989 0 0 0
0.17024530 0.40938865 0.88149989 0 0 0
0.17024530 0.42995726 0.88149989 0 0 0
0.17024530 0.45052588 0.88149989 0 0 0
0.17024530 0.47033270 0.88149989 0 0 0
0.17024530 0.49013951 0.88149989 0 0 0
0.17024530 0.50080472 0.88149989 0 0 0
0.19005210 -0.58780832 0.88149983 0 0 0
0.19005210 -0.57028690 0.88149983 0 0 0
0.19005210 -0.55048009 0.88149983 0 0 0
0.19005210 -0.52991147 0.88149983 0 0 0
0.19005210 -0.50934286 0.88149983 0 0 0
0.19005210 -0.48953604 0.88149983 85 87 84
0.19005210 -0.46972923 0.88149983 145 139 124
0.19005210 -0.44992241 0.88149983 147 139 127
0.19005210 -0.43011560 0.88149983 144 137 124
0.19005210 -0.41030878 0.88149983 147 139 125
0.19005210 -0.39050197 0.88149983 146 137 127
0.19005210 -0.36993335 0.88149983 145 137 125
0.19005210 -0.34936474 0.88149983 143 134 121
0.19005210 -0.32955793 0.88149983 144 135 124
0.19005210 -0.30975111 0.88149983 144 134 123
0.19005210 -0.28994430 0.88149983 140 129 117
0.19005210 -0.27013748 0.88149983 146 134 124
0.19005210 -0.25033067 0.88149983 145 134 124
0.19005210 -0.23052385 0.88149983 144 132 123
0.19005210 -0.20995524 0.88149983 149 135 127
0.19005210 -0.18938662 0.88149983 142 128 122
0.19005210 -0.16957981 0.88149983 150 136 128
0.19005210 -0.14977299 0.88149983 146 132 123
0.19005210 -0.12996618 0.88149983 146 132 123
0.19005210 -0.11015936 0.88149983 145 131 122
0.19005210 -0.09035255 0.88149983 146 131 122
0.19005210 -0.07054573 0.88149983 143 129 119
0.19005210 -0.04997712 0.88149983 138 121 111
0.19005210 -0.02940850 0.88149983 141 126 115
0.19005210 -0.00960169 0.88149983 138 122 110
0.19005210 0.01020513 0.88149983 137 120 109
0.19005210 0.03001194 0.88149983 137 119 109
0.19005210 0.04981876 0.88149983 137 118 108
0.19005210 0.06962557 0.88149983 135 116 105
0.19005210 0.08943238 0.88149983 137 120 110
0.19005210 0.11000100 0.88149983 136 119 108
0.19005210 0.13056961 0.88149983 126 112 104
0.19005210 0.15037643 0.88149983 145 148 152
0.19005210 0.17018324 0.88149983 147 150 155
0.19005210 0.18999006 0.88149983 143 147 152
0.19005212 0.20979689 0.88149989 141 144 147
0.19005212 0.22960370 0.88149989 148 154 157
0.19005212 0.24941052 0.88149989 147 152 154
0.19005212 0.26997914 0.88149989 134 139 143
0.19005212 0.29054775 0.88149989 140 146 149
0.19005212 0.31035457 0.88149989 142 147 150
0.19005212 0.33016138 0.88149989 129 138 142
0.19005212 0.34996820 0.88149989 138 147 150
0.19005212 0.36977502 0.88149989 40 43 43
0.19005212 0.38958183 0.88149989 0 0 0
0.19005212 0.40938865 0.88149989 0 0 0
0.19005212 0.42995726 0.88149989 0 0 0
0.19005212 0.45052588 0.88149989 0 0 0
0.19005212 0.47033270 0.88149989 0 0 0
0.19005212 0.49013951 0.88149989 0 0 0
0.19005212 0.50080472 0.88149989 0 0 0
0.20985892 -0.58780832 0.88149983 0 0 0
0.20985892 -0.57028690 0.88149983 0 0 0
0.20985892 -0.55048009 0.88149983 0 0 0
0.20985892 -0.52991147 0.88149983 0 0 0
0.20985892 -0.50934286 0.88149983 0 0 0
0.20985891 -0.48953603 0.88149981 110 114 111
0.20985892 -0.46972923 0.88149983 148 141 127
0.20985892 -0.44992241 0.88149983 146 137 126
0.20985892 -0.43011560 0.88149983 145 138 125
0.20985892 -0.41030878 0.88149983 146 139 125
0.20985892 -0.39050197 0.88149983 146 138 125
0.20985892 -0.36993335 0.88149983 145 136 123
0.20985892 -0.34936474 0.88149983 144 134 121
0.20985892 -0.32955793 0.88149983 145 136 123
0.20985892 -0.30975111 0.88149983 145 135 121
0.20985892 -0.28994430 0.88149983 140 129 116
0.20985892 -0.27013748 0.88149983 147 136 126
0.20985892 -0.25033067 0.88149983 144 133 121
0.20985892 -0.23052385 0.88149983 147 134 125
0.20985892 -0.20995524 0.88149983 144 131 123
0.20985892 -0.18938662 0.88149983 146 134 124
0.20985892 -0.16957981 0.88149983 148 135 126
0.20985892 -0.14977299 0.88149983 146 132 123
0.20985892 -0.12996618 0.88149983 147 133 124
0.20985892 -0.11015936 0.88149983 145 130 120
0.20985892 -0.09035255 0.88149983 144 130 123
0.20985892 -0.07054573 0.88149983 143 129 120
0.20985892 -0.04997712 0.88149983 138 122 110
0.20985892 -0.02940850 0.88149983 141 125 116
0.20985892 -0.00960169 0.88149983 139 122 113
0.20985892 0.01020513 0.88149983 138 120 109
0.20985892 0.03001194 0.88149983 137 120 109
0.20985892 0.04981876 0.88149983 136 118 108
0.20985892 0.06962557 0.88149983 133 115 104
0.20985892 0.08943238 0.88149983 136 119 109
0.20985892 0.11000100 0.88149983 138 120 110
0.20985892 0.13056961 0.88149983 132 117 110
0.20985892 0.15037643 0.88149983 151 155 157
0.20985892 0.17018324 0.88149983 154 156 159
0.20985892 0.18999006 0.88149983 156 160 161
0.20985893 0.20979689 0.88149989 145 149 151
0.20985893 0.22960370 0.88149989 150 155 159
0.20985893 0.24941052 0.88149989 129 135 141
0.20985893 0.26997914 0.88149989 113 120 124
0.20985893 0.29054775 0.88149989 119 129 133
0.20985893 0.31035457 0.88149989 121 128 131
0.20985893 0.33016138 0.88149989 145 154 155
0.20985893 0.34996820 0.88149989 143 150 150
0.20985893 0.36977502 0.88149989 37 39 39
0.20985893 0.38958183 0.88149989 0 0 0
0.20985893 0.40938865 0.88149989 0 0 0
0.20985893 0.42995726 0.88149989 0 0 0
0.20985893 0.45052588 0.88149989 0 0 0
0.20985893 0.47033270 0.88149989 0 0 0
0.20985893 0.49013951 0.88149989 0 0 0
0.20985893 0.50080472 0.88149989 0 0 0
0.22966573 -0.58780832 0.88149983 0 0 0
0.22966573 -0.57028690 0.88149983 0 0 0
0.22966573 -0.55048009 0.88149983 0 0 0
0.22966573 -0.52991147 0.88149983 0 0 0
0.22966573 -0.50934286 0.88149983 3 4 5
0.22966572 -0.48953602 0.88149979 129 136 135
0.22966573 -0.46972923 0.88149983 149 142 128
0.22966573 -0.44992241 0.88149983 147 140 128
0.22966573 -0.43011560 0.88149983 146 138 126
0.22966573 -0.41030878 0.88149983 148 140 127
0.22966573 -0.39050197 0.88149983 146 137 126
0.22966573 -0.36993335 0.88149983 145 137 123
0.22966573 -0.34936474 0.88149983 144 135 120
0.22966573 -0.32955793 0.88149983 143 134 119
0.22966573 -0.30975111 0.88149983 143 134 121
0.22966573 -0.28994430 0.88149983 139 130 116
0.22966573 -0.27013748 0.88149983 149 136 128
0.22966573 -0.25033067 0.88149983 147 135 125
0.22966573 -0.23052385 0.88149983 143 130 119
0.22966573 -0.20995524 0.88149983 145 132 123
0.22966573 -0.18938662 0.88149983 148 135 126
0.22966573 -0.16957981 0.88149983 147 135 125
0.22966573 -0.14977299 0.88149983 147 135 125
0.22966573 -0.12996618 0.88149983 147 135 126
0.22966573 -0.11015936 0.88149983 145 132 121
0.22966573 -0.09035255 0.88149983 147 133 124
0.22966573 -0.07054573 0.88149983 145 130 120
0.22966573 -0.04997712 0.88149983 140 124 114
0.22966573 -0.02940850 0.88149983 141 127 117
0.22966573 -0.00960169 0.88149983 138 121 112
0.22966573 0.01020513 0.88149983 138 123 111
0.22966573 0.03001194 0.88149983 137 119 109
0.22966573 0.04981876 0.88149983 137 119 108
0.22966573 0.06962557 0.88149983 134 115 102
0.22966573 0.08943238 0.88149983 138 119 109
0.22966573 0.11000100 0.88149983 137 119 110
0.22966573 0.13056961 0.88149983 128 111 102
0.22966573 0.15037643 0.88149983 146 148 152
0.22966573 0.17018324 0.88149983 152 155 159
0.22966574 0.18999006 0.88149984 146 150 154
0.22966575 0.20979689 0.88149989 150 155 158
0.22966575 0.22960370 0.88149989 148 155 158
0.22966575 0.24941052 0.88149989 159 165 166
0.22966575 0.26997914 0.88149989 138 142 141
0.22966575 0.29054775 0.88149989 122 129 131
0.22966575 0.31035457 0.88149989 145 154 155
0.22966575 0.33016138 0.88149989 130 136 140
0.22966575 0.34996820 0.88149989 121 131 135
0.22966575 0.36977502 0.88149989 36 39 40
0.22966575 0.38958183 0.88149989 0 0 0
0.22966575 0.40938865 0.88149989 0 0 0
0.22966575 0.42995726 0.88149989 0 0 0
0.22966575 0.45052588 0.88149989 0 0 0
0.22966575 0.47033270 0.88149989 0 0 0
0.22966575 0.49013951 0.88149989 0 0 0
0.22966575 0.50080472 0.88149989 0 0 0
0.24947255 -0.58780833 0.88149984 0 0 0
0.24947255 -0.57028690 0.88149983 0 0 0
0.24947255 -0.55048009 0.88149983 0 0 0
0.24947255 -0.52991147 0.88149983 0 0 0
0.24947254 -0.50934285 0.88149981 23 29 30
0.24947253 -0.48953600 0.88149975 127 137 136
0.24947255 -0.46972923 0.88149983 150 144 129
0.24947255 -0.44992241 0.88149983 149 141 126
0.24947255 -0.43011560 0.88149983 145 138 124
0.24947255 -0.41030878 0.88149983 147 138 125
0.24947255 -0.39050197 0.88149983 144 136 120
0.24947255 -0.36993335 0.88149983 145 137 124
0.24947255 -0.34936474 0.88149983 143 134 120
0.24947255 -0.32955793 0.88149983 144 134 122
0.24947255 -0.30975111 0.88149983 144 134 123
0.24947255 -0.28994430 0.88149983 139 130 116
0.24947255 -0.27013748 0.88149983 149 137 127
0.24947255 -0.25033067 0.88149983 150 138 130
0.24947255 -0.23052385 0.88149983 139 126 115
0.24947255 -0.20995524 0.88149983 152 140 130
0.24947255 -0.18938662 0.88149983 144 131 120
0.24947255 -0.16957981 0.88149983 146 134 124
0.24947255 -0.14977299 0.88149983 146 133 123
0.24947255 -0.12996618 0.88149983 146 134 124
0.24947255 -0.11015936 0.88149983 145 132 123
0.24947255 -0.09035255 0.88149983 147 132 122
0.24947255 -0.07054573 0.88149983 145 131 120
0.24947255 -0.04997712 0.88149983 140 125 114
0.24947255 -0.02940850 0.88149983 142 128 116
0.24947255 -0.00960169 0.88149983 139 123 113
0.24947255 0.01020513 0.88149983 139 123 111
0.24947255 0.03001194 0.88149983 137 121 108
0.24947255 0.04981876 0.88149983 137 119 108
0.24947255 0.06962557 0.88149983 135 117 106
0.24947255 0.08943238 0.88149983 137 119 107
0.24947255 0.11000100 0.88149983 138 120 109
0.24947255 0.13056961 0.88149983 132 117 107
0.24947255 0.15037643 0.88149983 155 157 159
0.24947255 0.17018324 0.88149983 159 162 165
0.24947255 0.18999006 0.88149984 156 160 163
0.24947256 0.20979689 0.88149989 158 162 164
0.24947256 0.22960370 0.88149989 152 158 162
0.24947256 0.24941052 0.88149989 133 138 144
0.24947256 0.26997914 0.88149989 139 146 149
0.24947256 0.29054775 0.88149989 124 129 131
0.24947256 0.31035457 0.88149989 135 143 145
0.24947256 0.33016138 0.88149989 141 149 150
0.24947256 0.34996820 0.88149989 138 147 148
0.24947256 0.36977502 0.88149989 50 53 53
0.24947256 0.38958183 0.88149989 0 0 0
0.24947256 0.40938865 0.88149989 0 0 0
0.24947256 0.42995726 0.88149989 0 0 0
0.24947256 0.45052588 0.88149989 0 0 0
0.24947256 0.47033270 0.88149989 0 0 0
0.24947256 0.49013951 0.88149989 0 0 0
0.24947256 0.50080472 0.88149989 0 0 0
0.27004117 -0.58780834 0.88149986 0 0 0
0.27004116 -0.57028690 0.88149983 0 0 0
0.27004116 -0.55048009 0.88149983 0 0 0
0.27004116 -0.52991147 0.88149983 0 0 0
0.27004115 -0.50934283 0.88149978 46 57 60
0.27004114 -0.48953600 0.88149974 123 134 135
0.27004116 -0.46972923 0.88149983 150 144 130
0.27004116 -0.44992241 0.88149983 149 141 128
0.27004116 -0.43011560 0.88149983 145 138 121
0.27004116 -0.41030878 0.88149983 148 140 124
0.27004116 -0.39050197 0.88149983 144 136 122
0.27004116 -0.36993335 0.88149983 143 135 122
0.27004116 -0.34936474 0.88149983 141 133 119
0.27004116 -0.32955793 0.88149983 144 134 122
0.27004116 -0.30975111 0.88149983 144 134 122
0.27004116 -0.28994430 0.88149983 144 133 121
0.27004116 -0.27013748 0.88149983 150 140 126
0.27004116 -0.25033067 0.88149983 142 130 117
0.27004116 -0.23052385 0.88149983 151 140 129
0.27004116 -0.20995524 0.88149983 147 135 124
0.27004116 -0.18938662 0.88149983 146 133 122
0.27004116 -0.16957981 0.88149983 145 132 123
0.27004116 -0.14977299 0.88149983 145 132 122
0.27004116 -0.12996618 0.88149983 147 132 124
0.27004116 -0.11015936 0.88149983 144 131 120
0.27004116 -0.09035255 0.88149983 147 133 123
0.27004116 -0.07054573 0.88149983 145 132 121
0.27004116 -0.04997712 0.88149983 141 125 115
0.27004116 -0.02940850 0.88149983 141 127 115
0.27004116 -0.00960169 0.88149983 139 124 114
0.27004116 0.01020513 0.88149983 138 123 113
0.27004116 0.03001194 0.88149983 137 120 110
0.27004116 0.04981876 0.88149983 137 119 109
0.27004116 0.06962557 0.88149983 137 120 109
0.27004116 0.08943238 0.88149983 137 121 108
0.27004116 0.11000100 0.88149983 136 119 106
0.27004116 0.13056961 0.88149983 128 115 106
0.27004116 0.15037643 0.88149983 149 152 155
0.27004116 0.17018324 0.88149983 152 155 158
0.27004117 0.18999006 0.88149984 158 161 163
0.27004118 0.20979689 0.88149989 150 154 158
0.27004118 0.22960370 0.88149989 143 149 152
0.27004118 0.24941052 0.88149989 141 148 152
0.27004118 0.26997914 0.88149989 135 142 144
0.27004118 0.29054775 0.88149989 155 161 162
0.27004118 0.31035457 0.88149989 141 148 149
0.27004118 0.33016138 0.88149989 151 157 157
0.27004118 0.34996820 0.88149989 110 119 125
0.27004118 0.36977502 0.88149989 43 47 49
0.27004118 0.38958183 0.88149989 0 0 0
0.27004118 0.40938865 0.88149989 0 0 0
0.27004118 0.42995726 0.88149989 0 0 0
0.27004118 0.45052588 0.88149989 0 0 0
0.27004118 0.47033270 0.88149989 0 0 0
0.27004118 0.49013951 0.88149989 0 0 0
0.27004118 0.50080472 0.88149989 0 0 0
0.29060979 -0.58780835 0.88149987 0 0 0
0.29060978 -0.57028690 0.88149983 0 0 0
0.29060978 -0.55048009 0.88149983 0 0 0
0.29060978 -0.52991147 0.88149983 0 0 0
0.29060975 -0.50934282 0.88149976 67 86 90
0.29060975 -0.48953599 0.88149974 118 132 134
0.29060978 -0.46972923 0.88149983 149 143 128
0.29060978 -0.44992241 0.88149983 148 141 127
0.29060978 -0.43011560 0.88149983 144 138 122
0.29060978 -0.41030878 0.88149983 148 140 129
0.29060978 -0.39050197 0.88149983 143 135 122
0.29060978 -0.36993335 0.88149983 145 136 122
0.29060978 -0.34936474 0.88149983 142 134 119
0.29060978 -0.32955793 0.88149983 143 134 121
0.29060978 -0.30975111 0.88149983 142 132 118
0.29060978 -0.28994430 0.88149983 150 139 129
0.29060978 -0.27013748 0.88149983 143 131 121
0.29060978 -0.25033067 0.88149983 145 134 124
0.29060978 -0.23052385 0.88149983 150 138 126
0.29060978 -0.20995524 0.88149983 147 134 123
0.29060978 -0.18938662 0.88149983 148 134 123
0.29060978 -0.16957981 0.88149983 146 133 122
0.29060978 -0.14977299 0.88149983 145 133 122
0.29060978 -0.12996618 0.88149983 145 133 122
0.29060978 -0.11015936 0.88149983 144 131 119
0.29060978 -0.09035255 0.88149983 145 132 120
0.29060978 -0.07054573 0.88149983 146 133 121
0.29060978 -0.04997712 0.88149983 140 124 114
0.29060978 -0.02940850 0.88149983 141 127 115
0.29060978 -0.00960169 0.88149983 139 123 112
0.29060978 0.01020513 0.88149983 138 120 110
0.29060978 0.03001194 0.88149983 138 121 111
0.29060978 0.04981876 0.88149983 138 121 106
0.29060978 0.06962557 0.88149983 136 119 108
0.29060978 0.08943238 0.88149983 135 119 107
0.29060978 0.11000100 0.88149983 136 118 109
0.29060978 0.13056961 0.88149983 131 114 106
0.29060978 0.15037643 0.88149983 153 156 158
0.29060978 0.17018324 0.88149983 158 162 164
0.29060978 0.18999006 0.88149984 153 156 159
0.29060980 0.20979689 0.88149989 156 159 161
0.29060980 0.22960370 0.88149989 151 156 158
0.29060980 0.24941052 0.88149989 155 161 162
0.29060980 0.26997914 0.88149989 148 156 156
0.29060980 0.29054775 0.88149989 134 140 142
0.29060980 0.31035457 0.88149989 129 136 137
0.29060980 0.33016138 0.88149989 142 150 151
0.29060980 0.34996820 0.88149989 130 138 139
0.29060980 0.36977502 0.88149989 59 60 60
0.29060980 0.38958183 0.88149989 0 0 0
0.29060980 0.40938865 0.88149989 0 0 0
0.29060980 0.42995726 0.88149989 0 0 0
0.29060980 0.45052588 0.88149989 0 0 0
0.29060980 0.47033270 0.88149989 0 0 0
0.29060980 0.49013951 0.88149989 0 0 0
0.29060980 0.50080472 0.88149989 0 0 0
0.31041661 -0.58780836 0.88149989 0 0 0
0.31041660 -0.57028691 0.88149983 0 0 0
0.31041659 -0.55048009 0.88149983 0 0 0
0.31041659 -0.52991147 0.88149983 0 0 0
0.31041656 -0.50934280 0.88149973 89 113 118
0.31041655 -0.48953598 0.88149971 116 132 133
0.31041659 -0.46972923 0.88149983 149 142 131
0.31041659 -0.44992241 0.88149983 150 142 131
0.31041659 -0.43011560 0.88149983 146 139 126
0.31041659 -0.41030878 0.88149983 146 139 126
0.31041659 -0.39050197 0.88149983 143 136 123
0.31041659 -0.36993335 0.88149983 145 136 123
0.31041659 -0.34936474 0.88149983 144 134 118
0.31041659 -0.32955793 0.88149983 144 134 120
0.31041659 -0.30975111 0.88149983 145 134 121
0.31041659 -0.28994430 0.88149983 144 133 122
0.31041659 -0.27013748 0.88149983 149 136 127
0.31041659 -0.25033067 0.88149983 146 135 125
0.31041659 -0.23052385 0.88149983 147 136 125
0.31041659 -0.20995524 0.88149983 146 134 123
0.31041659 -0.18938662 0.88149983 144 132 122
0.31041659 -0.16957981 0.88149983 145 132 119
0.31041659 -0.14977299 0.88149983 144 133 121
0.31041659 -0.12996618 0.88149983 144 133 121
0.31041659 -0.11015936 0.88149983 145 132 122
0.31041659 -0.09035255 0.88149983 146 133 123
0.31041659 -0.07054573 0.88149983 144 132 118
0.31041659 -0.04997712 0.88149983 139 123 113
0.31041659 -0.02940850 0.88149983 141 126 114
0.31041659 -0.00960169 0.88149983 137 123 112
0.31041659 0.01020513 0.88149983 138 122 110
0.31041659 0.03001194 0.88149983 139 122 109
0.31041659 0.04981876 0.88149983 138 121 109
0.31041659 0.06962557 0.88149983 136 119 107
0.31041659 0.08943238 0.88149983 134 117 106
0.31041659 0.11000100 0.88149983 135 116 107
0.31041659 0.13056961 0.88149983 129 111 103
0.31041659 0.15037643 0.88149983 152 155 157
0.31041659 0.17018324 0.88149983 153 156 159
0.31041660 0.18999006 0.88149985 153 158 160
0.31041661 0.20979689 0.88149989 146 153 155
0.31041661 0.22960370 0.88149989 152 159 162
0.31041661 0.24941052 0.88149989 144 151 153
0.31041661 0.26997914 0.88149989 152 159 160
0.31041661 0.29054775 0.88149989 144 147 148
0.31041661 0.31035457 0.88149989 153 161 161
0.31041661 0.33016138 0.88149989 139 147 148
0.31041661 0.34996820 0.88149989 135 144 145
0.31041661 0.36977502 0.88149989 63 66 66
0.31041661 0.38958183 0.88149989 0 0 0
0.31041661 0.40938865 0.88149989 0 0 0
0.31041661 0.42995726 0.88149989 0 0 0
0.31041661 0.45052588 0.88149989 0 0 0
0.31041661 0.47033270 0.88149989 0 0 0
0.31041661 0.49013951 0.88149989 0 0 0
0.31041661 0.50080472 0.88149989 0 0 0
0.33022343 -0.58780836 0.88149989 0 0 0
0.33022342 -0.57028692 0.88149986 0 0 0
0.33022341 -0.55048009 0.88149983 0 0 0
0.33022340 -0.52991147 0.88149982 12 17 18
0.33022335 -0.50934277 0.88149968 96 123 129
0.33022336 -0.48953597 0.88149970 118 132 132
0.33022341 -0.46972923 0.88149983 149 143 128
0.33022341 -0.44992241 0.88149983 149 142 127
0.33022341 -0.43011560 0.88149983 145 139 124
0.33022341 -0.41030878 0.88149983 145 139 124
0.33022341 -0.39050197 0.88149983 144 136 122
0.33022341 -0.36993335 0.88149983 147 138 126
0.33022341 -0.34936474 0.88149983 143 134 120
0.33022341 -0.32955793 0.88149983 147 138 124
0.33022341 -0.30975111 0.88149983 141 131 118
0.33022341 -0.28994430 0.88149983 148 137 123
0.33022341 -0.27013748 0.88149983 150 139 128
0.33022341 -0.25033067 0.88149983 143 133 121
0.33022341 -0.23052385 0.88149983 149 138 126
0.33022341 -0.20995524 0.88149983 145 134 123
0.33022341 -0.18938662 0.88149983 146 135 126
0.33022341 -0.16957981 0.88149983 144 132 121
0.33022341 -0.14977299 0.88149983 144 133 122
0.33022341 -0.12996618 0.88149983 145 134 122
0.33022341 -0.11015936 0.88149983 144 132 120
0.33022341 -0.09035255 0.88149983 144 130 119
0.33022341 -0.07054573 0.88149983 143 131 118
