ply
format ascii 1.0
element vertex 1072
property float x
property float y
property float z
property uchar red
property uchar green
property uchar blue
end_header
-0.32144868 0.33786605 0.95612864 117 117 118
-0.33257926 0.33998454 0.96565789 93 95 98
-0.33432748 0.32319572 1.29765015 110 111 115
-0.33792374 0.32541257 1.30113602 106 106 114
-0.33077383 0.34649400 0.95533144 113 114 118
-0.33621454 0.34780412 0.96237104 116 118 121
-0.30870314 -0.30446103 1.01660985 78 86 107
-0.31110678 -0.29008439 1.01505403 75 85 106
-0.30019659 0.03808537 0.60043561 132 133 137
-0.31798277 0.07068769 0.61046797 149 149 145
-0.30393773 0.25890788 0.75357719 95 96 102
-0.31217849 0.25946429 0.76124880 111 113 115
-0.30776706 0.26512802 0.75298177 113 114 115
-0.31604354 0.26370358 0.76191112 108 110 111
-0.31853446 0.30424079 1.26002204 120 121 122
-0.31729518 0.33766377 0.95531779 126 126 125
-0.31953031 0.33687583 0.96154869 111 112 113
-0.31287319 0.34105084 0.93502678 133 128 131
-0.31756536 0.34548410 0.95201621 129 127 128
-0.31614401 0.35213625 0.96236974 126 126 128
-0.28223228 -0.54613755 1.61788034 85 90 107
-0.28581676 -0.54245240 1.62499485 85 90 105
-0.28297083 -0.53179558 1.61677974 86 88 102
-0.28524338 -0.53763339 1.62175083 84 89 104
-0.28428296 -0.34703565 1.61788034 81 88 105
-0.28950418 -0.34507216 1.62467076 83 89 106
-0.28176622 -0.33081668 1.61788034 84 86 107
-0.28991282 -0.32964248 1.62898202 81 85 103
-0.28297179 -0.31023041 1.61677974 81 85 99
-0.28959943 -0.30980407 1.62974332 81 86 99
-0.29437068 -0.30725273 1.64138460 82 89 102
-0.29960979 -0.29224742 1.01215693 74 82 106
-0.28364814 -0.29400194 1.61531838 81 86 101
-0.28384185 -0.29797134 1.62175083 84 88 102
-0.29351278 0.03183059 0.59719655 142 143 143
-0.29756082 0.03810226 0.60070178 128 125 127
-0.29202628 0.04110849 0.59910960 141 141 141
-0.28562664 0.25663585 0.73676324 120 123 122
-0.29320574 0.25693502 0.74719457 99 101 104
-0.28842969 0.26321856 0.73676818 113 116 115
-0.29117487 0.26571456 0.74328474 115 117 115
-0.26712810 -0.56516519 1.63559890 91 93 107
-0.26376879 -0.57178751 1.64337852 91 94 107
-0.27064081 -0.54942160 1.63290802 84 91 103
-0.26357582 -0.54724342 1.64218140 84 90 103
-0.27734915 -0.52893917 1.61659630 83 90 97
-0.27111364 -0.53165254 1.62956655 82 89 102
-0.26174518 -0.53846827 1.64138460 81 88 105
-0.27001191 -0.51427770 1.61567913 82 89 106
-0.26702346 -0.51801193 1.62175083 85 89 106
-0.27833949 -0.34246246 1.61019897 81 84 99
-0.27733683 -0.33461049 1.61326330 83 84 107
-0.27663396 -0.32680285 1.62175083 84 87 106
-0.27785492 -0.31265640 1.61233446 84 88 101
-0.27823570 -0.30357745 1.62175083 80 86 99
-0.27706182 -0.28684625 1.59880149 77 86 95
-0.27710373 -0.29501560 1.60867181 83 87 100
-0.27593802 0.25536020 0.72971248 126 128 129
-0.27640947 0.26222035 0.73189431 150 151 148
-0.25828281 -0.58103490 1.63741994 95 98 106
-0.25647619 -0.56880693 1.63391696 91 95 108
-0.25890818 -0.57818624 1.64138460 93 96 106
-0.25803387 -0.55106452 1.63584170 83 90 106
-0.25559835 -0.54839778 1.64138460 83 91 104
-0.25188879 -0.52320389 1.62808934 82 90 105
-0.25607118 -0.52853876 1.64138460 81 89 104
-0.24908716 -0.51212021 1.61446436 78 90 107
-0.25861427 -0.51661038 1.62175083 85 89 103
-0.22956663 0.03852895 0.71762541 156 156 157
-0.23378992 0.03946863 0.72039515 177 176 177
-0.22778570 0.04786165 0.71886867 149 148 150
-0.23074643 0.05113285 0.72144461 152 153 153
-0.22175515 0.24575794 0.55913272 120 125 127
-0.22379551 0.25439798 0.56948161 119 120 121
-0.21776277 0.04683995 0.71886730 151 153 160
-0.21605545 0.05502401 0.72372576 147 147 148
-0.20335027 0.11859697 0.48948180 154 154 147
-0.20600332 0.12321003 0.49069396 152 152 147
-0.20319025 0.15759023 0.61025624 135 134 133
-0.20580068 0.16634337 0.60898190 126 126 125
-0.20379183 0.19952061 0.54144749 140 139 138
-0.20104608 0.18610719 0.61458915 120 120 124
-0.20116196 0.18278429 0.94677756 116 117 121
-0.20081015 0.20774767 0.53972280 109 110 110
-0.20936362 0.20797780 0.54692503 124 125 126
-0.21190950 0.24536942 0.55517665 146 147 147
-0.21459691 0.25545211 0.56701380 178 178 174
-0.21700331 0.26164476 0.57188908 190 191 185
-0.18171264 -0.24452694 0.48809928 113 119 127
-0.18097930 -0.23897751 0.48804351 130 140 147
-0.19792202 0.11829650 0.48975383 131 131 132
-0.19907785 0.12132211 0.48932277 143 143 141
-0.19301691 0.17239964 0.59955068 115 116 120
-0.19335224 0.17247757 0.60843987 125 126 127
-0.18604669 0.17728761 0.62078063 127 130 129
-0.18701694 0.17456097 0.92938722 125 127 129
-0.19000134 0.18140891 0.61215260 144 144 140
-0.19078374 0.18156573 0.93448339 116 117 121
-0.19420611 0.18306650 0.94611978 121 122 125
-0.19955964 0.20695146 0.53886506 107 108 108
-0.16025516 -0.24196664 0.47975361 52 42 47
-0.17063671 -0.24593600 0.48428798 76 70 74
-0.16945851 -0.23823491 0.48647497 122 134 138
-0.16133376 0.09683103 0.59516601 127 128 130
-0.16136131 0.10122335 0.59412184 135 136 137
-0.16266515 0.15823431 0.68474711 97 95 106
-0.17458294 0.15904404 0.91607256 109 108 115
-0.16987963 0.15928735 0.93373531 99 98 109
-0.16673880 0.16411923 0.67970455 95 96 101
-0.16374833 0.16554066 0.68498459 121 123 126
-0.17445834 0.16967030 0.91574517 119 122 126
-0.17015435 0.16718606 0.92920164 128 128 133
-0.17577060 0.16173793 0.94810051 110 110 115
-0.15334175 -0.24325637 0.47896780 59 46 48
-0.15768132 -0.24491531 0.48175102 57 44 46
-0.14765608 -0.22660343 0.46936460 107 118 122
-0.15880006 -0.23625754 0.48163085 116 126 132
-0.15388256 0.09273024 0.59063278 122 123 126
-0.15584762 0.10118585 0.59348688 123 122 124
-0.15093327 0.15822919 0.50406644 125 128 129
-0.15638560 0.15806613 0.67781885 148 147 147
-0.15917078 0.15732439 0.68336982 110 109 113
-0.15066883 0.16270683 0.50411692 122 125 127
-0.15398639 0.16600997 0.67760462 133 133 135
-0.15609838 0.16998473 0.68249211 126 125 126
-0.15895569 0.16606143 0.92650406 147 147 146
-0.06289037 -0.14335459 1.49976075 56 58 67
-0.06360597 -0.14312236 1.50643126 55 57 66
-0.06803723 -0.12902545 1.49893305 53 54 62
-0.06329885 -0.12992270 1.50937505 55 56 63
-0.06864503 -0.10758231 1.49810901 56 58 65
-0.06616816 -0.11581121 1.50812441 57 57 65
-0.06275411 0.33242590 0.81715734 188 187 178
-0.06495487 0.33214886 0.82340323 197 196 187
-0.06515235 0.34701650 0.82735348 154 153 147
-0.04785235 -0.14431936 0.55830103 149 149 156
-0.05252105 -0.14305751 0.56138214 123 123 130
-0.05550521 -0.14408953 1.51053691 56 57 65
-0.04723076 -0.13854694 0.55906906 63 63 72
-0.05192626 -0.13811720 0.56138366 59 59 68
-0.05118489 -0.12969066 1.51528588 58 58 68
-0.04745605 -0.11575253 1.51738667 63 63 72
-0.05199733 0.33292852 0.81576422 166 162 155
-0.05242681 0.33134781 0.82385099 169 166 161
-0.05661954 0.34289058 0.81634241 118 112 114
-0.05572326 0.34021775 0.82118970 147 143 137
-0.01085405 0.12964753 0.47239912 181 177 174
-0.01124136 0.15422807 0.65515641 193 189 185
-0.01400222 0.15382372 0.66071332 205 201 197
-0.00366701 0.17526605 0.59376694 154 152 149
-0.00431689 0.17002335 0.60173940 162 157 155
-0.01128161 0.16353743 0.65729854 180 177 172
-0.01547509 0.16595025 0.66563348 200 196 191
-0.00487671 0.18163196 0.59187000 166 163 156
-0.00156490 0.18719356 0.92807503 201 200 194
0.01810395 -0.54569257 1.11729476 203 206 207
0.01549325 -0.54703281 1.12210712 204 206 207
0.01836203 -0.53314713 1.11638366 204 205 206
0.01615183 -0.53383675 1.12066784 204 206 207
0.01893816 -0.28299817 0.79751980 73 72 82
0.00658391 -0.26192401 0.71669933 199 202 203
0.00997870 -0.24901846 0.71660932 65 66 72
0.01293256 -0.23476519 0.71658114 74 74 82
0.01967902 -0.20168095 0.82871866 48 48 57
0.01815421 -0.19463464 0.82761074 64 63 74
0.01493963 -0.16802398 0.82783604 174 175 183
0.01425769 -0.15345955 0.82842429 202 203 211
0.01803696 -0.10924359 0.82946709 58 58 68
0.00940877 -0.02822674 0.75623137 61 61 69
0.01103044 -0.01842026 0.75581905 58 58 68
0.00504516 0.13465395 0.47436941 160 158 157
0.00741861 0.14092636 0.47566760 168 163 162
0.01410239 0.17892083 0.47701641 162 163 159
0.01393270 0.17953722 0.48157410 160 159 156
0.00423126 0.17690418 0.57760589 154 154 152
0.00159692 0.17457851 0.58768341 151 148 148
0.01405959 0.17840331 0.91590300 157 156 161
0.01209514 0.17817348 0.92632839 153 151 153
0.01426774 0.18481052 0.47792802 162 161 160
0.00829808 0.18310001 0.48210316 151 150 149
0.01437870 0.18673305 0.89511060 178 178 177
0.01221131 0.18550548 0.91174278 170 169 169
0.00481791 0.18595897 0.92627862 156 153 154
0.02953276 -0.54505799 1.11461189 167 170 171
0.03653433 -0.52184811 1.09869015 76 79 85
0.02816018 -0.52982826 1.10675716 178 179 180
0.02854400 -0.52542049 1.12048233 208 208 206
0.03500983 -0.51689548 1.09767510 89 93 100
0.03114354 -0.51699253 1.10484629 154 155 156
0.03344887 -0.34411855 0.76958182 205 206 207
0.03398014 -0.32895066 0.76935616 204 205 206
0.03315073 -0.31440988 0.77036488 92 92 100
0.02662445 -0.28579544 0.79733099 160 160 168
0.03007188 -0.28330886 0.80034459 200 202 207
0.03376664 -0.27415466 0.79772220 200 201 206
0.03290281 -0.27142685 0.80098451 202 203 207
0.02324146 -0.24099507 0.71759919 200 204 209
0.02425701 -0.23456614 0.71750920 202 203 207
0.03173509 -0.20742087 0.82976248 189 189 197
0.02946817 -0.19065292 0.82901822 203 203 210
0.02838964 -0.16955403 0.82857690 126 126 133
0.02999390 -0.15128678 0.82964543 57 58 68
0.03335528 -0.13017940 0.83470914 124 124 135
0.03053393 -0.10999784 0.83268804 204 204 213
0.03890639 -0.10301838 0.84184243 205 205 214
0.03298838 -0.09797109 0.83432940 205 205 214
0.03901531 -0.09966143 0.84419906 207 207 216
0.03633836 0.17323190 0.49076838 157 154 150
0.03186605 0.17649747 0.50068971 147 148 144
0.02476157 0.18614097 0.47434662 153 151 146
0.03784945 0.18466341 0.49667822 156 151 149
0.03435490 0.18466502 0.50422573 158 155 154
0.04369919 -0.54446107 1.11190637 70 73 78
0.05215978 -0.34734015 0.75654746 197 198 200
0.05620224 -0.34230181 0.76082134 203 206 207
0.04755034 -0.33348226 0.75705651 203 206 207
0.05159099 -0.32796396 0.76880685 196 198 199
0.04908527 -0.31612164 0.76994716 90 91 97
0.05907553 -0.31037974 0.78143385 78 77 83
0.05225768 -0.28421846 0.79273428 177 178 184
0.05273354 -0.27314334 0.79587723 203 204 208
0.05348722 -0.26559410 0.80251832 202 202 207
0.04938022 -0.25879502 0.79940075 202 203 207
0.05286603 -0.24816182 0.81040413 103 104 110
0.05332513 -0.23039238 0.81322964 62 62 69
0.05319133 -0.21638450 0.81583317 74 73 86
0.05336129 -0.20628499 0.82616540 199 199 206
0.05404525 -0.19171828 0.82908950 205 206 212
0.05539089 -0.16766542 0.82867892 96 96 105
0.05300881 -0.15227148 0.83211336 55 56 65
0.05346973 -0.12908639 0.83279744 140 140 150
0.04405492 -0.11292221 0.83388749 205 205 214
0.04918135 -0.10255433 0.84126726 205 205 214
0.05320850 -0.09151965 0.84649041 153 154 163
0.05618338 -0.07319919 0.84750668 61 60 70
0.05490993 -0.03032629 0.84607784 214 214 223
0.04758485 0.03078850 0.50575367 137 137 143
0.04121499 0.16837612 0.47941457 170 169 164
0.04068357 0.17307497 0.48250783 160 155 151
0.05716339 0.21344180 0.67857177 161 153 154
0.05874794 0.21697129 0.68335873 176 167 167
0.05846000 0.22979851 0.68791595 168 164 160
0.05762554 0.27271729 0.70881604 150 146 142
0.05772508 0.28317258 0.71155074 123 123 121
0.05729006 0.39601846 1.55338116 171 165 163
0.05699053 0.39562689 1.57103127 173 170 169
0.05275748 0.39487620 1.58987419 166 165 164
0.04925157 0.39897695 1.60637879 166 165 161
0.05624421 0.40398441 1.56921509 169 165 159
0.05255308 0.41016805 1.59017157 167 165 161
0.04931714 0.41177958 1.60868993 172 169 167
0.04714615 0.41092633 1.62957406 170 170 167
0.04453613 0.41275742 1.65039471 165 163 163
0.04253477 0.41470018 1.66968429 157 157 161
0.05445751 0.42689177 1.58833324 131 130 135
0.05192967 0.42704017 1.60334067 132 129 131
0.05002232 0.43201970 1.63151733 142 139 140
0.04618576 0.42806214 1.65282284 169 167 164
0.04478551 0.43427508 1.67279163 173 171 169
0.05020329 0.44489363 1.63741994 133 128 134
0.04818811 0.44823365 1.66558862 136 131 135
0.04593040 0.44708328 1.68842167 148 146 142
0.04415693 0.44899198 1.71013203 166 164 161
0.04680406 0.46301636 1.72053766 139 133 136
0.06144393 -0.34392076 0.75911742 144 145 150
0.06040825 -0.33830582 0.75996846 179 183 182
0.06308890 -0.32501318 0.77395298 157 160 162
0.07408187 -0.32183383 0.78301129 205 206 208
0.06624368 -0.31585880 0.77778509 192 194 197
0.07012603 -0.30876980 0.78626649 198 199 201
0.07739267 -0.28900800 0.79613322 109 109 115
0.07918013 -0.28400053 0.80034459 73 73 78
0.06892532 -0.27161393 0.79659918 91 91 99
0.06734731 -0.26610752 0.80181678 90 90 97
0.06625886 -0.24520246 0.81327706 176 177 180
0.07685775 -0.24262874 0.82430124 202 202 210
0.06826506 -0.23068490 0.81503101 179 180 186
0.06377663 -0.21756077 0.81413903 154 154 163
0.06742083 -0.20417837 0.82735482 107 106 113
0.06995314 -0.19007034 0.83069994 80 81 90
0.06946758 -0.16973566 0.83260269 151 151 160
0.06838515 -0.15115440 0.83565646 178 179 188
0.07657126 -0.14562817 0.84001470 202 201 210
0.06702276 -0.13037374 0.83482578 116 116 124
0.07189102 -0.11100358 0.83639517 54 55 67
0.07199181 -0.10134268 0.84242163 55 55 66
0.06968325 -0.08979927 0.84784981 133 133 144
0.06999911 -0.07068792 0.84749855 192 191 200
0.07081553 -0.05067407 0.84766982 170 170 179
0.06971198 -0.02986291 0.84756818 85 85 98
0.07276007 -0.01945784 0.84631009 64 64 76
0.07478204 0.21270083 0.67605099 159 160 159
0.06730188 0.21510489 0.68580889 134 134 136
0.07388945 0.22902409 0.67580692 151 151 150
0.06617248 0.22642910 0.68545917 143 142 139
0.06740179 0.24431579 0.67309324 148 143 137
0.06215568 0.25621284 0.69062773 132 129 124
0.06245523 0.26234207 0.69841141 137 135 127
0.06295263 0.27242180 0.70216025 134 133 130
0.07057556 0.28727206 0.70973693 143 144 144
0.06307086 0.39241496 1.53716969 163 154 153
0.06075850 0.39599025 1.54593551 167 158 157
0.06096697 0.40136924 1.55123997 158 152 148
0.09435361 -0.32345944 0.76947598 111 110 120
0.09393162 -0.31143881 0.77393008 205 205 208
0.09550975 -0.30139266 0.78304641 205 206 209
0.08963585 -0.29823583 0.77706676 205 206 208
0.09351785 -0.28917204 0.78772533 151 153 156
0.08148389 -0.28660504 0.80350729 71 72 78
0.08982514 -0.27265490 0.78916052 68 68 76
0.09336783 -0.26665872 0.80302298 70 70 75
0.09339192 -0.24950353 0.80660405 151 152 159
0.08198104 -0.24303855 0.82506385 203 203 209
0.09195680 -0.22987103 0.81307143 202 202 208
0.08207265 -0.23659718 0.82240042 202 202 208
0.09155016 -0.21690144 0.81623683 202 202 208
0.09430420 -0.20822882 0.82532622 90 90 98
0.09430620 -0.19100101 0.83033202 61 60 68
0.09454750 -0.16936075 0.83142274 158 158 167
0.09281898 -0.15123273 0.83184177 202 202 210
0.09613702 -0.12906469 0.84445160 106 106 114
0.09382944 -0.11085784 0.84329668 52 52 61
0.09413600 -0.09114181 0.84565446 115 115 126
0.09372148 -0.07030532 0.84635847 208 207 216
0.09655034 -0.05025908 0.84855571 164 164 173
0.09659382 -0.03155804 0.84827207 67 65 76
0.09218833 0.15937552 0.55564961 132 129 129
0.09682949 0.15875730 0.81502016 137 132 137
0.09249497 0.16214888 0.55559916 125 120 123
0.09827304 0.16429758 0.56764671 123 123 125
0.09947579 0.16290501 0.58288205 129 130 131
0.09688859 0.17144446 0.81792618 175 173 174
0.09472631 0.16492639 0.82118970 174 172 172
0.09714931 0.18755492 0.77676351 175 175 171
0.09340100 0.19161609 0.78707999 169 168 167
0.09584526 0.18135085 0.81597668 174 173 172
0.08306770 0.21191970 0.67210741 170 167 162
0.08175687 0.20735820 0.68152728 183 182 178
0.09459474 0.20295406 0.77918601 171 170 169
0.09491533 0.20466755 0.78501031 167 164 162
0.08206244 0.22596238 0.65575341 179 179 170
0.08267576 0.22454554 0.66963449 150 150 147
0.10457807 -0.32176141 0.77105184 125 125 133
0.10700606 -0.31122695 0.77513711 86 87 94
0.11033387 -0.30255815 0.78158432 70 71 77
0.10596781 -0.29060861 0.78848184 127 128 136
0.10627099 -0.27264685 0.79093391 187 188 193
0.10891639 -0.26625488 0.80424763 182 183 188
0.10981676 -0.24946941 0.80554910 132 132 138
0.10405212 -0.22747649 0.49221862 73 74 77
0.10995890 -0.23018839 0.81312652 88 89 97
0.10449351 -0.21851023 0.49256603 63 63 67
0.10981708 -0.21844701 0.81882873 99 99 109
0.10997834 -0.20888821 0.82534871 159 159 167
0.10879147 -0.19074830 0.83016235 163 164 170
0.10613440 -0.16931592 0.83301738 124 124 134
0.10577312 -0.15133008 0.83336832 126 126 135
0.10663670 -0.12910524 0.84446636 147 147 156
0.10817926 -0.10937269 0.84409044 154 154 162
0.10953299 -0.09033833 0.84650709 136 136 146
0.11009533 -0.06994304 0.84656193 98 98 107
0.11009791 -0.04965512 0.84891872 131 131 140
0.11019739 -0.02970666 0.84778327 179 179 186
0.11459088 -0.01948216 0.84736811 214 214 223
0.10214940 0.15826552 0.81249547 144 143 146
0.10926125 0.16721391 0.57741847 144 143 143
0.11088309 0.16441685 0.58252822 148 146 145
0.10242679 0.16988114 0.81700082 171 167 167
0.11029447 0.18859408 0.77396812 155 152 150
0.10849408 0.19772227 0.78068248 144 138 138
0.10618082 0.20449899 0.78537797 138 134 136
0.13174593 -0.34500131 0.74438318 181 182 184
0.13359369 -0.32900039 0.74593700 171 172 175
0.13344801 -0.31922499 0.75674480 179 181 183
0.13217468 -0.30657842 0.76535849 78 79 84
0.13143337 -0.29706101 0.76968928 69 69 73
0.12873207 -0.28174829 0.78369396 205 205 209
0.12677862 -0.28348346 0.83128886 205 206 210
0.12706286 -0.29058474 0.84950616 205 206 210
0.12420702 -0.26999901 0.77696383 205 206 209
0.13105135 -0.26920789 0.78441641 205 206 209
0.12536184 -0.26436989 0.81734293 203 205 208
0.12589518 -0.27322552 0.82516155 204 206 209
0.12801760 -0.24820952 0.79765661 105 105 109
0.12697839 -0.24764837 0.80645842 98 99 103
0.12675539 -0.23392445 0.79940075 59 59 61
0.13163684 -0.23369295 0.80560608 61 61 67
0.12475689 -0.22922087 0.83099505 60 59 65
0.12657308 -0.22294074 0.84184156 66 63 73
0.12425296 -0.21274648 0.83845654 203 203 210
0.12667229 -0.21433002 0.84315730 193 193 200
0.13557727 -0.18703787 0.81182224 204 204 210
0.13687793 -0.17807784 0.81576141 202 203 208
0.13914782 -0.16842307 0.82368392 52 51 64
0.13933840 -0.14825672 0.82905840 57 57 65
0.13901923 -0.13839096 0.83142934 58 58 64
0.12349130 -0.10267242 0.85307380 204 204 213
0.12809190 -0.10625615 0.86840939 204 204 213
0.12974228 -0.08833399 0.84984509 105 105 115
0.12786093 -0.09767841 0.86393207 202 202 210
0.12720379 -0.07220313 0.83880223 51 51 61
0.12712508 -0.06992654 0.84790081 53 52 62
0.13361326 -0.04329912 0.83357854 198 198 209
0.12713577 -0.05103645 0.84882975 103 102 112
0.12653136 -0.04287882 0.86136262 215 215 223
0.13417899 -0.02939201 0.83532369 210 209 218
0.12095593 -0.03034088 0.84653625 216 216 225
0.12871047 -0.03873327 0.86853570 214 214 223
0.13502784 -0.01921203 0.83561866 198 198 203
0.13403061 0.18501465 0.51787001 173 170 162
0.13364234 0.18693298 0.52882946 140 140 138
0.12837000 0.19474991 0.54937042 139 134 132
0.14387610 -0.34337047 0.74520010 74 76 82
0.14558781 -0.33031313 0.74472885 69 70 76
0.14782972 -0.31268559 0.75791373 161 160 168
0.14673633 -0.30795253 0.76313452 201 202 204
0.15533648 -0.28890845 0.75277838 202 203 205
0.14549691 -0.29833728 0.76652243 203 204 205
0.15943535 -0.27837425 0.75154305 202 202 203
0.15420753 -0.24054927 0.79845917 205 205 211
0.15238464 -0.24038397 0.80097524 204 205 210
0.15615472 -0.23700401 0.79752381 204 205 209
0.15084904 -0.23174294 0.80278834 189 190 193
0.14612258 -0.18931591 0.81059537 132 131 138
0.14339327 -0.17701138 0.81763497 177 178 183
0.14935237 -0.16573839 0.82619839 157 158 164
0.14999021 -0.15001172 0.83052997 157 157 162
0.14916592 -0.13695842 0.83239872 150 150 158
0.14967529 -0.08906062 0.84795042 135 135 143
0.14828435 -0.02466212 0.83789810 119 118 125
0.15033538 -0.01741424 0.83751550 98 97 104
0.15766682 0.17197984 0.69243294 147 146 144
0.15101273 0.17490872 0.77054352 160 157 155
0.14976367 0.17165749 0.78388400 147 147 148
0.15456456 0.18884622 0.77381221 165 162 161
0.14935488 0.18521661 0.78315482 158 156 158
0.14138722 0.20925110 0.45462149 0 0 0
0.14367707 0.21600859 0.46960522 0 0 0
0.14672804 0.22547982 0.49006680 0 0 0
0.14982316 0.23497508 0.51070425 0 0 0
0.15269715 0.24379193 0.52986722 0 0 0
0.15579525 0.25329632 0.55052450 0 0 0
0.15765911 0.25997093 0.56396991 0 0 0
0.15913862 0.26355972 0.57282421 0 0 0
0.15989444 0.26508763 0.67653877 167 166 162
0.17195959 -0.30387117 0.76648399 197 197 198
0.17188098 -0.29006938 0.76696968 193 193 195
0.16909218 -0.27543430 0.76581129 75 76 79
0.17950091 -0.25685116 0.77077048 150 143 149
0.16067407 -0.24058609 0.80318940 205 206 210
0.16086489 -0.23878615 0.80414331 205 206 208
0.17528385 -0.20521962 0.79881808 88 88 94
0.17864161 -0.20930067 0.80034459 136 138 141
0.17402621 -0.19535086 0.79916535 54 54 60
0.17534906 -0.18849311 0.80157436 53 51 57
0.17582760 -0.16254731 0.81380363 202 202 206
0.16442810 -0.16398174 0.83284068 204 204 209
0.17551718 -0.15475967 0.81727180 202 202 208
0.16838507 -0.15252560 0.83123146 203 203 209
0.16789230 -0.14724121 0.84451106 204 204 209
0.16132852 -0.08791574 0.85055441 193 192 201
0.16231454 -0.02322062 0.83882692 49 48 54
0.16625657 -0.02195892 0.84126741 49 48 52
0.16203241 -0.01602647 0.83897507 50 46 53
0.16409833 -0.01686681 0.84210689 49 47 53
0.17892642 0.05121056 0.87923717 147 147 154
0.17684442 0.05218555 0.88515209 151 150 153
0.17726393 0.06549061 0.88321684 147 146 148
0.17772476 0.16779221 0.65708827 161 156 156
0.17298610 0.16939361 0.66852078 155 151 151
0.16430289 0.16830377 0.68984473 157 154 155
0.16141983 0.19497513 0.76896381 160 154 154
0.16752620 0.25650280 0.65655106 128 125 126
0.16344714 0.25835439 0.66486022 155 149 147
0.16184586 0.27166188 0.59065927 0 0 0
0.16404534 0.27860603 0.60553393 0 0 0
0.17174371 0.26210667 0.65867443 132 129 129
0.16573224 0.26662219 0.66756295 151 145 140
0.16536212 0.28264566 0.61431381 0 0 0
0.16741565 0.28894548 0.62800622 0 0 0
0.16990908 0.29696280 0.64502317 0 0 0
0.16467559 0.28365216 0.67721668 0 0 0
0.16455203 0.28814882 0.68129832 0 0 0
0.17144594 0.30020577 0.65370476 0 0 0
0.17335233 0.30715806 0.66759038 0 0 0
0.17661047 0.31715341 0.68931478 0 0 0
0.17918937 0.32506493 0.70651013 0 0 0
0.18755871 -0.30360237 0.76838312 120 121 121
0.18641597 -0.29036068 0.76872790 120 120 121
0.18590200 -0.26677143 0.76982601 115 114 114
0.18545735 -0.25661033 0.77271607 120 118 119
0.18156280 -0.20260592 0.79940075 79 78 87
0.18336033 -0.20587313 0.80046283 113 109 112
0.18432620 -0.19846082 0.79940075 131 119 121
0.18393312 -0.18896919 0.80138861 98 89 88
0.18880384 -0.16313059 0.81364867 133 129 131
0.18721207 -0.15143729 0.81556971 149 147 151
0.18630945 -0.14106628 0.82293813 177 175 180
0.18670768 -0.13967617 0.81379575 140 138 138
0.18612896 -0.13994965 0.82368392 201 200 204
0.18269708 0.05828382 0.88278974 155 151 152
0.18362009 0.06518260 0.87866788 147 147 149
0.18261335 0.06274279 0.88114298 151 149 150
0.18373602 0.16928313 0.65741018 164 162 163
0.18482337 0.17437270 0.66293752 173 173 172
0.18050671 0.33032247 0.71658754 0 0 0
0.18238539 0.33446430 0.72738904 0 0 0
0.18576581 0.34524010 0.75035992 0 0 0
0.18882770 0.35463339 0.77077579 0 0 0
0.19152068 0.36334619 0.78921189 0 0 0
0.19492145 0.37287643 0.81092707 0 0 0
0.19789996 0.38246517 0.83126697 0 0 0
0.19976835 0.38963223 0.84525168 0 0 0
0.20957713 0.15856571 0.51671753 147 146 142
0.20845141 0.16651204 0.51738090 154 152 146
0.21026087 0.17644501 0.52297284 118 113 113
0.20102161 0.39060649 0.85055441 0 0 0
0.20299190 0.39808616 0.86521855 0 0 0
0.20640602 0.40906891 0.88852431 0 0 0
0.20921119 0.41563869 0.90506256 0 0 0
0.21074186 0.42342147 0.91855264 0 0 0
0.21298430 0.42875804 0.93186337 0 0 0
0.21528007 0.43418881 0.94545585 0 0 0
0.21774849 0.44335617 0.96361107 0 0 0
0.23833774 0.31294057 1.72931588 151 148 151
0.23962782 0.32167372 1.76075804 139 139 148
0.22111195 0.45367448 0.98603752 0 0 0
0.22463568 0.46448451 1.00953275 0 0 0
0.22833145 0.47582228 1.03417498 0 0 0
0.23130438 0.48673683 1.05590630 0 0 0
0.23311995 0.48871800 1.06419444 0 0 0
0.23534462 0.49917740 1.08289433 0 0 0
0.23723949 0.50130975 1.09161329 0 0 0
0.23959680 0.51227057 1.11129808 0 0 0
0.25851693 0.19614036 0.93399503 153 150 151
0.25922838 0.20074050 0.93890840 139 138 146
0.25296453 0.20840295 0.94704113 156 155 154
0.24719772 0.21222889 0.96154869 165 165 165
0.24742976 0.31234523 1.73312306 165 157 159
0.24928416 0.31443856 1.74315157 169 161 161
0.25258491 0.32313383 1.75217312 151 144 145
0.25130533 0.32988146 1.77210967 147 143 144
0.25172510 0.33701461 1.79052558 134 131 134
0.25350479 0.34532107 1.79439115 141 139 143
0.25159594 0.34495422 1.80290389 120 115 125
0.24157694 0.51456755 1.12048233 0 0 0
0.24511404 0.52730736 1.14607596 0 0 0
0.24880742 0.54063159 1.17282331 0 0 0
0.25097850 0.54330432 1.18305731 0 0 0
0.25494522 0.55746707 1.21162713 0 0 0
0.25909767 0.57231694 1.24156010 0 0 0
0.27813931 -0.34069437 0.78855290 107 109 112
0.27801346 -0.32866191 0.78556016 103 107 111
0.27692240 0.13996057 0.47438198 130 130 129
0.27690248 0.14402826 0.47411389 142 141 139
0.26514479 0.19672486 0.93389925 173 170 169
0.26446316 0.19939385 0.94021058 175 169 169
0.26855546 0.20501561 0.93659092 179 175 174
0.26571740 0.20731027 0.94437982 164 161 161
0.27140788 0.31640933 1.72834810 139 138 141
0.27933225 0.30932993 1.74265254 140 139 141
0.27060293 0.32579112 1.73218439 121 123 127
0.26388119 0.33023323 1.74806080 122 122 129
0.26172873 0.33516202 1.77305766 137 137 138
0.26149228 0.57544059 1.25303483 0 0 0
0.26470876 0.58959442 1.27904117 0 0 0
0.26722980 0.59297782 1.29122257 0 0 0
0.27066919 0.60794759 1.31885576 0 0 0
0.27332801 0.61161762 1.33181107 0 0 0
0.27841733 0.62947366 1.36813140 0 0 0
0.28112099 -0.32901611 0.77918601 106 107 112
0.28183920 -0.32473327 0.78204015 104 107 110
0.28211465 -0.31825158 0.78335456 103 104 109
0.28132684 0.14298330 0.47265405 134 134 135
0.29686826 0.14226353 0.76425236 168 164 163
0.29547964 0.27251336 0.71517634 163 163 157
0.29483180 0.27618723 0.72257502 164 164 162
0.28832398 0.28975405 0.71475100 149 146 141
0.29126727 0.28717657 0.72726933 154 153 148
0.28340361 0.31555330 1.73276594 144 142 145
0.28397316 0.30984073 1.74895906 145 142 145
0.28717285 0.30685414 1.76305068 147 142 149
0.29133976 0.30512565 1.78863287 174 171 171
0.29445559 0.30689260 1.81740439 176 176 175
0.29839680 0.30771756 1.82228994 181 180 179
0.28327096 0.32753229 1.71184814 155 156 155
0.28291825 0.32565578 1.72981734 137 137 139
0.28377718 0.64830923 1.40641463 0 0 0
0.28675178 0.65264857 1.42115688 0 0 0
0.29100627 0.67056876 1.45470357 0 0 0
0.29416251 0.67530012 1.47048128 0 0 0
0.29874942 0.69441122 1.50642633 0 0 0
0.31069649 0.13877014 0.77639201 143 139 139
0.31276640 0.13430555 0.78229866 157 156 156
0.31061877 0.14786718 0.75911806 152 151 152
0.30867453 0.14401362 0.77226066 146 143 143
0.30008724 0.30956081 1.85216355 175 174 174
0.30210614 0.69958061 1.52335250 0 0 0
0.30706349 0.72001165 1.56196272 0 0 0
0.31064230 0.72567219 1.58016741 0 0 0
0.31601405 0.74757189 1.62175083 0 0 0
0.31983989 0.75378537 1.64138460 0 0 0
0.33570209 0.03854291 0.58155961 153 152 149
0.33432571 0.04615308 0.57885440 149 148 147
0.32939570 0.04906084 0.58090931 148 148 147
0.32567710 0.77732599 1.68629813 0 0 0
0.32977882 0.78416467 1.70753610 0 0 0
0.33614123 0.80954677 1.75619650 0 0 0
0.34043911 0.04463709 0.57771719 150 150 147
0.34110153 0.05190540 0.58088416 150 150 148
0.35857561 0.16577487 0.45092694 117 117 117
0.35843915 0.39264029 1.16676736 176 171 167
0.34055251 0.81709546 1.77924371 0 0 0
0.34751034 0.84455419 1.83214009 0 0 0
0.35227075 0.85291332 1.85723794 0 0 0
0.35990721 0.88272613 1.91494870 0 0 0
0.36905280 -0.24743269 1.69812751 49 49 53
0.37624242 -0.24837059 1.70600388 50 50 53
0.37077088 -0.22679788 1.69743440 46 46 52
0.37646926 -0.23224463 1.70512285 46 46 51
0.37184514 -0.21094194 1.69511269 49 48 55
0.37664177 -0.20343085 1.70324588 50 49 58
0.36923742 -0.19763522 1.69897699 58 57 66
0.37462466 -0.19553798 1.70631032 52 52 61
0.37561082 0.19772562 0.49380273 135 137 134
0.37073812 0.20307426 0.49005650 149 149 144
0.37941170 0.35112450 1.08810890 166 163 153
0.37603572 0.35972026 1.10587126 166 164 157
0.37681098 0.36237509 1.10813747 160 158 155
0.37835105 0.37014568 1.13260751 158 157 154
0.37464796 0.37631155 1.15055762 146 146 146
0.36436120 0.37839454 1.16638443 158 158 153
0.36347149 0.38509704 1.15709840 167 166 159
0.36349067 0.38687605 1.16624808 170 169 163
0.36578710 0.38777455 1.18964486 168 168 161
0.37070557 0.39133843 1.21354526 170 168 162
0.37184694 0.39397446 1.22418663 172 171 164
0.37566623 0.39815235 1.24383819 172 169 165
0.36822369 0.40367983 1.19192609 169 167 163
0.37601197 0.41431838 1.20867063 166 165 162
0.37270032 0.40644834 1.23121443 169 168 165
0.37630931 0.41011911 1.25075686 168 166 165
0.37957197 0.42125806 1.20836341 167 167 162
0.37802315 0.42023599 1.22363150 165 164 162
0.36506346 0.89201540 1.94238353 0 0 0
0.39043013 -0.24528187 1.71083354 96 86 85
0.38245186 -0.22112757 1.69897699 61 59 60
0.39012053 -0.23092346 1.70768347 96 83 81
0.38245186 -0.21378621 1.69897699 67 66 68
0.39105975 -0.21219234 1.70407624 94 87 85
0.39828426 0.13783984 0.48407750 170 171 162
0.39813132 0.14153758 0.48375393 168 169 157
0.38063696 0.19787464 0.49517301 164 167 160
0.39285526 0.23912481 0.56280160 161 159 151
0.39428315 0.24444899 0.55850646 151 149 139
0.39236316 0.24628637 0.56235856 156 154 145
0.38186347 0.35528633 1.09514034 168 165 156
0.38306484 0.35817954 1.10405838 166 164 151
0.38595523 0.36635876 1.11102078 149 147 143
0.38593484 0.37571803 1.13041452 145 144 139
0.38082355 0.37679136 1.14315653 151 152 150
0.39266273 0.38179991 1.13455415 151 145 136
0.38605214 0.38597740 1.15457980 138 137 134
0.38894573 0.39239798 1.16753909 134 134 129
0.39036211 0.39746229 1.18720478 127 127 126
0.39643620 0.40512783 1.19314779 123 122 120
0.38888760 0.41523321 1.21211140 139 137 136
0.39661228 0.41847641 1.22882402 127 122 122
0.38302473 0.42346914 1.21269441 168 165 159
0.39810416 0.42850721 1.23343599 146 143 139
0.39931485 0.42932554 1.24383819 147 142 140
0.40162256 -0.24647310 1.71184814 70 61 64
0.41387383 -0.18537052 0.73031251 88 94 99
0.41393790 -0.17510662 0.73078248 88 92 99
0.41571506 0.10934268 0.49861619 153 150 144
0.41673252 0.11088599 0.50118081 157 155 147
0.40622158 0.13156367 0.49151715 150 149 143
0.41081420 0.12434880 0.50065869 142 143 133
0.40133055 0.14250679 0.48490183 169 170 160
0.40159845 0.24242513 0.56397128 124 114 113
0.40450493 0.41641786 1.19684832 150 150 149
0.40391466 0.41842365 1.20621324 128 128 126
0.41155194 0.42947810 1.21361387 162 161 157
0.40926314 0.43251998 1.22720600 133 131 129
0.41608090 0.44639118 1.22905082 140 141 138
0.41414182 0.44886650 1.25097583 131 130 126
0.41531812 0.45294707 1.26474792 127 127 123
0.43549391 -0.00160106 0.51391189 157 157 154
0.43441031 0.00810682 0.51173268 143 144 142
0.42397693 0.09943720 0.49725166 137 128 128
0.42193930 0.10354662 0.49677268 144 141 137
0.42105978 0.10891235 0.50126901 160 159 150
0.43042696 0.13896120 0.55605814 166 171 161
0.42952889 0.13818645 0.56350724 146 146 140
0.43028704 0.14118015 0.55714944 168 169 160
0.42862934 0.14260448 0.56345203 160 160 152
0.43818834 0.14308312 0.77829212 167 163 159
0.43793802 0.14817940 0.78728692 164 161 155
0.43779299 0.15544079 0.81077988 172 171 167
0.43384444 0.15736281 0.82575225 164 163 160
0.43531520 0.17604133 0.57444341 168 167 163
0.43962073 0.17937394 0.58238131 165 164 161
0.43840116 0.16033927 0.81234023 154 154 152
0.43675917 0.16313281 0.82711871 173 172 166
0.43761995 0.18114843 0.57840645 178 172 166
0.43928872 0.18473532 0.58827629 171 170 163
0.43988898 0.18906941 0.60203540 174 174 165
0.42509453 0.43210311 1.23235102 173 170 164
0.43209377 0.43415468 1.24536816 175 173 165
0.43935594 0.43926725 1.26002204 176 174 165
0.42499000 0.44942896 1.23200645 154 155 150
0.43493791 0.44672227 1.25094821 164 162 156
0.42455865 0.46525631 1.23366028 131 131 125
0.42940379 0.46722823 1.25056507 141 140 134
0.42235740 0.46493980 1.26623546 129 128 125
0.42584363 0.47174205 1.29172482 124 123 121
0.42905567 0.47740945 1.30969379 116 116 116
0.43000269 0.48147196 1.31122488 122 123 121
0.43276250 0.48540625 1.32659853 129 129 130
0.44544584 0.13963491 0.78158259 181 177 171
0.44151349 0.14917865 0.77792980 161 157 153
0.44139540 0.15332016 0.78691647 155 151 147
0.44328216 0.15587817 0.81156960 173 172 167
0.44139717 0.15810204 0.82302154 175 175 168
0.44201250 0.17880248 0.59308429 155 156 149
0.44428056 0.16163128 0.79261085 168 168 163
0.44858568 0.16643738 0.81444103 174 172 168
0.44598350 0.16688460 0.82346528 167 164 159
0.44143584 0.18694033 0.59239229 168 167 159
0.44468572 0.19510566 0.60385235 166 166 160
0.44973289 0.20377523 0.61269766 146 143 142
0.45486594 0.20702082 0.62711767 158 157 150
0.44992038 0.25360181 0.73752158 137 136 131
0.44996248 0.25612067 0.74418488 135 134 129
0.45051438 0.26209093 0.73777601 132 131 125
0.45312876 0.26606042 0.75128297 128 126 121
0.45819789 0.27459660 0.76124880 145 142 136
0.46372265 0.17606754 0.83020611 178 178 173
0.46945369 0.18227476 0.83897507 174 175 168
0.47536589 0.18738816 0.85165673 176 176 168
0.46260460 0.27870017 0.77078977 148 144 140
0.46697384 0.28241292 0.77918601 150 145 142
0.51927349 0.23798433 0.62106562 135 131 127
0.51763444 0.25003381 0.61638098 137 132 118
0.51869495 0.24699549 0.62474556 137 135 128
0.52792669 0.05357580 0.55285130 145 143 139
0.52563018 0.06172233 0.54531469 116 118 116
0.52343562 0.23903258 0.62239821 115 115 110
0.52470527 0.24843166 0.61750182 118 117 108
0.52956291 0.24681303 0.62612146 114 113 108
0.54974679 -0.00144638 0.47202832 144 145 141
0.55100555 0.00234285 0.47278446 137 139 135
0.54303581 0.23930348 0.63891786 160 162 145
0.54129355 0.24924435 0.63226668 124 122 120
0.54703722 0.24303119 0.64806485 165 163 150
0.61328746 0.12929256 0.82522671 163 161 158
0.62895527 0.13341844 0.82825178 154 153 150
0.63191379 0.14155192 0.82857955 170 170 164
0.62675546 0.17599760 0.62982554 149 149 144
0.63116307 0.18696915 0.63175983 144 144 138
0.63368011 0.18775447 0.64012450 129 129 129
0.62911302 0.20057747 0.63001102 157 156 144
0.64146504 0.18916351 0.63741606 131 127 125
0.65599889 0.31932118 0.85700682 143 144 138
0.65619479 0.32982639 0.85670200 126 126 123
0.65666677 0.33070393 0.86615673 126 126 117
0.66006982 0.31870025 0.85484469 162 164 146
0.66096555 0.32476904 0.85740235 138 139 129
0.66085187 0.33157006 0.87255043 121 121 112
0.69066246 0.39252850 0.93416034 124 124 120
0.69176227 0.39734848 0.94296016 125 123 118
0.69256400 0.40434289 0.93137901 133 130 127
0.69697948 0.40850335 0.94521196 136 131 124
0.70682787 0.17707547 0.59842233 123 121 120
0.70815530 0.17926372 0.60230866 137 135 135
0.70823053 0.18216110 0.59960141 140 138 134
0.71412974 0.19065914 0.60661416 157 156 151
0.71877761 0.20733553 0.61269397 135 136 132
0.70177973 0.41559191 0.95198356 144 139 133
0.72334925 0.20827587 0.61433440 143 143 138
0.77986997 0.42849037 1.21704102 160 160 151
0.79531797 0.40352152 1.19910200 164 164 155
0.79356017 0.40853284 1.21058830 157 157 151
0.79745829 0.41420096 1.22142673 160 161 153
0.78684924 0.42559957 1.21604754 126 124 122
0.78813802 0.42665722 1.22423008 152 149 145
0.81713687 0.11908641 0.79339801 115 116 116
0.81598928 0.12626479 0.79147949 154 155 148
0.81995374 0.12754036 0.80034459 154 156 147
0.80657439 0.41021830 1.21373695 157 156 149
0.81563318 0.41255372 1.22298443 152 151 144
0.80023873 0.42083168 1.21922994 144 146 137
0.81206917 0.42396699 1.22707688 153 154 146
0.83814839 -0.12179023 0.93350501 54 55 54
0.83974075 -0.12237157 0.94021058 55 56 54
0.83826271 -0.11211541 0.93486699 57 57 56
0.83980198 -0.11517975 0.94119270 58 58 56
0.82669350 0.11731843 0.79320602 112 114 113
0.82516710 0.12352648 0.79346773 160 161 155
0.82099396 0.12791838 0.80271414 145 147 139
0.83317632 0.41534051 1.22973286 127 127 125
0.83758593 0.41465998 1.24498987 119 118 116
0.83262894 0.42544675 1.23024914 148 145 141
0.83758423 0.43402581 1.24498147 152 150 142
0.84071628 -0.12302991 0.93288024 55 55 55
0.84126228 -0.12108260 0.94282776 55 56 54
0.84246350 -0.11380619 0.93288408 58 58 57
0.84313233 -0.10604405 0.94800989 58 58 58
0.84699438 -0.10301963 0.96676913 60 57 59
0.84739959 -0.09598101 0.95363337 57 57 55
0.84731236 -0.09596340 0.96244652 59 57 56
0.84027815 0.41661701 1.21922994 140 136 131
0.84228669 0.41509447 1.23142980 133 130 128
0.85924453 0.41950524 1.25303483 145 139 137
0.84424725 0.43698254 1.21433610 171 171 164
0.84885982 0.43161188 1.22946225 144 143 140
0.84962307 0.43687339 1.24529939 145 142 136
0.84799165 0.44122824 1.23405178 150 149 142
0.85215136 0.44273062 1.24991801 149 146 139
0.84661311 0.44144508 1.26002204 149 146 138
0.86233354 0.43864514 1.23778276 151 150 146
0.86819726 0.43805744 1.25188956 145 143 139
0.86222678 0.44033489 1.23253059 165 166 160
0.86679220 0.44138443 1.25199868 140 138 134
0.97937757 0.39897695 1.60637879 137 137 132
0.97081053 0.40487862 1.54417276 171 171 165
0.97613955 0.41091198 1.59880149 125 125 125
0.97505878 0.41028631 1.60865163 145 143 138
0.97735378 0.41215512 1.62330647 161 157 153
0.97475785 0.42749235 1.59880149 124 116 117
0.97863954 0.42547882 1.60790505 128 126 123
0.97879126 0.42377087 1.62694252 163 161 152
0.98590479 0.39901632 1.61403433 142 138 136
0.99535844 0.41381368 1.59581424 157 156 151
0.99090533 0.40985961 1.60877853 147 145 140
0.99012255 0.40927551 1.62662976 145 143 137
0.99483156 0.40674761 1.64337659 133 130 125
0.98970471 0.42928916 1.59335362 119 120 122
0.99027958 0.42767451 1.61037848 118 118 118
0.99137160 0.42759096 1.63008634 140 138 134
0.99461722 0.43425584 1.64536858 141 140 138
0.99283624 0.44167098 1.61019444 137 138 140
1.01736617 -0.46183953 1.05488187 95 105 106
1.01543774 -0.45152586 1.05252700 96 105 105
1.00764411 0.39828984 1.61360836 157 152 146
1.01459241 0.39748311 1.62789714 163 155 150
1.01490498 0.39916036 1.64138460 170 162 156
1.00082323 0.41108138 1.59410354 165 163 159
1.00679983 0.40661516 1.60818291 159 156 152
1.00790127 0.40410543 1.62956864 154 148 142
1.01194108 0.40421394 1.64271259 155 148 143
1.00195277 0.43008029 1.62954772 110 110 108
1.02862775 -0.46118170 1.05755353 89 105 101
1.03059637 -0.45209375 1.05654734 93 105 104
1.03828418 0.38391286 1.16476262 165 166 156
1.02696651 0.39864726 1.63348383 149 141 141
1.02908993 0.39916036 1.64138460 151 142 141
1.03137437 0.40725430 1.63544951 157 156 153
1.03464854 0.40421164 1.64271259 161 159 155
1.03384751 0.42174201 1.63544714 163 161 158
1.04448354 -0.46243201 1.06252635 90 100 102
1.04121947 -0.45641002 1.05920601 93 102 101
1.04284894 -0.45895791 1.06086361 96 105 104
1.05351326 0.37858585 1.19400519 141 137 131
1.04352065 0.38634559 1.17215041 167 167 157
1.05431513 0.38860367 1.19583333 157 154 148
1.05128067 0.39106481 1.20732821 137 135 131
1.05480781 0.39697360 1.22363307 122 122 119
1.05936921 0.40619771 1.19478802 157 157 151
1.05861189 0.40227705 1.21307600 136 134 133
1.05840003 0.40307250 1.22289920 110 109 109
1.04465248 0.41020695 1.64995776 160 160 155
1.05639913 0.41029900 1.66354078 163 163 158
1.04808935 0.42525378 1.19264441 141 142 137
1.05709787 0.43118752 1.20692996 140 141 134
1.04265010 0.42105839 1.64937186 163 164 160
1.06132686 0.39045682 1.19875056 167 164 157
1.06345918 0.39019689 1.20522794 158 156 149
1.06349480 0.40304595 1.19768882 150 147 144
1.06883342 0.40825567 1.21523449 150 148 146
1.07035423 0.41343529 1.22836704 128 129 127
1.06607457 0.41106649 1.67134154 166 167 159
1.07788479 0.40906507 1.68211377 170 171 164
1.06544653 0.42613989 1.21335342 147 147 145
1.07518933 0.42398202 1.22598095 147 148 145
1.07867491 0.42287591 1.24383819 132 133 129
1.07194614 0.42558625 1.68420595 160 161 154
1.09925139 0.39241496 1.53716969 166 166 163
1.08866656 0.39199051 1.54858774 174 175 166
1.08143342 0.41640760 1.22584550 154 153 150
1.08473096 0.41694805 1.69051389 170 169 163
1.08031387 0.42203384 1.22764833 152 153 148
1.08739524 0.42925633 1.25178159 136 137 133
1.09459144 0.43376718 1.26497409 134 134 131
1.08778588 0.42455806 1.69756118 158 158 155
1.09233067 0.43220926 1.70926092 158 158 154
1.09856367 0.44118968 1.27184212 138 134 132
1.10547405 0.39226920 1.54996380 169 169 164
1.11734588 0.39090550 1.57388481 172 171 162
1.11171997 0.40052110 1.55837202 160 160 156
1.11181376 0.40294563 1.56993568 171 171 165
1.11614954 0.40617955 1.58571410 184 184 176
1.11946893 0.43926376 1.29864335 127 128 124
1.10577467 0.42396251 1.71293700 166 166 162
1.11051738 0.43601587 1.72547406 162 162 160
1.11358503 0.44387592 1.29246873 135 136 130
1.11381435 0.44373074 1.73818421 162 163 157
1.11653590 0.44601804 1.74714386 163 164 158
1.12694089 0.39486793 1.59205480 172 171 162
1.13217843 0.39803374 1.60258114 173 172 161
1.12971952 0.41065119 1.59087547 171 172 164
1.13488381 0.41376878 1.60562646 175 176 168
1.13787806 0.42510805 1.59503961 168 166 157
1.13649127 0.42575305 1.60791950 171 169 160
1.12008750 0.43847784 1.72931588 169 169 169
1.12444301 0.44481737 1.30616291 135 136 132
1.13675666 0.45242003 1.32400751 140 140 135
1.12637770 0.44573287 1.74602687 164 164 160
1.15400350 0.40288335 1.63347435 176 176 163
1.14063501 0.42097270 1.59503961 170 164 159
1.14534664 0.42971130 1.60925639 167 164 156
1.14884653 0.43233162 1.62985700 173 172 162
1.15459085 0.43567343 1.64537823 175 175 163
1.14345658 0.45278463 1.33181107 137 138 134
1.15279830 0.44185270 1.61595428 156 157 155
1.15692393 0.44519870 1.62304719 158 159 159
1.15667470 0.44422746 1.65071932 161 158 148
1.15649760 0.44500227 1.66968429 160 156 148
1.14158350 0.45849127 1.78392589 166 166 162
1.16253960 0.43082556 1.62175083 169 158 155
1.16804123 0.43778747 1.66968429 176 175 167
1.16344182 0.44850218 1.62824512 160 161 159
1.17166078 0.45303000 1.64638394 154 155 154
1.16443756 0.44631017 1.66918924 163 161 151
1.17500887 0.45206106 1.68631067 159 157 147
1.18812120 0.45462954 1.65743732 161 161 160
1.18263268 0.44142509 1.69472957 173 170 163
1.19011831 0.45183374 1.70916399 165 164 155
1.19766843 0.45409492 1.72053766 168 169 160
1.31894505 0.28516978 1.94796503 135 139 138
1.33381033 0.27746099 1.96490383 127 131 131
1.33914483 0.28944823 1.90955448 169 170 164
1.33103895 0.29274681 1.93131578 131 131 132
1.33307995 0.28712697 1.95319630 124 126 126
1.33720648 0.28085715 1.96490383 125 131 127
1.34975284 0.11731391 1.75392753 146 146 144
1.35749424 0.11838577 1.76995254 148 148 146
1.34997928 0.12657200 1.75619650 156 155 153
1.35749424 0.12756343 1.76995254 143 142 140
1.35749424 0.14744835 1.76995254 151 153 147
1.35288579 0.27859207 1.97291393 136 140 138
1.35921431 0.27646887 1.98213995 152 156 156
1.35586973 0.28995993 1.93499450 146 146 145
1.35008609 0.29152146 1.95296943 125 125 126
1.35051082 0.28463128 1.96754270 128 131 128
1.35578835 0.28332081 1.98213995 133 139 135
1.36758487 0.12535782 1.75619650 149 149 145
1.37131171 0.12636331 1.77119095 156 156 152
1.37646011 0.13355201 1.78864527 146 148 148
1.37516068 0.15427556 1.77459568 144 137 131
1.37593894 0.15099503 1.78676503 138 134 132
1.37649534 0.16356251 1.77552238 136 131 125
1.36740454 0.27853799 1.97253092 131 134 133
1.37044581 0.27116168 1.98762684 131 133 134
1.36466984 0.29260588 1.95640727 147 150 151
1.36761654 0.28653336 1.97062297 130 130 130
1.38715196 0.12839976 1.76931822 142 140 137
1.39080550 0.13652389 1.79219109 144 145 146
1.39075458 0.13889125 1.80450646 114 114 122
1.38405216 0.14936796 1.77458596 146 147 141
1.39010502 0.14555300 1.79061480 125 126 128
1.39074784 0.14356247 1.80634165 112 114 118
1.38255696 0.16556122 1.79053557 144 140 134
1.38525985 0.27204905 1.99498274 116 118 120
1.39908516 0.73145020 1.62954772 128 128 124
1.40334773 0.13545015 1.79336464 136 135 132
1.40769613 0.13928680 1.80290389 132 132 136
1.40396225 0.14357920 1.79812157 131 131 136
1.40811777 0.73907605 1.64337659 125 124 122
1.43109496 0.75071073 1.67244637 118 118 116
1.46382844 0.76543331 1.71184814 113 112 108
1.46828520 0.77526641 1.72053766 117 117 118
1.49099064 0.78121549 1.74714386 109 109 107
1.50607622 0.81045884 1.81254506 97 94 96
1.51509655 0.81701243 1.82720172 95 91 94
1.53049775 0.81424435 1.80933996 98 97 99
1.53160989 0.81793568 1.84711671 71 70 69
1.53462013 0.82387306 1.83545021 91 90 91
1.52778089 0.82977626 1.85217732 108 102 100
1.53024340 0.82903394 1.86490542 100 98 89
1.55180120 0.81856984 1.85216355 87 87 91
1.54241860 0.82344969 1.83214903 85 85 90
1.55126044 0.82873535 1.85343903 87 85 89
1.55571556 0.83151939 1.86895267 83 80 82
1.54186320 0.83872199 1.88303292 111 107 99
1.55419850 0.84782002 1.87435853 123 122 117
1.55921304 0.84921762 1.88827813 107 104 101
1.55374980 0.86631757 1.89355266 127 123 120
1.55918753 0.86460203 1.90419054 132 131 123
1.56704019 0.83194651 1.87082040 78 76 81
1.56393526 0.85128544 1.89532562 101 99 96
1.56934100 0.85367998 1.90553153 104 100 98
1.56574917 0.86614739 1.89461939 117 113 107
1.57114549 0.87071786 1.90717387 118 116 109
1.59485382 0.83084887 1.87264371 102 103 102
1.58963948 0.83825827 1.88565552 73 73 79
1.58123577 0.87776136 1.91494870 113 107 102
1.59567285 0.88190758 1.92037344 112 109 101
1.59793919 0.89209175 1.95357883 137 133 130
1.61389637 0.83756503 1.89885676 109 110 110
1.61673196 0.84738776 1.90867058 88 89 90
1.60842615 0.88673764 1.93270314 122 121 113
1.60086429 0.89297691 1.95922494 138 135 130
1.62426364 0.84631795 1.91494870 99 100 101
1.62840794 0.85379816 1.92310125 85 86 90
1.79122537 0.37747299 1.79456016 147 147 140
1.79416696 0.37053739 1.80611761 160 160 151
1.78770888 0.38032532 1.79336464 147 148 140
1.80578619 0.36924936 1.81255800 159 159 149
1.81267470 0.36805686 1.82474583 163 163 151
1.80689343 0.49145558 1.87435853 154 154 150
1.81497043 0.49231520 1.88696682 153 153 149
1.81180290 0.51460461 1.87608767 117 112 113
1.81525552 0.50023633 1.88303292 144 145 142
1.81347275 0.52157021 1.87781680 134 131 129
1.82840008 0.35842662 1.86490542 153 154 142
1.82483653 0.37093771 1.83379515 165 165 154
1.83287978 0.36945590 1.85154302 163 163 152
1.83446470 0.36893108 1.86748199 159 160 151
1.83244402 0.37154905 1.88829069 134 131 122
1.83131146 0.38007566 1.83710527 158 158 149
1.83759344 0.38257016 1.87262940 161 162 153
1.82212377 0.49975809 1.89355266 148 148 144
1.82485916 0.51121117 1.89356252 132 130 129
1.82906926 0.50585699 1.90419054 141 142 140
1.82880541 0.52911413 1.89708873 131 128 122
1.83336318 0.52738180 1.90867058 144 140 134
1.84403628 0.36929250 1.85470074 168 169 155
1.84416922 0.37434037 1.86945913 167 168 158
1.84775581 0.37284532 1.89117387 145 147 137
1.84789407 0.37380997 1.90776650 144 140 133
1.85789049 0.37406844 1.92037344 149 146 138
1.84631558 0.38346579 1.87437280 164 165 156
1.85485232 0.38193542 1.89355266 169 170 161
1.84881663 0.38188696 1.90419054 146 144 137
1.85789049 0.38402605 1.92037344 141 137 131
1.84271276 0.51202476 1.91494870 138 138 136
1.84889817 0.51586893 1.92310125 135 134 132
1.84271276 0.52195424 1.91494870 131 125 123
1.84981517 0.52627032 1.92926998 147 140 136
1.85699777 0.53101525 1.94611530 158 151 145
1.86253399 0.36911651 1.87005001 165 166 153
1.87905920 0.37108031 1.88827813 165 166 153
1.86198163 0.37256178 1.90419054 143 144 132
1.87748438 0.37233813 1.92860365 148 150 139
1.86004794 0.38628727 1.89885676 161 162 153
1.86696355 0.38537629 1.91063938 154 155 146
1.87582719 0.38339162 1.94238353 152 146 140
1.86126155 0.52959327 1.93683386 137 133 130
1.86558728 0.53321213 1.95134623 155 148 143
1.87687016 0.53620729 1.97348845 162 155 149
1.87116331 0.54627007 1.95360306 148 146 137
1.87644865 0.55154929 1.97349674 157 155 145
1.87996161 0.55054633 1.98213995 157 156 144
1.87996161 0.56082428 1.98213995 158 158 147
1.88314044 0.39177433 1.92582905 159 160 151
1.88975990 0.38765491 1.94985783 154 151 144
1.89063990 0.51780516 1.98796976 146 146 142
1.88131261 0.53186136 1.97636104 152 147 140
1.89024952 0.52841438 1.99057417 153 152 144
1.88193250 0.54756802 1.95922494 153 150 142
1.88527928 0.54988692 1.97158444 154 150 142
