ply
format ascii 1.0
element vertex 1088
property float x
property float y
property float z
property uchar red
property uchar green
property uchar blue
end_header
-0.00968236 0.18931209 0.82852508 185 182 178
-0.00967910 0.21000558 0.82824475 172 169 167
-0.00967630 0.23069671 0.82800588 164 160 158
-0.00967399 0.25067282 0.82780799 167 164 159
-0.00967198 0.27064792 0.82763634 155 152 150
-0.00967025 0.29062286 0.82748789 152 150 147
-0.00966876 0.31059870 0.82736095 162 159 155
-0.00966759 0.33057905 0.82726061 161 159 155
-0.00966736 0.35058925 0.82724156 61 59 58
-0.00966795 0.37062900 0.82729159 0 0 0
-0.00966808 0.39065289 0.82730264 0 0 0
-0.00966811 0.41067335 0.82730571 0 0 0
-0.00966798 0.43068640 0.82729426 0 0 0
-0.00966774 0.45069397 0.82727377 0 0 0
-0.00966749 0.46569563 0.82725232 0 0 0
0.01043099 -0.56170075 0.83370408 0 0 0
0.01043205 -0.55022841 0.83378881 0 0 0
0.01043422 -0.53016205 0.83396124 0 0 0
0.01043753 -0.51014343 0.83422557 0 0 0
0.01044151 -0.49014231 0.83454141 0 0 0
0.01044745 -0.47021202 0.83501056 0 0 0
0.01025043 -0.45221341 0.83559125 4 5 5
0.01022715 -0.44617202 0.84879104 144 143 143
0.01096338 -0.43090954 0.83986288 203 205 206
0.01026743 -0.42659919 0.84036840 203 206 207
0.01038554 -0.40992114 0.84045152 204 206 207
0.01064153 -0.39040885 0.84062368 127 129 132
0.01051807 -0.37023785 0.84067685 75 75 80
0.01051850 -0.34990976 0.84071156 134 134 142
0.01051932 -0.32959071 0.84077412 204 205 208
0.01052003 -0.30999374 0.84083155 178 181 184
0.01052003 -0.29037442 0.84083280 64 64 71
0.01052015 -0.27003269 0.84084686 67 67 78
0.01051972 -0.24967472 0.84080892 201 202 207
0.01051958 -0.23005303 0.84079972 203 203 210
0.01051921 -0.21042719 0.84077198 95 95 103
0.01051942 -0.19008696 0.84079317 60 61 69
0.01051941 -0.16974077 0.84078848 160 160 169
0.01051918 -0.15011869 0.84076980 202 202 210
0.01051876 -0.13049532 0.84073599 129 130 137
0.01051845 -0.11014793 0.84071121 55 54 63
0.01051853 -0.08980531 0.84071889 123 123 133
0.01051885 -0.06946367 0.84074202 208 209 218
0.01051787 -0.04984168 0.84066477 164 164 172
0.01051665 -0.03022246 0.84057141 60 60 69
0.01559043 -0.00043840 0.83995943 135 137 145
0.01032732 -0.01023165 0.84049054 74 74 84
0.01048288 0.01041649 0.83785583 145 145 152
0.01044574 0.03058493 0.83488844 191 190 192
0.01042251 0.05067610 0.83303114 200 199 199
0.01040738 0.07001292 0.83181947 202 199 199
0.01039623 0.08932671 0.83092826 201 200 199
0.01038737 0.10934050 0.83021995 202 200 199
0.01038046 0.12934410 0.82966702 194 191 190
0.01037482 0.14933946 0.82921742 177 174 174
0.01037009 0.16932777 0.82883996 169 167 167
0.01036611 0.18931120 0.82852120 170 167 166
0.01036261 0.21000471 0.82824133 164 162 161
0.01035966 0.23069643 0.82800485 153 151 150
0.01035721 0.25067303 0.82780867 165 161 159
0.01035506 0.27064797 0.82763649 155 152 149
0.01035319 0.29062267 0.82748736 138 136 135
0.01035159 0.31059836 0.82736006 144 143 141
0.01035035 0.33057888 0.82726019 145 145 145
0.01035016 0.35059063 0.82724483 39 38 39
0.01035074 0.37062906 0.82729173 0 0 0
0.01035089 0.39065341 0.82730373 0 0 0
0.01035094 0.41067409 0.82730718 0 0 0
0.01035080 0.43068735 0.82729608 0 0 0
0.01035055 0.45069504 0.82727573 0 0 0
0.01035028 0.46569673 0.82725427 0 0 0
0.03060504 -0.56170468 0.83370991 0 0 0
0.03060806 -0.55023081 0.83379244 0 0 0
0.03061450 -0.53016589 0.83396729 0 0 0
0.03042885 -0.51029634 0.83423000 0 0 0
0.02991480 -0.49014981 0.83455423 0 0 0
0.02993240 -0.47023130 0.83504487 0 0 0
0.02974660 -0.45304440 0.83583476 7 7 8
0.03003131 -0.44837702 0.85035302 131 133 132
0.03128975 -0.43041113 0.83970166 92 94 97
0.02743787 -0.42478681 0.84029129 128 130 133
0.03012123 -0.41002142 0.84031913 104 106 110
0.03012859 -0.39050919 0.84052383 156 157 160
0.03013117 -0.37020230 0.84059611 182 182 185
0.03013292 -0.34988131 0.84064339 146 148 152
0.03013550 -0.32956813 0.84071651 93 95 100
0.03013690 -0.30996603 0.84075631 115 115 124
0.03013668 -0.29034594 0.84075018 187 189 195
0.03013665 -0.27000133 0.84074930 189 190 194
0.03013578 -0.24964990 0.84072537 74 76 83
0.03013544 -0.23003005 0.84071569 74 74 82
0.03013420 -0.21040436 0.84068071 177 177 186
0.03013427 -0.19006203 0.84068279 203 203 209
0.03013455 -0.16972108 0.84069109 110 110 118
0.03013438 -0.15010363 0.84068557 58 59 69
0.03013311 -0.13048194 0.84064971 133 134 143
0.03013169 -0.11013484 0.84061101 203 204 212
0.03013187 -0.08979435 0.84061637 147 147 156
0.03013287 -0.06945558 0.84064461 60 61 72
0.03013081 -0.04983694 0.84058471 109 110 120
0.03012667 -0.03021888 0.84046898 211 211 221
0.03010446 -0.00043834 0.83984640 176 176 183
0.03012158 -0.01060629 0.84032655 199 198 206
0.03003171 0.01041612 0.83781888 194 193 196
0.03014239 0.03073862 0.83484977 200 200 201
0.03057962 0.05067530 0.83301749 202 200 201
0.03053543 0.07001246 0.83181393 200 197 197
0.03050277 0.08932629 0.83092432 176 174 175
0.03047676 0.10933998 0.83021602 147 147 150
0.03045634 0.12934293 0.82965959 165 164 164
0.03043976 0.14933773 0.82920781 171 168 167
0.03042598 0.16932625 0.82883247 166 162 161
0.03041440 0.18931014 0.82851651 157 154 153
0.03040425 0.21000440 0.82824005 159 157 156
0.03039565 0.23069667 0.82800573 152 150 151
0.03038841 0.25067299 0.82780857 161 159 159
0.03038206 0.27064770 0.82763567 146 143 142
0.03037651 0.29062168 0.82748452 163 160 159
0.03037193 0.31059821 0.82735965 155 153 151
0.03036833 0.33057942 0.82726153 163 161 159
0.03036787 0.35059231 0.82724883 38 38 37
0.03036941 0.37062871 0.82729093 0 0 0
0.03036988 0.39065340 0.82730371 0 0 0
0.03037003 0.41067437 0.82730776 0 0 0
0.03036964 0.43068801 0.82729735 0 0 0
0.03036891 0.45069597 0.82727743 0 0 0
0.03036811 0.46569752 0.82725568 0 0 0
0.05005827 -0.56170174 0.83370555 0 0 0
0.05006312 -0.55022686 0.83378644 0 0 0
0.05007333 -0.53015912 0.83395662 0 0 0
0.04987205 -0.50998512 0.83422023 0 0 0
0.04938664 -0.49013694 0.83453233 0 0 0
0.04941503 -0.47021319 0.83501261 0 0 0
0.04896320 -0.45383451 0.83580965 10 10 11
0.04917762 -0.45095414 0.85218000 128 130 127
0.05330444 -0.45579992 0.86205108 123 125 122
0.04984831 -0.42905621 0.83961027 63 63 66
0.04684232 -0.43357540 0.84063926 67 66 66
0.05711199 -0.41870211 0.83995865 64 65 69
0.04943452 -0.40962346 0.84018346 68 69 74
0.04973160 -0.39043657 0.84036757 164 166 170
0.04973725 -0.37014304 0.84046158 204 206 207
0.04974072 -0.34983005 0.84052012 145 146 149
0.04974444 -0.32951569 0.84058272 71 71 77
0.04974691 -0.30991742 0.84062449 106 106 114
0.04974664 -0.29030082 0.84061960 203 204 208
0.04974717 -0.26996242 0.84062816 199 200 204
0.04974615 -0.24961585 0.84061069 60 60 66
0.04974513 -0.22999676 0.84059399 62 61 71
0.04974248 -0.21037153 0.84054950 183 183 192
0.04974258 -0.19003227 0.84055113 205 206 212
0.04974266 -0.16969320 0.84055309 105 105 112
0.04974221 -0.15007868 0.84054563 53 53 62
0.04973987 -0.13045964 0.84050601 133 133 145
0.04973740 -0.11011555 0.84046379 205 205 214
0.04973798 -0.08977910 0.84047372 143 144 153
0.04955646 -0.06974239 0.84050698 59 57 68
0.04992264 -0.05015405 0.84045998 108 108 118
0.04973028 -0.03021434 0.84034308 214 214 223
0.05078866 -0.00061981 0.83982512 209 209 209
0.04962801 -0.01070188 0.84024923 210 209 216
0.04957656 0.01041534 0.83774258 202 201 202
0.04960154 0.03043384 0.83486409 196 195 197
0.05001657 0.05067491 0.83301119 168 167 170
0.05023256 0.07017600 0.83179388 140 140 145
0.05060856 0.08932489 0.83091128 134 135 139
0.05056554 0.10933852 0.83020486 135 135 138
0.05053176 0.12934145 0.82965007 155 153 155
0.05050441 0.14933650 0.82920093 164 161 162
0.05048173 0.16932544 0.82882849 162 159 159
0.05046262 0.18930976 0.82851486 164 161 160
0.05044594 0.21000464 0.82824096 158 156 157
0.05043173 0.23069716 0.82800747 156 153 151
0.05041973 0.25067350 0.82781025 156 152 151
0.05040916 0.27064809 0.82763689 147 146 145
0.05039999 0.29062232 0.82748635 150 148 145
0.05039235 0.31059868 0.82736089 149 148 146
0.05038654 0.33058099 0.82726545 152 150 146
0.05038577 0.35059398 0.82725281 34 34 33
0.05038806 0.37062855 0.82729057 0 0 0
0.05038888 0.39065352 0.82730396 0 0 0
0.05038912 0.41067450 0.82730802 0 0 0
0.05038851 0.43068829 0.82729789 0 0 0
0.05038731 0.45069641 0.82727824 0 0 0
0.05038596 0.46569774 0.82725607 0 0 0
0.06951015 -0.56168971 0.83368770 0 0 0
0.06951682 -0.55021443 0.83376760 0 0 0
0.06953062 -0.53014438 0.83393342 0 0 0
0.06955152 -0.51011834 0.83418448 0 0 0
0.06957712 -0.49011289 0.83449142 0 0 0
0.06961848 -0.47019813 0.83498602 0 0 0
0.06933993 -0.45503808 0.83568101 9 10 10
0.07068991 -0.45317109 0.85380247 132 136 135
0.06726145 -0.45482410 0.86022534 124 126 124
0.06999211 -0.42991986 0.83946954 146 147 149
0.07186862 -0.41216151 0.83986015 168 170 171
0.06435461 -0.40557053 0.84006141 96 96 102
0.07843514 -0.39845133 0.83998433 196 202 201
0.06973677 -0.39002841 0.84014224 130 132 137
0.07005876 -0.37005925 0.84027163 120 122 125
0.07006617 -0.34976339 0.84036002 144 146 152
0.07002311 -0.32950191 0.84042397 167 168 171
0.07012590 -0.30991139 0.84045743 156 157 160
0.07007464 -0.29024616 0.84046138 106 107 114
0.07007585 -0.26991367 0.84047632 111 111 119
0.07007493 -0.24957276 0.84046560 172 173 178
0.07007332 -0.22995613 0.84044541 174 175 182
0.07006852 -0.21033122 0.84038835 110 110 118
0.07006817 -0.18999455 0.84038424 89 90 98
0.07006748 -0.16965751 0.84037642 157 157 166
0.07006788 -0.15004924 0.84038077 180 181 190
0.07006414 -0.13043322 0.84033584 128 129 137
0.07006156 -0.11009468 0.84030473 76 77 88
0.07006246 -0.08976218 0.84031545 129 129 139
0.07006597 -0.07015813 0.84035777 192 191 200
0.07006069 -0.05054595 0.84029427 161 161 170
0.07005231 -0.03020887 0.84019255 83 83 95
0.07092738 -0.00143639 0.83980428 173 172 173
0.06986967 -0.01152423 0.84012567 89 88 98
0.06984368 0.01041476 0.83768871 172 171 174
0.06960441 0.03058246 0.83481871 146 145 153
0.06945157 0.05067335 0.83298542 137 136 143
0.06961578 0.06984799 0.83178972 135 136 143
0.06999575 0.08932360 0.83089913 138 138 142
0.07050888 0.10945993 0.83019503 132 131 136
0.07060730 0.12934103 0.82964734 160 159 159
0.07056922 0.14933630 0.82919983 164 160 161
0.07053749 0.16932514 0.82882704 167 161 160
0.07051070 0.18930918 0.82851232 162 159 159
0.07048758 0.21000455 0.82824062 154 151 150
0.07046773 0.23069716 0.82800742 139 137 137
0.07045096 0.25067350 0.82781023 150 147 144
0.07043603 0.27064743 0.82763486 163 160 155
0.07042339 0.29062230 0.82748629 160 156 152
0.07041282 0.31059915 0.82736213 144 140 136
0.07040490 0.33058243 0.82726904 135 134 134
0.07040381 0.35059539 0.82725618 24 24 23
0.07040679 0.37062883 0.82729118 0 0 0
0.07040797 0.39065407 0.82730513 0 0 0
0.07040825 0.41067467 0.82730837 0 0 0
0.07040736 0.43068836 0.82729802 0 0 0
0.07040569 0.45069648 0.82727836 0 0 0
0.07040377 0.46569762 0.82725586 0 0 0
0.08968059 -0.56167097 0.83365987 0 0 0
0.08968894 -0.55019454 0.83373744 0 0 0
0.08970619 -0.53012175 0.83389779 0 0 0
0.08973168 -0.51008813 0.83413503 0 0 0
0.08976471 -0.49008393 0.83444221 0 0 0
0.08982737 -0.47021880 0.83502339 0 0 0
0.09500941 -0.46115262 0.85569157 117 129 129
0.08946947 -0.45551124 0.83636973 28 30 30
0.08959326 -0.45388728 0.85385350 141 143 143
0.09048394 -0.43032421 0.83942410 202 204 204
0.09033727 -0.41047706 0.83976514 200 202 202
0.09230454 -0.39273201 0.83993955 115 118 122
0.08625302 -0.38501802 0.84003914 69 70 74
0.09037549 -0.36999311 0.84012147 68 69 73
0.09038424 -0.34969817 0.84020318 146 145 152
0.09039144 -0.33011940 0.84027023 205 207 208
0.09039507 -0.31052549 0.84030398 171 172 175
0.09039434 -0.29018951 0.84029732 67 67 74
0.09039473 -0.26985751 0.84030132 83 83 92
0.09039236 -0.24951731 0.84027906 202 203 208
0.09039357 -0.22991363 0.84029011 202 202 209
0.09038656 -0.21029034 0.84022486 84 84 91
0.09038560 -0.18995652 0.84021599 61 60 68
0.09038381 -0.16962177 0.84019929 167 167 176
0.09038397 -0.15001716 0.84020108 202 202 210
0.09038004 -0.13040661 0.84016446 124 124 132
0.09037705 -0.11007267 0.84013677 52 52 61
0.09037780 -0.08974386 0.84014370 125 125 135
0.09038169 -0.07014330 0.84017991 208 208 217
0.09979944 -0.04254253 0.83999636 71 70 79
0.09022871 -0.05065965 0.84012135 168 167 176
0.09813840 -0.02937152 0.83998136 69 68 77
0.08824858 -0.03043065 0.84006980 62 62 72
0.09305707 -0.00423723 0.83985479 102 102 111
0.08917247 -0.01236384 0.84005239 66 66 75
0.09010552 0.01041385 0.83761083 139 139 146
0.08980011 0.03058077 0.83477119 139 139 145
0.08960488 0.05067156 0.83295571 139 139 144
0.08947674 0.07000831 0.83176439 136 136 141
0.08938284 0.08932278 0.83089141 135 135 138
0.08986277 0.10920961 0.83019785 132 130 135
0.09028552 0.12952296 0.82964011 148 146 147
0.09063408 0.14933630 0.82919983 145 143 143
0.09059328 0.16932503 0.82882656 155 153 155
0.09055877 0.18930885 0.82851083 157 155 155
0.09052920 0.21000449 0.82824039 148 147 147
0.09050357 0.23069674 0.82800593 141 140 142
0.09048189 0.25067270 0.82780762 144 144 146
0.09046319 0.27064795 0.82763643 147 147 146
0.09044673 0.29062216 0.82748586 157 156 154
0.09043345 0.31059994 0.82736421 137 134 130
0.09042340 0.33058369 0.82727221 162 162 160
0.09042215 0.35059734 0.82726080 21 20 20
0.09042588 0.37063051 0.82729493 0 0 0
0.09042731 0.39065544 0.82730803 0 0 0
0.09042747 0.41067523 0.82730950 0 0 0
0.09042624 0.43068848 0.82729824 0 0 0
0.09042404 0.45069636 0.82727814 0 0 0
0.09042154 0.46569733 0.82725535 0 0 0
0.10984840 -0.56164555 0.83362214 0 0 0
0.10985866 -0.55016987 0.83370005 0 0 0
0.10987941 -0.53009610 0.83385743 0 0 0
0.10990876 -0.51005473 0.83408033 0 0 0
0.10994811 -0.49004690 0.83437917 0 0 0
0.11003037 -0.47020712 0.83500307 0 0 0
0.11086668 -0.46173602 0.85595132 120 126 127
0.10916356 -0.45740711 0.83591910 26 28 28
0.11013896 -0.45386566 0.85235928 134 137 136
0.10989297 -0.43064262 0.83946433 154 157 158
0.10992853 -0.41046320 0.83973643 149 152 154
0.10994808 -0.39021331 0.83988707 136 138 141
0.11288229 -0.37467992 0.83997230 162 164 167
0.10791850 -0.36662387 0.84003495 115 116 121
0.10997204 -0.34964308 0.84007078 140 141 147
0.10997908 -0.33006222 0.84012469 136 137 142
0.10998329 -0.31047122 0.84015710 139 141 148
0.10998205 -0.29013784 0.84014760 152 152 159
0.10998155 -0.26980686 0.84014363 151 152 157
0.10998125 -0.24947636 0.84014131 117 118 124
0.10998471 -0.22988012 0.84016763 112 112 121
0.10997528 -0.21025805 0.84009580 158 158 165
0.10997231 -0.18992423 0.84007316 164 165 171
0.11867417 -0.16449991 0.83999974 56 57 63
0.10992391 -0.16962394 0.84007107 120 120 129
0.10997251 -0.14999456 0.84007458 95 96 105
0.11600424 -0.12707370 0.83997652 176 176 186
0.10774237 -0.13160606 0.84005025 124 124 134
0.11454749 -0.10969853 0.83996180 204 205 212
0.10517056 -0.11042572 0.84002959 135 135 144
0.11431310 -0.09032922 0.83996022 147 147 157
0.10510462 -0.08905641 0.84003012 127 127 137
0.11690083 -0.07168464 0.83997999 54 53 63
0.10774712 -0.06963402 0.84005826 102 102 111
0.11246822 -0.04762903 0.83996333 129 128 138
0.10638631 -0.05466347 0.84003691 116 116 124
0.10995129 -0.03019875 0.83991234 187 187 195
0.10994102 -0.00987434 0.83983371 164 164 171
0.11031319 0.01046117 0.83751687 135 135 142
0.10999591 0.03057972 0.83474121 137 137 143
0.10975886 0.05067075 0.83294218 140 139 144
0.10960266 0.07000768 0.83175671 131 131 136
0.10948822 0.08932244 0.83088816 132 133 137
0.10939637 0.10933672 0.83019114 128 128 132
0.10961870 0.12915955 0.82964506 164 162 162
0.11019748 0.14948962 0.82919547 159 156 156
0.11064912 0.16932505 0.82882662 159 157 157
0.11060727 0.18930935 0.82851302 163 159 158
0.11057092 0.21000453 0.82824056 156 152 153
0.11054005 0.23069770 0.82800939 135 133 132
0.11051289 0.25067221 0.82780605 156 154 152
0.11049017 0.27064780 0.82763595 150 149 148
0.11047033 0.29062265 0.82748725 149 145 142
0.11045449 0.31060156 0.82736855 140 139 137
0.11044213 0.33058522 0.82727602 159 154 149
0.11044098 0.35060012 0.82726736 16 15 15
0.11044546 0.37063321 0.82730096 0 0 0
0.11044700 0.39065754 0.82731249 0 0 0
0.11044685 0.41067618 0.82731141 0 0 0
0.11044514 0.43068867 0.82729862 0 0 0
0.11044232 0.45069600 0.82727749 0 0 0
0.11043918 0.46569659 0.82725403 0 0 0
0.13001301 -0.56161419 0.83357560 0 0 0
0.13002549 -0.55014054 0.83365561 0 0 0
0.13005035 -0.53006913 0.83381500 0 0 0
0.13008356 -0.51002280 0.83402808 0 0 0
0.13012831 -0.49000926 0.83431502 0 0 0
0.13024409 -0.47013442 0.83498550 0 0 0
0.13079619 -0.46320898 0.85477271 120 124 126
0.12801159 -0.45897002 0.83624474 44 48 50
0.12984310 -0.45332474 0.85345687 130 130 128
0.12947523 -0.43062524 0.83943076 74 75 77
0.12952280 -0.41046411 0.83973821 75 75 79
0.12953853 -0.39019161 0.83984015 185 186 189
0.12960091 -0.36995773 0.83993105 201 202 204
0.12012694 -0.36050526 0.84000599 200 202 203
0.13083626 -0.34967322 0.83996977 123 124 127
0.12082405 -0.34912311 0.84000747 124 125 129
0.13557862 -0.33220764 0.83998243 65 65 69
0.12645825 -0.32888771 0.84002989 66 66 71
0.13728662 -0.30929146 0.83997678 128 128 135
0.12726785 -0.31076326 0.84004980 112 111 120
0.13652096 -0.28966168 0.83997478 205 206 209
0.12642341 -0.29028885 0.84003976 205 206 209
0.13735206 -0.26993245 0.83998235 183 184 187
0.12724898 -0.26972453 0.84005212 188 189 192
0.13746290 -0.25222960 0.83998371 63 63 68
0.12772159 -0.24895151 0.84004971 61 61 68
0.13839352 -0.22559643 0.83998814 64 63 72
0.12905771 -0.23026493 0.84006237 61 61 68
0.13215950 -0.20870478 0.83994646 199 199 205
0.12366291 -0.21367696 0.84002693 174 174 183
0.13074266 -0.19022159 0.83993233 204 205 211
0.12103465 -0.18755020 0.84000800 204 205 210
0.12994576 -0.16943583 0.83992862 93 93 99
0.12030815 -0.17266759 0.84000406 144 144 149
0.13048890 -0.15009158 0.83992800 53 53 61
0.12046863 -0.14878673 0.84000648 52 52 62
0.12954502 -0.13036316 0.83988414 141 140 150
0.12953738 -0.11003316 0.83983484 204 204 213
0.12953786 -0.08971117 0.83983779 135 135 144
0.12954449 -0.07011828 0.83988074 54 53 62
0.12953890 -0.05051884 0.83984452 113 112 122
0.12952937 -0.03019401 0.83978254 212 212 221
0.12952281 -0.00987320 0.83973937 177 176 182
0.13020816 0.01054887 0.83741893 141 140 146
0.13019019 0.03057868 0.83471146 143 143 145
0.12991214 0.05066993 0.83292846 148 147 150
0.12972849 0.07000720 0.83175085 138 136 141
0.12959341 0.08932208 0.83088484 128 127 135
0.12948447 0.10933608 0.83018633 125 124 131
0.12939872 0.12933935 0.82963653 159 157 158
0.12952436 0.14918670 0.82919796 152 150 151
0.13015056 0.16945190 0.82882211 151 149 150
0.13065610 0.18931021 0.82851675 145 142 143
0.13061349 0.21000604 0.82824654 144 143 144
0.13057601 0.23069756 0.82800891 147 143 141
0.13054477 0.25067365 0.82781076 138 136 137
0.13051745 0.27064829 0.82763748 160 158 156
0.13049492 0.29062524 0.82749458 141 138 136
0.13047600 0.31060384 0.82737464 150 147 144
0.13046138 0.33058758 0.82728192 138 132 130
0.13046030 0.35060338 0.82727503 13 13 13
0.13046563 0.37063674 0.82730884 0 0 0
0.13046706 0.39066012 0.82731797 0 0 0
0.13046636 0.41067722 0.82731353 0 0 0
0.13046403 0.43068877 0.82729881 0 0 0
0.13046047 0.45069532 0.82727625 0 0 0
0.13045660 0.46569528 0.82725170 0 0 0
0.15017327 -0.56157509 0.83351756 0 0 0
0.15018851 -0.55010516 0.83360203 0 0 0
0.15021817 -0.53003841 0.83376667 0 0 0
0.15025411 -0.50998503 0.83396630 0 0 0
0.15030474 -0.48996963 0.83424742 0 0 0
0.15017058 -0.47033782 0.83501852 5 6 6
0.15009928 -0.46512402 0.85657176 120 126 125
0.15025565 -0.45081171 0.83788744 153 158 157
0.14973478 -0.45278056 0.85398991 132 134 135
0.15869046 -0.45835818 0.86016077 119 122 130
0.14977744 -0.43059564 0.83937262 117 120 121
0.14982699 -0.41042158 0.83965125 109 110 113
0.14984518 -0.39015141 0.83975350 165 166 168
0.14985960 -0.36986667 0.83983418 166 168 170
0.14986833 -0.34956497 0.83988310 133 133 140
0.14987015 -0.32997159 0.83989357 117 117 121
0.14986603 -0.31036542 0.83987081 135 136 140
0.14986439 -0.29003904 0.83986159 152 153 157
0.14987065 -0.26972742 0.83989647 146 147 151
0.14987004 -0.25012862 0.83989329 129 130 135
0.14987207 -0.23053401 0.83990474 135 135 140
0.14985706 -0.21018915 0.83982037 136 136 142
0.14985195 -0.18986056 0.83979148 129 129 136
0.14984775 -0.16953479 0.83976829 140 141 147
0.14984543 -0.14993761 0.83975558 143 143 148
0.14983608 -0.13033507 0.83970311 131 131 139
0.14982831 -0.11001011 0.83965928 113 113 121
0.14982962 -0.08969288 0.83966643 130 130 139
0.14983770 -0.07010417 0.83971188 156 155 163
0.14982853 -0.05050785 0.83966058 149 149 157
0.14982090 -0.03018788 0.83961705 109 108 116
0.14982411 -0.00987193 0.83963442 103 101 107
0.14982646 0.01027432 0.83738770 142 142 144
0.15038126 0.03057730 0.83467171 147 146 149
0.15006442 0.05066902 0.83291287 151 151 153
0.14985382 0.07000661 0.83174384 135 134 140
0.14969786 0.08932137 0.83087824 127 127 134
0.14957231 0.10933543 0.83018136 129 129 133
0.14947369 0.12933895 0.82963393 158 155 156
0.14939408 0.14933492 0.82919209 159 156 156
0.14947245 0.16920202 0.82882380 159 157 157
0.15020305 0.18946302 0.82851168 160 157 157
0.15065484 0.21000544 0.82824412 158 155 153
0.15061169 0.23069699 0.82800688 145 144 144
0.15057566 0.25067308 0.82780884 154 152 151
0.15054482 0.27064889 0.82763925 144 142 142
0.15051857 0.29062538 0.82749501 143 143 143
0.15049710 0.31060471 0.82737692 125 124 124
0.15048065 0.33058938 0.82728642 125 125 126
0.15047994 0.35060655 0.82728247 12 12 12
0.15048622 0.37064038 0.82731700 0 0 0
0.15048731 0.39066249 0.82732301 0 0 0
0.15048589 0.41067807 0.82731526 0 0 0
0.15048286 0.43068866 0.82729861 0 0 0
0.15047844 0.45069425 0.82727430 0 0 0
0.15047374 0.46569349 0.82724853 0 0 0
0.17032887 -0.56152986 0.83345043 0 0 0
0.17034720 -0.55006425 0.83354005 0 0 0
0.17038087 -0.52999907 0.83370474 0 0 0
0.17041889 -0.50993885 0.83389080 0 0 0
0.17047948 -0.48993414 0.83418701 0 0 0
0.16996916 -0.47207542 0.83490587 6 6 6
0.16767496 -0.47003200 0.85692945 118 126 127
0.17320173 -0.46575648 0.86101549 122 127 129
0.17074695 -0.44211970 0.83932034 204 204 204
0.16789658 -0.44964874 0.84902415 167 167 168
0.16885057 -0.45849850 0.86149910 130 130 135
0.17008156 -0.43057869 0.83933896 204 206 206
0.17012101 -0.41036461 0.83953460 203 204 204
0.17013554 -0.39008311 0.83960639 86 87 90
0.17015181 -0.36980173 0.83968667 67 67 72
0.17010279 -0.34953064 0.83968418 161 161 166
0.17020044 -0.32994046 0.83967302 202 203 206
0.17014515 -0.31028542 0.83965434 155 156 159
0.17014654 -0.28996961 0.83966072 63 64 69
0.17015316 -0.26966236 0.83969376 92 92 99
0.17014538 -0.25005780 0.83965548 203 204 208
0.17015182 -0.23047424 0.83968715 203 204 208
0.17014159 -0.21014292 0.83963627 68 68 75
0.17014565 -0.18982988 0.83965556 54 55 60
0.17012685 -0.16949360 0.83956376 174 174 181
0.17012449 -0.14990128 0.83955219 203 203 209
0.17011543 -0.13030460 0.83950722 116 116 122
0.17011836 -0.10999189 0.83952075 49 48 55
0.17011572 -0.08967609 0.83950812 125 125 133
0.17012716 -0.07009183 0.83956459 204 204 212
0.17011840 -0.05049941 0.83952127 157 157 164
0.17013098 -0.03018637 0.83958168 50 48 54
0.17014453 -0.00987224 0.83964777 66 63 68
0.16971579 0.01036222 0.83729605 148 147 149
0.17032114 0.03074525 0.83461427 150 148 151
0.17021591 0.05066810 0.83289704 146 145 148
0.16997864 0.07000595 0.83173598 136 136 140
0.16980192 0.08932063 0.83087128 135 135 139
0.16965983 0.10933473 0.83017600 125 125 130
0.16954842 0.12933846 0.82963080 154 152 152
0.16945808 0.14933432 0.82918877 154 152 152
0.16938269 0.16932369 0.82881988 158 155 155
0.16951384 0.18916015 0.82851285 158 155 154
0.17032661 0.21020211 0.82823720 158 155 154
0.17064723 0.23069639 0.82800469 155 153 151
0.17060641 0.25067239 0.82780657 153 151 150
0.17057208 0.27064910 0.82763992 146 143 142
0.17054199 0.29062501 0.82749391 153 149 146
0.17051769 0.31060440 0.82737607 142 140 138
0.17049943 0.33058980 0.82728748 162 161 157
0.17049952 0.35060886 0.82728789 16 16 16
0.17050703 0.37064365 0.82732429 0 0 0
0.17050754 0.39066427 0.82732679 0 0 0
0.17050538 0.41067861 0.82731635 0 0 0
0.17050156 0.43068825 0.82729782 0 0 0
0.17049620 0.45069292 0.82727186 0 0 0
0.17049067 0.46569151 0.82724501 0 0 0
0.19047886 -0.56147760 0.83337286 0 0 0
0.19050052 -0.55001642 0.83346759 0 0 0
0.19053804 -0.52995270 0.83363178 0 0 0
0.19058020 -0.50989323 0.83381623 0 0 0
0.19025251 -0.49008310 0.83412749 0 0 0
0.19812118 -0.48092765 0.86224293 123 123 125
0.18939527 -0.47360859 0.83500148 9 9 9
0.19004292 -0.47467718 0.85070198 120 123 124
0.19037644 -0.46936730 0.86292950 122 128 129
0.19135827 -0.44169836 0.83933281 202 203 203
0.19070190 -0.44851125 0.84717766 186 185 186
0.18968782 -0.45813980 0.86254870 146 145 148
0.19020328 -0.43016973 0.83932312 201 202 202
0.19038767 -0.41026111 0.83932227 199 200 199
0.19039966 -0.38997557 0.83937538 81 81 83
0.19042725 -0.36971823 0.83949700 76 74 77
0.19052856 -0.35003066 0.83952410 159 158 159
0.18978668 -0.33072041 0.83951885 190 189 190
0.19901832 -0.32566954 0.84003035 153 151 149
0.18897100 -0.31021780 0.83947148 147 147 148
0.19869481 -0.30994481 0.84070932 153 150 147
0.18897764 -0.28991440 0.83950079 74 72 76
0.19898814 -0.29003229 0.84195043 148 139 136
0.18883552 -0.26974961 0.83951359 105 102 108
0.19877707 -0.26903751 0.84214169 135 127 127
0.18825763 -0.25001882 0.83952478 192 191 194
0.19803097 -0.25188018 0.84243674 145 136 138
0.18826033 -0.23043305 0.83953681 191 189 190
0.19784149 -0.22999667 0.84326575 143 132 125
0.18823737 -0.21009264 0.83943516 86 82 87
0.19826887 -0.21004154 0.84508738 129 110 104
0.18824669 -0.18978945 0.83947691 79 74 76
0.19850535 -0.18982130 0.84609534 100 89 90
0.18750466 -0.16946097 0.83940259 166 165 169
0.19723693 -0.16961084 0.84378456 112 106 108
0.18740438 -0.15000043 0.83940934 186 184 189
0.19748433 -0.15090384 0.84661095 105 100 104
0.18683212 -0.13030244 0.83938306 121 118 122
0.19605572 -0.13028998 0.84485826 106 91 88
0.18678015 -0.10997684 0.83940674 74 70 73
0.19622369 -0.11006370 0.84569561 80 67 64
0.18650312 -0.08996169 0.83946458 128 125 130
0.19590533 -0.08873105 0.84598430 81 74 77
0.18607594 -0.07008663 0.83950168 185 183 187
0.19635512 -0.06994958 0.84956439 88 80 82
0.18563180 -0.05081482 0.83949938 150 147 150
0.19565663 -0.04917710 0.84824495 107 94 90
0.18427455 -0.03119039 0.83969195 50 48 53
0.19380684 -0.02891613 0.84331262 109 100 97
0.18702127 -0.00655464 0.83971004 97 93 96
0.19217515 -0.01193747 0.84095485 98 91 89
0.18991842 0.01040973 0.83725187 153 151 152
0.18993297 0.03052938 0.83460638 154 152 153
0.19036689 0.05066723 0.83288240 153 152 154
0.19010272 0.07000515 0.83172657 138 138 143
0.18990531 0.08931972 0.83086286 133 133 136
0.18974655 0.10933372 0.83016827 130 128 134
0.18962232 0.12933752 0.82962478 164 163 162
0.18952110 0.14933307 0.82918187 166 164 163
0.18943705 0.16932251 0.82881412 167 164 163
0.18936633 0.18930747 0.82850476 161 159 159
0.18962631 0.20980656 0.82823852 148 146 147
0.19058620 0.23078364 0.82800008 147 145 143
0.19063784 0.25067276 0.82780776 133 132 131
0.19059995 0.27065017 0.82764321 141 139 136
0.19056687 0.29062698 0.82749957 143 139 138
0.19053877 0.31060495 0.82737756 150 149 147
0.19051817 0.33059006 0.82728812 144 141 139
0.19051934 0.35061112 0.82729315 17 17 16
0.19052785 0.37064625 0.82733012 0 0 0
0.19052768 0.39066550 0.82732941 0 0 0
0.19052484 0.41067898 0.82731709 0 0 0
0.19052015 0.43068768 0.82729675 0 0 0
0.19051382 0.45069149 0.82726924 0 0 0
0.19050750 0.46568972 0.82724184 0 0 0
0.21062297 -0.56141967 0.83328689 0 0 0
0.21030051 -0.55014739 0.83338312 0 0 0
0.20996978 -0.52990236 0.83355261 0 0 0
0.21001628 -0.50984493 0.83373723 0 0 0
0.20967201 -0.48967569 0.83405725 0 0 0
0.21476461 -0.48249926 0.85551554 119 123 126
0.21158281 -0.48250281 0.86318130 117 125 124
0.20907342 -0.47557370 0.83481617 11 11 11
0.20577559 -0.47609952 0.84741658 117 126 125
0.21027765 -0.47072905 0.86535460 121 126 126
0.20136088 -0.44165401 0.83970795 142 139 138
0.20582714 -0.44720053 0.85014894 145 141 138
0.21539750 -0.45061842 0.86646270 124 125 123
0.20193839 -0.42882057 0.83963990 149 140 138
0.20654201 -0.43039787 0.84710425 141 136 133
0.21604108 -0.42986017 0.86672959 121 125 123
0.20206230 -0.41039999 0.83960628 152 146 138
0.20713893 -0.40953655 0.84796876 128 126 122
0.21606132 -0.40962671 0.86634769 117 119 120
0.20175668 -0.39179501 0.83954251 155 144 131
0.20667076 -0.38918748 0.84845588 127 123 116
0.21653283 -0.39027460 0.86869417 114 116 118
0.20135611 -0.37052755 0.83968806 149 140 128
0.20474671 -0.37118941 0.84510761 128 122 116
0.21531908 -0.36956521 0.86840009 114 117 119
0.20305513 -0.34997772 0.84361817 131 124 119
0.21500941 -0.34990560 0.86861378 112 116 119
0.20292561 -0.33034775 0.84700045 131 125 124
0.21426415 -0.32985585 0.86876588 111 112 115
0.20288610 -0.31119593 0.85022542 122 119 115
0.21415254 -0.30964554 0.86929936 107 109 113
0.20375791 -0.28964735 0.85587292 116 106 103
0.21366043 -0.28996270 0.86948030 105 108 114
0.20434155 -0.27341636 0.85832446 112 105 105
0.21345073 -0.26995793 0.87141045 106 108 112
0.20080833 -0.24715116 0.84965194 111 107 111
0.21288073 -0.24982314 0.87208914 104 106 113
0.20133606 -0.23013571 0.85188488 109 102 101
0.21308419 -0.22959819 0.87152904 101 102 108
0.20204564 -0.21912702 0.85488721 111 97 94
0.21246432 -0.20994206 0.87038847 98 96 103
0.21253516 -0.19031101 0.87073268 94 94 100
0.21250831 -0.17001271 0.87012090 92 94 100
0.20138477 -0.14583929 0.85836837 99 95 103
0.21236174 -0.14978626 0.87004714 91 92 100
0.20106096 -0.13598103 0.85698822 98 90 95
0.21182228 -0.12978526 0.86992651 70 66 69
0.21144550 -0.11021972 0.86938081 60 58 60
0.21158903 -0.09010247 0.86918710 58 57 58
0.21096989 -0.06978669 0.86760096 59 56 59
0.20789749 -0.04395748 0.85726243 101 98 98
0.21191007 -0.05262771 0.86411777 68 66 67
0.21014452 -0.02975366 0.84833340 104 101 104
0.21002123 -0.00188961 0.83951824 149 145 146
0.20988924 -0.01208663 0.84189712 105 101 101
0.21016025 0.01040892 0.83718113 151 150 150
0.20965235 0.03045075 0.83457745 158 155 155
0.21041759 0.05075472 0.83285581 155 153 154
0.21022510 0.07000395 0.83171228 140 140 143
0.21000704 0.08931829 0.83084957 132 133 137
0.20983200 0.10933224 0.83015703 134 134 138
0.20969486 0.12933591 0.82961444 162 160 161
0.20958340 0.14933156 0.82917345 165 162 162
0.20949106 0.16932130 0.82880812 159 156 156
0.20941327 0.18930647 0.82850039 159 156 156
0.20934422 0.21000113 0.82822714 162 159 158
0.21005324 0.23072657 0.82798947 171 169 168
0.21066790 0.25067145 0.82780339 148 142 137
0.21062701 0.27065003 0.82764271 128 128 127
0.21059071 0.29062714 0.82750007 139 138 137
0.21056016 0.31060586 0.82737998 144 143 141
0.21053713 0.33059060 0.82728949 136 132 130
0.21053962 0.35061374 0.82729926 18 17 17
0.21054874 0.37064846 0.82733509 0 0 0
0.21054768 0.39066623 0.82733095 0 0 0
0.21054411 0.41067891 0.82731696 0 0 0
0.21053855 0.43068682 0.82729509 0 0 0
0.21053126 0.45068997 0.82726645 0 0 0
0.21052431 0.46568822 0.82723917 0 0 0
0.23004363 -0.56136362 0.83320368 0 0 0
0.22969751 -0.54972083 0.83330259 0 0 0
0.22939581 -0.52984743 0.83346621 0 0 0
0.22944608 -0.50979086 0.83364882 0 0 0
0.22953797 -0.48981396 0.83398275 0 0 0
0.23484369 -0.48378090 0.85191354 117 122 122
0.23016942 -0.48442382 0.86479265 116 123 124
0.22867119 -0.47745882 0.83471047 19 20 20
0.22802643 -0.47794891 0.84228407 114 122 124
0.23018205 -0.47027477 0.86773079 116 122 122
0.22955418 -0.44994295 0.86954254 117 121 121
0.22986836 -0.43015012 0.87066019 113 120 120
0.22982894 -0.40994815 0.87053848 112 117 118
0.22988428 -0.39029876 0.87195049 112 115 118
0.22956827 -0.37000851 0.87254004 110 114 117
0.22969454 -0.35001290 0.87268435 107 111 115
0.23019884 -0.32992169 0.87277068 105 109 113
0.22954706 -0.31002952 0.87249917 104 107 112
0.22993908 -0.28998584 0.87325893 103 105 112
0.22938678 -0.26966748 0.87400912 101 103 111
0.22936350 -0.24985934 0.87451954 98 101 109
0.22997884 -0.23026963 0.87499203 97 98 106
0.23034325 -0.21000364 0.87535732 93 95 101
0.23023330 -0.18987785 0.87551335 91 92 99
0.23038964 -0.16994523 0.87553540 88 91 97
0.23031183 -0.15022461 0.87524401 88 90 96
0.23031093 -0.13028481 0.87475376 64 63 65
0.22995559 -0.10988055 0.87417340 59 55 56
0.23006901 -0.08939895 0.87337127 55 53 54
0.23031735 -0.06982215 0.87240169 56 52 54
0.22918336 -0.04134342 0.85767775 140 137 135
0.23008962 -0.05146800 0.86653631 73 70 71
0.22998555 -0.02976909 0.84851701 102 99 102
0.23014473 -0.00244768 0.83943057 139 138 139
0.22985420 -0.01247867 0.84189959 103 100 101
0.23018771 0.01055835 0.83705632 151 149 150
0.22968379 0.03057168 0.83451228 156 154 155
0.23020246 0.05075790 0.83282405 157 155 156
0.23034443 0.07000204 0.83168946 148 147 149
0.23010647 0.08931622 0.83083023 128 128 134
0.22991570 0.10933020 0.83014144 128 128 133
0.22976664 0.12933416 0.82960320 159 156 156
0.22964473 0.14932968 0.82916298 172 169 168
0.22954394 0.16931945 0.82879908 166 164 164
0.22945834 0.18930408 0.82848998 165 164 163
0.22938363 0.20999938 0.82822025 165 162 161
0.22946441 0.23056993 0.82798982 157 153 151
0.23040402 0.25085082 0.82779891 149 146 145
0.23065315 0.27064881 0.82763899 136 133 130
0.23061418 0.29062679 0.82749908 143 140 137
0.23058076 0.31060556 0.82737918 151 150 147
0.23055580 0.33059065 0.82728963 149 148 145
0.23055891 0.35061441 0.82730078 26 25 25
0.23056933 0.37064982 0.82733814 0 0 0
0.23056750 0.39066652 0.82733157 0 0 0
0.23056318 0.41067847 0.82731608 0 0 0
0.23055674 0.43068572 0.82729299 0 0 0
0.23054857 0.45068846 0.82726368 0 0 0
0.23054110 0.46568694 0.82723689 0 0 0
0.24946148 -0.56130994 0.83312402 0 0 0
0.24949053 -0.54985374 0.83322105 0 0 0
0.24953924 -0.52979499 0.83338373 0 0 0
0.24959731 -0.50974723 0.83357751 0 0 0
0.24951613 -0.48976851 0.83407660 2 3 3
0.24942428 -0.48554134 0.84871917 108 121 119
0.25076717 -0.48681435 0.86720674 113 120 122
0.24302890 -0.47931202 0.83493945 22 26 25
0.24987858 -0.46989322 0.87074501 113 119 120
0.24994222 -0.45024504 0.87381611 112 118 119
0.25018510 -0.43003513 0.87615045 111 116 118
0.25036323 -0.41010761 0.87704491 109 114 116
0.25975672 -0.40210083 0.88020865 108 117 117
0.24838371 -0.39025743 0.87742502 107 113 117
0.25799842 -0.38839087 0.88055316 105 112 114
0.24686337 -0.36996838 0.87757221 107 111 115
0.25682799 -0.37031617 0.88059772 105 110 115
0.24718794 -0.34974536 0.87746455 107 109 112
0.25716497 -0.35112700 0.88052562 106 108 112
0.24873267 -0.32996092 0.87748831 104 107 112
0.25883348 -0.33110160 0.88039432 102 106 111
0.24837467 -0.31011649 0.87744084 102 105 111
0.25889193 -0.30876906 0.88040821 101 105 110
0.24751753 -0.29031771 0.87774295 101 103 109
0.25757512 -0.28963208 0.88055067 100 102 108
0.24700519 -0.26998359 0.87798983 99 100 108
0.25683356 -0.26986696 0.88061716 98 100 107
0.24675782 -0.25009383 0.87827211 98 99 106
0.25655169 -0.24944403 0.88062142 96 98 104
0.24538119 -0.23033875 0.87861904 95 97 105
0.25508663 -0.22977416 0.88082872 93 97 104
0.24481853 -0.20985739 0.87900650 93 95 102
0.25442282 -0.21080797 0.88085543 92 94 100
0.24554662 -0.18977398 0.87910813 88 91 97
0.25501210 -0.19097433 0.88044655 88 90 98
0.24827443 -0.17001158 0.87900486 87 89 96
0.25832199 -0.17066326 0.88050269 88 89 96
0.24979411 -0.14967293 0.87828313 88 88 94
0.25943267 -0.15684436 0.88014148 89 89 93
0.24986690 -0.12970572 0.87806558 60 59 61
0.24984391 -0.10965337 0.87743381 57 53 55
0.24974917 -0.08998885 0.87613290 54 52 52
0.25004385 -0.07006632 0.87548320 54 51 54
0.24958970 -0.04124629 0.85832052 119 114 114
0.25005720 -0.05146397 0.86944622 76 71 72
0.25000247 -0.02975713 0.84885881 107 105 107
0.24987438 -0.00261489 0.83934826 135 134 134
0.24998917 -0.01279881 0.84193039 109 105 108
0.25005088 0.01044036 0.83698469 148 146 148
0.24985945 0.03056956 0.83445300 156 154 156
0.24982016 0.05056803 0.83279966 159 156 157
0.25046091 0.06999965 0.83166084 148 147 150
0.25020438 0.08931395 0.83080896 138 138 142
0.24999890 0.10932825 0.83012663 125 126 129
0.24983809 0.12933252 0.82959264 157 156 155
0.24970571 0.14932789 0.82915306 161 157 157
0.24959602 0.16931735 0.82878881 166 164 162
0.24950322 0.18930196 0.82848066 170 166 163
0.24942315 0.20999800 0.82821477 163 159 158
0.24935420 0.23069116 0.82798586 143 141 142
0.24969357 0.25048736 0.82779865 147 146 146
0.25062967 0.27069334 0.82762938 164 162 158
0.25063620 0.29062489 0.82749356 152 151 148
0.25060101 0.31060487 0.82737734 155 153 149
0.25057385 0.33058988 0.82728767 122 121 122
0.25057719 0.35061354 0.82729870 27 26 26
0.25058951 0.37065036 0.82733935 0 0 0
0.25058700 0.39066627 0.82733106 0 0 0
0.25058201 0.41067773 0.82731460 0 0 0
0.25057474 0.43068448 0.82729061 0 0 0
0.25056574 0.45068695 0.82726090 0 0 0
0.25055778 0.46568566 0.82723462 0 0 0
0.26959854 -0.56126250 0.83305361 0 0 0
0.26963041 -0.54980820 0.83315204 0 0 0
0.26968352 -0.52975202 0.83331616 0 0 0
0.26975398 -0.50972040 0.83353369 0 0 0
0.26938842 -0.49162565 0.83404782 5 5 5
0.27092490 -0.49010011 0.84775354 110 114 114
0.27045597 -0.48953312 0.86961058 114 120 119
0.26984994 -0.46988638 0.87362689 111 117 119
0.26902781 -0.45153782 0.87768252 111 116 116
0.27511621 -0.44278372 0.88052598 110 113 116
0.26215224 -0.43293344 0.87960715 110 114 117
0.27193820 -0.42956714 0.88114081 109 113 115
0.26120808 -0.41720278 0.87997280 108 112 116
0.27038211 -0.40989246 0.88137513 107 112 114
0.26984450 -0.38976464 0.88245482 107 111 114
0.26963945 -0.36979583 0.88283928 104 109 113
0.26962339 -0.34979079 0.88243482 104 107 111
0.27017973 -0.32972387 0.88194184 102 105 111
0.27023284 -0.30996574 0.88211391 100 104 108
0.26984679 -0.29014463 0.88261739 100 102 108
0.26970670 -0.27033946 0.88256379 98 100 106
0.26966886 -0.25013003 0.88247181 95 97 105
0.26954095 -0.22982815 0.88263098 93 95 104
0.26950078 -0.20956506 0.88253608 91 93 101
0.26953458 -0.18958130 0.88214841 87 91 97
0.27014966 -0.16954978 0.88164070 87 89 96
0.26152190 -0.14476829 0.87989139 84 86 92
0.27105937 -0.14990823 0.88071932 86 87 93
0.26293704 -0.12715210 0.87979576 56 55 57
0.27237335 -0.13046877 0.88036235 56 56 57
0.26891499 -0.10827070 0.87944823 54 52 54
0.27520088 -0.11624463 0.88011138 53 53 55
0.26979816 -0.09001826 0.87821943 54 51 53
0.26972806 -0.07026390 0.87798769 53 51 53
0.26957103 -0.04049644 0.85817101 115 111 111
0.27005228 -0.05083596 0.87159569 78 74 75
0.26998817 -0.02978007 0.84924090 112 109 109
0.27014989 -0.00261455 0.83923969 140 140 144
0.26998779 -0.01285689 0.84191557 112 109 112
0.26996449 0.01037204 0.83690760 145 144 145
0.27003211 0.03056741 0.83439331 151 150 152
0.26959865 0.05057065 0.83275600 154 152 152
0.27041673 0.07011706 0.83162415 143 142 145
0.27030161 0.08931179 0.83078874 133 132 136
0.27008159 0.10932640 0.83011249 129 128 131
0.26990861 0.12933067 0.82958079 156 154 155
0.26976597 0.14932597 0.82914238 169 166 164
0.26964775 0.16931535 0.82877900 163 161 160
0.26954807 0.18930013 0.82847262 167 162 158
0.26946214 0.20999641 0.82820850 165 160 159
0.26938698 0.23068881 0.82797748 167 163 161
0.26932649 0.25066788 0.82779157 158 154 152
0.27030505 0.27078106 0.82762903 150 148 146
0.27065972 0.29062480 0.82749333 136 133 130
0.27062095 0.31060391 0.82737480 150 149 144
0.27059122 0.33058838 0.82728392 140 139 134
0.27059514 0.35061236 0.82729589 35 34 34
0.27060933 0.37065031 0.82733926 0 0 0
0.27060604 0.39066540 0.82732922 0 0 0
0.27060059 0.41067672 0.82731256 0 0 0
0.27059260 0.43068320 0.82728814 0 0 0
0.27058282 0.45068549 0.82725822 0 0 0
0.27057432 0.46568432 0.82723223 0 0 0
0.28973848 -0.56122723 0.83300125 0 0 0
0.28977292 -0.54977400 0.83310023 0 0 0
0.28983217 -0.52972299 0.83327054 0 0 0
0.28991636 -0.50970737 0.83351252 0 0 0
0.29257204 -0.50207893 0.86899803 109 117 118
0.28933159 -0.49381758 0.83418677 8 10 10
0.28976600 -0.49476657 0.84917148 105 117 119
0.28977255 -0.49026783 0.87209273 112 116 117
0.29022309 -0.47002294 0.87579950 110 115 118
0.28876144 -0.45544870 0.87886613 109 114 116
0.29105200 -0.44588133 0.88100128 108 113 115
0.29045682 -0.43034372 0.88216092 107 112 114
0.28939878 -0.40985300 0.88276468 105 111 113
0.28989200 -0.39005902 0.88395406 105 110 112
0.28993976 -0.37026219 0.88410200 105 107 112
0.28975958 -0.35017973 0.88355308 103 106 111
0.28960037 -0.33014444 0.88306799 101 105 110
0.28970313 -0.31041108 0.88338090 100 102 109
0.28986388 -0.28995898 0.88386963 99 101 107
0.28987154 -0.26934364 0.88389331 96 98 105
0.28980683 -0.24942818 0.88369794 95 96 103
0.28971066 -0.22949575 0.88340570 92 95 100
0.28960004 -0.20956590 0.88306664 90 92 99
0.28951196 -0.18966587 0.88279617 88 89 97
0.28939359 -0.16978330 0.88226807 88 89 95
0.29046096 -0.14965297 0.88137501 85 86 91
0.29034448 -0.12984806 0.88069135 55 54 54
0.28504668 -0.10445955 0.87981285 52 51 53
0.29182862 -0.11177215 0.88032609 53 51 53
0.28753312 -0.09000760 0.87940292 53 50 54
0.29764413 -0.09062895 0.88021284 54 51 53
0.28620377 -0.07182118 0.87942316 52 49 51
0.29540244 -0.06846629 0.88043229 51 49 51
0.28988668 -0.04053720 0.85903470 107 104 103
0.28946339 -0.05035798 0.87267811 78 75 75
0.29618700 -0.05891416 0.88033878 46 44 44
0.28998492 -0.02978629 0.84960321 118 114 113
0.29068385 -0.00304088 0.83926014 128 128 131
0.28975752 -0.01326085 0.84199112 113 110 113
0.28988062 0.01030398 0.83684763 142 141 143
0.29020224 0.03056529 0.83433461 153 151 151
0.28963582 0.05065664 0.83270607 153 151 151
0.29013849 0.07004282 0.83159796 147 145 147
0.29039804 0.08930969 0.83076906 130 129 133
0.29016324 0.10932440 0.83009729 136 136 139
0.28997863 0.12932886 0.82956916 158 157 157
0.28982597 0.14932418 0.82913243 162 160 159
0.28969942 0.16931359 0.82877036 171 169 166
0.28959311 0.18929867 0.82846623 160 158 158
0.28950080 0.20999479 0.82820216 160 158 156
0.28942131 0.23068807 0.82797473 156 152 151
0.28935534 0.25066619 0.82778604 160 158 155
0.28964382 0.27045918 0.82762615 158 155 148
0.29068094 0.29062244 0.82748665 158 157 151
0.29063969 0.31060183 0.82736924 148 147 143
0.29060790 0.33058630 0.82727874 141 140 137
0.29061061 0.35060838 0.82728649 44 43 41
0.29062802 0.37064886 0.82733602 0 0 0
0.29062438 0.39066371 0.82732563 0 0 0
0.29061877 0.41067528 0.82730967 0 0 0
0.29061030 0.43068185 0.82728556 0 0 0
0.29059987 0.45068420 0.82725584 0 0 0
0.29059080 0.46568307 0.82723002 0 0 0
0.30987891 -0.56119746 0.83295706 0 0 0
0.30991793 -0.54974870 0.83306193 0 0 0
0.30998706 -0.52970837 0.83324760 0 0 0
0.31008597 -0.50970775 0.83351329 0 0 0
0.31206061 -0.50331787 0.85571361 101 115 113
0.31063959 -0.50420663 0.86951797 110 117 117
0.30900538 -0.49642413 0.83437032 10 11 11
0.30896859 -0.49672644 0.84327529 105 113 116
0.31009560 -0.48994941 0.87369885 110 115 116
0.31002186 -0.46981262 0.87709961 108 114 115
0.31029908 -0.45652425 0.87935495 106 112 115
0.30987556 -0.44678623 0.88090291 107 111 114
0.30999437 -0.43012609 0.88183950 107 110 113
0.30990679 -0.41021391 0.88265964 105 109 111
0.30970125 -0.38999549 0.88380818 106 108 111
0.30974194 -0.37018720 0.88392347 103 107 111
0.30960856 -0.35017456 0.88354171 102 104 110
0.30948658 -0.33019145 0.88319288 100 104 109
0.30958298 -0.31044189 0.88346841 100 103 107
0.30966988 -0.29001176 0.88386211 95 99 106
0.30975510 -0.26938028 0.88380711 95 97 104
0.30963527 -0.24940528 0.88361763 94 95 102
0.30960271 -0.22952575 0.88352308 91 95 100
0.30958736 -0.20966346 0.88347889 88 91 99
0.30955367 -0.18979121 0.88338214 87 91 96
0.30944229 -0.16988166 0.88306341 87 89 94
0.31035323 -0.14984703 0.88230233 84 86 89
0.31043663 -0.12997512 0.88155319 55 52 53
0.31031773 -0.11012388 0.88121489 52 51 52
0.31031254 -0.09032120 0.88119773 53 51 52
0.31044560 -0.07055035 0.88157516 51 49 50
0.31004781 -0.04055267 0.85936259 114 110 109
0.30973309 -0.04818137 0.87136413 83 78 79
0.31094909 -0.05781714 0.88116623 49 49 49
0.31004354 -0.02982826 0.84980751 125 121 119
0.30989993 -0.00336172 0.83926467 124 125 129
0.31001820 -0.01348420 0.84200885 119 118 118
0.30990041 0.01035607 0.83677327 132 132 136
0.31027093 0.03065224 0.83427088 149 147 148
0.30977006 0.05065413 0.83266445 152 150 150
0.30974277 0.06987078 0.83157639 148 147 149
0.31049294 0.08930743 0.83074782 130 129 133
0.31024420 0.10932243 0.83008227 130 131 133
0.31004783 0.12932696 0.82955685 161 159 158
0.30988596 0.14932261 0.82912371 168 166 167
0.30975077 0.16931188 0.82876201 164 162 161
0.30963804 0.18929734 0.82846037 160 156 154
0.30953894 0.20999304 0.82819524 169 167 164
0.30945504 0.23068696 0.82797078 142 139 139
0.30938320 0.25066391 0.82777853 165 163 159
0.30932447 0.27064305 0.82762138 150 146 141
0.31040854 0.29080104 0.82748073 141 140 137
0.31065836 0.31059992 0.82736415 152 147 143
0.31062370 0.33058355 0.82727187 165 163 159
0.31062390 0.35060243 0.82727244 59 58 58
0.31064499 0.37064553 0.82732857 0 0 0
0.31064172 0.39066098 0.82731985 0 0 0
0.31063652 0.41067347 0.82730600 0 0 0
0.31062791 0.43068055 0.82728306 0 0 0
0.31061712 0.45068336 0.82725430 0 0 0
0.31060751 0.46568234 0.82722871 0 0 0
0.33001658 -0.56116669 0.83291140 0 0 0
0.33006244 -0.54972566 0.83302706 0 0 0
0.33014612 -0.52970231 0.83323813 0 0 0
0.33026595 -0.50962186 0.83357676 1 1 1
0.32926577 -0.50349850 0.84731725 105 114 117
0.33073372 -0.50703931 0.87078381 109 115 116
0.32552978 -0.49859016 0.83473186 27 30 30
0.32979762 -0.49008360 0.87472726 108 114 115
0.33024575 -0.46990102 0.87766348 106 113 114
0.33042892 -0.45336556 0.87938843 106 113 113
0.32853708 -0.44336636 0.88030024 105 111 112
0.33001423 -0.42984280 0.88094404 104 110 112
0.33026467 -0.40967494 0.88207436 104 109 111
0.33009456 -0.38972574 0.88319640 105 107 112
0.32946000 -0.37002636 0.88354083 103 105 110
0.32941063 -0.35012082 0.88340723 101 104 108
0.32987126 -0.33003732 0.88319330 99 103 108
0.32986054 -0.31056231 0.88331900 98 101 108
0.32944536 -0.29060234 0.88350114 97 99 105
0.32961747 -0.27001168 0.88343185 94 98 105
0.32953153 -0.24948771 0.88346861 93 95 103
0.32946938 -0.22953654 0.88356527 90 94 101
0.32946861 -0.20968333 0.88356288 89 92 98
0.32947386 -0.18983241 0.88357630 87 90 96
0.32960623 -0.16981918 0.88343053 88 89 96
0.33037264 -0.15011352 0.88255843 84 84 89
0.33035341 -0.13001819 0.88184716 52 51 52
0.33028273 -0.11017889 0.88165760 51 50 51
0.33037989 -0.09039434 0.88191619 53 50 51
0.33052476 -0.07060913 0.88230344 49 48 49
0.33016198 -0.04056026 0.85952328 117 111 110
0.32996391 -0.04788500 0.87125586 86 82 84
0.33030519 -0.05761053 0.88171941 52 50 52
0.33002607 -0.02980594 0.84988958 135 130 128
0.32974655 -0.00338217 0.83920707 131 131 132
0.33005439 -0.01353089 0.84198403 133 127 126
0.33002056 0.01045152 0.83669328 127 128 132
0.33018212 0.03063978 0.83422557 149 149 151
0.32990420 0.05065191 0.83262770 155 153 152
0.32952639 0.06994225 0.83154391 141 141 142
0.33044028 0.08942755 0.83072303 130 130 133
0.33032439 0.10932044 0.83006712 133 133 137
0.33011684 0.12932520 0.82954553 158 155 153
0.32994595 0.14932125 0.82911609 153 150 150
0.32980170 0.16931015 0.82875362 171 169 166
0.32968224 0.18929576 0.82845344 154 151 152
0.32957798 0.20999209 0.82819138 152 148 147
0.32948732 0.23068491 0.82796357 159 157 154
0.32941227 0.25066287 0.82777498 157 154 149
0.32934909 0.27064138 0.82761627 149 146 142
0.32979839 0.29052906 0.82747796 155 154 148
0.33067673 0.31059797 0.82735897 143 142 140
0.33063920 0.33058084 0.82726508 157 155 150
0.33063582 0.35059574 0.82725667 68 66 65
0.33065973 0.37064011 0.82731647 0 0 0
0.33065778 0.39065708 0.82731156 0 0 0
0.33065381 0.41067129 0.82730161 0 0 0
0.33064554 0.43067944 0.82728091 0 0 0
0.33063468 0.45068304 0.82725372 0 0 0
0.33062469 0.46568235 0.82722873 0 0 0
0.35014578 -0.56112590 0.83285086 0 0 0
0.35020043 -0.54969509 0.83298078 0 0 0
0.35030187 -0.52969198 0.83322198 0 0 0
0.34992742 -0.51109186 0.83374291 7 7 7
0.35040801 -0.51009099 0.85036364 109 113 114
0.35020301 -0.50884336 0.87072427 108 113 114
0.35009015 -0.48985170 0.87527575 106 113 114
0.35016126 -0.47013965 0.87800652 105 111 112
0.35043224 -0.45036950 0.87936754 103 110 112
0.34268944 -0.44117595 0.88007770 105 109 112
0.35610385 -0.43756069 0.87985623 102 109 111
0.34889187 -0.42880320 0.88047531 102 109 111
