ply
format ascii 1.0
element vertex 1068
property float x
property float y
property float z
property uchar red
property uchar green
property uchar blue
end_header
-0.32639322 0.09818521 0.70393753 178 178 176
-0.32585326 0.09838955 0.70540255 177 177 173
-0.26973316 0.10401800 0.74575561 182 175 169
-0.26844421 0.10401800 0.74575561 171 166 160
-0.26656872 0.10378964 0.74411839 162 156 154
-0.26470143 0.10356227 0.74248832 159 153 153
-0.25985274 0.10367583 0.74330246 181 172 173
-0.25885183 0.10378964 0.74411839 170 161 162
-0.25813237 0.10401800 0.74575561 179 171 171
-0.25627953 0.10378964 0.74411839 189 183 182
-0.25471377 0.10367583 0.74330246 189 185 182
-0.25398603 0.10390369 0.74493611 186 183 179
-0.25297645 0.10401800 0.74575561 187 183 180
-0.33404028 0.09950524 0.70466930 180 179 178
-0.33004332 0.09940191 0.70393753 168 169 169
-0.32483920 0.09929880 0.70320731 169 170 161
-0.26814920 0.10519125 0.74493611 166 161 158
-0.26656872 0.10507578 0.74411839 171 165 165
-0.26470143 0.10484561 0.74248832 171 165 165
-0.26370695 0.10496057 0.74330246 170 164 162
-0.26242220 0.10496057 0.74330246 172 167 165
-0.26056606 0.10473090 0.74167597 179 173 172
-0.25956813 0.10484561 0.74248832 180 174 174
-0.25856799 0.10496057 0.74330246 179 173 173
-0.25784871 0.10519125 0.74493611 184 179 179
-0.25599852 0.10496057 0.74330246 187 183 181
-0.25415641 0.10473090 0.74167597 187 183 180
-0.25370723 0.10507578 0.74411839 183 182 178
-0.25269845 0.10519125 0.74493611 178 177 173
-0.33194941 0.10082801 0.70540255 174 174 174
-0.33038640 0.10072320 0.70466930 166 167 167
-0.32483920 0.10051423 0.70320731 171 171 167
-0.26756117 0.10624531 0.74330246 175 166 165
-0.26569375 0.10601282 0.74167597 171 162 161
-0.26412284 0.10589696 0.74086541 175 166 165
-0.26028126 0.10589696 0.74086541 186 181 174
-0.25928411 0.10601282 0.74167597 187 179 175
-0.25756568 0.10636193 0.74411839 185 179 177
-0.25543833 0.10601282 0.74167597 190 184 182
-0.25315145 0.10612894 0.74248832 183 180 177
-0.33160436 0.10194117 0.70466930 167 167 167
-0.33004332 0.10183531 0.70393753 166 166 166
-0.32780540 0.10151905 0.70175141 164 164 164
-0.32625476 0.10141406 0.70102566 169 169 169
-0.32537955 0.10151905 0.70175141 178 178 178
-0.32483920 0.10172967 0.70320731 181 181 181
-0.32362375 0.10172967 0.70320731 176 175 173
-0.26825762 0.10729475 0.74167597 163 162 160
-0.26726809 0.10741227 0.74248832 163 162 160
-0.26540339 0.10717749 0.74086541 166 159 158
-0.26383451 0.10706048 0.74005657 174 165 164
-0.25971359 0.10694373 0.73924953 192 184 176
-0.25871798 0.10706048 0.74005657 192 184 178
-0.25460267 0.10694373 0.73924953 182 179 174
-0.32935929 0.10283843 0.70247859 164 164 163
-0.32746643 0.10262574 0.70102566 168 168 168
-0.32591772 0.10251971 0.70030147 168 168 168
-0.32504308 0.10262574 0.70102566 169 169 167
-0.32450256 0.10283843 0.70247859 174 174 172
-0.32328838 0.10283843 0.70247859 174 173 171
-0.27329946 0.10905394 0.74493611 175 174 172
-0.27141538 0.10881478 0.74330246 172 171 169
-0.26855144 0.10869560 0.74248832 166 166 164
-0.26726809 0.10869560 0.74248832 166 166 164
-0.26569375 0.10857668 0.74167597 162 160 158
-0.26383451 0.10833961 0.74005657 161 160 158
-0.25432533 0.10810357 0.73844427 180 176 171
-0.32935929 0.10405260 0.70247859 168 168 166
-0.32450256 0.10405260 0.70247859 180 179 177
-0.32328838 0.10405260 0.70247859 184 183 181
-0.27488908 0.11046289 0.74575561 169 165 164
-0.27329946 0.11034150 0.74493611 183 182 180
-0.27141538 0.11009952 0.74330246 185 185 183
-0.27042717 0.11022038 0.74411839 181 181 177
-0.26855144 0.10997893 0.74248832 173 173 169
-0.26726809 0.10997893 0.74248832 176 176 172
-0.26540339 0.10973854 0.74086541 178 176 168
-0.26383451 0.10961874 0.74005657 181 178 170
-0.25971359 0.10949919 0.73924953 170 161 159
-0.25843588 0.10949919 0.73924953 169 160 157
-0.25687799 0.10937992 0.73844427 182 174 170
-0.25588039 0.10949919 0.73924953 181 181 174
-0.25432533 0.10937992 0.73844427 182 180 174
-0.25277361 0.10926089 0.73764074 187 182 176
-0.25204721 0.10949919 0.73924953 182 178 171
-0.32935929 0.10526678 0.70247859 161 160 159
-0.27458701 0.11162906 0.74493611 175 174 170
-0.27270010 0.11138426 0.74330246 186 186 182
-0.27082145 0.11114053 0.74167597 183 183 179
-0.26983476 0.11126226 0.74248832 176 176 169
-0.26825762 0.11114053 0.74167597 175 175 167
-0.26697567 0.11114053 0.74167597 181 180 172
-0.26511365 0.11089787 0.74005657 183 180 173
-0.26354679 0.11077693 0.73924953 182 178 172
-0.25914839 0.11053585 0.73764074 178 172 170
-0.25787345 0.11053585 0.73764074 177 174 169
-0.25659847 0.11053585 0.73764074 184 181 176
-0.25532353 0.11053585 0.73764074 178 178 170
-0.27466723 0.11242246 0.74167597 178 177 173
-0.27368474 0.11254559 0.74248832 174 173 168
-0.27210340 0.11242246 0.74167597 180 180 174
-0.27023014 0.11217699 0.74005657 187 187 180
-0.26895103 0.11217699 0.74005657 183 183 176
-0.26738000 0.11205466 0.73924953 183 182 175
-0.26639277 0.11217699 0.74005657 187 184 178
-0.26482454 0.11205466 0.73924953 183 179 174
-0.26297325 0.11181080 0.73764074 185 180 175
-0.25914839 0.11181080 0.73764074 187 184 181
-0.25759313 0.11168927 0.73683894 188 186 182
-0.28453797 0.11458193 0.74740005 186 184 182
-0.28355879 0.11470839 0.74822497 191 190 187
-0.27466723 0.11370438 0.74167597 164 162 156
-0.27368474 0.11382892 0.74248832 170 167 161
-0.27180600 0.11358012 0.74086541 173 171 165
-0.26993546 0.11333240 0.73924953 177 175 168
-0.26865771 0.11333240 0.73924953 175 173 167
-0.26738000 0.11333240 0.73924953 176 173 167
-0.26610225 0.11333240 0.73924953 184 181 174
-0.26453605 0.11320894 0.73844427 176 172 168
-0.26297325 0.11308575 0.73764074 180 176 172
-0.26169831 0.11308575 0.73764074 185 182 179
-0.26042333 0.11308575 0.73764074 178 176 172
-0.25886670 0.11296283 0.73683894 180 179 175
-0.25759313 0.11296283 0.73683894 182 181 177
-0.28485203 0.11600164 0.74822497 182 181 177
-0.28355879 0.11600164 0.74822497 184 183 178
-0.28164381 0.11574613 0.74657691 172 172 165
-0.27746704 0.11561880 0.74575561 163 156 154
-0.27526960 0.11523847 0.74330246 169 163 161
-0.27428558 0.11536497 0.74411839 178 174 170
-0.27270010 0.11523847 0.74330246 175 170 164
-0.27052549 0.11486065 0.74086541 173 168 161
-0.26895103 0.11473525 0.74005657 175 172 164
-0.26767188 0.11473525 0.74005657 178 175 167
-0.26639277 0.11473525 0.74005657 183 180 172
-0.26482454 0.11461013 0.73924953 181 178 171
-0.26297325 0.11436071 0.73764074 181 178 171
-0.26169831 0.11436071 0.73764074 183 183 176
-0.26042333 0.11436071 0.73764074 182 182 176
-0.25914839 0.11436071 0.73764074 178 178 171
-0.25787345 0.11436071 0.73764074 172 172 165
-0.25631958 0.11423640 0.73683894 178 178 171
-0.25504601 0.11423640 0.73683894 179 179 175
-0.25349689 0.11411236 0.73603892 185 184 181
-0.25222471 0.11411236 0.73603892 188 187 185
-0.28485203 0.11729489 0.74822497 179 180 173
-0.28355879 0.11729489 0.74822497 181 181 174
-0.28164381 0.11703653 0.74657691 180 178 172
-0.27746704 0.11690778 0.74575561 177 168 167
-0.27557173 0.11665112 0.74411839 182 174 173
-0.27458701 0.11677931 0.74493611 190 184 182
-0.27270010 0.11652321 0.74330246 187 183 180
-0.27052549 0.11614117 0.74086541 178 175 171
-0.26924497 0.11614117 0.74086541 179 177 169
-0.26767188 0.11601438 0.74005657 180 178 170
-0.26639277 0.11601438 0.74005657 185 181 173
-0.26482454 0.11588787 0.73924953 188 185 177
-0.26325971 0.11576162 0.73844427 184 181 173
-0.26198336 0.11576162 0.73844427 174 174 167
-0.26070702 0.11576162 0.73844427 174 174 167
-0.25943068 0.11576162 0.73844427 175 175 169
-0.25787345 0.11563566 0.73764074 178 176 171
-0.25659847 0.11563566 0.73764074 186 182 178
-0.25532353 0.11563566 0.73764074 189 189 186
-0.25377244 0.11550996 0.73683894 191 190 188
-0.25249887 0.11550996 0.73683894 189 188 186
-0.28453797 0.11845738 0.74740005 177 177 171
-0.28324616 0.11845738 0.74740005 173 172 165
-0.28164381 0.11832692 0.74657691 174 169 162
-0.27777264 0.11832692 0.74657691 183 178 175
-0.27587458 0.11806687 0.74493611 186 181 178
-0.27488908 0.11819676 0.74575561 189 186 182
-0.27329946 0.11806687 0.74493611 186 186 179
-0.27111810 0.11767892 0.74248832 181 181 174
-0.26983476 0.11767892 0.74248832 179 179 170
-0.26825762 0.11755016 0.74167597 177 176 167
-0.26697567 0.11755016 0.74167597 182 179 171
-0.26511365 0.11729351 0.74005657 183 183 174
-0.26325971 0.11703797 0.73844427 180 180 171
-0.26226905 0.11716560 0.73924953 166 165 160
-0.26099133 0.11716560 0.73924953 168 166 163
-0.25971359 0.11716560 0.73924953 170 166 165
-0.25815433 0.11703797 0.73844427 179 173 172
-0.25659847 0.11691061 0.73764074 182 176 174
-0.25532353 0.11691061 0.73764074 186 182 181
-0.25404859 0.11691061 0.73764074 187 184 182
-0.25249887 0.11678354 0.73683894 187 186 183
-0.28453797 0.11974921 0.74740005 177 176 172
-0.28324616 0.11974921 0.74740005 177 175 170
-0.28164381 0.11961733 0.74657691 179 174 167
-0.27937070 0.11974921 0.74740005 181 177 172
-0.27777264 0.11961733 0.74657691 183 180 174
-0.27617806 0.11948574 0.74575561 184 182 175
-0.27519181 0.11961733 0.74657691 181 181 174
-0.27360010 0.11948574 0.74575561 181 181 174
-0.27171329 0.11922342 0.74411839 183 183 176
-0.27042717 0.11922342 0.74411839 179 179 170
-0.26884589 0.11909269 0.74330246 177 178 170
-0.26726809 0.11896225 0.74248832 177 178 170
-0.26540339 0.11870222 0.74086541 174 175 169
-0.26383451 0.11857263 0.74005657 164 165 161
-0.26255539 0.11857263 0.74005657 151 148 149
-0.26156181 0.11870222 0.74086541 155 151 153
-0.25999713 0.11857263 0.74005657 158 152 152
-0.25871798 0.11857263 0.74005657 174 169 169
-0.25715813 0.11844333 0.73924953 176 171 171
-0.25588039 0.11844333 0.73924953 176 173 171
-0.25432533 0.11831430 0.73844427 183 181 179
-0.25304899 0.11831430 0.73844427 188 187 183
-0.28293422 0.12090772 0.74657691 177 175 168
-0.28133398 0.12077471 0.74575561 179 175 167
-0.27906302 0.12090772 0.74657691 190 187 181
-0.27746704 0.12077471 0.74575561 177 174 168
-0.27587458 0.12064199 0.74493611 174 171 165
-0.27488908 0.12077471 0.74575561 180 180 173
-0.27329946 0.12064199 0.74493611 181 181 175
-0.27111810 0.12024558 0.74248832 183 183 177
-0.27013063 0.12037743 0.74330246 182 183 177
-0.26855144 0.12024558 0.74248832 183 184 179
-0.26726809 0.12024558 0.74248832 183 185 180
-0.26540339 0.11998275 0.74086541 182 183 181
-0.26383451 0.11985176 0.74005657 159 160 159
-0.26284233 0.11998275 0.74086541 132 131 133
-0.26156181 0.11998275 0.74086541 145 144 145
-0.25999713 0.11985176 0.74005657 165 162 164
-0.25871798 0.11985176 0.74005657 176 175 175
-0.25460267 0.11972106 0.73924953 188 187 186
-0.25304899 0.11959065 0.73844427 191 185 183
-0.28200248 0.12179571 0.74411839 166 166 159
-0.28040853 0.12166216 0.74330246 165 164 157
-0.27973726 0.12192956 0.74493611 176 173 169
-0.27875602 0.12206369 0.74575561 188 184 181
-0.27716213 0.12192956 0.74493611 176 172 169
-0.27557173 0.12179571 0.74411839 168 165 161
-0.27458701 0.12192956 0.74493611 175 173 169
-0.27299944 0.12179571 0.74411839 180 178 175
-0.27082145 0.12139595 0.74167597 178 178 175
-0.26953954 0.12139595 0.74167597 174 174 171
-0.26825762 0.12139595 0.74167597 176 177 174
-0.26697567 0.12139595 0.74167597 178 179 177
-0.26511365 0.12113089 0.74005657 178 179 178
-0.26354679 0.12099879 0.73924953 173 174 173
-0.26255539 0.12113089 0.74005657 166 166 165
-0.26127625 0.12113089 0.74005657 171 171 170
-0.25971359 0.12099879 0.73924953 171 170 170
-0.25432533 0.12086698 0.73844427 186 185 180
-0.25304899 0.12086698 0.73844427 192 189 182
-0.28138474 0.12281224 0.74248832 163 163 159
-0.28010142 0.12281224 0.74248832 155 155 153
-0.27943018 0.12308186 0.74411839 162 161 159
-0.27844968 0.12321711 0.74493611 176 175 173
-0.27685788 0.12308186 0.74411839 175 171 169
-0.27526960 0.12294690 0.74330246 179 176 174
-0.26796442 0.12254380 0.74086541 170 170 170
-0.26668391 0.12254380 0.74086541 180 181 179
-0.26511365 0.12241001 0.74005657 180 181 180
-0.26354679 0.12227653 0.73924953 172 172 171
-0.26127625 0.12241001 0.74005657 174 173 171
-0.28076968 0.12382432 0.74086541 158 158 155
-0.27948916 0.12382432 0.74086541 155 154 154
-0.27881807 0.12409557 0.74248832 158 156 156
-0.27783906 0.12423164 0.74330246 168 165 166
-0.27655432 0.12423164 0.74330246 175 173 170
-0.27526960 0.12423164 0.74330246 185 184 181
-0.26796442 0.12382432 0.74086541 157 157 157
-0.26668391 0.12382432 0.74086541 166 167 167
-0.26511365 0.12368914 0.74005657 182 182 182
-0.26354679 0.12355426 0.73924953 182 181 181
-0.26127625 0.12368914 0.74005657 176 175 174
-0.28046316 0.12496828 0.74005657 170 168 164
-0.27918404 0.12496828 0.74005657 174 171 166
-0.27594918 0.12524173 0.74167597 180 179 175
-0.27496809 0.12537891 0.74248832 183 182 178
-0.26796442 0.12510484 0.74086541 148 145 145
-0.26668391 0.12510484 0.74086541 161 160 160
-0.26511365 0.12496828 0.74005657 182 181 181
-0.26354679 0.12483199 0.73924953 182 181 181
-0.26156181 0.12510484 0.74086541 184 184 183
-0.26028126 0.12510484 0.74086541 186 186 184
-0.26639277 0.12624741 0.74005657 167 167 167
-0.26482454 0.12610972 0.73924953 180 180 180
-0.26354679 0.12610972 0.73924953 171 171 171
-0.26482454 0.12738746 0.73924953 182 182 182
-0.07130422 0.09539091 0.52713209 189 186 184
-0.07215922 0.09622718 0.52672249 166 162 159
-0.07124881 0.09622718 0.52672249 187 183 180
-0.07028381 0.09615248 0.52631354 187 187 180
-0.06942802 0.09622718 0.52672249 188 187 182
-0.07301288 0.09706216 0.52631354 175 166 165
-0.07215922 0.09713759 0.52672249 166 157 156
-0.07124881 0.09713759 0.52672249 167 158 157
-0.07028381 0.09706216 0.52631354 182 173 173
-0.06942802 0.09713759 0.52672249 182 179 177
-0.07580080 0.09804798 0.52672249 170 161 162
-0.07489040 0.09804798 0.52672249 173 164 165
-0.07392257 0.09797186 0.52631354 185 176 175
-0.07301288 0.09797186 0.52631354 184 176 174
-0.07215922 0.09804798 0.52672249 174 164 164
-0.07124881 0.09804798 0.52672249 175 165 165
-0.07033842 0.09804798 0.52672249 186 178 179
-0.06948201 0.09812422 0.52713209 179 175 175
-0.06851763 0.09804798 0.52672249 172 171 171
-0.06760722 0.09804798 0.52672249 139 139 142
-0.06674869 0.09812422 0.52713209 117 116 120
-0.06588882 0.09820058 0.52754229 157 156 159
-0.07762159 0.09895837 0.52672249 176 171 171
-0.07574195 0.09888154 0.52631354 165 159 160
-0.07483226 0.09888154 0.52631354 171 165 164
-0.07386522 0.09880483 0.52590525 175 168 165
-0.07295623 0.09880483 0.52590525 174 166 162
-0.07215922 0.09895837 0.52672249 171 165 162
-0.07124881 0.09895837 0.52672249 159 154 153
-0.07028381 0.09888154 0.52631354 149 148 148
-0.06942802 0.09895837 0.52672249 141 140 143
-0.06851763 0.09895837 0.52672249 156 155 160
-0.06760722 0.09895837 0.52672249 165 165 170
-0.06674869 0.09903533 0.52713209 160 160 164
-0.06583759 0.09903533 0.52713209 177 177 179
-0.06492648 0.09903533 0.52713209 191 191 190
-0.06401538 0.09903533 0.52713209 188 188 182
-0.06305524 0.09895837 0.52672249 181 179 174
-0.06214485 0.09895837 0.52672249 166 162 159
-0.06123445 0.09895837 0.52672249 167 163 158
-0.11941440 0.12564136 0.66265088 181 181 179
-0.11815357 0.12551866 0.66200376 181 181 181
-0.07756133 0.09979124 0.52631354 172 168 164
-0.07659218 0.09971382 0.52590525 175 170 166
-0.07568319 0.09971382 0.52590525 176 171 167
-0.07477421 0.09971382 0.52590525 177 171 166
-0.07380796 0.09963652 0.52549756 180 175 169
-0.07295623 0.09971382 0.52590525 173 167 165
-0.07210319 0.09979124 0.52631354 175 171 169
-0.07119350 0.09979124 0.52631354 143 142 140
-0.07022928 0.09971382 0.52590525 91 91 95
-0.06937411 0.09979124 0.52631354 92 92 99
-0.06846443 0.09979124 0.52631354 109 111 119
-0.06755473 0.09979124 0.52631354 143 144 148
-0.06669683 0.09986877 0.52672249 170 170 172
-0.06578644 0.09986877 0.52672249 180 180 179
-0.06487603 0.09986877 0.52672249 186 186 179
-0.06396564 0.09986877 0.52672249 174 170 165
-0.06214485 0.09986877 0.52672249 182 175 173
-0.06123445 0.09986877 0.52672249 184 178 176
-0.11941440 0.12678669 0.66265088 186 186 185
-0.11826906 0.12678669 0.66265088 184 184 182
-0.07562452 0.10054480 0.52549756 182 177 170
-0.07471624 0.10054480 0.52549756 177 171 165
-0.07380796 0.10054480 0.52549756 181 175 169
-0.07289968 0.10054480 0.52549756 171 165 164
-0.07204725 0.10062280 0.52590525 172 167 167
-0.07113827 0.10062280 0.52590525 159 156 157
-0.07017484 0.10054480 0.52549756 120 123 123
-0.06932030 0.10062280 0.52590525 135 139 140
-0.06841131 0.10062280 0.52590525 153 157 159
-0.06750233 0.10062280 0.52590525 160 164 163
-0.06659334 0.10062280 0.52590525 173 175 170
-0.06573536 0.10070092 0.52631354 182 183 176
-0.06482567 0.10070092 0.52631354 183 182 176
-0.06391598 0.10070092 0.52631354 166 158 157
-0.06209660 0.10070092 0.52631354 187 178 178
-0.12079591 0.12818263 0.66394889 176 176 176
-0.11941440 0.12793204 0.66265088 180 180 180
-0.11815357 0.12780710 0.66200376 173 173 173
-0.11666755 0.12743376 0.66006994 184 184 184
-0.07471624 0.10145308 0.52549756 174 167 162
-0.07380796 0.10145308 0.52549756 179 171 167
-0.07289968 0.10145308 0.52549756 170 164 164
-0.07108312 0.10145308 0.52549756 182 178 179
-0.07017484 0.10145308 0.52549756 166 167 167
-0.06926656 0.10145308 0.52549756 176 178 177
-0.06835828 0.10145308 0.52549756 179 182 179
-0.06745000 0.10145308 0.52549756 175 178 174
-0.06659334 0.10153179 0.52590525 178 178 172
-0.11918140 0.12882552 0.66135788 175 175 175
-0.11803830 0.12882552 0.66135788 177 177 177
-0.11644079 0.12832473 0.65878701 183 183 183
-0.07562452 0.10236136 0.52549756 162 159 153
-0.07471624 0.10236136 0.52549756 160 156 151
-0.07375079 0.10228207 0.52509052 176 170 168
-0.07289968 0.10236136 0.52549756 189 183 183
-0.07204725 0.10244077 0.52590525 188 185 184
-0.07113827 0.10244077 0.52590525 186 186 184
-0.07017484 0.10236136 0.52549756 180 180 178
-0.06932030 0.10244077 0.52590525 180 180 178
-0.06841131 0.10244077 0.52590525 180 181 179
-0.06750233 0.10244077 0.52590525 179 179 176
-0.06659334 0.10244077 0.52590525 183 180 176
-0.12079591 0.13047780 0.66394889 180 180 180
-0.11929779 0.13009554 0.66200376 181 181 181
-0.11803830 0.12996861 0.66135788 183 183 183
-0.11655406 0.12958933 0.65942788 185 185 185
-0.11530213 0.12946340 0.65878701 183 183 183
-0.07647352 0.10318965 0.52509052 182 174 170
-0.07556594 0.10318965 0.52509052 174 169 164
-0.07465836 0.10318965 0.52509052 169 166 161
-0.07375079 0.10318965 0.52509052 177 174 171
-0.07284322 0.10318965 0.52509052 186 186 182
-0.07204725 0.10334975 0.52590525 187 186 184
-0.07108312 0.10326964 0.52549756 186 186 184
-0.07017484 0.10326964 0.52549756 189 189 187
-0.06932030 0.10334975 0.52590525 180 180 178
-0.06659334 0.10334975 0.52590525 186 185 183
-0.12206303 0.13175443 0.66459984 185 184 182
-0.12103299 0.13188373 0.66525203 185 185 183
-0.11953125 0.13149659 0.66329926 183 183 181
-0.11826906 0.13136806 0.66265088 182 182 180
-0.11689519 0.13111173 0.66135788 183 183 182
-0.11563927 0.13098393 0.66071332 186 185 184
-0.07460058 0.10401665 0.52468407 194 188 186
-0.07375079 0.10409722 0.52509052 193 190 187
-0.07284322 0.10409722 0.52509052 191 191 189
0.18522878 0.12228345 0.61682606 126 92 93
-0.12206303 0.13290313 0.66459984 190 184 184
-0.12091433 0.13290313 0.66459984 188 184 184
-0.11953125 0.13264304 0.66329926 187 185 184
-0.11826906 0.13251339 0.66265088 184 183 182
-0.11689519 0.13225482 0.66135788 183 183 182
-0.11563927 0.13212593 0.66071332 185 185 185
0.17892128 0.12267981 0.61347675 139 94 95
0.18014465 0.12279094 0.61403245 139 94 95
0.18382810 0.12312552 0.61570555 133 91 92
0.18489230 0.12312552 0.61570555 128 91 92
0.18612555 0.12323745 0.61626530 125 91 91
0.18702069 0.12312552 0.61570555 120 88 88
-0.12194348 0.13392055 0.66394889 186 182 181
-0.12091433 0.13405184 0.66459984 183 182 182
-0.11953125 0.13378951 0.66329926 186 186 186
-0.11815357 0.13352820 0.66200376 182 182 182
-0.11678126 0.13326791 0.66071332 183 183 183
-0.11552667 0.13313815 0.66006994 185 185 185
0.17834513 0.12407702 0.61514688 140 95 97
0.17924571 0.12396453 0.61458915 139 94 96
0.18014465 0.12385225 0.61403245 139 94 96
0.18104197 0.12374016 0.61347675 135 89 94
0.18243252 0.12396453 0.61458915 134 92 94
0.18382810 0.12418972 0.61570555 132 91 91
0.18489230 0.12418972 0.61570555 129 91 90
0.18612555 0.12430262 0.61626530 125 88 88
0.18702069 0.12418972 0.61570555 123 86 88
0.18791422 0.12407702 0.61514688 117 88 87
-0.12805766 0.13546617 0.66590554 173 169 169
-0.12678216 0.13533323 0.66525203 182 177 177
-0.12448249 0.13533323 0.66525203 184 180 179
-0.12333266 0.13533323 0.66525203 185 181 180
-0.12206303 0.13520055 0.66459984 185 181 180
-0.12091433 0.13520055 0.66459984 185 184 184
-0.11953125 0.13493598 0.66329926 187 187 187
-0.11815357 0.13467242 0.66200376 185 185 185
-0.11678126 0.13440990 0.66071332 185 185 185
-0.11563927 0.13440990 0.66071332 185 185 185
-0.11427452 0.13414840 0.65942788 184 184 183
0.17850712 0.12525392 0.61570555 141 96 98
0.17908335 0.12491355 0.61403245 139 93 95
0.17981890 0.12468766 0.61292207 136 91 93
0.18366128 0.12514025 0.61514688 131 91 89
0.18438987 0.12491355 0.61403245 129 91 90
0.18595649 0.12525392 0.61570555 126 89 88
0.18634370 0.12480051 0.61347675 124 87 87
0.18706547 0.12457503 0.61236840 118 87 88
0.76261008 0.14275834 0.70175141 38 40 56
-0.12933567 0.13675147 0.66656029 168 169 169
-0.12805766 0.13661714 0.66590554 170 169 169
-0.12690671 0.13661714 0.66590554 182 181 181
-0.12587939 0.13675147 0.66656029 185 181 181
-0.12460478 0.13661714 0.66590554 184 182 181
-0.12345381 0.13661714 0.66590554 188 187 185
-0.12206303 0.13634926 0.66459984 184 183 183
-0.12103299 0.13648306 0.66525203 185 185 184
-0.11964832 0.13621572 0.66394889 188 187 186
-0.11826906 0.13594940 0.66265088 187 186 184
-0.11689519 0.13568413 0.66135788 184 184 182
-0.11575209 0.13568413 0.66135788 184 183 182
-0.11438579 0.13541991 0.66006994 183 183 181
0.17850712 0.12631811 0.61570555 140 94 93
0.17892128 0.12586085 0.61347675 139 94 92
0.17949431 0.12552008 0.61181575 136 91 89
0.18316266 0.12586085 0.61347675 131 87 90
0.18511583 0.12574705 0.61292207 126 87 87
0.18567158 0.12540689 0.61126405 122 87 89
0.18639196 0.12518114 0.61016369 120 85 89
0.76297683 0.14426996 0.70320731 38 39 56
0.76103449 0.14367381 0.70030147 38 39 55
-0.12805766 0.13776809 0.66590554 172 169 168
-0.12690671 0.13776809 0.66590554 178 174 173
-0.12460478 0.13776809 0.66590554 176 172 171
-0.12345381 0.13776809 0.66590554 196 191 190
-0.12218282 0.13763289 0.66525203 189 188 186
-0.12103299 0.13763289 0.66525203 186 185 183
-0.11976562 0.13749796 0.66459984 187 186 184
-0.11838479 0.13722889 0.66329926 187 186 184
-0.11712373 0.13709474 0.66265088 182 181 178
-0.11586513 0.13696086 0.66200376 182 182 177
0.17760423 0.12749811 0.61626530 142 92 95
0.17850712 0.12738231 0.61570555 139 94 93
0.17892128 0.12692119 0.61347675 138 94 92
0.17933246 0.12646341 0.61126405 134 90 87
0.17990232 0.12612224 0.60961497 132 84 88
0.18144549 0.12646341 0.61126405 133 85 90
0.18283175 0.12669189 0.61236840 130 84 91
0.18322811 0.12623575 0.61016369 128 84 88
0.18622434 0.12612224 0.60961497 126 87 92
0.18765666 0.12567018 0.60742998 118 85 88
0.18719690 0.12466482 0.60257053 117 86 88
0.32027131 0.11697075 0.56538099 45 45 56
0.32044673 0.11667880 0.56396991 44 44 55
0.32062128 0.11638832 0.56256586 44 44 55
0.76297683 0.14548540 0.70320731 37 39 57
0.76103449 0.14488421 0.70030147 37 39 55
-0.12230285 0.13891906 0.66590554 193 187 187
-0.12115188 0.13891906 0.66590554 189 186 185
-0.11976562 0.13864668 0.66459984 187 186 184
-0.11850074 0.13851087 0.66394889 186 185 183
-0.11723833 0.13837534 0.66329926 185 186 180
-0.11609187 0.13837534 0.66329926 190 191 184
0.17866939 0.12856327 0.61626530 143 91 93
0.17892128 0.12798154 0.61347675 142 90 93
0.17917089 0.12740505 0.61071336 137 88 91
0.17974068 0.12706164 0.60906726 132 85 90
0.18128203 0.12740505 0.61071336 129 83 88
0.18266673 0.12763502 0.61181575 128 84 90
0.18322811 0.12729037 0.61016369 126 84 89
0.18622434 0.12717590 0.60961497 125 85 89
0.18694179 0.12694758 0.60852051 122 83 87
0.18765666 0.12672007 0.60742998 123 84 88
0.18753028 0.12593019 0.60364366 122 84 88
0.31992123 0.11964434 0.57351255 44 44 56
0.31902319 0.11893995 0.57013613 44 44 56
0.31982759 0.11814503 0.56632566 45 45 56
0.31947196 0.11765358 0.56396991 45 45 56
0.31991443 0.11745814 0.56303310 45 45 56
0.32088760 0.11745814 0.56303310 44 44 55
0.32079500 0.11706921 0.56116873 45 44 55
0.76182145 0.14624572 0.70102566 36 39 56
-0.12127101 0.14020775 0.66656029 187 184 183
-0.12000092 0.14007002 0.66590554 181 180 178
-0.11873332 0.13993257 0.66525203 183 182 180
0.17883196 0.12974639 0.61682606 141 89 93
0.17908335 0.12915877 0.61403245 141 89 93
0.17917089 0.12846062 0.61071336 139 88 92
0.17974068 0.12811436 0.60906726 134 85 90
0.18111886 0.12834500 0.61016369 130 83 88
0.18250202 0.12857646 0.61126405 129 83 89
0.18306333 0.12822957 0.60961497 128 83 89
0.18444873 0.12846062 0.61071336 127 83 89
0.18533733 0.12834500 0.61016369 127 84 90
0.18622434 0.12822957 0.60961497 125 82 88
0.18694179 0.12799937 0.60852051 125 82 88
0.18765666 0.12776996 0.60742998 124 82 88
0.18769743 0.12708671 0.60418171 123 82 87
0.31947052 0.12084007 0.57448459 44 43 59
0.31911132 0.12033020 0.57206064 44 43 58
0.31848747 0.11972400 0.56917870 44 43 57
0.31840187 0.11932325 0.56727350 44 43 57
0.31911534 0.11922348 0.56679922 45 44 58
0.31929410 0.11892518 0.56538099 45 44 58
0.31894127 0.11843130 0.56303310 45 44 58
0.31991443 0.11843130 0.56303310 45 44 58
0.32115433 0.11852974 0.56350112 44 43 57
0.32106078 0.11813693 0.56163365 45 44 57
0.32283390 0.11843130 0.56303310 44 43 57
0.76340038 0.14776298 0.70247859 36 39 56
-0.12139037 0.14149898 0.66721636 184 182 181
-0.12011892 0.14135985 0.66656029 182 181 179
-0.11873332 0.14108241 0.66525203 178 178 176
0.17915800 0.13105102 0.61795062 142 90 93
0.17924571 0.13033813 0.61458915 141 89 92
0.17933246 0.12963296 0.61126405 140 88 90
0.17990232 0.12928325 0.60961497 136 86 88
0.18111886 0.12939961 0.61016369 131 83 85
0.18250202 0.12963296 0.61126405 129 83 88
0.18306333 0.12928325 0.60961497 128 82 88
0.18444873 0.12951618 0.61071336 127 83 87
0.18533733 0.12939961 0.61016369 126 84 87
0.18622434 0.12928325 0.60961497 124 83 86
0.18694179 0.12905113 0.60852051 124 83 86
0.18765666 0.12881987 0.60742998 124 83 87
0.18769743 0.12813099 0.60418171 123 82 87
0.31947052 0.12183302 0.57448459 44 43 57
0.31911132 0.12131896 0.57206064 44 43 57
0.31848747 0.12070778 0.56917870 44 43 57
0.31840187 0.12030374 0.56727350 44 43 57
0.31911534 0.12020315 0.56679922 44 43 57
0.31956062 0.12000248 0.56585294 45 44 58
0.32098082 0.11980247 0.56490988 45 44 57
0.32222575 0.11990239 0.56538099 44 44 56
0.32212830 0.11950371 0.56350112 44 44 56
0.32391003 0.11980247 0.56490988 44 44 55
0.32542881 0.12000248 0.56585294 44 44 56
0.77340662 0.15117031 0.71281999 36 39 56
0.76578104 0.14944175 0.70466930 37 39 56
-0.12150997 0.14279276 0.66787374 183 183 183
-0.12011892 0.14251195 0.66656029 182 182 182
-0.11884996 0.14237195 0.66590554 181 181 179
0.17932147 0.13223964 0.61851448 141 89 92
0.17957132 0.13163909 0.61570555 140 89 88
0.17949431 0.13080744 0.61181575 139 90 88
0.17990232 0.13033691 0.60961497 137 89 87
0.18128203 0.13057175 0.61071336 132 85 83
0.18250202 0.13068949 0.61126405 129 84 84
0.18306333 0.13033691 0.60961497 128 83 84
0.18461506 0.13068949 0.61126405 129 84 86
0.18533733 0.13045423 0.61016369 128 84 85
0.18622434 0.13033691 0.60961497 127 84 85
0.18694179 0.13010292 0.60852051 125 84 87
0.18765666 0.12986976 0.60742998 124 84 86
0.18786485 0.12929049 0.60472065 122 83 85
0.31857362 0.12210164 0.57109678 44 43 53
0.31822029 0.12158947 0.56870121 44 43 55
0.31813568 0.12118281 0.56679922 45 44 55
0.32276413 0.12108158 0.56632566 44 44 55
0.32293361 0.12077887 0.56490988 44 44 55
0.32445076 0.12098051 0.56585294 44 44 55
0.32597300 0.12118281 0.56679922 44 44 56
0.32750031 0.12138580 0.56774861 44 43 57
0.77340662 0.15240236 0.71281999 36 39 57
0.76817662 0.15113102 0.70687366 36 39 57
-0.41512606 0.20520552 0.95209527 178 178 169
-0.41010684 0.20434451 0.94810051 185 185 183
-0.12314965 0.14451665 0.67051619 181 182 182
-0.12174987 0.14423132 0.66919231 185 186 186
-0.12023714 0.14380544 0.66721636 182 183 183
-0.11896682 0.14366403 0.66656029 181 181 181
0.17948523 0.13343044 0.61907929 142 86 90
0.17973456 0.13282393 0.61626530 140 85 88
0.17965646 0.13198404 0.61236840 135 87 86
0.18006425 0.13150884 0.61016369 134 87 86
0.18128203 0.13162732 0.61071336 131 85 84
0.18250202 0.13174601 0.61126405 129 84 85
0.18306333 0.13139059 0.60961497 130 85 86
0.18461506 0.13174601 0.61126405 130 85 85
0.18533733 0.13150884 0.61016369 129 84 85
0.18622434 0.13139059 0.60961497 128 85 86
0.18694179 0.13115469 0.60852051 128 84 86
0.18782496 0.13103707 0.60797477 126 83 84
0.18786485 0.13033570 0.60472065 125 83 83
0.31758654 0.12308873 0.57109678 44 43 56
0.31777051 0.12277843 0.56965703 43 42 56
0.31795353 0.12246968 0.56822449 43 42 56
0.31786990 0.12206043 0.56632566 44 43 57
0.32320297 0.12185682 0.56538099 44 44 55
0.77259421 0.15347303 0.71207124 36 39 58
0.76978201 0.15267119 0.70835096 36 39 58
-0.41454381 0.20656103 0.95075995 175 175 166
-0.41174555 0.20598324 0.94810051 181 181 173
-0.41010684 0.20598324 0.94810051 172 172 170
-0.40846813 0.20598324 0.94810051 167 167 166
-0.12455498 0.14596432 0.67184526 183 183 181
-0.12339375 0.14596432 0.67184526 184 184 183
-0.12199072 0.14567558 0.67051619 186 187 185
-0.12047429 0.14524458 0.66853237 186 187 185
0.17981367 0.13474658 0.62021214 137 85 88
0.17989810 0.13401093 0.61682606 137 84 86
0.17981890 0.13316275 0.61292207 132 84 87
0.18006425 0.13256347 0.61016369 130 84 87
0.18128203 0.13268289 0.61071336 129 83 87
0.18266673 0.13292240 0.61181575 129 83 87
0.18306333 0.13244425 0.60961497 131 85 89
0.18461506 0.13280253 0.61126405 129 84 88
0.18567158 0.13280253 0.61126405 129 84 87
0.18655989 0.13268289 0.61071336 129 84 86
0.18727800 0.13244425 0.60961497 127 81 85
0.18799356 0.13220647 0.60852051 126 81 85
0.18803260 0.13149822 0.60526055 126 80 86
0.31481668 0.12376303 0.56965703 45 45 54
0.31527141 0.12355538 0.56870121 44 44 53
0.31651992 0.12365912 0.56917870 43 43 54
0.31723732 0.12355538 0.56870121 43 43 53
0.31768724 0.12334841 0.56774861 43 43 56
0.31760454 0.12293657 0.56585294 44 43 56
0.31752241 0.12252747 0.56396991 44 44 57
0.32303399 0.12314215 0.56679922 43 43 54
0.32347274 0.12293657 0.56585294 43 43 54
0.32499334 0.12314215 0.56679922 43 43 54
0.77178353 0.15454146 0.71132410 37 39 57
0.76978201 0.15389551 0.70835096 36 39 57
-0.41841727 0.20849675 0.95209527 179 180 171
-0.41618714 0.20820433 0.95075995 184 185 176
-0.41454381 0.20820433 0.95075995 182 183 174
-0.41232222 0.20791273 0.94942838 176 177 170
-0.41010684 0.20762195 0.94810051 174 174 170
-0.12430859 0.14683451 0.67051619 167 166 164
-0.12314965 0.14683451 0.67051619 176 172 171
-0.12174987 0.14654461 0.66919231 183 178 177
-0.12035560 0.14625585 0.66787374 184 180 178
-0.11896682 0.14596823 0.66656029 184 183 178
-0.11781472 0.14596823 0.66656029 186 186 180
0.18030857 0.13619238 0.62191910 131 83 84
0.17989810 0.13507706 0.61682606 131 83 86
0.17998162 0.13434361 0.61347675 129 82 87
0.18022646 0.13373846 0.61071336 128 82 87
0.18128203 0.13373846 0.61071336 129 84 86
0.18266673 0.13397987 0.61181575 129 84 87
0.18306333 0.13349792 0.60961497 129 83 88
0.18478169 0.13397987 0.61181575 129 83 88
0.18583916 0.13397987 0.61181575 129 83 88
0.18672810 0.13385905 0.61126405 127 81 88
0.18761545 0.13373846 0.61071336 125 79 86
0.31428847 0.12453833 0.56870121 45 44 53
0.31500715 0.12443394 0.56822449 45 44 53
0.31598929 0.12443394 0.56822449 45 44 53
0.31697142 0.12443394 0.56822449 44 44 53
0.31742141 0.12422568 0.56727350 44 44 54
0.31681120 0.12360507 0.56443948 45 44 54
0.31646928 0.12309261 0.56209940 45 45 56
0.32320297 0.12381125 0.56538099 43 43 54
0.32445076 0.12391460 0.56585294 43 43 54
0.77178353 0.15577093 0.71132410 37 38 58
0.76897848 0.15495792 0.70761150 37 38 57
-0.41841727 0.21014237 0.95209527 176 176 167
-0.41618714 0.20984764 0.95075995 179 179 171
-0.41454381 0.20984764 0.95075995 182 183 176
-0.41232222 0.20955375 0.94942838 174 174 168
-0.41068122 0.20955375 0.94942838 162 162 160
-0.12867631 0.14902528 0.67519110 184 183 183
-0.12738243 0.14887698 0.67451924 188 184 183
-0.12596589 0.14858130 0.67317957 183 178 177
-0.12455498 0.14828679 0.67184526 180 174 174
-0.12327158 0.14813997 0.67118007 179 175 171
-0.12199072 0.14799345 0.67051619 181 177 172
-0.12059322 0.14770125 0.66919231 184 181 175
-0.11908391 0.14726514 0.66721636 185 182 176
-0.11793068 0.14726514 0.66721636 183 180 175
0.18006195 0.13626719 0.61738783 128 82 88
0.18047160 0.13577257 0.61514688 128 82 87
0.18055178 0.13503733 0.61181575 128 82 87
0.18617521 0.13528153 0.61292207 127 81 86
0.18706547 0.13515933 0.61236840 127 80 87
0.18795410 0.13503733 0.61181575 127 80 87
0.31376201 0.12531103 0.56774861 46 45 54
0.31447995 0.12520617 0.56727350 45 44 53
0.31572464 0.12531103 0.56774861 45 44 53
0.31670594 0.12531103 0.56774861 45 44 53
0.31715599 0.12510148 0.56679922 45 44 53
0.31602180 0.12427025 0.56303310 45 44 53
0.32142150 0.12447701 0.56396991 44 44 54
0.32186076 0.12427025 0.56303310 43 43 54
0.76691037 0.15650772 0.70909190 38 39 61
0.76974630 0.15683582 0.71057844 38 39 60
0.77178353 0.15700039 0.71132410 37 38 59
0.77058721 0.15650772 0.70909190 37 38 59
-0.42006290 0.21178800 0.95209527 176 177 170
-0.41841727 0.21178800 0.95209527 176 176 169
-0.41677165 0.21178800 0.95209527 178 179 172
-0.41454381 0.21149096 0.95075995 182 183 176
-0.41232222 0.21119475 0.94942838 182 183 176
-0.41068122 0.21119475 0.94942838 172 173 166
-0.13270606 0.15079305 0.67789185 178 172 172
-0.13127184 0.15049207 0.67653877 162 157 161
-0.13010250 0.15049207 0.67653877 150 144 148
-0.12880461 0.15034203 0.67586422 170 164 168
-0.12738243 0.15004283 0.67451924 177 173 172
-0.12609111 0.14989369 0.67384875 175 169 168
-0.12480236 0.14974484 0.67317957 178 172 171
-0.12339375 0.14944802 0.67184526 186 183 177
-0.12211150 0.14930005 0.67118007 190 187 181
-0.12071238 0.14900500 0.66985363 190 187 181
-0.11920124 0.14856458 0.66787374 186 183 177
-0.11804687 0.14856458 0.66787374 186 184 181
-0.11573814 0.14856458 0.66787374 155 155 155
-0.11447100 0.14841835 0.66721636 166 165 165
-0.11365335 0.14885791 0.66919231 188 186 187
-0.11249671 0.14885791 0.66919231 190 188 189
0.18257079 0.13524041 0.60797477 126 80 87
0.18517067 0.13560526 0.60961497 126 80 85
0.18672810 0.13597210 0.61126405 129 80 86
0.18761545 0.13584960 0.61071336 129 80 86
0.31323734 0.12608115 0.56679922 46 45 52
0.31369242 0.12587066 0.56585294 45 44 52
0.31519666 0.12608115 0.56679922 45 44 52
0.31644091 0.12618665 0.56727350 45 44 53
0.31662652 0.12587066 0.56585294 45 44 53
0.31575954 0.12513946 0.56256586 45 44 53
0.76644039 0.15839607 0.71207124 36 40 63
0.76767117 0.15839607 0.71207124 35 39 62
0.76729000 0.15806399 0.71057844 37 39 62
0.76771343 0.15789849 0.70983440 37 39 62
0.76974630 0.15806399 0.71057844 38 39 61
0.77259421 0.15839607 0.71207124 38 39 60
0.77220267 0.15806399 0.71057844 37 38 59
-0.42065370 0.21373381 0.95343435 178 179 172
-0.41900578 0.21373381 0.95343435 179 180 173
-0.41677165 0.21343361 0.95209527 178 179 172
-0.41512606 0.21343361 0.95209527 176 176 169
-0.41290051 0.21313427 0.95075995 173 173 166
-0.41125721 0.21313427 0.95075995 166 167 160
-0.40961388 0.21313427 0.95075995 171 172 165
-0.13283890 0.15211685 0.67857039 180 174 174
-0.13140298 0.15181293 0.67721462 172 167 168
-0.13010250 0.15166141 0.67653877 166 162 162
-0.12880461 0.15151021 0.67586422 167 164 164
-0.12750931 0.15135929 0.67519110 172 166 166
-0.12621658 0.15120868 0.67451924 180 174 174
-0.12492642 0.15105839 0.67384875 179 173 173
-0.12351616 0.15075867 0.67251176 183 182 178
-0.12211150 0.15046014 0.67118007 186 184 180
-0.12083179 0.15031131 0.67051619 184 180 177
-0.11943658 0.15001455 0.66919231 185 184 181
-0.11816329 0.14986660 0.66853237 185 185 183
-0.11585228 0.14986660 0.66853237 158 158 158
-0.11458378 0.14971896 0.66787374 171 171 171
-0.11376566 0.15016279 0.66985363 178 178 178
-0.11249671 0.15001455 0.66919231 178 176 177
0.18208088 0.13592552 0.60634333 125 76 84
0.18296523 0.13580406 0.60580146 127 78 86
0.18450697 0.13616912 0.60742998 128 79 87
0.18710974 0.13653615 0.60906726 128 79 85
0.31271440 0.12684870 0.56585294 45 45 54
0.31343082 0.12674290 0.56538099 44 44 53
0.31546044 0.12716714 0.56727350 44 44 53
0.31644091 0.12716714 0.56727350 44 44 53
0.31689104 0.12695466 0.56632566 44 44 53
0.31575954 0.12611181 0.56256586 44 44 53
0.76601428 0.15979467 0.71281999 37 42 65
0.76724637 0.15979467 0.71281999 36 41 64
0.76847839 0.15979467 0.71281999 35 40 63
0.76809508 0.15945932 0.71132410 36 40 63
0.76851815 0.15929218 0.71057844 36 40 63
0.77055401 0.15945932 0.71132410 36 39 63
0.77422071 0.15996288 0.71357036 36 39 62
0.77382493 0.15962683 0.71207124 36 39 61
0.77668738 0.15996288 0.71357036 36 38 60
0.78038514 0.16046962 0.71583086 38 38 58
-0.42065370 0.21538174 0.95343435 168 169 164
-0.41900578 0.21538174 0.95343435 181 181 174
-0.41677165 0.21507923 0.95209527 177 176 170
-0.41512606 0.21507923 0.95209527 171 170 165
-0.41290051 0.21477757 0.95075995 161 161 155
-0.41068122 0.21447678 0.94942838 157 157 152
-0.40904018 0.21447678 0.94942838 168 167 163
-0.40797058 0.21477757 0.95075995 175 174 170
-0.12997279 0.15267839 0.67586422 181 180 176
-0.12880461 0.15267839 0.67586422 183 180 177
-0.12750931 0.15252630 0.67519110 174 168 166
-0.12609111 0.15222308 0.67384875 184 178 176
-0.12492642 0.15222308 0.67384875 183 177 175
-0.12363882 0.15207191 0.67317957 178 173 170
-0.12235378 0.15192105 0.67251176 173 169 166
-0.12095142 0.15162021 0.67118007 175 173 169
-0.11967285 0.15147024 0.67051619 178 175 174
-0.11839681 0.15132056 0.66985363 178 176 176
-0.11596665 0.15117119 0.66919231 167 167 167
-0.11481000 0.15117119 0.66919231 173 171 171
-0.11387819 0.15147024 0.67051619 174 170 171
-0.11260787 0.15132056 0.66985363 177 173 175
0.18151994 0.13734208 0.60797477 123 74 82
0.18175574 0.13672894 0.60526055 124 74 81
0.18247603 0.13648522 0.60418171 125 74 81
0.18401232 0.13685113 0.60580146 126 75 81
0.18605702 0.13758887 0.60906726 128 77 83
0.18694179 0.13746536 0.60852051 128 78 83
0.31245360 0.12772012 0.56538099 45 45 54
0.31290886 0.12750742 0.56443948 45 45 54
0.31519666 0.12804048 0.56679922 45 45 54
0.31670594 0.12825495 0.56774861 45 45 54
0.31689104 0.12793352 0.56632566 45 45 54
0.76639402 0.16136609 0.71432227 38 43 66
0.76762867 0.16136609 0.71432227 38 42 65
0.76886332 0.16136609 0.71432227 38 41 65
0.76928735 0.16119623 0.71357036 37 41 64
0.76890194 0.16085757 0.71207124 36 40 63
0.77013266 0.16085757 0.71207124 36 40 62
0.77298737 0.16119623 0.71357036 35 39 61
0.77667338 0.16170688 0.71583086 35 39 60
0.77627116 0.16136609 0.71432227 35 39 60
0.77997148 0.16187781 0.71658754 35 39 60
0.78369534 0.16239281 0.71886730 36 39 59
-0.41900578 0.21702968 0.95343435 150 148 145
-0.41677165 0.21672486 0.95209527 175 172 170
-0.41512606 0.21672486 0.95209527 177 173 172
-0.41232222 0.21611778 0.94942838 176 172 170
-0.41068122 0.21611778 0.94942838 176 175 171
-0.40904018 0.21611778 0.94942838 183 181 178
-0.40739918 0.21611778 0.94942838 181 179 175
-0.13010250 0.15400009 0.67653877 183 178 175
-0.12880461 0.15384656 0.67586422 179 173 171
-0.12750931 0.15369332 0.67519110 174 168 165
-0.12621658 0.15354039 0.67451924 175 168 165
-0.12505072 0.15354039 0.67451924 181 174 171
-0.12376173 0.15338777 0.67384875 171 165 163
-0.12259703 0.15338777 0.67384875 163 159 156
-0.12131175 0.15323545 0.67317957 165 164 162
-0.12002902 0.15308343 0.67251176 167 166 164
-0.11863126 0.15278029 0.67118007 176 175 174
-0.11747118 0.15278029 0.67118007 177 176 175
-0.11619605 0.15262918 0.67051619 170 169 169
-0.11503712 0.15262918 0.67051619 163 162 161
-0.11410391 0.15293171 0.67184526 163 161 162
-0.11283085 0.15278029 0.67118007 168 167 167
0.18151994 0.13839291 0.60797477 120 74 79
0.18175574 0.13777509 0.60526055 121 73 79
0.18231353 0.13740703 0.60364366 121 73 79
0.18335688 0.13740703 0.60364366 124 74 80
0.18589000 0.13851714 0.60852051 123 74 79
0.18660676 0.13826890 0.60742998 123 75 79
0.31115603 0.12816288 0.56303310 46 45 53
0.31161156 0.12795033 0.56209940 45 45 54
0.31336260 0.12826940 0.56350112 45 45 54
0.31591219 0.12891236 0.56632566 45 45 54
0.31557286 0.12837613 0.56396991 44 44 53
0.76515937 0.16260074 0.71432227 39 45 65
0.76801258 0.16294414 0.71583086 38 44 65
0.77006298 0.16311638 0.71658754 38 43 65
0.77130157 0.16311638 0.71658754 38 43 64
0.77172434 0.16294414 0.71583086 38 42 64
0.77052069 0.16242957 0.71357036 37 41 62
0.77175403 0.16242957 0.71357036 36 40 61
0.77461815 0.16277225 0.71507579 35 40 60
0.77749437 0.16311638 0.71658754 34 39 59
0.77873296 0.16311638 0.71658754 34 39 58
0.78328347 0.16380902 0.71963042 35 39 59
0.78536099 0.16398309 0.72039515 36 39 59
-0.42006290 0.21837047 0.95209527 142 134 135
-0.41900578 0.21867761 0.95343435 145 139 139
-0.41677165 0.21837047 0.95209527 163 157 157
-0.41454381 0.21806420 0.95075995 159 155 154
-0.41232222 0.21775879 0.94942838 160 156 154
-0.41068122 0.21775879 0.94942838 168 165 162
-0.40904018 0.21775879 0.94942838 172 169 167
-0.40739918 0.21775879 0.94942838 164 161 159
-0.40575817 0.21775879 0.94942838 159 154 152
-0.13140298 0.15532446 0.67721462 179 173 171
-0.13010250 0.15516944 0.67653877 178 172 168
-0.12880461 0.15501474 0.67586422 179 171 166
-0.12763643 0.15501474 0.67586422 181 173 167
-0.12634230 0.15486033 0.67519110 180 172 166
-0.12517528 0.15486033 0.67519110 180 172 166
-0.12388487 0.15470624 0.67451924 173 167 165
-0.12271902 0.15470624 0.67451924 173 168 166
-0.12131175 0.15439898 0.67317957 170 167 165
-0.12014822 0.15439898 0.67317957 159 158 155
-0.11874884 0.15409294 0.67184526 167 166 164
-0.11758760 0.15409294 0.67184526 176 175 173
-0.11631110 0.15394038 0.67118007 177 176 174
-0.11503712 0.15378810 0.67051619 177 176 174
-0.11421711 0.15424581 0.67251176 179 178 176
-0.11283085 0.15394038 0.67118007 180 179 175
0.18070959 0.13882123 0.60526055 114 69 74
0.18094793 0.13820425 0.60257053 118 72 77
0.31115603 0.12913603 0.56303310 46 46 50
0.31161156 0.12892187 0.56209940 45 45 53
0.31310233 0.12913603 0.56303310 45 45 54
0.31512243 0.12956648 0.56490988 44 44 53
0.31504866 0.12913603 0.56303310 44 44 53
0.76515937 0.16383538 0.71432227 38 44 63
0.76801258 0.16418140 0.71583086 38 44 63
0.77006298 0.16435495 0.71658754 38 44 63
0.77211773 0.16452886 0.71734589 39 43 63
0.77254009 0.16435495 0.71658754 38 43 62
0.77052069 0.16366293 0.71357036 37 42 61
0.77175403 0.16366293 0.71357036 36 40 60
0.77461815 0.16400820 0.71507579 35 40 59
0.77749437 0.16435495 0.71658754 35 39 58
0.77791065 0.16418140 0.71583086 35 39 58
0.78411585 0.16522825 0.72039515 35 40 58
0.78619653 0.16540402 0.72116154 36 39 58
-0.42006290 0.22001609 0.95209527 170 166 164
-0.41900578 0.22032554 0.95343435 170 168 165
-0.41677165 0.22001609 0.95209527 173 172 169
-0.41454381 0.21970752 0.95075995 168 168 165
-0.41232222 0.21939979 0.94942838 167 166 163
-0.41068122 0.21939979 0.94942838 176 175 173
-0.40846813 0.21909295 0.94810051 175 174 172
-0.40682939 0.21909295 0.94810051 175 174 172
-0.40575817 0.21939979 0.94942838 171 163 164
-0.13297202 0.15696539 0.67925036 175 170 169
-0.13153438 0.15665145 0.67789185 176 170 169
-0.13010250 0.15633878 0.67653877 171 164 162
-0.12893316 0.15633878 0.67653877 171 163 157
-0.12763643 0.15618291 0.67586422 172 164 158
-0.12634230 0.15602735 0.67519110 173 165 160
-0.12517528 0.15602735 0.67519110 175 167 163
-0.12388487 0.15587209 0.67451924 169 165 164
-0.12259703 0.15571715 0.67384875 173 170 169
-0.12131175 0.15556252 0.67317957 177 176 174
-0.12014822 0.15556252 0.67317957 154 153 151
-0.11886664 0.15540819 0.67251176 147 146 145
-0.11770426 0.15540819 0.67251176 155 154 154
-0.11631110 0.15510045 0.67118007 176 175 173
-0.11503712 0.15494704 0.67051619 179 178 176
-0.11410391 0.15525417 0.67184526 180 179 177
-0.11271925 0.15494704 0.67051619 179 178 174
0.31115603 0.13010919 0.56303310 47 46 53
0.31161156 0.12989342 0.56209940 46 45 52
0.31336260 0.13021734 0.56350112 46 45 52
0.31538522 0.13065176 0.56538099 45 45 53
0.31478721 0.13000122 0.56256586 45 45 54
0.31497538 0.12967835 0.56116873 43 45 54
0.76762867 0.16507003 0.71432227 39 43 61
0.77048707 0.16541864 0.71583086 39 42 61
0.77091026 0.16524415 0.71507579 39 42 61
0.76971042 0.16472287 0.71281999 38 41 60
0.77094251 0.16472287 0.71281999 37 40 59
0.77461815 0.16524415 0.71507579 36 39 58
0.77749437 0.16559350 0.71658754 36 39 58
0.77791065 0.16541864 0.71583086 36 39 57
0.78411585 0.16647339 0.72039515 36 39 57
0.78619653 0.16665049 0.72116154 36 39 57
-0.41900578 0.22197348 0.95343435 186 186 177
-0.41677165 0.22166172 0.95209527 177 176 168
-0.41454381 0.22135083 0.95075995 170 168 160
-0.41232222 0.22104082 0.94942838 176 174 167
-0.41068122 0.22104082 0.94942838 185 185 179
-0.40846813 0.22073166 0.94810051 189 189 184
-0.40682939 0.22073166 0.94810051 193 192 188
-0.40519068 0.22073166 0.94810051 186 185 183
-0.13297202 0.15813942 0.67925036 177 175 175
-0.12893316 0.15750812 0.67653877 173 167 162
-0.12634230 0.15719436 0.67519110 174 167 162
-0.12517528 0.15719436 0.67519110 173 169 165
-0.12388487 0.15703794 0.67451924 170 168 167
-0.12259703 0.15688185 0.67384875 173 172 170
-0.12119140 0.15657057 0.67251176 180 180 178
-0.11619605 0.15610598 0.67051619 175 174 172
-0.11492345 0.15595172 0.66985363 175 174 171
-0.11376566 0.15595172 0.66985363 173 173 169
0.31115603 0.13108234 0.56303310 46 45 52
0.31161156 0.13086496 0.56209940 46 45 52
0.31336260 0.13119130 0.56350112 46 45 52
0.31564850 0.13173884 0.56585294 46 45 52
0.31531054 0.13119130 0.56350112 46 45 52
0.31497538 0.13064830 0.56116873 46 45 53
0.31490257 0.13021711 0.55931669 45 45 54
0.76601428 0.16595493 0.71281999 40 42 64
0.76805395 0.16612962 0.71357036 39 42 63
0.76928735 0.16612962 0.71357036 39 42 62
0.76890194 0.16578060 0.71207124 39 42 62
0.77013266 0.16578060 0.71207124 38 40 60
0.77298737 0.16612962 0.71357036 37 39 59
0.77585411 0.16648011 0.71507579 36 39 59
0.77627116 0.16630468 0.71432227 36 39 59
-0.42065370 0.22362141 0.95343435 187 184 178
-0.41900578 0.22362141 0.95343435 186 180 175
-0.41677165 0.22330733 0.95209527 176 170 165
-0.41454381 0.22299413 0.95075995 168 161 155
-0.41290051 0.22299413 0.95075995 168 162 156
-0.41068122 0.22268182 0.94942838 172 167 162
-0.40846813 0.22237039 0.94810051 179 177 172
-0.40682939 0.22237039 0.94810051 179 179 175
-0.40519068 0.22237039 0.94810051 177 177 173
-0.40411717 0.22268182 0.94942838 171 171 167
-0.40304065 0.22299413 0.95075995 178 178 172
-0.12388487 0.15820380 0.67451924 187 186 182
-0.12259703 0.15804654 0.67384875 187 186 182
-0.12119140 0.15773296 0.67251176 186 186 182
-0.11608124 0.15710951 0.66985363 177 178 172
-0.11481000 0.15695441 0.66919231 178 178 172
-0.11376566 0.15710951 0.66985363 175 174 170
0.31064001 0.13183650 0.56209940 46 45 53
0.31591219 0.13282776 0.56632566 46 46 54
0.31531054 0.13216527 0.56350112 46 46 55
0.31497538 0.13161823 0.56116873 46 45 54
0.31464300 0.13107570 0.55885559 45 45 54
0.76724637 0.16718698 0.71281999 40 42 66
0.76847839 0.16718698 0.71281999 39 42 65
0.76890194 0.16701137 0.71207124 39 41 64
0.76851815 0.16666123 0.71057844 38 40 63
0.77422071 0.16736297 0.71357036 37 38 61
0.77545404 0.16736297 0.71357036 37 38 61
-0.41900578 0.22526935 0.95343435 176 170 165
-0.41677165 0.22495295 0.95209527 174 168 163
-0.41454381 0.22463745 0.95075995 171 166 159
-0.41290051 0.22463745 0.95075995 172 168 161
-0.41068122 0.22432283 0.94942838 176 173 166
-0.40846813 0.22400910 0.94810051 173 171 166
-0.40682939 0.22400910 0.94810051 173 172 168
-0.40519068 0.22400910 0.94810051 183 182 178
-0.40411717 0.22432283 0.94942838 180 179 175
-0.40247616 0.22432283 0.94942838 174 173 167
