ply
format ascii 1.0
element vertex 1082
property float x
property float y
property float z
property uchar red
property uchar green
property uchar blue
end_header
-0.70675308 -0.86321849 1.86490542 62 55 55
-0.70320421 -0.84700084 1.84711671 59 55 54
-0.68522575 -0.84304833 1.82474583 59 53 53
-0.69661798 -0.85184296 1.84377050 60 55 55
-0.68579824 -0.82856918 1.81671020 60 55 55
-0.69352325 -0.83576737 1.82721059 59 55 54
-0.68144369 -0.80588657 1.79812157 63 57 58
-0.68319052 -0.80994923 1.80891997 62 58 58
-0.68670869 -0.79220354 1.81449654 64 57 59
-0.69139699 -0.79468503 1.82439499 65 57 59
-0.66621478 -0.82442300 1.79337303 62 57 56
-0.67653128 -0.82982897 1.80853007 60 55 55
-0.66198832 -0.80050105 1.77924371 67 58 57
-0.67014834 -0.80984350 1.79155435 64 57 57
-0.66141067 -0.79058210 1.77769113 65 58 58
-0.66946842 -0.79033922 1.79484180 64 59 59
-0.67709447 -0.78831109 1.80771732 65 58 59
-0.66360313 -0.77664068 1.78981581 67 59 61
-0.65394306 -0.80856329 1.76996464 63 57 57
-0.64735642 -0.79087830 1.75110878 65 58 58
-0.65020427 -0.78561609 1.77228406 66 60 59
-0.65418641 -0.78398256 1.78627938 66 60 58
-0.64199898 -0.77743649 1.77924371 67 61 58
-0.65423588 -0.77755134 1.78745922 66 59 59
-0.63169008 -0.78202796 1.73818421 66 59 57
-0.63494623 -0.78001946 1.74714386 66 60 58
-0.63730656 -0.78153793 1.76767606 66 60 58
-0.63906342 -0.78410745 1.78392589 66 60 58
-0.63169008 -0.77902365 1.73818421 65 59 58
-0.63355929 -0.77900743 1.75165856 66 60 60
-0.56013447 -0.30023557 1.04451752 58 48 49
-0.56115127 -0.29885411 1.03971136 59 48 50
-0.56531453 -0.29157998 1.04820015 57 48 49
-0.54087504 -0.30121596 1.01735000 56 44 48
-0.54709616 -0.30095360 1.03215647 54 46 47
-0.54667615 -0.29509213 1.03328807 56 48 47
-0.55449585 -0.29098083 1.04667987 58 48 49
-0.53358975 -0.30285715 1.01548117 56 43 46
-0.53775237 -0.30183982 1.02143474 54 43 46
-0.53148974 -0.29648486 1.01801006 54 45 46
-0.53575174 -0.29469982 1.02302719 55 46 46
-0.50592886 -0.24514210 0.90679415 59 49 50
-0.50407994 -0.23635235 0.90521097 58 48 49
-0.48723874 -0.24125032 0.89644668 59 48 50
-0.49525586 -0.24321274 0.90315508 58 48 49
-0.49042087 -0.23365343 0.89766243 56 48 49
-0.49547703 -0.23336413 0.90214013 57 48 49
-0.48180379 0.37861729 1.15780079 59 66 89
-0.48725026 0.37575166 1.16591773 64 76 101
-0.48289581 0.38700091 1.15597417 73 82 101
-0.49045398 0.38622972 1.16757212 63 71 91
-0.49742517 0.39505495 1.18305731 67 74 91
-0.46404535 -0.74414533 1.99968100 83 77 77
-0.46503804 -0.42676289 1.05276201 56 52 53
-0.47613093 -0.42662042 1.06252635 58 53 55
-0.46231315 -0.40937312 1.03971136 65 53 55
-0.46613185 -0.41076157 1.04642166 61 54 55
-0.47677177 -0.40994317 1.06532045 61 56 55
-0.46412264 0.37184650 1.12755232 68 81 102
-0.47409382 0.37363866 1.15171818 59 68 96
-0.47482479 0.37320563 1.16276479 66 67 102
-0.47048557 0.38316223 1.13362013 81 92 112
-0.47647867 0.38547139 1.14548423 79 90 109
-0.45765277 -0.42466004 1.04548562 58 54 55
-0.44739844 -0.40962373 1.03706610 62 55 56
-0.45581855 -0.41142367 1.04297190 63 55 56
-0.44619495 0.35788162 1.10907069 82 105 124
-0.44106340 0.36498348 1.09869015 67 89 113
-0.45011027 0.36949735 1.10859903 72 90 111
-0.45670148 0.36577248 1.12374192 68 86 107
-0.43962267 -0.40858063 1.02866745 62 54 55
-0.43712452 0.35670121 1.09833460 79 106 127
-0.43987733 0.35796766 1.10047376 79 101 128
-0.43587295 0.36560593 1.09622169 64 84 107
-0.40596192 -0.08126382 0.81104346 61 51 52
-0.40422382 -0.07150254 0.80780157 65 55 55
-0.40061697 -0.05858679 0.80129057 64 56 52
-0.38879528 -0.06945027 0.79515292 74 62 63
-0.39359879 -0.07354467 0.80329921 73 62 63
-0.38444401 -0.04547307 0.76799285 64 53 53
-0.39125487 -0.05557785 0.78929282 62 53 54
-0.38192768 -0.03980296 0.75996846 72 60 57
-0.38578781 -0.03986256 0.76110631 72 60 56
-0.37438337 -0.04164905 0.75902414 62 52 54
-0.37835055 -0.04371945 0.76278307 57 49 50
-0.37611861 -0.03932091 0.75790600 61 49 47
-0.32730521 -0.01198332 0.54338137 67 57 56
-0.30692065 -0.36067650 1.29368675 97 91 91
-0.31007823 -0.34885584 1.27904117 94 86 86
-0.30965259 -0.35162218 1.29211335 94 86 85
-0.30402155 -0.35109766 1.30571100 94 86 86
-0.30893775 -0.34767053 1.33626128 92 83 83
-0.30277093 -0.34851947 1.34651975 93 84 85
-0.30675559 -0.33792786 1.33182135 94 83 82
-0.30572728 -0.33756767 1.34413926 94 83 84
-0.31243551 -0.33851656 1.36671746 94 84 81
-0.31315702 -0.00698137 0.53333362 68 56 56
-0.31954940 -0.01207427 0.54036823 66 57 55
-0.30495191 0.25890530 0.75214079 65 82 104
-0.30554802 0.26344155 0.74896641 82 100 119
-0.29797760 -0.35508557 1.29369146 94 86 86
-0.29900993 -0.35156143 1.30552927 94 85 86
-0.29659377 -0.34921256 1.35039023 98 88 89
-0.28660111 0.25639780 0.73625205 82 102 120
-0.29305132 0.25691343 0.74588217 72 90 108
-0.28912962 0.26198835 0.73731285 80 94 117
-0.29031816 0.26522290 0.74222207 89 104 125
-0.26145388 0.15889518 0.64243211 95 120 133
-0.26397501 0.17043038 0.65239636 108 128 140
-0.27423698 0.17583396 0.66432745 111 130 144
-0.27595735 0.18035393 0.66590616 100 118 138
-0.27556478 0.25489811 0.72919552 85 107 129
-0.27814373 0.26142913 0.73460406 108 134 150
-0.25783756 0.15662727 0.63952059 89 114 122
-0.25760712 0.15833382 0.64308595 82 103 112
-0.25830153 0.16663945 0.64682132 87 109 122
-0.20189989 0.16387159 0.60433132 92 104 117
-0.18103740 -0.28238332 0.79192972 91 82 83
-0.18305749 -0.09244596 0.63476089 90 79 80
-0.19542139 0.15860340 0.59897678 101 131 138
-0.19387416 0.15949200 0.60168099 96 113 130
-0.19374968 0.16252376 0.59952543 84 108 124
-0.19342944 0.16973829 0.60372497 85 102 123
-0.19564216 0.18087089 0.60770237 86 109 128
-0.17523837 -0.30282083 0.78674028 85 79 81
-0.17332105 -0.28798316 0.78637539 90 83 84
-0.17078617 -0.27479551 0.78672898 93 86 87
-0.17906540 -0.10099809 0.63651845 91 82 79
-0.17182034 -0.09214509 0.63657931 90 78 79
-0.16089940 0.17088847 0.49470266 72 89 118
-0.16098344 0.16988882 0.50330744 91 115 137
-0.14174232 -0.48427093 1.21922994 90 88 89
-0.14199771 -0.48197678 1.22142673 90 89 89
-0.14174232 -0.47689523 1.21922994 88 86 87
-0.14337102 -0.25466003 0.60875324 81 74 75
-0.14991003 -0.22434341 0.66439853 88 81 82
-0.14163533 -0.21552134 0.65869618 98 91 92
-0.15087853 -0.21447879 0.66265437 92 83 84
-0.14207368 0.11464449 0.46544916 76 87 104
-0.14308078 0.12222652 0.46850466 78 97 117
-0.15058811 0.15786458 0.50345984 88 110 132
-0.15217880 0.17207190 0.49415227 97 120 141
-0.15242181 0.16512956 0.50284570 86 110 130
-0.13163646 -0.50709576 1.23006527 86 85 85
-0.13688461 -0.48475252 1.21602684 89 87 87
-0.12913705 -0.48939550 1.22596358 87 86 86
-0.13118939 -0.46307737 1.19980860 92 88 87
-0.13506526 -0.47454339 1.21384316 89 85 86
-0.12717498 -0.47826654 1.22612377 93 86 88
-0.12730775 -0.26524164 0.61361322 87 83 83
-0.13159941 -0.25282050 0.60925909 86 80 80
-0.13654229 -0.22193357 0.65838079 99 90 93
-0.13968915 -0.22142804 0.66103560 100 91 94
-0.13688655 -0.21564117 0.65779962 99 93 95
-0.13619818 0.11551929 0.46594204 60 71 93
-0.13691350 0.12244762 0.46902405 87 104 121
-0.11985498 -0.50340104 1.23253059 84 84 84
-0.11506579 -0.48616994 1.23671290 89 85 86
-0.11878982 -0.47996742 1.23253059 93 88 88
-0.11973495 -0.26672127 0.61163251 87 86 84
-0.02216137 -0.26382059 0.63449744 84 83 83
-0.02234617 -0.25459874 0.63648849 85 81 81
-0.02092975 0.03778361 0.47087805 82 72 72
-0.02091796 0.04116442 0.47161309 88 74 75
-0.01575599 -0.26386676 0.63181923 87 83 84
-0.01687250 -0.25895579 0.63493071 88 80 81
-0.00127929 -0.15200479 0.54353166 97 93 96
-0.01588835 0.03776108 0.46997467 83 73 74
-0.01533540 0.04194877 0.47034897 91 77 78
-0.00399975 0.06565658 0.51680874 120 104 107
-0.00924949 0.13272347 0.59097114 133 121 120
-0.00671749 0.14228091 0.59350086 141 134 136
0.01067715 -0.15132769 0.53827273 98 93 95
0.00419440 -0.15118104 0.54265087 98 93 95
0.01525080 -0.08561556 0.65378777 103 94 97
0.01536992 -0.07844985 0.65446323 103 94 97
0.00281456 0.06533274 0.51519959 117 102 104
0.01491604 0.11709446 0.76547542 128 113 116
0.00108544 0.12980473 0.58582077 134 120 120
0.01459570 0.12410168 0.76524604 128 113 111
0.01901027 0.17937560 0.47671765 134 150 160
0.01803473 0.18519396 0.47723996 137 158 171
0.01586219 0.18703264 0.48123149 132 152 169
0.03443304 -0.18527127 0.54876600 92 88 89
0.03379299 -0.17706649 0.54943103 91 86 87
0.02370612 -0.08250849 0.65327382 104 93 97
0.02505310 -0.07865198 0.65319092 103 94 97
0.02338543 0.11890572 0.76270515 128 109 113
0.02710139 0.13071753 0.76807956 130 115 114
0.02714802 0.14071801 0.76663230 134 117 119
0.03444375 0.17479893 0.49549655 130 147 160
0.03441323 0.17899829 0.50102911 133 149 168
0.02333357 0.18500899 0.47673739 126 146 155
0.03652947 0.18603634 0.49684353 136 151 162
0.03641366 0.18518970 0.50329655 133 151 164
0.05107006 0.15767300 0.55619142 59 70 91
0.05013316 0.15449988 0.56187376 49 52 65
0.04122955 0.16926409 0.47958396 145 166 176
0.04070724 0.16960359 0.48125361 143 162 174
0.05009937 0.16264884 0.55070076 102 119 136
0.04631885 0.16117911 0.56335681 76 87 109
0.04044529 0.18319246 0.50065869 124 134 144
0.05608046 0.21372120 0.68596149 128 139 148
0.05941554 0.22626209 0.69112425 140 155 166
0.06770536 0.13747773 0.56830645 141 132 132
0.06783616 0.14391116 0.56814155 150 144 144
0.07712262 0.21591816 0.67616066 136 155 169
0.06698941 0.21590385 0.68689504 106 122 138
0.07437754 0.22608291 0.67673325 117 138 155
0.06673591 0.22616354 0.68853407 112 128 144
0.08278466 0.21874155 0.65846848 93 115 141
0.08200460 0.21543604 0.66619593 123 138 156
0.08088232 0.22212545 0.67187283 102 124 145
0.11886146 -0.34810601 1.09613992 84 81 82
0.11838308 -0.34960601 1.10047376 79 75 77
0.11800646 -0.33005787 1.09523517 87 82 81
0.11711715 -0.31147213 1.09247673 88 85 87
0.11875576 -0.26178646 1.09514034 93 87 91
0.11887478 -0.25279870 1.09376626 91 87 92
0.11830330 -0.20847488 1.09679577 94 87 92
0.11782885 -0.19588220 1.09709131 97 89 93
0.11659515 -0.18666524 1.10351505 99 92 96
0.11391077 -0.19011835 1.12845534 98 91 95
0.11914071 -0.17718016 1.09869015 97 88 93
0.11682318 -0.17252976 1.10602117 95 90 95
0.11878183 -0.15834428 1.11312294 99 90 95
0.11855180 -0.12185381 1.08289764 99 89 94
0.11939994 -0.11106365 1.08550215 96 88 93
0.11684954 -0.08819816 1.09497507 101 92 96
0.11768487 -0.09493139 1.10286256 102 91 96
0.11445088 -0.09411617 1.12731528 106 93 97
0.11564343 -0.09674275 1.15878952 107 94 98
0.11584146 -0.09490211 1.16077375 107 94 98
0.11602047 -0.09876878 1.18305731 109 93 97
0.11883262 -0.07443949 1.09584916 99 91 97
0.11952815 -0.06154083 1.10226321 101 95 101
0.11802890 -0.05725876 1.09843619 102 93 98
0.11710117 -0.04778597 1.10716759 103 94 99
0.11547531 -0.05858644 1.13740563 103 95 100
0.11641299 -0.04578111 1.14664152 104 95 99
0.11806529 -0.04355867 1.18305731 104 95 100
0.11808141 -0.04329463 1.20407268 104 94 100
0.11680838 -0.02522715 1.09716758 104 95 100
0.11682987 -0.03281106 1.10736292 104 94 100
0.11535906 -0.02907438 1.13626058 103 94 98
0.11646058 -0.02987074 1.16697755 102 93 97
0.11714499 -0.03675553 1.19452399 102 94 100
0.11760992 -0.00764676 1.07054191 101 91 96
0.11604424 -0.01285583 1.09337805 103 93 98
0.11498612 -0.01019381 1.11362822 103 93 98
0.11505036 -0.00940486 1.13321993 102 93 97
0.11486007 -0.00758187 1.15093985 103 94 98
0.11285200 0.01589909 1.05755353 103 94 97
0.11725753 0.01437561 1.06756496 101 92 96
0.11497004 0.01457130 1.09514034 102 93 96
0.11518662 0.01676813 1.11556999 103 94 97
0.11553388 0.00832362 1.12962508 104 93 97
0.11435350 0.00534688 1.14586389 105 93 97
0.11712617 0.02793315 1.06720313 103 93 96
0.11460154 0.02395857 1.09163024 105 93 97
0.11460514 0.02339685 1.10993844 105 94 98
0.11919374 0.04928591 1.06796808 100 90 94
0.11900964 0.06759163 1.05141953 99 90 93
0.11926600 0.06023847 1.06586766 97 88 91
0.12372870 -0.36022145 1.07261372 83 78 81
0.12358813 -0.36212189 1.09046485 85 80 84
0.12841754 -0.35368476 1.07529570 77 76 78
0.12592762 -0.34964595 1.09244888 78 75 77
0.12504035 -0.35626328 1.10047376 74 73 75
0.13197972 -0.32240257 1.07944560 84 80 81
0.12851481 -0.32939870 1.08747209 86 82 83
0.12839177 -0.31185399 1.07944560 87 84 85
0.12932105 -0.30837401 1.08613760 87 84 86
0.12514043 -0.28572712 1.07897756 85 80 84
0.12550905 -0.29172481 1.08676273 86 82 85
0.12624927 -0.27114487 1.09118924 84 80 83
0.12694244 -0.26591450 1.10047376 85 82 85
0.12765580 -0.25163759 1.09655504 86 82 85
0.12911049 -0.24728380 1.10277265 86 81 83
0.12853792 -0.23965333 1.09780270 88 85 87
0.13031286 -0.23580742 1.10660231 86 78 81
0.12294522 -0.20714689 1.09792852 93 86 91
0.12983086 -0.21270710 1.10564713 86 79 84
0.12357831 -0.19543783 1.09787052 94 84 89
0.12588089 -0.18836477 1.10857182 91 85 89
0.12935747 -0.19255213 1.12280434 89 82 86
0.12518297 -0.17718016 1.09869015 92 86 89
0.12647723 -0.17022810 1.10998214 91 86 90
0.12709192 -0.16586097 1.12364284 91 87 91
0.12619214 -0.15557936 1.11068260 90 83 88
0.12731382 -0.15939118 1.12048233 85 82 86
0.12708302 -0.12750780 1.09305678 90 83 87
0.12735593 -0.13988036 1.10405838 95 86 91
0.12809801 -0.11140013 1.09427807 90 82 88
0.12944148 -0.10157988 1.10563002 92 83 90
0.12097442 -0.09357277 1.09809756 101 91 96
0.12879268 -0.09077948 1.10636664 92 84 88
0.12862992 -0.08723040 1.12350771 98 89 94
0.12080480 -0.07069764 1.09655797 100 91 96
0.12593566 -0.06711069 1.10534430 96 91 95
0.12587581 -0.05324315 1.09809756 96 87 92
0.12405420 -0.04761687 1.10389668 100 91 96
0.13653617 -0.02200258 1.07858753 86 79 82
0.12939838 -0.02889254 1.09477787 93 85 89
0.12284496 -0.03407329 1.10211600 103 95 100
0.12921048 -0.00783774 1.06998776 89 81 87
0.12479514 -0.01802866 1.08774883 100 90 95
0.12833675 0.01014712 1.06919490 92 83 87
0.12630204 0.03028920 1.06679112 95 87 91
0.12628463 0.05021123 1.06654187 94 85 90
0.12125007 0.06783203 1.05508777 99 90 93
0.12722125 0.06560604 1.06550385 90 81 84
0.13535316 0.20801517 0.45466892 0 0 0
0.13742765 0.21496144 0.46985172 0 0 0
0.13924779 0.22105609 0.48317310 0 0 0
0.14161787 -0.32242662 1.08898920 101 93 94
0.14217875 -0.31599171 1.08789583 99 93 96
0.14039902 0.22491090 0.49159874 0 0 0
0.14283157 0.23305614 0.50940220 0 0 0
0.14588308 0.24327393 0.53173570 0 0 0
0.14872589 0.25279287 0.55254173 0 0 0
0.15073875 0.25953278 0.56727350 0 0 0
0.15179060 0.26305488 0.57497185 0 0 0
0.15399283 0.27042889 0.59108963 0 0 0
0.15629990 0.27815399 0.60797477 0 0 0
0.15750930 0.28220353 0.61682606 0 0 0
0.15875441 0.28637275 0.62593889 0 0 0
0.17208525 0.15133316 0.47947618 137 156 162
0.17568429 0.15527175 0.48369678 128 140 150
0.17916513 0.16103889 0.48687549 112 126 135
0.17623870 0.23330693 0.65283800 142 160 171
0.17499723 0.24287328 0.65857423 131 150 167
0.17038252 0.25253174 0.66527138 113 127 145
0.16785632 0.26806960 0.67218853 119 132 144
0.16003688 0.29066700 0.63532507 0 0 0
0.16203957 0.29737289 0.64998248 0 0 0
0.16845763 0.28142031 0.67721782 42 48 53
0.16638109 0.28495926 0.68443227 16 19 20
0.16485091 0.30678646 0.67055812 0 0 0
0.16784605 0.31681553 0.69247916 0 0 0
0.17021737 0.32475570 0.70983440 0 0 0
0.17272492 0.33315209 0.72818679 0 0 0
0.17535010 0.34194231 0.74740005 0 0 0
0.17813434 0.35126516 0.76777744 0 0 0
0.19505281 -0.60981894 1.41522717 86 82 81
0.19643840 -0.60752356 1.42529953 88 85 83
0.19920811 -0.60408013 1.44540164 90 87 87
0.19607844 -0.59161349 1.45242016 86 81 82
0.19764140 -0.58588306 1.46822546 89 84 86
0.19952933 -0.58468994 1.48497844 93 89 88
0.19797578 -0.56145644 1.45470357 95 89 91
0.19904385 -0.56827870 1.46255147 97 91 91
0.19887562 -0.57893831 1.48011315 98 92 92
0.19629088 -0.55293870 1.44232309 94 90 91
0.19854504 0.03886457 1.08636510 104 93 97
0.19824042 0.04326848 1.08911095 105 94 97
0.19734156 0.05800781 1.11131001 103 95 98
0.19167249 0.06587332 1.13278039 101 93 96
0.19450883 0.07330663 1.15187722 100 90 93
0.19988337 0.07174561 1.39771509 104 92 98
0.19806069 0.08252550 1.14509408 100 89 93
0.18073054 0.14954526 0.47934685 147 157 162
0.18384204 0.15687798 0.48536970 111 122 134
0.18372257 0.16154879 0.48577468 134 153 162
0.18784853 0.23554799 0.63814563 133 148 157
0.18431281 0.23387357 0.65323243 133 150 161
0.18221702 0.22827530 0.66135832 105 111 125
0.18563149 0.24143669 0.65066702 139 157 167
0.18123680 0.24475866 0.66265658 142 161 174
0.18105645 0.36104968 0.78916395 0 0 0
0.18416584 0.37146127 0.81192106 0 0 0
0.18743829 0.38241884 0.83587158 0 0 0
0.18973681 0.39011532 0.85269415 0 0 0
0.19212976 0.39812797 0.87020773 0 0 0
0.19462308 0.40647665 0.88845587 0 0 0
0.19722320 0.41518298 0.90748572 0 0 0
0.19993713 0.42427042 0.92734861 0 0 0
0.20265706 -0.60567091 1.45221419 87 83 84
0.21033591 -0.60487558 1.47475122 85 81 82
0.21593594 -0.60511836 1.48430800 88 83 84
0.20122740 -0.59351670 1.45548730 85 79 81
0.20531307 -0.59047890 1.47034936 87 83 84
0.21154980 -0.58934421 1.48675777 91 86 86
0.20310769 -0.57302805 1.47368256 94 89 89
0.20734668 -0.57071120 1.48057583 93 87 88
0.21829064 -0.28142788 1.58385944 106 97 103
0.21750143 -0.26376001 1.56830490 100 94 98
0.21829064 -0.27458395 1.58385944 103 94 99
0.21748490 -0.25114715 1.56816701 103 95 99
0.21562903 -0.23058499 1.55480188 102 97 100
0.21737697 -0.22160720 1.56739044 99 94 97
0.21015212 -0.20346800 0.83150258 99 90 93
0.21765601 -0.21376871 1.57139199 102 96 98
0.21778181 -0.20976089 1.58016741 108 100 105
0.21398358 -0.19454810 0.83319261 98 92 95
0.21876920 -0.12113011 0.65926766 97 91 93
0.21835374 -0.12112017 0.66232732 97 92 93
0.21900100 -0.11711359 0.65910745 93 90 90
0.21800202 -0.11854545 0.66265213 95 91 92
0.20787102 0.01910940 1.43621159 103 92 96
0.20459021 0.03874836 1.09190673 102 92 96
0.20778373 0.03218602 1.43265710 108 94 100
0.20602267 0.04331430 1.09492451 104 93 96
0.20792157 0.05292308 1.10666092 103 94 98
0.20736255 0.05945174 1.12048233 102 97 100
0.21437840 0.05966642 1.39771509 100 89 93
0.20841355 0.05315324 1.41051034 102 92 97
0.20884832 0.04427282 1.42594732 105 95 99
0.21212788 0.07147184 1.13229903 101 90 93
0.20408779 0.07455102 1.14763696 102 90 91
0.21024871 0.07380127 1.37596579 103 94 98
0.21069713 0.07197275 1.39178106 103 93 97
0.20659686 0.06551085 1.40923134 101 90 95
0.21373349 0.06701494 1.42564160 100 90 95
0.21217628 0.09028911 1.11863339 104 95 98
0.21424558 0.08421272 1.13058301 101 89 93
0.20183490 0.08175971 1.14620502 102 90 95
0.21955152 0.11697634 1.08810890 108 92 97
0.21909664 0.12429313 1.08986630 104 93 97
0.21720915 0.17808657 0.51985568 98 117 136
0.21508745 0.17902562 0.52178424 98 118 133
0.21485438 0.18308939 0.52494449 123 141 150
0.20277254 0.43376461 0.94810051 0 0 0
0.20573774 0.44369340 0.96980232 0 0 0
0.20884188 0.45408738 0.99252099 0 0 0
0.21209493 0.46498004 1.01632965 0 0 0
0.21550789 0.47640812 1.04130852 0 0 0
0.21909285 0.48841211 1.06754625 0 0 0
0.22434914 -0.62153929 1.49644995 88 82 84
0.22251424 -0.61031462 1.48851444 90 84 84
0.22304905 -0.60143044 1.51093479 93 85 85
0.22747875 -0.60425931 1.52908631 93 86 86
0.22187244 -0.59907040 1.51485914 93 87 86
0.23749150 -0.52038425 1.47367787 91 88 88
0.23829117 -0.52109453 1.48661208 93 90 90
0.23891986 -0.51344957 1.49053431 96 91 92
0.22905587 -0.32285622 1.64138460 106 99 102
0.22886290 -0.30774357 1.63191881 109 100 104
0.23075648 -0.31614788 1.64338142 108 98 104
0.22486816 -0.28443256 1.59817451 104 95 101
0.22632050 -0.29350958 1.60686703 107 98 102
0.22356751 -0.26179862 1.57283485 101 92 97
0.22550789 -0.27412901 1.59479973 102 93 98
0.22457647 -0.24985977 1.57384169 102 94 99
0.23034266 -0.25042023 1.58584055 103 94 99
0.22285847 -0.22841579 1.55837202 104 95 100
0.22262171 -0.23070058 1.56481021 101 96 98
0.22324419 -0.22205125 1.58016741 98 96 98
0.22210192 -0.20503174 0.83044383 100 91 93
0.22363330 -0.21699345 1.57649267 101 94 97
0.22372228 -0.21226402 1.58355898 102 95 99
0.22133671 -0.19644637 0.82605444 100 91 95
0.22347942 -0.12125088 0.65258738 97 91 94
0.22403923 -0.11519120 0.65722004 96 92 93
0.22173267 -0.11107618 0.66094459 101 92 95
0.23870609 0.04455628 0.65127215 96 82 86
0.22216653 0.07504983 1.13676949 100 90 94
0.22116989 0.06677625 1.39483917 102 91 95
0.23704780 0.11435281 0.64835821 125 108 109
0.22963108 0.11514579 1.07504741 100 87 90
0.22523142 0.11458843 1.08551698 103 89 94
0.23897681 0.12191704 1.05755353 106 90 93
0.23088450 0.12251738 1.07351928 104 91 94
0.22716623 0.12253789 1.08684578 103 92 95
0.22041182 0.17984813 0.52105445 139 151 166
0.22417429 0.18690481 0.52614472 129 143 155
0.22286314 0.50103664 1.09514034 0 0 0
0.22683349 0.51433116 1.12419879 0 0 0
0.23102030 0.52835041 1.15484130 0 0 0
0.23544174 0.54315531 1.18720114 0 0 0
0.24596801 -0.52349684 1.47322719 92 86 87
0.25154254 -0.52381348 1.48895372 92 87 89
0.25911754 -0.52427396 1.50308609 94 88 92
0.24828371 -0.51370834 1.49170858 95 90 92
0.25224791 -0.50936490 1.50856423 97 92 93
0.25997829 -0.50501293 1.52335250 99 94 97
0.25952463 -0.32101972 0.82619390 86 78 80
0.25984131 -0.31855108 0.82720205 85 79 80
0.24580358 -0.05916467 0.95612580 104 95 98
0.25386070 -0.04741589 0.96778390 102 93 96
0.24713693 -0.02090086 0.95702674 102 93 96
0.25607383 -0.02828737 0.96597489 103 94 96
0.24580309 -0.01867744 0.95612389 101 91 96
0.24430605 0.03946969 0.64746185 94 85 88
0.24556715 0.04615250 0.65091513 95 84 86
0.24503162 0.11477982 0.64839167 125 109 108
0.24187791 0.11971562 1.05426419 106 90 93
0.24047784 0.11716372 1.06419615 100 85 88
0.25285691 0.11796720 1.54418075 104 92 96
0.25424057 0.11851888 1.56919408 104 92 96
0.24516729 0.12151573 0.65077723 126 112 109
0.24060460 0.12158403 1.05467725 106 91 93
0.25787425 0.12308855 1.55837202 103 92 98
0.25635937 0.12365709 1.56557012 103 92 98
0.25721765 0.12265068 1.58756876 106 92 96
0.25359840 0.13084398 1.60957211 105 93 97
0.25502654 0.13544663 1.62252865 105 94 97
0.25635937 0.14530477 1.56557012 97 86 92
0.25949959 0.14511411 1.59318513 97 88 92
0.25855123 0.14210987 1.62175083 105 92 94
0.24011812 0.55881387 1.22142673 0 0 0
0.24507211 0.57540202 1.25768435 0 0 0
0.25032923 0.59300512 1.29616034 0 0 0
0.25591817 0.61171931 1.33706474 0 0 0
0.26929992 -0.54338211 1.51653659 96 87 90
0.27096805 -0.52825615 1.49569605 93 86 89
0.27002811 -0.52534046 1.50740055 93 87 90
0.27466697 -0.51667720 1.49881480 94 87 90
0.26901273 -0.51423666 1.51205014 94 89 92
0.26988547 -0.51408735 1.52640915 96 92 93
0.27167264 -0.32343102 0.83269771 83 79 80
0.27444103 -0.31330613 0.83107769 83 81 82
0.27868230 -0.05236391 0.74562741 98 89 94
0.26394864 -0.04438585 0.96856916 102 92 96
0.26424438 -0.03392160 0.96818890 105 95 100
0.26163839 0.12829045 1.58944952 104 93 98
0.26732921 0.13547337 1.61185442 104 92 95
0.26781702 0.13658558 1.62272310 104 92 96
0.27044365 0.14556749 1.59817451 94 85 87
0.26920227 0.14234626 1.60861213 100 89 92
0.26187134 0.63165313 1.38063514 0 0 0
0.26822558 0.65292984 1.42714071 0 0 0
0.27502280 0.67568994 1.47688854 0 0 0
0.28262235 -0.32284684 0.83298474 83 79 80
0.28649081 -0.31228080 0.83335672 86 80 80
0.29010589 -0.16225967 1.61019444 104 93 99
0.28782487 -0.15459581 1.61352924 102 94 99
0.29445658 -0.14906656 1.63000180 105 96 101
0.29607996 -0.14571732 1.64338142 106 97 103
0.29444035 -0.13022882 1.63427104 104 94 100
0.29773691 -0.12668122 1.64204860 104 94 99
0.29733245 -0.11801908 1.62695503 102 92 97
0.28873861 -0.06165388 0.75523144 98 89 93
0.28606562 -0.05316547 0.74979130 97 89 93
0.28896046 -0.05825790 0.76082134 100 91 96
0.28058147 0.13559065 1.62759382 102 91 95
0.29368319 0.13763702 1.65026800 103 92 96
0.29135407 0.15356690 1.61404009 95 84 88
0.29322277 0.14819082 1.62887471 95 84 87
0.29342158 0.14178813 1.64238060 102 91 94
0.29219836 0.16496947 1.59880149 102 91 95
0.29237169 0.16206523 1.61116201 101 88 93
0.29465070 0.16090423 1.62761259 97 85 91
0.29678536 0.27038329 0.71606038 138 155 163
0.29491718 0.27485712 0.72346220 137 156 168
0.28812917 0.29070995 0.71563983 120 134 144
0.29128539 0.28759492 0.72842903 126 145 158
0.29334974 0.29129628 0.74613956 121 140 155
0.29405348 0.45467138 1.61574027 64 80 96
0.29695785 0.45580385 1.62486584 59 74 87
0.29430687 0.45590037 1.64138460 42 52 58
0.29184446 0.46309647 1.61211133 107 132 145
0.29379297 0.46910777 1.62955850 99 120 133
0.28231102 0.70009410 1.53022993 0 0 0
0.29014546 0.72632712 1.58756876 0 0 0
0.29858983 0.75460267 1.64937186 0 0 0
0.31462169 -0.42155042 1.07240321 91 88 88
0.31426381 -0.41340249 1.07448850 91 87 88
0.31713340 -0.40608724 1.08203077 89 87 85
0.31228066 -0.16346953 1.63151733 102 94 97
0.31511105 -0.14841673 1.61710992 102 95 98
0.31076297 -0.14847940 1.63047367 103 94 99
0.30814669 -0.15067992 1.64337659 104 96 99
0.31265050 -0.12958602 1.61109453 106 95 100
0.30634035 -0.13108860 1.62863376 105 94 100
0.30070898 -0.13025559 1.64536858 104 93 99
0.30877876 -0.11689723 1.59880149 104 95 100
0.30681792 -0.11884262 1.61278061 104 95 99
0.30657215 -0.11871735 1.62369537 105 95 101
0.30180825 0.13756904 1.65138328 105 94 98
0.30208644 0.14348291 1.63741994 106 93 97
0.30281788 0.14099333 1.64138460 105 94 98
0.31855345 0.18420747 0.49847155 139 153 161
0.30256575 0.27663994 0.71778126 144 161 167
0.30459788 0.27835763 0.72154555 148 164 170
0.30689931 0.28072837 0.71963042 138 153 159
0.30630381 0.28582788 0.72509855 140 154 165
0.31536958 0.44332609 1.57649267 37 37 62
0.31644781 0.45205126 1.58800407 49 54 78
0.30949044 0.45537488 1.61069524 52 59 80
0.31078011 0.45800486 1.62369537 52 59 78
0.31732711 0.46178862 1.59318513 80 97 120
0.31085637 0.46515555 1.61140954 82 97 118
0.30981944 0.47330018 1.62671250 100 120 132
0.31258638 0.48992458 1.60800843 111 125 142
0.31318012 0.48605589 1.62891211 110 124 135
0.31029814 0.48683166 1.64452594 123 136 144
0.31438775 0.50779922 1.63152045 138 153 167
0.31268490 0.51089109 1.64858487 140 154 167
0.31227243 0.51892275 1.66149962 152 166 178
0.30771834 0.78516883 1.71618187 0 0 0
0.31761757 0.81831580 1.78863287 0 0 0
0.32260922 -0.42206883 1.07431352 86 83 83
0.32464782 -0.40735967 1.07526873 87 82 84
0.32947101 -0.40530142 1.08159900 86 83 84
0.32424709 -0.16050598 1.64937186 103 94 95
0.32189748 -0.15651275 1.63741994 104 95 98
0.32630590 -0.15585495 1.64537823 103 94 98
0.33330590 0.17946598 0.49992025 111 131 140
0.33089250 0.17891855 0.50197003 97 116 132
0.32531410 0.18454299 0.49910143 125 139 146
0.32830076 0.18258214 0.50273929 115 131 140
0.32200137 0.45757534 1.59130124 61 70 96
0.32283741 0.46178353 1.59316748 73 89 112
0.32145466 0.47464306 1.61250923 105 126 141
0.32519575 0.47775372 1.62564615 111 130 144
0.32085258 0.48292845 1.61788034 104 120 139
0.32085258 0.50250310 1.61788034 123 142 157
0.32523233 0.50532882 1.63426347 121 139 151
0.32981834 0.51255903 1.65027669 125 141 152
0.33524656 0.51605093 1.66149962 119 138 148
0.33621607 0.52384114 1.67107213 126 145 154
0.32838947 0.85438484 1.86747062 0 0 0
0.35784990 -0.00363913 0.64795060 72 63 67
0.35694503 0.00162238 0.64808115 73 64 67
0.34015474 0.89378005 1.95357883 0 0 0
0.37798688 -0.21218746 0.51529158 66 64 66
0.37034016 -0.00272106 0.65465867 67 61 62
0.37222600 0.00345931 0.65593154 68 60 63
0.37693539 0.00765123 0.66087475 62 53 56
0.36887258 0.05389369 0.45533817 87 81 81
0.36958346 0.06334973 0.45634491 87 82 82
0.37429205 0.34960774 1.09514034 152 168 179
0.37484574 0.35258888 1.10799923 147 164 176
0.37577702 0.35651092 1.12635251 143 164 179
0.37762059 0.36249603 1.13550572 143 164 179
0.37884769 0.36493626 1.14315653 142 164 179
0.38108143 -0.22102740 0.51226109 63 62 64
0.38098420 -0.21333634 0.51295533 65 63 66
0.39245725 -0.20106438 0.63118422 71 67 68
0.39187094 -0.18971926 0.62520332 73 67 70
0.38704182 -0.17942254 0.62420982 71 66 70
0.39721349 -0.09359032 0.50404144 81 74 73
0.38040808 0.00466121 0.65789282 69 62 68
0.38202563 0.35991246 1.15878952 138 157 171
0.38038793 0.36097452 1.11863339 145 164 173
0.38319943 0.36844198 1.13267422 134 151 163
0.38391655 0.37155557 1.15214374 137 155 168
0.38337848 0.37252425 1.16835636 136 156 171
0.38819921 0.36895528 1.18790027 133 153 168
0.39137044 0.38329286 1.15681541 127 133 148
0.39009259 0.38671002 1.16963843 122 133 145
0.39094989 0.39282809 1.18836972 111 127 140
0.39001766 0.39616540 1.20193589 115 130 141
0.39630886 0.40375419 1.19453300 98 110 124
0.39533839 0.40703049 1.21109048 82 98 116
0.39826962 0.41731097 1.22955080 82 91 114
0.40637742 -0.10420355 0.49824459 79 74 73
0.40434950 -0.10611464 0.50434597 78 75 74
0.40778345 -0.09936471 0.49644281 79 73 73
0.40400374 -0.09763860 0.50389659 79 74 73
0.41912205 0.12679962 0.67313521 116 101 100
0.40197422 0.40086660 1.18512559 119 129 132
0.43510176 -0.46266733 1.53427943 97 87 90
0.43841659 -0.47086713 1.54347086 95 89 92
0.42705077 -0.45083547 1.51823676 94 87 89
0.43436890 -0.45629287 1.53055175 95 86 89
0.43834955 -0.45453215 1.54417276 93 88 90
0.42781237 0.11982349 0.66853237 110 100 95
0.43896251 0.13649413 0.57902430 116 107 101
0.43795713 0.13723490 0.58199642 117 109 106
0.42608120 0.12597509 0.67007797 116 102 100
0.43926485 0.14108722 0.57947750 110 102 96
0.43854453 0.14265007 0.58199359 113 106 100
0.42844097 0.46735389 1.25356289 108 128 141
0.43428304 0.47617774 1.26327968 105 118 135
0.43803384 0.48246166 1.26669647 95 109 128
0.45692465 -0.52188599 1.59503961 93 88 90
0.45393730 -0.50391356 1.56972383 92 87 85
0.45529141 -0.50885862 1.58387426 92 87 86
0.44775247 -0.48664182 1.55551426 91 88 89
0.45049980 -0.49383411 1.56671198 93 88 89
0.44200209 -0.46417552 1.53369825 94 86 89
0.44414927 -0.47435517 1.54461744 92 88 90
0.45433640 -0.46132076 1.57649267 96 87 90
0.45575223 -0.46193228 1.60384703 96 86 89
0.44591859 -0.45527950 1.51993692 88 88 89
0.44551064 -0.45574846 1.53300738 91 86 89
0.44858916 -0.45623043 1.55125843 94 87 91
0.45153524 -0.45757884 1.56679483 95 87 90
0.45315687 -0.45835010 1.58512481 95 87 90
0.44098067 0.13840542 0.57873570 114 106 100
0.44050055 0.13572098 0.58188656 115 107 101
0.44262086 0.14265497 0.57897090 113 105 98
0.44277422 0.14544492 0.58154934 116 109 102
0.45354718 0.45560196 1.23929036 152 166 177
0.45379158 0.45888335 1.24705954 151 164 173
0.45383447 0.46885186 1.25273624 141 157 166
0.44977146 0.47326807 1.26619431 128 143 156
0.45872585 0.47089708 1.28999519 146 167 178
0.44206825 0.48320571 1.25535524 103 116 130
0.44731228 0.48345877 1.26645652 101 117 133
0.45442063 0.48386740 1.28812372 112 125 141
0.45907089 0.48601791 1.30363810 129 145 153
0.46258374 -0.52530966 1.59826408 92 87 88
0.47246431 -0.52922656 1.60686477 91 87 89
0.46272743 -0.51654136 1.59130418 93 88 87
0.46356498 -0.46098658 1.58944952 96 87 89
0.46461190 -0.46131605 1.60734174 96 87 90
0.46850038 -0.46867800 1.62563992 96 86 90
0.46258175 -0.45601821 1.55837202 94 88 92
0.46390326 -0.45729867 1.56738210 95 89 92
0.46676384 -0.45729507 1.59256973 96 87 90
0.46600987 -0.45787519 1.60258114 96 87 90
0.47770703 -0.32097152 0.79940075 61 57 58
0.47688770 -0.32135046 0.80034459 61 57 58
0.47395749 -0.30824244 0.79805475 59 54 56
0.47389635 -0.31218458 0.80174680 57 52 54
0.47364085 -0.29942278 0.79720889 59 55 56
0.47794250 -0.22384165 0.45909959 136 138 135
0.47810600 -0.22410483 0.46172865 137 140 137
0.47501321 -0.21462455 0.45745161 134 135 130
0.47618989 -0.21892962 0.46072060 134 136 133
0.46670923 0.45977777 1.31885576 144 158 166
0.46091987 0.46866761 1.29616505 139 163 176
0.46421077 0.47069550 1.31121434 138 157 169
0.47065887 0.47079419 1.33524398 136 153 165
0.47243156 0.47146029 1.34736860 143 159 167
0.46196286 0.48568927 1.31187233 134 153 161
0.46886222 0.48720595 1.33331801 139 159 171
0.47077709 0.48462341 1.34458494 132 153 169
0.48078963 -0.32141775 0.80223888 61 57 58
0.48178994 -0.31545981 0.80327622 61 56 57
0.51913434 -0.40110040 0.67993164 61 61 61
0.51724878 -0.40606182 0.68595712 62 61 61
0.51887426 -0.39913721 0.67959100 62 62 63
0.51952243 -0.39995345 0.68198377 62 61 62
0.50634322 0.01887352 0.54512484 85 79 82
0.50854519 0.02682461 0.54622779 83 80 80
0.51791836 0.24631933 0.62654600 109 126 131
0.52265996 -0.40110040 0.67993164 63 63 65
0.52196341 -0.40142382 0.68500903 63 61 63
0.52200560 -0.39766371 0.67908037 63 64 66
0.52240862 -0.39929782 0.68380159 62 62 64
0.52277824 -0.12465188 0.69813782 79 74 76
0.53245063 -0.12213703 0.70505690 78 74 75
0.53448859 -0.11254916 0.71337565 78 74 75
0.53493265 -0.10921162 0.72122099 77 74 74
0.52174652 -0.06180172 0.53929341 86 81 82
0.52591342 -0.06119416 0.54467444 86 82 83
0.52889124 -0.05211485 0.54532356 85 84 84
0.52964048 0.25187053 0.61920100 99 117 122
0.52924960 0.24807088 0.62559913 96 112 121
0.53367561 0.26070774 0.62536150 92 112 125
0.54172051 -0.12060793 0.70677353 80 74 76
0.54268452 -0.11573906 0.71342363 80 78 79
0.54414303 -0.04088285 0.57868900 81 78 79
0.54876589 -0.04679585 0.58499197 82 78 77
0.54379388 -0.03892456 0.57791320 83 79 80
0.55259734 -0.03907460 0.58263168 81 81 81
0.55504379 0.04658122 0.56366474 88 87 88
0.54206899 0.24638308 0.62488169 129 147 150
0.54911983 0.57513881 1.43926084 141 159 170
0.55136500 0.57631870 1.44952957 144 161 170
0.55607724 0.57874984 1.46412921 147 163 171
0.54911983 0.58384556 1.43926084 138 157 166
0.55186551 0.58580844 1.45116060 137 156 167
0.55636875 0.59096084 1.47328182 137 156 166
0.55943582 0.59363977 1.48878789 140 158 168
0.55715668 0.60035419 1.47367787 131 150 160
0.55874062 0.60376310 1.49152744 132 152 163
0.57164886 -0.06548100 0.55797657 103 108 108
0.57529628 -0.06317245 0.56149867 106 108 109
0.57147956 -0.05536931 0.55630453 107 109 103
0.57493597 -0.05936063 0.56024116 108 110 109
0.56171084 0.04751264 0.56381438 74 74 77
0.56380266 0.58958787 1.49810535 147 163 170
0.56689212 0.59288117 1.50978136 147 164 169
0.56573170 0.60840553 1.51599256 136 156 167
0.57191473 0.60356740 1.53138395 145 162 169
0.57028440 0.62966000 1.52937609 138 153 163
0.57540417 0.63169697 1.55391645 138 156 167
0.57425652 0.62740797 1.57212355 138 153 168
0.57518192 0.63575246 1.58665228 136 150 166
0.57973582 0.64441931 1.56196272 138 154 163
0.57713246 0.64643566 1.59354779 128 146 160
0.57678789 0.65164487 1.60638479 127 143 157
0.59412778 0.09620485 0.64790701 87 83 83
0.59385673 0.10405956 0.64885126 91 85 86
0.58238242 0.63893489 1.58633232 136 152 167
0.58240390 0.64223939 1.57649267 140 158 169
0.58512367 0.65165798 1.59006486 138 154 166
0.58373198 0.65840733 1.60258114 136 153 163
0.58089185 0.65664166 1.62563992 132 145 160
0.58618924 0.66392870 1.60851669 129 147 158
0.58892167 0.67092194 1.63012752 123 140 152
0.58688021 0.67219117 1.64737993 119 137 147
0.59363971 0.68278346 1.64806350 120 135 144
0.59303010 0.68815394 1.66969958 120 129 137
0.59380323 0.69253629 1.68211377 119 127 136
0.61225582 -0.29192345 0.65697742 75 74 74
0.61872501 -0.28937153 0.66200653 77 73 74
0.61932886 -0.27980843 0.66265088 80 74 74
0.60998489 0.29540224 0.67902370 88 108 124
0.61564450 0.29803012 0.68976116 101 121 133
0.61941594 0.29981726 0.70030147 110 131 144
0.61729932 0.30049930 0.69352214 93 113 129
0.60122442 0.70388389 1.69897699 115 124 132
0.60282034 0.70625752 1.71184814 110 118 126
0.60714321 0.71558085 1.73264435 114 123 131
0.60921001 0.72081953 1.74714386 118 126 134
0.61091381 0.72643632 1.76075804 121 130 139
0.63160428 -0.30739142 0.66616869 77 77 77
0.62314707 -0.29258414 0.65849278 76 73 73
0.63000815 -0.28862195 0.66494656 79 75 76
0.62943628 -0.27797163 0.66520604 80 75 75
0.63256895 0.01325453 0.61667061 117 118 112
0.63933849 0.01361212 0.62021214 129 130 120
0.63402289 0.02137279 0.61358695 127 129 119
0.62383490 0.29707214 0.69612221 134 150 156
0.62563619 0.29481340 0.70167137 144 160 165
0.62297052 0.30040699 0.69885755 117 133 146
0.65502740 -0.44165764 0.76626996 71 71 73
0.65659918 -0.43510270 0.76873071 73 73 74
0.65973037 -0.43506354 0.78098136 71 71 73
0.64238143 -0.31067181 0.67118007 79 78 78
0.64176964 -0.28936619 0.66877335 82 80 80
0.64132854 0.01408119 0.61889225 129 130 120
0.64240154 0.01501006 0.62155746 129 130 120
0.64887202 0.21377359 0.65719273 134 159 162
0.65555313 0.21142448 0.66988967 111 134 141
0.65503062 0.21760834 0.68468365 94 111 118
0.64775741 0.22153699 0.67925036 99 113 120
0.65271991 0.22183491 0.68464184 91 104 110
0.65914690 0.33601794 0.86136192 113 136 137
0.66207013 -0.43063918 0.77278005 73 73 74
0.66822366 -0.43518444 0.78924749 73 72 73
0.67514406 -0.08558311 0.91479868 78 72 72
0.67921184 -0.08178108 0.92230296 78 72 72
0.67690146 -0.06886336 0.91491919 80 74 74
0.67834523 -0.06827744 0.92293181 80 73 74
0.66170005 0.20948592 0.67681860 99 122 129
0.66255373 0.21392986 0.68672413 89 112 122
0.67582806 0.22949300 0.67364593 100 119 125
0.66384159 0.22133261 0.68876302 69 88 97
0.67650735 0.31978098 0.87809825 108 122 130
0.66981384 0.33453280 0.87464333 93 115 126
0.67544402 0.33511069 0.88992144 93 110 124
0.67416362 0.34232335 0.89090009 96 111 119
0.69936375 -0.18339863 0.76526970 81 77 76
0.69386880 -0.18983687 0.99963014 76 72 74
0.69405292 -0.18950259 1.00428795 78 72 75
0.69742322 -0.17184384 0.75802947 82 79 77
0.69831349 -0.17592506 0.76377560 82 78 78
0.68107170 -0.08098479 0.92230353 78 72 72
0.68384626 -0.06491737 0.91924542 82 75 76
0.68504449 -0.06923812 0.92506998 79 74 74
0.69317368 -0.05954509 0.92356008 83 74 77
0.68038398 0.23045743 0.67959100 84 109 118
0.68882177 0.23407854 0.69057490 92 114 124
0.69616286 0.23414287 0.70226223 107 128 137
0.68919358 0.24356088 0.69137838 101 119 129
0.69567209 0.24171737 0.70030147 99 119 130
0.68285537 0.32978528 0.89155508 120 138 146
0.69075626 0.38602048 0.93761064 102 123 130
0.69624643 0.39460440 0.94914750 93 111 126
0.69689174 0.41207522 0.93605713 130 144 150
0.69793574 0.40982580 0.95157424 114 130 137
0.69880189 0.41593126 0.96246183 94 114 128
0.69762677 0.42086681 0.95477724 117 139 140
0.69660050 0.42103851 0.96018672 93 112 125
0.70183554 -0.18386986 0.75911806 83 80 80
0.70155081 -0.18642944 0.76333315 83 79 79
0.70918476 -0.19096710 0.99895828 77 73 75
0.71048991 -0.19430883 1.00574879 76 73 74
0.71906304 -0.18396512 1.30113602 76 72 73
0.70083012 -0.17546114 0.75892265 84 79 79
0.70093444 -0.17607121 0.76173812 84 80 79
0.71408397 0.18704822 0.60557586 134 150 154
0.70307256 0.39733258 0.95209621 80 101 115
0.70277713 0.41090625 0.95099826 108 125 133
0.70379112 0.41697956 0.96615796 101 121 135
0.70409038 0.42323487 0.95423063 133 152 155
0.70610545 0.42497917 0.96600782 109 129 139
0.73540336 -0.20089661 1.31629479 77 73 76
0.72123661 -0.19657554 1.01500459 77 74 75
0.73227612 -0.18911941 1.30753739 76 71 74
0.73269659 -0.17671087 1.29740185 76 69 74
0.73480541 -0.17834285 1.30113602 78 69 76
0.73878342 -0.02314264 0.97518373 78 74 75
0.73827405 -0.01371252 0.97604819 81 75 77
0.72301465 0.19482887 0.61217551 142 160 165
0.72416443 0.20136402 0.61535864 141 160 162
0.75225894 -0.20215382 1.31459813 65 60 61
0.74876153 -0.19079897 1.30912067 63 62 63
0.74354276 -0.02414481 0.97669045 79 76 75
0.75647740 -0.02361779 0.98549188 82 79 78
0.74573541 -0.00933089 0.95792705 81 78 78
0.74734811 -0.01230807 0.97455015 82 77 77
0.75458808 -0.01782603 0.98316748 83 78 79
0.76071975 -0.02447348 0.98963156 81 79 78
0.81083416 -0.72346770 1.14508911 54 51 53
0.81407250 -0.71053162 1.14749173 55 54 55
0.81645894 -0.69578081 1.14393287 57 57 57
0.81553044 -0.46572255 1.61230049 84 76 78
0.80066371 -0.44574169 1.59880149 81 76 78
0.81188485 -0.44919424 1.60587544 80 76 77
0.81776261 -0.44373071 1.62175083 82 78 79
0.81759300 -0.43882632 1.61404649 81 77 78
0.81658554 0.37981930 1.25072300 120 148 161
0.81463721 0.38794550 1.24815498 135 160 161
0.81778802 0.41444649 1.27074077 132 147 155
0.81901254 0.42199384 1.27583857 117 140 149
0.81981826 0.42509133 1.28632224 106 129 139
0.82874118 -0.70514893 1.14907602 58 56 57
0.82570200 -0.69439534 1.14541485 57 57 58
0.82994204 -0.46371358 1.61454428 79 74 75
0.83468124 -0.46980646 1.62467232 80 74 75
0.83935130 -0.45126849 1.59880149 79 74 74
0.82966199 -0.45129120 1.60926827 79 74 75
0.82367414 -0.44411507 1.63347435 83 79 80
0.82201011 0.39051948 1.26237345 132 156 160
0.83100454 0.41138403 1.27179409 120 138 144
0.82717620 0.41577074 1.28706615 127 140 150
0.83060964 0.42324861 1.27619942 125 144 152
0.83008849 0.43026136 1.28840330 116 137 150
0.84496027 -0.46360209 1.61480961 77 73 73
0.84642078 -0.46868103 1.62564459 78 74 74
0.84269155 -0.45093166 1.59466871 78 73 72
0.84157999 -0.45197237 1.60702376 78 73 74
0.85849674 0.09573590 0.95280227 82 75 77
0.84833854 0.41273689 1.27904117 104 126 137
0.84354343 0.41723421 1.28267258 115 134 140
0.84387473 0.42886527 1.28668225 132 150 157
0.86658829 0.09998675 0.93760973 85 76 79
0.86637515 0.09730692 0.95195756 81 75 75
0.87015331 0.10656210 0.93843616 79 75 74
0.87045904 0.10385524 0.95007858 80 75 75
0.86193329 0.42050141 1.29616034 102 125 136
0.89564517 -0.20373405 0.77483896 130 130 126
0.89875895 -0.20207374 1.32400751 78 71 73
0.89484267 -0.19276442 0.77207962 129 130 123
0.89641376 -0.18774909 1.31553479 77 71 73
0.89700697 -0.19406657 1.32142663 78 70 73
0.89775124 -0.17754922 1.31190654 75 69 72
0.89929092 -0.17884004 1.32142663 76 70 73
0.90288583 -0.20688317 0.77672360 129 130 124
0.90706021 -0.21175470 0.78008264 129 129 125
0.90881452 -0.20499151 1.32807717 77 72 74
0.90156674 -0.19520791 0.77306154 132 132 123
0.90533786 -0.18868183 1.31548087 77 70 72
0.91354255 -0.19334857 1.32416469 77 71 74
0.90525362 -0.17558644 1.31308460 77 70 71
0.90875970 -0.17493640 1.32357736 77 70 72
0.92311911 -0.20565378 1.33608165 76 71 73
0.92745811 -0.21183525 1.34236014 76 72 73
0.92066276 -0.19482524 1.32919967 77 71 73
0.95213281 -0.51026101 1.37678233 67 62 64
0.95375804 -0.51014761 1.38157435 68 63 64
0.96588971 -0.51247530 1.38842410 68 64 63
0.99187097 -0.52420345 1.41522926 67 64 64
0.98741996 -0.51832632 1.41032541 67 65 65
1.01904309 -0.66319845 1.05181515 89 89 88
1.01726304 -0.65555356 1.05195047 89 89 87
1.01048607 -0.54000765 1.41818380 67 65 67
1.01473892 -0.54227901 1.42414880 67 66 68
1.00875356 -0.53647726 1.41404862 68 64 66
1.01165025 -0.52942101 1.42841235 68 65 66
1.01261151 -0.51727903 1.43216725 68 67 69
1.02158011 -0.66587692 1.05570485 89 89 88
1.02819023 -0.66084316 1.06352930 90 89 87
1.02563876 -0.65638749 1.05460617 89 90 87
1.03439001 -0.65747210 1.06462116 90 91 91
1.02506619 -0.52766379 1.43040670 70 68 68
1.02040875 -0.51929846 1.42864615 71 70 70
1.04337894 -0.65059873 1.06723205 89 90 89
1.05346429 -0.65274405 1.08116722 88 89 89
1.04388261 -0.63898504 1.06754625 86 87 85
1.06067765 -0.65548070 1.08986016 88 89 89
1.07581323 -0.41062753 1.07262881 99 99 99
1.06909168 -0.16271298 1.01443008 132 131 126
1.07822847 -0.16083232 1.02478039 131 131 124
1.07323953 -0.15718513 1.01836582 131 131 123
1.07819307 -0.15600121 1.02378985 132 132 124
1.09059130 -0.42338124 1.07478435 87 90 90
1.08610155 -0.42135967 1.08203169 97 97 98
1.08974439 -0.41428432 1.07437923 90 92 94
1.08627479 -0.41806133 1.08220458 99 99 102
1.09684372 -0.16015752 1.04936814 133 133 124
1.08732461 -0.15181602 1.03291591 133 134 126
1.09478604 -0.14782555 1.04405203 133 134 127
1.08998898 -0.13740939 1.03851724 132 133 121
1.09328009 -0.13682923 1.04490170 132 133 122
1.09803836 0.01607534 1.20836592 82 80 78
1.09648359 0.02840659 1.19980860 82 78 79
1.09582767 0.02433440 1.20364532 81 79 78
1.10139734 -0.42214492 1.07687414 108 114 109
1.10660377 -0.43243739 1.08636847 89 93 93
1.11218373 -0.16047240 1.06758336 134 134 129
1.10116053 -0.14778690 1.04993132 132 133 127
1.11247350 -0.15181700 1.06778039 133 134 128
1.10013890 -0.13539381 1.05426419 135 135 121
1.11209053 -0.00166255 1.19874871 85 82 77
1.11901546 -0.00479924 1.20621324 86 82 78
1.10719490 0.00143991 1.19347155 86 82 79
1.11472049 0.01302186 1.21336112 83 79 77
1.11383406 0.02630058 1.19839541 83 77 79
1.11060965 0.02550788 1.20763770 83 80 80
1.12089980 -0.15889779 1.07772946 135 135 131
1.12698364 -0.00343580 1.21631400 85 82 79
1.13550873 -0.00742190 1.22673569 86 82 78
1.12786706 0.01456603 1.21777240 81 79 78
1.13019524 0.01491006 1.22407840 81 79 77
1.12307733 0.02226715 1.21303474 82 80 79
1.14124465 -0.00811420 1.23477566 86 83 79
1.27446675 0.83192134 1.99968100 113 134 144
1.27071834 0.85359740 1.99379957 94 113 133
1.29188479 -0.44349318 1.29668506 90 91 92
1.29152086 -0.43570248 1.29521649 92 92 94
1.29352633 -0.43255038 1.30364784 97 97 97
1.29334712 -0.30160877 1.41522300 83 77 77
1.29930729 -0.30044870 1.42716599 83 78 78
1.29200238 -0.29885103 1.41374886 83 78 77
1.29798388 -0.29695101 1.42614973 83 78 80
1.29779957 -0.08461602 1.43183131 86 83 83
1.29816973 -0.08551271 1.44232309 88 84 85
1.28968183 -0.06719213 1.41522920 84 79 76
1.29603598 -0.07169846 1.42877365 86 82 82
1.30707580 -0.44432807 1.29787935 100 102 105
1.31373870 -0.44403529 1.30113602 107 109 112
1.30951494 -0.43499084 1.29730779 97 98 99
1.31532720 -0.42981556 1.30217937 87 88 88
1.30938173 -0.29040910 1.43573433 82 78 78
1.30738157 -0.28815082 1.44445516 83 81 80
1.30998960 -0.27579796 1.43761992 80 76 76
1.30975038 -0.27270061 1.44755747 82 81 76
1.30743229 -0.08556508 1.43479714 84 81 82
1.31016127 -0.09031334 1.44565600 86 83 83
1.31243134 -0.08156813 1.46097374 90 86 87
1.30380868 -0.07462113 1.42822511 82 78 79
1.30237095 -0.07041418 1.44528922 86 83 84
1.31261613 -0.07257898 1.46286976 87 84 84
1.30890203 -0.05840269 1.45007747 84 82 82
1.32907712 -0.42886906 1.31375515 86 86 85
1.33569098 -0.43278392 1.32271707 84 85 84
1.32339745 -0.28920762 1.43870643 82 78 77
1.32827925 -0.28992927 1.44408226 81 78 76
1.32806118 -0.27401638 1.45160735 83 79 79
1.33804154 -0.27407208 1.46412921 82 81 79
1.32701120 -0.10187698 1.46986115 86 81 81
1.33602035 -0.10438188 1.48011315 85 80 80
1.32586806 -0.09717529 1.45159801 84 80 81
1.32544923 -0.09899509 1.46477127 86 81 82
1.34868121 -0.43315694 1.33443791 82 82 81
1.34202921 -0.27056891 1.46572751 84 80 81
1.34257376 -0.10243228 1.47048813 83 79 79
1.39452323 -0.03304473 1.95007828 77 73 75
1.40462132 -0.06437243 1.96776813 80 72 73
1.41511732 -0.06640538 1.99091047 80 73 74
1.40547127 -0.05114073 1.95922494 80 73 74
1.40648778 -0.05023545 1.96681100 80 73 74
1.41246271 -0.05372882 1.98797550 81 73 75
1.40276223 -0.03827256 1.95922494 78 73 76
1.97269624 0.41191828 1.84460706 123 120 112
1.98299420 0.41473669 1.85723794 126 123 113
1.98696832 0.41658995 1.86633999 125 122 113
1.99025334 0.42554092 1.87129604 125 124 116
1.99426234 0.43026094 1.88303292 124 124 115
1.99558496 0.44084677 1.89355266 123 124 115
2.00446831 0.43238611 1.87264212 127 127 118
2.00769806 0.43744501 1.88829037 126 126 117
2.00821209 0.44042885 1.87781680 130 130 121
2.01388971 0.44370707 1.89180676 127 127 117
2.01511482 0.44779497 1.90687756 125 125 114
2.01879652 0.46550498 1.89179448 129 126 120
2.01813388 0.46899691 1.91494870 129 126 118
2.02868216 0.45384455 1.89726553 128 127 116
2.03008411 0.45471939 1.90809709 127 126 115
2.03435578 0.45739683 1.92583794 128 127 115
2.02504440 0.46430035 1.89355759 129 126 120
2.03176906 0.46609787 1.90849078 130 127 119
2.03480172 0.46636489 1.92630056 128 128 117
2.04422700 0.45383546 1.90687251 128 127 116
2.04624391 0.45834711 1.92582905 128 126 113
2.04276717 0.47214521 1.91091061 128 124 119
2.04505089 0.47157500 1.92740561 128 126 117
2.05589086 0.48499516 1.92812299 128 124 117
2.05754292 0.49049521 1.94331378 126 125 118
2.06208801 0.48635793 1.93131578 129 125 117
2.06605516 0.49038832 1.94844092 127 125 118
2.09108315 0.46887462 1.94462259 128 127 118
2.10420116 0.46596061 1.95546087 128 128 117
