ply
format ascii 1.0
element vertex 1058
property float x
property float y
property float z
property uchar red
property uchar green
property uchar blue
end_header
0.02394909 0.17909683 0.88037902 178 182 185
0.02533912 0.17817126 0.87582928 171 175 176
0.09325043 0.16695467 0.82069230 180 184 185
0.09489872 0.16735990 0.82268429 182 186 187
0.09608743 0.16695467 0.82069230 178 182 184
0.09762412 0.16715704 0.82168710 177 181 184
0.09916455 0.16735990 0.82268429 168 171 176
0.10070871 0.16756326 0.82368392 166 169 174
0.10188478 0.16715704 0.82168710 165 168 173
0.10343038 0.16735990 0.82268429 163 166 171
0.10459843 0.16695467 0.82069230 161 163 168
0.10601693 0.16695467 0.82069230 154 156 160
0.10769620 0.16735990 0.82268429 143 145 149
0.18560560 0.22350819 1.09869015 168 176 182
0.18750459 0.22350819 1.09869015 172 177 182
0.18909712 0.22314654 1.09691238 172 177 182
0.19130260 0.22350819 1.09869015 172 177 180
0.31944531 0.15425566 0.75826830 149 153 157
0.32183591 0.15477504 0.76082134 146 154 158
0.32424265 0.15529794 0.76339173 140 145 153
0.32483050 0.15494895 0.76167625 139 141 153
0.32578096 0.15477504 0.76082134 142 143 157
0.32636338 0.15442839 0.75911742 150 151 165
0.32657835 0.15391134 0.75657570 154 161 167
0.32679185 0.15339772 0.75405097 163 170 176
0.44875067 0.16675280 0.81969994 167 176 175
0.44585449 0.16515516 0.81184649 169 178 177
0.42535943 0.10306768 0.50664562 167 176 177
0.42679185 0.10299071 0.50626725 158 167 166
0.42607588 0.10260756 0.50438380 155 164 163
0.42599678 0.10237903 0.50326043 151 160 159
0.42497364 0.10192502 0.50102872 144 153 152
0.42302570 0.10125151 0.49771795 139 147 146
0.42171854 0.10073379 0.49517301 134 140 143
0.42165041 0.10051353 0.49409026 134 139 145
0.42097026 0.10014856 0.49229619 148 153 159
1.08040178 0.20958140 1.03023076 162 171 170
1.07079101 0.20737527 1.01938617 158 165 163
1.06614006 0.20613536 1.01329124 155 161 159
1.07446110 0.20706390 1.01785564 154 160 158
1.07299817 0.20644395 1.01480818 151 157 155
-0.35145396 0.15435764 0.75237721 100 108 113
-0.35015354 0.15435764 0.75237721 96 106 112
-0.34769541 0.15384540 0.74988037 98 112 122
-0.34625226 0.15435764 0.75237721 100 116 126
-0.34456941 0.15418652 0.75154305 102 117 127
-0.34289029 0.15401576 0.75071079 103 117 128
-0.43652084 0.22799383 1.11129808 122 129 139
-0.43460006 0.22799383 1.11129808 101 110 121
-0.42986050 0.22650854 1.10405838 87 101 112
-0.42397243 0.22540720 1.09869015 99 119 127
-0.42207342 0.22540720 1.09869015 108 123 132
-0.42017445 0.22540720 1.09869015 118 132 141
-0.41827545 0.22540720 1.09869015 120 129 139
-0.41570270 0.22504246 1.09691238 119 128 138
-0.41313827 0.22467890 1.09514034 117 126 136
-0.41058210 0.22431652 1.09337389 117 125 132
-0.41134614 0.22577313 1.10047376 116 124 130
-0.40878046 0.22540720 1.09869015 106 114 120
-0.34599867 0.26796964 1.30614996 126 134 140
-0.10062779 0.10099945 0.49229619 171 175 174
-0.09623355 0.10085297 0.49158219 147 153 153
-0.09524576 0.10070691 0.49087027 133 142 147
-0.09426081 0.10056128 0.49016041 129 139 144
-0.09354889 0.10070691 0.49087027 134 144 149
-0.09263339 0.10063404 0.49051508 133 141 147
-0.09171920 0.10056128 0.49016041 132 138 144
-0.09106955 0.10077988 0.49122596 127 132 139
-0.09015518 0.10070691 0.49087027 117 123 130
-0.08904882 0.10041606 0.48945260 115 121 128
-0.08820284 0.10041606 0.48945260 113 119 126
0.00117447 0.18870589 0.91979897 169 169 171
0.00276802 0.18896228 0.92104870 138 137 146
0.00434228 0.18819518 0.91730964 130 130 142
0.00590381 0.18743429 0.91360086 131 131 145
0.00747282 0.18718202 0.91237128 138 140 155
0.00903762 0.18693043 0.91114497 148 154 165
0.01056984 0.18617971 0.90748572 155 159 168
0.01200974 0.18420695 0.89787000 169 172 181
0.01349016 0.18323615 0.89313811 174 176 184
0.01501410 0.18299505 0.89196295 174 176 184
0.01651233 0.18251476 0.88962185 173 176 184
0.01797918 0.18179901 0.88613313 175 178 186
0.01945992 0.18132496 0.88382250 176 179 187
0.02096020 0.18108885 0.88267165 177 180 186
0.02251515 0.18132496 0.88382250 176 179 184
0.02385614 0.17991751 0.87696230 175 177 179
0.02527381 0.17922196 0.87357193 173 174 176
0.09313767 0.16816957 0.81969994 180 181 184
0.09489872 0.16878185 0.82268429 178 180 182
0.09608743 0.16837317 0.82069230 175 179 180
0.09762412 0.16857727 0.82168710 174 179 179
0.09916455 0.16878185 0.82268429 169 175 177
0.10058649 0.16878185 0.82268429 167 170 173
0.10188478 0.16857727 0.82168710 164 166 169
0.10330500 0.16857727 0.82168710 162 163 167
0.10447196 0.16816957 0.81969994 155 155 159
0.10601693 0.16837317 0.82069230 149 149 153
0.18590690 0.22577313 1.10047376 166 174 178
0.18780899 0.22577313 1.10047376 165 174 175
0.18940359 0.22540720 1.09869015 166 170 175
0.19414558 0.22650854 1.10405838 169 172 178
0.17197715 0.11170782 0.54449141 134 136 145
0.17236447 0.11135007 0.54274768 137 139 148
0.17288731 0.11108326 0.54144716 141 145 151
0.17545973 0.11152866 0.54361814 158 162 166
0.17668270 0.11170782 0.54449141 162 165 169
0.32016155 0.15591507 0.75996846 160 161 165
0.32255992 0.15644121 0.76253301 153 154 158
0.32460818 0.15679395 0.76425236 143 144 150
0.32519588 0.15644121 0.76253301 134 136 149
0.32651386 0.15644121 0.76253301 142 144 157
0.32746348 0.15626544 0.76167625 155 157 170
0.32767546 0.15574047 0.75911742 161 168 175
0.32861954 0.15556626 0.75826830 172 180 186
0.45170346 0.16981226 0.82770675 171 176 175
0.45038447 0.16878185 0.82268429 170 179 176
0.44800058 0.16736010 0.81575429 172 181 178
0.42575654 0.10425505 0.50816482 157 165 168
0.42631531 0.10417696 0.50778413 161 170 172
0.42743027 0.10402112 0.50702459 156 165 166
0.42671084 0.10363356 0.50513548 152 161 162
0.42631325 0.10332559 0.50363433 149 158 159
0.42497364 0.10279101 0.50102872 142 151 151
0.42209598 0.10188735 0.49662405 136 145 146
0.42141071 0.10151550 0.49481156 137 144 147
0.42103666 0.10121997 0.49337107 142 147 152
1.07549834 0.21040279 1.02555501 163 172 167
1.06918323 0.20882319 1.01785564 157 164 162
1.05823112 0.20634457 1.00577426 151 155 156
1.06312418 0.20695870 1.00876760 149 153 154
1.06804645 0.20757648 1.01177883 146 150 151
1.06502640 0.20665118 1.00726867 145 149 150
-0.35236332 0.15548550 0.75154305 98 107 112
-0.35145396 0.15565807 0.75237721 93 104 111
-0.35015354 0.15565807 0.75237721 88 102 111
-0.34769541 0.15514150 0.74988037 86 104 118
-0.34716737 0.15548550 0.75154305 89 107 120
-0.34663701 0.15583102 0.75321317 91 109 121
-0.34495184 0.15565807 0.75237721 94 110 121
-0.34327045 0.15548550 0.75154305 96 112 122
-0.34311262 0.15600437 0.75405097 96 108 119
-0.42139047 0.22693838 1.09691238 115 130 134
-0.41949454 0.22693838 1.09691238 120 135 139
-0.41759863 0.22693838 1.09691238 122 130 136
-0.41570270 0.22693838 1.09691238 119 126 132
-0.41313827 0.22657177 1.09514034 117 124 131
-0.41058210 0.22620633 1.09337389 117 123 130
-0.41134614 0.22767520 1.10047376 117 123 130
-0.40878046 0.22730620 1.09869015 106 114 120
-0.35028100 0.27179831 1.31374383 109 115 125
-0.34666663 0.27074888 1.30867147 102 106 119
-0.10084751 0.10207272 0.49337107 154 158 159
-0.09984941 0.10192436 0.49265397 157 161 163
-0.09779104 0.10155534 0.49087027 160 166 166
-0.09708321 0.10170263 0.49158219 153 161 160
-0.09637332 0.10185035 0.49229619 148 158 156
-0.09538389 0.10170263 0.49158219 136 146 150
-0.09439732 0.10155534 0.49087027 132 142 146
-0.09368457 0.10170263 0.49158219 131 141 146
-0.09276764 0.10162893 0.49122596 130 138 146
-0.09185203 0.10155534 0.49087027 122 130 137
-0.09120172 0.10177643 0.49193892 118 126 132
-0.09022050 0.10162893 0.49122596 110 118 124
0.00276427 0.19029568 0.91979897 145 145 154
0.00433641 0.18952422 0.91607004 145 147 155
0.00589586 0.18875898 0.91237128 144 148 158
0.00746278 0.18850528 0.91114497 148 154 166
0.00901339 0.18799989 0.90870219 154 161 172
0.01052756 0.18699723 0.90385580 157 164 173
0.01196220 0.18502365 0.89431643 167 175 183
0.01347241 0.18453674 0.89196295 170 174 184
0.01499437 0.18429425 0.89079088 171 174 183
0.01649069 0.18381117 0.88845587 166 169 177
0.01793230 0.18285257 0.88382250 173 176 184
0.01940931 0.18237701 0.88152385 171 175 180
0.02087865 0.18190391 0.87923717 171 176 180
0.02239834 0.18190391 0.87923717 168 173 176
0.02379458 0.18096507 0.87469918 167 171 172
0.02524129 0.18049926 0.87244767 168 169 175
0.09325043 0.16979167 0.82069230 166 169 180
0.09489872 0.17020379 0.82268429 170 175 177
0.09632066 0.17020379 0.82268429 170 176 178
0.09786136 0.17041060 0.82368392 165 171 173
0.09928504 0.17041060 0.82368392 163 169 171
0.10070871 0.17041060 0.82368392 162 164 171
0.10200843 0.17020379 0.82268429 162 163 171
0.10343038 0.17020379 0.82268429 160 161 168
0.10472522 0.16999748 0.82168710 155 155 163
0.10627425 0.17020379 0.82268429 145 144 153
0.10808973 0.17082573 0.82569045 131 131 142
0.18811437 0.22804540 1.10226321 166 174 179
0.18940359 0.22730620 1.09869015 166 173 178
0.19509882 0.22953834 1.10947931 165 167 173
0.17197715 0.11264893 0.54449141 138 145 152
0.17250259 0.11237814 0.54318255 139 146 152
0.17302550 0.11210865 0.54187995 136 142 149
0.17466019 0.11255853 0.54405445 135 140 147
0.17545973 0.11246826 0.54361814 150 155 162
0.17654090 0.11255853 0.54405445 156 161 168
0.17993961 0.11292103 0.54580665 167 172 177
0.32124195 0.15775919 0.76253301 162 163 165
0.32328725 0.15811491 0.76425236 153 154 158
0.32570979 0.15865150 0.76684600 137 138 143
0.32592914 0.15811491 0.76425236 128 130 141
0.32725009 0.15811491 0.76425236 143 144 156
0.32783183 0.15775919 0.76253301 160 162 174
0.32878000 0.15758194 0.76167625 166 171 178
0.32972601 0.15740508 0.76082134 169 174 179
0.33029962 0.15705255 0.75911742 171 179 180
0.45480001 0.17187245 0.83074981 173 181 179
0.83581012 0.24180676 1.16877902 151 152 157
0.83495110 0.24097581 1.16476262 147 148 154
0.86997062 0.24691536 1.19347155 167 170 170
0.42519698 0.10521224 0.50854599 146 154 157
0.42607594 0.10521224 0.50854599 147 156 159
0.42663488 0.10513338 0.50816482 145 157 160
0.42751318 0.10513338 0.50816482 147 159 162
0.42734772 0.10466263 0.50588942 145 158 158
0.42599678 0.10411873 0.50326043 144 156 157
0.42465976 0.10358045 0.50065869 136 146 148
0.42271534 0.10289650 0.49735278 131 141 143
0.42171854 0.10244552 0.49517301 131 141 144
0.42134333 0.10214707 0.49373040 138 146 150
1.07712781 0.21249685 1.02710891 166 175 170
1.07079101 0.21089913 1.01938617 165 172 169
1.06138051 0.20870227 1.00876760 163 167 168
1.06154442 0.20839216 1.00726867 157 161 162
1.06804645 0.20932525 1.01177883 153 159 159
1.06187081 0.20777470 1.00428426 152 160 159
1.06046450 0.20716089 1.00131738 153 162 161
-0.35236332 0.15678449 0.75154305 91 108 111
-0.35145396 0.15695849 0.75237721 87 106 114
-0.35015354 0.15695849 0.75237721 88 107 117
-0.34808046 0.15661086 0.75071079 86 105 118
-0.34740901 0.15748285 0.75489068 86 101 116
-0.34610426 0.15748285 0.75489068 90 104 117
-0.34441593 0.15730768 0.75405097 88 102 113
-0.34580523 0.15854216 0.75996846 78 92 98
-0.34372100 0.15818748 0.75826830 88 102 107
-0.41773051 0.22995058 1.10226321 116 122 129
-0.41268602 0.23032509 1.10405838 119 124 131
-0.35301757 0.27621016 1.32400751 94 97 110
-0.10092095 0.10300044 0.49373040 135 139 146
-0.09992203 0.10285062 0.49301225 147 152 156
-0.09892601 0.10270124 0.49229619 153 159 160
-0.09786190 0.10247798 0.49122596 151 157 157
-0.09453423 0.10255229 0.49158219 132 142 145
-0.09375256 0.10262671 0.49193892 129 139 143
-0.09290228 0.10262671 0.49193892 125 133 139
0.00275678 0.19136618 0.91730964 156 158 166
0.00432472 0.19059245 0.91360086 155 160 167
0.00588794 0.19008011 0.91114497 156 161 168
0.00744277 0.18957052 0.90870219 159 164 171
0.00898929 0.18906364 0.90627253 161 169 177
0.01047171 0.18755916 0.89906079 165 171 179
0.01194644 0.18632358 0.89313811 169 174 183
0.01345471 0.18583390 0.89079088 168 170 181
0.01497469 0.18559003 0.88962185 174 175 185
0.01649069 0.18534680 0.88845587 170 171 180
0.01790895 0.18414012 0.88267165 169 174 181
0.01938410 0.18366182 0.88037902 165 170 177
0.02087865 0.18342361 0.87923717 162 167 173
0.02236932 0.18318601 0.87809825 155 160 165
0.02376392 0.18224175 0.87357193 155 160 167
0.09194324 0.17141770 0.82168710 136 140 157
0.09336346 0.17141770 0.82168710 159 163 176
0.09501402 0.17183428 0.82368392 161 167 174
0.09643769 0.17183428 0.82368392 163 169 174
0.09786136 0.17183428 0.82368392 162 168 172
0.09940582 0.17204331 0.82468593 162 169 172
0.10083122 0.17204331 0.82468593 163 168 171
0.10200843 0.17162573 0.82268429 160 165 167
0.10355604 0.17183428 0.82368392 161 164 169
0.10472522 0.17141770 0.82168710 161 162 169
0.10627425 0.17162573 0.82268429 147 146 156
0.10808973 0.17225286 0.82569045 134 133 149
0.11045866 0.17373416 0.83279097 127 130 145
0.11231200 0.17437683 0.83587158 149 154 166
0.11319842 0.17352098 0.83176911 158 165 173
0.19001953 0.22995058 1.10226321 165 172 178
0.19255090 0.23070082 1.10585940 166 172 178
0.19670855 0.23336568 1.11863339 167 169 175
0.17197715 0.11359005 0.54449141 141 149 155
0.17250259 0.11331699 0.54318255 137 144 156
0.17330258 0.11322626 0.54274768 136 143 154
0.17466019 0.11349888 0.54405445 135 142 153
0.17545973 0.11340787 0.54361814 147 151 164
0.17639932 0.11340787 0.54361814 151 155 167
0.17748125 0.11349888 0.54405445 152 157 168
0.17885223 0.11377281 0.54536754 157 160 169
0.17965032 0.11368135 0.54492915 166 169 177
0.31896481 0.15925631 0.76339173 171 172 172
0.31992400 0.15907717 0.76253301 168 169 170
0.32160372 0.15925631 0.76339173 166 167 168
0.32401782 0.15979616 0.76597947 159 163 164
0.32607865 0.16015810 0.76771444 151 155 157
0.32629701 0.15961580 0.76511496 150 153 160
0.32725009 0.15943585 0.76425236 154 158 165
0.32820103 0.15925631 0.76339173 160 164 171
0.32914981 0.15907717 0.76253301 163 168 175
0.33009648 0.15889843 0.76167625 162 167 173
0.33104101 0.15872009 0.76082134 163 169 173
0.33124074 0.15818748 0.75826830 164 169 173
0.83118278 0.24424802 1.17079771 163 172 172
0.83033824 0.24340723 1.16676736 166 169 171
0.84104031 0.24594714 1.17894232 165 166 168
0.83581012 0.24382690 1.16877902 158 160 162
0.83495110 0.24298900 1.16476262 146 150 153
0.84275645 0.24467060 1.17282331 136 139 143
0.84771687 0.24552014 1.17689562 128 129 132
0.84243822 0.24340723 1.16676736 144 145 148
0.84591085 0.24382690 1.16877902 151 152 154
0.84647155 0.24340723 1.16676736 152 153 155
0.85883564 0.24637562 1.18099630 156 157 158
0.86388695 0.24723707 1.18512559 162 167 164
0.86593533 0.24723707 1.18512559 168 173 170
0.86950386 0.24767005 1.18720114 172 177 174
0.87308484 0.24810457 1.18928397 174 179 176
0.42519698 0.10609122 0.50854599 145 154 156
0.42575654 0.10601170 0.50816482 143 152 154
0.42695493 0.10609122 0.50854599 143 153 156
0.42783391 0.10609122 0.50854599 144 154 157
0.42807063 0.10593229 0.50778413 138 148 151
0.42798653 0.10569477 0.50664562 129 141 144
0.42694765 0.10522292 0.50438380 132 144 147
0.42497364 0.10452299 0.50102872 136 144 148
0.42271534 0.10375613 0.49735278 135 140 145
0.42141071 0.10322599 0.49481156 131 137 141
0.42073044 0.10285062 0.49301225 132 140 145
1.07549834 0.21394797 1.02555501 167 176 173
1.07079101 0.21266106 1.01938617 166 175 172
1.06614006 0.21138954 1.01329124 162 173 169
1.07109356 0.21202339 1.01632965 161 172 168
1.07285023 0.21202339 1.01632965 161 171 168
1.06502640 0.21013314 1.00726867 162 171 170
1.06046450 0.20889159 1.00131738 162 171 170
-0.35484248 0.15861100 0.75405097 106 123 124
-0.35275438 0.15825891 0.75237721 95 113 114
-0.35262808 0.15878762 0.75489068 92 113 114
-0.35132331 0.15878762 0.75489068 90 110 116
-0.34885311 0.15825891 0.75237721 83 103 116
-0.34935421 0.15967669 0.75911742 85 102 119
-0.34765282 0.15949808 0.75826830 84 102 116
-0.34673005 0.15967669 0.75911742 78 96 110
-0.34697217 0.16039515 0.76253301 75 87 97
-0.34565419 0.16039515 0.76253301 87 100 109
-0.35669935 0.27959076 1.32919967 98 103 111
-0.35440195 0.27959076 1.32919967 90 95 102
-0.35004544 0.27795571 1.32142663 88 94 100
-0.10099451 0.10392950 0.49409026 138 143 149
-0.10006758 0.10385381 0.49373040 146 151 155
-0.09807511 0.10355213 0.49229619 144 153 153
-0.09743650 0.10377823 0.49337107 140 149 152
-0.09573099 0.10377823 0.49337107 131 141 146
-0.09474034 0.10362738 0.49265397 127 137 142
0.00274934 0.19243088 0.91483378 158 163 168
0.00431890 0.19191290 0.91237128 159 164 171
0.00588003 0.19139770 0.90992194 163 167 175
0.00741296 0.19037555 0.90506256 168 171 181
0.00896532 0.19012171 0.90385580 168 172 182
0.01045784 0.18886262 0.89787000 169 172 182
0.01194644 0.18786730 0.89313811 170 174 184
0.01345471 0.18737356 0.89079088 169 172 182
0.01497469 0.18712766 0.88962185 173 174 183
0.01649069 0.18688242 0.88845587 171 171 180
0.01790895 0.18566574 0.88267165 170 173 181
0.01938410 0.18518348 0.88037902 165 169 176
0.02085160 0.18470374 0.87809825 157 162 168
0.02234039 0.18446480 0.87696230 147 151 158
0.02373333 0.18351516 0.87244767 147 151 160
0.09085340 0.17346871 0.82468593 144 147 163
0.09227880 0.17346871 0.82468593 145 149 164
0.09347677 0.17304768 0.82268429 153 158 171
0.09512961 0.17346871 0.82468593 156 164 173
0.09643769 0.17325795 0.82368392 158 166 173
0.09786136 0.17325795 0.82368392 161 169 175
0.09940582 0.17346871 0.82468593 161 169 175
0.10083122 0.17346871 0.82468593 165 173 176
0.10213237 0.17325795 0.82368392 166 175 176
0.10355604 0.17325795 0.82368392 169 173 175
0.10472522 0.17283793 0.82168710 169 171 173
0.10614544 0.17283793 0.82168710 162 163 165
0.10795823 0.17346871 0.82468593 153 156 164
0.11005306 0.17453034 0.82973295 160 164 171
0.11203571 0.17538904 0.83381528 171 177 183
0.11278327 0.17431697 0.82871866 174 183 184
0.19028015 0.23452514 1.11495364 162 165 173
0.19189166 0.23414004 1.11312294 169 172 180
0.19445419 0.23491150 1.11679053 170 173 181
0.19768719 0.23646979 1.12419879 172 172 179
0.17211540 0.11462322 0.54492915 148 157 165
0.17264092 0.11434747 0.54361814 149 156 168
0.17344144 0.11425584 0.54318255 148 155 167
0.17466019 0.11443923 0.54405445 146 153 165
0.17545973 0.11434747 0.54361814 146 153 165
0.17639932 0.11434747 0.54361814 148 155 167
0.17733893 0.11434747 0.54361814 147 151 160
0.17856492 0.11453115 0.54449141 150 152 162
0.17936195 0.11443923 0.54405445 161 162 173
0.18044713 0.11453115 0.54449141 162 164 169
0.18168010 0.11471543 0.54536754 172 174 179
0.18232936 0.11453115 0.54449141 176 179 181
0.18341778 0.11462322 0.54492915 178 180 182
0.31908265 0.16130236 0.76684600 171 172 172
0.31932440 0.16075680 0.76425236 170 171 171
0.31992400 0.16039515 0.76253301 168 170 170
0.32160372 0.16057578 0.76339173 168 171 172
0.32475173 0.16148503 0.76771444 164 171 172
0.32681891 0.16185163 0.76945728 164 173 174
0.32703522 0.16130236 0.76684600 163 170 174
0.32761943 0.16093825 0.76511496 161 168 173
0.32857102 0.16075680 0.76425236 159 166 171
0.32914981 0.16039515 0.76253301 157 164 169
0.33009648 0.16021493 0.76167625 151 159 165
0.33104101 0.16003512 0.76082134 149 156 162
0.83118278 0.24627165 1.17079771 156 165 166
0.83320642 0.24627165 1.17079771 158 164 165
0.84397590 0.24885041 1.18305731 158 162 163
0.83870220 0.24669772 1.17282331 155 161 161
0.83927733 0.24627165 1.17079771 145 154 153
0.84862936 0.24841687 1.18099630 134 143 142
0.84919119 0.24798484 1.17894232 135 138 139
0.84534818 0.24627165 1.17079771 143 144 146
0.84737182 0.24627165 1.17079771 150 152 153
0.84793097 0.24584705 1.16877902 149 153 154
0.86033446 0.24885041 1.18305731 151 154 155
0.86388695 0.24928546 1.18512559 161 168 164
0.86291814 0.24841687 1.18099630 169 177 173
0.86646891 0.24885041 1.18305731 174 182 178
0.87155581 0.24972203 1.18720114 176 183 180
0.87514043 0.25016016 1.18928397 175 182 179
0.42487824 0.10689002 0.50816482 140 148 152
0.42511919 0.10673001 0.50740409 135 143 147
0.42631531 0.10680995 0.50778413 139 148 151
0.42751318 0.10689002 0.50816482 140 149 153
0.42775020 0.10673001 0.50740409 136 145 148
0.42766690 0.10649088 0.50626725 122 130 134
0.42694765 0.10609470 0.50438380 122 130 134
0.42497364 0.10538898 0.50102872 124 131 135
0.42240542 0.10453907 0.49698815 126 131 136
0.42141071 0.10408123 0.49481156 126 131 136
0.42042470 0.10362738 0.49265397 132 137 142
1.07549834 0.21572055 1.02555501 168 177 174
1.07079101 0.21442299 1.01938617 168 177 174
1.06933689 0.21378003 1.01632965 166 177 173
1.07431495 0.21442299 1.01938617 166 177 173
1.07285023 0.21378003 1.01632965 165 176 172
1.06502640 0.21187413 1.00726867 163 173 171
1.06046450 0.21062228 1.00131738 161 172 170
1.05750906 0.20969306 0.99689978 159 170 168
-0.35603055 0.16044974 0.75657570 113 133 133
-0.35393286 0.16009238 0.75489068 104 124 125
-0.35381007 0.16062902 0.75742108 98 120 121
-0.35250095 0.16062902 0.75742108 92 113 119
-0.35001856 0.16009238 0.75489068 91 111 124
-0.35066628 0.16098876 0.75911742 92 112 126
-0.35013840 0.16135013 0.76082134 94 114 129
-0.34843230 0.16116925 0.75996846 89 109 122
-0.34750834 0.16135013 0.76082134 92 112 124
-0.34736291 0.16189523 0.76339173 101 119 126
-0.34604344 0.16189523 0.76339173 102 119 125
-0.35810369 0.28299797 1.33443272 87 96 98
-0.35509822 0.28244197 1.33181107 87 96 97
-0.35210454 0.28188816 1.32919967 95 104 106
-0.34980711 0.28188816 1.32919967 106 112 114
-0.10092095 0.10470719 0.49373040 144 152 158
-0.09814639 0.10447890 0.49265397 139 147 153
-0.09736563 0.10455488 0.49301225 138 146 152
-0.09487824 0.10463098 0.49337107 129 136 145
0.00588003 0.19297042 0.90992194 166 173 182
0.00742287 0.19219647 0.90627253 165 172 181
0.00896532 0.19168395 0.90385580 165 173 181
0.01047171 0.19066706 0.89906079 168 175 183
0.01196220 0.18966091 0.89431643 170 175 184
0.01347241 0.18916179 0.89196295 170 175 183
0.01499437 0.18891323 0.89079088 171 174 182
0.01651233 0.18866532 0.88962185 169 171 179
0.01795571 0.18768011 0.88497627 170 171 179
0.01940931 0.18694794 0.88152385 160 162 167
0.02087865 0.18646298 0.87923717 151 153 158
0.02234039 0.18598056 0.87696230 136 137 142
0.02373333 0.18502313 0.87244767 137 140 150
0.02514421 0.18431149 0.86909211 143 144 155
0.09085340 0.17489412 0.82468593 153 158 169
0.09216668 0.17468160 0.82368392 156 163 172
0.09347677 0.17446962 0.82268429 156 165 173
0.09512961 0.17489412 0.82468593 160 169 176
0.09632066 0.17446962 0.82268429 158 166 174
0.09774260 0.17446962 0.82268429 160 168 174
0.09916455 0.17446962 0.82268429 164 172 176
0.10070871 0.17468160 0.82368392 169 177 180
0.10200843 0.17446962 0.82268429 169 178 178
0.10343038 0.17446962 0.82268429 173 176 176
0.10459843 0.17404717 0.82069230 173 175 174
0.10601693 0.17404717 0.82069230 169 170 170
0.10756566 0.17425814 0.82168710 162 167 172
0.10978431 0.17553475 0.82770675 168 173 178
0.11189807 0.17661297 0.83279097 175 180 185
0.11250819 0.17532068 0.82669735 175 181 183
0.19023032 0.23880892 1.12606621 159 167 174
0.19090815 0.23723261 1.11863339 167 171 175
0.19284162 0.23723261 1.11863339 172 176 179
0.19542003 0.23801816 1.12233746 173 177 178
0.19801559 0.23880892 1.12606621 176 177 178
0.17225386 0.11565806 0.54536754 163 170 181
0.17291826 0.11547226 0.54449141 164 171 182
0.17371984 0.11537959 0.54405445 160 167 178
0.17494099 0.11556508 0.54492915 160 167 174
0.17560054 0.11537959 0.54405445 161 167 175
0.17654090 0.11537959 0.54405445 156 162 169
0.17748125 0.11537959 0.54405445 149 154 161
0.17842160 0.11537959 0.54405445 142 144 154
0.17907453 0.11519469 0.54318255 149 149 160
0.18015772 0.11528706 0.54361814 153 153 163
0.18218303 0.11537959 0.54405445 168 168 175
0.18327047 0.11547226 0.54449141 168 169 173
0.31932440 0.16207775 0.76425236 166 168 169
0.31992400 0.16171312 0.76253301 167 169 171
0.32160372 0.16189523 0.76339173 168 172 173
0.32438436 0.16262779 0.76684600 166 172 174
0.32644838 0.16299656 0.76858485 164 173 175
0.32629701 0.16226068 0.76511496 166 174 178
0.32725009 0.16207775 0.76425236 167 175 179
0.32820103 0.16189523 0.76339173 168 176 180
0.32914981 0.16171312 0.76253301 159 167 171
0.32972601 0.16135013 0.76082134 147 155 161
0.32993016 0.16080868 0.75826830 149 157 163
0.83262080 0.24872485 1.17282331 156 165 166
0.83320642 0.24829528 1.17079771 155 163 164
0.84397590 0.25089523 1.18305731 155 162 162
0.84015578 0.24915592 1.17485583 155 162 162
0.84218639 0.24915592 1.17485583 149 157 156
0.85308796 0.25177401 1.18720114 139 147 147
0.85215521 0.25089523 1.18305731 141 147 146
0.85122889 0.25002256 1.17894232 147 151 150
0.85178524 0.24958849 1.17689562 151 155 155
0.85086501 0.24872485 1.17282331 150 156 156
0.86790782 0.25310382 1.19347155 151 157 157
0.86691809 0.25221574 1.18928397 161 169 167
0.86897367 0.25221574 1.18928397 168 177 174
0.87256008 0.25265899 1.19137406 171 180 176
0.42455998 0.10768761 0.50778413 135 141 146
0.42480123 0.10752653 0.50702459 128 135 139
0.42631531 0.10768761 0.50778413 132 140 144
0.42719296 0.10768761 0.50778413 136 145 149
0.42775020 0.10760701 0.50740409 139 148 151
0.42798653 0.10744616 0.50664562 133 145 147
0.42790279 0.10720579 0.50551218 137 148 151
0.42528796 0.10633355 0.50139928 142 151 154
0.42333654 0.10563039 0.49808365 145 151 155
0.42141071 0.10493647 0.49481156 148 153 158
1.07712781 0.21782267 1.02710891 168 177 174
1.07240367 0.21651049 1.02092147 168 177 174
1.07255304 0.21618491 1.01938617 167 178 174
1.07593286 0.21651049 1.02092147 167 178 174
1.07607687 0.21618491 1.01938617 166 177 173
1.06820083 0.21425182 1.01027095 166 176 174
1.06046450 0.21235298 1.00131738 164 173 172
1.05906653 0.21172749 0.99836797 160 170 168
-0.35603055 0.16175742 0.75657570 114 130 131
-0.35472289 0.16175742 0.75657570 111 128 130
-0.35420585 0.16211930 0.75826830 103 125 126
-0.35250095 0.16193815 0.75742108 94 114 121
-0.35079986 0.16175742 0.75657570 91 109 123
-0.35105941 0.16248278 0.75996846 98 116 129
-0.35053179 0.16284792 0.76167625 108 125 139
-0.34882337 0.16266514 0.76082134 119 135 144
-0.34829015 0.16303110 0.76253301 123 139 145
-0.34775451 0.16339870 0.76425236 125 137 141
-0.34643358 0.16339870 0.76425236 130 142 146
-0.36430591 0.28474391 1.33181107 90 95 109
-0.35988289 0.28307548 1.32400751 87 94 107
-0.36041015 0.28530443 1.33443272 85 94 106
-0.35810369 0.28530443 1.33443272 86 95 100
-0.35579723 0.28530443 1.33443272 94 102 107
-0.35210454 0.28418559 1.32919967 109 118 119
-0.35049435 0.28474391 1.33181107 128 135 136
-0.34682965 0.28362945 1.32659853 136 142 144
-0.09729487 0.10533042 0.49265397 133 141 147
-0.09644336 0.10533042 0.49265397 136 144 150
-0.09487824 0.10548373 0.49337107 129 137 143
-0.09409397 0.10556056 0.49373040 116 125 131
-0.09310497 0.10540701 0.49301225 105 112 122
0.00744277 0.19428237 0.90870219 171 179 186
0.00898929 0.19376290 0.90627253 174 182 187
0.01052756 0.19324620 0.90385580 176 183 187
0.01200974 0.19196641 0.89787000 175 179 184
0.01350796 0.19120666 0.89431643 175 178 183
0.01653402 0.19045289 0.89079088 172 173 178
0.01800271 0.18970503 0.88729298 165 166 169
0.01951079 0.18945706 0.88613313 154 155 158
0.02098753 0.18896304 0.88382250 137 138 141
0.02245659 0.18847159 0.88152385 121 122 126
0.02379458 0.18701245 0.87469918 134 134 145
0.09085340 0.17631952 0.82468593 162 169 175
0.09216668 0.17610528 0.82368392 163 172 178
0.09347677 0.17589156 0.82268429 164 174 179
0.09501402 0.17610528 0.82368392 165 175 180
0.09632066 0.17589156 0.82268429 171 180 186
0.09762412 0.17567836 0.82168710 172 180 186
0.09892444 0.17546567 0.82069230 172 180 185
0.10046456 0.17567836 0.82168710 171 179 184
0.10188478 0.17567836 0.82168710 170 179 182
0.10330500 0.17567836 0.82168710 171 172 173
0.10434578 0.17504184 0.81870997 166 167 169
0.10588874 0.17525351 0.81969994 161 162 165
0.10756566 0.17567836 0.82168710 154 159 164
0.10951687 0.17653428 0.82569045 157 164 170
0.11148719 0.17739859 0.82973295 157 164 172
0.11237115 0.17653428 0.82569045 157 165 169
0.18140276 0.24196102 1.13170588 118 124 136
0.18274863 0.24115582 1.12793982 132 139 151
0.18378082 0.23995802 1.12233746 150 157 168
0.18633769 0.24075523 1.12606621 157 165 174
0.18828401 0.24075523 1.12606621 161 169 176
0.19023032 0.24075523 1.12606621 165 171 175
0.19122370 0.23956139 1.12048233 167 172 172
0.19348016 0.23995802 1.12233746 168 172 172
0.19606927 0.24075523 1.12606621 165 169 168
0.17225386 0.11660068 0.54536754 173 181 191
0.17305726 0.11650695 0.54492915 174 181 188
0.17668270 0.11641337 0.54449141 168 174 174
0.17748125 0.11631994 0.54405445 158 164 166
0.17842160 0.11631994 0.54405445 149 154 158
0.17907453 0.11613353 0.54318255 140 143 153
0.18203692 0.11622666 0.54361814 146 146 157
0.18297653 0.11622666 0.54361814 153 155 163
0.18662690 0.11557787 0.54058361 173 173 175
0.18711361 0.11530203 0.53929341 173 173 175
0.32622957 0.16488583 0.77120799 162 168 170
0.32793561 0.16507363 0.77208638 162 169 172
0.32798964 0.16376796 0.76597947 169 175 180
0.32857102 0.16339870 0.76425236 174 181 185
0.32914981 0.16303110 0.76253301 169 176 180
0.32935634 0.16248278 0.75996846 160 167 171
0.32846051 0.16139716 0.75489068 154 162 165
0.84104031 0.25206026 1.17894232 154 163 162
0.83725369 0.25031891 1.17079771 153 162 161
0.83927733 0.25031891 1.17079771 152 158 158
0.85011035 0.25294006 1.18305731 147 153 153
0.84919119 0.25206026 1.17894232 147 152 152
0.84681076 0.25075197 1.17282331 151 155 156
0.84737182 0.25031891 1.17079771 151 155 156
0.84647155 0.24945723 1.16676736 151 156 156
0.86691809 0.25427130 1.18928397 161 167 167
0.86745185 0.25382599 1.18720114 166 172 172
0.87256008 0.25471818 1.19137406 168 174 173
0.42463654 0.10880979 0.50892782 154 157 157
0.42424217 0.10848401 0.50740409 145 149 155
0.42480123 0.10840288 0.50702459 136 140 146
0.42631531 0.10856528 0.50778413 131 138 142
0.42790279 0.10807953 0.50551218 136 153 154
1.08040178 0.22026542 1.03023076 173 182 177
1.07564354 0.21893451 1.02400577 175 184 179
1.07578850 0.21860430 1.02246130 174 183 179
1.07755566 0.21860430 1.02246130 171 180 177
1.07769740 0.21827507 1.02092147 169 178 175
1.06979525 0.21632037 1.01177883 171 180 178
1.06203318 0.21440037 1.00279856 169 178 177
-0.35864592 0.16306511 0.75657570 122 127 134
-0.35496128 0.16198041 0.75154305 119 125 132
-0.35484248 0.16252095 0.75405097 117 128 131
-0.35393286 0.16270192 0.75489068 116 128 131
-0.35341519 0.16306511 0.75657570 114 126 131
-0.35171500 0.16288331 0.75573224 108 121 125
-0.35040876 0.16288331 0.75573224 99 113 117
-0.35027403 0.16342990 0.75826830 105 118 126
-0.35053179 0.16416441 0.76167625 113 126 134
-0.34882337 0.16398017 0.76082134 137 147 152
-0.34829015 0.16434908 0.76253301 150 159 163
-0.34854040 0.16509190 0.76597947 149 158 159
-0.34682459 0.16490556 0.76511496 144 153 154
-0.36660784 0.28704584 1.33181107 84 96 109
-0.36430591 0.28704584 1.33181107 76 89 100
-0.36129418 0.28648299 1.32919967 78 90 102
-0.36041015 0.28761089 1.33443272 83 94 106
-0.35881001 0.28817818 1.33706474 91 99 106
-0.35649899 0.28817818 1.33706474 105 112 118
-0.35279629 0.28704584 1.33181107 119 124 129
-0.35049435 0.28704584 1.33181107 136 142 145
-0.34682965 0.28592238 1.32659853 143 148 152
-0.34319350 0.28480765 1.32142663 142 151 153
-0.33892751 0.28315181 1.31374383 140 148 150
-0.09814639 0.10618193 0.49265397 121 129 138
-0.09729487 0.10618193 0.49265397 124 132 140
-0.09644336 0.10618193 0.49265397 132 140 146
-0.09580072 0.10641393 0.49373040 134 142 147
-0.09501655 0.10649149 0.49409026 137 146 149
-0.09423123 0.10656916 0.49445066 136 145 146
-0.09324060 0.10641393 0.49373040 134 143 144
-0.09231999 0.10633648 0.49337107 124 134 140
-0.09126796 0.10610481 0.49229619 97 108 117
0.01058401 0.19585298 0.90870219 182 186 188
0.01205765 0.19429033 0.90145195 184 185 187
0.02104240 0.19098866 0.88613313 140 141 145
0.02254454 0.19073933 0.88497627 128 128 137
0.02382532 0.18876787 0.87582928 132 132 143
0.09074301 0.17752895 0.82368392 168 173 180
0.09194324 0.17709857 0.82168710 171 176 181
0.09336346 0.17709857 0.82168710 171 180 184
0.09489872 0.17731351 0.82268429 174 183 187
0.09620390 0.17709857 0.82168710 173 181 186
0.09738803 0.17667028 0.81969994 172 180 186
0.09880482 0.17667028 0.81969994 172 180 186
0.10034294 0.17688417 0.82069230 172 180 186
0.10176144 0.17688417 0.82069230 172 180 186
0.10305517 0.17667028 0.81969994 170 171 175
0.10409435 0.17603172 0.81673717 168 169 174
0.10537905 0.17581989 0.81575429 156 156 163
0.10717593 0.17645691 0.81870997 145 145 154
0.10911814 0.17731351 0.82268429 148 150 160
0.11080904 0.17774493 0.82468593 150 154 166
0.18292971 0.24597025 1.14123201 120 125 133
0.18335882 0.24391708 1.13170588 131 137 144
0.18439138 0.24270155 1.12606621 142 146 154
0.18695882 0.24351054 1.12981975 151 155 160
0.19672284 0.24351054 1.12981975 140 141 143
0.17239255 0.11763795 0.54580665 180 186 189
0.17319648 0.11754330 0.54536754 185 191 192
0.17588286 0.11744881 0.54492915 178 184 184
0.17682472 0.11744881 0.54492915 173 179 179
0.17762381 0.11735448 0.54449141 168 174 174
0.17856492 0.11735448 0.54449141 159 165 166
0.17921813 0.11716626 0.54361814 147 153 159
0.18662690 0.11651222 0.54058361 166 166 170
0.18711361 0.11623415 0.53929341 166 166 170
0.32898754 0.16361290 0.75911742 171 174 179
0.32773063 0.16234036 0.75321317 159 162 167
0.84250557 0.25454065 1.18099630 152 161 160
0.84161437 0.25365683 1.17689562 150 159 158
0.84511578 0.25409797 1.17894232 151 159 158
0.85011035 0.25498486 1.18305731 152 159 159
0.85067058 0.25454065 1.18099630 152 158 158
0.84827834 0.25321722 1.17485583 152 158 158
0.84591085 0.25190747 1.16877902 153 159 159
0.84356767 0.25061119 1.16276479 156 162 162
0.86691809 0.25632688 1.18928397 161 167 167
0.87050086 0.25677738 1.19137406 161 167 167
0.42383185 0.10993704 0.51007664 171 172 170
0.42503327 0.11001983 0.51046073 167 168 166
0.42527509 0.10985439 0.50969309 162 163 162
0.42543763 0.10944294 0.50778413 148 149 155
0.42663488 0.10952498 0.50816482 139 141 147
0.42751318 0.10952498 0.50816482 132 139 143
1.08040178 0.22204609 1.03023076 171 180 173
1.07564354 0.22070442 1.02400577 172 181 174
1.07416832 0.22003965 1.02092147 171 180 173
1.07607687 0.21970877 1.01938617 169 178 171
1.06661129 0.21742013 1.00876760 169 178 174
1.05578601 0.21486224 0.99689978 168 177 176
-0.35904664 0.16455643 0.75742108 118 123 132
-0.35575008 0.16364223 0.75321317 117 123 131
-0.35523763 0.16400670 0.75489068 109 117 121
-0.35393286 0.16400670 0.75489068 112 120 122
-0.35341519 0.16437277 0.75657570 115 124 123
-0.35171500 0.16418953 0.75573224 111 122 123
-0.35001856 0.16400670 0.75489068 107 119 121
-0.34988266 0.16455643 0.75742108 113 124 125
-0.35013840 0.16529518 0.76082134 120 129 131
-0.34804213 0.16492498 0.75911742 141 150 150
-0.34789881 0.16548091 0.76167625 145 154 153
-0.34814700 0.16622800 0.76511496 144 153 152
-0.34643358 0.16604060 0.76425236 139 148 148
-0.36746591 0.28821528 1.32659853 82 96 108
-0.36517298 0.28821528 1.32659853 78 92 104
-0.36288008 0.28821528 1.32659853 78 89 101
-0.36058715 0.28821528 1.32659853 82 92 104
-0.35970208 0.28934777 1.33181107 90 97 109
-0.35810369 0.28991735 1.33443272 102 108 115
-0.35579723 0.28991735 1.33443272 111 117 123
-0.35210454 0.28878042 1.32919967 124 129 135
-0.34980711 0.28878042 1.32919967 132 139 145
-0.34547749 0.28709164 1.32142663 145 152 158
-0.34186071 0.28597671 1.31629479 140 148 152
-0.33827192 0.28487042 1.31120276 137 145 149
-0.33406714 0.28322694 1.30363810 134 142 146
-0.33181390 0.28322694 1.30363810 130 139 144
-0.09828925 0.10718924 0.49337107 103 110 124
-0.09743650 0.10718924 0.49337107 113 120 131
-0.09658375 0.10718924 0.49337107 125 133 141
-0.09587054 0.10734548 0.49409026 133 142 143
-0.09508585 0.10742378 0.49445066 141 150 151
-0.09430002 0.10750220 0.49481156 156 164 165
-0.09337661 0.10742378 0.49445066 160 168 166
-0.09245456 0.10734548 0.49409026 152 161 160
-0.09140071 0.10711128 0.49301225 141 150 150
-0.09035145 0.10687809 0.49193892 115 127 134
0.09063289 0.17873545 0.82268429 171 177 181
0.09194324 0.17851880 0.82168710 171 179 179
0.09336346 0.17851880 0.82168710 169 178 177
0.09501402 0.17895262 0.82368392 169 176 179
0.09620390 0.17851880 0.82168710 172 177 184
0.09738803 0.17808707 0.81969994 172 177 184
0.09868549 0.17787199 0.81870997 172 177 184
0.10010056 0.17787199 0.81870997 174 179 185
0.10163838 0.17808707 0.81969994 174 179 184
0.10293071 0.17787199 0.81870997 170 176 178
0.10384412 0.17701684 0.81477386 171 175 178
0.10487424 0.17638084 0.81184649 161 161 168
0.10704665 0.17765743 0.81772238 154 154 162
0.18292971 0.24794278 1.14123201 127 131 137
0.18335882 0.24587314 1.13170588 131 134 142
0.18439138 0.24464786 1.12606621 135 135 144
0.18664774 0.24505493 1.12793982 137 137 143
0.19738077 0.24628429 1.13359845 151 151 158
0.20000903 0.24711075 1.13740242 151 151 158
0.17668270 0.11829559 0.54449141 176 180 180
0.17762381 0.11829559 0.54449141 171 176 176
0.17856492 0.11829559 0.54449141 165 171 171
0.17936195 0.11820065 0.54405445 150 156 158
0.18001337 0.11801123 0.54318255 137 142 147
0.18080734 0.11791674 0.54274768 129 132 141
0.18160003 0.11782241 0.54231346 134 138 147
0.18268353 0.11791674 0.54274768 128 133 142
0.18362163 0.11791674 0.54274768 127 134 143
0.18441208 0.11782241 0.54231346 125 132 142
0.18598917 0.11763419 0.54144716 141 144 151
0.18647820 0.11735299 0.54015285 150 152 160
0.18711361 0.11716627 0.53929341 157 157 166
0.83725780 0.25747904 1.18512559 161 165 164
0.83930624 0.25747904 1.18512559 160 164 163
0.83696491 0.25613567 1.17894232 158 162 161
0.83320642 0.25436616 1.17079771 157 161 160
0.84250557 0.25658190 1.18099630 155 163 162
0.84015578 0.25524786 1.17485583 154 163 162
0.84658808 0.25658190 1.18099630 155 164 163
0.85159659 0.25747904 1.18512559 156 165 164
0.85364497 0.25747904 1.18512559 155 164 163
0.84975106 0.25569099 1.17689562 156 165 165
0.84591085 0.25392759 1.16877902 159 168 168
0.84356767 0.25262094 1.16276479 164 173 173
0.86844170 0.25883657 1.19137406 165 174 173
0.42479074 0.11106939 0.51123065 170 171 170
0.42727548 0.11056907 0.50892782 141 142 147
0.42783391 0.11048613 0.50854599 131 133 139
1.08040178 0.22382677 1.03023076 165 174 168
1.07564354 0.22247434 1.02400577 169 178 171
1.07255304 0.22147068 1.01938617 171 180 174
1.07431495 0.22147068 1.01938617 168 177 174
1.07607687 0.22147068 1.01938617 167 176 173
1.06344628 0.21851337 1.00577426 167 176 174
-0.36526901 0.16512758 0.75405097 96 98 102
-0.36238027 0.16679740 0.76167625 121 124 132
-0.35864592 0.16568045 0.75657570 126 131 138
-0.35535523 0.16476104 0.75237721 119 125 130
-0.35444820 0.16494410 0.75321317 111 120 120
-0.35314634 0.16494410 0.75321317 109 118 118
-0.35223585 0.16512758 0.75405097 110 119 118
-0.35054260 0.16494410 0.75321317 113 123 123
-0.34885311 0.16476104 0.75237721 115 126 126
-0.34793887 0.16494410 0.75321317 118 128 127
-0.34896341 0.16605110 0.75826830 122 131 130
-0.34765282 0.16605110 0.75826830 130 139 138
-0.34750834 0.16661020 0.76082134 136 145 145
-0.34775451 0.16736154 0.76425236 137 144 147
-0.37194243 0.29222381 1.33443272 89 103 114
-0.36963597 0.29222381 1.33443272 85 99 111
-0.36588901 0.29107782 1.32919967 84 97 111
-0.36359161 0.29107782 1.32919967 77 94 100
-0.36129418 0.29107782 1.32919967 84 98 104
-0.36041015 0.29222381 1.33443272 95 105 108
-0.35810369 0.29222381 1.33443272 100 108 112
-0.35579723 0.29222381 1.33443272 107 115 120
-0.35210454 0.29107782 1.32919967 120 127 134
-0.34912255 0.29050821 1.32659853 127 135 141
-0.34480536 0.28881264 1.31885576 133 141 147
-0.34119821 0.28769320 1.31374383 133 141 147
-0.33761889 0.28658241 1.30867147 134 142 147
-0.33406714 0.28548017 1.30363810 133 141 146
-0.09658375 0.10804199 0.49337107 121 125 139
-0.09580072 0.10812068 0.49373040 127 131 140
-0.09494735 0.10812068 0.49373040 141 144 148
-0.09416255 0.10819948 0.49409026 153 155 153
-0.09330856 0.10819948 0.49409026 162 166 163
-0.09238722 0.10812068 0.49373040 161 166 164
-0.09133428 0.10788495 0.49265397 154 160 160
-0.09015518 0.10749435 0.49087027 147 155 159
0.09194324 0.17993902 0.82168710 166 175 176
0.09325043 0.17972118 0.82069230 168 176 178
0.09501402 0.18037629 0.82368392 168 176 179
0.09620390 0.17993902 0.82168710 167 174 179
0.09738803 0.17950386 0.81969994 170 173 179
0.09856644 0.17907080 0.81772238 169 173 179
0.09997981 0.17907080 0.81772238 171 175 180
0.10151564 0.17928706 0.81870997 171 175 179
0.10255912 0.17863981 0.81575429 173 177 180
0.10334726 0.17757140 0.81087542 173 177 180
0.10437424 0.17693646 0.80797595 167 167 174
0.18095718 0.24991530 1.14123201 129 132 140
0.18262227 0.24949528 1.13931406 132 135 143
0.18335882 0.24782920 1.13170588 125 128 136
0.18469819 0.24700448 1.12793982 120 119 128
0.18695882 0.24741615 1.12981975 127 126 133
0.20204301 0.25160965 1.14896917 167 168 175
0.20299673 0.25033674 1.14315653 155 157 164
0.17748125 0.11914100 0.54405445 169 173 173
0.17842160 0.11914100 0.54405445 166 170 171
0.17907453 0.11895007 0.54318255 146 151 156
0.17972535 0.11875975 0.54231346 140 145 151
0.18051827 0.11866482 0.54187995 136 141 148
0.18145487 0.11866482 0.54187995 134 139 146
0.18253738 0.11875975 0.54231346 119 124 131
0.18347472 0.11875975 0.54231346 113 122 132
0.18441208 0.11875975 0.54231346 118 127 137
0.18534942 0.11875975 0.54231346 127 136 146
0.18584074 0.11847541 0.54101503 146 151 160
0.18647820 0.11828661 0.54015285 150 154 163
0.18696487 0.11800452 0.53886473 153 153 162
0.18759800 0.11781722 0.53800941 154 154 163
0.83490270 0.26135510 1.19347155 166 175 173
0.83402884 0.26043805 1.18928397 162 170 167
0.83755380 0.26089576 1.19137406 158 164 162
0.84109116 0.26135510 1.19347155 155 160 158
0.83725780 0.25952744 1.18512559 155 159 158
0.83930624 0.25952744 1.18512559 150 154 153
0.83842307 0.25862315 1.18099630 149 155 155
0.83609450 0.25727850 1.17485583 152 158 158
0.84250557 0.25862315 1.18099630 154 160 160
0.84161437 0.25772515 1.17689562 155 162 162
0.84658808 0.25862315 1.18099630 156 163 163
0.84862936 0.25862315 1.18099630 156 165 164
0.85215521 0.25907451 1.18305731 157 166 165
0.84827834 0.25727850 1.17485583 160 169 169
0.84445488 0.25550720 1.16676736 162 171 172
0.84212321 0.25419468 1.16077375 164 173 173
0.85937971 0.25817338 1.17894232 162 171 171
0.41992310 0.11136511 0.50854599 174 175 176
0.42111799 0.11144872 0.50892782 172 174 174
0.42263222 0.11161631 0.50969309 171 172 172
0.42479074 0.11195301 0.51123065 169 170 170
0.42599562 0.11203750 0.51161647 163 164 164
0.42695493 0.11136511 0.50854599 144 145 146
1.08040178 0.22560742 1.03023076 164 173 170
1.07564354 0.22424425 1.02400577 165 174 171
1.07255304 0.22323261 1.01938617 166 175 173
1.07431495 0.22323261 1.01938617 166 175 174
1.07446110 0.22289744 1.01785564 166 175 173
1.06029999 0.21960014 1.00279856 165 174 173
-0.37082893 0.16717471 0.75742108 90 94 97
-0.37034735 0.16754913 0.75911742 89 93 96
-0.36821064 0.16717471 0.75742108 91 95 98
-0.36526901 0.16643089 0.75405097 96 97 101
-0.36235344 0.16569366 0.75071079 103 104 108
-0.36583534 0.16849254 0.76339173 118 119 124
-0.36369675 0.16811390 0.76167625 125 129 133
-0.36156774 0.16773696 0.75996846 130 135 138
-0.35744911 0.16643089 0.75405097 138 144 145
-0.35456818 0.16569366 0.75071079 131 137 138
-0.35366228 0.16587736 0.75154305 124 133 132
-0.35197309 0.16569366 0.75071079 118 127 126
-0.35145396 0.16606146 0.75237721 117 126 125
-0.34937802 0.16569366 0.75071079 119 128 128
-0.34808046 0.16569366 0.75071079 120 129 130
-0.34716737 0.16587736 0.75154305 120 129 130
-0.34740901 0.16661623 0.75489068 122 131 131
-0.34649009 0.16680197 0.75573224 124 133 134
-0.34634221 0.16736171 0.75826830 126 135 136
-0.34736291 0.16849254 0.76339173 128 133 140
-0.34604344 0.16849254 0.76339173 132 137 144
-0.34433621 0.16830300 0.76253301 134 139 146
-0.36058715 0.29280111 1.32659853 92 107 114
-0.35899678 0.29337522 1.32919967 101 113 118
-0.35669935 0.29337522 1.32919967 106 117 122
-0.35440195 0.29337522 1.32919967 109 120 126
-0.35004544 0.29165959 1.32142663 117 126 136
-0.34708488 0.29109216 1.31885576 121 129 138
-0.34413582 0.29052693 1.31629479 126 134 143
-0.34053823 0.28940305 1.31120276 129 138 144
-0.33696836 0.28828782 1.30614996 124 133 139
-0.33342591 0.28718114 1.30113602 123 133 138
-0.33117703 0.28718114 1.30113602 121 131 136
-0.09423123 0.10913302 0.49445066 138 139 141
-0.09330856 0.10905348 0.49409026 151 153 154
-0.09245456 0.10905348 0.49409026 153 156 157
-0.09140071 0.10881554 0.49301225 150 154 156
-0.09015518 0.10834277 0.49087027 142 149 156
0.09183194 0.18113968 0.82069230 158 167 171
0.09325043 0.18113968 0.82069230 161 170 175
0.09512961 0.18202113 0.82468593 166 174 179
0.09620390 0.18135923 0.82168710 166 171 177
0.09750593 0.18113968 0.82069230 166 170 177
0.09856644 0.18048416 0.81772238 164 167 174
0.10400236 0.17769758 0.80509722 167 171 174
0.18262227 0.25146449 1.13931406 133 136 144
0.18335882 0.24978526 1.13170588 124 125 135
0.18727094 0.24978526 1.13170588 128 128 137
0.20307560 0.25489160 1.15484130 168 172 173
0.20402892 0.25359553 1.14896917 168 172 173
0.20671555 0.25445813 1.15287733 163 166 172
0.17733893 0.11998506 0.54361814 166 168 169
0.17827852 0.11998506 0.54361814 161 165 166
0.17878801 0.11969709 0.54231346 150 155 159
0.17943825 0.11950589 0.54144716 149 154 159
0.18037409 0.11950589 0.54144716 145 150 156
0.18130994 0.11950589 0.54144716 142 149 155
0.18239146 0.11960141 0.54187995 142 150 156
0.18332806 0.11960141 0.54187995 144 154 161
0.18426466 0.11960141 0.54187995 149 158 165
0.18520126 0.11960141 0.54187995 153 161 170
0.18569255 0.11931529 0.54058361 156 164 170
0.18632972 0.11912530 0.53972280 156 163 169
0.18681638 0.11884144 0.53843671 157 161 169
0.18685652 0.11827777 0.53588289 155 158 166
0.84050810 0.26388249 1.19557643 153 159 158
0.84109116 0.26341790 1.19347155 150 156 155
0.83725780 0.26157582 1.18512559 151 155 155
0.83784145 0.26111934 1.18305731 144 148 148
0.83551186 0.25975934 1.17689562 139 147 146
0.83464795 0.25886050 1.17282331 142 151 150
0.83958018 0.25975934 1.17689562 147 156 155
0.83870220 0.25886050 1.17282331 150 159 160
0.84364855 0.25975934 1.17689562 153 162 163
0.84130090 0.25841343 1.17079771 157 166 167
0.84332454 0.25841343 1.17079771 160 169 169
0.84243822 0.25752386 1.16676736 161 170 171
0.84155792 0.25664043 1.16276479 161 170 171
0.84068370 0.25576302 1.15878952 162 171 172
0.42023835 0.11232836 0.50892782 176 177 179
0.42206860 0.11258192 0.51007664 172 175 176
0.42326871 0.11266670 0.51046073 167 171 172
0.42479074 0.11283663 0.51123065 162 166 167
0.42599562 0.11292179 0.51161647 156 160 160
0.42591557 0.11266670 0.51046073 155 158 158
0.42551619 0.11232836 0.50892782 155 158 157
0.42607594 0.11224409 0.50854599 157 158 158
0.42695493 0.11224409 0.50854599 157 158 158
1.07402122 0.22567326 1.02246130 157 165 164
1.06773615 0.22398409 1.01480818 154 163 162
1.06645465 0.22298267 1.01027095 154 163 162
1.05717230 0.22068049 0.99984050 155 164 163
1.04961181 0.21874470 0.99106997 158 167 167
-0.37000209 0.16810820 0.75573224 88 89 93
-0.36910737 0.16829582 0.75657570 87 88 92
-0.36657232 0.16773421 0.75405097 89 90 94
-0.36445820 0.16736189 0.75237721 95 96 99
-0.36195260 0.16680647 0.74988037 102 103 105
-0.36025798 0.16662216 0.74905175 109 110 114
-0.36419484 0.16905051 0.75996846 123 124 128
-0.36288130 0.16905051 0.75996846 131 132 136
-0.36035579 0.16848385 0.75742108 138 139 142
-0.35665566 0.16736189 0.75237721 141 145 145
-0.35417596 0.16680647 0.74988037 135 140 139
-0.35327065 0.16699120 0.75071079 131 138 136
-0.35119525 0.16662216 0.74905175 131 137 135
-0.35028765 0.16680647 0.74988037 128 134 132
-0.34899151 0.16680647 0.74988037 121 129 128
-0.34731123 0.16662216 0.74905175 119 128 128
-0.34601656 0.16662216 0.74905175 119 127 129
-0.34586841 0.16717634 0.75154305 116 123 127
-0.34571925 0.16773421 0.75405097 106 114 119
-0.34518388 0.16810820 0.75573224 109 117 123
-0.34619331 0.16924024 0.76082134 120 125 132
-0.34487832 0.16924024 0.76082134 123 130 136
-0.34394932 0.16943039 0.76167625 129 135 142
-0.34340453 0.16981199 0.76339173 134 140 145
-0.34208506 0.16981199 0.76339173 136 141 142
-0.35829425 0.29509404 1.32659853 118 130 135
