ply
format ascii 1.0
element vertex 1082
property float x
property float y
property float z
property uchar red
property uchar green
property uchar blue
end_header
-0.69537688 -0.19350488 0.76521063 46 70 96
-0.68292212 -0.16711625 0.75654423 40 67 88
-0.69230151 -0.17126713 0.76619539 35 49 71
-0.68021360 -0.14214544 0.75935966 51 90 127
-0.69441719 -0.14473817 0.77461625 42 66 95
-0.69192376 -0.13086758 0.77391702 27 37 51
-0.69996338 -0.13816899 0.78140742 15 21 32
-0.68962977 -0.11091961 0.77511030 21 29 39
-0.68309615 -0.08190556 0.77301854 24 32 40
-0.69505921 -0.08667096 0.78578514 22 26 33
-0.69309542 -0.07106189 0.78664783 40 42 60
-0.68968603 -0.04388850 0.78637366 61 84 104
-0.69479208 -0.03496101 0.79307733 55 71 85
-0.68281465 -0.00547685 0.78303874 87 94 104
-0.68973554 0.00507536 0.79241659 111 112 115
-0.69810915 0.00235079 0.80097449 70 74 74
-0.68607024 0.03373659 0.79029614 61 80 85
-0.69767091 0.03569610 0.80365914 65 73 81
-0.68544707 0.05259508 0.79134966 64 76 96
-0.69464274 0.05847856 0.80176726 56 62 78
-0.68406996 0.07285928 0.79385711 54 72 98
-0.69526685 0.07155804 0.80355477 51 69 90
-0.68455460 0.08385905 0.79837123 54 69 98
-0.68764374 0.09370777 0.80381446 51 68 91
-0.68994646 0.11027714 0.81270774 50 64 89
-0.68822701 0.12245839 0.81897042 49 59 83
-0.69032343 0.13228445 0.82390097 47 55 76
-0.68987393 0.15000802 0.83210196 41 47 63
-0.68995770 0.16378922 0.83821451 38 41 52
-0.69029860 0.17390281 0.84254868 35 37 46
-0.69003428 0.18960476 0.84909478 33 33 42
-0.68975073 0.20806191 0.85656481 31 31 38
-0.69037281 0.21851531 0.86079074 30 29 37
-0.69005301 0.23038458 0.86546809 29 28 36
-0.69004556 0.24993671 0.87310404 28 27 35
-0.68970591 0.26354112 0.87840108 27 26 35
-0.69025646 0.27384673 0.88236640 26 25 33
-0.69013908 0.28974079 0.88840172 26 25 33
-0.68996036 0.30995551 0.89583671 26 25 33
-0.68173100 0.32152615 0.89997596 26 25 34
-0.69003311 0.33071316 0.90345259 26 25 33
-0.69005678 0.35048637 0.91058316 26 25 33
-0.68996199 0.36890476 0.91723354 26 26 33
-0.69009778 0.37816863 0.92047259 26 26 33
-0.68997245 0.38930366 0.92435607 27 27 35
-0.68999385 0.40995088 0.93125959 29 28 37
-0.69003229 0.42801384 0.93727045 29 29 37
-0.69009569 0.43765821 0.94054939 29 28 37
-0.68999107 0.45018335 0.94460381 28 28 37
-0.68994640 0.47050419 0.95108877 28 27 36
-0.69004282 0.48983190 0.95689238 29 28 37
-0.68320396 0.50058445 0.95996594 29 28 37
-0.69013987 0.50981449 0.96257194 29 29 37
-0.69011956 0.52996537 0.96784818 13 13 17
-0.69006483 0.54716438 0.97196605 0 0 0
-0.67006332 -0.56601672 0.84647266 0 0 0
-0.67005276 -0.54988180 0.84454747 0 0 0
-0.66970968 -0.53019816 0.84244683 0 0 0
-0.66845628 -0.50522608 0.83900992 0 0 0
-0.67177287 -0.51468942 0.84082743 0 0 0
-0.66812282 -0.49698340 0.83668289 2 3 3
-0.66479897 -0.46309840 0.77818835 80 149 170
-0.67734726 -0.47279611 0.79448432 74 138 157
-0.67049669 -0.47928671 0.80773711 76 131 146
-0.67474200 -0.44441534 0.74463069 102 168 194
-0.67843021 -0.42076081 0.70499684 100 150 181
-0.66396715 -0.43607340 0.73065352 104 168 193
-0.66634140 -0.40758773 0.69856445 99 154 180
-0.67375548 -0.41369558 0.70158152 101 152 181
-0.66640417 -0.39054795 0.69645416 94 147 175
-0.67668572 -0.39102416 0.70192277 90 146 175
-0.66449456 -0.37069286 0.69534327 88 136 165
-0.67499437 -0.36794636 0.70364049 93 131 161
-0.66258061 -0.35088456 0.69510780 84 128 159
-0.67173039 -0.34786982 0.70346712 75 119 154
-0.66134965 -0.33225015 0.69590814 78 120 152
-0.67315353 -0.32625415 0.71007579 73 118 153
-0.66922182 -0.30924664 0.70923573 75 116 151
-0.67952949 -0.30570653 0.72103214 65 107 134
-0.66743781 -0.28934121 0.71146560 67 106 144
-0.66472938 -0.27248719 0.71186557 73 103 147
-0.67609678 -0.27944581 0.72402906 71 106 142
-0.66393990 -0.25469754 0.71542267 68 106 137
-0.67395617 -0.25146394 0.72712331 62 90 128
-0.66234134 -0.23388195 0.71860921 69 100 129
-0.67126944 -0.22780318 0.72966594 55 94 123
-0.66472249 -0.20929156 0.72664177 51 97 136
-0.66755683 -0.19106241 0.73390486 64 86 122
-0.67501957 -0.19022250 0.74210596 39 63 87
-0.66600247 -0.17179688 0.73638874 62 85 119
-0.67831776 -0.16631004 0.75192384 56 91 125
-0.66038820 -0.15016538 0.73439342 56 84 120
-0.67128276 -0.14273874 0.74866316 46 80 107
-0.67821394 -0.13151226 0.75859106 49 70 97
-0.66674010 -0.11295445 0.74865209 38 56 78
-0.67722747 -0.10838296 0.76190656 32 45 68
-0.66818830 -0.08979633 0.75503874 39 43 55
-0.67771027 -0.08390861 0.76692367 37 47 58
-0.66864451 -0.06341902 0.75963610 37 44 48
-0.67103680 -0.07667203 0.76085991 46 49 77
-0.66397615 -0.05068658 0.75581661 43 48 81
-0.67381866 -0.04622327 0.76853260 106 133 155
-0.66628112 -0.03198338 0.76143664 115 133 156
-0.66004875 -0.01737705 0.75580710 93 97 112
-0.67342527 -0.00973301 0.77265347 94 118 129
-0.67991967 -0.00445221 0.78010482 95 102 117
-0.67179605 0.00427381 0.77231577 106 113 117
-0.66773566 0.03356540 0.77009931 80 100 107
-0.66506017 0.05193565 0.77390671 71 84 105
-0.67495343 0.05443710 0.78189920 65 81 102
-0.66175354 0.06021045 0.77935340 58 78 107
-0.66953324 0.07033286 0.78796307 56 74 100
-0.66962673 0.08521215 0.79700701 55 72 96
-0.67026306 0.09550022 0.80308369 55 69 92
-0.67000039 0.11038525 0.81137154 52 63 88
-0.66921237 0.12367088 0.81832613 46 58 76
-0.67042555 0.13352506 0.82321479 45 51 67
-0.66998127 0.15038639 0.83094453 39 45 53
-0.66953579 0.16579957 0.83773686 37 38 47
-0.67050767 0.17530880 0.84184212 36 36 45
-0.67002517 0.19010211 0.84798298 33 33 41
-0.66971669 0.21007601 0.85611119 31 30 38
-0.67546993 0.21962147 0.86030221 30 29 38
-0.66998097 0.23041342 0.86435141 30 29 36
-0.66981026 0.24999327 0.87219273 27 26 34
-0.67037182 0.26459559 0.87806506 27 26 33
-0.66992090 0.27472072 0.88203718 26 25 32
-0.67002000 0.28957838 0.88783483 26 25 32
-0.66995336 0.30983486 0.89548511 25 24 32
-0.66999533 0.32149291 0.89988293 25 24 33
-0.66994193 0.33144520 0.90360116 25 25 32
-0.67002124 0.35047283 0.91057510 26 25 33
-0.67026263 0.36866278 0.91724982 28 27 35
-0.66844683 0.37772880 0.92047726 27 27 36
-0.67002156 0.38946739 0.92460762 28 28 35
-0.67000697 0.41006363 0.93154218 30 29 37
-0.66997927 0.42812243 0.93754349 29 28 35
-0.66997127 0.43770028 0.94077958 30 29 37
-0.67001144 0.45017187 0.94475725 29 29 38
-0.67007430 0.47045215 0.95109384 28 28 37
-0.67002157 0.48983616 0.95678116 27 27 35
-0.66979320 0.50048163 0.95976877 28 28 36
-0.67009019 0.51110550 0.96258034 29 28 36
-0.66992836 0.53041313 0.96739942 4 4 5
-0.67012059 0.54677534 0.97123840 0 0 0
-0.64998054 -0.56600900 0.84551901 0 0 0
-0.65000807 -0.55014516 0.84358611 0 0 0
-0.64377539 -0.52109078 0.83986176 0 0 0
-0.65032840 -0.53035694 0.84133755 0 0 0
-0.64941389 -0.50958948 0.83846067 0 0 0
-0.65760606 -0.51808718 0.84022211 0 0 0
-0.65609578 -0.48218646 0.81499803 49 77 87
-0.64863865 -0.49531068 0.83509836 5 9 10
-0.64838053 -0.46820843 0.79022685 81 126 141
-0.65004324 -0.47620273 0.80488425 65 99 112
-0.64777701 -0.44942236 0.75520718 97 177 201
-0.65565088 -0.45580366 0.76593029 90 166 188
-0.64973787 -0.42471082 0.71161520 103 168 190
-0.65023571 -0.40869635 0.69724270 101 158 185
-0.64734675 -0.41800133 0.70037326 101 163 188
-0.65022190 -0.39004322 0.69479055 94 152 179
-0.65026712 -0.37004926 0.69443897 89 139 168
-0.65057372 -0.35002194 0.69461042 83 131 160
-0.64977728 -0.33038155 0.69444522 79 123 155
-0.64848449 -0.31027165 0.69432096 75 118 150
-0.64685557 -0.29059005 0.69440405 72 113 149
-0.65933396 -0.29716597 0.70088857 70 115 143
-0.64466874 -0.27115452 0.69441170 72 109 145
-0.65853373 -0.27671524 0.70435299 68 106 145
-0.64315371 -0.25194314 0.69463316 70 104 142
-0.65278904 -0.25269113 0.70297253 65 106 143
-0.64211683 -0.23481201 0.69536250 66 102 139
-0.64897486 -0.23060240 0.70331734 66 96 139
-0.64070028 -0.21603421 0.69709060 66 98 135
-0.65074722 -0.21185049 0.71002596 55 101 136
-0.64688429 -0.18948507 0.71073971 60 99 137
-0.64493946 -0.16590970 0.71344519 67 96 120
-0.65308452 -0.14594945 0.72720602 56 87 123
-0.65046788 -0.13290943 0.72685546 51 86 120
-0.65448671 -0.11373186 0.73489568 53 74 104
-0.64312416 -0.08887960 0.72636710 37 45 56
-0.64705457 -0.06897352 0.73438177 40 49 60
-0.64453025 -0.05453822 0.73416040 52 63 90
-0.65473026 -0.05321422 0.74553674 49 54 86
-0.64234570 -0.02199422 0.73553574 118 143 155
-0.64770558 -0.03237109 0.74020821 112 145 168
-0.64327813 -0.00720449 0.73855058 134 145 151
-0.65176752 -0.01631490 0.74731173 100 119 135
-0.64091361 0.00497896 0.73886819 107 111 116
-0.64403370 0.01383549 0.74520013 103 118 122
-0.64725809 0.02869350 0.75472217 91 109 114
-0.65069667 0.03790832 0.76102441 81 102 105
-0.64985214 0.04941061 0.76910192 76 90 109
-0.64832693 0.06115751 0.77853858 66 81 105
-0.65031138 0.07107764 0.78624111 59 75 102
-0.64978630 0.08599598 0.79606675 56 72 96
-0.65058287 0.09637324 0.80233022 56 67 91
-0.64997607 0.11014694 0.80991961 53 61 80
-0.64956137 0.12493066 0.81758594 47 52 66
-0.65050935 0.13483480 0.82245621 42 48 56
-0.65002347 0.15005097 0.82941409 40 43 50
-0.64955926 0.16725022 0.83701751 38 38 46
-0.65082307 0.17661735 0.84109665 37 36 43
-0.65000313 0.18981303 0.84665350 33 33 40
-0.64998652 0.21018988 0.85514553 31 30 38
-0.64785806 0.22114058 0.85960115 30 29 36
-0.65010991 0.23100879 0.86376087 29 28 35
-0.65003371 0.25042715 0.87172840 27 26 33
-0.64997537 0.26590326 0.87809133 26 25 32
-0.64977711 0.27545215 0.88194167 26 25 32
-0.64986826 0.28948882 0.88755917 26 25 32
-0.64998339 0.30988978 0.89545455 25 24 32
-0.65213747 0.32150735 0.89992334 23 23 33
-0.64984914 0.33125303 0.90364665 25 24 32
-0.64996010 0.35065030 0.91086240 26 24 32
-0.65012666 0.36822351 0.91740282 27 26 33
-0.64968592 0.37746551 0.92069719 27 26 33
-0.65004274 0.38966707 0.92502694 28 27 35
-0.64998519 0.41030419 0.93193048 29 29 36
-0.65019024 0.42759235 0.93759007 29 28 35
-0.64934291 0.43704885 0.94073841 28 27 36
-0.64995424 0.45021077 0.94484010 29 29 38
-0.65008635 0.47036677 0.95094922 28 27 35
-0.65003244 0.48959180 0.95642666 28 27 36
-0.64896351 0.50125477 0.95952822 27 26 34
-0.65029981 0.51160955 0.96214603 25 25 33
-0.64993574 0.52979193 0.96647675 0 0 0
-0.65004881 0.54613785 0.97025451 0 0 0
-0.62989911 -0.56530655 0.84460881 0 0 0
-0.63011609 -0.54953370 0.84271349 0 0 0
-0.62834062 -0.52402884 0.83951520 0 0 0
-0.63077215 -0.53309898 0.84081972 0 0 0
-0.62986367 -0.50999855 0.83759547 0 0 0
-0.63902589 -0.48118121 0.81568187 20 33 38
-0.62937830 -0.49377863 0.83420518 1 2 2
-0.63520617 -0.46682240 0.79076537 108 163 189
-0.63582116 -0.47466800 0.80490605 75 117 132
-0.63271768 -0.44491926 0.74983329 111 171 195
-0.62739678 -0.45293598 0.76556246 110 170 194
-0.62729123 -0.43303160 0.72766423 117 173 199
-0.63002303 -0.40763636 0.69600634 109 164 191
-0.63017102 -0.38967124 0.69431704 99 156 182
-0.63031336 -0.36996229 0.69427592 92 145 173
-0.63031336 -0.35016229 0.69427592 83 136 164
-0.63031336 -0.33036229 0.69427592 80 129 159
-0.63031336 -0.30996230 0.69427592 78 123 155
-0.63031336 -0.29016230 0.69427592 75 118 151
-0.63031336 -0.27036231 0.69427592 73 112 147
-0.63031336 -0.24996231 0.69427592 69 107 144
-0.63002291 -0.23026858 0.69428135 66 102 140
-0.62847729 -0.21084912 0.69432613 67 101 138
-0.62661834 -0.19057939 0.69436181 65 99 136
-0.63906538 -0.18780465 0.70191270 63 95 131
-0.62473204 -0.17099481 0.69446409 66 96 132
-0.63729860 -0.16795287 0.70465357 65 94 134
-0.62295819 -0.15162673 0.69449790 63 92 131
-0.63333953 -0.14419382 0.70522000 63 91 131
-0.62190650 -0.13263190 0.69540878 59 92 129
-0.63074425 -0.12874819 0.70503835 59 90 126
-0.62194688 -0.11426597 0.69808441 65 89 127
-0.63020644 -0.11281528 0.70729173 60 83 117
-0.62729969 -0.09146269 0.70829873 45 52 66
-0.63836109 -0.08947631 0.72098437 40 50 76
-0.62525944 -0.06645579 0.71011240 44 51 71
-0.62477451 -0.05116759 0.71224131 59 66 106
-0.63758186 -0.05933736 0.72577149 44 54 71
-0.62284240 -0.02947466 0.71592352 118 143 167
-0.62766774 -0.02315721 0.72273568 128 151 166
-0.62764592 -0.00869774 0.72961471 117 132 143
-0.63013219 0.00342652 0.73774772 120 131 137
-0.63007411 0.01308948 0.74407104 100 115 127
-0.62991229 0.02880521 0.75404479 93 108 115
-0.63047103 0.03895011 0.76040768 85 100 110
-0.62993015 0.04994929 0.76791325 91 104 116
-0.62915986 0.06305418 0.77777656 75 89 107
-0.63040585 0.07247225 0.78563622 62 77 100
-0.62966483 0.08717697 0.79548545 53 67 89
-0.63098673 0.09739945 0.80159931 54 63 81
-0.62997983 0.10993683 0.80837203 51 57 70
-0.62955377 0.12623083 0.81681387 46 48 57
-0.63068319 0.13617324 0.82172860 44 45 52
-0.63002627 0.14986611 0.82802177 42 42 46
-0.62969174 0.16835026 0.83629102 39 38 43
-0.63089249 0.17863736 0.84083505 37 36 43
-0.63002997 0.19034848 0.84587360 34 33 40
-0.62997399 0.21004932 0.85426782 31 30 38
-0.62938077 0.22173332 0.85922363 31 30 36
-0.63007313 0.23167863 0.86344472 29 28 34
-0.63002507 0.25037594 0.87134936 27 27 32
-0.62997143 0.26580789 0.87787116 25 24 32
-0.62988589 0.27541987 0.88183812 26 25 32
-0.62994669 0.28949918 0.88759011 26 25 33
-0.62999083 0.30989568 0.89561454 24 24 32
-0.63001594 0.33067595 0.90369329 24 24 32
-0.63017003 0.35023115 0.91104457 25 24 31
-0.62996029 0.36709188 0.91734746 25 24 32
-0.62915483 0.37687295 0.92085912 25 24 33
-0.63003707 0.38978072 0.92540561 26 25 33
-0.62992742 0.41036563 0.93222930 27 26 33
-0.62986701 0.42735930 0.93771359 27 26 33
-0.63001143 0.43699385 0.94084605 28 27 35
-0.62999091 0.45025676 0.94486155 27 27 34
-0.63004877 0.47031791 0.95074144 26 25 34
-0.62982166 0.49007968 0.95614645 27 26 34
-0.62923495 0.50310670 0.95937733 27 26 34
-0.63050909 0.51273479 0.96160842 13 13 17
-0.62975963 0.53010425 0.96558552 0 0 0
-0.63038820 0.54643511 0.96943141 0 0 0
-0.61029502 -0.56520210 0.84394231 0 0 0
-0.60986543 -0.55022468 0.84211181 0 0 0
-0.60934215 -0.52610832 0.83912693 0 0 0
-0.61087158 -0.53642005 0.84057115 0 0 0
-0.61012879 -0.50975101 0.83712329 0 0 0
-0.60956265 -0.49296303 0.83405468 0 0 0
-0.61376531 -0.46182498 0.78517038 107 177 205
-0.60678193 -0.47452758 0.81034747 51 77 86
-0.61471544 -0.44353085 0.75076559 113 175 199
-0.61750238 -0.45201007 0.76623195 112 173 197
-0.61022161 -0.42272870 0.71200659 106 175 198
-0.61198396 -0.43115797 0.72681992 104 175 199
-0.60134552 -0.43830322 0.74299657 116 175 199
-0.61044608 -0.40765098 0.69573133 111 171 195
-0.60655647 -0.41759519 0.70325781 115 175 198
-0.60977500 -0.39015976 0.69427768 102 163 187
-0.60991337 -0.36996229 0.69427592 95 151 178
-0.60991337 -0.35016229 0.69427592 88 141 168
-0.60991337 -0.33036229 0.69427592 83 135 164
-0.60991337 -0.30996230 0.69427592 81 127 159
-0.60991337 -0.29016230 0.69427592 78 121 154
-0.60991337 -0.27036231 0.69427592 73 116 151
-0.60991337 -0.24996231 0.69427592 71 111 145
-0.60991337 -0.23016232 0.69427592 71 106 142
-0.60991337 -0.21036232 0.69427592 68 104 139
-0.60991337 -0.18996232 0.69427592 67 101 136
-0.60991337 -0.17016233 0.69427592 68 97 133
-0.60991337 -0.15036233 0.69427592 65 93 132
-0.60987694 -0.13003114 0.69431056 63 92 128
-0.60923814 -0.10977555 0.69518793 63 89 124
-0.60861219 -0.08974783 0.69748360 46 54 75
-0.61871885 -0.08386795 0.70016664 44 54 64
-0.60785204 -0.07564947 0.69942720 45 55 74
-0.60924602 -0.06639636 0.70084824 46 52 73
-0.60877932 -0.04992856 0.70392380 62 75 104
-0.60997630 -0.03110015 0.71400184 116 142 165
-0.60988534 -0.02094401 0.72120436 122 143 161
-0.61002657 -0.00985345 0.72865904 121 136 147
-0.60966185 0.00368602 0.73759896 111 124 133
-0.61028529 0.01329579 0.74393544 103 119 127
-0.60989947 0.02902506 0.75391739 98 113 121
-0.60996005 0.03901815 0.76013362 96 108 118
-0.60993987 0.04987203 0.76713481 109 119 125
-0.60937391 0.06438671 0.77686511 93 103 111
-0.61042433 0.07385544 0.78460945 70 82 98
-0.60967799 0.08840358 0.79478153 56 64 80
-0.61184957 0.09850637 0.80090344 54 58 72
-0.60999950 0.10978635 0.80685558 51 54 63
-0.60967682 0.12756555 0.81603071 47 48 54
-0.61113480 0.13737468 0.82093719 45 45 49
-0.60998570 0.14961820 0.82660363 44 43 46
-0.60976167 0.16957688 0.83572850 39 38 44
-0.61335978 0.17967852 0.84039668 36 36 40
-0.60994822 0.19016862 0.84490786 34 34 39
-0.60995741 0.20979440 0.85351444 32 31 36
-0.60987059 0.22226229 0.85901158 30 29 34
-0.61001353 0.23236482 0.86342087 28 28 33
-0.61000104 0.25026135 0.87121390 27 26 32
-0.60989908 0.26581232 0.87791561 26 25 33
-0.60986011 0.27543540 0.88196049 26 25 32
-0.61001622 0.28951160 0.88778993 25 24 33
-0.61006746 0.30991474 0.89590212 25 24 32
-0.60165613 0.31998936 0.90002868 25 25 29
-0.61005467 0.33079845 0.90408783 24 23 31
-0.60999343 0.35000654 0.91132765 24 23 31
-0.61006397 0.36653642 0.91748242 24 23 31
-0.60974110 0.37672558 0.92113148 25 24 32
-0.60997869 0.38988450 0.92573371 25 24 32
-0.60995131 0.41050602 0.93249541 25 24 31
-0.60993497 0.42747028 0.93787667 25 24 32
-0.60973283 0.43692106 0.94087612 26 25 32
-0.61003723 0.45018467 0.94476220 26 25 32
-0.60994820 0.47007087 0.95037961 26 25 33
-0.60997647 0.49013120 0.95561985 26 26 34
-0.60901018 0.50512855 0.95902777 18 18 24
-0.61048792 0.51441149 0.96109640 1 1 1
-0.61013865 0.52984645 0.96470275 0 0 0
-0.61004303 0.54599373 0.96848592 0 0 0
-0.59008639 -0.56527698 0.84329714 0 0 0
-0.59000227 -0.55015390 0.84149703 0 0 0
-0.58957956 -0.52825000 0.83885179 0 0 0
-0.59207677 -0.53823720 0.84027451 0 0 0
-0.59007194 -0.51028723 0.83673218 0 0 0
-0.58955020 -0.49182935 0.83313962 0 0 0
-0.59766493 -0.46165895 0.78720134 74 110 123
-0.59505628 -0.47481187 0.81423167 65 98 114
-0.58904988 -0.47890989 0.82267967 20 30 35
-0.58999059 -0.44295638 0.75309098 109 176 203
-0.58389278 -0.45372861 0.77564045 102 162 183
-0.58370189 -0.45841676 0.78398347 68 111 127
-0.59752799 -0.42411662 0.71684760 115 177 200
-0.59050821 -0.42948702 0.72805166 115 178 203
-0.58992092 -0.40625345 0.69491035 109 173 196
-0.58847495 -0.41682658 0.70452589 114 176 200
-0.59011337 -0.39036228 0.69427592 106 165 190
-0.59011337 -0.36996229 0.69427592 101 155 182
-0.59011337 -0.35016229 0.69427592 92 146 174
-0.59011337 -0.33036229 0.69427592 84 139 168
-0.59011337 -0.30996230 0.69427592 83 132 163
-0.59011337 -0.29016230 0.69427592 82 126 158
-0.59011337 -0.27036231 0.69427592 77 120 152
-0.59011337 -0.24996231 0.69427592 74 115 147
-0.59011337 -0.23016232 0.69427592 73 111 145
-0.59011337 -0.21036232 0.69427592 70 105 142
-0.59011337 -0.18996232 0.69427592 68 102 138
-0.59011337 -0.17016233 0.69427592 68 99 135
-0.59011337 -0.15036233 0.69427592 68 96 134
-0.58992472 -0.12982644 0.69431322 65 94 130
-0.58995086 -0.10976019 0.69528852 64 91 127
-0.58999078 -0.08966454 0.69762811 47 57 77
-0.58920244 -0.07299391 0.69929416 48 55 74
-0.59129671 -0.06365362 0.70040410 47 55 76
-0.58996416 -0.05017177 0.70301739 60 76 102
-0.58999018 -0.03127598 0.71357546 118 145 167
-0.59000867 -0.02095509 0.72089334 111 133 157
-0.58994883 -0.00982834 0.72837608 120 137 149
-0.58973206 0.00389754 0.73770063 103 121 130
-0.59015174 0.01358882 0.74400189 104 118 128
-0.58975459 0.02934004 0.75393888 105 117 124
-0.59676028 0.03901412 0.76005518 89 101 107
-0.58986118 0.04991735 0.76677081 126 133 134
-0.58988062 0.06542255 0.77655380 114 119 123
-0.59011100 0.07551527 0.78359229 87 96 103
-0.58982048 0.09012499 0.79404830 65 67 78
-0.59783276 0.09916092 0.80017366 57 58 67
-0.58301751 0.10049335 0.79977100 57 57 66
-0.59015619 0.10978566 0.80536545 53 54 59
-0.58996032 0.12897150 0.81528110 49 48 51
-0.58947707 0.13929500 0.82037724 47 46 49
-0.59017975 0.14973219 0.82544217 45 44 46
-0.58998368 0.16987537 0.83492094 41 40 43
-0.58466682 0.18101734 0.83986897 39 38 41
-0.59011050 0.19029558 0.84432190 35 33 39
-0.59000509 0.20968466 0.85310362 32 31 36
-0.58994208 0.22217095 0.85880177 30 29 36
-0.59007260 0.23230615 0.86334048 29 29 34
-0.58988983 0.25027942 0.87133887 28 27 33
-0.59033258 0.26549057 0.87798248 26 25 33
-0.58941921 0.27497658 0.88202077 27 26 33
-0.59000880 0.28976571 0.88817901 25 24 31
-0.58999831 0.30926651 0.89596884 24 23 30
-0.59009577 0.32922030 0.90380547 24 23 30
-0.59002332 0.34930203 0.91136373 24 23 30
-0.58989538 0.36589884 0.91753003 24 23 31
-0.59009323 0.37607310 0.92114343 25 24 29
-0.58997860 0.39008942 0.92600182 24 24 31
-0.58995561 0.41055752 0.93261277 25 24 31
-0.59002612 0.42747701 0.93789145 25 24 31
-0.58991359 0.43695081 0.94084559 25 24 32
-0.59011359 0.45007455 0.94458349 25 24 31
-0.58991247 0.46994902 0.95001058 25 24 33
-0.58997621 0.48970715 0.95494222 25 24 32
-0.58956188 0.50649638 0.95858878 4 4 5
-0.59088037 0.51669233 0.96090139 0 0 0
-0.59004719 0.53016906 0.96403306 0 0 0
-0.58991855 0.54549839 0.96752280 0 0 0
-0.57001595 -0.56465054 0.84251141 0 0 0
-0.56502965 -0.54138000 0.83980948 0 0 0
-0.57058721 -0.55079387 0.84093748 0 0 0
-0.57016852 -0.52979953 0.83849551 0 0 0
-0.57967758 -0.53908419 0.84000194 0 0 0
-0.56978835 -0.51033291 0.83614195 0 0 0
-0.56971675 -0.49046054 0.83228602 0 0 0
-0.56672457 -0.46007342 0.79149592 69 100 110
-0.57194908 -0.47045001 0.81055543 36 57 65
-0.57282351 -0.47866528 0.82593671 2 3 4
-0.57353516 -0.44186361 0.75455806 109 162 182
-0.57833707 -0.45550288 0.78130966 119 175 201
-0.56881119 -0.42942398 0.73224322 111 176 202
-0.57210978 -0.43547969 0.74256158 108 175 203
-0.57039264 -0.40557365 0.69489630 115 173 198
-0.56617362 -0.41370180 0.70252488 117 175 201
-0.57031341 -0.39036231 0.69427596 109 168 192
-0.57031338 -0.36996229 0.69427592 103 158 184
-0.57031338 -0.35016229 0.69427592 98 151 178
-0.57031338 -0.33036229 0.69427592 88 142 171
-0.57031338 -0.30996230 0.69427592 87 135 165
-0.57031338 -0.29016230 0.69427592 84 129 160
-0.57031338 -0.27036231 0.69427592 79 123 155
-0.57031338 -0.24996231 0.69427592 75 118 151
-0.57031338 -0.23016232 0.69427592 74 115 146
-0.57031338 -0.21036232 0.69427592 74 109 144
-0.57031338 -0.18996232 0.69427592 71 104 140
-0.57031338 -0.17016233 0.69427592 69 102 139
-0.57031338 -0.15036233 0.69427592 67 101 135
-0.57021352 -0.13012470 0.69440224 67 97 132
-0.56994227 -0.10978727 0.69545718 66 92 130
-0.56994476 -0.08956404 0.69754078 49 58 83
-0.56963566 -0.07131120 0.69913457 48 57 78
-0.57116260 -0.06194280 0.70023282 49 57 78
-0.56999344 -0.05013568 0.70263332 61 77 103
-0.56992138 -0.03109027 0.71342507 117 143 166
-0.57074434 -0.02088575 0.72062713 115 136 157
-0.57000123 -0.00977518 0.72815689 120 138 147
-0.56983499 0.00410161 0.73754797 105 120 131
-0.56982302 0.01376218 0.74376220 114 126 131
-0.57000354 0.02959806 0.75375881 112 122 127
-0.56994034 0.04995063 0.76645110 130 136 137
-0.56993452 0.06614635 0.77640529 122 129 130
-0.57016713 0.07612213 0.78262018 94 102 106
-0.56981938 0.08985938 0.79180253 77 80 88
-0.56829042 0.10130198 0.79900132 62 63 66
-0.57039198 0.11165923 0.80491389 56 55 59
-0.56994967 0.13046804 0.81478171 50 49 52
-0.57864651 0.13988903 0.82002318 48 48 50
-0.56156505 0.14128791 0.81991599 48 47 49
-0.57014729 0.15009096 0.82467227 45 45 47
-0.57001443 0.16971265 0.83419946 42 40 43
-0.56991352 0.18094201 0.83951945 39 37 40
-0.56994328 0.19077627 0.84419401 38 34 39
-0.57004065 0.20967437 0.85302107 33 32 36
-0.56995819 0.22227545 0.85892228 31 30 36
-0.57005047 0.23244024 0.86356419 30 29 33
-0.56986519 0.25040222 0.87163716 28 27 33
-0.56999383 0.26511925 0.87808733 26 25 32
-0.57002676 0.27477521 0.88218035 26 25 32
-0.56996079 0.28968951 0.88839982 25 24 30
-0.57005016 0.30936611 0.89625747 24 24 30
-0.57002420 0.32918650 0.90401377 24 24 30
-0.57003689 0.34925346 0.91152943 25 24 31
-0.57006005 0.36587827 0.91765937 25 24 29
-0.57006519 0.37602805 0.92122744 24 24 30
-0.57001072 0.39003268 0.92603293 25 24 31
-0.57000431 0.41055681 0.93258517 25 24 31
-0.56982360 0.42748770 0.93779204 25 25 30
-0.57056804 0.43693055 0.94070199 25 24 31
-0.57006531 0.45000496 0.94433472 25 24 31
-0.56977923 0.46998088 0.94962972 25 24 31
-0.57009884 0.48958734 0.95435860 21 20 27
-0.56969638 0.50755691 0.95817238 0 0 0
-0.57143744 0.51777575 0.96054593 0 0 0
-0.56978140 0.52996594 0.96323614 0 0 0
-0.57029993 0.54521096 0.96660920 0 0 0
-0.55024483 -0.56434821 0.84170150 0 0 0
-0.54866645 -0.54496782 0.83957334 0 0 0
-0.55127785 -0.55392735 0.84054054 0 0 0
-0.54979795 -0.53015556 0.83784824 0 0 0
-0.55004352 -0.51015618 0.83536440 0 0 0
-0.54999372 -0.49017241 0.83223522 0 0 0
-0.55044443 -0.46157383 0.79763407 14 27 30
-0.55204929 -0.47001410 0.81424989 21 32 37
-0.54916801 -0.47787160 0.82896123 6 9 10
-0.54584362 -0.44099297 0.75867051 105 149 168
-0.55528399 -0.44970028 0.77365029 84 122 133
-0.54640708 -0.45742067 0.79138041 56 98 111
-0.55029737 -0.42285503 0.72316587 118 176 199
-0.55516158 -0.43623107 0.74825335 117 176 202
-0.55011696 -0.40421519 0.69492558 115 174 198
-0.55504623 -0.41405294 0.70478402 115 175 197
-0.55004232 -0.39019487 0.69427871 111 169 193
-0.54991338 -0.36996229 0.69427592 104 162 186
-0.54991338 -0.35016229 0.69427592 99 155 179
-0.54991338 -0.33036229 0.69427592 92 146 173
-0.54991338 -0.30996230 0.69427592 87 137 166
-0.54991338 -0.29016230 0.69427592 84 132 161
-0.54991338 -0.27036231 0.69427592 80 126 156
-0.54991338 -0.24996231 0.69427592 77 120 151
-0.54991338 -0.23016232 0.69427592 75 116 148
-0.54991338 -0.21036232 0.69427592 77 112 146
-0.54991338 -0.18996232 0.69427592 72 109 143
-0.54991338 -0.17016233 0.69427592 70 106 141
-0.54991338 -0.15036233 0.69427592 70 103 137
-0.55003835 -0.12999053 0.69443371 67 100 135
-0.54994587 -0.10965323 0.69539349 66 97 132
-0.54998200 -0.08965978 0.69758072 49 60 84
-0.54993358 -0.07113173 0.69908862 50 59 81
-0.55001151 -0.06145890 0.70014049 51 58 82
-0.55000229 -0.05021523 0.70239299 62 76 103
-0.54997128 -0.03055318 0.71344054 111 141 164
-0.55016407 -0.02030224 0.72053462 109 134 150
-0.54989463 -0.00984590 0.72767366 123 139 148
-0.54947583 0.00424423 0.73726515 107 122 133
-0.55017070 0.01387402 0.74350140 119 131 136
-0.55005718 0.02949236 0.75338389 116 125 128
-0.54280457 0.04032081 0.75992315 114 122 128
-0.55015758 0.05017157 0.76613328 131 138 138
-0.54987482 0.06679936 0.77612402 124 132 133
-0.55016130 0.07670023 0.78204336 102 110 114
-0.54984014 0.08966528 0.79003353 86 93 100
-0.54897049 0.10252833 0.79810954 74 74 79
-0.55045306 0.11292325 0.80431060 61 61 65
-0.54998233 0.13044719 0.81385285 54 52 55
-0.54995178 0.14121678 0.81950323 50 49 50
-0.55000604 0.15053711 0.82428459 47 46 47
-0.55002735 0.16962014 0.83381969 42 41 42
-0.55017719 0.18089371 0.83929535 39 38 40
-0.54997130 0.19061948 0.84401464 38 35 39
-0.55008430 0.20960918 0.85308697 32 32 36
-0.55004102 0.22224269 0.85907894 31 30 34
-0.55005138 0.23242005 0.86376281 29 29 33
-0.55013080 0.25005508 0.87169257 27 26 32
-0.54965803 0.26482638 0.87815592 25 24 31
-0.55006989 0.27481374 0.88236610 25 24 30
-0.54995566 0.28982591 0.88859129 24 24 30
-0.55004744 0.30938991 0.89635805 24 24 29
-0.55009400 0.32921479 0.90406215 25 24 30
-0.55003894 0.34925387 0.91150345 25 24 30
-0.55017866 0.36592757 0.91760118 26 25 31
-0.55008476 0.37612417 0.92115093 25 25 31
-0.54997138 0.38997242 0.92586388 25 24 32
-0.55001311 0.41040007 0.93233636 25 24 31
-0.54999988 0.42824551 0.93777875 25 24 30
-0.55035105 0.43770696 0.94065425 25 24 31
-0.54995465 0.44980423 0.94394004 25 24 31
-0.55000585 0.47040836 0.94927905 24 24 31
-0.54984860 0.49009906 0.95387531 13 13 17
-0.54973313 0.50897842 0.95786037 0 0 0
-0.55539801 0.51877933 0.96024503 0 0 0
-0.54987871 0.53019670 0.96250516 0 0 0
-0.55010683 0.54522433 0.96571091 0 0 0
-0.52082019 -0.56080151 0.83991086 0 0 0
-0.53008804 -0.56434288 0.84082757 0 0 0
-0.52918710 -0.54864160 0.83908704 0 0 0
-0.53456446 -0.55791430 0.84025891 0 0 0
-0.52997883 -0.52986803 0.83699414 0 0 0
-0.53028293 -0.50973225 0.83444360 0 0 0
-0.52978362 -0.49000145 0.83132608 0 0 0
-0.52707243 -0.46175299 0.80516466 40 59 68
-0.52957301 -0.47687107 0.82863820 0 0 0
-0.53451707 -0.44007287 0.75934553 69 122 138
-0.53807618 -0.44507785 0.76913229 75 139 154
-0.53401484 -0.45374913 0.78764200 79 118 136
-0.52622862 -0.42464461 0.73199568 118 174 195
-0.53515524 -0.43685798 0.75380101 111 169 190
-0.53055977 -0.40378819 0.69638389 115 176 200
-0.52818385 -0.41362854 0.71066201 115 175 200
-0.52564982 -0.41914170 0.72107827 113 176 202
-0.52978755 -0.39003016 0.69469027 117 172 195
-0.52974139 -0.36987667 0.69435419 110 165 189
-0.52955120 -0.34988428 0.69451112 102 157 181
-0.52976422 -0.33005093 0.69441957 97 149 175
-0.52957563 -0.30999933 0.69435857 91 140 167
-0.52945886 -0.29007170 0.69432527 87 134 161
-0.52962055 -0.27027149 0.69430128 83 128 157
-0.52954006 -0.24997501 0.69431141 81 123 153
-0.52943982 -0.23003184 0.69432841 78 119 149
-0.52965949 -0.21024233 0.69432460 77 116 148
-0.52963484 -0.19005809 0.69430353 75 111 146
-0.53007893 -0.17012899 0.69428289 74 108 143
-0.52955641 -0.15037443 0.69433300 70 105 139
-0.52978031 -0.13002684 0.69462695 68 102 137
-0.53009456 -0.10985127 0.69540055 67 99 134
-0.53001459 -0.08956729 0.69782172 50 61 89
-0.53020276 -0.07142777 0.69923882 50 60 81
-0.52893309 -0.06206186 0.70020766 51 59 83
-0.52998404 -0.05012525 0.70234139 60 76 103
-0.52985516 -0.03060390 0.71308000 117 143 166
-0.53003569 -0.02029452 0.72026049 111 136 154
-0.52996210 -0.00979605 0.72748657 124 139 150
-0.52987536 0.00471876 0.73736524 108 124 134
-0.53016657 0.01442062 0.74359864 121 133 136
-0.53000349 0.02954139 0.75305446 124 132 134
-0.52946697 0.04030530 0.75963092 114 124 130
-0.53004562 0.05055694 0.76588196 130 138 139
-0.53003818 0.06732703 0.77584876 126 133 134
-0.53000641 0.07728519 0.78172874 97 113 118
-0.52999658 0.09029805 0.78945668 96 105 110
-0.52946090 0.10421014 0.79775785 85 88 91
-0.53027598 0.11397820 0.80376189 72 71 77
-0.52994957 0.13031634 0.81307997 59 56 58
-0.53002686 0.14190012 0.81935755 52 51 49
-0.52980562 0.15159757 0.82444624 50 47 49
-0.53016435 0.16986899 0.83375891 43 42 44
-0.52871321 0.18123538 0.83938368 40 38 42
-0.53015866 0.19091014 0.84416689 37 36 38
-0.53007422 0.20976892 0.85327716 32 32 36
-0.53031087 0.22159485 0.85889249 31 30 34
-0.53007271 0.23166813 0.86351288 29 28 32
-0.52976937 0.25012327 0.87174988 27 25 31
-0.53050271 0.26479114 0.87812618 25 24 31
-0.53008157 0.27480584 0.88230972 25 24 31
-0.52998631 0.28972320 0.88844281 25 24 30
-0.53002615 0.30931010 0.89619128 24 24 29
-0.52989508 0.32932445 0.90391011 25 24 30
-0.53008593 0.34936260 0.91131182 25 25 30
-0.53003346 0.36661345 0.91756048 26 25 31
-0.53028845 0.37668966 0.92105154 26 26 30
-0.52998362 0.38979606 0.92550012 25 24 32
-0.53001410 0.41032371 0.93197402 25 24 32
-0.52980129 0.42873433 0.93752629 25 24 31
-0.53148019 0.43792449 0.94031869 25 24 30
-0.53000254 0.44956381 0.94340987 24 23 30
-0.52996868 0.47009917 0.94865533 25 24 31
-0.52996518 0.49050371 0.95333308 6 6 7
-0.52997028 0.51001332 0.95740936 0 0 0
-0.52730829 0.52080510 0.95966343 0 0 0
-0.53035257 0.53078917 0.96182112 0 0 0
-0.52997534 0.54477693 0.96466575 0 0 0
-0.50819379 -0.56291557 0.83948423 0 0 0
-0.51558643 -0.56580078 0.84029236 0 0 0
-0.51010424 -0.54986905 0.83823227 0 0 0
-0.50995455 -0.53019447 0.83607541 0 0 0
-0.50996484 -0.51043196 0.83347042 0 0 0
-0.51018852 -0.49016319 0.83022014 0 0 0
-0.51269896 -0.46250303 0.81118730 45 75 85
-0.50938874 -0.47423515 0.82662567 2 4 4
-0.50890873 -0.44341136 0.77408449 92 143 163
-0.51135713 -0.45261498 0.79121655 55 85 97
-0.51643847 -0.45946257 0.80480361 89 135 155
-0.51129570 -0.42177031 0.72994143 109 177 199
-0.50998891 -0.43223254 0.75029236 96 144 161
-0.51001968 -0.40211796 0.69702330 117 177 200
-0.51286900 -0.41213692 0.71114206 120 177 200
-0.50985421 -0.39004676 0.69581554 116 173 197
-0.50992243 -0.37023898 0.69493844 111 168 191
-0.50979238 -0.35002974 0.69520417 104 160 184
-0.50967536 -0.33012778 0.69504434 100 152 178
-0.50954519 -0.31022638 0.69486648 93 144 171
-0.50988017 -0.28985511 0.69470595 91 137 163
-0.50995988 -0.26989331 0.69461291 89 132 160
-0.50998059 -0.25009355 0.69464102 85 127 157
-0.51001627 -0.22969905 0.69468957 82 123 153
-0.51001126 -0.20988540 0.69468276 78 119 149
-0.51006869 -0.18996208 0.69460935 77 115 146
-0.51043731 -0.16973231 0.69457725 75 111 145
-0.50992126 -0.14979687 0.69467355 74 109 142
-0.50960441 -0.13008703 0.69494678 70 105 139
-0.50997096 -0.10975952 0.69554246 70 102 138
-0.50993424 -0.08963345 0.69820700 51 64 94
-0.51058714 -0.07306936 0.69944500 52 61 85
-0.50890105 -0.06359183 0.70033290 50 61 86
-0.50995457 -0.05017250 0.70237361 62 75 105
-0.50986357 -0.03053235 0.71296525 117 144 167
-0.51002909 -0.02029102 0.72013643 114 141 160
-0.51003847 -0.00977739 0.72738271 123 140 150
-0.50998295 0.00471755 0.73716591 111 128 138
-0.51007448 0.01437363 0.74331985 123 131 135
-0.51004769 0.02954052 0.75274477 129 135 136
-0.50858590 0.04044546 0.75935982 118 125 129
-0.51008832 0.05056844 0.76549104 134 139 140
-0.50977063 0.06769607 0.77560640 112 122 128
-0.51063737 0.07763560 0.78145164 102 116 124
-0.50997441 0.09023611 0.78880050 106 114 119
-0.50986701 0.10497119 0.79737597 97 101 106
-0.51005950 0.11475580 0.80319029 88 90 94
-0.50997535 0.13017438 0.81233234 68 64 66
-0.50960555 0.14190321 0.81895215 56 53 53
-0.51005598 0.15208022 0.82436301 52 49 50
-0.50992599 0.17029555 0.83374681 46 43 45
-0.51002520 0.18162467 0.83944395 42 40 42
-0.50992598 0.19146383 0.84434534 38 37 39
-0.51004311 0.20962548 0.85311967 33 32 36
-0.50971192 0.22219612 0.85904988 31 30 33
-0.51010735 0.23235928 0.86367313 29 28 32
-0.51000110 0.25039000 0.87166180 27 25 31
-0.50986491 0.26520106 0.87805334 26 25 31
-0.51019909 0.27476732 0.88202742 26 24 31
-0.51003293 0.28967191 0.88811920 25 24 30
-0.50988840 0.30967238 0.89599705 25 24 30
-0.51143216 0.31999083 0.90003282 25 24 31
-0.51022563 0.33056305 0.90401463 25 24 30
-0.50967949 0.35024538 0.91124423 25 24 30
-0.50999376 0.36722951 0.91736605 25 25 31
-0.51108476 0.37706690 0.92078866 25 25 29
-0.50993554 0.38969669 0.92504166 25 24 31
-0.51001156 0.41000835 0.93139425 25 24 31
-0.50982711 0.42958776 0.93722682 25 24 31
-0.50942204 0.43971336 0.94018600 25 24 32
-0.51024835 0.44991327 0.94289452 25 24 31
-0.50996178 0.46972579 0.94790179 25 24 31
-0.51004603 0.49018941 0.95264910 1 0 1
-0.50982139 0.51037055 0.95679111 0 0 0
-0.50955077 0.52330484 0.95946711 0 0 0
-0.51053806 0.53271084 0.96136303 0 0 0
-0.50993350 0.54417394 0.96364716 0 0 0
-0.49023643 -0.56348178 0.83849797 0 0 0
-0.48987965 -0.55012978 0.83711052 0 0 0
-0.49004769 -0.52999894 0.83502688 0 0 0
-0.49004663 -0.50966639 0.83231511 0 0 0
-0.48996376 -0.48994690 0.82924159 0 0 0
-0.48519083 -0.46224692 0.81897806 50 83 94
-0.48959224 -0.47316401 0.82591184 0 0 0
-0.49060056 -0.44713607 0.78678459 93 134 152
-0.48552933 -0.45632329 0.80663460 56 87 99
-0.49640094 -0.42376753 0.73781199 113 178 197
-0.49934370 -0.43005533 0.74989054 112 160 179
-0.49646175 -0.43932312 0.76952696 111 173 197
-0.49163065 -0.40178868 0.69879453 119 177 199
-0.48624678 -0.40547139 0.70397107 115 177 201
-0.48860584 -0.41702278 0.72716472 118 174 197
-0.49014250 -0.38999345 0.69730450 116 175 197
-0.48963437 -0.36994770 0.69579031 116 169 193
-0.48993375 -0.35013192 0.69581208 108 162 184
-0.48958945 -0.32980977 0.69556953 103 155 179
-0.48988876 -0.30999383 0.69532154 97 147 173
-0.49037444 -0.28980591 0.69512189 94 139 165
-0.49043843 -0.27005206 0.69502132 91 134 161
-0.49043793 -0.25023037 0.69502070 87 130 158
-0.49045079 -0.22981445 0.69503874 84 126 155
-0.49045892 -0.20999641 0.69505021 82 122 152
-0.49040494 -0.19015341 0.69497368 79 117 149
-0.49039133 -0.16972786 0.69495429 77 114 147
-0.49034622 -0.15001433 0.69504231 74 112 144
-0.48999332 -0.13011707 0.69529456 72 108 141
-0.48973179 -0.10982939 0.69577075 73 106 141
-0.48993414 -0.08971179 0.69868765 54 68 97
-0.49169283 -0.07534777 0.69971679 54 64 90
-0.48890971 -0.06622148 0.70048224 54 64 90
-0.49000753 -0.05023097 0.70244322 61 77 106
-0.48996830 -0.03061324 0.71287064 115 142 166
-0.49012054 -0.02029131 0.72014657 128 150 166
-0.49000059 -0.00985846 0.72726548 126 141 150
-0.48992468 0.00466972 0.73694404 117 132 138
-0.49002644 0.01433825 0.74309994 127 134 137
-0.49008670 0.02950908 0.75251275 135 140 140
-0.48996512 0.04095272 0.75945619 133 137 138
-0.48998944 0.05119821 0.76556299 128 134 136
-0.48997192 0.06792873 0.77541436 112 122 126
-0.48984023 0.07791119 0.78123975 115 126 132
-0.49002513 0.09021372 0.78836903 115 126 131
-0.48988885 0.10562323 0.79713421 125 130 132
-0.49004639 0.11538348 0.80274860 110 114 115
-0.49003414 0.13006025 0.81151309 84 82 84
-0.49004884 0.14251441 0.81881482 62 57 58
-0.48997356 0.15268739 0.82426120 56 52 52
-0.48986831 0.17023023 0.83334364 49 45 47
-0.48985227 0.18157359 0.83908368 43 42 43
-0.49000979 0.19141585 0.84399153 40 39 41
-0.49001380 0.20961373 0.85273688 34 33 37
-0.48947652 0.22236382 0.85872017 32 31 35
-0.49018198 0.23242122 0.86329577 30 29 33
-0.49002229 0.25027452 0.87119373 27 26 32
-0.48999692 0.26584145 0.87788666 26 25 32
-0.49012949 0.27545192 0.88186445 26 24 31
-0.48998922 0.28955852 0.88760685 25 24 30
-0.49014945 0.30993786 0.89562144 25 24 30
-0.48258674 0.32150234 0.89990932 26 24 31
-0.49024150 0.33075904 0.90360892 25 24 31
-0.48997755 0.35061447 0.91088591 25 24 31
-0.48963694 0.36858609 0.91731026 25 25 30
-0.49075377 0.37780477 0.92050833 26 25 29
-0.49010535 0.38950974 0.92445152 25 25 30
-0.48997496 0.40971295 0.93072369 26 25 31
-0.49000887 0.43025553 0.93681702 26 25 31
-0.48450738 0.44135686 0.93984089 28 28 32
-0.49001003 0.45053299 0.94239617 28 27 33
-0.49022342 0.46971404 0.94722880 22 21 26
-0.49012047 0.48972748 0.95187327 0 0 0
-0.48991469 0.51002583 0.95599981 0 0 0
-0.48944639 0.52511604 0.95901387 0 0 0
-0.49032232 0.53512681 0.96097852 0 0 0
-0.49047662 0.54424648 0.96278355 0 0 0
-0.47047282 -0.56274488 0.83715326 0 0 0
-0.46997472 -0.54971560 0.83586525 0 0 0
-0.47005961 -0.53014344 0.83395100 0 0 0
-0.46977139 -0.51036191 0.83134024 0 0 0
-0.46994418 -0.48997556 0.82817875 0 0 0
-0.46986171 -0.47087026 0.82448080 0 0 0
-0.47652720 -0.44026348 0.77824259 119 171 190
-0.47650226 -0.44591647 0.78823522 77 119 130
-0.46817154 -0.45768000 0.81400335 34 50 56
-0.47098455 -0.42611544 0.75018496 116 168 193
-0.46778421 -0.43424798 0.76761174 103 158 177
-0.47876875 -0.40078974 0.69991213 116 175 198
-0.47215674 -0.40327516 0.70454998 118 176 199
-0.46242832 -0.41513614 0.73048356 113 174 198
-0.47008697 -0.38994478 0.69865768 116 175 197
-0.46144093 -0.39976511 0.70023638 120 178 203
-0.47009332 -0.36977091 0.69668864 114 170 192
-0.46968108 -0.34998306 0.69630526 109 163 186
-0.46992529 -0.33004415 0.69594019 103 156 178
-0.47027027 -0.30985673 0.69566237 102 149 173
-0.47032020 -0.29006069 0.69546973 95 142 169
-0.47022373 -0.27017076 0.69532689 91 137 162
-0.47022535 -0.25034154 0.69532929 89 133 160
-0.47023404 -0.22991484 0.69534224 84 129 157
-0.47021503 -0.21007618 0.69531391 88 124 154
-0.47014059 -0.19021641 0.69520365 81 120 150
-0.47010213 -0.16977488 0.69514679 79 117 148
-0.47017791 -0.14997389 0.69525884 79 115 146
-0.47031040 -0.13022503 0.69550411 77 111 144
-0.46996175 -0.10975677 0.69593894 75 111 144
-0.47018437 -0.09002184 0.69910138 55 73 103
-0.46201112 -0.08056998 0.70005207 54 67 98
-0.47520283 -0.07821262 0.69991645 53 66 95
-0.46959539 -0.06941977 0.70059673 55 67 94
-0.46995023 -0.05015198 0.70246789 59 78 108
-0.46999550 -0.03049630 0.71297329 114 143 168
-0.47028592 -0.02029482 0.72027127 129 152 169
-0.47004145 -0.00981205 0.72735477 134 146 156
-0.46994486 0.00473905 0.73690461 124 138 142
-0.47001471 0.01438742 0.74296784 134 142 143
-0.47005558 0.02953555 0.75232523 133 138 138
-0.47011930 0.04093914 0.75920446 131 137 136
-0.47002175 0.05120803 0.76530247 127 134 136
-0.46993520 0.06796404 0.77515634 111 121 127
-0.47008483 0.07788203 0.78094779 121 132 135
-0.47005833 0.09014518 0.78800430 121 132 135
-0.46963820 0.10590516 0.79687453 130 137 136
-0.47043243 0.11558190 0.80228987 113 120 120
-0.47004763 0.12978366 0.81037991 104 104 104
-0.46932081 0.14311207 0.81818024 74 70 72
-0.47025862 0.15337336 0.82394299 61 57 58
-0.46993301 0.17011603 0.83269902 52 49 49
-0.46965885 0.18224852 0.83884993 46 44 45
-0.47012808 0.19195250 0.84369507 43 41 43
-0.46993541 0.20941383 0.85205397 37 34 38
-0.46978401 0.22291441 0.85839077 34 30 37
-0.47011873 0.23302197 0.86296576 32 29 34
-0.47001430 0.25006112 0.87050111 29 28 32
-0.46976189 0.26638766 0.87751983 27 25 32
-0.47039609 0.27593126 0.88149054 26 25 32
-0.46992693 0.29015159 0.88726261 26 25 31
-0.47006040 0.31058679 0.89531117 25 24 30
-0.46882109 0.32158480 0.89955961 26 24 31
-0.47015098 0.33148297 0.90332500 26 24 31
-0.47002620 0.35037196 0.91022713 26 25 30
-0.46967243 0.36921063 0.91693103 26 25 30
-0.47150651 0.37930874 0.92045061 26 26 29
-0.47004490 0.38995053 0.92400327 27 26 30
-0.46996128 0.40938594 0.93003440 29 28 33
-0.46996048 0.42981961 0.93612921 31 31 35
-0.46882749 0.44192891 0.93957664 34 34 40
-0.47010098 0.45198255 0.94220052 35 34 41
-0.47003923 0.46994252 0.94669054 18 17 20
-0.47010983 0.48944209 0.95119643 0 0 0
-0.46992846 0.50962432 0.95522300 0 0 0
-0.46952727 0.52697170 0.95864050 0 0 0
-0.47088812 0.53698894 0.96060501 0 0 0
-0.47017153 0.54405990 0.96202455 0 0 0
-0.44967651 -0.56241860 0.83584138 0 0 0
-0.45010374 -0.55028430 0.83470029 0 0 0
-0.44992343 -0.53001493 0.83278423 0 0 0
-0.44998160 -0.50973879 0.83023637 0 0 0
-0.45009073 -0.48990488 0.82715023 0 0 0
-0.44970767 -0.47023170 0.82360940 0 0 0
-0.44671482 -0.44587019 0.79667836 66 101 111
-0.44479470 -0.45400260 0.81288103 26 40 44
-0.44918433 -0.45916907 0.82043493 0 0 0
-0.44747044 -0.43417787 0.77220380 78 108 120
-0.45787822 -0.40435901 0.70979781 111 175 200
-0.44259536 -0.41125131 0.72808233 113 172 191
-0.45625997 -0.41917213 0.74095994 116 172 192
-0.45109642 -0.38797999 0.69915749 117 173 195
-0.44578552 -0.39543561 0.70046726 116 171 194
-0.45002982 -0.36990508 0.69755960 115 170 191
-0.44982002 -0.35041733 0.69689657 113 163 186
-0.45025729 -0.32998785 0.69620131 108 156 178
-0.45017324 -0.31009322 0.69591520 103 151 175
-0.45005357 -0.29016919 0.69573013 99 146 168
-0.44993473 -0.26970846 0.69559811 94 139 164
-0.44997690 -0.24986001 0.69555707 91 135 160
-0.44992251 -0.22997618 0.69552733 90 130 158
-0.44986975 -0.21011604 0.69544556 87 126 154
-0.44979834 -0.19025234 0.69533521 84 123 152
-0.44976865 -0.16980976 0.69528939 83 119 150
-0.44982721 -0.14999996 0.69537981 80 117 146
-0.44997917 -0.13021241 0.69561472 78 113 145
-0.45016262 -0.10987065 0.69606074 76 113 145
-0.45073400 -0.09268288 0.69930697 57 76 107
-0.44829397 -0.08293529 0.70021296 57 72 99
-0.44988108 -0.06993514 0.70091545 57 70 97
-0.45000837 -0.05016386 0.70256243 59 79 111
-0.45001826 -0.03056762 0.71299729 120 146 170
-0.45047633 -0.02029974 0.72044589 142 163 174
-0.45004619 -0.00981198 0.72748611 133 146 156
-0.45002604 0.00468067 0.73687544 130 138 143
-0.44996979 0.01436980 0.74285908 133 140 143
-0.45002752 0.02948878 0.75214965 141 145 145
-0.44998145 0.04094979 0.75900962 127 131 134
-0.45000568 0.05116586 0.76507539 117 128 133
-0.44995316 0.06862789 0.77534133 120 127 133
-0.44993891 0.07857391 0.78112235 141 145 146
-0.45003295 0.09013740 0.78770665 132 139 141
-0.44997647 0.10631559 0.79673112 139 147 147
-0.44993201 0.11601036 0.80203591 146 153 152
-0.45005047 0.12963373 0.80949213 118 119 119
-0.44954432 0.14411528 0.81749617 94 93 96
-0.45042667 0.15429764 0.82343366 71 67 70
-0.45003820 0.16997967 0.83185581 57 54 54
-0.44968889 0.18273795 0.83840554 48 47 47
-0.45015932 0.19257679 0.84333230 45 43 46
-0.44996531 0.20925610 0.85131928 38 36 40
-0.44990417 0.22360445 0.85803774 33 32 35
-0.45017653 0.23372882 0.86258836 32 30 35
-0.44996240 0.24983887 0.86967714 30 29 33
-0.44972504 0.26700896 0.87707047 28 27 31
-0.45037167 0.27659121 0.88108314 27 27 31
-0.44993386 0.28993871 0.88653521 27 25 31
-0.45001185 0.31030353 0.89459017 26 25 32
-0.44908783 0.32231745 0.89923752 27 25 32
-0.45023268 0.33209955 0.90294345 26 25 31
-0.44999862 0.35009056 0.90949555 27 26 32
-0.44971917 0.37012457 0.91661139 30 29 34
-0.45683847 0.37960716 0.92010313 29 28 33
-0.44986765 0.39050863 0.92357900 34 33 39
-0.45020411 0.40989576 0.92965575 40 40 44
-0.44999754 0.42969102 0.93564034 48 50 56
-0.44918763 0.44261415 0.93935611 55 57 63
-0.45006244 0.45280114 0.94196401 58 60 65
-0.44996577 0.47044065 0.94632160 11 11 12
-0.45004132 0.49001696 0.95071880 0 0 0
-0.45005424 0.50952548 0.95458411 0 0 0
-0.44969114 0.52832467 0.95829272 0 0 0
-0.45111723 0.53844410 0.96029666 0 0 0
-0.44990268 0.54367915 0.96135134 0 0 0
-0.43123795 -0.56192975 0.83472526 0 0 0
-0.43000678 -0.54975576 0.83344750 0 0 0
-0.42998775 -0.53017234 0.83161749 0 0 0
-0.42991829 -0.51032482 0.82922712 0 0 0
-0.42988933 -0.49012171 0.82615136 0 0 0
-0.42352721 -0.46113040 0.81971995 0 0 0
-0.43034965 -0.47042626 0.82251426 0 0 0
-0.42039798 -0.44104404 0.79418105 69 93 106
-0.42714705 -0.45638411 0.81835870 6 9 10
-0.43510871 -0.45849491 0.82026639 0 0 0
-0.43277929 -0.42325488 0.75509785 107 152 170
-0.43625268 -0.43188928 0.77130157 87 132 151
-0.43159139 -0.41154806 0.73220546 109 168 189
-0.43121147 -0.41714132 0.74305001 110 161 181
-0.43438252 -0.38331719 0.69962304 118 170 190
-0.42890237 -0.38977262 0.70081475 117 171 191
-0.42346191 -0.38132900 0.73959619 106 117 127
-0.42183600 -0.38173537 0.74142138 115 119 126
-0.43024586 -0.37009918 0.69845768 114 169 189
-0.42062077 -0.37872032 0.70011385 119 169 190
-0.42214437 -0.36421564 0.73729505 134 149 152
-0.42212351 -0.37077232 0.74215746 136 138 137
-0.43007631 -0.35047589 0.69733556 110 162 184
-0.42134189 -0.35779787 0.73589347 138 148 152
-0.42225993 -0.35038497 0.74310541 140 141 139
-0.43001762 -0.33016511 0.69638851 110 157 179
-0.42249149 -0.33019439 0.74356786 139 141 139
-0.42981727 -0.31015926 0.69606360 106 153 175
-0.42108423 -0.31212664 0.73767032 134 144 150
-0.42196484 -0.31051401 0.74352613 140 141 138
-0.42973128 -0.29025019 0.69592506 102 147 172
-0.42099887 -0.28040312 0.73976070 147 148 146
-0.42137478 -0.29028345 0.74277738 146 146 143
-0.42966786 -0.26976238 0.69582250 98 141 166
-0.42094208 -0.27013786 0.73966092 141 146 152
-0.42099611 -0.27012425 0.74314140 148 144 141
-0.42984990 -0.25001880 0.69570511 93 136 160
-0.42059482 -0.25522681 0.73905073 136 143 147
-0.42073207 -0.25068519 0.74275142 137 139 137
-0.43018202 -0.23002699 0.69568066 93 132 158
-0.42019983 -0.23150700 0.74286900 135 135 136
-0.43013266 -0.21016300 0.69560107 91 129 155
-0.43002307 -0.19027666 0.69542377 87 125 152
-0.42997737 -0.16982443 0.69534962 84 121 151
-0.43006708 -0.15002465 0.69549489 82 118 147
-0.42981930 -0.13011867 0.69579300 80 115 145
-0.42993458 -0.10988937 0.69636963 79 113 146
-0.43085081 -0.09584429 0.69941875 57 79 112
-0.42945450 -0.08595004 0.70048038 58 74 102
-0.42995367 -0.07002181 0.70138367 59 71 100
-0.43002933 -0.05023796 0.70282047 61 79 111
-0.42995013 -0.03058291 0.71291257 121 148 170
-0.43057158 -0.02030060 0.72047640 144 164 177
-0.43002644 -0.00980238 0.72752634 136 147 157
-0.43005017 0.00472759 0.73696924 130 139 142
-0.42998570 0.01442726 0.74289263 133 141 143
-0.42997542 0.02950090 0.75202889 137 142 143
-0.42889477 0.04125730 0.75901609 123 128 133
-0.43020332 0.05144236 0.76505672 118 127 133
-0.43000739 0.06859649 0.77511066 120 128 133
-0.42987475 0.07857194 0.78087144 123 127 134
-0.43000003 0.09010344 0.78743804 139 145 147
-0.42987364 0.10636455 0.79648236 125 135 139
-0.43017704 0.11607089 0.80176729 151 157 157
-0.42996998 0.12963390 0.80901783 137 143 145
-0.42979457 0.14488014 0.81718709 109 115 121
-0.43039882 0.15506366 0.82280227 92 94 99
-0.43004733 0.16971167 0.83071605 69 68 69
-0.42956003 0.18360372 0.83792204 54 52 54
-0.43020730 0.19411787 0.84323642 48 44 47
-0.43003999 0.21055266 0.85113458 40 37 41
-0.42965215 0.22522740 0.85796470 35 32 38
-0.43052170 0.23449496 0.86215126 33 32 36
-0.42997145 0.24948955 0.86872839 31 31 34
-0.42967473 0.26801674 0.87669851 31 30 33
-0.43000879 0.27802447 0.88090529 30 28 33
-0.43026183 0.29010013 0.88587643 29 28 34
-0.42992091 0.31000770 0.89373684 30 28 35
