ply
format ascii 1.0
element vertex 595
property float x
property float y
property float z
property uchar red
property uchar green
property uchar blue
end_header
-1.10775630 -0.62308947 1.99497585 197 197 196
-1.10546896 -0.61312780 1.99415567 197 198 197
-1.10359553 -0.59665809 1.99576004 193 194 194
-1.09333038 -0.62364344 1.99381105 193 192 190
-1.09108812 -0.61081793 1.98837759 194 194 193
-1.09130772 -0.59517804 1.98698954 193 193 193
-1.07009417 -0.60395199 1.97636104 198 197 196
-1.07448573 -0.60334113 1.98447187 197 196 195
-1.07521814 -0.59541208 1.97636104 202 202 202
-1.06797304 -0.06548225 1.77846742 202 204 204
-1.07974362 -0.06585519 1.78863287 200 202 202
-1.04570292 -0.06754544 1.75231016 208 211 211
-1.05722588 -0.06656994 1.76650161 207 209 209
-1.04660973 -0.05889539 1.76534930 203 204 204
-1.02882171 -0.07066515 1.73596431 204 209 209
-1.02961715 -0.06696775 1.74615616 206 207 208
-1.02928069 -0.06210937 1.76998634 208 212 211
-1.03065157 -0.06259851 1.78392589 206 212 211
-1.02980840 -0.05859004 1.75619650 201 201 199
-1.02776760 -0.05612080 1.78627938 208 210 210
-1.00293100 -0.08871764 1.75166631 205 209 208
-1.00408900 -0.08870312 1.77151318 200 201 203
-1.01215136 -0.09343223 1.78392589 213 215 217
-1.01924622 -0.06850420 1.73818421 201 201 201
-1.01273514 -0.06964757 1.74961914 208 210 210
-1.00626694 -0.06719970 1.77090220 195 200 201
-1.00400704 -0.04341282 1.75619650 209 214 214
-1.01000403 -0.05182678 1.77367480 205 208 209
-1.00932462 -0.05693606 1.78594317 203 205 206
-0.99220741 -0.08803222 1.73818421 207 208 209
-0.99523529 -0.08676333 1.74791186 206 207 208
-0.99621872 -0.08141340 1.76841613 204 207 208
-0.99220741 -0.07901929 1.73818421 204 205 205
-0.99465330 -0.07243885 1.74865913 203 207 207
-0.99597650 -0.06918570 1.76619884 193 196 200
-0.99360954 -0.04294217 1.75066047 206 211 211
-0.99430540 -0.04938862 1.76593447 205 207 208
-0.98920310 -0.03695894 1.73818421 214 218 219
-0.98977238 -0.03563955 1.74714386 209 213 214
-0.88360001 -0.66326641 1.93270314 200 201 201
-0.88447189 -0.67042705 1.94377890 201 201 201
-0.88240763 -0.65799214 1.92950769 202 203 204
-0.88217551 -0.65608054 1.95357883 204 204 204
-0.88049722 -0.65309158 1.96490383 204 204 205
-0.87250033 -0.70572588 1.95080423 195 199 196
-0.86642221 -0.68503478 1.90956205 197 198 199
-0.86642930 -0.68744298 1.93352928 197 198 198
-0.86536968 -0.69260782 1.94238353 194 195 196
-0.87059277 -0.67380518 1.89885676 207 209 211
-0.86669193 -0.67393154 1.90956794 196 198 198
-0.87122865 -0.67137392 1.92964558 195 196 196
-0.86642652 -0.66797149 1.94441316 200 200 200
-0.86896887 -0.65582876 1.92803310 198 199 199
-0.86988495 -0.65101942 1.95095414 203 203 204
-0.85767913 -0.68337744 1.90419054 201 201 201
-0.85736598 -0.68733556 1.93048851 195 197 197
-0.85853922 -0.68984658 1.95357883 198 198 199
-0.85418266 -0.67544618 1.89885676 203 204 205
-0.85369723 -0.67098589 1.90956659 202 203 204
-0.85603492 -0.67123243 1.92921274 200 202 200
-0.85899496 -0.65119720 1.90955448 194 195 195
-0.85371643 -0.64983770 1.93499450 206 206 207
-0.68654478 -0.30115137 1.15157239 178 178 181
-0.68767094 -0.29058908 1.14841132 189 189 191
-0.67969674 -0.30047062 1.14896917 183 183 183
-0.66468593 -0.28650317 1.13687713 181 181 181
-0.67521608 -0.28915686 1.14451261 187 187 187
-0.66751689 -0.27900305 1.13835824 192 193 193
-0.67552249 -0.27931764 1.14638146 186 189 190
-0.48239266 -0.19432201 1.13217902 207 209 209
-0.48441168 0.01591678 0.82763903 206 208 207
-0.48831119 0.02444125 0.83521448 203 204 205
-0.47025312 -0.19380272 1.12834960 214 216 217
-0.47656351 0.01427862 0.82569460 201 203 202
-0.47970018 0.02115652 0.83279097 207 213 211
-0.44802115 -0.18989151 1.11690966 211 213 215
-0.45423545 -0.19032398 1.12107597 212 213 214
-0.43568335 -0.19156207 1.11606302 209 209 209
-0.43528681 -0.19425112 1.12048233 206 205 204
-0.40365972 -0.28474465 1.01242142 213 215 216
-0.40984356 -0.28815940 1.02092147 217 218 220
-0.40220066 -0.27296716 1.01171187 208 209 210
-0.39714476 -0.28535757 1.01284431 216 218 219
-0.38478661 -0.27244605 0.99917235 212 213 213
-0.39302841 -0.27094307 1.00700665 213 214 214
-0.39538091 -0.25857763 1.00877655 215 216 217
-0.37782415 -0.26644568 0.99514914 205 205 204
-0.37608438 -0.27617350 1.00428598 212 213 214
-0.34776567 -0.00244053 0.83492892 196 196 193
-0.34937415 0.00787248 0.83258019 189 189 188
-0.34464887 0.02507430 0.81969994 197 197 195
-0.34645158 0.02244753 0.82281720 191 190 190
-0.34551239 0.44006285 1.99379957 99 74 60
-0.33652683 -0.00294054 0.82847308 190 186 184
-0.33867779 0.00279609 0.83024199 190 186 179
-0.32239582 0.09350292 0.75531407 144 142 142
-0.32436075 0.37232593 1.99088466 103 74 62
-0.32483566 0.38147879 1.99379957 100 73 62
-0.31044110 0.09417534 0.74928934 129 123 126
-0.31687312 0.10055670 0.75363395 121 117 125
-0.28677595 0.07589937 0.73878213 197 193 189
-0.28420992 0.07229517 0.74221882 194 193 190
-0.28692570 0.08785630 0.73531593 188 184 182
-0.28140995 0.08028644 0.74086541 196 187 182
-0.27827459 0.07544379 0.74294172 195 193 191
-0.27611024 0.08870317 0.73579303 178 172 166
-0.27761705 0.08082238 0.74075036 193 185 180
-0.25136408 -0.19340868 0.45667885 189 191 191
-0.18349724 -0.12224807 0.54585826 206 207 209
-0.18297149 -0.11542873 0.54498179 202 200 201
-0.18311177 0.90707004 1.88303292 0 0 0
-0.19503465 0.94925940 1.97061586 0 0 0
-0.16664575 -0.32255321 0.63916900 204 204 203
-0.16627556 -0.32548358 0.64022534 203 204 202
-0.16534478 -0.30908832 0.63509973 207 208 206
-0.17166321 -0.24159028 0.64175346 211 213 214
-0.17009427 -0.22314975 0.63936994 208 210 211
-0.16969121 -0.23051529 0.64069857 209 210 211
-0.17934474 -0.12188309 0.54536754 209 210 210
-0.17843584 -0.11430785 0.54520844 209 207 208
-0.15793206 -0.30338361 0.63364914 210 210 210
-0.15862070 -0.29898363 0.63177299 210 209 208
-0.14193162 0.29912084 0.72501802 191 191 186
-0.14615164 0.30982824 0.72569146 181 179 177
-0.12343480 -0.00325574 0.85075341 120 86 75
-0.12278186 0.00451863 0.84215201 115 86 75
-0.13781955 0.30708447 0.72414767 190 189 187
-0.12612248 0.37470185 1.01785823 142 139 135
-0.12875214 0.37845413 1.02143474 154 152 146
-0.12643804 0.38092504 1.01938617 147 138 136
-0.12883545 0.39275891 1.02680940 140 135 133
-0.12912779 0.40638435 1.03257778 143 140 139
-0.12465759 0.41701415 1.04130852 152 146 146
-0.11780381 -0.00442058 0.85024557 115 85 78
-0.11484143 0.01146531 0.83768130 113 85 75
-0.11700199 0.00557369 0.84087801 115 86 77
-0.11887491 0.39851067 1.02762842 148 142 139
-0.11739367 0.40630918 1.03283010 153 150 149
-0.08070448 0.11106949 0.70467523 140 137 135
-0.08409988 0.13278224 0.63446441 136 132 132
-0.08236196 0.14193437 0.63314941 142 139 139
-0.06361544 -0.04761590 1.01309555 145 140 142
-0.06545472 -0.03917661 1.01632965 156 156 156
-0.07463492 0.11141170 0.70532468 142 137 138
-0.07703701 0.13239650 0.63123215 144 139 139
-0.07559619 0.12105109 0.70247859 132 122 122
-0.05334340 -0.06210752 1.00602554 145 140 139
-0.04538320 -0.05305740 0.99984050 152 151 153
-0.05217419 -0.04969896 1.00641926 149 145 146
-0.04992818 -0.03826731 1.01142908 158 151 152
-0.00024626 -0.08512077 0.54536754 138 137 139
-0.00073671 0.73235014 1.63152993 0 0 0
-0.00073937 0.74488932 1.63741994 0 0 0
-0.00074296 0.75561500 1.64536858 0 0 0
-0.00368524 0.75588930 1.69050336 0 0 0
-0.00074658 0.76215863 1.65339470 0 0 0
-0.00371302 0.77238131 1.70324588 0 0 0
-0.00373177 0.78614485 1.71184814 0 0 0
-0.00375071 0.79310924 1.72053766 0 0 0
-0.00690874 0.79346159 1.76767200 0 0 0
-0.00693576 0.80728838 1.77458596 0 0 0
-0.00697227 0.81924570 1.78392589 0 0 0
-0.00700916 0.82668000 1.79336464 0 0 0
-0.01035540 0.82144064 1.83710527 0 0 0
-0.01044028 0.83617708 1.85216355 0 0 0
-0.01044028 0.84738165 1.85216355 0 0 0
-0.01049764 0.85525650 1.86234021 0 0 0
-0.01414398 0.85867310 1.92037344 0 0 0
-0.01055564 0.86321837 1.87262940 0 0 0
-0.01426521 0.87440228 1.93683386 0 0 0
-0.01426521 0.88611913 1.93683386 0 0 0
-0.01434719 0.89457864 1.94796503 0 0 0
-0.01443013 0.90313596 1.95922494 0 0 0
0.00562343 -0.08622497 0.54396282 151 147 150
0.00444185 -0.07995737 0.54231346 143 140 142
0.01977593 0.52532339 1.17485583 0 0 0
0.01987929 0.53317213 1.18099630 0 0 0
0.01832499 0.54825896 1.21323583 0 0 0
0.01663734 0.55616808 1.24383819 0 0 0
0.01672943 0.56717298 1.25072300 0 0 0
0.01492565 0.57298982 1.28145909 0 0 0
0.01501078 0.58442541 1.28876781 0 0 0
0.01314574 0.59489608 1.32531315 0 0 0
0.01318429 0.60467485 1.32919967 0 0 0
0.01120557 0.61410618 1.36810911 0 0 0
0.01125472 0.62708988 1.37411010 0 0 0
0.00913591 0.63459837 1.41376120 0 0 0
0.00916449 0.64515516 1.41818380 0 0 0
0.00920300 0.65401965 1.42414248 0 0 0
0.00690096 0.65185291 1.45783186 0 0 0
0.00695332 0.66823062 1.46889326 0 0 0
0.00453733 0.67508149 1.50978136 0 0 0
0.00456786 0.68925510 1.51993692 0 0 0
0.00458843 0.70115626 1.52678347 0 0 0
0.00200833 0.70782415 1.57285182 0 0 0
0.00201298 0.72125971 1.57649267 0 0 0
0.00202714 0.73045033 1.58757740 0 0 0
0.03936237 0.33563235 0.74702320 0 0 0
0.03897577 0.34232752 0.75826830 0 0 0
0.03830801 0.34706191 0.77121001 0 0 0
0.03747077 0.35437785 0.78874600 0 0 0
0.03658742 0.36496558 0.80997025 0 0 0
0.03556566 0.37431622 0.83177163 0 0 0
0.03472440 0.37841648 0.84630692 0 0 0
0.03485495 0.38350977 0.84948850 0 0 0
0.03402638 0.38961415 0.86576509 0 0 0
0.03318695 0.39646481 0.88325006 0 0 0
0.03325181 0.40029588 0.88497627 0 0 0
0.03211209 0.40748128 0.90694134 0 0 0
0.03150889 0.41694932 0.92355835 0 0 0
0.03053676 0.42429527 0.94282957 0 0 0
0.02956507 0.43395221 0.96428816 0 0 0
0.02846514 0.43992975 0.98387784 0 0 0
0.02858962 0.44612361 0.98818052 0 0 0
0.02748268 0.45464778 1.01027544 0 0 0
0.02636519 0.46575389 1.03495423 0 0 0
0.02511301 0.47287300 1.05755353 0 0 0
0.02523109 0.47876954 1.06252635 0 0 0
0.02523109 0.48060602 1.06252635 0 0 0
0.02395800 0.48967753 1.08811450 0 0 0
0.02258469 0.49772021 1.11312294 0 0 0
0.02269649 0.50501782 1.11863339 0 0 0
0.02129013 0.51619196 1.14703163 0 0 0
0.05267909 0.20347273 0.45330118 0 0 0
0.05199497 0.21024616 0.46839111 0 0 0
0.05126929 0.21743111 0.48439784 0 0 0
0.05075537 0.22251945 0.49573372 0 0 0
0.05007671 0.22923877 0.51070311 0 0 0
0.04925858 0.23748817 0.52874510 0 0 0
0.04896434 0.24250460 0.53715676 0 0 0
0.04829103 0.24784789 0.55074663 0 0 0
0.04736816 0.25660279 0.57073164 0 0 0
0.04652113 0.26580239 0.59017899 0 0 0
0.04559903 0.27460169 0.61019630 0 0 0
0.04490772 0.27833939 0.62249023 0 0 0
0.04475384 0.28362795 0.62945594 0 0 0
0.04390984 0.29138934 0.64750014 0 0 0
0.04320262 0.29729913 0.66232857 0 0 0
0.04287671 0.30221625 0.67071050 0 0 0
0.04200065 0.31036341 0.68966241 0 0 0
0.04119975 0.31712961 0.70650703 0 0 0
0.04082463 0.32264768 0.71605456 0 0 0
0.04011627 0.32909085 0.73127659 0 0 0
0.09261722 -0.16145555 1.07738950 161 159 158
0.09254805 -0.16539330 1.08889117 164 160 160
0.09199707 -0.15291736 1.07476252 170 165 166
0.10585944 -0.16101655 1.07944560 173 167 167
0.10392244 -0.16568947 1.08858564 171 166 166
0.10407894 -0.15455750 1.07912382 169 165 166
0.10415956 -0.15192980 1.08116722 167 163 164
0.13801306 -0.00024267 0.46494639 154 153 156
0.13794803 0.00909996 0.46641790 178 173 172
0.14103410 -0.00024234 0.46430948 191 190 189
0.14300100 0.00785131 0.46547405 183 178 176
0.29408051 -0.08700546 1.27332528 193 188 186
0.29178792 -0.08040517 1.28145909 203 195 191
0.29424966 -0.06712284 1.27772772 192 188 188
0.29198408 -0.07204840 1.28322836 196 194 194
0.29620270 -0.05693463 1.27663469 179 175 176
0.29234055 -0.05725697 1.28388608 188 184 186
0.30041978 -0.08508163 1.27424181 192 188 186
0.30298891 -0.06894426 1.27424026 195 191 192
0.30064753 -0.07486793 1.28145909 193 190 190
0.30115455 -0.05792767 1.27423275 184 177 177
0.31543455 -0.02326031 1.13601798 197 196 197
0.31223983 -0.02382763 1.14123201 198 197 196
0.31540773 -0.01632227 1.13740563 195 191 191
0.31180148 -0.01769088 1.14123201 200 193 193
0.33026352 -0.18688386 0.51492923 33 33 41
0.32907995 -0.17495260 0.51644896 36 36 46
0.32238808 -0.02516588 1.13740402 164 162 165
0.33029554 -0.02268959 1.14862113 193 190 190
0.33212516 -0.01051907 1.15150169 194 191 190
0.32954516 0.00139212 1.15385932 192 189 188
0.34163508 -0.00855779 1.15091991 200 194 192
0.37719042 -0.18430164 0.52805365 116 126 135
0.37743654 -0.17828112 0.52679089 147 153 159
0.37991381 0.13701009 0.51282603 127 103 91
0.37998873 0.14065316 0.51277751 126 103 90
0.39458805 -0.26071957 0.51915918 165 171 169
0.39043275 -0.25436273 0.51849887 115 119 126
0.39071208 -0.24814265 0.52244412 94 98 108
0.39022337 -0.20581190 0.54428168 101 104 115
0.38313244 -0.19249972 0.53473560 116 122 131
0.38891648 -0.19901980 0.54058415 138 146 149
0.38075198 -0.17846577 0.52733719 177 182 183
0.39636855 -0.10892342 0.53182390 151 151 152
0.39408354 -0.09716968 0.52796146 130 134 136
0.38409469 0.13609875 0.51198744 125 99 85
0.38561970 0.14137931 0.51219825 121 98 84
0.40414823 -0.10814064 0.53631812 155 161 164
0.43351880 0.17548784 1.49976075 185 183 182
0.43756507 0.17737135 1.50475621 190 188 185
0.43827119 0.19276927 1.49976075 192 189 185
0.43667204 0.18182296 1.50392115 191 185 182
0.43999934 0.20270610 1.49976075 193 185 180
0.43886405 0.20858443 1.50475621 188 181 179
0.43842959 0.31932595 1.07601881 118 104 111
0.43883557 0.32322340 1.07815987 127 107 115
0.43083247 0.33701274 1.09499875 159 148 145
0.42667925 0.33795857 1.10124149 162 156 152
0.43000546 0.34089262 1.09602636 146 138 134
0.43229432 0.34838530 1.10776268 150 146 144
0.44866922 -0.28256828 0.61169366 49 48 57
0.45037504 -0.27024324 0.61299782 95 96 105
0.44405573 -0.25800056 0.60934205 94 96 107
0.44443107 0.17855985 1.51485157 191 189 186
0.45017007 0.19011544 1.50898665 184 180 180
0.44615583 0.20465026 1.49976075 175 169 169
0.44828812 0.21320363 1.50539277 189 183 179
0.44817691 0.22526395 1.49893305 183 181 181
0.44971940 0.22191702 1.50359997 187 185 185
0.44192079 0.31983361 1.07772946 118 105 112
0.44685345 0.32554052 1.07709001 135 120 124
0.44801943 0.33426361 1.08884740 124 105 107
0.44838532 0.35397039 1.07815918 152 149 145
0.45181680 0.34954412 1.09153555 120 104 107
0.44682908 0.35016285 1.10664271 127 112 114
0.44298989 0.35672951 1.12048233 147 139 140
0.44754188 0.36172497 1.09030685 165 164 163
0.46235711 -0.27250457 0.61703545 183 184 184
0.46247753 0.18814485 1.51823676 183 174 172
0.46956972 0.18498357 1.52678657 188 182 181
0.46120593 0.21580338 1.50978136 166 151 148
0.46486473 0.22413414 1.51317155 185 184 184
0.46908504 0.33746100 1.09197106 170 168 164
0.46841250 0.34552558 1.09243486 170 168 161
0.49766846 -0.08247002 0.68354087 94 80 82
0.49957030 -0.07395551 0.68129903 107 84 79
0.48680076 -0.06016172 0.95882863 158 143 144
0.49472650 -0.06693940 0.96587061 162 157 154
0.49060012 -0.05680589 0.95815149 168 155 153
0.49465775 -0.05846889 0.96213682 170 161 158
0.50323964 -0.08214744 0.69295626 102 84 84
0.51355057 -0.08417133 0.71156814 102 85 83
0.51945204 -0.08762925 0.72116154 106 83 83
0.50524165 -0.07457690 0.69354090 108 87 81
0.50617144 -0.07601425 0.70240203 108 89 81
0.51000237 -0.06679075 0.95882863 169 161 156
0.50847979 -0.07108036 0.96587688 167 160 155
0.52299971 -0.09263412 0.72752566 86 81 84
0.52980316 -0.09386507 0.74086541 90 81 81
0.55863941 0.51744312 1.53369200 170 167 166
0.55664901 0.52608491 1.49976075 172 165 163
0.55162719 0.52778379 1.50811297 163 160 158
0.56919299 -0.14303668 0.57834808 178 182 182
0.57153440 -0.14575991 0.58038688 181 182 184
0.56992729 -0.13715879 0.57811288 177 184 186
0.57810020 0.07917331 0.49112463 169 170 173
0.57673425 0.08362110 0.48966465 169 168 171
0.57173857 0.09363767 0.67490631 108 87 76
0.56993872 0.09577657 0.68545524 109 85 75
0.57311236 0.10233770 0.67651529 112 87 71
0.57144371 0.10095942 0.68732753 112 87 73
0.57172853 0.49775043 1.53327094 162 155 152
0.56663685 0.51172996 1.51335960 170 166 161
0.56652308 0.50715408 1.52755539 154 149 149
0.56512600 0.50096184 1.54417276 169 167 164
0.56406884 0.52473433 1.49881480 166 161 158
0.56643552 0.52202350 1.50769566 160 153 150
0.58868332 0.07373117 0.49540830 165 168 172
0.59728825 0.07583331 0.50028920 167 169 174
0.58532889 0.08107410 0.49377137 162 163 167
0.65916175 -0.48147734 1.02866745 42 42 48
0.65440470 -0.46779099 1.02400577 41 40 49
0.65279633 0.05404048 0.80532487 108 85 74
0.65180117 0.07143114 0.79940075 107 85 71
0.65500639 0.06483934 0.80365061 109 85 75
0.65102881 0.17430421 0.73434043 111 84 74
0.65403680 0.16813903 0.74371543 111 86 75
0.65151653 0.18089721 0.73088089 105 84 72
0.67983723 -0.52593738 1.09337389 31 30 37
0.67584383 -0.50230935 1.05755353 38 37 46
0.67880217 -0.50527279 1.06700257 39 39 46
0.67439854 -0.51985520 1.08462691 32 31 38
0.66116834 -0.48026794 1.03179884 42 43 47
0.67023774 -0.48883199 1.05020722 42 42 48
0.66326831 -0.47804449 1.03601082 42 42 47
0.67828019 -0.16465972 1.07887355 86 95 119
0.67972219 -0.16874820 1.08116722 83 89 116
0.67887950 -0.14718232 1.07149029 94 101 127
0.66374761 0.05301537 0.80854843 107 85 72
0.66343105 0.06546443 0.80505639 107 84 73
0.67528150 0.07485998 1.45021219 177 173 172
0.67297876 0.09067542 1.43743299 158 153 153
0.67420772 0.08881508 1.44403450 161 156 155
0.66982883 0.10163846 1.43317942 164 163 161
0.67040293 0.17342571 0.74967687 110 83 75
0.67284645 0.17567145 1.13704801 157 154 149
0.67141184 0.17897975 1.14171314 170 165 161
0.66972154 0.19211968 1.13772102 156 144 143
0.67587854 0.18787081 1.14479033 155 149 145
0.67865902 0.20196214 1.14896917 153 145 144
0.68916438 -0.54369641 1.09489288 32 32 37
0.69298578 -0.54418396 1.10226512 32 31 36
0.69082180 -0.52950405 1.09525160 32 31 39
0.69112685 -0.53113205 1.10364585 33 33 41
0.68317754 -0.50894494 1.07631383 39 38 46
0.68886338 -0.51177108 1.09012681 40 40 48
0.69420952 -0.51552325 1.10497583 43 42 51
0.68219255 -0.49587041 1.07329364 43 43 48
0.68770902 -0.18219546 1.07670307 76 76 105
0.69334136 -0.18226363 1.09339012 75 76 106
0.69593255 -0.18409704 1.10316223 77 77 107
0.69334671 -0.16710279 0.76739587 175 180 181
0.68347735 -0.16738167 1.07491811 83 87 113
0.68877822 -0.16894686 1.08823891 83 86 113
0.69602197 -0.17995414 1.10405838 80 81 112
0.69810688 -0.15734189 0.77799589 178 183 185
0.69868369 -0.15294137 0.78098196 176 177 180
0.68553748 -0.15137073 1.07720646 85 89 117
0.69108595 -0.15441940 1.08696317 87 91 119
0.69483097 0.05294259 1.47394895 179 171 171
0.69645631 0.04911347 1.48011315 173 163 163
0.68777170 0.07666666 1.45540464 165 156 157
0.69435134 0.06939301 1.46884102 167 161 160
0.68693841 0.09664672 1.43875263 155 148 147
0.68884190 0.08960554 1.44549754 147 140 142
0.69652709 0.08021595 1.46412921 138 119 124
0.68575098 0.10291770 1.43834606 149 142 141
0.69503532 0.10243466 1.44437325 153 145 145
0.68504031 0.17784735 1.13867684 150 145 141
0.68609288 0.17920601 1.14315653 170 166 163
0.69564562 0.18737298 1.13602609 149 146 144
0.69018883 0.19050090 1.14641506 152 147 143
0.68988513 0.20240590 1.14855230 153 147 147
0.70799658 -0.52389890 1.13080373 43 43 51
0.71854061 -0.52752584 1.14607596 43 42 50
0.70315530 -0.50704243 1.11131601 43 43 50
0.71293731 -0.51351305 1.12965623 43 42 49
0.71945709 -0.51148019 1.14123201 42 41 50
0.70688352 -0.16412592 0.77066945 183 185 187
0.70365373 -0.16362189 1.09691579 84 89 113
0.71090105 -0.16188401 1.10316080 84 90 114
0.70598827 -0.15567044 0.77824483 176 181 184
0.70908211 -0.15270397 0.78149804 175 177 179
0.70388949 -0.15118134 1.09515417 84 85 113
0.70827579 -0.15728124 1.10266406 87 90 118
0.71094146 0.05433949 1.48950393 166 160 160
0.71664897 0.04868473 1.50642633 168 159 160
0.70630456 0.07191702 1.47279688 167 161 159
0.71057650 0.06396341 1.48431205 170 161 159
0.70146970 0.19652638 1.14869429 160 155 153
0.70268825 0.20130929 1.15092325 158 156 155
0.72307128 -0.54154426 1.16778016 44 44 53
0.72442905 -0.52536813 1.15386683 43 42 50
0.72719076 -0.52872144 1.16609775 42 41 50
0.73748208 -0.52845944 1.18444101 38 38 47
0.72727954 -0.51746312 1.15681207 42 40 50
0.72838810 -0.51767167 1.16176927 40 40 49
0.72299118 -0.15458079 0.78550806 179 180 184
0.73882169 0.01936034 0.81772238 172 176 177
0.73743329 0.02618706 0.81900744 167 168 169
0.73512179 0.02841449 0.82069230 157 158 160
0.73703380 0.30367050 1.34770107 172 171 165
0.73792024 0.36940906 0.78995664 155 148 141
0.73942524 0.37992287 0.80605453 153 143 138
0.73514842 0.39220954 0.80465949 23 21 21
0.74407658 -0.52871820 1.19558471 39 39 48
0.75208741 -0.52719139 1.20991008 39 39 48
0.75825804 -0.53117009 1.22289658 40 39 48
0.75472312 0.01951572 0.82428513 154 155 157
0.74472485 0.02618655 0.81900744 164 165 165
0.75259344 0.02659008 0.82283710 168 170 170
0.75675709 0.29204257 1.35389209 164 162 161
0.75054555 0.31292248 1.35669118 171 168 165
0.75536670 0.30899517 1.36576439 175 174 172
0.75863713 0.32033300 1.35578370 166 160 160
0.74204417 0.37354139 0.79542111 152 143 138
0.74440554 0.37702297 0.80427820 152 143 138
0.74344926 0.38529435 0.80508442 112 100 99
0.76071823 -0.53332114 1.23029375 40 39 48
0.76817091 0.29309244 1.35744470 157 152 151
0.77543784 0.29210075 1.36322155 157 153 151
0.76133150 0.31627884 1.35850072 172 167 168
0.76956829 0.31042849 1.36482416 159 154 154
0.76250553 0.32097495 1.35850072 165 159 159
0.76662254 0.32703046 1.36415673 162 159 155
0.78208204 0.29176074 1.37017152 163 155 153
0.78465644 0.31392338 1.37260357 154 147 146
0.78672246 0.32194451 1.37265156 158 152 154
0.81555262 -0.72112244 1.56376642 33 32 41
0.81628366 -0.52362730 1.04237656 189 189 187
0.81336588 -0.51606761 1.03865073 191 192 193
0.81842232 -0.51418162 1.04271093 193 195 196
0.82786590 -0.74345572 1.59133479 31 29 38
0.83037945 -0.74402432 1.60639683 32 31 40
0.82259740 -0.72479039 1.57466802 34 33 42
0.82986251 -0.72732603 1.59217025 34 33 42
0.83276380 -0.72971902 1.60877942 34 33 42
0.83146300 -0.71639957 1.59692276 33 32 41
0.83590342 -0.71326660 1.60327163 34 33 41
0.82853850 -0.52589147 1.04748906 191 193 194
0.82398401 -0.50505111 1.03875704 193 200 197
0.82696740 -0.51061475 1.04572427 195 200 199
0.83258772 -0.49474810 1.04718736 191 196 198
0.85023163 -0.72457591 1.60919698 35 34 42
0.84697529 -0.71436316 1.60978258 35 34 43
0.84832420 0.69520608 1.72888603 170 167 161
0.85024070 0.70867949 1.72933033 174 169 164
0.85625383 0.73097172 1.73374398 178 173 169
0.85538735 0.74358934 1.73685058 174 173 165
0.86334932 -0.72790194 1.61788034 36 36 45
0.87017674 -0.72488358 1.62890895 39 37 46
0.86430658 -0.71428953 1.60924956 38 38 47
0.86886176 0.69798446 1.73754915 173 166 161
0.87571491 0.69712928 1.74265254 188 181 179
0.86900249 0.70885493 1.73725808 175 169 163
0.87722093 0.71394648 1.74265254 174 172 165
0.86835445 0.72220692 1.73596150 181 177 171
0.87646723 0.72762662 1.74414965 167 163 160
1.01771457 -0.08421755 1.26270737 114 113 112
1.01750641 -0.07746202 1.26237192 96 90 88
1.02777541 -0.10273008 1.25651979 152 152 153
1.03256035 -0.10102634 1.26236844 157 156 156
1.03134321 -0.08882343 1.26600591 150 153 153
1.03083896 -0.07514588 1.26750889 133 134 132
1.03270959 -0.02771789 0.89742424 168 170 175
1.03165679 -0.03147982 0.90340486 172 177 181
1.02838272 -0.01701638 0.89500494 158 159 164
1.04874944 -0.08487131 1.27142812 161 162 163
1.05521253 -0.08939172 1.28328162 171 173 174
1.04676875 -0.07509566 1.27261115 154 155 155
1.05541346 -0.06697847 1.28731163 155 156 156
1.04372110 -0.02974552 0.89779165 168 168 171
1.04916179 -0.02992656 0.90260098 169 170 174
1.04212040 -0.01598130 0.89757465 160 164 166
1.05270135 -0.01841298 0.90265226 165 166 168
1.05787408 0.37599453 1.05755353 108 93 82
1.07189247 0.37619693 1.07562899 116 93 82
1.07463290 0.37711871 1.08638028 116 88 81
1.06927246 0.38080870 1.07545487 112 89 78
1.07682312 0.38158689 1.08116722 113 89 79
1.08396485 0.35859773 1.07389665 123 105 92
1.08446484 0.37082897 1.07714425 122 100 89
1.09095137 0.37188559 1.08966827 120 95 83
1.09789503 0.37301142 1.10136849 116 92 80
1.08568225 0.38145224 1.08987291 117 91 80
1.09700310 0.38174367 1.10047376 120 95 81
1.10237181 0.37405495 1.10585940 117 97 81
1.10237181 0.38170052 1.10585940 121 97 81
1.25876343 -0.40476680 1.15189862 173 174 177
1.25264970 -0.01287191 1.73031877 113 91 80
1.25846624 -0.01299108 1.74714386 113 92 82
1.26870370 -0.40295415 1.15372836 180 183 185
1.26972944 -0.39710420 1.15567535 171 175 177
1.26102555 -0.00691583 1.73818421 110 94 75
1.26498687 -0.01002294 1.75619650 111 91 78
1.27851248 -0.01630503 1.77924371 114 92 84
1.27343011 0.01770895 1.79812157 120 98 83
1.27006125 0.02231163 1.79336464 121 98 83
1.27700377 0.02402827 1.80610903 121 97 84
1.28673953 -0.40279296 1.15624201 180 181 182
1.29253840 -0.40186653 1.16077375 177 178 180
1.28706045 -0.39750141 1.15780079 179 179 180
1.29103369 -0.39835548 1.16077375 178 178 179
1.28356808 -0.01173632 1.78627938 111 91 79
1.29741150 -0.01032535 1.80772448 111 93 77
1.29179806 0.01789886 1.81740439 118 96 81
1.29594392 0.01329830 1.83215350 120 97 82
1.29296705 0.02488808 1.81134316 113 93 80
1.29701163 0.02481111 1.82475026 115 94 80
1.29601020 0.04285648 1.81012833 121 96 88
1.30279243 -0.01037227 1.81740439 110 91 78
1.31691480 -0.00730942 1.83710527 116 99 78
1.30593359 0.01475762 1.81740439 118 91 80
1.31041789 0.01626953 1.83050288 116 92 78
1.31370815 0.00862076 1.85049963 119 95 80
1.31750309 0.01030611 1.86490542 120 96 82
1.30465176 0.03198298 1.81416915 117 96 82
1.31109912 0.02985452 1.82844465 114 94 79
1.31531885 0.03255608 1.84712359 113 93 80
1.31412554 0.04042946 1.84209740 113 92 83
1.33455682 -0.00417944 1.85723794 112 96 77
1.33845258 -0.00258724 1.86490542 109 96 78
1.33134675 0.00866091 1.85723794 119 95 76
1.33069856 0.00456311 1.87116769 118 94 81
1.33193696 0.00878120 1.88303292 123 97 85
1.32009006 0.03714461 1.83710527 120 98 81
1.32288706 0.03199526 1.84545279 115 94 78
1.32656459 0.03446460 1.86405035 114 94 80
1.32171643 0.04076176 1.85723794 117 95 86
1.34238005 -0.00097738 1.87262940 106 96 78
1.34658301 -0.00261015 1.88303292 109 94 76
1.34226310 0.00468753 1.87134686 111 95 76
1.34332836 0.00389919 1.88303292 115 94 78
1.63619812 0.61537540 1.49013019 156 157 158
1.63475430 0.62233732 1.48727274 151 155 155
1.65096415 0.61321462 1.48766691 144 144 146
1.65675601 0.61538351 1.50896505 152 152 154
1.64762114 0.62618464 1.48999876 141 144 147
1.65484278 0.62689548 1.51315444 151 153 152
1.66252840 0.60880926 1.48497844 142 143 144
1.66344672 0.61379479 1.51148525 149 148 153
1.67162826 0.63320106 1.53092234 149 150 150
