ply
format ascii 1.0
element vertex 1064
property float x
property float y
property float z
property uchar red
property uchar green
property uchar blue
end_header
0.61498684 0.18051168 0.61907929 124 133 137
0.60992968 0.17871636 0.61292207 128 136 142
0.60714638 0.17759237 0.60906726 133 141 147
0.60547906 0.17679812 0.60634333 131 141 144
0.60328943 0.17585436 0.60310662 130 141 143
0.60540909 0.17616783 0.60418171 129 140 142
0.60699433 0.17632498 0.60472065 130 140 143
0.60912633 0.17664012 0.60580146 131 141 144
1.09895754 0.28358722 0.97258514 146 157 155
1.09279919 0.28156736 0.96565789 146 157 155
1.08519316 0.27918121 0.95747435 147 158 156
1.08684802 0.27918121 0.95747435 147 158 156
1.09004259 0.27957609 0.95882863 148 159 157
1.08862031 0.27878743 0.95612389 148 159 157
1.09027290 0.27878743 0.95612389 150 160 158
1.09346771 0.27918121 0.95747435 151 160 159
1.09822500 0.27997211 0.96018672 151 160 159
1.10144472 0.28036922 0.96154869 148 157 154
1.09843254 0.27918121 0.95747435 143 152 150
1.09698856 0.27839479 0.95477724 141 149 147
0.02653091 0.13344428 0.45496097 155 159 158
0.02724414 0.13308699 0.45374286 156 160 159
0.02800965 0.13299797 0.45343935 159 160 158
0.02865919 0.13237815 0.45132613 160 161 158
1.11506426 0.45189086 1.54066324 124 126 127
1.11772716 0.45189086 1.54066324 125 127 128
1.12294221 0.45292023 1.54417276 127 128 131
1.12561119 0.45292023 1.54417276 129 131 133
1.12316322 0.45086616 1.53716969 132 135 135
1.12327302 0.44984612 1.53369200 135 139 138
1.12592387 0.44984612 1.53369200 139 144 143
1.13113391 0.45086616 1.53716969 144 150 148
1.12359941 0.44681343 1.52335250 148 154 152
1.11124921 0.44086912 1.50308609 152 158 156
0.60660136 0.17848472 0.60852051 138 147 149
0.60439789 0.17752856 0.60526055 138 147 149
0.60221785 0.17658257 0.60203540 138 147 148
0.60433185 0.17689678 0.60310662 136 145 146
0.60537428 0.17689678 0.60310662 139 147 147
0.60641670 0.17689678 0.60310662 140 148 149
1.09435821 0.28364047 0.96703541 148 157 156
1.08672810 0.28123334 0.95882863 147 156 155
1.08838534 0.28123334 0.95882863 148 157 155
1.09004259 0.28123334 0.95882863 149 158 157
1.08708704 0.28004503 0.95477724 149 158 157
1.09027290 0.28044003 0.95612389 150 159 158
1.09843254 0.28083614 0.95747435 146 155 152
1.09698856 0.28004503 0.95477724 143 152 149
0.02742772 0.13477336 0.45680043 156 157 157
0.02802840 0.13387126 0.45374286 157 158 156
0.02867828 0.13324694 0.45162681 157 157 154
1.11253583 0.45352304 1.53716969 118 122 123
1.11772716 0.45455378 1.54066324 113 117 119
1.12039006 0.45455378 1.54066324 115 119 122
1.12305307 0.45455378 1.54066324 118 122 125
1.12062216 0.45249698 1.53369200 124 128 130
1.11821330 0.45045871 1.52678347 131 135 136
1.11833346 0.44944644 1.52335250 137 142 142
1.12096643 0.44944644 1.52335250 144 150 148
1.11857212 0.44743547 1.51653659 152 159 156
0.60385871 0.17841540 0.60472065 138 149 150
0.60221785 0.17762314 0.60203540 140 149 150
0.60433185 0.17793921 0.60310662 140 149 150
0.60537428 0.17793921 0.60310662 144 152 152
0.60695666 0.17809765 0.60364366 152 157 156
1.09592152 0.28571951 0.96841693 150 159 154
0.02748328 0.13583751 0.45772576 154 155 155
0.02800965 0.13456544 0.45343935 154 155 153
0.02867828 0.13402754 0.45162681 154 154 151
0.02936108 0.13358256 0.45012739 154 154 150
0.15407307 0.15865563 0.53461504 170 173 172
1.11772716 0.45721668 1.54066324 109 112 114
1.12294221 0.45825818 1.54417276 107 110 113
1.12305307 0.45721668 1.54066324 109 113 116
1.12062216 0.45514783 1.53369200 118 122 124
1.11570048 0.45207942 1.52335250 128 132 134
0.60602117 0.18010326 0.60688615 140 152 150
0.60382664 0.17914100 0.60364366 145 155 152
0.60540909 0.17930067 0.60418171 146 155 152
0.60699433 0.17946061 0.60472065 148 156 154
0.61021698 0.18010326 0.60688615 155 159 158
0.60962862 0.17962085 0.60526055 154 158 157
0.60796064 0.17882253 0.60257053 150 154 154
0.02748328 0.13662864 0.45772576 142 143 143
0.02800965 0.13534918 0.45343935 142 142 140
0.02865919 0.13471839 0.45132613 140 140 139
0.15363368 0.16008466 0.53630686 170 174 174
0.15407307 0.15957966 0.53461504 170 174 174
0.15610512 0.16072044 0.53843671 163 164 162
0.15771586 0.16046552 0.53758276 139 140 140
1.12294221 0.46092716 1.54417276 110 112 115
1.12305307 0.45987961 1.54066324 111 114 116
0.60710818 0.18147714 0.60797477 143 155 150
0.60598511 0.18082844 0.60580146 147 157 152
0.60703218 0.18082844 0.60580146 150 159 154
0.60862315 0.18099017 0.60634333 151 159 155
0.61186028 0.18164006 0.60852051 153 159 156
0.61181366 0.18131454 0.60742998 153 157 155
0.61067474 0.18066698 0.60526055 149 154 152
0.02748328 0.13741979 0.45772576 130 131 131
0.02800965 0.13613291 0.45343935 130 131 131
0.02864012 0.13540831 0.45102584 131 131 131
0.15331317 0.16165107 0.53843671 167 171 171
0.15363368 0.16101164 0.53630686 167 170 170
0.15407307 0.16050372 0.53461504 168 169 170
0.15635349 0.16190828 0.53929341 163 164 162
0.15753627 0.16216630 0.54015285 158 159 158
0.15796641 0.16165107 0.53843671 135 135 137
0.16008198 0.16190828 0.53929341 130 130 133
0.16168898 0.16165107 0.53843671 114 114 123
0.16287836 0.16190828 0.53929341 94 94 103
0.16436712 0.16063039 0.53503698 92 100 109
0.16438369 0.15974781 0.53209722 97 108 113
0.44965813 0.13613291 0.45343935 134 143 140
0.44953978 0.13586028 0.45253128 144 153 150
0.45002151 0.13576965 0.45222938 147 157 152
0.44900593 0.13522838 0.45042646 147 157 150
0.02800965 0.13691665 0.45343935 125 128 128
0.02862108 0.13609733 0.45072597 125 128 128
0.23977512 0.34693286 1.14896917 111 111 119
0.24094427 0.34576079 1.14508760 110 113 121
0.15331317 0.16258173 0.53843671 163 164 162
0.15363368 0.16193859 0.53630686 162 163 162
0.15383044 0.16117354 0.53377312 166 167 165
0.15585752 0.16232386 0.53758276 157 158 158
0.15741085 0.16297005 0.53972280 149 150 150
0.15784103 0.16245268 0.53800941 134 134 136
0.15914987 0.16284040 0.53929341 127 127 130
0.15970084 0.16245268 0.53800941 123 123 127
0.16050336 0.16232386 0.53758276 112 112 121
0.16092207 0.16181058 0.53588289 99 98 112
0.16249056 0.16245268 0.53800941 90 88 107
0.16355027 0.16258173 0.53843671 87 88 106
0.16474262 0.16284040 0.53929341 84 89 103
0.16449696 0.16168277 0.53545958 83 97 103
0.16451283 0.16079371 0.53251517 89 104 108
0.16530338 0.16066749 0.53209722 94 109 113
0.44965813 0.13691665 0.45343935 130 138 136
0.44953978 0.13664244 0.45253128 138 147 144
0.44972152 0.13646026 0.45192790 143 152 149
0.44870779 0.13591659 0.45012739 146 155 151
0.02858307 0.13669460 0.45012739 119 123 124
0.23977512 0.34891877 1.14896917 120 123 128
0.24135195 0.34832838 1.14702511 116 123 128
0.15331317 0.16351236 0.53843671 159 160 160
0.15363368 0.16286556 0.53630686 157 158 158
0.15383044 0.16209611 0.53377312 156 157 157
0.15561071 0.16299450 0.53673148 151 152 152
0.15716058 0.16364235 0.53886473 144 145 145
0.15759088 0.16312367 0.53715676 132 133 135
0.15864502 0.16325302 0.53758276 113 113 118
0.15919545 0.16286556 0.53630686 113 113 120
0.15986946 0.16260827 0.53545958 109 110 120
0.16054134 0.16235179 0.53461504 100 102 114
0.16223304 0.16312367 0.53715676 83 85 103
0.16355027 0.16351236 0.53843671 82 84 103
0.16461165 0.16364235 0.53886473 85 88 106
0.16475724 0.16286556 0.53630686 81 93 100
0.16490144 0.16209611 0.53377312 91 103 108
0.16556330 0.16184124 0.53293383 94 105 110
0.43946913 0.13696744 0.45102584 130 134 131
0.44406462 0.13742460 0.45253128 132 135 134
0.44592664 0.13751641 0.45283356 133 137 135
0.44965813 0.13770038 0.45343935 125 134 133
0.44953978 0.13742460 0.45253128 134 143 142
0.44942188 0.13714994 0.45162681 140 149 148
0.24018221 0.35150042 1.15091991 129 131 133
0.24176101 0.35090464 1.14896917 124 133 134
0.24481414 0.34679019 1.13549721 125 134 133
0.15331317 0.16444300 0.53843671 156 157 157
0.15326990 0.16340469 0.53503698 148 149 149
0.15358856 0.16276237 0.53293383 143 144 144
0.15524197 0.16353376 0.53545958 143 144 144
0.15703575 0.16444300 0.53843671 141 141 141
0.15746611 0.16392221 0.53673148 136 136 138
0.15839380 0.16392221 0.53673148 131 131 135
0.15881851 0.16340469 0.53503698 132 132 139
0.15961730 0.16327582 0.53461504 126 131 138
0.16041483 0.16314717 0.53419375 118 124 131
0.16249056 0.16431250 0.53800941 104 114 121
0.16381049 0.16470465 0.53929341 96 104 115
0.16487378 0.16483578 0.53972280 102 109 122
0.16514920 0.16418220 0.53758276 91 100 106
0.16516154 0.16327582 0.53461504 104 113 118
0.16582403 0.16301870 0.53377312 106 113 117
0.16674660 0.16301870 0.53377312 102 113 118
0.16740556 0.16276237 0.53293383 100 111 116
0.85630172 0.27827117 0.91114497 134 138 139
0.85672504 0.27789766 0.90992194 132 136 137
0.87435311 0.28206232 0.92355835 148 152 151
0.87356913 0.28129587 0.92104870 149 155 153
0.87043047 0.27977532 0.91607004 150 156 154
0.86966336 0.27902123 0.91360086 144 150 149
0.44005468 0.13793054 0.45162681 132 134 132
0.44230866 0.13839154 0.45313627 132 134 131
0.44338825 0.13848411 0.45343935 131 134 130
0.44387507 0.13839154 0.45313627 135 138 133
0.44406462 0.13820678 0.45253128 139 142 138
0.44514394 0.13829909 0.45283356 144 147 144
0.44592664 0.13829909 0.45283356 139 142 139
0.44611332 0.13811457 0.45222938 134 138 135
0.44857433 0.13839154 0.45313627 126 132 128
0.44935754 0.13839154 0.45313627 124 132 129
0.44923988 0.13811457 0.45222938 124 133 132
0.44912267 0.13783871 0.45132613 126 135 134
0.24059068 0.35409087 1.15287733 135 136 137
0.24217148 0.35348970 1.15091991 129 134 134
0.24374692 0.35289055 1.14896917 129 136 135
0.24407806 0.35051420 1.14123201 130 139 137
0.24563704 0.34992510 1.13931406 134 140 138
0.15282762 0.16484991 0.53673148 148 148 148
0.15290785 0.16394128 0.53377312 140 140 140
0.15346791 0.16355494 0.53251517 139 139 139
0.15463126 0.16381229 0.53335315 139 139 139
0.15629092 0.16458927 0.53588289 137 137 137
0.15684518 0.16419986 0.53461504 140 140 142
0.15776923 0.16419986 0.53461504 145 147 149
0.15844335 0.16394128 0.53377312 145 152 154
0.15924054 0.16381229 0.53335315 143 151 153
0.16016240 0.16381229 0.53335315 142 151 153
0.16249056 0.16524240 0.53800941 132 144 148
0.16381049 0.16563678 0.53929341 132 142 145
0.16487378 0.16576865 0.53972280 132 141 143
0.16514920 0.16511136 0.53758276 132 139 141
0.16542245 0.16445926 0.53545958 129 135 137
0.16608557 0.16419986 0.53461504 123 128 130
0.16687800 0.16407047 0.53419375 114 122 125
0.16753727 0.16381229 0.53335315 110 118 122
0.86519289 0.28327268 0.92230183 130 134 136
0.85630172 0.27984601 0.91114497 132 136 137
0.85787654 0.27984601 0.91114497 135 139 140
0.86060810 0.28022265 0.91237128 137 144 142
0.87156940 0.28327268 0.92230183 140 149 146
0.87316352 0.28327268 0.92230183 146 154 151
0.87238383 0.28250396 0.91979897 150 158 155
0.87160832 0.28173941 0.91730964 151 159 156
0.87201381 0.28135869 0.91607004 148 156 153
0.87477928 0.28173941 0.91730964 135 144 142
0.87755227 0.28212118 0.91855264 130 139 137
0.87913996 0.28212118 0.91855264 130 138 136
0.87597972 0.28060031 0.91360086 136 142 141
0.87168491 0.27872214 0.90748572 138 144 143
0.43761882 0.13843445 0.45072597 144 146 143
0.43898162 0.13861880 0.45132613 146 148 143
0.44034806 0.13880362 0.45192790 146 147 142
0.44260451 0.13926785 0.45343935 144 146 141
0.44338825 0.13926785 0.45343935 142 144 138
0.44387507 0.13917474 0.45313627 143 145 139
0.44376838 0.13889621 0.45222938 146 148 142
0.44455004 0.13889621 0.45222938 151 152 148
0.44562894 0.13898894 0.45253128 146 147 143
0.44551888 0.13871114 0.45162681 138 140 136
0.44689494 0.13889621 0.45222938 128 133 128
0.44797546 0.13898894 0.45253128 117 123 117
0.44905737 0.13908178 0.45283356 109 120 115
0.44864130 0.13871114 0.45162681 106 124 122
0.44822741 0.13834248 0.45042646 112 128 126
0.24100055 0.35669014 1.15484130 137 138 137
0.24258333 0.35608351 1.15287733 134 137 136
0.24688183 0.35367754 1.14508760 135 140 138
0.25055397 0.35608351 1.15287733 136 140 139
0.25340855 0.35729882 1.15681207 137 139 140
0.25540799 0.35729882 1.15681207 137 137 141
0.25696895 0.35669014 1.15484130 137 137 142
0.15266743 0.16460465 0.53293383 135 135 135
0.15334745 0.16434623 0.53209722 134 134 134
0.16355027 0.16630429 0.53843671 148 156 154
0.16474262 0.16656891 0.53929341 149 155 154
0.16488768 0.16577759 0.53673148 147 151 150
0.16503139 0.16499378 0.53419375 140 144 143
0.16582403 0.16486387 0.53377312 130 134 134
0.16674660 0.16486387 0.53377312 128 135 135
0.16727406 0.16447534 0.53251517 128 137 136
0.86951381 0.28681797 0.92861897 119 124 126
0.86637163 0.28525493 0.92355835 122 127 129
0.85860980 0.28217939 0.91360086 128 132 133
0.86018884 0.28217939 0.91360086 137 141 142
0.86409706 0.28294203 0.91607004 140 146 146
0.87275684 0.28525493 0.92355835 138 147 146
0.87316352 0.28486681 0.92230183 140 149 147
0.87238383 0.28409377 0.91979897 145 154 151
0.87160832 0.28332490 0.91730964 148 157 154
0.87083703 0.28256020 0.91483378 148 157 154
0.87477928 0.28332490 0.91730964 140 147 145
0.87636483 0.28332490 0.91730964 137 144 142
0.87676388 0.28294203 0.91607004 139 146 144
0.87597972 0.28217939 0.91360086 142 146 145
0.87285340 0.28066638 0.90870219 142 146 145
0.86285758 0.27695385 0.89668232 141 144 142
0.43713042 0.13930613 0.45102584 141 143 137
0.43790999 0.13930613 0.45102584 143 145 138
0.43927407 0.13949175 0.45162681 145 147 140
0.44064182 0.13967785 0.45222938 147 149 142
0.44260451 0.14005157 0.45343935 150 152 145
0.44309187 0.13995796 0.45313627 150 152 146
0.44387507 0.13995796 0.45313627 150 151 147
0.44376838 0.13967785 0.45222938 152 153 149
0.44425365 0.13958474 0.45192790 155 156 152
0.44533166 0.13967785 0.45222938 149 150 146
0.44522226 0.13939887 0.45132613 137 138 134
0.44600236 0.13939887 0.45132613 127 128 126
0.44737813 0.13958474 0.45192790 117 118 116
0.44845822 0.13967785 0.45222938 110 113 111
0.44834259 0.13939887 0.45132613 111 123 120
0.24100055 0.35868618 1.15484130 142 143 139
0.24258333 0.35807618 1.15287733 136 137 136
0.24416076 0.35746825 1.15091991 134 135 134
0.24490264 0.35565674 1.14508760 135 136 136
0.24729957 0.35625854 1.14702511 136 139 138
0.25098079 0.35868618 1.15484130 137 140 140
0.25384173 0.35991246 1.15878952 141 141 142
0.25584459 0.35991246 1.15878952 148 148 150
0.25784746 0.35991246 1.15878952 155 155 157
0.25940692 0.35929829 1.15681207 154 154 155
0.16342047 0.16710222 0.53800941 151 157 155
0.16448091 0.16723494 0.53843671 150 155 154
0.16475724 0.16657341 0.53630686 150 155 154
0.16503139 0.16591710 0.53419375 150 154 153
0.16582403 0.16578645 0.53377312 142 146 147
0.16661541 0.16565602 0.53335315 139 144 145
0.16714275 0.16526593 0.53209722 140 146 146
0.86832434 0.28802845 0.92734861 115 121 123
0.86519289 0.28646094 0.92230183 120 126 128
0.85976851 0.28414142 0.91483378 134 137 139
0.86134970 0.28414142 0.91483378 138 142 143
0.86409706 0.28452539 0.91607004 139 143 144
0.87038517 0.28607172 0.92104870 140 144 145
0.87197715 0.28607172 0.92104870 140 145 145
0.87002283 0.28491041 0.91730964 140 145 145
0.87043047 0.28452539 0.91607004 141 147 145
0.87083703 0.28414142 0.91483378 141 147 145
0.87477928 0.28491041 0.91730964 140 145 144
0.87518054 0.28452539 0.91607004 139 143 142
0.87676388 0.28452539 0.91607004 144 148 147
0.87597972 0.28375849 0.91360086 143 145 145
0.87519979 0.28299570 0.91114497 141 142 142
0.87208599 0.28148234 0.90627253 138 139 139
0.86440742 0.27850369 0.89668232 135 136 135
0.43761882 0.13999255 0.45072597 138 140 137
0.43927407 0.14027235 0.45162681 139 141 137
0.44064182 0.14045951 0.45222938 139 143 137
0.44230866 0.14074117 0.45313627 144 147 141
0.44279590 0.14064716 0.45283356 147 150 145
0.44357857 0.14064716 0.45283356 150 151 147
0.44347253 0.14036585 0.45192790 152 153 149
0.44336691 0.14008568 0.45102584 152 153 149
0.44444218 0.14017895 0.45132613 146 147 143
0.44433478 0.13989952 0.45042646 129 130 126
0.44511330 0.13989952 0.45042646 126 127 126
0.44678244 0.14017895 0.45132613 128 129 129
0.44786069 0.14027235 0.45162681 135 136 136
0.44774640 0.13999255 0.45072597 137 144 142
0.24258333 0.36006883 1.15287733 132 132 130
0.24416076 0.35945752 1.15091991 130 130 129
0.24490264 0.35763595 1.14508760 130 131 131
0.24771872 0.35884824 1.14896917 134 135 136
0.25140908 0.36129773 1.15681207 138 139 141
0.25427639 0.36253506 1.16077375 139 140 142
0.25628269 0.36253506 1.16077375 142 143 144
0.25828898 0.36253506 1.16077375 148 148 150
0.25985035 0.36191535 1.15878952 147 147 147
0.16488768 0.16763300 0.53673148 149 153 153
0.16529189 0.16710377 0.53503698 145 149 150
0.16595469 0.16684040 0.53419375 143 147 148
0.16674660 0.16670904 0.53377312 142 146 147
0.16714275 0.16618562 0.53209722 141 147 147
0.16688351 0.16501985 0.52836466 141 147 147
0.86951381 0.29002804 0.92861897 123 129 131
0.86755359 0.28884104 0.92481834 113 119 121
0.86209536 0.28649589 0.91730964 126 129 131
0.86485112 0.28688410 0.91855264 135 136 138
0.86879325 0.28766370 0.92104870 138 139 141
0.87514138 0.28923562 0.92608178 142 143 145
0.87554598 0.28884104 0.92481834 140 142 144
0.87356913 0.28766370 0.92104870 138 139 141
0.87160832 0.28649589 0.91730964 136 138 138
0.87083703 0.28572264 0.91483378 133 135 135
0.87715322 0.28727338 0.91979897 133 135 135
0.87755227 0.28688410 0.91855264 133 135 135
0.87795031 0.28649589 0.91730964 133 136 135
0.87834722 0.28610873 0.91607004 133 135 135
0.87637770 0.28495353 0.91237128 132 133 133
0.87677461 0.28457052 0.91114497 133 134 134
0.87248600 0.28267086 0.90506256 130 131 131
0.43703768 0.14058465 0.45012739 131 132 131
0.43868956 0.14086525 0.45102584 132 133 132
0.44005468 0.14105295 0.45162681 136 139 136
0.44171813 0.14133543 0.45253128 139 143 139
0.44220510 0.14124115 0.45222938 144 147 143
0.44298676 0.14124115 0.45222938 151 152 148
0.44288203 0.14095904 0.45132613 149 150 146
0.44248372 0.14058465 0.45012739 146 147 144
0.44326174 0.14058465 0.45012739 142 143 141
0.44696736 0.14077160 0.45072597 150 151 151
0.44715178 0.14058465 0.45012739 153 156 157
0.62280971 0.16198964 0.51866245 97 106 107
0.62591672 0.16186580 0.51826596 91 100 101
0.24100055 0.36267829 1.15484130 124 124 123
0.24258333 0.36206147 1.15287733 123 123 124
0.24416076 0.36144677 1.15091991 121 121 123
0.24448965 0.35900870 1.14315653 120 124 125
0.24771872 0.36083415 1.14896917 126 130 131
0.25098079 0.36267829 1.15484130 134 138 139
0.25427639 0.36454135 1.16077375 136 140 141
0.25672227 0.36516663 1.16276479 137 140 141
0.25828898 0.36454135 1.16077375 138 139 141
0.25985035 0.36391822 1.15878952 139 139 143
0.87190259 0.29243428 0.93117011 150 157 156
0.86992717 0.29123414 0.92734861 132 139 138
0.87354076 0.29083627 0.92608178 123 124 126
0.87874281 0.29203314 0.92989278 128 129 131
0.87914407 0.29163310 0.92861897 129 130 132
0.87714446 0.29043949 0.92481834 127 128 130
0.87397361 0.28886315 0.91979897 127 128 129
0.87201381 0.28769210 0.91607004 126 127 128
0.87954003 0.28964919 0.92230183 126 127 128
0.87993693 0.28925565 0.92104870 129 130 130
0.87913996 0.28847176 0.91855264 129 130 130
0.87953579 0.28808141 0.91730964 129 130 130
0.87755883 0.28691664 0.91360086 129 130 130
0.87677461 0.28614536 0.91114497 128 129 129
0.43732804 0.14145657 0.45042646 130 131 132
0.43898162 0.14173912 0.45132613 129 130 132
0.44034806 0.14192811 0.45192790 134 137 135
0.44171813 0.14211759 0.45253128 137 141 138
0.44220510 0.14202279 0.45222938 139 143 140
0.44269142 0.14192811 0.45192790 146 148 145
0.44258738 0.14164481 0.45102584 145 146 143
0.44248372 0.14136265 0.45012739 140 141 138
0.44326174 0.14136265 0.45012739 136 137 135
0.44637376 0.14136265 0.45012739 146 147 149
0.62059516 0.16301084 0.51905960 144 149 150
0.62149233 0.16301084 0.51905960 135 139 140
0.62191325 0.16288611 0.51866245 124 128 129
0.62233359 0.16276158 0.51826596 116 121 122
0.62322932 0.16276158 0.51826596 119 124 125
0.62364835 0.16263725 0.51787001 111 119 120
0.62502092 0.16276158 0.51826596 107 116 117
0.62591672 0.16276158 0.51826596 105 114 115
0.16332319 0.58808744 1.86234021 135 139 139
0.08140330 0.21955265 0.69527370 103 104 109
0.08226752 0.21865560 0.69243294 100 104 110
0.24100055 0.36467433 1.15484130 102 102 104
0.24258333 0.36405414 1.15287733 108 109 112
0.24374692 0.36282006 1.14896917 114 115 120
0.24448965 0.36098453 1.14315653 122 126 130
0.24813929 0.36343604 1.15091991 129 133 135
0.25098079 0.36467433 1.15484130 134 138 139
0.25427639 0.36654767 1.16077375 136 140 141
0.25716338 0.36780727 1.16476262 136 140 141
0.25873202 0.36717638 1.16276479 136 140 141
0.26029530 0.36654767 1.16077375 137 139 143
0.21996662 0.16763026 0.53084719 145 146 148
0.21967995 0.16671638 0.52795315 146 148 150
0.21990740 0.16619863 0.52631354 147 148 150
0.22047475 0.16594096 0.52549756 147 148 150
0.22229131 0.16594096 0.52549756 146 147 149
0.87310195 0.29444820 0.93245095 156 166 161
0.86992717 0.29283699 0.92734861 144 153 149
0.88035005 0.29364038 0.92989278 121 124 127
0.87834269 0.29243693 0.92608178 120 123 126
0.87516105 0.29084760 0.92104870 120 124 126
0.87319380 0.28966689 0.91730964 122 125 128
0.87954003 0.29124331 0.92230183 125 127 130
0.88233459 0.29164010 0.92355835 127 130 131
0.88152891 0.29084760 0.92104870 130 132 132
0.88192260 0.29045296 0.91979897 131 133 134
0.87874311 0.28888506 0.91483378 131 133 134
0.87913787 0.28849572 0.91360086 130 132 134
0.87953162 0.28810745 0.91237128 129 130 132
0.43927407 0.14261414 0.45162681 132 133 133
0.44064182 0.14280443 0.45222938 134 137 136
0.44171813 0.14289975 0.45253128 134 139 137
0.44220510 0.14280443 0.45222938 131 136 134
0.44269142 0.14270923 0.45192790 132 138 135
0.44229308 0.14232968 0.45072597 131 137 134
0.62112480 0.16428536 0.52025467 152 156 157
0.62059516 0.16390799 0.51905960 152 156 157
0.62101680 0.16378258 0.51866245 145 149 150
0.62191325 0.16378258 0.51866245 138 142 143
0.62280971 0.16378258 0.51866245 134 138 139
0.62322932 0.16365737 0.51826596 133 137 138
0.62412512 0.16365737 0.51826596 128 135 135
0.62549913 0.16378258 0.51866245 121 130 130
0.62639558 0.16378258 0.51866245 116 125 125
0.15241034 0.58647281 1.84711671 132 134 136
0.15475957 0.58329409 1.83710527 134 136 138
0.16054535 0.59293532 1.86747062 137 137 137
0.16154794 0.58487910 1.84209740 139 139 138
0.16208909 0.57549602 1.81254506 150 151 149
0.16390717 0.57091647 1.79812157 153 153 149
0.08165455 0.22143571 0.69741958 97 97 107
0.08252039 0.22052819 0.69456130 93 97 105
0.08389279 0.22098102 0.69598752 92 98 104
0.08768172 0.22143571 0.69741958 122 130 132
0.08843225 0.22030248 0.69385040 130 138 139
0.24100055 0.36667037 1.15484130 101 101 106
0.24258333 0.36604679 1.15287733 106 106 112
0.24374692 0.36480597 1.14896917 113 116 124
0.24407806 0.36234936 1.14123201 125 128 136
0.24813929 0.36542532 1.15091991 132 136 142
0.25098079 0.36667037 1.15484130 136 140 142
0.25760600 0.37045699 1.16676736 135 139 142
0.21950899 0.16749845 0.52754229 145 151 150
0.21990740 0.16710831 0.52631354 144 150 150
0.22047475 0.16684924 0.52549756 141 146 146
0.22138302 0.16684924 0.52549756 142 143 145
0.22211912 0.16672000 0.52509052 138 139 141
0.87310195 0.29605985 0.93245095 160 169 162
0.87111890 0.29484317 0.92861897 153 162 155
0.87954426 0.29443982 0.92734861 126 130 133
0.87754571 0.29323640 0.92355835 125 130 132
0.87556338 0.29204276 0.91979897 125 130 132
0.88073832 0.29323640 0.92355835 126 131 133
0.88353831 0.29363644 0.92481834 127 132 134
0.88272828 0.29283744 0.92230183 129 133 135
0.88312083 0.29243955 0.92104870 132 137 138
0.87993062 0.29085881 0.91607004 132 137 138
0.87913787 0.29007483 0.91360086 131 136 136
0.44034806 0.14349034 0.45192790 130 131 131
0.44191030 0.14349034 0.45192790 123 128 127
0.44210196 0.14329928 0.45132613 119 125 124
0.61776966 0.19081163 0.60096794 141 150 147
0.61826032 0.19064263 0.60043561 135 141 140
0.61820298 0.19030550 0.59937388 130 136 135
0.62160182 0.16531146 0.52065426 149 157 156
0.62286639 0.16493143 0.51945734 146 154 153
0.62328660 0.16480514 0.51905960 143 151 149
0.62418377 0.16480514 0.51905960 138 146 144
0.62508094 0.16480514 0.51905960 134 142 141
0.62687522 0.16480514 0.51905960 129 138 137
0.14642490 0.57862890 1.81254506 142 143 145
0.15158428 0.58646935 1.83710527 132 133 134
0.15392528 0.58330780 1.82720172 128 129 129
0.15966564 0.59289640 1.85723794 130 130 130
0.16067471 0.58488429 1.83214009 133 133 132
0.16165686 0.57708585 1.80771160 141 141 139
0.16261317 0.56949264 1.78392589 142 140 137
0.16228011 0.55775052 1.74714386 143 140 137
0.16702178 0.56356043 1.76534331 142 138 135
0.08061499 0.22310020 0.69885755 85 87 97
0.08173864 0.22287044 0.69813782 80 84 94
0.08277483 0.22241233 0.69670284 77 82 91
0.08768172 0.22264116 0.69741958 131 138 140
0.08852286 0.22172868 0.69456130 141 147 147
0.24100055 0.36866644 1.15484130 117 119 125
0.24258333 0.36803946 1.15287733 116 119 126
0.24333449 0.36617124 1.14702511 124 127 135
0.24366784 0.36370957 1.13931406 126 129 137
0.24729957 0.36617124 1.14702511 136 139 147
0.25098079 0.36866644 1.15484130 138 139 145
0.21893793 0.16867280 0.52836466 139 144 144
0.21916787 0.16814856 0.52672249 138 144 142
0.21973680 0.16788766 0.52590525 135 141 140
0.22030397 0.16762757 0.52509052 130 136 136
0.22138302 0.16775751 0.52549756 124 129 130
0.22211912 0.16762757 0.52509052 123 127 129
0.87954426 0.29604268 0.92734861 130 136 137
0.87754571 0.29483271 0.92355835 130 136 137
0.87437701 0.29323468 0.91855264 130 136 138
0.88073832 0.29483271 0.92355835 127 133 135
0.88353831 0.29523492 0.92481834 124 130 133
0.43703768 0.14369668 0.45012739 121 124 123
0.43839788 0.14388776 0.45072597 120 123 122
0.43976170 0.14407936 0.45132613 119 122 121
0.44161588 0.14417535 0.45162681 116 120 121
0.44151405 0.14388776 0.45072597 113 118 118
0.61514688 0.19168042 0.60043561 151 159 156
0.61618471 0.19168042 0.60043561 149 157 154
0.61776966 0.19185035 0.60096794 148 155 153
0.61826032 0.19168042 0.60043561 141 148 147
0.61820298 0.19134146 0.59937388 136 142 142
0.61869192 0.19117244 0.59884441 131 136 136
0.61863399 0.19083527 0.59778821 125 129 130
0.61803222 0.19033174 0.59621096 112 116 117
0.62447959 0.16698086 0.52306467 148 157 156
0.62298024 0.16633911 0.52105445 145 154 153
0.62340164 0.16621137 0.52065426 143 152 151
0.62382245 0.16608380 0.52025467 141 150 149
0.62693816 0.16595644 0.51985568 137 147 145
0.14603445 0.58021033 1.80771160 140 141 141
0.15117459 0.58805102 1.83214009 132 133 134
0.15351151 0.58488947 1.82228994 129 131 131
0.15879554 0.59285796 1.84711671 133 135 135
0.16024162 0.58646595 1.82720172 128 128 128
0.16122693 0.57866722 1.80290389 131 130 128
0.16133943 0.56809103 1.76995254 135 133 131
0.16062419 0.55504817 1.72931588 138 134 133
0.16572705 0.56221932 1.75165856 137 133 132
0.16963129 0.56513995 1.76075804 134 130 131
0.08078155 0.22477157 0.70030147 80 80 89
0.08190735 0.22453961 0.69957876 75 78 88
0.08285998 0.22384658 0.69741958 77 80 88
0.08852286 0.22292918 0.69456130 148 152 150
0.24100055 0.37066248 1.15484130 131 134 136
0.24258333 0.37003210 1.15287733 136 140 143
0.24374692 0.36877775 1.14896917 140 144 149
0.24448965 0.36691210 1.14315653 137 141 143
0.24813929 0.36940387 1.15091991 136 140 141
0.25140908 0.37129501 1.15681207 138 139 141
0.21876743 0.16945395 0.52795315 135 137 140
0.21916787 0.16905896 0.52672249 135 138 140
0.21990740 0.16892770 0.52631354 125 128 130
0.22047475 0.16866580 0.52549756 118 122 126
0.22138302 0.16866580 0.52549756 118 122 126
0.22211912 0.16853514 0.52509052 120 123 129
0.87834269 0.29723892 0.92608178 116 122 122
0.87516105 0.29562348 0.92104870 119 126 126
0.87319380 0.29442337 0.91730964 119 127 127
0.88073832 0.29642898 0.92355835 118 126 126
0.88233459 0.29642898 0.92355835 115 122 123
0.87913996 0.29482234 0.91855264 109 117 119
0.43810657 0.14457068 0.45042646 113 121 120
0.43946913 0.14476305 0.45102584 116 123 122
0.44054177 0.14485943 0.45132613 117 122 122
0.44102824 0.14476305 0.45102584 118 122 123
0.44122067 0.14457068 0.45042646 118 123 124
0.60995787 0.19271822 0.60043561 138 147 144
0.61153734 0.19288908 0.60096794 139 147 145
0.61311960 0.19306023 0.60150117 140 149 146
0.61307126 0.19271822 0.60043561 141 150 147
0.61465353 0.19288908 0.60096794 143 152 149
0.61514688 0.19271822 0.60043561 145 152 150
0.61618471 0.19271822 0.60043561 145 151 149
0.61776966 0.19288908 0.60096794 145 151 149
0.61826032 0.19271822 0.60043561 143 149 148
0.61820298 0.19237743 0.59937388 138 144 144
0.61869192 0.19220749 0.59884441 134 140 140
0.61917996 0.19203785 0.59831583 130 135 135
0.62891352 0.16932209 0.52754229 144 153 150
0.62689823 0.16853514 0.52509052 141 150 147
0.62490153 0.16775550 0.52266139 139 148 146
0.62484139 0.16749722 0.52185667 138 147 146
0.62430155 0.16711128 0.52065426 140 149 148
0.62424254 0.16685496 0.51985568 139 148 147
0.62514108 0.16685496 0.51985568 138 147 146
0.62603962 0.16685496 0.51985568 139 149 147
0.62741929 0.16698302 0.52025467 142 153 151
0.14771739 0.64528191 1.99968100 157 161 160
0.14684205 0.62679243 1.94238353 157 159 158
0.14520653 0.60595721 1.87781680 153 155 153
0.14523371 0.59281993 1.83710527 148 149 147
0.14721215 0.58803916 1.82228994 138 140 139
0.15241034 0.59605056 1.84711671 131 134 134
0.15475957 0.59281993 1.83710527 125 128 130
0.15922940 0.59767914 1.85216355 125 126 129
0.16024162 0.58962417 1.82720172 123 124 126
0.16122693 0.58178341 1.80290389 129 129 129
0.16133943 0.57115030 1.76995254 134 133 133
0.16487497 0.56234080 1.74265254 137 136 135
0.08103269 0.22668451 0.70247859 83 82 92
0.08199196 0.22598198 0.70030147 79 80 91
0.08303083 0.22551604 0.69885755 81 84 91
0.08870463 0.22458990 0.69598752 155 157 155
0.24141181 0.37329447 1.15681207 143 147 147
0.24299660 0.37265852 1.15484130 142 146 146
0.24416076 0.37139314 1.15091991 143 147 146
0.25183886 0.37393257 1.15878952 138 142 142
0.25894305 0.37846118 1.17282331 138 141 142
0.21990740 0.16983739 0.52631354 120 121 125
0.22047475 0.16957408 0.52549756 120 124 128
0.22155477 0.16970563 0.52590525 128 132 136
0.22211912 0.16944273 0.52509052 136 140 144
0.22285408 0.16931158 0.52468407 137 141 146
0.87954426 0.29924837 0.92734861 97 105 104
0.87635177 0.29761982 0.92230183 102 110 109
0.87556338 0.29681215 0.91979897 101 114 112
0.88193983 0.29843187 0.92481834 102 117 114
0.88233459 0.29802528 0.92355835 105 119 116
0.87913996 0.29640996 0.91855264 105 116 114
0.43732804 0.14534920 0.45042646 107 116 115
0.43868956 0.14554262 0.45102584 104 113 112
0.43976170 0.14563952 0.45132613 116 125 124
0.44083530 0.14573655 0.45162681 123 131 130
0.44132188 0.14563952 0.45132613 128 134 134
0.44122067 0.14534920 0.45042646 131 137 138
0.61391342 0.19601305 0.60742998 138 147 144
0.61058635 0.19461794 0.60310662 138 147 144
0.60945988 0.19392779 0.60096794 135 144 141
0.61049861 0.19392779 0.60096794 132 141 140
0.61153734 0.19392779 0.60096794 134 143 142
0.61311960 0.19409987 0.60150117 139 148 146
0.61361480 0.19392779 0.60096794 141 150 147
0.61465353 0.19392779 0.60096794 140 149 146
0.61569226 0.19392779 0.60096794 138 147 144
0.61618471 0.19375603 0.60043561 137 144 142
0.61776966 0.19392779 0.60096794 138 146 143
0.61826032 0.19375603 0.60043561 138 146 144
0.61875004 0.19358456 0.59990430 138 145 144
0.61923891 0.19341341 0.59937388 136 143 142
0.61917996 0.19307199 0.59831583 134 141 140
0.61857623 0.19256212 0.59673578 131 137 137
0.61797565 0.19205493 0.59516406 124 130 130
0.62989390 0.17049927 0.52836466 141 150 147
0.62787092 0.16970563 0.52590525 139 148 145
0.62731987 0.16931158 0.52468407 140 149 147
0.62725574 0.16904989 0.52387315 144 153 152
0.62478143 0.16814032 0.52105445 144 153 152
0.62472165 0.16788223 0.52025467 142 151 150
0.62562084 0.16788223 0.52025467 140 149 148
0.62652010 0.16788223 0.52025467 141 151 150
0.62790120 0.16801119 0.52065426 144 155 153
-0.71424735 0.64683014 1.99379957 81 89 90
-0.70871675 0.64493328 1.98795259 71 80 81
-0.70321852 0.64304751 1.98213995 68 76 80
-0.69370741 0.63745576 1.96490383 69 76 82
0.14771739 0.64873815 1.99968100 156 157 157
0.14684205 0.63014966 1.94238353 154 156 155
0.14520653 0.60920286 1.87781680 152 154 152
0.14602517 0.59924316 1.84711671 144 144 142
0.14840899 0.59599525 1.83710527 133 135 133
0.15282677 0.60088044 1.85216355 132 134 133
0.15518011 0.59761477 1.84209740 123 123 127
0.15879554 0.59924316 1.84711671 123 123 127
0.16024162 0.59278232 1.82720172 125 125 128
0.16122693 0.58489960 1.80290389 130 129 129
0.16133943 0.57420951 1.76995254 135 135 133
0.15980884 0.55817825 1.72053766 138 138 136
0.07109823 0.22719240 0.70030147 140 139 137
0.07739015 0.22789869 0.70247859 108 108 109
0.07844175 0.22742735 0.70102566 95 98 100
0.07973588 0.22766277 0.70175141 84 87 94
0.08111674 0.22813511 0.70320731 85 88 97
0.08199196 0.22719240 0.70030147 86 89 103
0.08303083 0.22672395 0.69885755 94 97 105
0.08432568 0.22695793 0.69957876 113 116 122
0.08544666 0.22672395 0.69885755 130 131 135
0.08870463 0.22579286 0.69598752 149 150 150
0.08981537 0.22556128 0.69527370 154 155 153
0.24141181 0.37529391 1.15681207 150 153 152
0.24299660 0.37465459 1.15484130 147 149 149
0.24416076 0.37338242 1.15091991 148 152 151
0.24940963 0.37529391 1.15681207 141 145 144
0.25183886 0.37593547 1.15878952 140 144 143
0.25558934 0.37852365 1.16676736 138 142 141
0.25984216 0.38180944 1.17689562 139 141 142
0.21990740 0.17074709 0.52631354 147 153 153
0.22047475 0.17048235 0.52549756 161 165 164
0.22155477 0.17061462 0.52590525 165 169 168
0.22211912 0.17035030 0.52509052 163 167 167
0.22285408 0.17021845 0.52468407 158 162 162
0.22393428 0.17035030 0.52509052 149 153 153
0.22414735 0.16982412 0.52346861 144 148 149
0.22487848 0.16969308 0.52306467 143 148 148
0.22729428 0.16813627 0.51826596 107 111 115
0.87994337 0.30044022 0.92608178 104 116 114
0.44161588 0.14651714 0.45162681 137 146 145
0.44180781 0.14632218 0.45102584 141 150 149
0.61628604 0.19884470 0.61292207 140 148 145
0.61567539 0.19830680 0.61126405 135 144 141
0.61562169 0.19794981 0.61016369 132 141 138
0.61391342 0.19706294 0.60742998 128 138 134
0.61113006 0.19583459 0.60364366 124 135 131
0.61054242 0.19531283 0.60203540 128 139 135
0.61104029 0.19513953 0.60150117 132 143 140
0.61207998 0.19513953 0.60150117 135 146 144
0.61311960 0.19513953 0.60150117 137 148 146
0.61361480 0.19496652 0.60096794 138 147 145
0.61465353 0.19496652 0.60096794 136 145 142
0.61569226 0.19496652 0.60096794 134 143 140
0.61673093 0.19496652 0.60096794 132 141 138
0.61776966 0.19496652 0.60096794 134 143 140
0.61880839 0.19496652 0.60096794 136 145 142
0.61875004 0.19462146 0.59990430 137 146 143
0.61923891 0.19444937 0.59937388 137 146 143
0.61972696 0.19427760 0.59884441 137 145 143
0.61912125 0.19376409 0.59726155 136 143 142
0.61797565 0.19308361 0.59516406 136 142 142
0.63137025 0.17181425 0.52960300 144 153 151
0.62884659 0.17087975 0.52672249 144 153 151
0.62877989 0.17061462 0.52590525 147 156 154
0.62968886 0.17061462 0.52590525 150 159 158
0.62767619 0.16982412 0.52346861 148 157 156
0.62761164 0.16956225 0.52266139 146 155 154
0.62754732 0.16930118 0.52185667 144 153 152
0.62844932 0.16930118 0.52185667 142 151 150
0.62886721 0.16917096 0.52145529 142 152 150
0.62880111 0.16891108 0.52065426 141 151 149
-0.72672313 0.65219444 1.99968100 124 128 125
-0.71902478 0.64836925 1.98795259 122 124 123
-0.71769345 0.65027624 1.99379957 109 110 110
-0.71635425 0.65219444 1.99968100 98 99 103
-0.71080118 0.65027624 1.99379957 87 89 93
-0.70321852 0.64647347 1.98213995 78 84 90
-0.69572395 0.64271486 1.97061586 74 78 85
0.14771739 0.65219444 1.99968100 155 155 155
0.14726400 0.63532734 1.94796503 153 153 153
0.14520653 0.61244851 1.87781680 152 153 153
0.14642414 0.60408175 1.85216355 141 141 139
0.14921775 0.60243577 1.84711671 127 128 127
0.15282677 0.60408175 1.85216355 122 123 123
0.15475957 0.59917051 1.83710527 122 122 124
0.15836403 0.60079873 1.84209740 117 117 119
0.16024162 0.59594047 1.82720172 126 126 127
0.16122693 0.58801574 1.80290389 132 132 131
0.16176179 0.57877988 1.77458596 138 138 134
0.15980884 0.56115210 1.72053766 141 141 137
0.07017781 0.22935054 0.70320731 144 144 139
0.07139324 0.22935054 0.70320731 139 139 133
0.07275964 0.22982736 0.70466930 140 141 136
0.07614540 0.23273045 0.71357036 126 126 124
0.07705431 0.23175463 0.71057844 122 123 122
0.07771228 0.23006651 0.70540255 114 115 115
0.07876758 0.22958870 0.70393753 105 111 113
0.08015074 0.23006651 0.70540255 108 112 117
0.08128539 0.22982736 0.70466930 106 110 116
0.08207675 0.22863901 0.70102566 109 113 120
0.08311652 0.22816710 0.69957876 116 120 124
0.08441279 0.22840281 0.70030147 120 123 127
0.08553484 0.22816710 0.69957876 137 138 140
0.08674401 0.22816710 0.69957876 136 137 136
0.08786250 0.22793187 0.69885755 145 146 144
0.08879580 0.22722910 0.69670284 151 152 152
0.08990759 0.22699581 0.69598752 152 153 153
0.09120418 0.22722910 0.69670284 154 155 155
0.23900449 0.37665063 1.15484130 158 159 159
0.24100055 0.37665063 1.15484130 155 156 156
0.24258333 0.37601006 1.15287733 152 153 153
0.25603002 0.38119641 1.16877902 140 144 143
0.26029408 0.38451117 1.17894232 139 143 142
0.21973680 0.17152360 0.52590525 161 167 162
0.22030397 0.17125788 0.52509052 165 170 163
0.22138302 0.17139064 0.52549756 166 171 163
0.22194719 0.17112532 0.52468407 165 170 162
0.22250964 0.17086084 0.52387315 164 169 162
0.22358789 0.17099299 0.52427828 165 169 164
0.22380172 0.17046563 0.52266139 159 164 160
0.22435912 0.17020318 0.52185667 155 160 156
0.22526112 0.17020318 0.52185667 154 159 156
0.22598913 0.17007224 0.52145529 143 147 146
0.22729428 0.16903205 0.51826596 123 130 134
0.61260235 0.20008500 0.61347675 140 146 144
0.61477542 0.20044780 0.61458915 142 148 146
0.61416727 0.19990408 0.61292207 143 151 148
0.61356235 0.19936332 0.61126405 143 151 148
0.61461890 0.19936332 0.61126405 140 148 146
0.61512077 0.19918372 0.61071336 134 142 139
0.61562169 0.19900443 0.61016369 134 143 140
0.61391342 0.19811283 0.60742998 136 145 142
0.61167473 0.19705340 0.60418171 138 148 147
0.61108512 0.19652793 0.60257053 139 150 148
0.61104029 0.19617917 0.60150117 138 149 147
0.61207998 0.19617917 0.60150117 138 149 147
0.61311960 0.19617917 0.60150117 139 150 148
0.61361480 0.19600525 0.60096794 136 146 145
0.61465353 0.19600525 0.60096794 134 143 141
0.61569226 0.19600525 0.60096794 132 141 139
0.61673093 0.19600525 0.60096794 132 141 139
0.61831784 0.19617917 0.60150117 134 143 140
0.61880839 0.19600525 0.60096794 135 144 141
0.61929810 0.19583164 0.60043561 137 146 142
0.61978692 0.19565834 0.59990430 139 148 144
0.62027490 0.19548534 0.59937388 141 150 146
0.61912125 0.19479641 0.59726155 141 150 147
0.61851871 0.19428289 0.59568703 140 149 146
0.63549727 0.17436430 0.53461504 146 155 154
0.63186389 0.17286468 0.53001708 149 158 156
0.62933558 0.17192373 0.52713209 150 159 158
0.62975699 0.17179015 0.52672249 151 160 159
0.62962091 0.17125788 0.52509052 150 159 158
0.63004047 0.17112532 0.52468407 148 157 156
0.62900001 0.17059717 0.52306467 146 155 154
0.63039047 0.17072889 0.52346861 142 151 150
0.63032180 0.17046563 0.52266139 140 148 147
0.62976849 0.17007224 0.52145529 138 145 145
-0.72672313 0.65565073 1.99968100 128 130 126
-0.71902478 0.65180528 1.98795259 126 127 126
-0.71769345 0.65372235 1.99379957 120 121 121
-0.71080118 0.65372235 1.99379957 102 103 105
-0.70528072 0.65180528 1.98795259 95 96 100
-0.69572395 0.64612097 1.97061586 96 98 102
-0.69433635 0.64800465 1.97636104 106 110 113
-0.69092035 0.64800465 1.97636104 103 105 107
-0.68750441 0.64800465 1.97636104 101 102 104
-0.68810064 0.65180528 1.98795259 100 100 100
-0.68266273 0.64989942 1.98213995 96 97 97
-0.68323225 0.65372235 1.99379957 95 96 96
0.14685100 0.65180528 1.98795259 151 152 152
0.14600533 0.63323534 1.93131578 143 144 144
0.14520653 0.61569417 1.87781680 141 142 142
0.14682530 0.60894686 1.85723794 137 138 138
0.14962545 0.60728306 1.85216355 127 128 128
0.15241034 0.60562837 1.84711671 121 123 123
0.15434130 0.60071784 1.83214009 116 118 118
0.15793484 0.60234582 1.83710527 114 115 115
0.16024162 0.59909868 1.82720172 124 124 125
0.16122693 0.59113193 1.80290389 133 133 131
0.16218635 0.58337426 1.77924371 136 136 133
0.16021548 0.56556135 1.72491562 141 141 137
0.06953947 0.23249540 0.70909190 149 150 143
0.07054370 0.23176810 0.70687366 147 148 141
0.07176547 0.23176810 0.70687366 142 143 134
0.07306343 0.23201002 0.70761150 135 136 129
0.07459796 0.23298281 0.71057844 132 132 130
0.07614540 0.23396379 0.71357036 122 123 123
0.07713517 0.23322728 0.71132410 120 121 121
0.07803709 0.23225246 0.70835096 117 118 118
0.07917868 0.23201002 0.70761150 115 116 118
0.08040173 0.23201002 0.70761150 118 121 123
0.08145473 0.23152667 0.70613736 128 132 135
0.08224686 0.23032705 0.70247859 120 124 123
0.08328842 0.22985068 0.70102566 129 133 132
0.08450009 0.22985068 0.70102566 133 137 136
0.08562320 0.22961323 0.70030147 138 143 140
0.08692342 0.22985068 0.70102566 142 146 143
0.08795317 0.22937627 0.69957876 146 151 148
0.08897869 0.22890382 0.69813782 153 155 154
0.09009258 0.22866832 0.69741958 154 156 156
0.09148626 0.22913979 0.69885755 156 158 158
0.09240837 0.22843330 0.69670284 157 160 159
0.23859803 0.37800273 1.15287733 162 164 163
0.24018221 0.37736094 1.15091991 161 162 162
0.24217148 0.37736094 1.15091991 157 158 158
0.38182113 0.36082077 1.10047376 155 159 160
0.38186347 0.35907206 1.09514034 155 159 160
0.38375634 0.35907206 1.09514034 156 160 161
0.38689929 0.36023599 1.09869015 156 161 161
0.38629395 0.35791561 1.09161329 158 162 163
0.38385385 0.35392612 1.07944560 158 162 162
0.21939638 0.17216545 0.52509052 164 169 161
0.22160415 0.17176631 0.52387315 160 165 159
0.22199497 0.17136900 0.52266139 161 165 160
0.22345714 0.17110516 0.52185667 165 169 164
0.22401422 0.17084213 0.52105445 162 166 161
0.22491482 0.17084213 0.52105445 156 161 156
0.22564200 0.17071091 0.52065426 154 159 154
0.22619444 0.17044908 0.51985568 147 153 151
0.22694726 0.16966839 0.51747471 122 130 131
0.60338306 0.19880643 0.60634333 138 144 145
0.60497218 0.19898443 0.60688615 139 146 146
0.60984290 0.20023929 0.61071336 139 147 146
0.61144930 0.20041984 0.61126405 141 148 147
0.61195403 0.20023929 0.61071336 142 149 148
0.61245787 0.20005904 0.61016369 143 150 148
0.61351246 0.20005904 0.61016369 144 151 149
0.61401439 0.19987914 0.60961497 139 148 145
0.61506808 0.19987914 0.60961497 140 149 146
0.61391342 0.19916272 0.60742998 144 153 150
0.61167473 0.19809769 0.60418171 142 151 150
0.61162877 0.19774520 0.60310662 142 151 150
0.61104029 0.19721882 0.60150117 141 150 149
0.61207998 0.19721882 0.60150117 138 147 146
0.61366409 0.19739397 0.60203540 136 145 144
0.61415923 0.19721882 0.60150117 134 144 142
0.61519891 0.19721882 0.60150117 133 142 141
0.61569226 0.19704397 0.60096794 132 141 140
0.61831784 0.19721882 0.60150117 132 141 139
0.61935747 0.19721882 0.60150117 133 142 140
0.61984712 0.19704397 0.60096794 136 145 141
0.62033594 0.19686945 0.60043561 139 148 143
0.61966717 0.19600141 0.59778821 146 155 150
0.63599885 0.17542668 0.53503698 147 156 155
0.63235831 0.17391674 0.53043181 150 159 158
0.63031590 0.17310405 0.52795315 152 161 160
0.63024670 0.17283484 0.52713209 150 159 158
0.63066739 0.17270054 0.52672249 150 159 158
0.63059783 0.17243259 0.52590525 150 159 158
0.63101727 0.17229892 0.52549756 149 158 157
0.63094735 0.17203221 0.52468407 147 156 155
0.63185424 0.17203221 0.52468407 142 151 150
0.63178313 0.17176631 0.52387315 140 148 147
0.63171220 0.17150123 0.52306467 138 145 145
-0.72672313 0.65910703 1.99968100 123 127 124
-0.71902478 0.65524131 1.98795259 130 132 131
-0.71769345 0.65716851 1.99379957 123 124 124
-0.71080118 0.65716851 1.99379957 108 109 111
-0.70528072 0.65524131 1.98795259 106 107 109
-0.69572395 0.64952701 1.97061586 107 108 110
-0.69433635 0.65142065 1.97636104 109 110 112
-0.69092035 0.65142065 1.97636104 109 110 112
-0.68750441 0.65142065 1.97636104 105 106 108
-0.68608868 0.65332538 1.98213995 102 103 105
-0.68266273 0.65332538 1.98213995 94 95 97
-0.68323225 0.65716851 1.99379957 91 92 94
-0.67779261 0.65524131 1.98795259 96 97 98
0.14436020 0.62940079 1.90955448 142 143 143
0.14560987 0.62065911 1.88303292 138 139 138
0.14763425 0.61552972 1.86747062 131 132 131
0.15044758 0.61383867 1.86234021 123 126 124
0.15324548 0.61215693 1.85723794 115 119 117
0.15518011 0.60716653 1.84209740 111 113 114
0.15836403 0.60716653 1.84209740 107 109 110
0.16067471 0.60388458 1.83214009 116 117 119
0.16165686 0.59583277 1.80771160 128 129 129
0.16304223 0.58954430 1.78863287 133 133 131
0.16144791 0.57291609 1.73818421 140 140 137
0.06975837 0.23445675 0.71132410 155 156 149
0.07076507 0.23372100 0.70909190 154 155 148
0.07199068 0.23372100 0.70909190 147 147 144
0.07329296 0.23396574 0.70983440 138 138 137
0.07630605 0.23569334 0.71507579 128 130 130
0.07721619 0.23470303 0.71207124 115 118 119
0.07828249 0.23421098 0.71057844 112 116 119
0.07942741 0.23396574 0.70983440 114 118 122
0.08065430 0.23396574 0.70983440 117 121 124
0.08171007 0.23347679 0.70835096 116 121 122
0.08241767 0.23202211 0.70393753 123 127 126
0.08346104 0.23154123 0.70247859 131 136 134
0.08458756 0.23130153 0.70175141 135 141 139
0.08580048 0.23130153 0.70175141 141 147 143
0.08701340 0.23130153 0.70175141 147 152 149
0.08804403 0.23082364 0.70030147 152 157 154
0.08907042 0.23034771 0.69885755 154 158 156
0.09018537 0.23011048 0.69813782 156 160 158
0.09158067 0.23058543 0.69957876 157 161 160
0.09259871 0.23011048 0.69813782 158 162 161
0.09861998 0.22730140 0.68961531 157 158 158
0.09940741 0.22638023 0.68682051 154 154 155
0.23819293 0.37935022 1.15091991 169 172 170
0.24018221 0.37935022 1.15091991 165 168 166
0.24176101 0.37870726 1.14896917 164 165 164
0.38682666 0.36931783 1.12048233 154 157 163
0.38120228 0.36213499 1.09869015 154 158 161
0.38186347 0.36096492 1.09514034 155 160 161
0.38252041 0.35980240 1.09161329 157 162 162
0.38564920 0.36096492 1.09514034 158 163 164
0.38567290 0.35922393 1.08985829 160 166 166
0.38385385 0.35579187 1.07944560 161 167 166
0.38449508 0.35466236 1.07601881 160 165 164
0.21838145 0.17227238 0.52266139 157 162 154
0.21911588 0.17213966 0.52225876 158 162 155
0.22367038 0.17147911 0.52025467 155 161 157
0.22474208 0.17161082 0.52065426 155 161 157
0.22564200 0.17161082 0.52065426 154 160 156
0.22602111 0.17121631 0.51945734 151 157 154
0.22691895 0.17121631 0.51945734 145 151 149
0.22712064 0.17069311 0.51787001 139 145 145
0.60016215 0.19878761 0.60310662 132 140 141
0.60335171 0.19949758 0.60526055 134 142 143
0.61034858 0.20111367 0.61016369 136 145 144
0.61140323 0.20111367 0.61016369 139 148 147
0.61190706 0.20093282 0.60961497 141 150 149
0.61296076 0.20093282 0.60961497 142 151 150
0.61401439 0.20093282 0.60961497 143 152 149
0.61451548 0.20075227 0.60906726 142 151 148
0.61391342 0.20021261 0.60742998 139 148 145
0.61276704 0.19949758 0.60526055 139 148 146
0.61217344 0.19896464 0.60364366 139 148 147
0.61212659 0.19861092 0.60257053 140 149 148
0.61262357 0.19843453 0.60203540 139 148 146
0.61420959 0.19861092 0.60257053 134 143 140
0.61990756 0.19843453 0.60203540 126 134 132
0.62039715 0.19825846 0.60150117 128 136 133
0.62088585 0.19808270 0.60096794 131 139 134
0.62021410 0.19720855 0.59831583 133 142 137
0.63549727 0.17621237 0.53461504 145 155 154
0.63392162 0.17552026 0.53251517 146 156 154
0.63334948 0.17510758 0.53126317 146 156 155
0.63228559 0.17456038 0.52960300 146 155 154
0.63172042 0.17415221 0.52836466 147 156 155
0.63214093 0.17401658 0.52795315 148 157 156
0.63157779 0.17361094 0.52672249 149 158 157
0.63332480 0.17334157 0.52590525 143 152 151
0.63276112 0.17293908 0.52468407 140 149 148
0.63366801 0.17293908 0.52468407 139 148 147
-0.72672313 0.66256332 1.99968100 115 119 118
-0.71902478 0.65867734 1.98795259 118 120 120
-0.71981055 0.66256332 1.99968100 113 114 116
-0.71080118 0.66061461 1.99379957 107 108 112
-0.70528072 0.65867734 1.98795259 107 108 112
-0.69775236 0.65483665 1.97636104 109 110 113
-0.69433635 0.65483665 1.97636104 111 112 114
-0.69092035 0.65483665 1.97636104 113 113 115
-0.68750441 0.65483665 1.97636104 108 108 110
