ply
format ascii 1.0
element vertex 1072
property float x
property float y
property float z
property uchar red
property uchar green
property uchar blue
end_header
0.01016786 -0.22025973 0.67317957 146 147 146
0.01134266 -0.22047868 0.67384875 124 125 125
0.01249493 -0.22025973 0.67317957 51 53 57
0.01364492 -0.22004122 0.67251176 43 46 52
0.01476336 -0.21938828 0.67051619 42 45 51
0.01593806 -0.21960549 0.67118007 40 43 49
0.01714907 -0.22025973 0.67317957 40 44 47
0.01829444 -0.22004122 0.67251176 41 44 47
0.01949551 -0.22047868 0.67384875 42 43 46
0.02057838 -0.21960549 0.67118007 42 43 46
0.14993006 -0.22937079 0.70102566 44 44 46
0.15114172 -0.22937079 0.70102566 44 44 46
0.15251110 -0.22960822 0.70175141 44 44 46
0.15388332 -0.22984616 0.70247859 45 45 47
0.15525839 -0.23008460 0.70320731 48 48 50
0.15647383 -0.23008460 0.70320731 47 47 49
0.15752585 -0.22984616 0.70247859 32 33 33
0.15874003 -0.22984616 0.70247859 110 113 112
0.15995421 -0.22984616 0.70247859 139 142 140
0.16100155 -0.22960822 0.70175141 156 157 153
0.16238257 -0.22984616 0.70247859 176 176 171
0.16376644 -0.23008460 0.70320731 172 172 167
0.16481093 -0.22984616 0.70247859 175 174 170
0.16619733 -0.23008460 0.70320731 175 175 172
0.16776080 -0.23056294 0.70466930 175 174 172
0.16880330 -0.23032352 0.70393753 175 175 173
0.17019674 -0.23056294 0.70466930 176 176 174
0.17105907 -0.23008460 0.70320731 176 176 174
0.17227450 -0.23008460 0.70320731 178 178 176
0.17348994 -0.23008460 0.70320731 178 178 175
0.17470539 -0.23008460 0.70320731 178 178 174
0.27461761 -0.20984064 0.64133573 179 179 177
0.27572611 -0.20984064 0.64133573 178 178 176
0.27683461 -0.20984064 0.64133573 177 178 176
0.27741820 -0.20944433 0.64012450 177 178 176
0.27826184 -0.20924674 0.63952059 178 178 176
0.27963099 -0.20944433 0.64012450 178 178 176
0.28073740 -0.20944433 0.64012450 177 178 176
0.28237709 -0.20984064 0.64133573 175 176 174
0.28321764 -0.20964229 0.64072955 175 175 171
0.28432509 -0.20964229 0.64072955 180 180 177
0.28543255 -0.20964229 0.64072955 171 171 170
0.28653997 -0.20964229 0.64072955 149 149 149
0.28819221 -0.21003935 0.64194304 128 128 128
0.28957599 -0.21023844 0.64255148 88 87 94
0.29041132 -0.21003935 0.64194304 60 60 67
0.29124504 -0.20984064 0.64133573 51 52 58
0.29235354 -0.20984064 0.64133573 53 53 58
0.29401839 -0.21023844 0.64255148 51 51 53
0.29568952 -0.21063775 0.64377195 48 48 50
0.37215582 -0.18406768 0.56256586 46 46 46
0.37312818 -0.18406768 0.56256586 48 48 48
0.37410051 -0.18406768 0.56256586 52 52 52
0.37600899 -0.18452708 0.56396991 62 62 62
0.37667039 -0.18437369 0.56350112 89 89 87
0.37733069 -0.18422055 0.56303310 102 99 80
0.37893331 -0.18452708 0.56396991 113 109 90
0.38054127 -0.18483463 0.56490988 120 114 93
0.38025019 -0.18422055 0.56303310 123 118 95
0.38154024 -0.18437369 0.56350112 128 121 97
0.38443157 -0.18529788 0.56632566 132 122 99
0.38541040 -0.18529788 0.56632566 132 122 98
0.38638926 -0.18529788 0.56632566 136 123 98
0.38479635 -0.18406768 0.56256586 140 127 102
0.86893761 -0.30934665 0.94545585 78 78 82
0.87178767 -0.30977869 0.94677633 77 77 81
0.87342411 -0.30977869 0.94677633 76 76 80
0.87262303 -0.30891579 0.94413906 75 76 80
0.87303895 -0.30848616 0.94282591 74 75 79
-0.34616119 -0.28431684 0.87357193 176 177 176
-0.34509599 -0.28468370 0.87469918 174 176 174
-0.34225929 -0.28358594 0.87132627 174 177 174
-0.34207231 -0.28468370 0.87469918 166 175 172
-0.34056047 -0.28468370 0.87469918 154 162 160
-0.33948666 -0.28505149 0.87582928 136 142 142
-0.33753675 -0.28468370 0.87469918 94 98 103
-0.33602491 -0.28468370 0.87469918 41 43 51
-0.33451307 -0.28468370 0.87469918 48 47 56
-0.33257210 -0.28431684 0.87357193 51 49 59
-0.33148938 -0.28468370 0.87469918 50 46 55
-0.09106502 -0.14877267 0.45710847 44 42 48
-0.00263628 -0.21953221 0.67451924 176 176 176
-0.00146897 -0.21931398 0.67384875 176 176 176
-0.00030397 -0.21909620 0.67317957 176 176 176
0.00085616 -0.21822934 0.67051619 176 176 176
0.00201112 -0.21779849 0.66919231 175 175 175
0.00317089 -0.21801370 0.66985363 175 175 175
0.00434155 -0.21866190 0.67184526 175 175 175
0.00549733 -0.21844542 0.67118007 173 173 171
0.00665741 -0.21844542 0.67118007 173 173 171
0.00781749 -0.21844542 0.67118007 175 175 173
0.00898647 -0.21866190 0.67184526 165 166 164
0.01015777 -0.21887884 0.67251176 146 146 144
0.01133139 -0.21909620 0.67317957 128 128 127
0.01248253 -0.21887884 0.67251176 50 50 53
0.01363139 -0.21866190 0.67184526 43 43 49
0.01476336 -0.21822934 0.67051619 41 41 48
0.01593806 -0.21844542 0.67118007 42 42 50
0.01713206 -0.21887884 0.67251176 42 43 48
0.01827631 -0.21866190 0.67184526 41 42 46
0.01947615 -0.21909620 0.67317957 41 42 45
0.02053771 -0.21801370 0.66985363 42 42 44
0.02169550 -0.21801370 0.66985363 41 41 43
0.14993006 -0.22815911 0.70102566 44 43 45
0.15114172 -0.22815911 0.70102566 44 43 45
0.15251110 -0.22839531 0.70175141 44 43 45
0.15388332 -0.22863199 0.70247859 45 45 47
0.15525839 -0.22886916 0.70320731 46 46 48
0.15647383 -0.22886916 0.70320731 45 46 47
0.15752585 -0.22863199 0.70247859 38 39 40
0.15890470 -0.22886916 0.70320731 116 120 119
0.15995421 -0.22863199 0.70247859 140 143 142
0.16116838 -0.22863199 0.70247859 158 158 154
0.16238257 -0.22863199 0.70247859 176 176 170
0.16376644 -0.22886916 0.70320731 172 173 166
0.16481093 -0.22863199 0.70247859 175 176 169
0.16619733 -0.22886916 0.70320731 176 177 170
0.16776080 -0.22934498 0.70466930 178 179 172
0.16880330 -0.22910681 0.70393753 179 179 177
0.17002000 -0.22910681 0.70393753 178 178 176
0.17088181 -0.22863199 0.70247859 178 178 176
0.17227450 -0.22886916 0.70320731 178 178 175
0.17348994 -0.22886916 0.70320731 178 178 174
0.17452434 -0.22863199 0.70247859 178 178 174
0.27487767 -0.20892981 0.64194304 178 179 177
0.27572611 -0.20873214 0.64133573 178 179 177
0.27683461 -0.20873214 0.64133573 179 179 177
0.27768040 -0.20853485 0.64072955 178 178 176
0.27826184 -0.20814139 0.63952059 178 178 176
0.27963099 -0.20833793 0.64012450 178 178 176
0.28073740 -0.20833793 0.64012450 179 179 175
0.28237709 -0.20873214 0.64133573 178 177 173
0.28321764 -0.20853485 0.64072955 178 177 173
0.28432509 -0.20853485 0.64072955 181 181 178
0.28543255 -0.20853485 0.64072955 172 171 168
0.28626940 -0.20833793 0.64012450 150 150 149
0.28791958 -0.20873214 0.64133573 111 111 111
0.28930175 -0.20892981 0.64194304 89 90 93
0.29013655 -0.20873214 0.64133573 57 58 62
0.29124504 -0.20873214 0.64133573 53 54 58
0.29235354 -0.20873214 0.64133573 55 56 59
0.29401839 -0.20912784 0.64255148 49 50 53
0.29568952 -0.20952505 0.64377195 47 47 51
0.37339529 -0.18370514 0.56443948 47 47 48
0.37437090 -0.18370514 0.56443948 46 46 48
0.37534648 -0.18370514 0.56443948 44 44 46
0.37694979 -0.18401156 0.56538099 56 56 58
0.37761208 -0.18385823 0.56490988 87 86 84
0.37827325 -0.18370514 0.56443948 106 100 81
0.38019854 -0.18416516 0.56585294 115 109 90
0.38117656 -0.18416516 0.56585294 118 113 90
0.38120002 -0.18370514 0.56443948 121 116 93
0.38249406 -0.18385823 0.56490988 126 120 96
0.38475299 -0.18447313 0.56679922 128 122 98
0.38541040 -0.18431902 0.56632566 130 124 99
0.38638926 -0.18431902 0.56632566 130 124 99
0.38511595 -0.18324740 0.56303310 130 125 100
0.38576871 -0.18309532 0.56256586 132 124 101
0.87015122 -0.30814227 0.94677633 77 78 82
0.87178767 -0.30814227 0.94677633 76 77 81
0.87464565 -0.30857325 0.94810051 76 77 80
0.87384009 -0.30771250 0.94545585 75 76 79
0.87303895 -0.30685657 0.94282591 75 76 78
0.87345374 -0.30643037 0.94151646 75 76 78
-0.34616119 -0.28280693 0.87357193 175 176 174
-0.34181991 -0.28171784 0.87020773 170 177 173
-0.34163150 -0.28280693 0.87357193 167 176 173
-0.34012160 -0.28280693 0.87357193 154 163 160
-0.33904859 -0.28317186 0.87469918 136 145 144
-0.33710179 -0.28280693 0.87357193 96 101 103
-0.33602491 -0.28317186 0.87469918 49 50 56
-0.33451307 -0.28317186 0.87469918 52 51 59
-0.33257210 -0.28280693 0.87357193 49 49 57
-0.33148938 -0.28317186 0.87469918 47 46 55
-0.09710643 -0.15250742 0.47108537 40 39 45
-0.09173138 -0.14778329 0.45649281 42 40 46
-0.09100366 -0.14788288 0.45680043 44 43 48
-0.09015337 -0.14778329 0.45649281 44 44 48
-0.00263628 -0.21836635 0.67451924 175 176 176
-0.00146897 -0.21814929 0.67384875 175 176 175
-0.00030397 -0.21793266 0.67317957 175 176 175
0.00085532 -0.21685591 0.66985363 176 176 175
0.00201112 -0.21664184 0.66919231 176 176 175
0.00317089 -0.21685591 0.66985363 175 175 174
0.00434155 -0.21750069 0.67184526 173 174 173
0.00549190 -0.21707042 0.67051619 173 174 173
0.00665083 -0.21707042 0.67051619 172 173 173
0.00780976 -0.21707042 0.67051619 174 174 174
0.00897757 -0.21728534 0.67118007 162 163 161
0.01014770 -0.21750069 0.67184526 146 146 144
0.01132015 -0.21771646 0.67251176 123 123 121
0.01247016 -0.21750069 0.67184526 52 52 54
0.01361790 -0.21728534 0.67118007 38 37 43
0.01476336 -0.21707042 0.67051619 44 43 52
0.01593806 -0.21728534 0.67118007 44 43 52
0.01711508 -0.21750069 0.67184526 41 41 49
0.01825822 -0.21728534 0.67118007 40 40 47
0.01945683 -0.21771646 0.67251176 40 40 44
0.02051743 -0.21664184 0.66919231 40 40 42
0.02167408 -0.21664184 0.66919231 40 40 42
0.14887235 -0.22718239 0.70175141 41 41 43
0.14993006 -0.22694746 0.70102566 43 43 45
0.15129818 -0.22718239 0.70175141 44 43 45
0.15251110 -0.22718239 0.70175141 44 43 45
0.15404296 -0.22765373 0.70320731 43 43 45
0.15525839 -0.22765373 0.70320731 44 45 48
0.15647383 -0.22765373 0.70320731 43 43 47
0.15752585 -0.22741781 0.70247859 40 41 45
0.15890470 -0.22765373 0.70320731 117 118 120
0.15995421 -0.22741781 0.70247859 142 143 144
0.16116838 -0.22741781 0.70247859 156 156 154
0.16238257 -0.22741781 0.70247859 175 176 170
0.16376644 -0.22765373 0.70320731 173 173 167
0.16481093 -0.22741781 0.70247859 174 174 170
0.16619733 -0.22765373 0.70320731 176 176 172
0.16758661 -0.22789012 0.70393753 175 175 171
0.16880330 -0.22789012 0.70393753 177 177 175
0.16984363 -0.22765373 0.70320731 178 178 176
0.17052838 -0.22694746 0.70102566 178 178 176
0.17191783 -0.22718239 0.70175141 178 178 174
0.17331016 -0.22741781 0.70247859 178 178 174
0.17452434 -0.22741781 0.70247859 178 178 174
0.27461761 -0.20762365 0.64133573 178 179 175
0.27572611 -0.20762365 0.64133573 179 180 176
0.27683461 -0.20762365 0.64133573 178 179 176
0.27768040 -0.20742740 0.64072955 177 178 175
0.27826184 -0.20703602 0.63952059 178 179 175
0.27963099 -0.20723152 0.64012450 178 179 175
0.28073740 -0.20723152 0.64012450 178 179 175
0.28211021 -0.20742740 0.64072955 178 178 174
0.28321764 -0.20742740 0.64072955 177 177 173
0.28405660 -0.20723152 0.64012450 181 181 174
0.28516302 -0.20723152 0.64012450 171 171 162
0.28626940 -0.20723152 0.64012450 150 149 147
0.28764743 -0.20742740 0.64072955 117 116 116
0.28902805 -0.20762365 0.64133573 80 81 88
0.28986233 -0.20742740 0.64072955 51 51 59
0.29096979 -0.20742740 0.64072955 53 53 62
0.29207721 -0.20742740 0.64072955 51 51 59
0.29373994 -0.20782025 0.64194304 50 50 55
0.29540899 -0.20821460 0.64316112 48 48 53
0.37433034 -0.18318714 0.56585294 47 46 48
0.37530839 -0.18318714 0.56585294 49 49 51
0.37628642 -0.18318714 0.56585294 57 57 59
0.37757963 -0.18334018 0.56632566 71 70 72
0.37824246 -0.18318714 0.56585294 89 87 82
0.37922052 -0.18318714 0.56585294 107 101 81
0.38083431 -0.18349347 0.56679922 125 119 99
0.38149500 -0.18334018 0.56632566 125 120 96
0.38151768 -0.18288182 0.56490988 125 120 95
0.38313264 -0.18318714 0.56585294 123 118 93
0.38539746 -0.18380083 0.56774861 124 119 94
0.38573265 -0.18349347 0.56679922 129 124 99
0.38671231 -0.18349347 0.56679922 129 124 99
0.38543609 -0.18242575 0.56350112 129 124 99
0.38608912 -0.18227424 0.56303310 129 120 101
0.87136823 -0.30693454 0.94810051 76 76 78
0.87300694 -0.30693454 0.94810051 77 77 79
0.87464565 -0.30693454 0.94810051 76 76 78
0.87506050 -0.30650586 0.94677633 75 76 78
0.87425488 -0.30565208 0.94413906 75 76 78
0.87466854 -0.30522695 0.94282591 74 76 78
0.87508106 -0.30480304 0.94151646 70 78 76
-0.34571567 -0.28093502 0.87244767 174 175 173
-0.34138170 -0.27985451 0.86909211 168 173 170
-0.34119180 -0.28093502 0.87244767 167 175 171
-0.33924723 -0.28057390 0.87132627 156 165 161
-0.33861169 -0.28129706 0.87357193 134 140 137
-0.33710179 -0.28129706 0.87357193 99 104 103
-0.33515999 -0.28093502 0.87244767 47 48 52
-0.33451307 -0.28166002 0.87469918 48 49 54
-0.33257210 -0.28129706 0.87357193 48 48 55
-0.09833066 -0.15232834 0.47305781 39 39 42
-0.09710643 -0.15169320 0.47108537 40 40 43
-0.09589237 -0.15106332 0.46912929 39 39 43
-0.09100366 -0.14709333 0.45680043 42 42 46
-0.09009270 -0.14689536 0.45618564 44 44 48
-0.00263628 -0.21720050 0.67451924 175 176 176
-0.00146897 -0.21698460 0.67384875 175 176 176
-0.00030427 -0.21698460 0.67384875 176 176 176
0.00085532 -0.21569812 0.66985363 176 176 176
0.00201112 -0.21548520 0.66919231 176 176 176
0.00316776 -0.21548520 0.66919231 176 176 176
0.00433725 -0.21612525 0.67118007 176 176 176
0.00549190 -0.21591148 0.67051619 174 174 174
0.00664426 -0.21569812 0.66985363 174 174 174
0.00780976 -0.21591148 0.67051619 173 173 173
0.00896869 -0.21591148 0.67051619 157 157 153
0.01013765 -0.21612525 0.67118007 144 144 140
0.01130893 -0.21633945 0.67184526 117 117 115
0.01247016 -0.21633945 0.67184526 56 56 56
0.01361790 -0.21612525 0.67118007 39 39 43
0.01476336 -0.21591148 0.67051619 44 43 51
0.01593806 -0.21612525 0.67118007 43 42 49
0.01711508 -0.21633945 0.67184526 40 40 47
0.01825822 -0.21612525 0.67118007 40 39 46
0.01947615 -0.21676913 0.67317957 40 40 44
0.02051743 -0.21548520 0.66919231 39 39 43
0.02167408 -0.21548520 0.66919231 40 40 44
0.14781244 -0.22620364 0.70247859 40 40 44
0.14887235 -0.22596946 0.70175141 42 42 45
0.15008527 -0.22596946 0.70175141 44 44 46
0.15129818 -0.22596946 0.70175141 43 43 45
0.15266915 -0.22620364 0.70247859 42 42 44
0.15404296 -0.22643828 0.70320731 43 43 45
0.15541962 -0.22667342 0.70393753 43 44 48
0.15647383 -0.22643828 0.70320731 40 41 45
0.15768926 -0.22643828 0.70320731 43 43 47
0.15890470 -0.22643828 0.70320731 119 120 121
0.15995421 -0.22620364 0.70247859 143 143 142
0.16116838 -0.22620364 0.70247859 154 154 149
0.16255102 -0.22643828 0.70320731 176 176 170
0.16376644 -0.22643828 0.70320731 173 174 168
0.16498189 -0.22643828 0.70320731 175 175 171
0.16619733 -0.22643828 0.70320731 175 175 171
0.16758661 -0.22667342 0.70393753 175 175 172
0.16880330 -0.22667342 0.70393753 176 176 175
0.16984363 -0.22643828 0.70320731 178 178 177
0.17070492 -0.22596946 0.70175141 179 179 177
0.17209598 -0.22620364 0.70247859 178 178 176
0.17331016 -0.22620364 0.70247859 179 179 177
0.17470539 -0.22643828 0.70320731 178 178 175
0.27461761 -0.20651515 0.64133573 178 179 175
0.27572611 -0.20651515 0.64133573 179 180 176
0.27683461 -0.20651515 0.64133573 179 179 175
0.27768040 -0.20631994 0.64072955 179 179 175
0.27826184 -0.20593067 0.63952059 179 179 175
0.27963099 -0.20612513 0.64012450 179 179 175
0.28073740 -0.20612513 0.64012450 178 178 174
0.28211021 -0.20631994 0.64072955 180 180 175
0.28321764 -0.20631994 0.64072955 184 184 176
0.28405660 -0.20612513 0.64012450 186 186 179
0.28516302 -0.20612513 0.64012450 170 171 164
0.28626940 -0.20612513 0.64012450 149 148 147
0.28764743 -0.20631994 0.64072955 117 116 116
0.28902805 -0.20651515 0.64133573 74 72 80
0.28986233 -0.20631994 0.64072955 58 57 64
0.29096979 -0.20631994 0.64072955 53 52 59
0.29207721 -0.20631994 0.64072955 52 51 57
0.29373994 -0.20671071 0.64194304 50 50 54
0.29540899 -0.20710295 0.64316112 48 48 52
0.37495631 -0.18251380 0.56679922 46 45 46
0.37562191 -0.18236132 0.56632566 49 49 49
0.37691566 -0.18251380 0.56679922 59 58 58
0.37757963 -0.18236132 0.56632566 73 72 72
0.37824246 -0.18220910 0.56585294 90 88 81
0.37953731 -0.18236132 0.56632566 108 102 82
0.38083431 -0.18251380 0.56679922 123 117 97
0.38149500 -0.18236132 0.56632566 125 120 97
0.38183588 -0.18205714 0.56538099 125 121 98
0.38313264 -0.18220910 0.56585294 124 118 94
0.38539746 -0.18281952 0.56774861 129 121 97
0.38573265 -0.18251380 0.56679922 131 122 98
0.38671231 -0.18251380 0.56679922 130 123 99
0.38479635 -0.18115063 0.56256586 130 123 100
0.86317468 -0.30529583 0.94810051 78 78 79
0.87136823 -0.30529583 0.94810051 75 75 75
0.87300694 -0.30529583 0.94810051 77 77 77
0.87464565 -0.30529583 0.94810051 77 77 76
0.87384009 -0.30444422 0.94545585 73 78 76
0.87425488 -0.30402020 0.94413906 68 76 72
0.87466854 -0.30359736 0.94282591 62 71 67
0.87386739 -0.30275521 0.94021058 64 73 70
0.87427986 -0.30233589 0.93890840 69 78 75
-0.34527132 -0.27906790 0.87132627 173 177 176
-0.34138170 -0.27835235 0.86909211 171 175 174
-0.34075326 -0.27906790 0.87132627 165 172 170
-0.33881176 -0.27870965 0.87020773 157 166 163
-0.33861169 -0.27978715 0.87357193 143 145 144
-0.33710179 -0.27978715 0.87357193 95 97 97
-0.33515999 -0.27942705 0.87244767 49 52 55
-0.33451307 -0.28014815 0.87469918 49 50 55
-0.33257210 -0.27978715 0.87357193 49 49 56
-0.33148938 -0.28014815 0.87469918 45 45 52
-0.09833066 -0.15151070 0.47305781 39 39 41
-0.09703899 -0.15077418 0.47075823 40 39 43
-0.09582605 -0.15014857 0.46880487 40 39 43
-0.09100366 -0.14630379 0.45680043 41 41 45
-0.09009270 -0.14610688 0.45618564 43 43 47
-0.00146897 -0.21581991 0.67384875 175 175 175
-0.00030397 -0.21560559 0.67317957 175 175 175
0.00085532 -0.21454035 0.66985363 176 176 176
0.00201112 -0.21432856 0.66919231 179 179 179
0.00316776 -0.21432856 0.66919231 179 179 179
0.00433725 -0.21496518 0.67118007 177 177 177
0.00549190 -0.21475254 0.67051619 175 175 175
0.00664426 -0.21454035 0.66985363 175 175 175
0.00780204 -0.21454035 0.66985363 173 173 172
0.00895983 -0.21454035 0.66985363 161 161 157
0.01012763 -0.21475254 0.67051619 148 148 145
0.01129774 -0.21496518 0.67118007 111 111 111
0.01245781 -0.21496518 0.67118007 36 36 37
0.01360443 -0.21475254 0.67051619 43 43 46
0.01474877 -0.21454035 0.66985363 44 44 49
0.01595385 -0.21517822 0.67184526 42 42 46
0.01713206 -0.21539170 0.67251176 39 39 44
0.01827631 -0.21517822 0.67184526 40 40 45
0.01947615 -0.21560559 0.67317957 40 40 45
0.02053771 -0.21454035 0.66985363 39 39 44
0.02169550 -0.21454035 0.66985363 39 39 44
0.14781244 -0.22498946 0.70247859 39 40 44
0.14902662 -0.22498946 0.70247859 41 42 45
0.15008527 -0.22475655 0.70175141 42 43 46
0.15145497 -0.22498946 0.70247859 44 44 46
0.15282752 -0.22522284 0.70320731 43 43 45
0.15420292 -0.22545673 0.70393753 43 43 45
0.15541962 -0.22545673 0.70393753 44 44 48
0.15647383 -0.22522284 0.70320731 41 41 44
0.15768926 -0.22522284 0.70320731 47 47 50
0.15890470 -0.22522284 0.70320731 127 126 124
0.16012014 -0.22522284 0.70320731 144 143 140
0.16116838 -0.22498946 0.70247859 161 161 154
0.16255102 -0.22522284 0.70320731 177 178 171
0.16376644 -0.22522284 0.70320731 172 173 167
0.16481093 -0.22498946 0.70247859 174 174 171
0.16619733 -0.22522284 0.70320731 175 175 173
0.16758661 -0.22545673 0.70393753 178 178 176
0.16880330 -0.22545673 0.70393753 178 178 176
0.16984363 -0.22522284 0.70320731 177 177 175
0.17070492 -0.22475655 0.70175141 178 178 176
0.17209598 -0.22498946 0.70247859 178 178 176
0.17331016 -0.22498946 0.70247859 178 178 176
0.27461761 -0.20540665 0.64133573 179 179 175
0.27572611 -0.20540665 0.64133573 179 179 175
0.27683461 -0.20540665 0.64133573 180 180 176
0.27768040 -0.20521250 0.64072955 180 180 176
0.27826184 -0.20482531 0.63952059 179 179 175
0.27963099 -0.20501871 0.64012450 179 179 175
0.28073740 -0.20501871 0.64012450 178 178 174
0.28211021 -0.20521250 0.64072955 179 179 173
0.28321764 -0.20521250 0.64072955 177 178 169
0.28405660 -0.20501871 0.64012450 181 182 175
0.28516302 -0.20501871 0.64012450 170 171 164
0.28626940 -0.20501871 0.64012450 148 147 146
0.28764743 -0.20521250 0.64072955 107 107 106
0.28902805 -0.20540665 0.64133573 74 73 76
0.29013655 -0.20540665 0.64133573 61 60 62
0.29124504 -0.20540665 0.64133573 51 51 54
0.29235354 -0.20540665 0.64133573 53 52 55
0.29373994 -0.20560116 0.64194304 50 50 52
0.29540899 -0.20599130 0.64316112 48 47 50
0.37495631 -0.18153414 0.56679922 47 46 46
0.37562191 -0.18138248 0.56632566 51 50 50
0.37691566 -0.18153414 0.56679922 59 58 58
0.37789533 -0.18153414 0.56679922 75 74 74
0.37855846 -0.18138248 0.56632566 93 89 81
0.37953731 -0.18138248 0.56632566 108 102 82
0.38115302 -0.18168604 0.56727350 122 116 96
0.38149500 -0.18138248 0.56632566 125 123 99
0.38183588 -0.18107992 0.56538099 126 123 99
0.38313264 -0.18123107 0.56585294 128 122 99
0.38539746 -0.18183821 0.56774861 129 122 99
0.38573265 -0.18153414 0.56679922 129 122 100
0.38638926 -0.18138248 0.56632566 130 123 101
0.38447729 -0.18002887 0.56209940 130 123 101
0.86153597 -0.30365708 0.94810051 79 79 79
0.86317468 -0.30365708 0.94810051 81 81 79
0.86481339 -0.30365708 0.94810051 79 79 77
0.86687839 -0.30323300 0.94677633 83 83 81
0.86851484 -0.30323300 0.94677633 80 80 78
0.87136823 -0.30365708 0.94810051 79 79 76
0.87300694 -0.30365708 0.94810051 78 78 74
0.87464565 -0.30365708 0.94810051 77 77 74
0.87384009 -0.30281007 0.94545585 76 79 74
0.87425488 -0.30238834 0.94413906 76 79 72
0.87345374 -0.30154836 0.94151646 78 82 76
0.87386739 -0.30113015 0.94021058 80 88 85
0.87427986 -0.30071306 0.93890840 79 85 83
-0.34571567 -0.27791911 0.87244767 173 177 176
-0.34138170 -0.27685019 0.86909211 170 174 172
-0.34075326 -0.27756187 0.87132627 161 165 163
-0.33837739 -0.27685019 0.86909211 149 153 150
-0.33861169 -0.27827725 0.87357193 138 139 140
-0.33710179 -0.27827725 0.87357193 98 99 101
-0.33472919 -0.27756187 0.87132627 33 36 42
-0.33451307 -0.27863631 0.87469918 49 51 58
-0.33257210 -0.27827725 0.87357193 47 47 55
-0.33106220 -0.27827725 0.87357193 46 46 54
-0.32535952 -0.27473682 0.86245781 45 45 52
-0.09907916 -0.15058796 0.47272792 39 39 41
-0.09826209 -0.15058796 0.47272792 38 38 40
-0.09697165 -0.14985645 0.47043154 38 38 41
-0.09575983 -0.14923507 0.46848089 39 39 41
-0.09106502 -0.14561237 0.45710847 40 39 46
-0.09015337 -0.14541626 0.45649281 41 41 45
-0.00146751 -0.21444204 0.67317957 176 176 176
-0.00030367 -0.21422932 0.67251176 175 175 177
0.00085447 -0.21317191 0.66919231 172 172 174
0.00200914 -0.21296167 0.66853237 174 174 177
0.00316776 -0.21317191 0.66919231 174 174 178
0.00433725 -0.21380509 0.67118007 173 173 173
0.00548647 -0.21338256 0.66985363 175 175 175
0.00663770 -0.21317191 0.66919231 175 175 174
0.00780204 -0.21338256 0.66985363 174 174 166
0.00895983 -0.21338256 0.66985363 163 164 156
0.01012763 -0.21359362 0.67051619 149 150 144
0.01128656 -0.21359362 0.67051619 111 111 111
0.01244549 -0.21359362 0.67051619 33 34 38
0.01360443 -0.21359362 0.67051619 44 44 50
0.01474877 -0.21338256 0.66985363 45 44 53
0.01595385 -0.21401699 0.67184526 41 40 49
0.01711508 -0.21401699 0.67184526 40 39 48
0.01825822 -0.21380509 0.67118007 40 39 48
0.01945683 -0.21422932 0.67251176 40 40 45
0.02053771 -0.21338256 0.66985363 39 39 44
0.02171696 -0.21359362 0.67051619 38 39 43
0.14765942 -0.22354363 0.70175141 40 41 45
0.14887235 -0.22354363 0.70175141 41 42 46
0.14993006 -0.22331245 0.70102566 42 43 47
0.15145497 -0.22377528 0.70247859 43 44 48
0.15282752 -0.22400741 0.70320731 43 44 48
0.15420292 -0.22424002 0.70393753 44 44 48
0.15541962 -0.22424002 0.70393753 44 45 47
0.15647383 -0.22400741 0.70320731 43 44 46
0.15768926 -0.22400741 0.70320731 53 53 55
0.15890470 -0.22400741 0.70320731 133 133 133
0.15995421 -0.22377528 0.70247859 143 144 143
0.16116838 -0.22377528 0.70247859 165 165 161
0.16238257 -0.22377528 0.70247859 176 176 173
0.16376644 -0.22400741 0.70320731 175 175 172
0.16481093 -0.22377528 0.70247859 177 177 175
0.16619733 -0.22400741 0.70320731 177 177 175
0.16776080 -0.22447312 0.70466930 178 178 176
0.16880330 -0.22424002 0.70393753 178 178 176
0.17002000 -0.22424002 0.70393753 178 178 176
0.17088181 -0.22377528 0.70247859 178 178 176
0.17227450 -0.22400741 0.70320731 178 178 176
0.17348994 -0.22400741 0.70320731 178 178 176
0.27487767 -0.20449162 0.64194304 179 179 175
0.27598721 -0.20449162 0.64194304 178 178 174
0.27709678 -0.20449162 0.64194304 179 179 175
0.27794310 -0.20429815 0.64133573 179 179 175
0.27852461 -0.20391232 0.64012450 179 179 175
0.27963099 -0.20391232 0.64012450 179 179 175
0.28073740 -0.20391232 0.64012450 180 181 174
0.28211021 -0.20410505 0.64072955 180 181 174
0.28321764 -0.20410505 0.64072955 178 179 172
0.28432509 -0.20410505 0.64072955 184 185 178
0.28543255 -0.20410505 0.64072955 171 172 165
0.28626940 -0.20391232 0.64012450 144 144 142
0.28764743 -0.20410505 0.64072955 110 110 108
0.28902805 -0.20429815 0.64133573 75 75 77
0.29013655 -0.20429815 0.64133573 61 61 63
0.29124504 -0.20429815 0.64133573 54 53 55
0.29235354 -0.20429815 0.64133573 53 51 53
0.29373994 -0.20449162 0.64194304 50 46 47
0.29512897 -0.20468545 0.64255148 49 45 47
0.29428184 -0.20257330 0.63592106 49 45 47
0.37464309 -0.18040363 0.56632566 46 47 47
0.37562191 -0.18040363 0.56632566 52 53 53
0.37691566 -0.18055446 0.56679922 58 57 57
0.37789533 -0.18055446 0.56679922 75 73 73
0.37887499 -0.18055446 0.56679922 94 89 79
0.37985465 -0.18055446 0.56679922 110 105 82
0.38115302 -0.18070556 0.56727350 122 117 94
0.38149500 -0.18040363 0.56632566 125 120 97
0.38183588 -0.18010271 0.56538099 126 121 98
0.38345271 -0.18040363 0.56632566 126 120 98
0.38572052 -0.18100850 0.56822449 127 121 98
0.38605544 -0.18070556 0.56727350 127 122 99
0.38638926 -0.18040363 0.56632566 128 122 99
0.86153597 -0.30201837 0.94810051 75 76 75
0.86317468 -0.30201837 0.94810051 74 75 74
0.86481339 -0.30201837 0.94810051 73 75 73
0.86645210 -0.30201837 0.94810051 79 79 78
0.86687839 -0.30159658 0.94677633 81 80 80
0.86851484 -0.30159658 0.94677633 80 79 79
0.87136823 -0.30201837 0.94810051 77 77 75
0.87300694 -0.30201837 0.94810051 76 76 75
0.87464565 -0.30201837 0.94810051 76 76 75
0.87384009 -0.30117592 0.94545585 76 77 74
0.87425488 -0.30075645 0.94413906 75 76 73
0.87466854 -0.30033818 0.94282591 74 75 74
0.87386739 -0.29950505 0.94021058 74 75 75
-0.34660783 -0.27712446 0.87469918 172 176 175
-0.34509599 -0.27712446 0.87469918 172 177 176
-0.34181991 -0.27570149 0.87020773 171 175 172
-0.33924723 -0.27605587 0.87132627 163 165 161
-0.33904859 -0.27712446 0.87469918 145 147 146
-0.33710179 -0.27676734 0.87357193 92 94 95
-0.33515999 -0.27641115 0.87244767 40 42 49
-0.33451307 -0.27712446 0.87469918 45 48 56
-0.33257210 -0.27676734 0.87357193 46 49 57
-0.33148938 -0.27712446 0.87469918 44 46 54
-0.32828316 -0.27570149 0.87020773 44 44 52
-0.32222900 -0.27186260 0.85809094 44 44 49
-0.09901012 -0.14966652 0.47239849 39 39 43
-0.09819362 -0.14966652 0.47239849 38 38 42
-0.09690440 -0.14893998 0.47010529 38 38 42
-0.09575983 -0.14842534 0.46848089 39 39 43
-0.09106502 -0.14482230 0.45710847 40 40 44
-0.09015337 -0.14462724 0.45649281 41 41 45
-0.08917585 -0.14560777 0.45958769 48 48 52
-0.08826182 -0.14541060 0.45896536 56 54 58
-0.00146751 -0.21327852 0.67317957 175 176 176
-0.00030367 -0.21306692 0.67251176 175 176 176
0.00085447 -0.21201527 0.66919231 177 177 178
0.00200914 -0.21180618 0.66853237 177 177 179
0.00316464 -0.21180618 0.66853237 176 176 178
0.00433296 -0.21243468 0.67051619 176 176 176
0.00548647 -0.21222477 0.66985363 175 175 175
0.00663770 -0.21201527 0.66919231 174 174 174
0.00779434 -0.21201527 0.66919231 175 175 166
0.00895099 -0.21201527 0.66919231 158 159 150
0.01011762 -0.21222477 0.66985363 141 142 135
0.01128656 -0.21243468 0.67051619 110 111 111
0.01244549 -0.21243468 0.67051619 35 35 41
0.01359098 -0.21222477 0.66985363 44 44 52
0.01474877 -0.21222477 0.66985363 43 43 52
0.01595385 -0.21285576 0.67184526 40 40 49
0.01711508 -0.21285576 0.67184526 40 39 48
0.01825822 -0.21264501 0.67118007 39 39 48
0.01945683 -0.21306692 0.67251176 39 39 45
0.02055802 -0.21243468 0.67051619 38 38 45
0.14856476 -0.22187135 0.70030147 42 42 46
0.14977518 -0.22187135 0.70030147 43 43 47
0.15129818 -0.22233070 0.70175141 44 44 48
0.15266915 -0.22256111 0.70247859 44 44 48
0.15404296 -0.22279197 0.70320731 45 45 48
0.15525839 -0.22279197 0.70320731 45 46 49
0.15631168 -0.22256111 0.70247859 40 40 43
0.15752585 -0.22256111 0.70247859 51 52 55
0.15874003 -0.22256111 0.70247859 118 119 119
0.15978862 -0.22233070 0.70175141 144 145 145
0.16100155 -0.22233070 0.70175141 163 163 163
0.16238257 -0.22256111 0.70247859 176 176 175
0.16359675 -0.22256111 0.70247859 177 177 175
0.16481093 -0.22256111 0.70247859 178 178 176
0.16619733 -0.22279197 0.70320731 178 178 176
0.16776080 -0.22325516 0.70466930 178 178 176
0.16897878 -0.22325516 0.70466930 178 178 178
0.17002000 -0.22302333 0.70393753 178 178 177
0.17105907 -0.22279197 0.70320731 178 178 176
0.17263266 -0.22325516 0.70466930 178 178 176
0.17385063 -0.22325516 0.70466930 178 178 176
0.27513823 -0.20357485 0.64255148 179 179 177
0.27624881 -0.20357485 0.64255148 178 178 176
0.27735943 -0.20357485 0.64255148 178 178 176
0.27820632 -0.20338206 0.64194304 179 179 175
0.27878785 -0.20299760 0.64072955 179 180 174
0.27963099 -0.20280591 0.64012450 179 180 173
0.28073740 -0.20280591 0.64012450 178 179 172
0.28211021 -0.20299760 0.64072955 178 179 172
0.28321764 -0.20299760 0.64072955 181 181 175
0.28432509 -0.20299760 0.64072955 184 185 180
0.28543255 -0.20299760 0.64072955 170 170 165
0.28626940 -0.20280591 0.64012450 140 140 138
0.28764743 -0.20299760 0.64072955 114 114 112
0.28875488 -0.20299760 0.64072955 78 78 80
0.28986233 -0.20299760 0.64072955 61 60 63
0.29096979 -0.20299760 0.64072955 59 55 61
0.29235354 -0.20318966 0.64133573 54 50 55
0.29373994 -0.20338206 0.64194304 50 46 49
0.29512897 -0.20357485 0.64255148 49 46 50
0.29428184 -0.20147417 0.63592106 44 43 46
0.36893260 -0.17808579 0.56209940 45 45 46
0.37051859 -0.17838161 0.56303310 46 46 47
0.37366423 -0.17942478 0.56632566 47 47 47
0.37464309 -0.17942478 0.56632566 47 48 48
0.37530839 -0.17927501 0.56585294 49 50 50
0.37691566 -0.17957480 0.56679922 55 50 51
0.37821156 -0.17972508 0.56727350 77 70 71
0.37919202 -0.17972508 0.56727350 103 97 83
0.37985465 -0.17957480 0.56679922 116 111 88
0.38147223 -0.17987560 0.56774861 119 114 91
0.38181400 -0.17957480 0.56679922 123 118 95
0.38215461 -0.17927501 0.56585294 125 120 97
0.38345271 -0.17942478 0.56632566 125 120 97
0.38636824 -0.18032868 0.56917870 124 119 96
0.38605544 -0.17972508 0.56727350 125 119 97
0.38574472 -0.17912549 0.56538099 128 121 99
0.86274260 -0.30080035 0.94942838 72 75 75
0.86438358 -0.30080035 0.94942838 70 74 74
0.86481339 -0.30037966 0.94810051 71 75 75
0.86809081 -0.30037966 0.94810051 76 76 78
0.86851484 -0.29996014 0.94677633 75 76 78
0.87136823 -0.30037966 0.94810051 75 76 76
0.87300694 -0.30037966 0.94810051 75 76 76
0.87464565 -0.30037966 0.94810051 75 76 76
0.87506050 -0.29996014 0.94677633 74 75 75
0.87547421 -0.29954180 0.94545585 69 70 70
0.87466854 -0.29870856 0.94282591 66 67 68
0.87508106 -0.29829371 0.94151646 69 70 72
-0.34554186 -0.27596870 0.87582928 170 175 174
-0.34181991 -0.27419740 0.87020773 168 172 167
-0.34012160 -0.27525744 0.87357193 163 166 160
-0.33948666 -0.27596870 0.87582928 145 149 145
-0.33753675 -0.27561262 0.87469918 101 106 105
-0.33559188 -0.27525744 0.87357193 50 54 59
-0.33494526 -0.27596870 0.87582928 43 47 55
-0.33300123 -0.27561262 0.87469918 43 48 55
-0.33148938 -0.27561262 0.87469918 42 46 54
-0.32870513 -0.27454984 0.87132627 41 44 52
-0.32510972 -0.27279666 0.86576223 41 43 51
-0.09894117 -0.14874637 0.47206953 39 39 43
-0.09812523 -0.14874637 0.47206953 39 39 43
-0.09683725 -0.14802480 0.46977952 38 38 42
-0.09569369 -0.14751366 0.46815735 39 39 43
-0.09204129 -0.14432418 0.45803502 40 40 44
-0.09112647 -0.14412941 0.45741689 41 41 45
-0.08954009 -0.14540489 0.46146482 48 49 53
-0.08838149 -0.14481342 0.45958769 49 49 53
-0.00030397 -0.21211497 0.67317957 176 177 177
0.00085532 -0.21106698 0.66985363 176 177 176
0.00200914 -0.21065067 0.66853237 175 176 175
0.00316464 -0.21065067 0.66853237 175 176 176
0.00433296 -0.21127574 0.67051619 175 176 176
0.00548647 -0.21106698 0.66985363 176 177 176
0.00663770 -0.21085861 0.66919231 173 174 172
0.00779434 -0.21085861 0.66919231 175 175 171
0.00895099 -0.21085861 0.66919231 158 160 155
0.01010763 -0.21085861 0.66919231 145 147 143
0.01127541 -0.21106698 0.66985363 111 116 114
0.01243320 -0.21106698 0.66985363 28 30 34
0.01359098 -0.21106698 0.66985363 42 44 48
0.01595385 -0.21169452 0.67184526 42 42 49
0.01711508 -0.21169452 0.67184526 40 40 47
0.01825822 -0.21148494 0.67118007 38 38 45
0.01945683 -0.21190454 0.67251176 38 38 45
0.02057838 -0.21148494 0.67118007 39 39 44
0.14825843 -0.22020596 0.69885755 41 41 43
0.14946635 -0.22020596 0.69885755 41 41 43
0.15114172 -0.22088912 0.70102566 43 43 45
0.15251110 -0.22111778 0.70175141 44 44 47
0.15404296 -0.22157654 0.70320731 45 45 47
0.15509750 -0.22134693 0.70247859 46 46 48
0.15631168 -0.22134693 0.70247859 37 37 40
0.15752585 -0.22134693 0.70247859 50 50 54
0.15874003 -0.22134693 0.70247859 118 118 120
0.15978862 -0.22111778 0.70175141 145 145 147
0.16100155 -0.22111778 0.70175141 163 163 161
0.16238257 -0.22134693 0.70247859 176 176 174
0.16359675 -0.22134693 0.70247859 176 176 174
0.16498189 -0.22157654 0.70320731 177 177 175
0.16619733 -0.22157654 0.70320731 178 178 176
0.16793539 -0.22226824 0.70540255 178 178 176
0.16915461 -0.22226824 0.70540255 177 178 177
0.17019674 -0.22203720 0.70466930 178 178 177
0.17159307 -0.22226824 0.70540255 180 180 178
0.17299232 -0.22249977 0.70613736 178 178 176
0.17421281 -0.22249977 0.70613736 179 179 177
0.27539927 -0.20265634 0.64316112 182 182 178
0.27624881 -0.20246425 0.64255148 182 182 177
0.27762258 -0.20265634 0.64316112 179 180 173
0.27847001 -0.20246425 0.64255148 179 180 173
0.27878785 -0.20189016 0.64072955 179 180 173
0.27989531 -0.20189016 0.64072955 179 180 173
0.28073740 -0.20169951 0.64012450 180 181 174
0.28211021 -0.20189016 0.64072955 177 177 172
0.28321764 -0.20189016 0.64072955 180 180 176
0.28432509 -0.20189016 0.64072955 184 184 182
0.28543255 -0.20189016 0.64072955 170 170 167
0.28653997 -0.20189016 0.64072955 138 138 136
0.28764743 -0.20189016 0.64072955 112 112 111
0.28902805 -0.20208116 0.64133573 78 78 80
0.29013655 -0.20208116 0.64133573 55 54 58
0.29096979 -0.20189016 0.64072955 55 54 61
0.29235354 -0.20208116 0.64133573 51 50 56
0.29373994 -0.20227252 0.64194304 48 47 51
0.29512897 -0.20246425 0.64255148 47 47 51
0.29708436 -0.20304161 0.64438391 45 44 48
0.29455814 -0.20056318 0.63651818 44 44 46
0.36893260 -0.17711425 0.56209940 45 46 46
0.37051859 -0.17740846 0.56303310 46 46 46
0.37428960 -0.17874458 0.56727350 47 47 47
0.37495631 -0.17859514 0.56679922 48 48 48
0.37562191 -0.17844594 0.56632566 48 47 47
0.37723106 -0.17874458 0.56727350 49 41 41
0.37852833 -0.17889430 0.56774861 79 70 71
0.37950963 -0.17889430 0.56774861 106 99 85
0.38017252 -0.17874458 0.56727350 116 111 88
0.38211229 -0.17919445 0.56870121 120 115 92
0.38213348 -0.17874458 0.56727350 123 118 95
0.38247386 -0.17844594 0.56632566 126 121 98
0.38409448 -0.17874458 0.56727350 124 119 96
0.38701814 -0.17964658 0.57013613 125 119 96
0.38605544 -0.17874458 0.56727350 129 121 100
0.38446212 -0.17755593 0.56350112 131 122 100
0.38165131 -0.17536928 0.55656147 134 113 93
0.86274260 -0.29915935 0.94942838 73 76 76
0.86481339 -0.29874095 0.94810051 74 76 77
0.86851484 -0.29832372 0.94677633 74 75 75
0.87015122 -0.29832372 0.94677633 75 76 76
0.87178767 -0.29832372 0.94677633 75 76 76
0.87464565 -0.29874095 0.94810051 75 76 76
0.87506050 -0.29832372 0.94677633 74 75 75
0.87547421 -0.29790765 0.94545585 73 74 74
0.87466854 -0.29707897 0.94282591 74 75 76
0.87508106 -0.29666635 0.94151646 74 76 77
-0.34643704 -0.27516595 0.87809825 170 174 172
-0.34144160 -0.27480996 0.87696230 162 164 156
-0.33992583 -0.27480996 0.87696230 136 138 132
-0.33797285 -0.27445492 0.87582928 102 106 107
-0.33645907 -0.27445492 0.87582928 52 55 60
-0.33494526 -0.27445492 0.87582928 39 42 52
-0.33300123 -0.27410078 0.87469918 43 46 56
-0.33191764 -0.27445492 0.87582928 42 45 55
-0.32955229 -0.27374756 0.87357193 40 41 52
-0.32677907 -0.27269334 0.87020773 40 40 50
-0.32088745 -0.27026474 0.86245781 40 40 48
-0.09887231 -0.14782749 0.47174102 37 38 40
-0.09792066 -0.14762203 0.47108537 38 38 42
-0.09670322 -0.14700906 0.46912929 39 39 43
-0.09556171 -0.14650214 0.46751162 39 39 41
-0.09210352 -0.14362955 0.45834473 40 40 44
-0.09112647 -0.14333880 0.45741689 41 42 46
-0.08954009 -0.14460729 0.46146482 46 47 51
-0.08832161 -0.14392148 0.45927632 55 55 61
0.00085532 -0.20990919 0.66985363 175 176 176
0.00201112 -0.20970197 0.66919231 177 178 178
0.00316464 -0.20949517 0.66853237 177 178 178
0.00433296 -0.21011682 0.67051619 175 176 176
0.00548647 -0.20990919 0.66985363 177 178 176
0.00663770 -0.20970197 0.66919231 175 176 174
0.00778666 -0.20949517 0.66853237 175 176 172
0.00894216 -0.20949517 0.66853237 159 162 158
0.01711508 -0.21053331 0.67184526 41 42 46
0.01825822 -0.21032485 0.67118007 39 40 44
0.14810576 -0.21877250 0.69813782 41 41 45
0.14915881 -0.21854743 0.69741958 41 41 45
0.15098558 -0.21945052 0.70030147 42 42 46
0.15251110 -0.21990487 0.70175141 44 44 47
0.15388332 -0.22013275 0.70247859 45 45 47
0.15509750 -0.22013275 0.70247859 46 46 48
0.15631168 -0.22013275 0.70247859 44 41 46
0.15752585 -0.22013275 0.70247859 60 55 64
0.15874003 -0.22013275 0.70247859 124 124 126
0.15978862 -0.21990487 0.70175141 143 143 144
0.16100155 -0.21990487 0.70175141 160 160 158
0.16238257 -0.22013275 0.70247859 176 176 174
0.16376644 -0.22036110 0.70320731 174 174 172
0.16498189 -0.22036110 0.70320731 175 175 173
0.16636990 -0.22058992 0.70393753 177 177 175
0.16811031 -0.22127928 0.70613736 178 178 176
0.16950738 -0.22151001 0.70687366 178 178 176
0.17055131 -0.22127928 0.70613736 178 178 176
0.17195094 -0.22151001 0.70687366 178 178 176
0.17335348 -0.22174123 0.70761150 178 178 176
0.27539927 -0.20154469 0.64316112 180 181 174
0.27624881 -0.20135365 0.64255148 180 181 174
0.27735943 -0.20135365 0.64255148 180 181 174
0.27847001 -0.20135365 0.64255148 180 181 174
0.27878785 -0.20078270 0.64072955 179 180 173
0.27963099 -0.20059311 0.64012450 179 180 173
0.28073740 -0.20059311 0.64012450 179 180 174
0.28211021 -0.20078270 0.64072955 176 176 173
0.28348559 -0.20097266 0.64133573 178 178 176
0.28432509 -0.20078270 0.64072955 185 185 183
0.28543255 -0.20078270 0.64072955 170 170 168
0.28653997 -0.20078270 0.64072955 139 139 137
0.28764743 -0.20078270 0.64072955 108 107 106
0.28902805 -0.20097266 0.64133573 78 77 79
0.29013655 -0.20097266 0.64133573 53 53 57
0.29096979 -0.20078270 0.64072955 52 52 60
0.29235354 -0.20097266 0.64133573 52 52 57
0.29346204 -0.20097266 0.64133573 49 49 53
0.29484949 -0.20116298 0.64194304 49 49 53
0.36857229 -0.17643531 0.56303310 43 44 44
0.36832178 -0.17585108 0.56116873 45 45 45
0.37082660 -0.17658196 0.56350112 46 46 46
0.37558439 -0.17791298 0.56774861 47 47 47
0.37625059 -0.17776410 0.56727350 47 46 47
0.37916341 -0.17821150 0.56870121 77 71 71
0.38014638 -0.17821150 0.56870121 107 102 85
0.38080987 -0.17806211 0.56822449 119 114 91
0.38243312 -0.17836113 0.56917870 123 116 94
0.38245353 -0.17791298 0.56774861 128 118 97
0.38279366 -0.17761546 0.56679922 131 120 99
0.38767025 -0.17896217 0.57109678 131 116 99
0.38605544 -0.17776410 0.56727350 131 119 99
0.38350576 -0.17614271 0.56209940 130 118 97
0.38257393 -0.17527071 0.55931669 133 116 97
0.38165131 -0.17440730 0.55656147 132 110 95
0.86274260 -0.29751834 0.94942838 74 76 75
0.86851484 -0.29668730 0.94677633 74 77 77
0.87015122 -0.29668730 0.94677633 72 75 74
0.87178767 -0.29668730 0.94677633 71 76 76
0.87464565 -0.29710224 0.94810051 72 77 77
0.87384009 -0.29627350 0.94545585 72 76 76
0.87425488 -0.29586086 0.94413906 69 75 75
0.87466854 -0.29544938 0.94282591 69 74 74
0.87508106 -0.29503903 0.94151646 70 75 75
-0.34824139 -0.27507347 0.88267165 171 175 170
-0.34125021 -0.27435899 0.88037902 139 141 132
-0.33884844 -0.27364820 0.87809825 114 118 119
-0.33776823 -0.27400315 0.87923717 56 59 63
-0.33581299 -0.27364820 0.87809825 36 39 49
-0.33386281 -0.27329421 0.87696230 43 46 56
-0.33234704 -0.27329421 0.87696230 42 45 55
-0.32997754 -0.27258894 0.87469918 40 43 53
-0.32294178 -0.27049479 0.86797929 41 40 47
-0.09859786 -0.14660403 0.47043154 36 36 40
-0.09764922 -0.14640084 0.46977952 37 37 41
-0.09656956 -0.14599614 0.46848089 39 39 43
-0.09497222 -0.14479536 0.46462771 39 39 43
-0.09295858 -0.14293398 0.45865482 40 40 43
-0.09210352 -0.14283733 0.45834473 41 41 43
-0.09112647 -0.14254819 0.45741689 41 41 43
-0.08947917 -0.14371185 0.46115091 46 47 51
-0.08832161 -0.14312765 0.45927632 53 54 57
0.14900552 -0.21711862 0.69670284 42 41 45
0.15388332 -0.21891856 0.70247859 45 45 47
0.15525839 -0.21914567 0.70320731 48 44 48
0.15631168 -0.21891856 0.70247859 43 39 45
0.15752585 -0.21891856 0.70247859 60 55 65
0.15874003 -0.21891856 0.70247859 125 125 128
0.15978862 -0.21869195 0.70175141 148 148 149
0.16100155 -0.21869195 0.70175141 164 164 164
0.16532488 -0.21960127 0.70466930 175 175 172
0.16654284 -0.21960127 0.70466930 177 177 174
0.16846128 -0.22051819 0.70761150 177 178 174
0.16986163 -0.22074860 0.70835096 178 178 174
0.17090738 -0.22051819 0.70761150 178 178 175
0.17231029 -0.22074860 0.70835096 177 177 174
0.17353462 -0.22074860 0.70835096 179 179 178
0.27598721 -0.20005342 0.64194304 180 181 174
0.27735943 -0.20024306 0.64255148 180 181 174
0.27847001 -0.20024306 0.64255148 180 180 174
0.27878785 -0.19967526 0.64072955 179 179 175
0.27963099 -0.19948670 0.64012450 180 180 175
0.28073740 -0.19948670 0.64012450 180 180 176
0.28211021 -0.19967526 0.64072955 178 178 175
0.28321764 -0.19967526 0.64072955 178 178 174
0.28405660 -0.19948670 0.64012450 183 183 181
0.28516302 -0.19948670 0.64012450 168 168 165
0.28626940 -0.19948670 0.64012450 137 137 135
0.28737581 -0.19948670 0.64012450 102 102 102
0.28875488 -0.19967526 0.64072955 69 68 78
0.28986233 -0.19967526 0.64072955 57 56 66
0.29069501 -0.19948670 0.64012450 54 53 62
0.29207721 -0.19967526 0.64072955 52 51 56
0.29346204 -0.19986416 0.64133573 51 50 53
0.29484949 -0.20005342 0.64194304 50 49 51
0.37098858 -0.17707998 0.56822449 41 41 41
0.36857229 -0.17546214 0.56303310 43 43 44
0.37554666 -0.17737734 0.56917870 46 45 47
0.37621456 -0.17722854 0.56870121 47 46 48
0.37688133 -0.17707998 0.56822449 47 46 47
0.37849802 -0.17737734 0.56917870 46 42 43
0.37948179 -0.17737734 0.56917870 77 73 74
0.38046557 -0.17737734 0.56917870 110 105 89
0.38112932 -0.17722854 0.56870121 118 114 95
0.38243312 -0.17737734 0.56917870 124 116 97
0.38277411 -0.17707998 0.56822449 130 117 99
0.38375625 -0.17707998 0.56822449 131 118 100
0.38603270 -0.17767571 0.57013613 130 117 99
0.38799712 -0.17812514 0.57157826 130 117 99
0.38605544 -0.17678362 0.56727350 131 117 97
0.38382402 -0.17531653 0.56256586 130 117 96
0.38257393 -0.17430398 0.55931669 131 112 96
0.38165131 -0.17344533 0.55656147 129 107 94
0.86274260 -0.29587734 0.94942838 72 76 75
0.87178767 -0.29505086 0.94677633 68 77 75
0.87464565 -0.29546353 0.94810051 70 78 76
0.87384009 -0.29463935 0.94545585 71 77 75
0.87425488 -0.29422900 0.94413906 69 75 73
0.87345374 -0.29341170 0.94151646 69 76 75
-0.33908764 -0.27354783 0.88267165 49 53 54
-0.33668524 -0.27283731 0.88037902 45 48 56
-0.33429527 -0.27213049 0.87809825 44 46 55
-0.33277756 -0.27213049 0.87809825 43 44 55
-0.33083129 -0.27177843 0.87696230 37 38 46
-0.32889006 -0.27142730 0.87582928 36 36 44
-0.32737625 -0.27142730 0.87582928 39 39 42
-0.32460430 -0.27037933 0.87244767 40 40 43
-0.09859786 -0.14579093 0.47043154 37 37 39
-0.09751407 -0.14538737 0.46912929 38 38 40
-0.09656956 -0.14518641 0.46848089 39 39 41
-0.09477734 -0.14369681 0.46367431 39 39 41
-0.09289573 -0.14204513 0.45834473 41 40 42
-0.09204129 -0.14194915 0.45803502 41 41 43
-0.09106502 -0.14166200 0.45710847 41 41 42
-0.08954009 -0.14301208 0.46146482 48 45 50
-0.08832161 -0.14233384 0.45927632 56 53 57
-0.08723229 -0.14185330 0.45772576 83 79 82
0.15647383 -0.21793023 0.70320731 41 38 42
0.27546552 -0.19856781 0.64072955 180 180 175
0.27683461 -0.19875567 0.64133573 180 181 174
0.27794310 -0.19875567 0.64133573 180 181 174
0.27826184 -0.19819315 0.63952059 179 180 173
0.27936721 -0.19819315 0.63952059 180 180 175
0.28047255 -0.19819315 0.63952059 181 181 177
0.28157791 -0.19819315 0.63952059 182 182 178
0.28295022 -0.19838031 0.64012450 178 178 174
0.28378862 -0.19819315 0.63952059 183 183 179
0.28516302 -0.19838031 0.64012450 166 166 162
0.28599933 -0.19819315 0.63952059 136 136 133
0.28737581 -0.19838031 0.64012450 100 100 98
0.28848222 -0.19838031 0.64012450 64 65 67
0.28958863 -0.19838031 0.64012450 56 56 59
0.29069501 -0.19838031 0.64012450 55 55 58
0.29207721 -0.19856781 0.64072955 51 51 53
0.29318467 -0.19856781 0.64072955 49 49 51
0.29457054 -0.19875567 0.64133573 48 47 49
0.37098858 -0.17609785 0.56822449 42 41 43
0.36887866 -0.17463402 0.56350112 44 43 45
0.36893260 -0.17419961 0.56209940 45 44 46
0.37299699 -0.17565614 0.56679922 45 44 46
0.37554666 -0.17639357 0.56917870 46 46 48
0.37621456 -0.17624559 0.56870121 47 46 48
0.37688133 -0.17609785 0.56822449 45 44 45
0.37849802 -0.17639357 0.56917870 50 46 47
0.37980068 -0.17654179 0.56965703 85 81 82
0.38046557 -0.17639357 0.56917870 107 105 90
0.38144934 -0.17639357 0.56917870 113 111 94
0.38275450 -0.17654179 0.56965703 122 113 96
0.38309523 -0.17624559 0.56870121 129 116 98
0.38407820 -0.17624559 0.56870121 131 118 100
0.38733578 -0.17728670 0.57206064 130 116 97
0.38799712 -0.17713721 0.57157826 131 117 97
0.38605544 -0.17580312 0.56727350 132 118 97
0.38350576 -0.17419961 0.56209940 129 115 93
0.38102564 -0.17220061 0.55564904 125 106 92
0.87464565 -0.29382482 0.94810051 70 76 74
0.87384009 -0.29300523 0.94545585 71 77 75
0.87425488 -0.29259712 0.94413906 69 75 73
-0.33800212 -0.27237687 0.88382250 54 57 65
-0.33559942 -0.27166846 0.88152385 43 46 54
-0.33407578 -0.27166846 0.88152385 43 46 54
-0.33168948 -0.27096376 0.87923717 43 44 52
-0.32974210 -0.27061278 0.87809825 42 42 49
-0.32822439 -0.27061278 0.87809825 39 40 43
-0.09873489 -0.14517933 0.47108537 37 37 42
-0.09751407 -0.14457650 0.46912929 37 37 42
-0.09458326 -0.14260277 0.46272480 39 39 42
-0.09289573 -0.14125291 0.45834473 40 40 43
-0.09204129 -0.14115748 0.45803502 40 40 44
-0.09106502 -0.14087193 0.45710847 40 40 41
-0.08917585 -0.14163597 0.45958769 48 44 47
-0.08826182 -0.14144418 0.45896536 52 47 51
-0.08723229 -0.14106216 0.45772576 83 77 81
0.27494577 -0.19708779 0.63952059 180 181 176
0.27605113 -0.19708779 0.63952059 182 183 176
0.27741820 -0.19727390 0.64012450 181 181 176
0.27773780 -0.19671662 0.63831621 179 180 174
0.27884108 -0.19671662 0.63831621 179 180 175
0.27994436 -0.19671662 0.63831621 180 180 176
0.28131253 -0.19690204 0.63891786 179 179 175
0.28268328 -0.19708779 0.63952059 178 178 174
0.28352115 -0.19690204 0.63891786 182 183 177
0.28489399 -0.19708779 0.63952059 165 165 159
0.28599933 -0.19708779 0.63952059 135 136 130
0.28710470 -0.19708779 0.63952059 97 97 94
0.28848222 -0.19727390 0.64012450 69 69 70
0.28958863 -0.19727390 0.64012450 59 59 60
0.29042077 -0.19708779 0.63952059 54 54 55
0.29180142 -0.19727390 0.64012450 53 49 51
0.29290783 -0.19727390 0.64012450 52 46 48
0.29429212 -0.19746035 0.64072955 48 46 46
0.37156370 -0.17585275 0.57061601 40 40 41
0.37129980 -0.17526263 0.56870121 42 41 43
0.36949295 -0.17394926 0.56443948 43 43 45
0.37046853 -0.17394926 0.56443948 40 40 42
0.37362176 -0.17496906 0.56774861 44 44 45
0.37554666 -0.17540979 0.56917870 45 45 46
0.37621456 -0.17526263 0.56870121 44 43 44
0.37719753 -0.17526263 0.56870121 49 47 48
0.37849802 -0.17540979 0.56917870 66 62 63
0.38012010 -0.17570484 0.57013613 87 83 82
0.38078529 -0.17555720 0.56965703 103 99 83
0.38176990 -0.17555720 0.56965703 107 102 85
0.38307640 -0.17570484 0.57013613 114 104 84
0.38373911 -0.17555720 0.56965703 122 110 87
0.38472369 -0.17555720 0.56965703 128 115 92
0.38799062 -0.17659599 0.57302779 129 115 93
0.38799712 -0.17614929 0.57157826 129 115 93
0.38605544 -0.17482264 0.56727350 129 115 93
0.38414282 -0.17351583 0.56303310 128 114 92
-0.33691376 -0.27120283 0.88497627 42 47 55
-0.33494690 -0.27084926 0.88382250 42 47 54
-0.33255213 -0.27014482 0.88152385 42 46 54
-0.33059856 -0.26979399 0.88037902 42 45 53
