ply
format ascii 1.0
element vertex 681
property float x
property float y
property float z
property uchar red
property uchar green
property uchar blue
end_header
-0.58417240 -0.36233123 0.78278920 151 147 148
-0.58253209 -0.34998581 0.77789498 132 130 129
-0.58484414 -0.35879752 0.78098240 136 129 131
-0.57719517 -0.36172244 0.78098345 167 169 166
-0.56026661 -0.36746487 1.37782896 176 179 177
-0.56633277 -0.36443561 1.39126486 177 177 176
-0.57230575 -0.34944535 0.77494050 164 166 165
-0.56895209 -0.35398545 1.39379981 177 177 177
-0.57436883 -0.35296161 1.40060294 177 178 178
-0.56447607 -0.32161547 0.75886307 154 154 152
-0.56695426 -0.33186624 0.76666186 162 164 161
-0.56405093 -0.31708513 0.75573665 142 139 140
-0.54129180 -0.36424458 1.33970726 176 178 178
-0.54877290 -0.36536599 1.35416434 177 178 177
-0.55534432 -0.36633680 1.36765258 177 177 177
-0.55898561 -0.34540437 0.76771510 167 174 172
-0.54013401 -0.35150892 1.33970726 177 178 176
-0.54174048 -0.34675053 1.34369183 177 178 177
-0.55643605 -0.35462164 1.37425017 177 177 176
-0.55859935 -0.32352844 0.75996846 165 171 168
-0.55979595 -0.32829057 0.76339561 168 172 170
-0.54120356 -0.33944407 1.34236014 177 178 178
-0.55756146 -0.31434582 0.75265708 168 168 170
-0.52411191 -0.36635872 1.29534366 176 178 177
-0.52737346 -0.36459920 1.30979792 175 177 176
-0.53708424 -0.36497792 1.32835136 175 177 177
-0.52451468 -0.35387358 1.31269244 175 177 176
-0.53118305 -0.35147215 1.32687650 176 177 175
-0.52304125 -0.33633412 1.30995679 176 176 175
-0.52819580 -0.33757657 1.32142663 176 176 176
-0.51579841 -0.36273929 1.29043241 175 177 177
-0.51820543 -0.36267444 1.30489403 174 175 173
-0.51162045 -0.34696859 1.29678109 174 175 173
-0.51791769 -0.34932425 1.30753240 174 175 174
-0.51801705 -0.33657727 1.30868608 175 175 175
-0.50014192 -0.04075138 0.66787374 107 99 95
-0.50063548 -0.03848021 0.66853281 105 99 92
-0.50125320 0.01210073 0.66993807 118 110 104
-0.49520528 -0.06785387 0.66325336 112 103 97
-0.49484222 -0.04882287 0.66494833 113 104 104
-0.48987215 -0.02124636 0.65814788 107 98 97
-0.49213057 -0.03250877 0.66465694 122 114 116
-0.48759804 -0.00967514 0.65762120 112 107 106
-0.48699064 -0.00335365 0.66173104 131 127 127
-0.49045469 0.00257355 0.65854787 123 115 112
-0.48794887 0.00967009 0.66663022 149 147 146
-0.48262939 0.37265569 1.17689562 91 93 93
-0.48498661 0.37628695 1.18513468 84 86 86
-0.48813827 0.38102315 1.19032902 76 77 79
-0.47936252 -0.01276982 0.65370476 151 146 148
-0.47952093 -0.00150382 0.66809328 167 169 168
-0.47007248 0.00590099 0.65682428 167 172 170
-0.47805232 0.00857255 0.66644618 167 173 171
-0.46536271 0.36677719 1.15365121 82 84 91
-0.47260853 0.36935059 1.16506777 78 80 84
-0.44070655 0.35899504 1.09780127 96 97 102
-0.44443334 0.35820228 1.10708082 101 103 108
-0.45267242 0.35818456 1.13740242 96 97 98
-0.45848468 0.35824108 1.14702511 92 92 94
-0.44318882 0.36547206 1.09489489 89 91 91
-0.44636218 0.36251130 1.10670884 91 92 96
-0.45422490 0.36268977 1.12758389 93 96 101
-0.45840124 0.36273559 1.14557847 95 97 100
-0.42545470 0.35931193 1.07602558 78 79 83
-0.43491646 0.35812163 1.09515947 94 99 101
-0.43487707 0.35950232 1.10226321 85 90 92
-0.42712459 0.36473972 1.07532464 74 74 79
-0.43580869 0.36450743 1.08795754 86 89 91
-0.43669562 0.36239152 1.10528664 86 93 94
-0.41880891 0.36223647 1.07091916 60 63 69
-0.34270263 -0.28708553 0.87268253 166 171 168
-0.34303496 -0.27693491 0.87253189 168 172 170
-0.34474580 -0.27471623 0.88152534 155 158 151
-0.34017077 0.34752366 0.95882863 106 108 116
-0.34290759 0.35278891 0.96744440 96 97 102
-0.34304434 0.34550551 0.99106997 76 74 81
-0.33355380 -0.28834949 0.87208267 84 87 90
-0.32222900 -0.27186260 0.85809094 44 44 49
-0.33305356 -0.27487568 0.87403750 64 66 71
-0.33400598 -0.27067341 0.88200410 43 46 54
-0.32433794 0.33993301 0.95612389 86 85 85
-0.32557175 0.33884790 0.96815974 82 82 84
-0.32824746 0.34999075 0.95496336 91 91 92
-0.33102558 0.34458868 0.96446926 88 89 91
-0.32929608 0.36163804 0.95489734 99 102 104
-0.33484398 0.36295235 0.96018672 88 89 93
-0.30105811 0.25892735 0.73723984 97 98 98
-0.30111197 0.25934513 0.74208748 88 88 88
-0.30184016 0.26133774 0.73604114 100 99 97
-0.31614053 0.33923736 0.95882863 110 105 103
-0.31859858 0.33846216 0.96291971 96 94 92
-0.31687522 0.35815474 0.93890840 127 130 130
-0.31751195 0.35333330 0.95389116 103 105 107
-0.31567859 0.35218294 0.96519988 104 107 108
-0.31788683 0.36033824 0.94682246 125 130 128
-0.28265918 0.23550263 1.55362268 181 182 184
-0.28880780 0.25684911 0.73636687 97 97 97
-0.29171826 0.25511792 0.74135387 83 82 85
-0.28963652 0.25898403 1.53369200 160 159 165
-0.28455981 0.25087361 1.54587724 185 185 183
-0.29045534 0.26216550 0.73628916 91 92 93
-0.28792699 0.26635161 0.74239124 83 85 88
-0.28714390 0.26375064 1.49316108 92 90 96
-0.29295481 0.26663104 1.51317775 68 67 72
-0.29041210 0.26642813 1.53082772 143 142 145
-0.28403015 0.26807318 1.54842168 184 184 184
-0.28753880 0.26977900 1.56557012 186 186 187
-0.28309123 0.28559637 1.54861200 185 186 186
-0.28687626 0.28400587 1.56196272 186 186 184
-0.26204800 0.21342378 1.51518857 186 186 186
-0.26885197 0.21232293 1.53024432 185 185 184
-0.27763849 0.21755463 1.54066324 186 186 184
-0.26257538 0.23433325 0.83076330 60 61 66
-0.26244018 0.22962784 1.51064080 185 186 186
-0.27112969 0.22841401 1.53078806 184 185 186
-0.27629075 0.23579861 1.54242000 184 184 185
-0.27930298 0.25829995 0.73364919 97 97 100
-0.26089232 0.24993603 0.82900181 93 92 94
-0.26401060 0.24944942 1.51268934 185 186 186
-0.27233792 0.25156901 1.53260248 185 186 185
-0.27735888 0.24493761 1.54206705 185 186 184
-0.27954763 0.26225516 0.73764074 104 110 111
-0.26864927 0.26848319 1.51993692 185 186 186
-0.27285895 0.26871468 1.53228112 185 186 186
-0.27586322 0.26548705 1.54066324 185 186 186
-0.27268203 0.28559062 1.51315898 186 186 186
-0.27718378 0.28588531 1.52975316 186 186 186
-0.25862857 0.21867917 1.51767508 186 186 186
-0.25861850 0.21356285 1.52794005 186 186 186
-0.25751442 0.23597709 0.82528946 75 75 82
-0.25841230 0.22888347 1.49865715 185 186 187
-0.25830149 0.23106934 1.50937136 185 186 185
-0.25451110 0.25019535 0.82681125 97 96 98
-0.25784228 0.24475591 1.49535124 185 186 186
-0.20268535 -0.22800499 0.66196098 160 161 158
-0.20118409 0.19629072 0.53620309 128 128 122
-0.20533626 0.19966995 0.54058394 118 118 115
-0.20222569 0.20449274 0.53893765 99 100 102
-0.20772362 0.20545621 0.54454059 99 101 104
-0.19555102 -0.22940009 0.66159958 172 173 170
-0.18197226 0.07936728 0.48833627 35 36 44
-0.18096988 0.09077066 0.47873772 31 32 39
-0.18159975 0.08389712 0.48434885 35 38 43
-0.18514149 0.14726481 0.50963802 87 90 92
-0.19727862 0.19338954 0.53228526 125 126 121
-0.19731534 0.20379476 0.53539120 90 92 94
-0.17800884 0.09141432 0.47873754 35 34 43
-0.17774719 0.08546023 0.48255156 32 33 39
-0.17883290 0.13846980 0.50560923 44 44 48
-0.17828513 0.14366491 0.50714918 104 104 102
-0.14684136 0.17361041 0.49138799 128 130 130
-0.15298516 0.17100382 0.50196966 106 108 109
-0.14843731 0.18379946 0.49661512 180 180 171
-0.15117364 0.18615229 0.50047395 180 181 173
-0.10005323 -0.14386882 0.47347087 36 35 38
-0.10477778 -0.12500601 0.49119262 34 33 38
-0.10130519 -0.10833081 0.47891105 35 35 38
-0.10264902 -0.10791648 0.48089586 34 34 38
-0.10048581 -0.09483886 0.47864810 36 36 40
-0.10230330 -0.09592478 0.48050207 36 35 39
-0.10742716 0.05361390 0.61739045 178 178 178
-0.11130897 0.05648647 0.62152025 180 180 180
-0.10713596 0.06467361 0.61314059 182 182 182
-0.11367062 0.06014777 0.62478513 181 182 182
-0.09028137 -0.14346101 0.45781621 48 47 51
-0.09668661 -0.14596878 0.46891227 39 38 42
-0.08680738 -0.12947491 0.45706886 107 106 109
-0.09506050 -0.12949870 0.46383247 38 38 41
-0.08513006 -0.10825891 0.45729388 131 131 133
-0.09173584 -0.11335770 0.46496525 75 75 79
-0.08496599 -0.09245586 0.45754013 138 138 140
-0.09151607 -0.08805308 0.46395015 66 66 70
-0.08451141 -0.07858870 0.45904416 147 147 147
-0.09095479 -0.07858397 0.46282322 54 54 61
-0.07963653 -0.12669782 0.45166846 177 178 177
-0.07915003 -0.10458522 0.45222938 176 177 179
-0.07930888 -0.09382852 0.45313700 178 179 178
-0.06447958 0.33096492 0.81649391 181 180 171
-0.06140328 0.32957213 0.82118970 178 175 162
-0.06127014 0.34856834 0.82774198 92 90 87
-0.06083143 0.36157882 0.83279219 0 0 0
-0.05638602 0.33350153 0.81743087 153 147 140
-0.05214483 0.33381685 0.82576839 152 147 142
-0.05837996 0.34622285 0.81860130 67 64 63
-0.05235683 0.34982596 0.82552535 56 53 51
-0.00076974 -0.22127947 0.67344778 174 175 175
-0.00117795 -0.21638235 0.67355640 175 175 175
-0.00152506 -0.08077462 0.69957876 39 38 43
-0.00317059 -0.08148762 0.70050838 38 38 43
-0.00091984 -0.07469185 0.69921834 36 36 38
-0.00415080 -0.07558541 0.70051269 35 35 38
-0.00349185 0.07423712 0.67886220 183 182 183
-0.00346363 0.06763267 0.68723067 182 181 182
0.00992616 -0.22245730 0.67347771 119 121 120
0.00972676 -0.21474381 0.67061582 118 118 120
0.00986382 -0.08190382 0.70176777 128 128 130
0.01319963 -0.07411418 0.69912851 151 150 150
0.00888007 -0.07544153 0.70071372 124 123 125
0.00809812 0.05972333 0.69527370 87 88 95
0.01004780 0.06938980 0.69191665 89 89 94
0.01371845 0.17873996 0.47530997 149 147 144
0.01072022 0.18373632 0.47588756 136 135 134
0.02098607 -0.21537411 0.66995615 39 39 43
0.02028178 -0.08033586 0.70102566 181 181 181
0.02018784 -0.07333015 0.69777870 185 183 183
0.02026083 -0.07904245 0.70030147 182 182 184
0.02095788 0.07340033 0.69292478 36 35 39
0.02251881 0.08015264 0.69527370 34 33 37
0.03005677 0.17930236 0.46582446 134 133 129
0.03549679 0.17659858 0.49790616 136 135 133
0.02889850 0.17624167 0.50344182 136 130 124
0.02672055 0.18425549 0.46748273 131 130 123
0.03871679 0.18623902 0.49812738 139 137 131
0.03445681 0.18519025 0.50523421 136 136 131
0.04032615 0.18524127 0.49918398 134 132 126
0.09760318 -0.42108965 1.89885676 31 31 35
0.09787735 -0.42556372 1.90419054 33 32 36
0.09733055 -0.41664055 1.89355266 33 32 34
0.09574266 0.05925660 0.62967324 36 36 41
0.09095134 0.05975021 0.64377195 39 39 43
0.09435141 0.06152235 0.63200078 36 36 39
0.09063586 0.06175960 0.64153892 37 36 39
0.11554032 -0.48701857 1.95809572 31 30 32
0.11797897 -0.49347124 1.96490383 33 31 34
0.11415894 -0.47133984 1.95761177 31 31 33
0.11314104 -0.47320274 1.96939659 32 32 34
0.11629355 -0.44290206 1.93683386 33 30 34
0.11696255 -0.45219022 1.94797579 30 29 32
0.10580824 -0.42273065 1.89885676 32 31 35
0.11088638 -0.42636675 1.90776987 31 31 34
0.11370376 -0.43597782 1.92693262 32 31 34
0.11623687 -0.40653274 1.87522668 30 30 32
0.10939484 -0.41347503 1.88773836 31 31 33
0.11983140 -0.38834393 1.83710527 31 30 32
0.11793453 -0.39259976 1.85723794 31 30 32
0.11492213 -0.39620476 1.86919494 31 31 32
0.10654172 0.05427831 0.62824772 88 87 91
0.10242995 0.06119339 0.62719448 35 36 38
0.12640277 -0.48682661 1.95866033 32 31 34
0.12957652 -0.48856128 1.96750322 32 31 35
0.12965081 -0.46839219 1.95659440 31 31 33
0.12843463 -0.47406208 1.96894560 31 31 33
0.13271774 -0.47724414 1.98213995 30 30 32
0.12972691 -0.44660615 1.93193238 30 29 33
0.12322622 -0.45202241 1.94727542 29 28 31
0.12702604 -0.42397653 1.89708873 32 31 34
0.12455793 -0.43006944 1.90956659 31 30 32
0.12770727 -0.43554019 1.92402089 32 31 34
0.12439862 -0.40897819 1.86748197 30 30 32
0.12445452 -0.41758054 1.88303292 31 31 34
0.12300669 -0.39151922 1.83710527 31 30 32
0.12188133 -0.39686750 1.85217273 31 31 33
0.12696970 0.19333526 0.55319338 132 128 122
0.13761844 0.20944640 0.45436417 0 0 0
0.13902977 0.21403728 0.46432342 0 0 0
0.14768839 -0.48218551 1.95357883 33 31 35
0.14352669 -0.48536881 1.97061586 32 31 35
0.14299564 -0.49437398 1.98213995 33 32 36
0.14451545 -0.47103737 1.95640188 31 31 33
0.14365633 -0.47547497 1.96775985 31 31 33
0.14053020 -0.45891508 1.94796503 31 31 33
0.14886239 -0.22020596 0.69885755 41 41 43
0.15494683 -0.22603361 0.70243303 63 63 65
0.14875669 -0.21814619 0.69742008 41 41 45
0.15612670 -0.21907023 0.70218847 73 72 76
0.15412831 -0.08248477 0.73881385 179 179 179
0.15529587 -0.08560608 0.74067697 178 178 178
0.15423905 -0.07607493 0.73881053 179 179 179
0.15526437 -0.07614567 0.74086659 180 180 179
0.15254240 0.07369571 0.73172082 57 56 61
0.15262111 0.08318508 0.73275076 56 56 58
0.14012748 0.21760798 0.47206953 0 0 0
0.14088126 0.22005990 0.47738862 0 0 0
0.14285386 0.22647650 0.49130854 0 0 0
0.14579354 0.23603888 0.51205275 0 0 0
0.14852376 0.24491991 0.53131888 0 0 0
0.15146749 0.25449545 0.55209168 0 0 0
0.15851468 0.24274746 0.63677760 143 138 131
0.15902960 0.24974518 0.65056366 131 129 122
0.15882705 0.25666212 0.66233489 130 130 128
0.15409626 0.26304647 0.57064191 0 0 0
0.15692094 0.27223478 0.59057462 0 0 0
0.15999763 0.26028162 0.66721636 146 146 143
0.15930954 0.28000453 0.60742998 0 0 0
0.16775929 -0.22746220 0.70348455 174 174 172
0.16346771 -0.21944984 0.70321035 169 169 167
0.16601692 -0.08245986 0.73916622 79 80 85
0.16943786 -0.08581339 0.74130121 68 67 72
0.16565942 -0.07714197 0.73918758 80 77 81
0.16799144 -0.07560146 0.74095204 71 71 75
0.16565154 0.07319278 0.73116516 184 184 183
0.17393063 0.06826821 0.74619540 186 186 186
0.16883497 0.08296053 0.71963042 186 186 186
0.16534395 0.08346358 0.73123700 183 183 183
0.16141018 0.24382052 0.63676986 130 126 122
0.16519417 0.25443530 0.65182395 114 114 109
0.16247188 0.25833068 0.66319395 144 144 138
0.16840502 0.26288274 0.65825086 114 111 107
0.16480787 0.26634692 0.67012984 146 142 135
0.16170092 0.27057941 0.68252314 144 144 136
0.16056159 0.28407732 0.61626530 0 0 0
0.16251444 0.29042968 0.63004583 0 0 0
0.16454631 0.29703903 0.64438391 0 0 0
0.16595659 0.30162650 0.65433574 0 0 0
0.16816158 0.30879898 0.66989547 0 0 0
0.17046152 0.31628042 0.68612534 0 0 0
0.17206204 0.32148668 0.69741958 0 0 0
0.17371613 0.32686719 0.70909190 0 0 0
0.17631136 0.33530909 0.72740537 0 0 0
0.17902817 0.34414652 0.74657691 0 0 0
0.18092589 0.35031956 0.75996846 0 0 0
0.18289295 0.35671809 0.77384913 0 0 0
0.18493319 0.36335471 0.78824633 0 0 0
0.18815050 0.37382019 0.81094968 0 0 0
0.19153632 0.38483381 0.83484215 0 0 0
0.19391434 0.39256915 0.85162294 0 0 0
0.19638991 0.40062186 0.86909211 0 0 0
0.19896917 0.40901184 0.88729298 0 0 0
0.19955453 0.45629148 1.19347155 131 130 126
0.19872315 0.45925090 1.26708758 125 118 107
0.19781214 0.46077593 1.26827395 126 120 110
0.20165879 0.41776076 0.90627253 0 0 0
0.21647304 0.41983981 1.20729595 117 119 119
0.20446597 0.42689213 0.92608178 0 0 0
0.20739861 0.43643165 0.94677633 0 0 0
0.20634299 0.43674048 1.15452292 97 96 99
0.20975304 0.43510686 1.16981535 73 73 81
0.21095522 0.43365889 1.18943886 100 100 101
0.21293589 0.43013599 1.21094892 111 112 114
0.21094227 0.43504062 1.22363150 106 108 109
0.21046533 0.44640723 0.96841693 0 0 0
0.21367550 0.45684949 0.99106997 0 0 0
0.20561378 0.44361462 1.15509602 111 110 108
0.20493014 0.44938216 1.17044101 119 118 117
0.20514507 0.45034834 1.18954850 105 105 106
0.20443222 0.45225652 1.20193589 95 96 96
0.20637169 0.45089393 1.23424503 93 91 91
0.20417435 0.45050476 1.24690378 102 97 94
0.20125588 0.45972237 1.26236844 118 112 105
0.21703947 0.46779200 1.01480818 0 0 0
0.20430423 0.46027002 1.18512559 129 129 124
0.20280779 0.46192481 1.21922994 108 108 108
0.20554937 0.46165512 1.22934776 86 87 83
0.20234683 0.46190426 1.26236844 121 116 112
0.22056854 0.47927156 1.03971136 0 0 0
0.22427516 0.49132869 1.06586766 0 0 0
0.22817309 0.50400817 1.09337389 0 0 0
0.23227754 0.51735938 1.12233746 0 0 0
0.23660538 0.53143716 1.15287733 0 0 0
0.25738421 -0.32207661 0.56698912 50 51 54
0.25697956 -0.31051742 0.57081707 47 47 48
0.25747123 -0.29966289 0.57351255 46 46 46
0.24117531 0.54630256 1.18512559 0 0 0
0.24600826 0.56202346 1.21922994 0 0 0
0.25112763 0.57867604 1.25535524 0 0 0
0.25655961 0.59634554 1.29368675 0 0 0
0.26593237 -0.32206276 0.56757273 138 139 134
0.26670449 -0.30990863 0.57025652 136 138 132
0.27890148 -0.30690978 0.58489735 177 179 170
0.26551290 -0.29978976 0.57375535 134 135 133
0.27767847 -0.21064410 0.63906887 178 178 177
0.27715017 -0.20523374 0.64137013 178 179 175
0.27772455 -0.19688209 0.63885162 180 180 175
0.27768004 -0.19875250 0.64072992 180 180 174
0.26233378 0.61512804 1.33443272 0 0 0
0.26848349 0.63513219 1.37782896 0 0 0
0.27504662 0.65648121 1.42414248 0 0 0
0.28578451 -0.20896592 0.63825315 134 133 133
0.28810470 -0.20723592 0.64135641 114 114 114
0.28715243 -0.19586173 0.63901231 109 109 107
0.28885020 -0.19866879 0.64039349 92 91 93
0.29759385 -0.08163601 0.69718083 40 40 43
0.29462531 -0.07210697 0.69588261 37 37 39
0.29157235 0.07105634 0.68549736 166 166 165
0.29426485 0.08293791 0.67933602 135 133 134
0.29238106 0.08177735 0.68138857 142 141 142
0.29047615 0.27529974 0.71418616 149 148 145
0.28897187 0.27792940 0.72270414 137 137 137
0.28995692 0.28870090 0.71647669 135 132 127
0.28871207 0.28772036 0.72589391 142 141 134
0.28206632 0.67931533 1.47367787 0 0 0
0.28959197 0.70379514 1.52678347 0 0 0
0.29768026 0.73010528 1.58385944 0 0 0
0.31887547 -0.26721212 0.47064415 177 178 171
0.30738474 -0.08176651 0.69725743 150 150 149
0.31681616 -0.08188530 0.70201788 175 174 172
0.30868673 -0.07117494 0.69595658 156 157 156
0.30281455 0.07508265 0.67348647 39 39 40
0.30544650 0.07121193 0.68972966 46 45 52
0.31700929 0.06869282 0.70142969 41 40 46
0.30024478 0.08476259 0.67925036 50 42 48
0.30425475 0.08258768 0.68333478 43 42 46
0.30639675 0.75845885 1.64536858 0 0 0
0.31581765 0.78910369 1.71184814 0 0 0
0.32400820 -0.26393689 0.47783319 176 177 171
0.32914545 -0.26194368 0.48184648 176 176 166
0.32362505 -0.25866007 0.47918877 178 180 171
0.33046457 -0.25662952 0.48693758 175 176 168
0.33534019 -0.13068058 0.49505001 121 106 88
0.33745411 -0.12197072 0.50154865 121 106 87
0.33848723 -0.11484722 0.50650037 116 102 84
0.33931906 -0.09095632 0.51252213 114 102 85
0.33958637 -0.07727361 0.51684409 101 89 77
0.32158921 0.07169132 0.70309969 40 40 43
0.32603186 0.82232910 1.78392589 0 0 0
0.33714402 0.85847539 1.86234021 0 0 0
0.35737956 -0.29500909 1.23478502 181 181 181
0.35640900 -0.28558146 1.24668277 180 180 180
0.35542964 -0.27421581 1.25355004 180 180 180
0.35659778 -0.27506623 1.26002204 180 180 180
0.34369071 -0.13083449 0.49757180 81 77 76
0.34844327 -0.12315325 0.50495097 87 80 77
0.35452617 -0.12676209 1.03793355 72 72 74
0.35476860 -0.12870357 1.04232868 112 110 111
0.34805367 -0.10998806 0.51020744 97 89 80
0.35585658 -0.11821948 1.03944600 37 37 40
0.35730239 -0.11655812 1.04227073 37 37 39
0.34839933 -0.08936717 0.51300995 91 82 74
0.34794484 -0.07390326 0.51755846 93 81 69
0.34978667 -0.06389553 0.52469246 112 95 83
0.35905908 -0.05500132 0.53215502 73 61 61
0.35648889 0.09580915 0.46926918 121 117 101
0.34927800 0.89794552 1.94796503 0 0 0
0.37517106 -0.28322033 0.61867415 179 181 175
0.37318914 -0.28314099 0.62151057 179 182 176
0.36802591 -0.29579137 1.21202723 182 181 181
0.36780297 -0.29011893 1.23528660 180 180 180
0.36706303 -0.28360691 1.24872924 180 180 180
0.37657107 -0.27352817 0.61580962 180 181 176
0.37321917 -0.27751405 0.62237208 180 181 177
0.37121831 -0.27117584 1.25199031 181 181 181
0.36698099 -0.26315306 1.26296270 180 180 179
0.37339023 -0.25766171 1.25304345 181 181 181
0.36879557 -0.25819200 1.26867733 180 180 180
0.37659679 -0.18437567 0.56405922 80 76 69
0.37453683 -0.17547042 0.56745002 51 50 50
0.36194194 -0.12333388 1.03664221 41 41 46
0.36087869 -0.13109298 1.04323294 144 141 141
0.36267006 -0.11038870 1.03752577 35 35 36
0.36398680 -0.11151987 1.04481778 34 33 35
0.36176999 -0.09892561 1.03494942 33 32 34
0.36568282 -0.06483324 0.53436462 56 50 47
0.37474984 -0.06840279 0.54200770 51 46 45
0.36222941 -0.05301074 0.53369748 63 57 56
0.36416594 0.09668768 0.46942728 126 120 101
0.38847339 -0.28137427 0.67251425 179 180 176
0.38124826 -0.27523765 0.61889170 180 180 175
0.38276929 -0.27714977 0.62078005 181 182 175
0.38767813 -0.27642564 0.67269940 179 180 176
0.38104025 -0.27583395 1.24384242 181 182 181
0.38410885 -0.18477454 0.56537984 130 120 96
0.38185457 -0.17416620 0.55732781 130 110 94
0.38466576 -0.17445920 0.56983453 123 112 93
0.39407181 -0.06625023 0.61408018 170 169 163
0.39559168 -0.05741847 0.61616338 172 172 163
0.40138696 -0.06452277 0.61575510 146 140 134
0.40260486 -0.05680139 0.61652591 136 131 122
0.41343787 0.07943956 0.65942788 33 32 33
0.41610513 0.07168933 0.66370224 35 33 35
0.41584243 0.08265631 0.65894754 32 31 32
0.41730590 0.08183912 0.66111085 32 32 33
0.43194851 0.07690123 0.65860499 129 114 95
0.42648780 0.07070521 0.66429924 100 89 75
0.43189877 0.08202732 0.65846831 128 106 84
0.42773156 0.08201785 0.66381364 102 88 74
0.43926193 0.19029848 0.47173668 131 132 119
0.44211781 0.19113006 0.47176501 139 140 124
0.51718610 0.24761319 0.61617050 109 105 98
0.51641445 0.24691588 0.62226132 118 119 104
0.53082529 0.09002968 0.46654141 135 134 120
0.53321505 0.23617191 0.63456368 155 153 136
0.53631657 0.23975542 0.64012450 157 155 139
0.52706514 0.24549610 0.61470067 105 104 97
0.53139361 0.24384686 0.62976652 108 105 97
0.53476074 0.24217805 0.64141306 139 139 125
0.53802693 0.58260858 1.43621159 147 143 139
0.53531975 0.60901231 1.49810535 137 136 128
0.53775376 0.61506251 1.50979630 132 130 122
0.53938827 0.62035832 1.51315898 128 123 118
0.54114313 0.08567070 0.47116750 138 137 122
0.55185979 0.13728344 0.51698189 136 133 119
0.55809966 0.13457458 0.52186164 139 131 121
0.54985889 0.14464041 0.51503516 127 127 115
0.55501377 0.17047629 0.51075206 104 104 100
0.54457297 0.23565688 0.63159187 131 131 124
0.54627419 0.23754261 0.64012450 138 138 126
0.54412657 0.24270602 0.63367112 116 111 105
0.54289266 0.24211127 0.64109553 134 130 118
0.54031640 0.59007365 1.44232309 149 146 138
0.55071247 0.59528044 1.47688854 148 144 142
0.55270659 0.59689366 1.49263330 154 149 145
0.54848790 0.60279635 1.46413606 154 146 139
0.55349081 0.60624299 1.49176801 150 145 140
0.55348963 0.61310537 1.51173362 147 143 138
0.55190061 0.61565411 1.52678967 142 141 138
0.55398369 0.62460102 1.51519160 147 141 136
0.55173066 0.62829689 1.53135777 134 131 125
0.54564066 0.63524465 1.54947314 125 119 115
0.54501563 0.64120924 1.54769826 123 113 113
0.57437882 -0.34765530 0.78789189 85 86 84
0.57766641 -0.33741048 0.78214161 81 82 84
0.57781569 -0.08452655 0.76722225 49 48 47
0.57887491 -0.07814732 0.77150018 49 47 47
0.56692764 0.13321538 0.52736388 131 126 110
0.56189500 0.17123487 0.51363822 86 87 86
0.57479398 0.24677890 0.53551455 134 134 127
0.56246044 0.62784155 1.51541829 148 142 138
0.56201500 0.63461903 1.52966330 140 137 135
0.58216738 -0.34840924 0.78548214 84 85 84
0.58154785 -0.08580605 0.76603052 49 47 48
0.58413319 -0.07577122 0.77231214 48 47 46
0.58683951 -0.07165254 0.78143281 48 47 45
0.58644189 0.24575145 0.53747828 115 112 104
0.58419627 0.24292360 0.54015285 130 122 122
0.86981708 -0.30639295 0.93890840 73 79 78
0.87079035 -0.30538040 0.94580683 75 76 77
0.87219877 -0.29685184 0.94561769 71 75 74
0.90588362 0.20952180 0.95786183 126 126 108
0.91243458 0.21122843 0.96559293 129 128 109
0.90353101 0.22259963 0.95612389 132 130 116
0.91117686 0.22394710 0.96613112 137 133 117
0.92920765 0.19625817 0.97299158 133 130 112
0.92703888 0.20710278 0.97288158 130 126 108
0.92466217 0.22378997 0.97491815 135 134 115
0.93788642 0.39913571 0.92481834 102 103 94
0.92891587 0.40359672 0.91731254 121 121 114
0.93678722 0.40490576 0.92849523 116 116 110
0.94063234 0.20296371 0.98103017 148 143 122
0.94576419 0.39905281 0.93524383 93 95 85
0.95667495 0.39651933 0.94918373 89 90 80
0.94243925 0.40461065 0.93374722 109 110 102
0.95074603 0.40455666 0.94762163 113 115 104
0.95934793 0.40667892 0.96155062 131 133 119
0.96219847 0.39777185 0.95612580 88 89 80
0.96237747 0.40402356 0.95657659 95 97 83
0.96928508 0.40561544 0.96693795 106 107 93
0.96754999 0.45194378 1.08859125 141 142 127
0.97685587 0.45666611 1.10226321 140 141 125
0.97749613 0.46134148 1.10586139 141 142 131
0.98128539 0.45328683 1.09869015 126 126 116
0.98762786 0.45735393 1.11009745 127 126 116
0.99881220 0.45840433 1.12048233 112 111 109
0.98341953 0.46439280 1.11532829 136 138 125
0.99350249 0.46571091 1.12707304 127 126 115
1.01563504 0.45446528 1.15730643 142 139 130
1.00182633 0.46559939 1.13486850 130 123 116
1.01306272 0.47139237 1.15551384 127 127 118
1.01667166 0.47689435 1.16077375 115 115 106
1.02614801 0.45167628 1.17082845 133 131 128
1.03958690 0.45777383 1.18928397 128 127 125
1.02812337 0.47110033 1.17384869 139 138 129
1.02875793 0.48962039 1.17689562 109 109 105
1.03595408 0.48894612 1.18512801 109 109 106
1.04325062 0.46557923 1.19347525 136 130 123
1.04454783 0.48821365 1.19584887 120 120 116
1.05283874 0.49365481 1.21153359 112 113 110
1.05923927 0.49653530 1.22142673 108 109 108
1.05292598 0.50161876 1.21415110 95 92 92
1.15947449 0.22945850 1.12793982 119 111 101
1.17628205 0.21809003 1.13778603 125 126 110
1.17643925 0.21818846 1.14380455 122 123 113
1.16641689 0.23120434 1.13378528 125 120 107
1.17679872 0.22782689 1.14465048 117 115 105
1.18521347 0.21858837 1.13393285 137 137 119
1.18898992 0.21921612 1.14573344 131 133 115
1.19082900 0.22473302 1.13740539 137 134 119
1.18999589 0.22719637 1.14891356 129 128 115
1.19437343 0.23049622 1.16778016 105 100 94
1.20157444 0.23124249 1.15385932 139 139 124
1.20369649 0.22924680 1.17689562 103 102 99
1.26785658 0.28990667 1.65743732 137 136 118
1.27287446 0.28713298 1.66783431 131 131 112
1.27849531 0.28695440 1.68211377 120 123 98
1.27591414 0.44623842 1.29024439 122 120 114
1.27531931 0.46580362 1.27603477 96 92 91
1.27619487 0.83192134 1.99968100 120 123 119
1.28459024 0.27892432 1.68629813 122 112 102
1.29224939 0.27801982 1.70631344 120 115 103
1.28491247 0.28524406 1.67381722 134 133 113
1.29080219 0.28202837 1.68871759 125 119 105
1.28475002 0.45094642 1.29781568 133 131 124
1.29057697 0.45635386 1.30432582 134 133 123
1.28163958 0.46579418 1.27904117 93 94 87
1.29208069 0.46935824 1.29113394 93 87 85
1.29630719 0.46895536 1.30364367 99 94 92
1.29413840 0.48198046 1.29430515 85 78 78
1.29283798 0.67837751 1.49976075 119 115 114
1.29231569 0.68861659 1.49786886 117 117 110
1.29753037 0.68471716 1.50419950 117 112 108
1.30681618 0.27450844 1.71091830 120 115 107
1.30667944 0.28607555 1.69172888 136 133 113
1.31670837 0.28302149 1.70754483 129 128 110
1.31250456 0.45890403 1.29864335 106 107 99
1.30720321 0.45806487 1.30532369 109 110 100
1.30896544 0.46384046 1.29605133 102 99 91
1.30478624 0.46441506 1.30789625 112 108 101
1.30577075 0.48415577 1.29864335 71 71 71
1.30734001 0.48471023 1.30113602 81 80 80
1.31474998 0.67709930 1.49579365 140 139 134
1.31908631 0.67728370 1.50308609 140 141 136
1.31274925 0.68638912 1.49819402 113 112 107
1.31340035 0.69236485 1.51017253 109 109 103
1.31893885 0.69930390 1.52852225 115 114 108
1.31548464 0.70063913 1.51993692 121 120 115
1.31474764 0.70369091 1.52885756 128 128 120
1.32277973 0.27200216 1.71618187 129 126 112
1.33194611 0.27477732 1.72272664 130 127 110
1.32909642 0.28769636 1.71185983 136 132 113
1.33573365 0.28605674 1.72345630 136 136 114
1.32260531 0.45946518 1.29864335 112 112 101
1.32423927 0.45678663 1.30301380 98 102 93
1.32119656 0.46082696 1.29616034 120 120 107
1.32426047 0.67623831 1.49646091 142 143 133
1.32871864 0.67744762 1.50576124 137 138 130
1.32607469 0.68768864 1.51702884 123 122 118
1.32851758 0.69497681 1.52969969 116 114 110
1.33912945 0.69579720 1.54417276 117 116 114
1.32679808 0.70166711 1.54535325 115 112 108
1.34897304 0.29089281 1.73152733 137 131 113
1.34137499 0.68072325 1.51653659 134 134 126
1.34127112 0.68562446 1.53138395 126 124 123
1.34693222 0.69707043 1.54700930 123 121 120
1.35995662 0.70111358 1.56196272 120 119 117
1.41863054 0.54660630 1.50810385 135 135 120
1.42749282 0.53286888 1.51479605 120 116 106
1.43045409 0.53196543 1.52592766 134 130 117
1.42715617 0.54595217 1.51918129 132 129 118
1.43251915 0.54500227 1.52550365 131 127 118
1.44338572 0.52909459 1.49728131 113 114 105
1.44944374 0.53334838 1.51027997 114 115 105
1.45180905 0.53618632 1.52793229 100 98 88
1.45253844 0.54457924 1.51880348 130 130 121
1.45226683 0.55041263 1.53012478 129 125 119
1.47355913 0.33268337 1.31477118 139 137 123
1.47692317 0.33841526 1.32790926 130 129 118
1.47287731 0.34564745 1.31609380 140 139 132
1.47558946 0.34555117 1.32461403 139 137 131
1.46522868 0.54301387 1.51993692 128 129 118
1.46636289 0.54928207 1.52713587 130 131 121
1.48693651 0.33516723 1.32942580 137 135 121
1.48523567 0.35189182 1.33047351 137 135 128
1.49783504 0.35756822 1.35038221 137 136 128
1.48475893 0.36326386 1.33443687 141 138 132
1.49783504 0.36340327 1.35038221 144 140 133
1.50386554 0.33555106 1.33706737 143 141 124
1.50312254 0.35617924 1.33640674 130 131 124
1.50082481 0.36880600 1.35307753 143 140 134
1.51512069 0.36698967 1.36809796 144 139 132
1.54752417 0.80973669 1.81094253 91 93 93
1.55511928 0.81481612 1.82228994 88 90 89
1.54780877 0.82205534 1.81740439 92 88 85
1.55406123 0.82064304 1.82474583 88 87 86
1.55817044 0.83663204 1.86747062 77 77 76
1.54889715 0.84314933 1.88565552 84 78 73
1.56776249 0.81826538 1.83710527 85 86 86
1.57283573 0.82994970 1.85001242 80 80 80
1.56869172 0.83599203 1.86805328 63 62 62
1.56737161 0.83779325 1.88828546 64 63 62
1.57342896 0.84487207 1.86645589 97 95 91
1.56634518 0.84261117 1.88770510 72 69 69
1.57018054 0.85713601 1.90955448 87 82 75
1.58117318 0.82289687 1.85470074 83 84 84
1.58601665 0.83467885 1.87263981 67 67 68
1.59289867 0.83825827 1.88565552 63 63 65
1.58462644 0.84550406 1.87522787 75 75 72
1.58938918 0.85086851 1.88830018 81 81 77
1.58239603 0.85867310 1.92037344 81 81 75
1.58627689 0.86236387 1.87781680 138 136 127
1.58998740 0.86339251 1.88478132 136 134 118
1.58834086 0.86869241 1.90956205 116 112 102
1.59501994 0.86825915 1.93064559 91 87 83
1.60714552 0.86574328 1.94938463 69 64 63
1.61908925 0.87179202 1.96490383 73 69 67
1.60982399 0.88371560 1.93054984 119 115 105
1.61168817 0.88823420 1.95507485 101 98 93
1.61229694 0.89896142 1.96490383 107 107 103
1.62145567 0.88693267 1.93131578 132 130 114
1.62636491 0.89497885 1.94517428 123 120 112
1.63001692 0.90053326 1.95357883 112 106 108
1.62549889 0.90157467 1.97061586 93 91 89
1.62301385 0.90513405 1.98213995 114 115 109
