ply
format ascii 1.0
element vertex 977
property float x
property float y
property float z
property uchar red
property uchar green
property uchar blue
end_header
-0.38669757 -0.28516078 0.62857298 71 69 69
-0.39713147 -0.29186940 0.64133573 73 70 72
-0.38469589 -0.27055137 0.61598670 73 72 70
-0.38352934 -0.20210678 0.97641709 95 86 89
-0.38535124 -0.20059651 0.98103017 97 88 90
-0.38494056 -0.19687869 0.95477724 96 87 89
-0.38563384 -0.19335214 0.97389455 96 89 90
-0.38433387 -0.19517049 0.98103017 96 91 90
-0.38117351 -0.17824106 0.97468323 97 92 87
-0.37164090 -0.26783281 0.61035205 82 79 80
-0.36648009 -0.24549044 0.58983457 74 72 72
-0.36354313 -0.25785847 0.60298845 96 90 91
-0.37041840 -0.24138362 0.62714436 97 95 94
-0.36490137 -0.23580134 0.58782296 71 69 68
-0.36941879 -0.22641506 0.61832485 96 95 92
-0.36645053 -0.22832094 0.62233322 95 93 91
-0.36567986 -0.21523716 0.61895447 94 93 89
-0.36675077 -0.21832280 0.62097092 96 96 88
-0.37860467 -0.20114421 0.97820026 95 86 86
-0.37812914 -0.18862072 0.97893659 97 91 90
-0.37856874 -0.18957491 0.98103017 93 87 89
-0.37782607 -0.17859979 0.97598686 97 92 88
-0.35707046 -0.24379517 0.58823358 87 83 83
-0.35069852 -0.22684288 0.57776943 81 76 76
-0.35425529 -0.23429430 0.58461867 86 84 84
-0.34782314 -0.21887985 0.56965703 74 65 68
-0.34925132 0.13226589 0.75044481 80 70 69
-0.34557435 0.14408271 0.75456419 79 69 68
-0.35377283 0.14628035 0.76383392 80 70 70
-0.32294842 0.13320785 0.73892742 83 69 68
-0.33031333 0.13580979 0.74307626 79 68 67
-0.32433039 0.14217266 0.73924953 83 67 68
-0.32952473 0.14338821 0.74236322 80 69 67
-0.32367637 0.31725593 1.89039385 65 55 57
-0.32705405 0.32193174 1.89356252 65 56 57
-0.30625112 -0.20624170 0.57801321 99 97 95
-0.31224622 -0.20517242 0.58146843 99 96 94
-0.30295449 -0.19975908 0.57989037 102 96 96
-0.30956862 -0.19821926 0.58157229 99 94 91
-0.30910671 -0.16992902 0.50805100 81 80 79
-0.30154981 -0.15324850 0.48936756 76 75 75
-0.31846201 0.13618194 0.73844470 84 67 69
-0.31858575 0.14249065 0.73866451 84 68 69
-0.31692866 0.14319462 0.74038011 83 69 69
-0.30593941 0.31222552 1.87781680 65 54 56
-0.30755827 0.31151225 1.88478132 65 53 55
-0.30403786 0.32328586 1.87608767 69 56 57
-0.31321022 0.32393903 1.88528086 68 56 57
-0.29945408 -0.16683839 0.50326073 97 97 93
-0.29302927 -0.14819347 0.48584157 84 81 81
-0.28552454 -0.12606583 0.47079341 80 77 78
-0.28423473 -0.11904620 0.46815965 78 75 75
-0.28009495 -0.09588904 0.47907552 97 95 93
-0.28321981 0.29762009 1.87781680 61 50 53
-0.28582419 0.31152559 1.87360204 63 52 54
-0.29614715 0.31121010 1.88685028 61 51 52
-0.28658779 0.32603552 1.87328498 67 55 55
-0.29458886 0.32375614 1.88827813 66 55 55
-0.27885307 -0.12520675 0.46934682 99 92 91
-0.27782011 -0.10131781 0.47864338 98 94 90
-0.27655982 -0.09044576 0.47670403 96 92 91
-0.27997416 0.29762009 1.87781680 59 48 51
-0.27283341 0.30843246 1.87097632 63 52 54
-0.25841921 0.30760926 1.86748197 62 51 52
-0.25566185 0.31589371 1.89003630 62 52 52
-0.22556156 -0.82709616 1.99968100 57 48 51
-0.23410156 -0.40045658 0.98675048 77 68 69
-0.22159886 -0.39147438 0.95849006 75 66 67
-0.22678321 -0.38915477 0.97328081 73 66 67
-0.23396040 -0.38766539 0.98496022 74 67 69
-0.22604206 -0.37277738 0.97679295 75 66 69
-0.23213999 -0.37085983 0.98838705 77 68 69
-0.22915094 -0.35978527 0.98746553 76 67 70
-0.22461190 -0.14078894 0.51892854 99 90 90
-0.22365124 -0.14198440 0.52136776 99 88 89
-0.22610712 -0.13546999 0.51731474 103 93 91
-0.22374800 -0.13792547 0.52180891 99 92 89
-0.21124300 -0.82308118 1.99498274 51 45 49
-0.20243523 -0.81745076 1.97636104 50 46 49
-0.20485024 -0.81275114 1.99382147 52 44 49
-0.21919096 -0.39078462 0.95882863 73 64 67
-0.21981278 -0.38940027 0.96154869 71 64 66
-0.21968142 -0.14104504 0.52320598 93 91 90
-0.21767299 -0.13359595 0.51770180 97 92 90
-0.21981283 -0.13975760 0.52065426 98 91 90
-0.20666806 0.05511642 0.85791105 76 64 67
-0.20838234 0.05015261 0.86108935 79 67 69
-0.20646533 0.06642679 0.85678411 79 67 67
-0.19279288 -0.80233884 1.94796503 51 45 50
-0.19730976 -0.80940225 1.97062691 51 45 50
-0.19789362 -0.80391093 1.98796403 52 43 47
-0.18621537 -0.78873992 1.91494870 51 45 50
-0.18834354 -0.79440641 1.93683386 51 45 49
-0.19345913 -0.79705714 1.98944011 52 43 47
-0.19975184 0.05567227 0.85441403 75 64 67
-0.19753790 0.06785009 0.85548633 78 66 68
-0.17690951 -0.78208552 1.85217273 53 45 46
-0.16999166 -0.76222551 1.81254506 53 44 45
-0.17739332 -0.77620494 1.85723794 54 45 46
-0.17824886 -0.77026400 1.86619511 51 44 47
-0.17044739 -0.75484526 1.81740439 53 45 46
-0.17113592 -0.75316146 1.82474583 51 45 47
-0.17276326 -0.75554955 1.84209740 50 44 48
-0.10219102 -0.34080830 1.01480818 54 48 48
-0.10191375 -0.32938878 1.01205464 58 48 50
-0.10113335 -0.31702634 1.01519138 59 49 49
-0.08809014 -0.34200983 0.99910423 56 48 47
-0.08536731 -0.34143259 1.00657167 51 44 46
-0.08513049 -0.32368463 0.99984050 56 47 48
-0.09001842 -0.32775915 1.00711346 54 46 47
-0.08954845 -0.31663263 1.01473248 55 46 47
-0.08881227 -0.16494623 1.01554261 64 52 55
-0.09221915 -0.16640337 1.02092147 61 50 54
-0.08689334 -0.15368444 1.01350125 64 51 54
-0.07554696 -0.34144676 1.01372918 47 38 41
-0.07821792 -0.32368463 0.99984050 46 37 40
-0.07723686 -0.32903755 1.00692803 46 38 40
-0.07314254 -0.31397580 1.01187300 50 41 44
-0.07235185 -0.15099916 1.01254707 51 40 43
-0.06162797 0.07371595 0.99427022 53 42 44
-0.06274222 0.08970964 0.99539701 50 41 44
-0.06631654 0.09827220 1.00279856 45 39 42
-0.06257254 0.10388112 0.99837121 49 40 43
-0.06473682 0.10546049 1.00518265 48 39 42
-0.05436342 0.07276525 0.99451216 52 40 42
-0.05579298 0.08300928 0.99436724 52 40 42
-0.04179281 0.43221936 1.25535959 133 119 117
-0.04348085 0.43717840 1.26237134 134 123 118
-0.04354975 0.44920074 1.27049602 137 126 123
-0.04402567 0.46377230 1.28878406 131 116 114
-0.04356781 0.47545774 1.30867636 129 112 111
-0.04377898 0.48230694 1.31501931 133 118 114
-0.03962298 0.42896353 1.25535814 125 111 110
-0.03118472 0.43863000 1.26551743 137 123 116
-0.02932630 0.44898813 1.27197052 135 119 114
-0.03719477 0.45868215 1.28388608 132 116 111
-0.03737281 0.46309435 1.28999519 126 110 107
0.03046113 -0.10718114 0.53382813 64 52 54
0.02124607 -0.10726580 0.54058361 67 51 54
0.02531471 -0.09925727 0.53769009 66 55 57
0.05475397 0.11684935 0.51598737 80 66 66
0.05213707 0.12637099 0.51776512 83 66 67
0.04841952 0.13069936 0.52048797 88 70 70
0.07968145 -0.40257609 1.49976075 60 48 50
0.07661807 -0.40205670 1.50755461 57 48 50
0.07907304 -0.39017499 1.49440800 61 50 52
0.07730309 -0.39459711 1.50392115 62 50 53
0.07907005 -0.37761807 1.48825288 66 53 55
0.07882640 -0.18993915 1.01938617 65 52 54
0.07762679 -0.18735482 1.03006555 66 53 55
0.07401480 -0.18849129 1.04695019 67 54 55
0.07782840 -0.17206115 1.01785564 66 54 58
0.07785437 -0.17711114 1.02732901 65 55 56
0.07350882 -0.17918454 1.04398350 64 55 56
0.07871191 0.05494382 0.46537688 69 55 57
0.07298300 0.05378384 0.81821911 64 54 55
0.07633745 0.05434578 0.82184819 66 53 56
0.07046912 0.06049392 0.81969994 68 52 55
0.07801562 0.06242461 0.82458916 69 54 57
0.08200164 -0.40253539 1.49480188 63 48 51
0.09673929 -0.40178592 1.50978637 66 54 56
0.08808808 -0.38857529 1.49033672 64 53 55
0.09565936 -0.39551571 1.50642929 65 54 57
0.08740066 -0.37729147 1.47688854 66 54 56
0.08822232 -0.37286286 1.49076328 65 53 55
0.09138393 -0.36892631 1.50867800 66 53 55
0.09936582 -0.36765855 1.52335250 67 54 57
0.08666546 -0.35791290 1.49728131 63 52 54
0.09025121 -0.35272753 1.51317002 63 52 54
0.09915094 -0.35353330 1.52678605 63 54 55
0.08587671 -0.18572704 1.01467788 65 52 56
0.08219577 -0.18333246 1.02184583 65 53 55
0.08908630 -0.16572253 0.99621696 66 53 56
0.08661812 -0.17141372 1.01050895 66 54 56
0.08269798 -0.17724654 1.02126365 65 55 56
0.08578548 -0.15907551 1.00803155 67 53 57
0.08394295 0.05383782 0.46610171 71 57 57
0.08422438 0.05412590 0.82296136 68 53 56
0.08293910 0.06121017 0.82218570 69 55 57
0.10400852 -0.40254980 1.51429240 66 54 58
0.10388981 -0.38543484 1.49645831 65 54 56
0.10208654 -0.39518045 1.50912535 65 54 58
0.11599834 -0.36089292 1.46729839 64 59 53
0.10771353 -0.37038689 1.49317343 64 54 55
0.10598475 -0.36834300 1.51104276 65 54 55
0.10286055 -0.36486051 1.52635847 67 55 57
0.11626946 -0.34902161 1.43926084 65 56 57
0.11651684 -0.34727126 1.44232309 65 56 57
0.11618761 -0.35004311 1.46969241 65 56 56
0.11440658 -0.35398889 1.49168056 66 56 57
0.10862315 -0.35306152 1.51254211 66 56 57
0.10482243 -0.35292786 1.52917667 65 54 56
0.11693656 -0.32325793 1.41719687 70 56 58
0.11634502 -0.32787009 1.43018977 69 56 58
0.11500265 -0.33516610 1.45470357 70 56 58
0.11615881 -0.31634151 1.40769209 71 57 58
0.11026644 -0.28356986 1.34650247 66 55 57
0.11619735 -0.28861845 1.36534250 66 55 58
0.10822711 -0.27625272 1.33970726 67 53 54
0.11255925 -0.27662621 1.34716911 65 52 53
0.11315452 -0.14275146 1.99968100 71 51 54
0.11721510 -0.13553669 1.99526992 64 51 53
0.12472644 -0.32656409 1.43166975 69 58 60
0.12714610 -0.30208632 1.39483917 65 56 57
0.12796414 -0.30777974 1.41145672 65 56 57
0.12645136 -0.31655109 1.42585937 68 57 59
0.12376651 -0.28652868 1.37338657 64 51 55
0.12381018 -0.29279162 1.38832264 64 53 56
0.12394623 -0.27285865 1.33443272 65 53 56
0.12231595 -0.27690019 1.35038575 65 52 54
0.13303186 -0.14161263 1.93683386 67 49 51
0.12939574 -0.14483976 1.95781341 66 48 50
0.12930063 -0.15167037 1.97177153 62 50 50
0.13375457 -0.13372070 1.95439926 68 51 54
0.12929439 -0.13035860 1.96919200 66 51 53
0.12355780 -0.12817224 1.98796786 63 49 52
0.13865826 -0.11248504 1.96919614 66 52 55
0.13485262 -0.10811123 1.99121620 64 50 53
0.13947449 0.31351167 0.84878771 98 104 117
0.13844236 0.32957392 0.87506831 100 110 118
0.13704311 0.33680393 0.88419000 112 122 130
0.13817765 0.34177872 0.88594485 125 131 141
0.14216428 -0.12024027 1.97061586 63 54 57
0.14355331 -0.11317912 1.96633184 67 52 55
0.14341622 -0.10583190 1.98796976 63 52 54
0.15190489 0.03839501 1.74940121 67 54 56
0.15294168 0.04783753 1.73540863 66 55 57
0.15174578 0.05247962 1.74668337 67 55 57
0.14604333 0.05720138 1.76995254 65 54 56
0.15303584 0.06819193 1.73818421 69 55 57
0.15448736 0.06680438 1.74682972 68 55 57
0.14252120 0.30974315 0.83793887 81 87 99
0.14310185 0.31505503 0.84652808 93 96 104
0.14770469 0.32377614 0.85545653 83 90 99
0.14337731 0.33192070 0.87077320 117 126 132
0.14023302 0.34424107 0.88439938 137 143 153
0.17462045 0.01785100 1.81254506 67 55 58
0.17151228 0.03826071 1.79633772 64 53 55
0.17264797 0.02894410 1.81159515 66 53 56
0.17450937 0.02214655 1.82228994 66 54 57
0.16867913 0.05415129 1.74959903 69 55 57
0.16964707 0.05068818 1.76720628 67 54 56
0.17203160 0.04343291 1.79100708 65 54 56
0.17282660 0.07434542 1.67380702 70 57 57
0.17093942 0.07716171 1.69335592 67 56 56
0.17397063 0.07196248 1.71358597 70 55 57
0.16958641 0.07365456 1.73243220 68 55 58
0.16625849 0.06868880 1.74665002 69 54 57
0.17312430 0.06162930 1.76534331 71 55 58
0.16995271 0.08083117 1.68842167 67 56 58
0.16681342 0.08264201 1.73670616 66 55 58
0.16173817 0.08338338 1.75438132 65 54 57
0.16050130 0.08733751 1.76075804 65 54 56
0.19749963 -0.84211421 1.73818421 62 53 54
0.19700520 -0.84495461 1.74715555 62 53 54
0.19766393 -0.84819330 1.76650161 61 53 54
0.19864564 -0.38122638 0.73325261 86 78 78
0.19711821 -0.37271940 0.73578586 74 67 68
0.19738194 -0.36561512 0.74208464 73 67 69
0.19750891 -0.35032829 0.74162093 68 63 64
0.19661072 -0.32706740 0.73710635 74 68 71
0.19802678 -0.33412016 0.74265664 72 66 69
0.19728890 -0.30746767 0.73924953 74 67 67
0.19728445 -0.30420164 0.74167672 92 83 83
0.19847817 -0.29340192 0.74995387 71 64 65
0.19932499 -0.28278512 0.76167687 70 61 65
0.19991321 -0.27136098 0.76224742 76 68 71
0.19973328 -0.15171842 0.50797459 153 144 143
0.18827105 0.03935990 1.79336464 65 53 55
0.18449052 0.03501450 1.80953705 65 52 54
0.18400853 0.02432139 1.82803812 65 53 56
0.18627873 0.05239206 1.74564675 67 53 54
0.18342229 0.05231876 1.76801508 68 54 56
0.18827105 0.04245958 1.79336464 65 52 54
0.18424156 0.04376210 1.80450646 64 52 55
0.20470998 -0.84331594 1.73818421 61 52 53
0.20799021 -0.84106104 1.74640697 59 51 52
0.21946461 -0.84220922 1.76995254 63 54 53
0.21044351 -0.83680201 1.73651718 60 51 52
0.21536517 -0.83610193 1.74602395 61 52 53
0.20924375 -0.38326957 0.71825328 90 90 92
0.21254072 -0.38180475 0.72161768 110 110 109
0.21111944 -0.37031658 0.73100893 97 95 94
0.20793342 -0.36430224 0.74493227 80 75 77
0.21877150 -0.35946254 0.73844484 126 125 125
0.21105191 -0.34979278 0.74954865 80 78 80
0.20619150 -0.34243001 0.76110631 83 75 80
0.21304193 -0.33060404 0.75523376 73 71 73
0.20779673 -0.32755125 0.76175123 66 65 65
0.21304718 -0.31402935 0.75632619 73 69 73
0.21169896 -0.30742753 0.76236505 78 71 72
0.20131708 -0.28827549 0.75541081 67 59 62
0.21162084 -0.28920441 0.76425528 78 72 74
0.21922088 -0.26818914 0.69522013 149 145 141
0.21997921 -0.27391917 0.70030147 150 145 142
0.21081932 -0.27077242 0.76792538 80 75 76
0.21862250 -0.25795213 0.69360745 151 144 141
0.20224765 -0.25061486 0.75979825 73 63 66
0.21203670 -0.24891065 0.77149991 78 70 72
0.21364773 -0.23834143 0.77409187 87 81 82
0.21501059 -0.23869982 0.78038222 101 97 96
0.20611260 -0.15156489 0.50507817 153 145 144
0.21912890 -0.14508346 0.84105754 82 73 74
0.21849700 -0.13295268 0.83076375 73 64 65
0.21928202 0.22928279 0.61127120 123 134 140
0.23415637 -0.84514323 1.69897699 65 56 57
0.23466352 -0.84710689 1.71185746 62 53 54
0.23307881 -0.84863959 1.73312304 61 53 54
0.23067745 -0.84257299 1.74771987 63 54 53
0.23123458 -0.84285645 1.76650766 62 54 54
0.23538049 -0.84997809 1.78627938 60 54 53
0.23396588 -0.83254762 1.67656910 65 56 57
0.23591042 -0.83362329 1.69050336 64 55 56
0.23735757 -0.83065641 1.71150147 62 54 54
0.22986840 -0.83234070 1.72933096 63 54 54
0.22570492 -0.83438053 1.74715388 63 54 54
0.22441119 -0.83783412 1.76075804 64 55 56
0.22225885 -0.81274813 1.72053766 64 55 54
0.23676930 -0.49444536 0.93264477 74 70 71
0.23733048 -0.49623393 0.94923718 74 71 70
0.23975772 -0.41191155 1.61788034 68 56 57
0.23685656 -0.40805925 1.63348309 69 56 58
0.23391930 -0.40573717 1.64138460 71 57 59
0.23831294 -0.39125781 1.63676234 65 58 60
0.23586545 -0.39741311 1.64271259 69 58 59
0.22187145 -0.36558514 0.73522304 139 139 136
0.22343194 -0.36438991 0.74438338 136 135 132
0.22114554 -0.35794052 0.71583086 145 144 140
0.22071400 -0.35942879 0.73924953 136 133 131
0.22431572 -0.34871698 0.75447894 132 131 130
0.22348415 -0.32116790 0.71937605 143 140 134
0.22470484 -0.32284305 0.72735205 143 139 135
0.22587892 -0.32954216 0.75580683 132 131 127
0.23051445 -0.32617245 0.76232398 141 140 134
0.22247017 -0.31103468 0.71294568 145 141 139
0.22531055 -0.30934746 0.72750314 147 143 140
0.22637321 -0.31525243 0.75226455 130 127 128
0.22666858 -0.30964116 0.76468720 124 123 121
0.22159906 -0.28843509 0.70806572 149 147 145
0.22788338 -0.28087449 0.73764074 148 144 139
0.22985998 -0.28361146 0.74822497 147 144 138
0.22629663 -0.28982518 0.76483902 121 117 117
0.23946304 -0.28340962 0.95720426 81 70 73
0.22005299 -0.27130738 0.69670284 149 144 140
0.22175559 -0.27467489 0.70947468 149 145 142
0.22809707 -0.26973070 0.73497119 150 144 141
0.22995125 -0.26910999 0.74722277 149 143 140
0.22718876 -0.26982272 0.77058746 121 118 118
0.23928885 -0.26868842 0.95344865 81 71 73
0.22957474 -0.25200769 0.73898111 153 148 145
0.23094951 -0.24857670 0.74821036 151 146 144
0.22830274 -0.25051510 0.77512711 117 113 113
0.23196841 -0.24281655 0.78207026 136 134 131
0.23738248 -0.24693906 0.93323568 83 73 76
0.23798131 -0.25617024 0.94621693 83 71 73
0.22940797 -0.23012681 0.73844427 149 146 140
0.23139663 -0.23631460 0.74903165 148 144 141
0.22356104 -0.23663658 0.77702625 84 80 82
0.23411539 -0.23582252 0.78675876 139 138 137
0.23897160 -0.23169931 0.80319391 142 139 137
0.23593873 -0.23604111 0.93117061 81 73 76
0.22605556 -0.20857589 0.71702006 153 143 142
0.22786308 -0.20731945 0.72713036 152 143 143
0.23478119 -0.20005532 0.75996846 144 139 138
0.22848923 -0.18949157 0.72947661 146 139 138
0.23251341 -0.18984500 0.75039277 145 138 138
0.23650048 -0.18586671 0.77152603 147 139 139
0.23483851 -0.18434604 0.79227299 136 133 130
0.23895483 -0.18163405 0.80034459 146 142 139
0.22969400 -0.17449726 0.73401417 148 140 140
0.23244903 -0.17579354 0.74973521 148 141 139
0.23749688 -0.16850536 0.77165120 151 144 144
0.23458730 -0.17688987 0.79281837 135 129 129
0.23747916 -0.17323294 0.80572875 132 126 127
0.23789293 -0.15656272 0.77004085 151 143 141
0.23170243 -0.15750051 0.81870997 78 69 76
0.23460573 -0.15148782 0.83518005 72 67 71
0.22890959 -0.14976669 0.84282927 81 73 75
0.23083245 -0.12294326 0.73485267 149 140 139
0.23348267 -0.12440113 0.74740211 150 141 139
0.23792918 -0.12318946 0.76802705 150 139 139
0.22914903 -0.12085455 0.81969994 68 62 64
0.23333517 -0.13036139 0.83218720 75 67 70
0.22824385 -0.13539390 0.84337479 81 69 69
0.23184142 -0.10216047 0.73604557 150 141 141
0.23416634 -0.11156641 0.74900563 148 139 140
0.23778146 -0.11004826 0.76797717 148 139 139
0.22985742 -0.11872937 0.81969994 69 63 65
0.23532948 -0.10677753 0.83147323 77 71 73
0.23080384 -0.10098903 0.84926459 67 59 62
0.23008183 -0.10007164 0.86026883 71 61 61
0.23050832 -0.09003213 0.72754017 148 138 138
0.23515062 -0.08946904 0.74987971 148 139 138
0.23754642 -0.08594163 0.76146299 149 140 139
0.23885974 -0.09987677 0.83381528 73 72 74
0.23592389 -0.09907567 0.85373570 66 58 60
0.23504396 -0.08925561 0.87123007 85 76 79
0.23845480 -0.07846391 0.75911838 149 140 138
0.23889385 -0.07674908 0.76352050 148 139 136
0.23532364 -0.07319936 0.87501861 85 73 75
0.23662471 -0.04149601 0.83356109 72 64 69
0.23817660 -0.03355591 0.83507260 69 64 68
0.23512642 -0.00383517 0.83503209 81 71 73
0.23471897 0.00435486 0.83630646 85 74 77
0.23192427 0.00536916 0.84001470 100 88 90
0.23576182 0.05730787 0.84949152 94 83 86
0.23474048 0.07204041 0.83866395 80 72 75
0.23487656 0.06971707 0.84292303 84 77 79
0.23692368 0.08843216 0.83135747 75 69 73
0.23579599 0.08086782 0.84001470 77 69 72
0.23752996 0.10483975 0.82383534 70 69 71
0.22653753 0.23343876 0.61087183 145 155 160
0.24418095 -0.49398583 0.93348906 68 64 65
0.24569058 -0.49254170 0.95033730 70 66 65
0.24469467 -0.47929761 0.94545585 73 64 67
0.25150248 -0.40520025 1.61788034 67 56 57
0.24620960 -0.40581537 1.62647348 68 56 58
0.24040388 -0.40087375 1.64138460 72 57 60
0.25144900 -0.38877840 1.61311102 69 58 60
0.24736076 -0.39184793 1.62956410 70 58 60
0.24468449 -0.38449370 1.64537826 70 58 60
0.24845660 -0.36759185 1.63217179 68 57 58
0.24791468 -0.37568677 1.64823641 69 57 58
0.24416490 -0.28923145 0.95762652 82 72 74
0.25245287 -0.28842304 0.96980419 81 73 75
0.24918437 -0.26806058 0.95321236 80 72 75
0.25395378 -0.27627345 0.96327928 77 71 75
0.25043888 -0.24612789 0.93410385 79 69 73
0.25045773 -0.25690176 0.94453380 79 70 72
0.24107981 -0.23245949 0.79518788 153 147 143
0.24310279 -0.22868037 0.80923834 144 138 138
0.24577409 -0.22736624 0.82318471 139 136 134
0.24994769 -0.23551533 0.93508290 81 72 74
0.25097761 -0.22664982 0.95017045 85 75 77
0.25280318 -0.22079517 0.96264368 85 76 78
0.24189929 -0.21387956 0.95702610 84 74 77
0.25259682 -0.21032969 0.96768465 82 73 76
0.24156535 -0.18597923 0.79527634 148 140 138
0.24222915 -0.18420379 0.80414565 147 141 139
0.25173321 -0.19622846 0.97556759 85 74 76
0.25538859 -0.19166092 0.98475719 83 73 75
0.24125542 -0.17127315 0.79126751 150 143 142
0.24310143 -0.17500141 0.81054628 143 138 137
0.24659084 -0.16684829 0.83104409 140 134 133
0.24563290 -0.16134840 0.84022313 121 119 118
0.24227100 -0.14978500 0.78862450 150 142 140
0.24697185 -0.14890467 0.81117030 148 140 138
0.24544542 -0.15130468 0.83470521 115 110 112
0.24788531 -0.14927494 0.84100703 131 125 125
0.25837131 -0.14597002 1.01304216 81 71 73
0.25906245 -0.15589512 1.02143474 81 71 73
0.24360695 -0.13673781 0.79051110 150 141 138
0.24618256 -0.13816505 0.80704521 148 141 138
0.24076967 -0.13190010 0.83580781 92 87 90
0.24911472 -0.13068132 0.84419207 136 129 129
0.25781067 -0.12231122 0.99947236 83 71 71
0.25661332 -0.13204636 1.00669930 80 70 72
0.25409808 -0.13311550 1.02277112 80 71 73
0.24133800 -0.10734595 0.83408253 104 99 101
0.25085611 -0.10974625 0.85060504 132 125 125
0.24053992 -0.08025292 0.75742108 150 141 140
0.24079200 -0.08346303 0.77508852 150 140 139
0.24426503 -0.08472695 0.79321541 149 140 139
0.24721265 -0.08574218 0.80926332 149 140 139
0.25149944 -0.08854398 0.82996981 147 139 138
0.25200461 -0.09306870 0.85642218 123 116 114
0.24724441 -0.08736682 0.86555479 83 77 80
0.24107864 -0.07912058 0.75911742 150 142 139
0.24134411 -0.07253250 0.77212680 147 137 136
0.24433549 -0.06972553 0.78999951 145 137 135
0.24776153 -0.06954347 0.80824376 146 137 135
0.25202195 -0.06800915 0.82822514 145 137 135
0.25545404 -0.07131564 0.84696948 144 137 135
0.25066512 -0.07005671 0.87000205 98 90 91
0.24584706 -0.04379298 0.73687345 144 134 135
0.24351690 -0.04307801 0.74511339 144 134 136
0.24689227 -0.05879112 0.79472476 144 135 133
0.25220537 -0.05539218 0.81118670 143 134 132
0.25575948 -0.04911914 0.83032394 142 133 132
0.25676122 -0.04639732 0.85279450 140 131 129
0.25292479 -0.05245340 0.86984352 102 96 95
0.24736209 -0.03305838 0.73613957 145 135 134
0.24539939 -0.03028479 0.74459582 146 136 133
0.25156618 -0.02714466 0.83558209 128 119 118
0.25496389 -0.03047846 0.84939364 142 134 132
0.25386065 -0.03680603 0.86723290 113 110 108
0.24840268 -0.00846077 0.83561308 123 114 115
0.25297275 -0.01238560 0.84408063 141 131 131
0.24632750 0.00338990 0.83597082 110 101 103
0.25143818 0.00500922 0.84053579 135 125 125
0.25432359 0.01471602 0.87788930 99 90 92
0.25212592 0.01778711 0.88417804 80 71 76
0.25619587 0.02921495 0.85809094 140 135 135
0.25705462 0.03310931 0.87547882 110 106 105
0.25190131 0.02941442 0.88558901 79 72 74
0.24904818 0.05559601 0.79486804 145 135 132
0.25122870 0.05556013 0.80982278 145 135 132
0.25347086 0.05372233 0.83673072 143 134 132
0.24708345 0.05509219 0.84583836 103 95 98
0.25865983 0.04454614 0.89163122 79 73 78
0.24877457 0.06779568 0.79154010 145 135 133
0.25132424 0.07214715 0.80750560 145 135 132
0.25047180 0.06997793 0.83502428 133 124 121
0.24582884 0.06922361 0.84151485 87 81 83
0.24486692 0.09812798 0.77386189 142 132 125
0.24852879 0.09378333 0.79294684 143 133 132
0.25130286 0.08618040 0.80637419 146 135 135
0.24873135 0.08965117 0.83243616 121 114 113
0.25884831 0.08985660 0.84258589 145 135 133
0.24525951 0.10025460 0.77650839 142 132 129
0.24956113 0.10739993 0.79360776 140 131 122
0.25061366 0.10357912 0.80224023 140 131 128
0.24756327 0.10888660 0.82834125 126 118 117
0.24942015 0.12100233 0.83443242 131 123 118
0.24541303 0.15772968 0.53881762 102 117 123
0.24456540 0.15812296 0.54101614 81 97 106
0.25098481 0.16453262 0.53835750 125 138 145
0.25225352 0.16576097 0.54192917 122 133 139
0.27534170 -0.54248047 1.37305885 69 60 62
0.27809165 -0.54979268 1.38417453 70 59 61
0.27254404 -0.52432609 1.35850072 70 61 62
0.27190918 -0.52856256 1.36849768 70 61 62
0.26903030 -0.52093750 1.38063514 72 61 63
0.27880552 -0.51845592 1.35850072 72 61 63
0.27509175 -0.51572725 1.37079457 70 60 62
0.26903030 -0.51855117 1.38063514 73 62 64
0.26423435 -0.38406209 1.59131877 68 56 58
0.26350103 -0.39197814 1.60495467 70 55 58
0.26553497 -0.37740425 1.58263453 67 56 58
0.26544766 -0.28791270 0.97362866 74 66 69
0.27320949 -0.29215996 0.98216840 82 73 76
0.26530933 -0.26747151 0.95189613 81 73 76
0.26479690 -0.27708477 0.96291947 76 67 69
0.26473764 -0.24660292 0.93388311 84 76 79
0.26557711 -0.25802559 0.94243527 83 74 77
0.26292209 -0.23831008 0.93761064 87 77 77
0.26644711 -0.23223567 0.95091669 91 84 86
0.26874892 -0.22695601 0.96135578 97 89 90
0.27716604 -0.20756981 0.54830429 157 153 147
0.26503344 -0.20806394 0.96853859 80 71 74
0.26573830 -0.19732817 0.97606528 76 65 69
0.26546085 -0.19325062 0.98447005 74 63 67
0.26688736 -0.14619854 1.01536716 75 65 68
0.26944298 -0.15377988 1.02262372 72 62 64
0.26759231 -0.13206608 1.00540778 70 61 62
0.27542216 -0.08165714 1.07858753 80 70 73
0.27597275 -0.08143837 1.08810890 79 69 73
0.26081552 -0.06125118 0.86853570 143 134 134
0.26956764 -0.07273454 1.07751903 77 65 69
0.27469219 -0.07185021 1.08968308 77 63 67
0.27679924 -0.06510188 1.10238481 77 65 68
0.26026416 -0.04507490 0.83313241 146 134 135
0.26109427 -0.05756013 0.86946398 138 130 130
0.26966228 -0.05535672 1.09302294 78 65 70
0.27549220 -0.04966372 1.10270246 80 65 68
0.26136430 -0.03379020 0.83897507 150 138 137
0.26197740 -0.03717776 0.84061023 147 137 136
0.27607741 -0.03090820 1.10204054 79 66 69
0.27947571 -0.01783582 1.10948126 80 67 68
0.26169077 0.01748708 0.87734145 135 127 123
0.26483696 0.01806366 0.88382850 135 127 122
0.26183095 0.02335973 0.87696482 138 129 128
0.26277815 0.02365914 0.88525230 126 118 119
0.26169201 0.04673712 0.89174951 108 98 102
0.28407216 -0.56893513 1.40787661 72 60 62
0.28609475 -0.57422751 1.43015158 74 59 62
0.28086364 -0.55889904 1.39197505 75 59 61
0.28059128 -0.52210572 1.35578370 71 62 63
0.28059128 -0.51741901 1.35578370 70 60 63
0.28110501 -0.51700810 1.36397302 70 60 64
0.28677818 -0.20931622 0.55025113 158 154 151
0.29281213 -0.21050056 0.83772738 148 140 139
0.29172378 -0.20846373 0.84560981 148 140 138
0.28289009 -0.07141643 1.09669587 78 62 67
0.28858337 -0.06440371 1.10854843 76 64 67
0.29967684 -0.06062137 1.12048233 76 67 70
0.28894411 -0.04969960 1.11003677 76 64 66
0.29967684 -0.05093805 1.12048233 80 71 71
0.28952451 -0.02997756 1.10983274 75 64 67
0.29774016 -0.02188811 1.12048233 67 58 59
0.28411429 -0.01711152 1.11450651 78 67 69
0.29395469 -0.01462272 1.12757688 75 65 67
0.29536375 -0.00848575 1.14123201 76 65 69
0.29251114 0.03842944 0.47499365 146 138 132
0.29126845 0.04472083 0.47630575 145 138 132
0.30211285 -0.06072173 1.12233746 84 73 75
0.30086774 -0.04211947 1.11771196 79 69 71
0.30335451 -0.05095366 1.12358080 89 80 81
0.30271685 -0.02815928 1.11740515 79 69 70
0.30553761 -0.03433278 1.12209094 94 80 82
0.30568871 -0.01560558 1.12408085 80 70 73
0.31848548 0.13654666 1.26002204 70 60 62
0.31534018 0.15645389 1.25664919 76 60 63
0.31798594 0.14778323 1.26472998 74 60 62
0.31687117 0.16701287 1.26915445 75 60 64
0.31664064 0.17707315 1.28706057 71 59 61
0.31737600 0.18362421 1.29245466 71 60 62
0.31985137 0.35650045 0.90385580 106 119 129
0.33276453 -0.20138895 0.49426384 155 153 147
0.33297567 -0.20614599 0.91690080 150 142 139
0.33133265 -0.20672443 0.92750266 150 141 138
0.33021142 -0.21112238 0.94466687 150 142 139
0.33288477 -0.19443334 0.49378265 155 153 147
0.33335428 -0.18999897 0.50241365 155 152 148
0.32859446 -0.19877354 0.91780953 150 142 137
0.33383694 -0.19855663 0.92419179 150 143 138
0.33099950 -0.16307773 0.52629899 154 151 143
0.33017274 -0.15861511 0.52565617 155 152 145
0.33334971 0.05841195 0.47115574 147 141 135
0.33347565 0.06469010 0.47137399 146 139 135
0.32156116 0.13911248 1.26354599 72 62 63
0.32512373 0.14619580 1.27269586 72 60 62
0.32944119 0.14551444 1.28145909 71 61 62
0.32725673 0.17290896 1.27396417 72 59 62
0.32787597 0.17832498 1.28486240 72 59 61
0.33618868 0.18134830 1.27904117 65 54 58
0.32759529 0.18404299 1.28824342 72 60 62
0.32306851 0.35099661 0.87201223 130 139 146
0.32373551 0.35377280 0.88981077 106 116 122
0.32227074 0.35491129 0.90343689 95 105 114
0.32648271 0.35878369 0.93631470 114 126 133
0.32758974 0.36467150 0.89274838 125 132 140
0.32510238 0.37019158 0.91088097 107 116 126
0.32352662 0.37101089 0.92784237 115 125 134
0.32918035 0.36442725 0.95034287 114 127 134
0.33242917 0.36564779 0.96291453 94 112 126
0.33863893 0.43507546 1.27165033 74 80 90
0.33894213 0.43537931 1.28388837 57 62 75
0.33709395 0.44324338 1.27066575 85 92 102
0.34229247 -0.20438948 0.91880392 155 147 145
0.34373973 -0.20274218 0.92468560 153 144 141
0.34755666 -0.19932826 0.92777324 151 143 138
0.34052080 0.06894494 0.47206962 142 136 133
0.34858853 0.41811672 1.23929036 83 93 100
0.34856899 0.42605529 1.25319004 88 94 101
0.34524590 0.42973934 1.26760275 78 87 94
0.34484095 0.42849617 1.28854371 63 70 82
0.34513839 0.44462411 1.27398010 86 94 105
0.34930727 0.45062131 1.28938380 86 94 105
0.38743532 -0.23352874 0.93793531 152 143 140
0.39420901 -0.23234312 0.94465554 150 143 139
0.39610650 -0.00031252 0.59877009 147 143 136
0.39646797 0.00160312 0.59892503 146 144 138
0.39792170 0.00550763 0.60216037 146 145 137
0.40443441 -0.22116192 0.91855264 151 142 141
0.40427680 -0.22530872 0.93433640 148 140 139
0.40257967 -0.23013646 0.94372194 148 141 139
0.40443441 -0.21957427 0.91855264 151 142 141
0.40580149 -0.21665393 0.93226611 148 140 138
0.40606167 -0.21795402 0.94395617 150 142 139
0.40990437 -0.04579907 0.47483595 57 69 82
0.41054266 -0.04506165 0.48072681 56 70 83
0.41029094 -0.03919987 0.47658138 55 69 82
0.40421642 0.01006596 0.59879869 146 140 135
0.40292433 0.00909947 0.60181096 147 143 138
0.45737510 -0.30354121 1.34985059 150 141 140
0.45664364 -0.29127349 1.35399040 150 140 139
0.45817617 -0.28774881 1.36122859 150 141 140
0.45828231 -0.26276268 1.34770286 150 141 140
0.45646551 -0.25823846 1.34236014 151 142 140
0.44525238 0.21229779 0.45794192 135 148 154
0.44866117 0.21392123 0.46489539 131 146 152
0.44652560 0.22233169 0.45989949 110 137 146
0.44771468 0.22192603 0.46174171 111 131 143
0.46435422 -0.29018502 1.35362957 151 141 141
0.47096539 -0.28637773 1.36418386 151 142 140
0.47066793 -0.27372109 1.35488614 150 142 139
0.47360077 -0.27198731 1.36839135 150 141 138
0.46619532 -0.25517615 1.35488888 150 141 140
0.47759860 -0.25598612 1.37225351 150 141 140
0.47583720 -0.15730135 1.24156010 153 144 143
0.47243042 0.11024272 0.46712849 144 161 164
0.47571859 0.12046991 0.47190528 139 158 162
0.48218903 -0.28367903 1.35488707 150 142 138
0.48031560 -0.28832778 1.36396754 150 144 138
0.48186931 -0.27256124 1.35398140 151 143 139
0.48273061 -0.26647772 1.37290946 151 142 139
0.48141241 -0.26798800 1.38063514 152 142 139
0.48208897 -0.25724795 1.37170300 151 141 138
0.48707411 -0.16285083 1.27663696 152 143 142
0.49322557 -0.16228900 1.29864335 150 141 140
0.49992961 -0.17132020 1.31629479 154 146 142
0.48615682 -0.15923846 1.27423275 151 142 141
0.49134573 -0.15384965 1.29369381 150 141 137
0.49869148 -0.11066122 0.58998982 76 108 132
0.49510897 0.03893616 0.51084875 122 147 159
0.49492359 0.04583370 0.51369890 128 151 162
0.48994225 0.10635226 0.45012739 96 111 126
0.49706413 0.11454388 0.55579236 141 152 157
0.49744012 0.11814976 0.56168923 132 147 153
0.49408877 0.12534762 0.55897292 139 156 160
0.49560101 0.12509847 0.56111335 146 161 164
0.51986223 -0.23125128 1.37503421 150 141 142
0.51571000 -0.20302001 1.35578732 154 146 143
0.51843193 -0.20786021 1.36191332 153 144 142
0.51386442 -0.19377221 1.35265990 153 144 142
0.51362483 -0.18961358 1.37108340 152 144 141
0.51499592 -0.19049871 1.38110475 153 143 141
0.50418777 -0.16972733 1.33358063 152 143 141
0.50668208 -0.17203397 1.34771412 151 143 140
0.51140311 -0.17249126 1.36893296 151 142 140
0.50253350 -0.15921532 1.32919967 153 141 138
0.50503220 -0.10848185 0.59243395 78 109 131
0.50368224 -0.09929409 0.59041577 78 102 118
0.50211962 0.04508382 0.51387134 136 158 169
0.50162216 0.11697406 0.55839658 138 147 155
0.50281143 0.11926843 0.56063346 144 159 166
0.50306044 0.12694143 0.55907668 146 163 166
0.50257652 0.12530858 0.56078991 151 167 170
0.51941773 0.24687827 0.60988933 104 118 130
0.52683954 -0.22618654 1.37051766 151 141 141
0.53818909 -0.22230429 1.38345659 149 141 142
0.52300360 -0.20264207 1.35850072 152 143 143
0.52855004 -0.20830082 1.36804177 152 143 143
0.53565174 -0.21809767 1.38204396 149 143 145
0.52357407 -0.19598560 1.35633036 151 142 141
0.52658954 -0.19103068 1.36618303 151 143 142
0.53391138 -0.19043272 1.38063514 151 144 142
0.52670967 0.15835631 0.59370104 151 162 165
0.52669278 0.16411230 0.59204073 151 164 167
0.53377779 0.23497215 0.61351239 129 144 151
0.53045910 0.24716133 0.61726951 117 131 137
0.53291406 0.25107220 0.62302744 107 120 128
0.52621984 0.26040780 0.62421228 141 154 152
0.55812901 0.19750689 1.48987222 143 135 130
0.55299192 0.20994233 0.53454875 116 134 139
0.55757441 0.20566585 1.49034919 143 133 132
0.54181045 0.23764215 0.61738783 128 144 150
0.54083719 0.24742919 0.61855381 122 135 140
0.54180932 0.25114932 0.62385122 108 122 130
0.54297282 0.26060938 0.62903752 75 99 114
0.56910678 0.19796206 1.50643623 142 132 130
0.56090784 0.21319132 0.53737268 117 132 136
0.57519541 0.21199107 1.47421298 143 134 129
0.57130997 0.21049357 1.49592250 142 133 130
0.57424783 0.21285888 1.50375414 142 133 130
0.57373935 0.22035238 1.47048128 142 134 130
0.57155239 0.22297954 1.49492240 142 134 130
0.56957410 0.22134130 1.50308609 142 134 130
0.58627388 -0.14147452 0.56841694 73 111 129
0.59314345 -0.13672570 0.57413369 71 107 126
0.59763652 -0.13294660 0.58138239 75 104 130
0.58086022 0.20339927 1.49535612 143 134 133
0.58353327 0.20482180 1.51064640 141 133 132
0.60066823 -0.13479546 0.57811117 75 105 127
0.60726457 -0.12947397 0.58594230 71 105 128
0.61124866 0.17587584 0.50904422 133 150 159
0.60791199 0.18353185 0.50748437 131 151 158
0.62022656 0.17282122 0.51355445 124 145 157
0.63578701 0.19950101 0.63177463 147 159 164
0.63733372 0.20201874 0.63434335 133 147 151
0.65550873 -0.30690638 0.76941740 90 122 139
0.65888712 -0.31115143 0.78319679 92 122 140
0.64902711 -0.29503046 0.76440165 84 121 139
0.64751474 0.21489805 0.63568814 131 141 146
0.64919761 0.21355222 0.65143445 137 153 158
0.65702834 0.21708868 0.66509413 126 141 148
0.65119792 0.22135335 0.63652041 104 117 125
0.65702788 0.22462910 0.64859389 105 119 128
0.65854749 0.22710129 0.66779821 108 128 135
0.66168374 -0.30581376 0.77078340 87 121 140
0.66298684 -0.31071095 0.78865908 89 122 138
0.66976446 -0.31328319 0.80271414 89 124 140
0.66666870 0.23095267 0.65464565 90 104 114
0.66331373 0.23137024 0.66795232 113 134 140
0.67867964 0.24488686 0.66638886 102 120 127
0.69496338 -0.26808881 1.14638146 156 154 149
0.69592892 -0.27178389 1.16795997 155 152 147
0.69925517 -0.25470850 1.16676736 156 150 143
0.69499332 -0.25396018 1.19487811 156 149 145
0.69496515 -0.20261826 0.70514716 77 113 133
0.69662105 -0.18983432 0.69837976 78 108 133
0.69276367 -0.19349567 0.70180403 78 111 134
0.68234216 0.25125130 0.66828059 98 118 125
0.69861144 0.27724654 0.79658337 101 121 130
0.69989163 0.28078723 0.79751980 113 130 139
0.69938448 0.29673862 0.81871116 151 168 171
0.71650553 -0.28100714 1.15878952 156 151 146
0.71533852 -0.28156028 1.16628616 155 150 145
0.70160531 -0.26480395 1.15799854 155 152 149
0.70971712 -0.26922430 1.16825805 156 151 147
0.70590853 -0.26587795 1.18513377 155 152 145
0.70689149 -0.25275192 1.15780079 156 152 146
0.70986699 -0.25676838 1.16384237 156 151 145
0.70740935 -0.25627203 1.19491940 153 149 144
0.70264643 0.27828887 0.80223888 92 112 117
0.70781781 0.29304731 0.81151496 123 139 146
0.70916128 0.29481349 0.82255732 149 162 166
0.71127178 0.30155282 0.81732131 110 126 139
0.71098271 0.30655532 0.82596475 109 120 134
0.71433529 0.31511331 0.84131938 145 158 163
0.72128898 -0.28178270 1.18306094 158 154 149
0.72518466 -0.26298127 1.15878952 155 148 145
0.72285375 -0.27135579 1.16497461 157 151 146
0.72329032 -0.25807884 1.16196837 156 151 147
0.72174823 0.29319850 0.81281996 129 147 150
0.72285811 0.30467589 0.81885276 113 134 147
0.72499153 0.31050292 0.82839352 121 137 149
0.72266555 0.31607518 0.84001470 104 111 130
0.73227592 0.39835268 1.25690798 124 132 138
0.73344158 0.39524102 1.26769850 122 131 136
0.73417830 0.40258448 1.25768435 124 134 139
0.73500916 0.40684343 1.26876990 117 126 131
0.73832273 0.41205710 1.28877575 119 126 131
0.75355796 0.39664443 1.26891827 108 120 130
0.75156873 0.40584520 1.25768435 165 173 175
0.75012425 0.40970825 1.26937469 145 156 160
0.74153145 0.41704608 1.28552258 134 141 147
0.75151438 0.42200412 1.27233272 155 168 171
0.75248671 0.42459160 1.28145909 158 171 174
0.77850530 0.10350300 0.85917848 121 143 158
0.79390047 0.11675685 0.85836351 97 120 133
0.79253523 0.11311375 0.86758613 111 132 142
0.79375193 0.15407776 0.67859982 141 156 161
0.79784520 0.15250291 0.68173626 147 161 165
0.79969156 0.16129558 0.68267053 143 165 166
0.80322368 0.11153900 0.87031909 105 129 136
0.80798379 0.15530634 0.67891926 113 126 136
0.80679455 0.15687786 0.68142414 114 126 134
0.81248140 0.16091325 0.67857039 138 153 157
0.81142154 0.16189414 0.68425529 126 140 146
0.93429526 0.37804964 0.94810272 134 151 155
0.93649541 0.38686089 0.95277172 125 144 149
0.93824035 0.38992039 0.96120819 126 146 149
0.92654985 0.40141508 0.93760973 139 155 158
0.93713015 0.40456972 0.94977286 141 158 162
0.94236423 0.39501140 0.95545740 140 161 166
0.94652284 0.39277860 0.96853193 125 145 149
0.94338053 0.40264426 0.95535870 141 160 164
0.95355188 0.40693556 0.96997641 141 162 165
0.96263219 0.40792701 0.96945995 137 155 163
1.03927100 -0.38888785 1.38628185 154 151 147
1.04890629 -0.42182794 1.39485093 156 151 144
1.05514421 -0.42506248 1.40978582 151 147 141
1.05178249 -0.41819546 1.39412901 153 151 145
1.05573717 -0.40583320 1.40801339 154 150 146
1.05756867 -0.40034980 1.42714071 153 150 143
1.04807570 -0.38786049 1.39214067 152 148 144
1.05261552 -0.39188083 1.40874245 153 150 145
1.05657901 -0.39540480 1.42414669 152 151 144
1.06885449 -0.42160168 1.39675645 123 128 132
1.06762024 -0.42212304 1.40790095 141 141 140
1.06798184 -0.42351491 1.43096893 154 149 144
1.07037822 -0.42346945 1.45574633 155 151 143
1.07437754 -0.42752288 1.46594604 154 152 143
1.06837690 -0.41866937 1.39771509 126 129 133
1.07068600 -0.41228743 1.41181204 144 144 143
1.06617803 -0.41266644 1.42938076 154 151 144
1.06536789 -0.41424494 1.44695582 153 150 141
1.06385766 -0.38894982 1.39510169 131 131 133
1.06793315 -0.39272887 1.40189177 133 134 137
1.06389747 -0.39081427 1.42835517 155 150 145
1.08298725 -0.42268991 1.41522926 122 123 130
1.08809453 -0.41117267 1.42190328 115 118 121
1.19817913 0.27841672 1.06419615 139 161 162
1.19849938 0.28285702 1.06475304 135 155 157
1.20622761 0.27853778 1.06653963 139 160 161
1.20861662 0.28466197 1.06684301 146 162 165
1.21639264 0.28747806 1.08314340 136 157 159
1.20936012 0.30843105 1.07328704 145 165 166
1.21714145 0.31263196 1.08506286 144 162 165
1.22945360 0.27964242 1.06420143 134 153 156
1.22835178 0.28570064 1.07072551 128 144 149
1.22098982 0.29634330 1.08723700 141 160 163
1.22770913 0.30731861 1.08986517 150 168 170
1.25020266 0.29716250 1.11496574 138 158 160
1.24405297 0.30720038 1.10948126 144 162 166
1.25846851 0.30203384 1.12233746 146 165 167
1.26280081 0.31426404 1.12793982 144 164 168
1.34695716 0.39624135 1.59093502 133 143 146
1.35786331 0.39808711 1.61402822 119 134 138
1.34785341 0.40967677 1.58867606 120 126 133
1.35537696 0.41237469 1.60447997 119 126 132
1.35773146 0.40385649 1.63741994 159 172 177
1.35818195 0.40483436 1.64138460 155 165 170
1.35610688 0.42196557 1.59880149 111 116 122
1.35377300 0.42296311 1.60258114 104 107 113
1.36065304 0.39808711 1.61402822 119 132 137
1.36163366 0.40262178 1.59880149 156 163 165
1.36281574 0.40616420 1.61659630 124 133 139
1.37271984 0.40666018 1.63505638 133 144 148
1.37109133 0.40941370 1.64838569 153 164 169
1.37482631 0.41745361 1.66149962 163 176 178
1.36518586 0.42674845 1.61691731 127 132 137
1.37413123 0.42809308 1.63270037 121 126 132
1.37699859 0.42831296 1.66412969 152 163 167
1.38550158 0.41495220 1.65028106 133 142 146
1.38971961 0.41656008 1.66558194 153 163 166
1.38269317 0.43676329 1.63347435 156 163 167
1.38830890 0.43101902 1.65222193 128 133 139
1.39042414 0.43022681 1.66837019 143 150 155
1.39728276 0.44708113 1.65071281 153 165 168
1.39491306 0.44586984 1.66911421 129 143 145
1.39649385 0.44734932 1.68945730 114 124 128
1.39465010 0.77630657 1.70324588 141 153 157
1.39816308 0.78121334 1.70753610 140 152 157
1.40208715 0.42532516 1.67176604 126 135 140
1.40983269 0.42900985 1.68968749 150 159 164
1.40126270 0.44692200 1.65541601 156 168 171
1.40629367 0.45091585 1.67198372 141 155 157
1.40928388 0.45317358 1.69210924 118 133 136
1.41072536 0.45556152 1.70693254 116 126 133
1.40672016 0.46056548 1.67381722 131 149 151
1.41768062 0.46106664 1.71329272 123 128 143
1.41655660 0.46211852 1.72272664 122 127 137
1.40799318 0.75523716 1.66586885 61 71 94
1.41805029 0.75795275 1.68211377 76 81 106
1.40946853 0.76583679 1.66852377 79 89 101
1.41927910 0.76757687 1.69050336 63 73 89
1.40982509 0.77777186 1.70646900 111 123 133
1.41373412 0.78286157 1.71329995 118 130 136
1.41477389 0.78562183 1.72367438 132 144 149
1.42345679 0.46161896 1.69897699 131 151 153
1.42847134 0.46650250 1.71001877 127 144 148
1.42804481 0.46755160 1.72492681 128 136 145
1.43444717 0.47348578 1.74265254 141 147 154
1.42282724 0.77315731 1.69472957 75 85 100
1.43183204 0.77596076 1.70897345 65 77 92
1.43226890 0.78564970 1.71186262 93 105 120
1.43268813 0.78988992 1.72713598 96 108 121
1.43227124 0.80124372 1.73818421 119 135 140
1.42814811 0.80499760 1.74414965 130 140 148
1.43565559 0.80251950 1.76075804 156 165 170
1.44377964 0.47603174 1.73109860 134 152 155
1.44319519 0.79204113 1.73123395 93 107 121
1.44809186 0.80069423 1.73375005 96 118 129
1.44861111 0.80810471 1.74651224 107 128 135
1.45087218 0.81469280 1.76075804 126 143 146
1.45454574 0.81307897 1.78392589 151 160 164
1.46153975 0.48652932 1.75165856 135 145 149
1.46279379 0.81376948 1.76535130 105 122 130
1.47146809 0.82109094 1.77458596 108 129 137
1.46482750 0.82814461 1.79653593 136 144 152
1.47082567 0.82235947 1.80772448 156 165 170
1.48267663 0.83371419 1.82228994 148 156 160
1.49879265 0.83322459 1.84209740 155 168 172
1.49171737 0.84671046 1.83340144 133 146 155
1.50731075 0.55193159 1.59504843 90 97 111
1.51206195 0.55657852 1.60447997 89 94 117
1.50943351 0.56623654 1.59730027 138 151 153
1.51493910 0.56949928 1.60839844 136 149 154
1.51620948 0.84954318 1.86747062 154 164 169
1.51204407 0.86813211 1.86234021 132 148 159
1.52357548 0.56987303 1.61184529 125 135 144
1.52728918 0.57410529 1.62662154 141 154 162
1.52888664 0.58266584 1.61788034 158 172 175
1.53289688 0.58886250 1.62858174 160 173 177
1.53588610 0.58840609 1.64698153 161 176 180
1.52895411 0.61177520 1.63088171 122 141 145
1.53691304 0.61193538 1.64138460 123 141 146
1.52460945 0.85424975 1.87781680 152 163 168
1.52320560 0.86805218 1.87608767 130 148 158
1.53362721 0.86346978 1.89094484 147 161 165
1.54770709 0.59508628 1.65039066 161 174 178
1.54774900 0.59839712 1.66422784 162 172 177
1.54936198 0.60499267 1.65448325 152 166 170
1.55392730 0.60713096 1.66764452 152 166 170
1.54169190 0.85561615 1.89885676 157 172 175
1.54708928 0.86703512 1.90956962 153 165 170
1.55144727 0.88934582 1.91494870 128 147 158
1.57150906 0.59427649 1.65541601 148 163 163
1.57872188 0.59933221 1.66149962 145 160 161
1.57684326 0.60368359 1.66558194 158 171 176
1.57717335 0.62027866 1.70324588 144 160 163
1.56804562 0.86690396 1.93131578 160 173 173
1.57593536 0.87480319 1.94517428 159 173 175
1.56359622 0.88796706 1.92994410 140 156 163
1.58846542 0.60737500 1.67175585 145 158 163
1.59672455 0.61211932 1.68350856 152 164 169
1.58513892 0.61749381 1.71184814 156 168 173
1.58513892 0.62045258 1.71184814 152 164 169
1.58393252 0.88789737 1.95922494 155 169 173
1.59314144 0.88795048 1.97061586 157 172 176
1.60228491 0.61702138 1.68629813 144 152 160
1.60736716 0.62303567 1.69472957 145 153 161
1.61544442 0.62175062 1.70324588 150 159 166
1.60245812 0.88971722 1.98213995 166 176 179
