ply
format ascii 1.0
element vertex 1111
property float x
property float y
property float z
property uchar red
property uchar green
property uchar blue
end_header
0.18827105 0.03935990 1.79336464 65 53 55
0.24529867 0.01949940 0.88845587 94 83 83
0.24618898 0.01944842 0.88613313 89 79 79
0.24739718 0.01942303 0.88497627 80 75 79
0.24892680 0.01942303 0.88497627 71 69 73
0.25045642 0.01942303 0.88497627 67 66 70
0.25297680 0.01949940 0.88845587 67 63 68
0.25417927 0.01947388 0.88729298 71 65 70
0.25471273 0.01939771 0.88382250 69 62 67
0.25657484 0.01942303 0.88497627 72 67 71
0.25878012 0.01947388 0.88729298 90 83 87
0.25997347 0.01944842 0.88613313 107 100 103
0.26082319 0.01939771 0.88382250 120 115 116
0.26031443 0.01924714 0.87696230 131 125 124
0.26250941 0.01929707 0.87923717 138 129 126
0.26644820 0.01947388 0.88729298 139 130 129
0.26798180 0.01947388 0.88729298 141 132 131
0.40304461 0.01313155 0.59831583 148 140 134
0.40265718 0.01308535 0.59621096 147 139 133
0.40547076 0.01314315 0.59884441 147 137 132
0.40686524 0.01315477 0.59937388 146 136 131
0.15020093 0.04136527 1.74714386 66 55 57
0.15282685 0.04125893 1.74265254 66 55 57
0.16347356 0.04245958 1.79336464 66 55 57
0.16613373 0.04234755 1.78863287 67 55 57
0.17633881 0.04257221 1.79812157 66 53 55
0.17897198 0.04245958 1.79336464 64 52 55
0.18352824 0.04279926 1.80771160 64 52 55
0.18615630 0.04268543 1.80290389 66 53 56
0.18827105 0.04245958 1.79336464 65 52 54
0.24562058 0.02106263 0.88962185 93 84 85
0.24651121 0.02100749 0.88729298 89 80 80
0.24772058 0.02098003 0.88613313 78 76 76
0.24925220 0.02098003 0.88613313 72 70 70
0.25078380 0.02098003 0.88613313 68 66 67
0.25297680 0.02103502 0.88845587 72 64 68
0.25417927 0.02100749 0.88729298 75 63 69
0.25471273 0.02092532 0.88382250 75 61 68
0.25724652 0.02100749 0.88729298 77 66 72
0.25911927 0.02103502 0.88845587 95 85 89
0.26031375 0.02100749 0.88729298 110 101 104
0.26116368 0.02095264 0.88497627 122 113 116
0.26065162 0.02078980 0.87809825 132 123 126
0.26285031 0.02084380 0.88037902 138 129 130
0.26679739 0.02103502 0.88845587 138 129 130
0.26868516 0.02106263 0.88962185 141 132 133
0.40758598 0.01421588 0.60043561 145 136 135
0.14981481 0.04427096 1.74265254 66 55 57
0.15204512 0.04404451 1.73373878 66 55 57
0.15543929 0.04415745 1.73818421 66 55 56
0.16133943 0.04496450 1.76995254 65 55 56
0.16439866 0.04496450 1.76995254 65 55 56
0.17186329 0.04531948 1.78392589 64 55 56
0.17540826 0.04543906 1.78863287 65 54 56
0.17756276 0.04520053 1.77924371 64 53 55
0.18304013 0.04580161 1.80290389 64 53 55
0.24594335 0.02262997 0.89079088 90 80 81
0.24683429 0.02257065 0.88845587 87 77 78
0.24836992 0.02257065 0.88845587 81 73 74
0.24957845 0.02254110 0.88729298 75 67 69
0.25111204 0.02254110 0.88729298 72 64 66
0.25297680 0.02257065 0.88845587 75 62 68
0.25417927 0.02254110 0.88729298 76 62 69
0.25471273 0.02245294 0.88382250 77 61 68
0.25724652 0.02254110 0.88729298 66 60 64
0.25911927 0.02257065 0.88845587 95 90 93
0.26031375 0.02254110 0.88729298 111 106 108
0.26082319 0.02245294 0.88382250 123 113 114
0.26031443 0.02227866 0.87696230 134 124 125
0.26216936 0.02230752 0.87809825 140 129 130
0.26609990 0.02251164 0.88613313 141 131 132
0.26798180 0.02254110 0.88729298 142 132 132
0.40375733 0.01522671 0.59937388 148 139 138
0.40301162 0.01515969 0.59673578 145 137 135
0.40618840 0.01524018 0.59990430 142 136 134
0.40758598 0.01525368 0.60043561 142 136 134
0.40898603 0.01526720 0.60096794 143 137 135
0.14718114 0.04740486 1.74714386 64 55 57
0.14943066 0.04716176 1.73818421 65 55 57
0.15165725 0.04692113 1.72931588 66 55 57
0.15504174 0.04704114 1.73373878 66 55 57
0.15926032 0.04740486 1.74714386 66 55 57
0.16228011 0.04740486 1.74714386 65 54 56
0.16529991 0.04740486 1.74714386 64 55 56
0.16963129 0.04777425 1.76075804 65 55 56
0.17403071 0.04814944 1.77458596 68 55 57
0.17526272 0.04765048 1.75619650 69 55 57
0.18063803 0.04827581 1.77924371 69 54 57
0.18371332 0.04827581 1.77924371 68 53 56
0.18629962 0.04814944 1.77458596 67 52 55
0.18643849 0.04740486 1.74714386 68 52 55
0.24562058 0.02413791 0.88962185 89 78 80
0.24683429 0.02410627 0.88845587 87 76 78
0.24804483 0.02407472 0.88729298 82 69 71
0.24957845 0.02407472 0.88729298 78 65 67
0.25078380 0.02404325 0.88613313 72 59 61
0.25297680 0.02410627 0.88845587 74 61 63
0.25384703 0.02404325 0.88613313 75 62 65
0.25471273 0.02398055 0.88382250 73 62 65
0.25691023 0.02404325 0.88613313 68 63 65
0.25911927 0.02410627 0.88845587 92 88 90
0.26031375 0.02407472 0.88729298 111 107 108
0.26048356 0.02394933 0.88267165 128 123 119
0.25964266 0.02373301 0.87469918 134 128 123
0.26149192 0.02376368 0.87582928 141 132 127
0.26402909 0.02385614 0.87923717 141 133 127
0.40411463 0.01627707 0.59990430 148 140 137
0.40265718 0.01617686 0.59621096 148 140 137
0.40654817 0.01629148 0.60043561 145 138 136
0.40794733 0.01630593 0.60096794 144 138 136
0.14756145 0.05055495 1.75165856 64 55 56
0.14981481 0.05029503 1.74265254 65 55 57
0.15204512 0.05003777 1.73373878 66 55 57
0.15543929 0.05016607 1.73818421 67 55 57
0.15926032 0.05042466 1.74714386 68 55 58
0.16186294 0.05029503 1.74265254 68 54 57
0.16487497 0.05029503 1.74265254 69 54 56
0.16875464 0.05055495 1.75165856 69 53 56
0.17267463 0.05081758 1.76075804 71 54 56
0.17391108 0.05029503 1.74265254 73 55 57
0.17783745 0.05055495 1.75165856 71 56 55
0.24562058 0.02567555 0.88962185 90 77 79
0.24651121 0.02560833 0.88729298 88 75 77
0.24804483 0.02560833 0.88729298 82 69 71
0.24925220 0.02557486 0.88613313 76 63 65
0.25078380 0.02557486 0.88613313 66 53 55
0.25264567 0.02560833 0.88729298 68 59 63
0.25351563 0.02554147 0.88497627 70 63 67
0.25438106 0.02547496 0.88267165 69 62 66
0.25657484 0.02554147 0.88497627 74 68 73
0.25878012 0.02560833 0.88729298 91 85 90
0.25997347 0.02557486 0.88613313 112 108 109
0.26014483 0.02544183 0.88152385 126 121 118
0.25964266 0.02524486 0.87469918 134 129 126
0.26115450 0.02524486 0.87469918 139 134 130
0.26300570 0.02527748 0.87582928 140 134 131
0.40794733 0.01734465 0.60096794 144 139 135
0.14794374 0.05372137 1.75619650 66 54 56
0.14981481 0.05330706 1.74265254 67 55 57
0.15243497 0.05317038 1.73818421 68 56 58
0.15583888 0.05330706 1.74265254 69 56 58
0.16008550 0.05372137 1.75619650 69 55 58
0.16228011 0.05344446 1.74714386 68 55 57
0.16529991 0.05344446 1.74714386 67 54 56
0.16919184 0.05372137 1.75619650 68 55 57
0.17312430 0.05400117 1.76534331 69 56 57
0.17435931 0.05344446 1.74714386 70 57 57
0.17783745 0.05358255 1.75165856 71 58 58
0.18180460 0.05386091 1.76075804 69 56 56
0.18484794 0.05386091 1.76075804 68 55 55
0.18595922 0.05330706 1.74265254 67 54 54
0.24529867 0.02717752 0.88845587 87 76 76
0.24651121 0.02714195 0.88729298 85 72 73
0.24804483 0.02714195 0.88729298 78 65 67
0.24925220 0.02710647 0.88613313 70 58 61
0.25045642 0.02707108 0.88497627 63 54 59
0.25231540 0.02710647 0.88613313 65 58 62
0.25351563 0.02707108 0.88497627 66 60 64
0.25405025 0.02696547 0.88152385 68 62 66
0.25657484 0.02707108 0.88497627 76 69 75
0.25878012 0.02714195 0.88729298 96 89 95
0.25963408 0.02707108 0.88497627 115 107 112
0.25980699 0.02693045 0.88037902 129 122 126
0.25897434 0.02668784 0.87244767 137 131 134
0.14604333 0.05720138 1.76995254 65 54 56
0.14794374 0.05675681 1.75619650 66 55 59
0.14981481 0.05631910 1.74265254 67 55 59
0.15282685 0.05631910 1.74265254 69 56 58
0.15624052 0.05646425 1.74714386 69 56 60
0.16050130 0.05690423 1.76075804 68 55 59
0.16269945 0.05661016 1.75165856 68 55 59
0.16572705 0.05661016 1.75165856 68 55 59
0.16963129 0.05690423 1.76075804 68 55 58
0.17357631 0.05720138 1.76995254 69 56 58
0.17435931 0.05646425 1.74714386 69 56 58
0.17783745 0.05661016 1.75165856 69 56 60
0.18180460 0.05690423 1.76075804 69 56 59
0.18484794 0.05690423 1.76075804 67 54 57
0.18643849 0.05646425 1.74714386 66 53 55
0.24529867 0.02871314 0.88845587 94 82 82
0.24651121 0.02867556 0.88729298 86 73 73
0.24804483 0.02867556 0.88729298 73 62 66
0.24925220 0.02863808 0.88613313 67 57 62
0.25045642 0.02860069 0.88497627 61 52 57
0.25231540 0.02863808 0.88613313 66 57 62
0.25351563 0.02860069 0.88497627 68 59 64
0.25405025 0.02848911 0.88152385 74 65 70
0.25624034 0.02856340 0.88382250 77 68 73
0.25844187 0.02863808 0.88613313 102 93 99
0.25963408 0.02860069 0.88497627 115 110 111
0.25947002 0.02841521 0.87923717 129 124 124
0.25864145 0.02815955 0.87132627 135 131 130
0.25981352 0.02812340 0.87020773 139 135 134
0.14794374 0.05979225 1.75619650 67 55 58
0.14981481 0.05933113 1.74265254 68 56 59
0.15282685 0.05933113 1.74265254 70 55 58
0.15624052 0.05948405 1.74714386 71 55 58
0.16008550 0.05979225 1.75619650 71 54 58
0.16269945 0.05963776 1.75165856 71 55 58
0.16572705 0.05963776 1.75165856 71 56 58
0.16919184 0.05979225 1.75619650 71 55 58
0.17312430 0.06010367 1.76534331 71 56 58
0.17391108 0.05933113 1.74265254 70 57 59
0.17692311 0.05933113 1.74265254 70 57 60
0.24408294 0.03028847 0.88962185 89 76 78
0.24529867 0.03024877 0.88845587 95 82 84
0.24683429 0.03024877 0.88845587 86 73 76
0.24836992 0.03024877 0.88845587 72 62 65
0.24957845 0.03020918 0.88729298 62 54 57
0.25045642 0.03013030 0.88497627 56 49 52
0.25231540 0.03016969 0.88613313 63 56 59
0.25351563 0.03013030 0.88497627 66 60 62
0.25405025 0.03001276 0.88152385 73 71 72
0.25624034 0.03009102 0.88382250 78 77 77
0.25844187 0.03016969 0.88613313 100 99 100
0.25963408 0.03013030 0.88497627 114 110 112
0.25913391 0.02989613 0.87809825 126 122 123
0.25864145 0.02966557 0.87132627 134 130 129
0.25619587 0.02921495 0.85809094 140 135 135
0.14794374 0.06282770 1.75619650 68 55 57
0.15020093 0.06250384 1.74714386 69 55 58
0.15282685 0.06234317 1.74265254 70 54 57
0.15624052 0.06250384 1.74714386 70 54 57
0.15967184 0.06266535 1.75165856 71 55 58
0.16269945 0.06266535 1.75165856 71 55 58
0.16529991 0.06250384 1.74714386 71 55 58
0.16875464 0.06266535 1.75165856 71 55 58
0.17312430 0.06315493 1.76534331 71 55 58
0.17346515 0.06218331 1.73818421 71 55 58
0.24408294 0.03182610 0.88962185 93 79 82
0.24529867 0.03178439 0.88845587 93 80 82
0.24651121 0.03174279 0.88729298 86 75 79
0.24836992 0.03178439 0.88845587 75 65 68
0.24925220 0.03170130 0.88613313 60 52 55
0.25012988 0.03161863 0.88382250 60 56 57
0.25165749 0.03161863 0.88382250 61 58 58
0.25318509 0.03161863 0.88382250 63 60 60
0.25372034 0.03149544 0.88037902 70 70 70
0.25590667 0.03157746 0.88267165 77 75 77
0.25810447 0.03165991 0.88497627 93 90 93
0.25895795 0.03157746 0.88267165 111 106 109
0.25879869 0.03137321 0.87696230 124 118 121
0.25797829 0.03109166 0.86909211 137 129 130
0.14718114 0.06552364 1.74714386 68 56 58
0.14981481 0.06535520 1.74265254 69 56 57
0.15243497 0.06518763 1.73818421 70 54 55
0.15583888 0.06535520 1.74265254 70 54 56
0.15926032 0.06552364 1.74714386 70 54 56
0.16228011 0.06552364 1.74714386 70 54 55
0.16487497 0.06535520 1.74265254 71 55 56
0.16831970 0.06552364 1.74714386 72 56 58
0.17178224 0.06569295 1.75165856 72 56 59
0.24376304 0.03332002 0.88845587 94 85 88
0.24529867 0.03332002 0.88845587 99 91 94
0.24651121 0.03327641 0.88729298 86 81 83
0.24836992 0.03332002 0.88845587 72 70 70
0.24925220 0.03323290 0.88613313 61 60 60
0.25012988 0.03314625 0.88382250 60 59 59
0.25132981 0.03310309 0.88267165 60 60 60
0.25252661 0.03306004 0.88152385 64 63 65
0.25306302 0.03293157 0.87809825 73 72 74
0.25524199 0.03301711 0.88037902 73 71 72
0.25776795 0.03314625 0.88382250 92 88 90
0.25862119 0.03306004 0.88152385 111 102 103
0.25879869 0.03288897 0.87696230 125 116 116
0.25797829 0.03259381 0.86909211 137 128 126
0.14680277 0.06836724 1.74265254 68 55 56
0.14943066 0.06819193 1.73818421 68 55 56
0.15243497 0.06819193 1.73818421 71 55 56
0.15543929 0.06819193 1.73818421 71 55 58
0.15926032 0.06854344 1.74714386 71 55 57
0.16228011 0.06854344 1.74714386 70 54 55
0.16487497 0.06836724 1.74265254 71 53 56
0.16788702 0.06836724 1.74265254 71 54 57
0.17133951 0.06854344 1.74714386 71 54 57
0.17423567 0.06732874 1.71618187 71 55 58
0.24529867 0.03485564 0.88845587 96 91 93
0.24651121 0.03481002 0.88729298 87 86 86
0.24836992 0.03485564 0.88845587 70 69 69
0.24925220 0.03476452 0.88613313 60 59 59
0.24980418 0.03462872 0.88267165 59 58 58
0.25100297 0.03458368 0.88152385 61 61 62
0.25252661 0.03458368 0.88152385 64 64 66
0.25306302 0.03444929 0.87809825 66 66 66
0.25491095 0.03449398 0.87923717 71 70 69
0.25776795 0.03467387 0.88382250 89 88 85
0.25862119 0.03458368 0.88152385 105 102 99
0.25879869 0.03440473 0.87696230 120 117 113
0.25830945 0.03413974 0.87020773 133 128 123
0.15543929 0.07119624 1.73818421 68 56 60
0.15926032 0.07156324 1.74714386 68 56 60
0.16269945 0.07174815 1.75165856 67 55 59
0.16487497 0.07137927 1.74265254 68 55 59
0.16788702 0.07137927 1.74265254 68 55 59
0.17133951 0.07156324 1.74714386 68 55 59
0.17258012 0.07083300 1.72931588 71 53 58
0.17423567 0.07029503 1.71618187 73 55 59
0.17765170 0.07047344 1.72053766 74 54 58
0.24497759 0.03634363 0.88729298 98 92 94
0.24618898 0.03629613 0.88613313 80 79 79
0.24772058 0.03629613 0.88613313 67 64 66
0.24892680 0.03624874 0.88497627 61 57 61
0.24947934 0.03610733 0.88152385 61 57 61
0.25067699 0.03606043 0.88037902 64 60 63
0.25219867 0.03606043 0.88037902 66 64 65
0.25273564 0.03592049 0.87696230 67 66 65
0.25491095 0.03601366 0.87923717 70 69 68
0.25776795 0.03620148 0.88382250 89 88 86
0.25895795 0.03615434 0.88267165 100 100 96
0.25913391 0.03596701 0.87809825 119 118 114
0.25897434 0.03573557 0.87244767 131 130 126
0.15926032 0.07458303 1.74714386 65 56 61
0.16228011 0.07458303 1.74714386 66 55 61
0.16445222 0.07420056 1.73818421 68 55 59
0.16745654 0.07420056 1.73818421 68 56 60
0.17089905 0.07439131 1.74265254 67 56 60
0.17214099 0.07363414 1.72491562 65 56 56
0.17423567 0.07326131 1.71618187 70 56 57
0.17630924 0.07289223 1.70753610 72 55 57
0.24739718 0.03777835 0.88497627 75 69 74
0.24860226 0.03772910 0.88382250 67 59 64
0.24915534 0.03758210 0.88037902 64 58 62
0.25035188 0.03753335 0.87923717 65 60 64
0.25187156 0.03753335 0.87923717 68 63 66
0.25273564 0.03743624 0.87696230 70 64 66
0.25524199 0.03758210 0.88037902 71 66 68
0.25810447 0.03777835 0.88497627 83 83 81
0.25895795 0.03767997 0.88267165 100 99 97
0.25947002 0.03753335 0.87923717 114 113 111
0.25930807 0.03729152 0.87357193 130 128 126
0.15926032 0.07760283 1.74714386 66 55 59
0.16228011 0.07760283 1.74714386 66 55 59
0.16445222 0.07720487 1.73818421 67 56 59
0.16660216 0.07681096 1.72931588 67 56 59
0.17046084 0.07720487 1.73818421 66 57 58
0.17083690 0.07603510 1.71184814 66 56 58
0.17248894 0.07546340 1.69897699 68 56 56
0.17282660 0.07434542 1.67380702 70 57 57
0.24915534 0.03910376 0.88037902 68 59 64
0.25219867 0.03910376 0.88037902 72 63 68
0.25273564 0.03895200 0.87696230 72 65 68
0.25657484 0.03930796 0.88497627 78 72 74
0.25878012 0.03941086 0.88729298 86 82 81
0.25963408 0.03930796 0.88497627 101 97 96
0.26014483 0.03915461 0.88152385 111 107 106
0.25964266 0.03885148 0.87469918 136 128 129
0.16008550 0.08104036 1.75619650 66 55 58
0.16269945 0.08083095 1.75165856 66 55 57
0.16445222 0.08020917 1.73818421 66 55 57
0.16660216 0.07979994 1.72931588 67 56 58
0.17046084 0.08020917 1.73818421 67 56 58
0.16955240 0.07839995 1.69897699 67 56 58
0.17077690 0.07762178 1.68211377 68 56 57
0.25372034 0.04062543 0.88037902 74 67 71
0.25826064 0.04110589 0.89079088 76 70 74
0.25945935 0.04105194 0.88962185 87 83 83
0.26031375 0.04094448 0.88729298 104 98 98
0.26082319 0.04078433 0.88382250 119 111 111
0.16008550 0.08407580 1.75619650 66 55 59
0.16269945 0.08385855 1.75165856 65 54 58
0.16445222 0.08321349 1.73818421 66 55 59
0.16660216 0.08278893 1.72931588 67 56 60
0.17046084 0.08321349 1.73818421 67 56 58
0.16912852 0.08113315 1.69472957 67 56 58
0.17077690 0.08052918 1.68211377 68 56 58
0.25860044 0.04270166 0.89196295 77 71 77
0.25980029 0.04264554 0.89079088 87 82 86
0.26099697 0.04258958 0.88962185 103 97 101
0.26184735 0.04247809 0.88729298 118 109 114
0.16050130 0.08733751 1.76075804 65 54 56
0.16312094 0.08711125 1.75619650 65 54 57
0.16445222 0.08621780 1.73818421 66 56 58
0.25894114 0.04430164 0.89313811 78 70 78
0.26014212 0.04424334 0.89196295 90 81 86
0.26168382 0.04424334 0.89196295 105 96 100
0.26219052 0.04406939 0.88845587 120 111 114
0.25928277 0.04590583 0.89431643 77 71 80
0.26048487 0.04584535 0.89313811 92 80 86
0.26202857 0.04584535 0.89313811 109 96 102
0.26253462 0.04566486 0.88962185 124 111 115
0.25396726 0.04243490 0.82669735 144 136 137
0.25928277 0.04745159 0.89431643 76 73 78
0.26082852 0.04745159 0.89431643 93 82 88
0.26237428 0.04745159 0.89431643 108 95 101
0.26287961 0.04726452 0.89079088 124 111 115
0.25547120 0.04462569 0.84105688 144 138 137
0.25565612 0.04440531 0.83690351 143 137 135
0.25458819 0.04397103 0.82871866 143 137 135
0.25962529 0.04906207 0.89549780 80 71 78
0.26082852 0.04899734 0.89431643 94 84 89
0.26237428 0.04899734 0.89431643 108 98 103
0.26322550 0.04886840 0.89196295 128 117 121
0.25515464 0.04602228 0.84001470 145 136 135
0.25565612 0.04585183 0.83690351 145 136 135
0.25552532 0.04557053 0.83176911 145 136 135
-0.20908582 0.04874257 0.86245781 80 69 69
0.25962529 0.05060986 0.89549780 81 72 77
0.26117307 0.05060986 0.89549780 93 84 88
0.26237428 0.05054309 0.89431643 113 104 107
0.26322550 0.05041008 0.89196295 125 116 119
0.25515464 0.04747418 0.84001470 146 137 136
0.25565612 0.04729835 0.83690351 145 136 135
0.25583926 0.04706592 0.83279097 145 136 135
-0.20882015 0.05016943 0.86136192 80 69 71
-0.20706825 0.05010577 0.86026883 78 67 69
-0.20061146 0.04997892 0.85809094 77 68 70
0.07736594 0.04762768 0.81772238 63 54 55
0.08048394 0.04780066 0.82069230 70 52 56
0.08200171 0.04785860 0.82168710 72 52 57
0.08504833 0.04797490 0.82368392 72 54 56
0.08647200 0.04797490 0.82368392 72 55 57
0.08800260 0.04803327 0.82468593 74 57 60
0.26082852 0.05208885 0.89431643 92 85 88
0.26237428 0.05208885 0.89431643 110 104 107
0.25515464 0.04892608 0.84001470 146 138 133
0.25534090 0.04868476 0.83587158 145 137 132
-0.21274588 0.05152728 0.85917848 78 69 70
-0.21126086 0.05152728 0.85917848 80 70 73
-0.20977584 0.05152728 0.85917848 79 68 72
-0.20855515 0.05159267 0.86026883 78 66 70
-0.20680580 0.05152728 0.85917848 80 67 70
-0.20532078 0.05152728 0.85917848 79 66 69
-0.20209460 0.05146206 0.85809094 77 64 66
-0.20035784 0.05139700 0.85700613 80 67 69
0.07641345 0.04933862 0.82268429 61 52 55
0.07755304 0.04915964 0.81969994 64 54 57
0.07935364 0.04939857 0.82368392 66 53 55
0.08058149 0.04927882 0.82168710 71 52 56
0.08210123 0.04933862 0.82268429 73 53 57
0.08362465 0.04939857 0.82368392 74 53 58
0.08504833 0.04939857 0.82368392 72 54 56
0.08647200 0.04939857 0.82368392 71 53 56
0.25515464 0.05037798 0.84001470 145 137 132
0.25565612 0.05019139 0.83690351 145 137 133
-0.21247658 0.05294520 0.85809094 80 68 68
-0.20951030 0.05294520 0.85809094 80 68 70
-0.20802715 0.05294520 0.85809094 76 63 66
-0.20654401 0.05294520 0.85809094 75 64 66
-0.20506088 0.05294520 0.85809094 75 64 66
-0.20183910 0.05287826 0.85700613 76 65 67
-0.19985253 0.05274490 0.85484469 79 68 70
0.06921973 0.05069904 0.82168710 63 51 54
0.07046912 0.05057643 0.81969994 64 53 57
0.07171247 0.05045441 0.81772238 64 54 57
0.07330269 0.05057643 0.81969994 63 53 56
0.07480993 0.05063766 0.82069230 63 54 56
0.07641345 0.05076057 0.82268429 65 53 56
0.07764693 0.05063766 0.82069230 67 52 55
0.07925734 0.05076057 0.82268429 68 51 55
0.08058149 0.05069904 0.82168710 70 52 56
0.08210123 0.05076057 0.82268429 71 53 57
0.08362465 0.05082224 0.82368392 72 54 58
0.08504833 0.05082224 0.82368392 71 53 57
0.08647200 0.05082224 0.82368392 71 53 57
0.24396102 0.05254611 0.85162294 86 78 83
0.24543299 0.05254611 0.85162294 84 75 80
0.24659514 0.05248018 0.85055441 78 76 77
0.25027743 0.05202327 0.84314907 137 133 130
0.25111011 0.05189418 0.84105688 144 137 134
0.25401750 0.05189418 0.84105688 143 137 134
0.25515464 0.05182987 0.84001470 143 137 134
0.25565612 0.05163791 0.83690351 144 136 136
-0.21247658 0.05442834 0.85809094 81 68 68
-0.20628290 0.05435953 0.85700613 74 63 64
-0.20480163 0.05435953 0.85700613 74 63 64
-0.20158426 0.05429089 0.85592407 76 65 67
-0.19960082 0.05415414 0.85376805 79 68 70
0.06913593 0.05205616 0.82069230 61 52 53
0.07038401 0.05193042 0.81870997 64 54 56
0.07171247 0.05186778 0.81772238 65 54 56
0.07330269 0.05199321 0.81969994 67 56 56
0.07471947 0.05199321 0.81969994 68 57 59
0.07632083 0.05211926 0.82168710 67 55 57
0.07755304 0.05199321 0.81969994 66 53 55
0.07925734 0.05218251 0.82268429 66 52 55
0.08058149 0.05211926 0.82168710 68 54 57
0.08210123 0.05218251 0.82268429 69 54 57
0.08362465 0.05224591 0.82368392 70 54 57
0.08494511 0.05218251 0.82268429 71 53 57
0.08647200 0.05224591 0.82368392 71 53 57
0.23542501 0.05408602 0.85269415 99 83 86
0.23600823 0.05388269 0.84948850 94 78 81
0.23717928 0.05381525 0.84842533 85 75 79
0.24248905 0.05401808 0.85162294 85 80 84
0.24396102 0.05401808 0.85162294 85 79 83
0.24512504 0.05395030 0.85055441 83 77 81
0.24628614 0.05388269 0.84948850 79 73 75
0.24775441 0.05388269 0.84948850 94 88 90
0.24859962 0.05374799 0.84736478 108 102 104
0.24820270 0.05334787 0.84105688 119 116 115
0.24934703 0.05328177 0.84001470 138 134 133
0.25079894 0.05328177 0.84001470 144 135 134
0.25370273 0.05328177 0.84001470 145 136 135
0.25483885 0.05321583 0.83897507 145 136 135
0.25565612 0.05308443 0.83690351 144 135 134
-0.21247658 0.05591148 0.85809094 78 66 67
-0.20654401 0.05591148 0.85809094 74 64 65
-0.20506088 0.05591148 0.85809094 73 64 65
-0.20306365 0.05577029 0.85592407 73 62 64
-0.19960082 0.05562981 0.85376805 75 64 66
0.06913593 0.05347466 0.82069230 63 52 54
0.07029911 0.05328114 0.81772238 65 54 56
0.07153988 0.05315291 0.81575429 66 54 56
0.07321416 0.05334549 0.81870997 67 56 58
0.07462923 0.05334549 0.81870997 68 56 58
0.07632083 0.05353948 0.82168710 68 56 58
0.07755304 0.05341000 0.81969994 67 54 56
0.07916127 0.05353948 0.82168710 67 53 58
0.08048394 0.05347466 0.82069230 69 53 58
0.08200171 0.05353948 0.82168710 69 53 58
0.08352317 0.05360445 0.82268429 69 53 56
0.08484215 0.05353948 0.82168710 69 53 56
0.08636706 0.05360445 0.82268429 70 54 57
0.23512925 0.05549004 0.85162294 100 86 90
0.23600823 0.05535096 0.84948850 94 81 85
0.23717928 0.05528169 0.84842533 84 77 79
0.23924458 0.05542041 0.85055441 81 75 77
0.24101710 0.05549004 0.85162294 82 76 79
0.24218480 0.05542041 0.85055441 85 79 83
0.24365492 0.05542041 0.85055441 84 78 82
0.24481787 0.05535096 0.84948850 82 76 80
0.24567042 0.05521259 0.84736478 81 72 77
0.24744433 0.05528169 0.84842533 89 81 86
0.24828926 0.05514366 0.84630692 107 100 105
0.24820270 0.05480158 0.84105688 122 116 119
0.24934703 0.05473367 0.84001470 133 126 128
0.25048855 0.05466593 0.83897507 143 134 133
0.25162721 0.05459835 0.83793801 145 136 135
0.25370273 0.05473367 0.84001470 145 136 135
0.25483885 0.05466593 0.83897507 145 136 135
0.25565612 0.05453095 0.83690351 144 135 134
0.25292853 0.05334549 0.81870997 144 136 133
0.25011462 0.05245851 0.80509722 144 136 133
0.24855421 0.05184280 0.79564768 144 135 134
0.24905248 0.05166090 0.79285598 144 135 134
-0.21274588 0.05746736 0.85917848 77 64 66
-0.20802715 0.05739462 0.85809094 74 63 67
-0.20654401 0.05739462 0.85809094 74 63 66
-0.20532078 0.05746736 0.85917848 74 63 66
-0.20332037 0.05732206 0.85700613 74 63 66
-0.20158426 0.05724968 0.85592407 73 62 65
-0.19985253 0.05717749 0.85484469 73 62 65
-0.05912114 0.06677724 0.99836797 50 41 44
-0.05739554 0.06677724 0.99836797 51 41 42
-0.05575205 0.06687574 0.99984050 54 41 43
-0.05394435 0.06677724 0.99836797 53 41 42
-0.05206539 0.06658113 0.99543589 53 42 42
0.06905233 0.05482678 0.81969994 62 50 52
0.07021441 0.05462861 0.81673717 63 52 53
0.07136812 0.05443187 0.81379575 65 55 56
0.07312584 0.05469451 0.81772238 66 56 58
0.07453921 0.05469451 0.81772238 68 57 59
0.07622843 0.05489316 0.82069230 68 56 58
0.07745938 0.05476057 0.81870997 67 54 56
0.07906543 0.05489316 0.82069230 69 53 56
0.08048394 0.05489316 0.82069230 70 54 57
0.08190243 0.05489316 0.82069230 69 53 56
0.08342193 0.05495970 0.82168710 68 53 56
0.08484215 0.05495970 0.82168710 67 53 56
0.08626237 0.05495970 0.82168710 67 54 56
0.23365729 0.05696200 0.85162294 102 92 95
0.23483424 0.05689053 0.85055441 101 91 95
0.23571286 0.05674812 0.84842533 88 79 82
0.23688281 0.05667719 0.84736478 86 77 80
0.23894477 0.05681923 0.84948850 85 76 79
0.24071470 0.05689053 0.85055441 84 75 78
0.24188131 0.05681923 0.84948850 83 76 80
0.24334960 0.05681923 0.84948850 83 76 81
0.24481787 0.05681923 0.84948850 82 73 80
0.24536371 0.05660643 0.84630692 81 72 78
0.24713501 0.05667719 0.84736478 89 79 84
0.24828926 0.05660643 0.84630692 104 94 100
0.24789514 0.05618557 0.84001470 120 109 114
0.24903844 0.05611603 0.83897507 129 119 123
0.25048855 0.05611603 0.83897507 142 133 131
0.25131658 0.05597747 0.83690351 145 137 134
0.25338873 0.05611603 0.83897507 145 137 134
0.25483885 0.05611603 0.83897507 145 137 134
0.25565612 0.05597747 0.83690351 145 137 133
0.25323439 0.05482678 0.81969994 145 135 132
0.25041202 0.05391409 0.80605453 145 135 132
0.24884629 0.05328055 0.79658264 146 136 133
0.24905248 0.05303129 0.79285598 145 135 134
-0.21274588 0.05895238 0.85917848 82 66 68
-0.21099344 0.05887776 0.85809094 78 64 67
-0.20951030 0.05887776 0.85809094 77 65 68
-0.20802715 0.05887776 0.85809094 77 66 70
-0.20654401 0.05887776 0.85809094 76 66 69
-0.20506088 0.05887776 0.85809094 73 63 67
-0.20332037 0.05880333 0.85700613 73 62 66
-0.20158426 0.05872908 0.85592407 73 62 66
-0.19985253 0.05865502 0.85484469 73 62 66
-0.06248032 0.06840210 0.99689978 49 43 45
-0.06075726 0.06840210 0.99689978 50 42 44
-0.05903420 0.06840210 0.99689978 49 40 43
-0.05739554 0.06850284 0.99836797 49 40 43
-0.05566994 0.06850284 0.99836797 51 42 44
-0.05386502 0.06840210 0.99689978 51 42 44
-0.05206539 0.06830166 0.99543589 52 43 44
-0.05027105 0.06820151 0.99397629 53 42 44
0.06905233 0.05624357 0.81969994 61 52 53
0.07021441 0.05604028 0.81673717 61 52 53
0.07136812 0.05583845 0.81379575 63 54 55
0.07303774 0.05604028 0.81673717 64 55 56
0.07462923 0.05617564 0.81870997 66 57 58
0.07622843 0.05631166 0.82069230 67 56 58
0.07755304 0.05624357 0.81969994 65 54 56
0.07916127 0.05637992 0.82168710 67 54 56
0.08048394 0.05631166 0.82069230 68 54 57
0.08200171 0.05637992 0.82168710 69 55 58
0.08342193 0.05637992 0.82168710 68 55 57
0.08484215 0.05637992 0.82168710 65 54 56
0.08636706 0.05644834 0.82268429 65 54 56
0.08800260 0.05658568 0.82468593 65 54 56
0.08953693 0.05665461 0.82569045 64 55 56
0.23218533 0.05843396 0.85162294 103 87 90
0.23336412 0.05836064 0.85055441 111 101 104
0.23453996 0.05828751 0.84948850 102 92 95
0.23541822 0.05814179 0.84736478 91 81 85
0.23688281 0.05814179 0.84736478 87 78 81
0.23894477 0.05828751 0.84948850 85 76 79
0.24041304 0.05828751 0.84948850 83 74 77
0.24188131 0.05828751 0.84948850 82 73 78
0.24334960 0.05828751 0.84948850 82 73 78
0.24451146 0.05821456 0.84842533 80 71 77
0.24505778 0.05799680 0.84525168 80 70 76
0.24682648 0.05806920 0.84630692 89 78 84
0.24797967 0.05799680 0.84525168 108 95 99
0.24789514 0.05763746 0.84001470 126 113 116
0.24903844 0.05756613 0.83897507 136 123 125
0.25048855 0.05756613 0.83897507 142 132 129
0.25131658 0.05742399 0.83690351 145 135 132
0.25338873 0.05756613 0.83897507 145 135 132
0.25452384 0.05749497 0.83793801 146 136 133
0.25534090 0.05735318 0.83587158 146 136 133
0.25041202 0.05530729 0.80605453 146 136 133
0.24913904 0.05472168 0.79751980 146 136 133
0.24905248 0.05440167 0.79285598 145 135 132
-0.21274588 0.06043740 0.85917848 83 66 66
-0.21099344 0.06036090 0.85809094 83 67 67
-0.20924543 0.06028459 0.85700613 82 66 68
-0.20802715 0.06036090 0.85809094 77 65 67
-0.20654401 0.06036090 0.85809094 81 68 70
-0.20480163 0.06028459 0.85700613 77 64 66
-0.20306365 0.06020848 0.85592407 74 62 66
-0.20158426 0.06020848 0.85592407 74 62 66
-0.19960082 0.06005682 0.85376805 75 62 66
-0.06238857 0.07002219 0.99543589 52 43 44
-0.06066804 0.07002219 0.99543589 51 42 43
-0.05903420 0.07012516 0.99689978 49 40 42
-0.05731114 0.07012516 0.99689978 49 40 41
-0.05566994 0.07022844 0.99836797 50 41 42
-0.05386502 0.07012516 0.99689978 51 42 43
-0.05198905 0.06991952 0.99397629 53 42 44
-0.05019744 0.06981715 0.99252099 55 42 44
0.07038401 0.05759072 0.81870997 65 52 54
0.07171247 0.05752125 0.81772238 64 52 54
0.07339143 0.05773016 0.82069230 66 53 55
0.07480993 0.05773016 0.82069230 67 55 57
0.07650630 0.05794060 0.82368392 68 55 57
0.07764693 0.05773016 0.82069230 68 55 57
0.07925734 0.05787028 0.82268429 68 55 57
0.08067928 0.05787028 0.82268429 68 55 58
0.08210123 0.05787028 0.82268429 68 55 59
0.08352317 0.05787028 0.82268429 68 55 57
0.08494511 0.05787028 0.82268429 66 54 56
0.08647200 0.05794060 0.82368392 65 54 56
0.08821724 0.05815258 0.82669735 65 54 56
0.08964612 0.05815258 0.82669735 64 55 56
0.23218533 0.05990592 0.85162294 106 90 93
0.23336412 0.05983075 0.85055441 112 100 103
0.23424642 0.05968099 0.84842533 101 90 92
0.23541822 0.05960639 0.84736478 94 85 87
0.23688281 0.05960639 0.84736478 86 77 80
0.23864572 0.05968099 0.84842533 83 74 77
0.24041304 0.05975578 0.84948850 82 73 76
0.24188131 0.05975578 0.84948850 82 73 76
0.24304502 0.05968099 0.84842533 80 71 74
0.24420582 0.05960639 0.84736478 79 70 75
0.24475260 0.05938370 0.84419906 73 64 69
0.24621172 0.05938370 0.84419906 85 76 81
0.24767086 0.05938370 0.84419906 105 94 98
0.24789514 0.05908936 0.84001470 119 107 110
0.24873060 0.05894328 0.83793801 136 123 125
0.25017890 0.05894328 0.83793801 145 135 125
0.25131658 0.05887051 0.83690351 145 135 126
0.25307554 0.05894328 0.83793801 145 135 127
0.25420961 0.05887051 0.83690351 146 136 133
0.25502643 0.05872551 0.83484215 146 135 134
0.25071013 0.05676799 0.80701411 146 135 134
0.24943249 0.05616621 0.79845917 146 136 133
0.24905248 0.05577206 0.79285598 146 136 133
-0.21274588 0.06192242 0.85917848 82 67 65
-0.21072669 0.06176586 0.85700613 82 68 67
-0.20924543 0.06176586 0.85700613 80 67 67
-0.20776416 0.06176586 0.85700613 81 68 69
-0.20306365 0.06168787 0.85592407 76 64 66
-0.20158426 0.06168787 0.85592407 76 64 66
-0.19960082 0.06153249 0.85376805 77 64 66
-0.19812515 0.06153249 0.85376805 75 64 66
-0.06238857 0.07174272 0.99543589 53 42 46
-0.06066804 0.07174272 0.99543589 52 41 45
-0.05894751 0.07174272 0.99543589 52 39 43
-0.05722698 0.07174272 0.99543589 52 39 42
-0.05558808 0.07184823 0.99689978 54 41 43
-0.05378592 0.07174272 0.99543589 54 41 44
-0.05191293 0.07153264 0.99252099 55 42 44
-0.05012405 0.07142806 0.99106997 54 41 43
0.07046912 0.05907714 0.81969994 68 52 55
0.07659937 0.05943649 0.82468593 70 54 56
0.07774105 0.05922036 0.82168710 69 55 55
0.07935364 0.05936427 0.82368392 69 55 57
0.08067928 0.05929223 0.82268429 69 56 58
0.08220098 0.05936427 0.82368392 68 56 58
0.08352317 0.05929223 0.82268429 67 55 57
0.08494511 0.05929223 0.82268429 67 55 57
0.08647200 0.05936427 0.82368392 67 54 56
0.08821724 0.05958145 0.82669735 67 54 56
0.08964612 0.05958145 0.82669735 67 54 56
0.23189400 0.06130087 0.85055441 103 91 95
0.23307168 0.06122405 0.84948850 109 99 101
0.23424642 0.06114743 0.84842533 101 92 93
0.23512430 0.06099475 0.84630692 95 89 89
0.23658708 0.06099475 0.84630692 86 78 78
0.23834741 0.06107099 0.84736478 81 72 73
0.23981202 0.06107099 0.84736478 72 66 67
0.24157859 0.06114743 0.84842533 79 73 75
0.24274121 0.06107099 0.84736478 78 71 73
0.24390094 0.06099475 0.84630692 77 69 73
0.24444818 0.06076716 0.84314907 75 67 71
0.24590549 0.06076716 0.84314907 85 76 80
0.24767086 0.06084283 0.84419906 103 90 94
0.24758834 0.06046633 0.83897507 124 111 113
0.24842353 0.06031703 0.83690351 137 124 123
0.24987005 0.06031703 0.83690351 142 132 126
0.25100669 0.06024266 0.83587158 145 135 129
0.25245142 0.06024266 0.83587158 145 135 129
0.25389615 0.06024266 0.83587158 146 136 132
0.25471276 0.06009446 0.83381528 146 136 133
0.25805843 0.06054126 0.84001470 146 136 133
0.25100896 0.05823217 0.80797595 146 136 133
0.24972664 0.05761414 0.79940075 146 136 133
0.24905248 0.05714245 0.79285598 146 136 133
-0.21274588 0.06340744 0.85917848 80 66 68
-0.21046063 0.06316727 0.85592407 80 67 68
-0.20871770 0.06308761 0.85484469 80 67 69
-0.20750184 0.06316727 0.85592407 81 68 70
-0.20280758 0.06308761 0.85484469 78 67 69
-0.20158426 0.06316727 0.85592407 78 67 69
-0.19960082 0.06300815 0.85376805 78 67 69
-0.19812515 0.06300815 0.85376805 78 67 69
-0.06229709 0.07335553 0.99397629 57 46 49
-0.06057909 0.07335553 0.99397629 53 42 45
-0.05894751 0.07346325 0.99543589 51 40 43
-0.05722698 0.07346325 0.99543589 53 40 43
-0.05558808 0.07357129 0.99689978 54 41 43
-0.05378592 0.07346325 0.99543589 54 41 43
-0.05191293 0.07324813 0.99252099 54 41 43
-0.05005088 0.07303427 0.98962313 54 41 41
0.07046912 0.06049392 0.81969994 68 52 55
0.07659937 0.06086189 0.82468593 69 53 56
0.07774105 0.06064058 0.82168710 70 54 56
0.07925734 0.06071417 0.82268429 71 55 58
0.08067928 0.06071417 0.82268429 71 56 58
0.08210123 0.06071417 0.82268429 69 56 58
0.08352317 0.06071417 0.82268429 69 56 58
0.08484215 0.06064058 0.82168710 68 55 57
0.08626237 0.06064058 0.82168710 68 55 57
0.22813396 0.06214717 0.84210169 100 85 90
0.23160341 0.06269232 0.84948850 105 95 100
0.23277998 0.06261386 0.84842533 104 98 101
0.23366153 0.06245752 0.84630692 98 95 96
0.23453869 0.06230196 0.84419906 92 91 89
0.23599781 0.06230196 0.84419906 85 81 80
0.23745695 0.06230196 0.84419906 79 73 73
0.23921397 0.06237964 0.84525168 74 65 66
0.24067493 0.06237964 0.84525168 81 72 74
0.24213588 0.06237964 0.84525168 78 69 72
0.24299087 0.06222447 0.84314907 77 68 71
0.24414451 0.06214717 0.84210169 72 63 66
0.24560001 0.06214717 0.84210169 85 76 79
0.24705553 0.06214717 0.84210169 106 93 93
0.24728230 0.06183989 0.83793801 121 109 108
0.24811721 0.06168739 0.83587158 137 127 122
0.24956195 0.06168739 0.83587158 141 131 126
0.25038919 0.06153564 0.83381528 144 134 129
0.25183040 0.06153564 0.83381528 144 134 129
0.25358349 0.06161142 0.83484215 147 139 133
0.25439984 0.06146004 0.83279097 145 137 131
0.25805843 0.06199315 0.84001470 145 137 131
0.25384828 0.06064058 0.82168710 145 137 131
0.25100896 0.05962870 0.80797595 146 136 131
0.24943249 0.05892636 0.79845917 146 136 132
0.24876153 0.05844448 0.79192972 146 136 132
0.49585438 0.03775734 0.51161647 113 138 153
-0.21274588 0.06489246 0.85917848 78 67 67
-0.21046063 0.06464666 0.85592407 79 67 67
-0.20871770 0.06456514 0.85484469 80 67 67
-0.20776416 0.06472839 0.85700613 79 68 69
-0.20306365 0.06464666 0.85592407 75 64 65
-0.20158426 0.06464666 0.85592407 78 67 68
-0.19985253 0.06456514 0.85484469 78 67 70
-0.19837499 0.06456514 0.85484469 79 68 70
-0.19689746 0.06456514 0.85484469 80 69 71
-0.19492832 0.06440271 0.85269415 81 69 71
-0.06229709 0.07507354 0.99397629 55 44 46
-0.06049039 0.07496362 0.99252099 53 42 44
-0.05886108 0.07507354 0.99397629 53 40 42
-0.05714307 0.07507354 0.99397629 53 40 42
-0.05550645 0.07518378 0.99543589 53 40 42
-0.05370706 0.07507354 0.99397629 54 41 43
-0.05183704 0.07485403 0.99106997 54 41 43
-0.05005088 0.07474475 0.98962313 54 41 42
0.07508263 0.06221161 0.82368392 67 54 58
0.07669267 0.06236316 0.82569045 67 54 58
0.07802477 0.06228729 0.82468593 69 55 59
0.07935364 0.06221161 0.82368392 69 56 58
0.08058149 0.06206080 0.82168710 69 56 58
0.08210123 0.06213611 0.82268429 69 56 58
0.08342193 0.06206080 0.82168710 69 56 58
0.23102440 0.06400020 0.84736478 101 92 97
0.23219876 0.06392030 0.84630692 100 95 98
0.23307955 0.06376109 0.84419906 95 94 94
0.23395598 0.06360268 0.84210169 92 92 90
0.23541149 0.06360268 0.84210169 85 84 82
0.23686700 0.06360268 0.84210169 82 80 79
0.23861893 0.06368179 0.84314907 80 74 78
0.24007623 0.06368179 0.84314907 78 73 77
0.24153355 0.06368179 0.84314907 75 69 73
0.24268901 0.06360268 0.84210169 74 68 72
0.24353945 0.06344505 0.84001470 65 58 62
0.24529530 0.06352377 0.84105688 81 71 75
0.24674900 0.06352377 0.84105688 103 93 92
0.24728230 0.06328820 0.83793801 120 111 108
0.24811721 0.06313213 0.83587158 139 130 124
0.24925460 0.06305438 0.83484215 141 133 127
0.25008160 0.06289946 0.83279097 143 134 128
0.25121239 0.06282227 0.83176911 144 135 129
0.25296041 0.06289946 0.83279097 147 137 132
0.25408769 0.06282227 0.83176911 146 137 131
0.25773904 0.06336653 0.83897507 146 136 131
0.25384828 0.06206080 0.82168710 146 136 131
0.25071013 0.06095257 0.80701411 146 136 131
0.24913904 0.06023548 0.79751980 146 136 131
0.24847126 0.05974347 0.79100567 146 136 131
0.29208997 0.03587958 0.47504684 148 140 136
0.49548042 0.03861248 0.51123065 100 125 135
-0.21274588 0.06637748 0.85917848 78 68 65
-0.21072669 0.06620965 0.85700613 79 68 66
-0.20898123 0.06612606 0.85592407 79 68 65
-0.20776416 0.06620965 0.85700613 80 69 67
-0.20628290 0.06620965 0.85700613 80 68 67
-0.20480163 0.06620965 0.85700613 77 66 66
-0.20332037 0.06620965 0.85700613 77 66 66
-0.20183910 0.06620965 0.85700613 78 67 67
-0.20010486 0.06612606 0.85592407 77 66 68
-0.19862546 0.06612606 0.85592407 74 65 68
-0.19714607 0.06612606 0.85592407 78 68 71
-0.19517381 0.06595949 0.85376805 79 68 72
-0.06220588 0.07667912 0.99252099 56 43 45
-0.06049039 0.07667912 0.99252099 55 42 44
-0.05714307 0.07679155 0.99397629 54 41 44
-0.05550645 0.07690431 0.99543589 54 40 43
-0.05370706 0.07679155 0.99397629 55 39 42
-0.05183704 0.07656702 0.99106997 55 40 42
-0.04997792 0.07634378 0.98818052 54 41 43
0.07831058 0.06394608 0.82770675 69 55 57
0.07945018 0.06371269 0.82468593 70 56 58
0.22728693 0.06481663 0.83897507 96 83 85
0.23073599 0.06538307 0.84630692 102 91 95
0.23162043 0.06522022 0.84419906 101 90 93
0.23250048 0.06505818 0.84210169 99 90 91
0.23366572 0.06497747 0.84105688 92 86 88
0.23482807 0.06489695 0.84001470 87 82 84
0.23657311 0.06497747 0.84105688 78 78 78
0.23802681 0.06497747 0.84105688 77 76 77
0.23948051 0.06497747 0.84105688 75 74 75
0.24093421 0.06497747 0.84105688 71 69 71
0.24208756 0.06489695 0.84001470 69 62 69
0.24323803 0.06481663 0.83897507 67 58 66
0.24499135 0.06489695 0.84001470 83 70 78
0.24644324 0.06489695 0.84001470 105 93 91
0.24697702 0.06465659 0.83690351 124 113 108
0.24781165 0.06449734 0.83484215 136 124 119
0.24894802 0.06441800 0.83381528 144 132 127
0.24946865 0.06418117 0.83074981 145 133 128
0.25090453 0.06418117 0.83074981 146 134 129
0.25265005 0.06425992 0.83176911 146 135 130
0.25377631 0.06418117 0.83074981 146 136 131
0.25773904 0.06481663 0.83897507 146 136 131
0.25384828 0.06348102 0.82168710 146 136 131
0.25071013 0.06234742 0.80701411 145 135 131
0.24913904 0.06161392 0.79751980 146 136 131
0.24818167 0.06103944 0.79008371 146 136 132
0.29229480 0.03672639 0.47537997 148 140 134
0.49571833 0.03958566 0.51238990 126 154 165
0.49473423 0.03943662 0.51046073 136 161 171
0.49375749 0.03928870 0.50854599 137 162 172
-0.21046063 0.06760545 0.85592407 80 68 68
-0.20898123 0.06760545 0.85592407 80 69 68
-0.20332037 0.06769092 0.85700613 78 68 67
-0.20183910 0.06769092 0.85700613 77 68 68
-0.20010486 0.06760545 0.85592407 76 66 70
-0.19739531 0.06769092 0.85700613 74 64 68
-0.19517381 0.06743516 0.85376805 81 66 73
-0.06392138 0.07839461 0.99252099 53 40 44
-0.06229709 0.07850955 0.99397629 55 42 46
-0.06049039 0.07839461 0.99252099 54 41 45
-0.05714307 0.07850955 0.99397629 53 40 44
-0.05550645 0.07862484 0.99543589 53 40 44
-0.05370706 0.07850955 0.99397629 53 40 44
-0.05183704 0.07827999 0.99106997 53 40 42
-0.05005088 0.07816572 0.98962313 54 41 43
0.07964396 0.06529697 0.82669735 71 56 59
0.23044829 0.06676249 0.84525168 100 88 86
0.23162043 0.06667935 0.84419906 99 87 85
0.23221202 0.06643116 0.84105688 100 88 88
0.23337616 0.06634884 0.84001470 91 82 85
0.23453744 0.06626673 0.83897507 84 76 78
0.23627996 0.06634884 0.84001470 79 76 76
0.23773186 0.06634884 0.84001470 77 75 75
0.23918375 0.06634884 0.84001470 75 74 74
0.24063565 0.06634884 0.84001470 70 69 71
0.24208756 0.06634884 0.84001470 67 63 67
0.24323803 0.06626673 0.83897507 66 61 64
0.24468814 0.06626673 0.83897507 85 72 78
0.24644324 0.06634884 0.84001470 104 92 91
0.24697702 0.06610311 0.83690351 123 111 106
0.24750684 0.06585918 0.83381528 136 124 119
0.24894802 0.06585918 0.83381528 144 132 127
0.24916330 0.06553674 0.82973295 145 133 128
0.25059745 0.06553674 0.82973295 145 135 130
0.25265005 0.06569757 0.83176911 146 136 131
0.25377631 0.06561705 0.83074981 145 135 131
0.25384828 0.06490123 0.82168710 145 135 133
0.25071013 0.06374228 0.80701411 145 135 132
0.24913904 0.06299237 0.79751980 145 136 134
0.24818167 0.06240503 0.79008371 145 136 134
0.29208761 0.03762721 0.47638217 146 138 132
0.29249990 0.03757440 0.47571358 146 138 132
0.29229653 0.03744302 0.47405025 147 139 133
0.29270652 0.03739072 0.47338817 148 140 136
0.49571833 0.04047129 0.51238990 130 158 170
0.49473423 0.04031891 0.51046073 132 157 169
0.49338734 0.04013757 0.50816482 138 163 175
-0.21247658 0.06925975 0.85809094 80 67 67
-0.21046063 0.06908485 0.85592407 80 67 67
-0.20924543 0.06917219 0.85700613 81 68 68
-0.20802715 0.06925975 0.85809094 82 69 69
-0.20628290 0.06917219 0.85700613 81 68 68
-0.20357774 0.06925975 0.85809094 81 68 70
-0.20209460 0.06925975 0.85809094 80 68 70
-0.20035784 0.06917219 0.85700613 79 66 69
-0.19887657 0.06917219 0.85700613 76 63 67
-0.19739531 0.06917219 0.85700613 77 64 68
-0.19541994 0.06899773 0.85484469 80 67 71
-0.06229709 0.08022756 0.99397629 54 41 45
-0.06049039 0.08011010 0.99252099 54 41 45
-0.05714307 0.08022756 0.99397629 53 40 43
-0.05550645 0.08034537 0.99543589 53 40 43
-0.05370706 0.08022756 0.99397629 53 40 43
-0.05183704 0.07999298 0.99106997 54 41 43
-0.04997792 0.07975977 0.98818052 54 41 43
0.23016129 0.06813848 0.84419906 93 78 80
0.23162043 0.06813848 0.84419906 93 78 80
0.23221202 0.06788486 0.84105688 92 79 81
0.23337616 0.06780075 0.84001470 86 77 81
0.23424752 0.06763313 0.83793801 82 73 78
0.23598753 0.06771683 0.83897507 79 74 78
0.23773186 0.06780075 0.84001470 77 73 76
0.23918375 0.06780075 0.84001470 74 70 73
0.24063565 0.06780075 0.84001470 68 66 70
0.24208756 0.06780075 0.84001470 66 64 68
0.24323803 0.06771683 0.83897507 62 60 64
0.24468814 0.06771683 0.83897507 80 71 76
0.24644324 0.06780075 0.84001470 97 88 89
0.24697702 0.06754963 0.83690351 120 111 108
0.24781165 0.06738325 0.83484215 138 127 123
0.24925460 0.06738325 0.83484215 143 132 128
0.24977475 0.06713521 0.83176911 145 134 129
0.25121239 0.06713521 0.83176911 146 136 131
0.25296041 0.06721769 0.83279097 146 136 131
0.25439984 0.06721769 0.83279097 146 136 131
0.25446516 0.06648263 0.82368392 145 137 133
0.25071013 0.06513714 0.80701411 144 136 132
0.24913904 0.06437083 0.79751980 145 136 134
0.24847126 0.06384504 0.79100567 145 136 135
0.29188251 0.03842359 0.47604764 146 138 132
0.29249990 0.03839663 0.47571358 145 137 131
0.29250109 0.03828915 0.47438198 146 138 132
0.29291105 0.03823564 0.47371897 148 140 134
0.49595734 0.04145091 0.51355445 81 117 130
0.49646884 0.04141953 0.51316565 75 110 124
0.49548042 0.04126335 0.51123065 70 101 115
0.49524358 0.04117020 0.51007664 78 109 123
0.49724767 0.04126335 0.51123065 89 118 133
0.49850723 0.04129449 0.51161647 99 124 142
-0.21220796 0.07065345 0.85700613 78 68 67
-0.21019523 0.07047526 0.85484469 78 67 66
-0.20898123 0.07056424 0.85592407 80 68 67
-0.20332037 0.07065345 0.85700613 82 69 69
-0.20209460 0.07074289 0.85809094 81 68 68
-0.20035784 0.07065345 0.85700613 81 68 69
-0.19887657 0.07065345 0.85700613 79 66 67
-0.19739531 0.07065345 0.85700613 78 65 66
-0.19566667 0.07056424 0.85592407 76 64 66
-0.06229709 0.08194558 0.99397629 55 41 45
-0.06057909 0.08194558 0.99397629 53 40 44
-0.05722698 0.08206590 0.99543589 53 40 42
-0.05550645 0.08206590 0.99543589 54 41 43
-0.05370706 0.08194558 0.99397629 54 41 43
-0.05183704 0.08170597 0.99106997 54 41 43
0.23044829 0.06968439 0.84525168 87 76 80
0.23162043 0.06959761 0.84419906 85 74 78
0.23221202 0.06933856 0.84105688 85 74 78
0.23337616 0.06925264 0.84001470 83 74 79
0.23424752 0.06908143 0.83793801 80 73 78
0.23627996 0.06925264 0.84001470 76 73 76
0.23802681 0.06933856 0.84105688 72 71 74
0.23918375 0.06925264 0.84001470 68 67 71
0.24063565 0.06925264 0.84001470 68 66 70
0.24208756 0.06925264 0.84001470 68 63 69
0.24323803 0.06916693 0.83897507 58 52 60
0.24499135 0.06925264 0.84001470 81 75 78
0.24644324 0.06925264 0.84001470 102 96 97
0.24728230 0.06908143 0.83793801 121 117 114
0.24811721 0.06891108 0.83587158 135 127 123
0.24956195 0.06891108 0.83587158 142 134 130
0.25008160 0.06865710 0.83279097 146 136 133
0.25183040 0.06874155 0.83381528 146 136 133
0.25358349 0.06882621 0.83484215 146 136 133
0.25471276 0.06874155 0.83381528 145 137 133
0.25869957 0.06942470 0.84210169 145 137 133
0.25602058 0.06832137 0.82871866 145 137 133
0.25130847 0.06669079 0.80894017 145 137 133
0.24913904 0.06574927 0.79751980 145 136 134
0.24818167 0.06513622 0.79008371 145 136 135
0.24838927 0.06483397 0.78641742 146 135 134
0.29146907 0.03930160 0.47671717 147 139 133
0.29208761 0.03927398 0.47638217 145 137 131
0.29270533 0.03924641 0.47604764 145 137 131
0.29270592 0.03913647 0.47471419 145 137 131
0.29311588 0.03908173 0.47405025 146 138 132
0.49315399 0.04240279 0.51433372 96 120 133
0.49366841 0.04237064 0.51394379 91 116 128
0.49418205 0.04233855 0.51355445 97 124 136
0.49506968 0.04233855 0.51355445 95 132 143
0.49595734 0.04233855 0.51355445 100 140 151
0.49684498 0.04233855 0.51355445 107 145 156
0.49622887 0.04221063 0.51200289 118 147 158
0.49786592 0.04227449 0.51277751 125 152 163
0.49912974 0.04230649 0.51316565 131 157 169
0.50001669 0.04230649 0.51316565 131 156 173
0.50090367 0.04230649 0.51316565 129 153 171
0.50293279 0.04240279 0.51433372 125 149 168
-0.21019523 0.07195279 0.85484469 79 70 68
-0.20898123 0.07204363 0.85592407 80 71 70
-0.20750184 0.07204363 0.85592407 81 71 69
-0.20332037 0.07213472 0.85700613 83 70 70
-0.20183910 0.07213472 0.85700613 82 69 69
-0.20035784 0.07213472 0.85700613 80 67 67
-0.19887657 0.07213472 0.85700613 79 66 66
-0.19739531 0.07213472 0.85700613 80 67 67
-0.19566667 0.07204363 0.85592407 79 66 66
-0.06410910 0.08378644 0.99543589 51 39 43
-0.06238857 0.08378644 0.99543589 52 41 45
-0.06057909 0.08366358 0.99397629 51 40 44
-0.05894751 0.08378644 0.99543589 51 40 43
-0.05722698 0.08378644 0.99543589 51 40 42
-0.05550645 0.08378644 0.99543589 52 41 43
-0.05370706 0.08366358 0.99397629 52 41 43
-0.05183704 0.08341895 0.99106997 53 41 42
0.23162043 0.07105674 0.84419906 85 74 78
0.23221202 0.07079226 0.84105688 86 75 79
0.23337616 0.07070453 0.84001470 82 75 79
0.23453744 0.07061704 0.83897507 77 72 76
0.23657311 0.07079226 0.84105688 75 71 74
0.23802681 0.07079226 0.84105688 71 69 72
0.23948051 0.07079226 0.84105688 68 67 71
0.24093421 0.07079226 0.84105688 69 65 70
0.24208756 0.07070453 0.84001470 68 63 69
0.24353945 0.07070453 0.84001470 61 54 63
0.24499135 0.07070453 0.84001470 78 72 74
0.24644324 0.07070453 0.84001470 101 95 96
0.24728230 0.07052974 0.83793801 116 111 109
0.24842353 0.07044267 0.83690351 129 121 118
0.24956195 0.07035581 0.83587158 143 134 131
0.25038919 0.07018273 0.83381528 145 135 132
0.25245142 0.07035581 0.83587158 146 136 133
0.25389615 0.07035581 0.83587158 146 136 133
0.25502643 0.07026917 0.83484215 146 137 134
0.25902131 0.07096836 0.84314907 146 138 134
0.25190970 0.06825187 0.81087542 145 136 135
0.24943249 0.06720679 0.79845917 145 136 135
0.24818167 0.06650182 0.79008371 146 135 135
0.24810146 0.06611653 0.78550619 146 135 135
0.29084963 0.04015381 0.47705266 148 140 134
0.29126424 0.04009737 0.47638217 146 138 132
0.29188251 0.04006921 0.47604764 145 137 131
0.29270533 0.04006921 0.47604764 145 137 131
0.29250109 0.03992901 0.47438198 145 137 131
0.29311588 0.03990109 0.47405025 145 137 131
0.29372984 0.03987321 0.47371897 147 139 133
0.49352843 0.04332465 0.51472425 94 117 132
0.49366841 0.04325895 0.51394379 93 118 132
0.49418205 0.04322618 0.51355445 105 130 145
0.49506968 0.04322618 0.51355445 107 135 147
0.49595734 0.04322618 0.51355445 102 132 143
0.49684498 0.04322618 0.51355445 94 124 136
0.49697959 0.04316079 0.51277751 109 135 146
0.49862024 0.04322618 0.51355445 120 145 155
