ply
format ascii 1.0
element vertex 947
property float x
property float y
property float z
property uchar red
property uchar green
property uchar blue
end_header
-0.62702952 0.69037867 1.80877132 148 148 147
-0.62074691 0.70682553 1.79336464 147 147 144
-0.60996181 0.67969322 1.79812157 145 145 145
-0.60136837 0.68677485 1.70754701 153 154 147
-0.60164696 0.69609284 1.73818421 147 147 140
-0.60172844 0.69666117 1.74714386 152 152 149
-0.60477753 0.69442321 1.77229750 149 148 145
-0.61124779 0.69306572 1.79074698 147 147 146
-0.60995124 0.69158713 1.80910733 151 152 151
-0.61218828 0.69616667 1.82639196 155 156 155
-0.60634434 0.71754361 1.64937745 121 120 129
-0.60999715 0.70392500 1.77113506 151 151 149
-0.61322180 0.70479485 1.78769643 145 144 143
-0.61276007 0.70110625 1.82967091 155 156 155
-0.61851150 0.70268404 1.84209740 154 155 153
-0.60759229 0.72826478 1.65299933 129 129 136
-0.61394149 0.73898828 1.66558194 144 150 148
-0.60540918 0.74452817 1.65685981 142 144 139
-0.60953730 0.75223265 1.66558998 142 146 141
-0.61629036 0.76238298 1.67587858 166 168 162
-0.58514982 0.67899072 1.67380702 158 159 152
-0.59094855 0.68067139 1.67795014 158 158 153
-0.59539833 0.68455178 1.69473664 153 153 147
-0.59288561 0.68942788 1.70863044 146 146 141
-0.59259183 0.69074017 1.72933843 144 143 140
-0.59456971 0.69107267 1.74829003 152 152 150
-0.59884268 0.68866175 1.76534331 158 158 156
-0.59919035 0.68827820 1.81254506 163 164 166
-0.58635439 0.71307183 1.63152989 152 152 154
-0.59353834 0.71548510 1.64537504 152 151 154
-0.58711370 0.72708310 1.63397466 139 139 139
-0.59631055 0.73132966 1.64670622 141 141 140
-0.59475369 0.74531251 1.65225376 123 123 123
-0.59807789 0.75584355 1.66149962 124 130 128
-0.59954733 0.76201886 1.66558194 148 152 150
-0.56235999 0.27678721 1.51147392 170 170 170
-0.56813729 0.28030509 1.51993692 171 170 168
-0.56598685 0.29096544 1.53244063 160 160 157
-0.56674052 0.30639485 1.53158805 150 150 147
-0.56783885 0.71304211 1.61379547 148 150 151
-0.57172044 0.71242740 1.63027964 147 148 148
-0.57546700 0.71009731 1.64204860 152 152 151
-0.56131192 0.72625725 1.60561926 156 157 158
-0.57308676 0.73027911 1.62695879 148 148 149
-0.57622421 0.74510386 1.63479586 157 157 157
-0.54274061 -0.66194516 1.99674028 170 169 171
-0.54513620 -0.64870168 1.99465454 174 174 175
-0.55637696 -0.54098794 1.11863339 174 179 179
-0.55439162 -0.54478711 1.12048233 169 173 172
-0.54171026 -0.52469659 1.09869015 173 182 180
-0.54877174 -0.52885384 1.10580692 173 178 178
-0.54127198 -0.50624698 1.09780127 168 172 171
-0.54298787 -0.51561485 1.10072940 170 174 173
-0.55482588 0.27454796 1.50755461 170 169 168
-0.54694617 0.27892879 1.52678347 160 157 154
-0.55762893 0.28030509 1.51993692 166 164 160
-0.55014265 0.29078141 1.53179065 164 163 160
-0.55724424 0.29344761 1.54066324 171 171 167
-0.54304243 0.31124834 1.51710584 167 166 164
-0.55254940 0.30609037 1.52767839 152 151 150
-0.55353396 0.70788473 1.61089975 142 143 143
-0.55921191 0.70777339 1.62369537 134 134 134
-0.52585938 -0.68452132 1.99379957 167 168 170
-0.52819916 -0.67116569 1.99243797 172 172 171
-0.52662817 -0.64755124 1.97301245 170 170 170
-0.53383692 -0.65398449 1.98380070 172 171 171
-0.52832317 -0.63734017 1.96871185 177 178 178
-0.53613105 -0.63405654 1.98504627 175 174 175
-0.53553761 -0.52355215 1.09683365 170 176 175
-0.53720455 -0.53251305 1.10406724 168 173 172
-0.53486334 -0.50974181 1.09706279 171 173 173
-0.53498137 -0.51413591 1.10047376 168 169 170
-0.53285184 -0.49723016 1.09414957 172 174 174
-0.53803295 0.27967802 1.51653659 174 173 171
-0.53665626 0.29737658 1.51857679 160 159 157
-0.53527688 0.29245118 1.52851059 163 163 160
-0.53184614 0.30812620 1.51615124 157 156 155
-0.53272345 0.30284752 1.52384264 169 169 167
-0.52347678 0.32233849 1.51993692 135 130 130
-0.52465314 0.32569584 1.52335250 148 140 142
-0.51575209 -0.68764833 1.98732201 169 172 173
-0.50913236 -0.66618288 1.97348845 180 179 179
-0.51490256 -0.67345657 1.98388374 174 173 174
-0.50703885 -0.64771992 1.95600321 176 175 177
-0.51573395 -0.65191574 1.96775985 175 173 174
-0.50784725 -0.63485967 1.94890604 170 171 172
-0.51710618 -0.63950688 1.96490383 178 179 181
-0.51318107 0.30464676 1.49755843 149 146 141
-0.51945713 0.30713422 1.50978436 150 146 144
-0.49632829 -0.64376169 1.93683386 180 180 182
-0.49918076 -0.65082836 1.94796503 181 179 181
-0.48577100 -0.62774473 1.90849380 171 172 174
-0.49721047 -0.63227098 1.93243816 172 173 174
-0.36155158 -0.06749735 0.74762075 172 174 174
-0.34596804 -0.20085570 0.74988097 172 172 170
-0.34339293 -0.19031906 0.74837602 174 174 174
-0.35956609 -0.08021763 0.74493611 160 160 164
-0.35589578 -0.06923600 0.74526508 173 174 175
-0.35490124 -0.05824820 0.74527802 175 175 179
-0.34177518 0.27803567 1.79336464 135 132 137
-0.34378379 0.26851424 1.80933996 161 161 162
-0.34302273 0.26713125 1.82474583 160 160 160
-0.34770678 0.26757868 1.84964013 168 168 170
-0.34944524 0.26531404 1.86748481 167 167 169
-0.34027195 0.28450230 1.73818421 162 159 158
-0.34291125 0.28569718 1.75166631 157 152 154
-0.34283713 0.29734245 1.76688770 158 149 150
-0.34388132 0.30539338 1.77226925 170 165 165
-0.34302714 0.30812790 1.79066432 161 158 158
-0.33676004 -0.20018084 0.74575561 178 178 178
-0.33289695 -0.18875358 0.74844764 176 175 175
-0.33621082 -0.17995313 0.74740005 182 181 179
-0.32319764 0.26852682 0.80616992 157 157 156
-0.33988214 0.27762493 1.75165856 147 141 143
-0.33948621 0.27826826 1.76534331 140 135 137
-0.32705958 0.27154556 1.79496280 158 156 157
-0.33270946 0.27323825 1.81151854 161 158 159
-0.33479955 0.27248172 1.83153617 163 160 161
-0.33530427 0.26746253 1.84881735 168 167 167
-0.33726767 0.28750661 1.73818421 158 152 152
-0.33828969 0.28621444 1.74865266 154 147 148
-0.33789994 0.28782731 1.77306302 147 139 139
-0.33297048 0.28955484 1.79229948 153 147 147
-0.32789703 0.28985630 1.80634410 160 156 156
-0.33288706 0.28382386 1.82392720 153 147 147
-0.33613033 0.30917860 1.79426286 156 155 155
-0.32866240 0.30794597 1.81056392 151 151 153
-0.33198611 0.31286318 1.82474583 156 156 159
-0.31458208 0.25933120 0.80797595 159 159 159
-0.31172985 0.27020128 0.80663606 153 153 151
-0.31781849 0.28498900 1.79812157 164 162 162
-0.31866375 0.28263077 1.80290389 169 160 159
-0.31908864 0.30329181 1.80530775 142 142 147
-0.29824716 0.27214458 0.80548799 160 162 162
-0.26108214 0.61349991 1.56919408 161 162 154
-0.25167966 0.27469473 0.79686089 154 153 151
-0.24447329 0.27435791 0.80161346 157 156 155
-0.25095303 0.28219514 0.79647792 148 148 147
-0.24625296 0.28153969 0.80064021 154 153 151
-0.24605766 0.59345976 1.54791610 155 155 154
-0.25777322 0.59990621 1.56557012 151 151 149
-0.24784475 0.60660489 1.55303165 159 159 151
-0.25146056 0.61055690 1.56557786 161 161 154
-0.24042694 0.62408322 1.55837202 162 162 161
-0.24770259 0.62516584 1.57466376 161 159 154
-0.24671274 0.62966293 1.58139809 160 159 156
-0.22043303 -0.20365497 0.74905175 167 168 170
-0.22419627 0.27523181 0.79940075 160 160 160
-0.23428169 0.27488367 0.80269899 157 157 157
-0.22892594 0.57906723 1.53543085 149 147 146
-0.22639750 0.59174877 1.53427422 153 150 149
-0.23472976 0.59065816 1.54242029 158 157 156
-0.22101547 0.60061109 1.49976075 162 162 160
-0.22218112 0.60471115 1.51654416 161 161 159
-0.22655422 0.60722409 1.53283819 160 160 158
-0.23662093 0.61065193 1.55195233 160 159 155
-0.23360810 0.62295655 1.54887883 163 163 163
-0.23855634 0.62759653 1.56376642 164 164 163
-0.20362676 -0.30383665 0.65026845 165 166 165
-0.20425615 -0.29956333 0.64839172 168 168 167
-0.21020892 -0.22056186 0.74493611 160 161 161
-0.20264152 -0.20908222 0.73924953 176 176 176
-0.20880715 -0.20618658 0.74363194 167 166 167
-0.20604882 -0.19715671 0.73924953 179 179 180
-0.20947238 -0.19944996 0.74304061 175 175 177
-0.21675581 0.59667903 1.49425737 160 158 154
-0.21609375 0.59472520 1.51249847 154 153 149
-0.21807422 0.59163428 1.52449616 154 152 151
-0.18093002 -0.30526911 0.63921922 175 179 178
-0.19155953 -0.30501043 0.64773357 166 167 167
-0.19444325 -0.21173584 0.73884690 166 165 166
-0.19655418 -0.20736732 0.74069081 164 163 165
-0.17383023 -0.32309878 0.63952059 172 172 170
-0.17299298 -0.32241376 0.64051362 169 171 169
-0.17029110 -0.30880754 0.63780411 170 172 172
-0.17472744 -0.30929986 0.64027576 170 172 173
-0.16644014 -0.30204690 0.68557035 170 169 165
-0.16747847 -0.29872959 0.63731667 160 162 163
-0.16610411 -0.28676521 0.68658805 178 179 180
-0.16692182 -0.27385836 0.68700613 176 176 176
-0.16682196 0.13774878 0.97769077 165 164 165
-0.17161208 0.13839099 0.98245275 165 165 167
-0.16419524 0.15045920 0.97762578 156 153 156
-0.16774653 0.15157783 0.98227541 157 155 155
-0.16691322 0.17132736 0.97277619 164 163 164
-0.16018011 0.16177262 0.98316488 155 156 156
-0.17636188 0.18130461 0.97398454 148 144 148
-0.15922204 -0.28260519 0.68612534 183 184 184
-0.15742059 0.07999367 0.47371897 112 110 112
-0.15420416 0.08592336 0.47571631 154 153 153
-0.14524935 0.13840430 0.53945252 153 153 152
-0.14563559 0.13625093 0.54077840 157 156 156
-0.15836855 0.13731543 0.96945897 170 166 169
-0.14390019 0.14394053 0.53829478 154 154 152
-0.14969233 0.14275835 0.54089973 153 151 150
-0.14921169 0.15878078 0.79172461 141 139 139
-0.14413910 0.14321110 0.95567753 165 164 165
-0.15390117 0.14773830 0.97121536 164 163 166
-0.14648326 0.16596909 0.78803674 149 149 150
-0.15809549 0.17125929 0.97557524 163 163 163
-0.15846339 0.16874801 0.98174208 158 158 159
-0.14497279 0.19719158 0.53708303 156 155 153
-0.14326824 0.20464030 0.53183095 156 154 152
-0.14272497 0.23642733 1.27753684 160 159 160
-0.14546375 0.23119370 1.28633234 157 153 151
-0.14262072 0.24294396 1.27743534 166 166 166
-0.14686155 0.25295016 1.29098535 161 160 160
-0.15009418 0.26600387 1.29585585 163 158 159
-0.14980573 0.27525080 1.30213783 178 179 180
-0.15086506 0.28178681 1.30741072 184 184 184
-0.12755867 -0.30058813 0.78890208 174 174 174
-0.12793190 -0.29521937 0.78839982 170 170 170
-0.13858044 0.13762257 0.53764026 159 158 154
-0.13826462 0.14364470 0.53621873 153 151 149
-0.13732087 0.16776857 0.78265688 162 162 163
-0.13952527 0.20569021 0.53133296 157 157 157
-0.13662982 0.23503169 1.27643698 158 157 158
-0.13746855 0.23034607 1.28661052 157 156 155
-0.13570173 0.24227526 1.27634037 160 160 160
-0.13412756 0.25195753 1.28775812 150 145 147
-0.11902486 -0.30049321 0.78916395 177 178 178
-0.11662027 -0.29447806 0.78827762 173 174 175
-0.08063391 0.12866529 0.55104546 161 160 159
-0.06090451 0.07815942 0.49510744 157 156 157
-0.06094721 0.08127520 0.49395610 157 156 157
-0.07393582 0.12791533 0.54934773 162 159 159
-0.06413618 0.14581425 0.49350937 152 148 147
-0.07096335 0.22191051 0.65942788 157 156 155
-0.06491838 0.22876767 0.67200093 158 157 155
-0.06389643 0.23574781 0.68129903 161 158 157
-0.05657521 0.07481368 0.49617223 162 160 161
-0.05775445 0.08105597 0.49435148 159 159 158
-0.05811826 0.14507860 0.49437140 155 152 151
-0.04114997 0.21073678 0.65655807 159 157 158
-0.04695582 0.21747963 0.66579653 152 150 151
-0.04976527 0.22756855 0.67049263 153 152 150
-0.04932848 0.45923620 1.65339470 152 152 152
-0.04489405 0.45878282 1.66558194 162 162 163
-0.04515197 0.46465616 1.65743732 160 159 159
-0.04450417 0.46912169 1.66383237 158 158 158
-0.02324028 -0.12173168 0.58221467 135 78 91
-0.02195631 -0.11403734 0.58159230 134 100 113
-0.03898122 0.21040965 0.65446926 162 162 161
-0.03884632 0.21834462 0.66243770 155 154 154
-0.03677033 0.22191051 0.65942788 160 159 158
-0.03849664 0.22454805 0.66330635 158 155 155
-0.02541020 0.43690657 1.61659630 161 159 159
-0.03046817 0.43700955 1.63197427 156 153 154
-0.02724568 0.43639185 1.64271259 151 148 149
-0.02589792 0.44098282 1.61788034 158 149 151
-0.03018015 0.44378083 1.63043916 156 150 151
-0.02963294 0.45417818 1.64885109 154 147 148
-0.02812474 0.46674754 1.65398066 158 154 154
-0.03808322 0.46723092 1.66149962 158 157 157
-0.01935509 -0.12088812 0.58138239 135 78 92
-0.01596889 -0.11116271 0.57899697 134 106 119
-0.01811018 -0.11494998 0.58072891 134 88 102
-0.00557288 -0.02113793 0.53299425 135 125 126
-0.00575170 -0.01646131 0.53373869 144 132 134
-0.00724632 0.43605404 1.61574027 159 156 156
-0.00938383 0.43661997 1.62844734 157 153 153
-0.00736602 0.43544618 1.64271259 155 146 145
-0.00073055 0.44098282 1.61788034 165 164 164
-0.00892925 0.44590551 1.63028391 162 161 162
-0.01000798 0.45557319 1.64788277 161 160 160
-0.00346899 0.47361718 1.59130418 156 153 153
-0.00422558 0.47495928 1.61691731 150 148 149
-0.00513798 0.47327380 1.62859311 151 146 147
-0.00931378 0.46672073 1.65120191 165 164 160
-0.01510908 0.46723092 1.66149962 177 177 173
0.00159535 -0.02046265 0.53084719 173 160 164
0.00167349 -0.01834811 0.53164635 171 162 164
0.01940931 0.03915461 0.88152385 166 160 159
0.00700044 0.05555181 0.49592416 175 174 175
0.00712413 0.05075673 0.50028920 179 179 181
0.01938410 0.04062543 0.88037902 167 163 162
0.00678289 0.06055114 0.49412720 170 167 167
0.01325133 0.43818647 1.61788034 161 160 158
0.00863137 0.43783050 1.62694875 157 152 153
0.00493795 0.43899621 1.64538797 147 141 143
0.00500556 0.43959066 1.66558194 137 127 130
0.01532955 0.45162135 1.61595887 168 166 164
0.01029206 0.44786229 1.63021945 167 166 164
0.00673240 0.45086194 1.64888732 160 158 158
0.00499329 0.44138500 1.66149962 142 133 136
0.01378779 0.46605068 1.61558003 161 160 162
0.01111082 0.46889401 1.63230768 163 161 161
0.00581767 0.47091538 1.65180422 157 154 155
0.00417353 0.46739491 1.66208281 159 155 152
0.00495861 0.48512237 1.65072592 156 155 155
0.00499329 0.48733330 1.66149962 162 159 159
0.03903025 0.01817473 0.92524177 176 176 177
0.02942496 0.03338555 0.89490632 168 164 164
0.03446810 0.03387014 0.90589517 172 169 171
0.03963487 0.02194175 0.92693786 173 170 171
0.02663167 0.04144923 0.88823892 168 163 164
0.03466830 0.04102470 0.90412825 177 174 175
0.03264795 0.21539293 1.13505513 158 153 155
0.03021396 0.20939602 1.14519544 166 165 165
0.03600335 0.23665646 1.10920936 157 154 153
0.03364548 0.23021807 1.12938003 160 156 155
0.03161449 0.22786285 1.14554273 163 162 160
0.03621783 0.24439717 1.09869015 141 138 141
0.03470019 0.24359169 1.10077200 149 145 146
0.05630756 -0.60560598 1.65038249 170 169 171
0.05703513 -0.59664653 1.64404058 173 172 173
0.05655178 -0.14968406 0.53249469 172 171 173
0.04539738 0.01611047 0.91397473 176 172 175
0.04220982 0.01612388 0.92369227 165 161 166
0.04975984 0.03098994 0.91205205 173 172 174
0.04265666 0.02175425 0.92735426 177 174 174
0.05387023 0.04317309 0.91088066 175 175 177
0.05924086 0.11726214 0.55217964 143 143 148
0.05867584 0.20925745 0.72323943 160 160 161
0.04077048 0.21565622 1.13740242 174 170 171
0.04232471 0.21660110 1.15289557 175 172 173
0.05206987 0.21530574 1.16902003 162 155 155
0.05370129 0.21018242 1.18409145 161 157 154
0.05719997 0.23403784 0.73195939 160 158 157
0.04311095 0.23452209 1.09691238 153 152 152
0.04164502 0.23422282 1.10851434 162 158 158
0.04023047 0.23219855 1.12233746 163 157 157
0.05407624 0.22109218 1.16222301 160 158 158
0.05638850 0.24474581 0.73652457 160 160 161
0.05125732 0.24179528 0.74005657 166 166 166
0.07378785 -0.60178932 1.63741994 177 173 174
0.06829509 -0.60805006 1.64618090 175 174 174
0.07548962 -0.58509096 1.61623205 173 172 172
0.06873156 -0.59338177 1.62809404 175 174 174
0.07979302 -0.57834953 1.60637879 172 168 169
0.07796290 -0.18599561 0.45033449 161 159 159
0.06210319 -0.15145192 0.53014095 171 171 170
0.06582669 0.03041958 0.91434859 167 167 171
0.06429603 0.03482176 0.92585351 172 171 173
0.06316375 0.04536744 0.91753901 168 167 168
0.06209012 0.04416359 0.92255450 171 170 171
0.06660113 0.11696675 0.55106283 162 161 163
0.06592776 0.12245612 0.55018101 159 153 154
0.07277848 0.21521032 0.71932517 156 155 154
0.06324755 0.21095686 0.72177679 159 158 159
0.06031938 0.21336945 1.17350549 139 135 135
0.07723185 0.22478025 0.71796672 144 138 138
0.06879480 0.22750326 0.72386741 158 154 153
0.06389975 0.24419997 0.73569942 161 160 161
0.06565985 0.25327805 0.74599948 152 148 148
0.09243512 -0.60308392 1.61499354 170 170 172
0.08626476 -0.60387117 1.62760320 174 173 174
0.09057705 -0.58738440 1.61485891 170 169 169
0.08764690 -0.59454514 1.62330647 173 170 170
0.08976711 -0.57731444 1.61458114 175 174 175
0.09176885 -0.57827783 1.62175083 184 184 184
0.08074183 -0.18469630 0.45030683 162 163 164
0.09759852 0.07296005 0.73265861 165 162 163
0.09984493 0.08077249 0.73364919 157 150 152
0.08092989 0.21919987 0.71772742 162 157 155
0.09326499 0.23215856 0.70504181 152 146 143
0.08870890 0.24826948 0.69957876 143 141 142
0.09591850 0.24738549 0.70444907 150 146 146
0.10200499 -0.58667898 1.60637879 171 171 173
0.11938876 -0.12087303 0.54934508 163 163 165
0.11541566 -0.11259188 0.54851912 170 169 170
0.10770153 0.07098893 0.73066795 158 156 159
0.10336955 0.08329143 0.73572229 150 141 143
0.11546948 0.17534687 0.81169115 165 165 165
0.11518240 0.19025992 0.81130608 167 166 167
0.11098169 0.18728651 0.82069230 160 158 160
0.11700779 0.20136675 0.80666558 168 161 160
0.10198726 0.23439537 0.70177401 157 151 149
0.10256469 0.25021026 0.70544651 151 148 147
0.10552362 0.26054895 0.71207124 153 152 153
0.13736867 -0.26211014 1.53023617 174 174 175
0.13788332 -0.24993300 1.53145918 170 167 168
0.13511282 -0.25777510 1.54066324 175 172 172
0.13854934 -0.23460412 1.51993692 159 153 159
0.13555260 -0.23724365 1.52563981 156 153 157
0.12118955 -0.12077516 0.54890031 167 165 166
0.12055673 -0.11493156 0.54837606 160 156 157
0.12031676 0.06999725 0.72709191 170 168 164
0.13742117 0.09174130 0.80395300 159 158 160
0.13649752 0.10406762 0.80714812 159 159 161
0.12537369 0.19302069 0.79940075 157 157 159
0.12280296 0.19422875 0.80389628 172 171 171
0.12130839 0.20112907 0.80605529 174 171 167
0.15909717 -0.27256306 0.56561697 177 178 179
0.14875187 -0.26263941 1.53023871 175 174 175
0.15907903 -0.26176947 1.54066324 181 181 181
0.14802008 -0.25139656 1.53331253 171 167 170
0.15590245 -0.24837232 1.54347246 174 170 172
0.14337276 -0.23216335 1.51541156 169 168 169
0.15344119 -0.23396797 1.53214654 168 168 170
0.15375321 -0.22448871 1.54066324 164 165 169
0.14121065 0.09434896 0.80254113 160 156 159
0.14137491 0.10634243 0.80634468 167 166 167
0.15919627 0.17678247 0.66731175 143 141 142
0.15910418 0.18278204 0.66952461 166 164 164
0.16703423 -0.27128686 0.56523909 171 172 171
0.16754322 0.17381954 0.66758824 151 150 152
0.16059893 0.18370626 0.66972398 169 168 168
0.18502428 -0.23176938 0.45027693 163 164 167
0.19921073 -0.05026887 0.48633646 157 157 160
0.20528547 -0.05147712 0.48728378 152 151 155
0.21724537 0.11867984 0.63840298 166 168 167
0.21684551 0.12642848 0.63784663 164 163 164
0.21472200 0.12358307 0.64012450 159 160 161
0.21500402 0.23070306 0.61075791 142 140 139
0.21917459 0.24438128 0.62163462 161 161 162
0.23779714 -0.34273582 0.93643503 146 146 152
0.23521174 -0.34013200 0.94021058 168 172 173
0.23386451 -0.33574470 0.93770674 160 161 162
0.23322329 -0.32806781 0.94813262 158 157 157
0.23154852 -0.31617025 0.95477831 169 169 171
0.22787572 0.11981132 0.63771576 165 165 165
0.22280946 0.11924193 0.64057828 163 162 161
0.22534972 0.12599220 0.63716327 163 161 162
0.22312262 0.12084417 0.64059534 163 163 162
0.22191741 0.23177186 0.61200054 147 147 147
0.22267370 0.24081769 0.61896654 156 156 156
0.22311664 0.24425766 0.62192141 156 157 158
0.25448266 -0.72294300 1.57065716 172 171 171
0.25905195 -0.73227453 1.58201343 177 178 178
0.24869588 -0.71000494 1.55569544 169 168 169
0.25598814 -0.70984876 1.56535192 168 168 170
0.25997013 -0.69011474 1.55479777 163 163 163
0.25851636 -0.69417380 1.56497165 168 168 169
0.24137728 -0.33316961 0.93890840 173 173 173
0.24261279 -0.32979399 0.94767090 156 155 153
0.25861433 0.01049439 0.97961247 179 179 176
0.25814077 0.01220520 0.98103017 173 171 171
0.25584683 0.01488283 1.65642667 147 143 146
0.24835722 0.01583131 1.66559672 151 145 150
0.25933233 0.03830483 1.61788034 158 157 157
0.25540435 0.03662587 1.63035564 161 159 159
0.25271457 0.03088739 1.65156562 156 154 155
0.24775239 0.02639831 1.66668935 163 159 160
0.25933233 0.04249939 1.61788034 154 154 154
0.25497983 0.04385424 1.62781717 154 150 152
0.24951904 0.04322147 1.64536858 142 136 139
0.25495226 0.15521324 0.71621740 165 163 162
0.25990996 0.14779621 0.72039515 170 169 169
0.25405933 0.16270293 0.71563292 164 163 163
0.26389668 -0.72441308 1.57502954 167 167 168
0.26269891 -0.73362163 1.58280705 175 178 178
0.26761412 -0.70448644 1.55480407 170 169 169
0.26187160 -0.71186992 1.56618243 174 174 175
0.26788338 -0.68745536 1.54806967 169 168 169
0.26919621 -0.67715098 1.54911494 169 170 172
0.26533633 0.01252023 0.97911772 165 164 165
0.27084584 0.01552659 0.98363446 169 168 169
0.26929092 0.01629688 1.65474389 155 151 153
0.27127370 0.01521661 1.66190785 155 152 153
0.26877341 0.02403983 0.97961247 173 172 172
0.27161318 0.02251561 0.98375389 174 173 174
0.26636970 0.03435121 1.62957597 155 152 155
0.26926944 0.02686946 1.64994086 149 148 152
0.26862155 0.02210695 1.66149962 135 131 135
0.27827931 0.07813388 0.69656006 173 173 174
0.27692609 0.08755654 0.68915048 155 153 155
0.26190248 0.15777567 0.71805220 163 163 165
0.26503143 0.15846387 0.72077835 169 169 172
0.26125515 0.16218139 0.71725189 167 166 167
0.27944180 0.24680210 0.61224624 126 124 128
0.29100435 -0.41050038 0.83413144 165 165 168
0.28819765 -0.02381547 0.46475964 158 158 160
0.28729826 -0.01328916 0.46477853 148 146 146
0.28349723 0.01442949 0.98962824 162 160 161
0.29689420 0.01797558 1.61308348 171 164 158
0.29019580 0.01835665 1.63427105 159 155 154
0.29032812 0.01733426 1.64457178 162 159 159
0.28133838 0.02089503 0.99106997 165 163 167
0.29410535 0.02701090 1.61116649 154 143 140
0.29076811 0.02695574 1.62957832 157 149 147
0.28818438 0.02387358 1.64630136 165 161 161
0.28396919 0.07856937 0.69798592 163 162 162
0.29486273 0.07701599 0.70630745 155 153 154
0.28659485 0.09090289 0.69210828 163 160 162
0.29591536 0.08190521 0.70288772 158 157 157
0.28751456 0.10395060 0.69124006 166 166 167
0.29081487 0.23693295 0.61127707 152 153 153
0.28595481 0.24830517 0.61062599 145 143 145
0.30625627 -0.41193994 0.83425090 163 164 164
0.30056062 0.02147532 1.61402822 157 149 145
0.31088560 0.07659623 0.71400510 161 160 161
0.31588610 0.07043827 0.72674780 162 162 165
0.31433129 0.07124490 0.74005657 154 153 160
0.30285188 0.08118029 0.70774095 163 161 161
0.31272005 0.21340832 0.52522279 154 153 155
0.31125643 0.22273430 0.52744026 145 144 143
0.33687387 0.01824670 0.53896049 154 153 153
0.33750407 0.02599841 0.53927080 142 142 144
0.33585646 0.02411176 0.54067341 148 148 147
0.32210064 0.06901187 0.72599423 159 158 159
0.32088020 0.21135844 0.52535493 158 158 158
0.35627141 -0.28234253 0.67682951 138 141 148
0.35702544 -0.27590863 0.67409658 155 156 159
0.34316800 0.01872547 0.53972280 156 156 156
0.34425835 0.01792348 0.54015285 164 164 163
0.34240005 0.02523247 0.53913027 143 143 145
0.34440361 0.02220754 0.54048816 139 138 138
0.36213922 -0.28196198 0.67604931 147 151 154
0.37759428 -0.26610210 0.55830622 163 165 166
0.36856649 -0.26958483 0.66896125 158 159 160
0.37829871 -0.25847956 0.55902054 172 172 173
0.37864932 0.20214336 0.53314525 154 153 153
0.38070723 -0.26633191 0.55747759 168 168 169
0.38373068 -0.27314927 0.66901087 159 161 163
0.38252809 -0.25817275 0.55902596 162 159 161
0.38320631 -0.25593194 0.56024116 161 162 166
0.39511136 -0.23101754 0.47039681 162 164 166
0.39624148 -0.16187475 0.51093116 156 159 163
0.39460291 -0.15508253 0.51133876 162 166 169
0.38817875 0.19869238 0.53739044 156 160 160
0.38746883 0.19797980 0.54070716 158 164 164
0.38910112 0.20457730 0.53431470 159 160 159
0.40160246 -0.23245410 0.46992025 160 161 162
0.43696319 -0.04648218 0.90522990 153 154 155
0.43867693 -0.03459791 0.91427614 133 129 134
0.43848140 -0.02867454 0.92476482 156 156 159
0.43786540 0.09208576 0.52505847 156 158 158
0.43841647 0.10056666 0.52358463 153 153 155
0.42226852 0.14320384 0.47975361 159 164 166
0.42755977 0.14826644 0.48213682 157 159 161
0.44346222 -0.04702826 0.90356505 150 150 151
0.44547461 -0.03116497 0.91279716 142 141 143
0.44148582 -0.02756903 0.92188525 157 157 158
0.44846839 0.09330621 0.52803873 153 155 156
0.44128332 0.10245638 0.52597571 163 164 165
0.46102526 0.09328151 0.53126333 152 159 158
0.49985787 -0.39290191 1.13676949 165 165 165
0.49664649 -0.28212724 0.70605557 156 156 156
0.49422363 -0.27258961 0.70994329 151 152 154
0.49809308 0.07713887 0.47223247 147 148 152
0.49870202 0.08212502 0.47453217 157 161 161
0.49209996 0.13320551 0.60630553 157 158 158
0.51858214 -0.40104459 1.14412206 170 170 168
0.50703906 -0.39365634 1.13757737 166 166 166
0.51532786 -0.39434637 1.14541701 169 169 169
0.50312620 -0.28362582 0.70684975 156 157 157
0.50191302 -0.27611550 0.70864136 152 153 154
0.50028455 0.07602160 0.47705266 109 109 114
0.50058359 0.08253015 0.47441017 152 153 157
0.50465811 0.13366447 0.60604736 160 160 160
0.51358671 0.45795735 1.07650833 160 158 157
0.52177347 -0.40626522 1.14647993 169 165 165
0.52088934 -0.39705665 1.13835824 174 173 173
0.52821614 -0.39466899 1.14822095 170 171 171
0.52899542 0.03773068 0.60605759 152 153 154
0.53352103 0.04438226 0.60690735 139 143 145
0.53086622 0.45757972 1.08729379 159 157 151
0.53311637 0.46461689 1.08797796 129 126 124
0.54091974 -0.39557912 1.15027412 146 146 150
0.54268946 0.03854222 0.60625504 153 153 153
0.54221764 0.04196224 0.60628513 147 149 150
0.55001000 0.45532231 1.09195952 158 158 159
0.55022480 0.46760190 1.09460577 127 125 125
0.54650244 0.51541271 1.83160921 151 147 145
0.54963085 0.51606724 1.85161503 144 142 142
0.55072688 0.51567438 1.87058015 142 138 140
0.55411555 0.51348461 1.88987226 147 144 144
0.55206835 0.51573068 1.90419054 152 150 149
0.54315388 0.52049047 1.86234021 150 142 142
0.57704820 0.49685191 1.92994410 161 160 162
0.57676653 0.49548476 1.94588004 166 165 166
0.56719911 0.51576265 1.87190875 150 148 149
0.56987807 0.51289631 1.89013892 155 154 154
0.57209225 0.51049901 1.91171823 164 164 163
0.57626283 0.50648022 1.92888766 164 163 163
0.57657039 0.51096722 1.94238353 166 165 165
0.59476089 -0.58593919 1.95001522 151 151 152
0.59821522 -0.56532612 1.91494870 156 153 153
0.59687808 -0.57201244 1.93476458 140 138 143
0.59506418 -0.57380559 1.94798118 136 135 140
0.58950037 0.47673995 1.97444598 168 168 170
0.59872478 0.47797018 1.99379957 170 170 171
0.58828574 0.49878541 1.91494870 171 170 170
0.58774948 0.49692713 1.93133144 173 173 174
0.58959874 0.49366438 1.95031488 170 170 172
0.58814241 0.48777279 1.96991222 169 168 169
0.59447215 0.48379478 1.98472716 171 171 173
0.58009231 0.51142097 1.88827813 163 163 163
0.58415666 0.50633883 1.91225159 169 169 168
0.58535189 0.50675442 1.92879547 168 168 167
0.61086764 -0.60263493 1.95546087 157 155 155
0.61174726 -0.58015615 1.93683386 163 159 160
0.60830802 -0.59030419 1.94773078 154 153 154
0.60841085 -0.56616321 1.91404967 169 168 167
0.60904284 -0.56783971 1.92913609 159 158 158
0.60601373 -0.56579885 1.94966532 156 157 157
0.60363233 -0.56818712 1.96490383 169 170 170
0.61214373 -0.55716053 1.93545434 141 140 143
0.61050507 -0.55794473 1.94890604 145 142 147
0.61901122 0.47241239 1.97061586 167 167 169
0.60692177 0.47535316 1.98926719 163 163 166
0.60337815 0.49779052 1.93683386 155 154 155
0.60632827 0.49823987 1.95170756 171 170 171
0.60693669 0.48660263 1.97444966 177 177 179
0.61184835 0.48569276 1.98505095 166 166 168
0.62318297 -0.58475439 1.94377890 165 165 165
0.63294007 -0.56401561 1.91386986 165 166 167
0.62947280 -0.56682226 1.93107239 162 162 163
0.62788838 -0.56455261 1.94238353 166 166 166
0.63519455 -0.55659738 1.92675910 168 169 169
0.63089013 -0.55548882 1.94424403 166 165 164
0.62632199 0.47592749 1.95358691 163 161 161
0.62451108 0.47717622 1.96919614 166 164 165
0.62319873 0.47434555 1.98944011 163 163 166
0.62469484 0.48149462 1.97062691 163 162 161
0.62284762 0.48141631 1.99379957 174 173 174
0.65657829 -0.12338392 0.67557302 156 158 158
0.65480914 -0.11676738 0.67586878 159 162 163
0.65597466 0.25086090 1.17391760 164 164 165
0.65241797 0.25389841 1.18426086 169 173 173
0.65774366 0.26218900 1.17638740 154 154 156
0.65582468 0.26215385 1.18259931 162 163 165
0.64804824 0.39554017 0.98910955 151 151 149
0.64301805 0.39812747 1.00280190 129 127 126
0.64837574 0.40458195 0.99759501 151 151 152
0.64647907 0.41084447 1.00706914 149 148 149
0.64761482 0.40939828 1.02229124 159 161 161
0.65708357 0.42092738 1.01177883 130 129 130
0.66576860 -0.12153227 0.67692657 157 158 158
0.66559526 -0.11810451 0.67804557 154 156 157
0.67199770 -0.11681752 0.68061429 155 156 158
0.66181612 0.23896262 1.16476262 155 155 155
0.66336319 0.24553812 1.15780079 146 146 146
0.66301259 0.24943293 1.16947493 161 161 161
0.66579759 0.26122993 1.17894232 153 153 154
0.66491628 0.26066440 1.18099630 157 157 158
0.69562602 -0.44103196 0.81184649 156 165 165
0.69573915 -0.43146261 0.81360293 156 159 163
0.69697325 -0.41805595 0.81014940 155 156 156
0.69845090 -0.16175827 0.59841203 154 158 160
0.69573547 -0.15241669 0.59707679 149 153 156
0.70757320 -0.42907756 0.81390748 162 165 165
0.70815135 -0.41527954 0.81260785 162 164 166
0.71408707 -0.20252936 0.74354252 161 166 167
0.71629387 -0.19720805 0.74330425 162 164 165
0.70883537 -0.16306221 0.59876874 152 159 159
0.70848040 -0.15350979 0.59912025 149 154 156
0.71164822 -0.15165296 0.60093747 148 153 156
0.72288081 -0.43612398 0.81887576 174 175 175
0.72448301 -0.43874490 0.82069230 171 172 173
0.72377760 -0.20213861 0.74347535 165 170 170
0.72536577 -0.19614428 0.74503251 162 165 166
0.72102995 -0.14614410 0.60481095 148 152 154
0.73520746 0.05911265 0.61403279 130 135 138
0.73379133 0.06810401 0.61408151 129 134 139
0.75665253 -0.16552203 0.89685319 148 151 153
0.75388231 -0.14981925 0.89668603 160 161 162
0.75892997 -0.14517950 0.90025479 160 165 166
0.74304257 0.07246191 0.61650585 142 147 151
0.75858039 0.06594134 0.68497002 156 158 160
0.74507340 0.08191643 0.61907989 142 143 147
0.74927383 0.08545780 0.62232417 143 144 147
0.77931589 -0.42436096 1.75619650 161 160 162
0.77931589 -0.41677237 1.75619650 165 169 169
0.77829683 -0.41176823 1.76075804 138 141 149
0.77679873 -0.38667578 1.75054154 158 158 163
0.77558849 -0.38402761 1.76382287 158 159 162
0.77225705 -0.37230149 1.75166631 159 159 163
0.77625616 -0.37317592 1.76535130 163 164 168
0.76406775 -0.16451341 0.89756421 148 150 151
0.76671010 -0.16774175 0.90025479 157 158 160
0.76628589 -0.15070296 0.89741994 156 160 163
0.76757668 -0.15109082 0.90202740 157 162 164
0.76607836 0.05617930 0.68497258 141 143 146
0.76501811 0.06623083 0.68390883 136 139 141
0.77958959 0.53999829 1.48987222 155 155 148
0.76691791 0.54994179 1.45222747 169 172 172
0.77496892 0.55143580 1.46890354 172 177 177
0.77634441 0.55401481 1.48465884 153 156 158
0.79050131 -0.42393288 1.75201657 171 170 170
0.79200773 -0.43045146 1.76705793 166 165 165
0.78602438 -0.41388351 1.75331083 164 166 166
0.79318395 -0.41198474 1.76400034 162 164 166
0.78487709 -0.39025777 1.75302227 166 166 168
0.79154555 -0.38811398 1.76172462 163 163 166
0.78549693 -0.37485781 1.75418222 163 164 167
0.78642607 -0.37012300 1.76534331 160 161 165
0.79470426 -0.37093565 1.78392589 161 162 165
0.79699581 0.05052412 1.07628364 147 147 148
0.79662119 0.05302783 1.08513790 143 143 143
0.79931962 0.06110313 1.08116722 144 143 143
0.78734082 0.53225463 1.49595185 153 153 150
0.79056961 0.53442655 1.50643293 155 156 155
0.78756466 0.55098414 1.49000272 156 156 156
0.80176434 -0.44356287 1.77226925 159 159 160
0.80176434 -0.43743241 1.77226925 172 172 172
0.80056399 -0.41677237 1.75619650 166 168 171
0.80354072 -0.41180025 1.76996182 162 163 165
0.80071628 -0.39403352 1.76995254 166 166 167
0.80338721 0.05208538 1.07815987 142 141 142
0.80408467 0.05732032 1.08722916 148 144 146
0.80761255 0.06654264 1.07502461 144 145 145
0.80388124 0.06464461 1.08510413 151 150 150
0.80453390 0.49989501 1.49315381 160 159 157
0.80453390 0.50247580 1.49315381 162 161 159
0.81550489 0.51054921 1.51013790 154 154 151
0.81143860 0.53005366 1.51519310 158 159 154
0.81290644 0.53896815 1.52335250 163 162 161
0.80351393 0.55323151 1.49881480 158 158 156
0.81201433 0.55268427 1.51217705 153 152 149
0.81544450 0.54461048 1.52563981 155 153 152
0.81258920 0.56094134 1.50810385 166 167 167
0.83909297 -0.07705850 1.07944560 168 172 175
0.83558834 -0.07514425 1.08549881 172 176 177
0.82788877 0.51288407 1.51823676 148 149 146
0.83359324 0.51212898 1.52397632 158 158 156
0.82271801 0.52800193 1.51993692 147 147 147
0.83136273 0.53020065 1.53071420 151 150 149
0.82726449 0.54851962 1.53120742 163 162 157
0.83812147 0.55041859 1.54066324 164 164 157
0.84997573 -0.08096668 1.07356283 167 170 172
0.84712558 -0.08205626 1.08882604 167 171 173
0.85039749 -0.07242431 1.07517470 160 161 164
0.84833694 -0.06978439 1.08624037 159 162 165
0.85349387 0.49877958 1.49755355 149 148 147
0.85231247 0.50816212 1.51076426 149 148 149
0.84575650 0.51551282 1.52629333 143 142 142
0.85993809 0.52414075 1.49976075 155 154 153
0.85155120 0.52885082 1.53190778 153 152 152
0.85356635 0.53763663 1.54066324 144 141 143
0.84773409 0.54208549 1.53716969 158 157 157
0.84918516 0.55113579 1.54492790 159 159 155
0.85220344 0.56427122 1.54688012 147 147 146
0.86493207 -0.06175713 1.09114176 164 165 167
0.87018553 -0.05659353 1.09468990 147 149 154
0.87142124 -0.05531594 1.10088671 114 113 130
0.86545801 0.49896336 1.49810535 159 160 160
0.86882969 0.51115114 1.51449768 158 158 158
0.87071732 0.51765978 1.52392433 161 161 161
0.86641863 0.52543688 1.49976075 156 156 156
0.86887231 0.52809993 1.51252995 157 157 156
0.86506223 0.52882561 1.52585128 155 155 155
0.86574197 0.54536961 1.53457053 157 157 158
0.86399463 0.55356661 1.54647965 151 149 147
0.86296824 0.56342942 1.55231704 153 152 151
0.88004196 0.51296574 1.51653659 158 158 158
0.88235670 0.51453498 1.52506799 156 156 156
0.93070499 0.15011851 0.92874919 148 152 152
0.93678910 0.16242934 0.93190504 151 152 154
0.94376348 0.15228711 0.93455267 151 155 156
0.95639223 0.14800720 0.94413906 151 153 154
0.94361611 0.16296639 0.93631947 153 154 156
0.97188584 0.14874811 0.95334842 149 150 153
0.97845972 0.15239836 0.96154869 160 163 164
0.98079848 0.15020385 0.95815149 149 150 154
0.98205262 0.15218250 0.96018672 139 143 146
1.05471507 -0.64211708 1.81618956 160 161 162
1.05416191 -0.64592800 1.82474583 161 162 164
1.05090315 -0.63113741 1.80970792 165 165 166
1.05447996 -0.61083531 1.79574311 166 169 172
1.06227879 -0.64499932 1.81437378 165 166 168
1.07213700 -0.64878305 1.82580216 164 166 167
1.06304325 -0.63064788 1.81255153 161 162 163
1.07679706 -0.63162292 1.82622468 160 160 161
1.06463242 -0.61646664 1.80771160 166 170 172
1.09146941 -0.66141868 1.83710527 147 147 149
1.09423298 -0.66343611 1.84713048 149 149 152
1.08290589 -0.65118450 1.81740439 132 132 136
1.08646266 -0.64901958 1.83215213 156 157 159
1.09280827 -0.64493568 1.84293395 162 162 164
1.08850176 -0.63449427 1.83269774 168 169 171
1.11241138 -0.68419030 1.87781680 172 172 175
1.11550140 -0.69097281 1.88303292 162 162 164
1.10324323 -0.67372298 1.86234021 166 167 169
1.10774144 -0.65083149 1.85217535 156 157 159
1.13529340 -1.16378726 1.89356111 154 155 157
1.13781369 -1.17267776 1.90955448 156 157 159
1.12984755 -1.15647942 1.87264367 156 159 159
1.13650063 -1.14568780 1.89158207 151 154 153
1.13743052 -1.13018271 1.87626058 163 166 167
1.13766406 -1.13244063 1.88740881 160 161 160
1.12803519 -0.70202780 1.90419054 145 145 147
1.14954023 -1.16339481 1.89356252 155 155 157
1.14444354 -1.16476657 1.90740891 153 155 157
1.14755980 -1.17379081 1.92219198 163 163 165
1.14973640 -1.14831883 1.87781680 152 152 153
1.14868701 -1.15216858 1.88894662 164 166 167
1.14449131 -1.15841293 1.90419054 152 156 157
1.14990990 -1.12920414 1.87414597 164 166 167
1.14679440 -1.13776155 1.89358215 162 162 163
1.14928901 -1.10707302 1.85723794 161 163 165
1.15249602 -1.11323707 1.86640100 161 162 163
1.14203298 -1.09581625 1.85216355 164 165 167
1.15283720 -0.72448224 1.94985783 158 158 158
1.14080983 -0.71268111 1.92857242 149 149 151
1.16304900 -1.16407087 1.89488238 162 162 164
1.16499374 -1.14283602 1.87574184 163 164 166
1.16252796 -1.15369338 1.88685295 168 170 171
1.17355591 -1.12481689 1.85450558 156 161 162
1.16615029 -1.12843431 1.86631672 161 165 165
1.17221661 -1.10839878 1.85433960 156 158 158
1.16520709 -1.11712709 1.86234021 147 150 151
1.16924959 -1.09911662 1.84964013 163 163 163
1.18047273 -1.12610424 1.85723794 160 165 164
1.18047273 -1.11165889 1.85723794 154 156 155
1.18795470 0.17752837 1.35687159 141 141 145
1.19597777 0.17266478 1.36867886 141 141 148
1.19694698 0.18045308 1.36122859 147 147 148
1.19584645 0.20894896 1.73177807 158 159 160
1.20394063 0.14721863 1.35850072 149 149 149
1.21207476 0.15225525 1.36857307 143 142 140
1.21907449 0.15694769 1.38914979 154 153 153
1.21007510 0.16957473 1.37480740 132 132 134
1.21291420 0.16342565 1.38527733 140 141 142
1.21704447 0.16388534 1.40060294 144 145 145
1.21024895 0.19890735 1.75165856 161 161 161
1.21974593 0.19554151 1.76688371 145 145 146
1.20240408 0.20762461 1.73596150 156 157 159
1.21116541 0.20645358 1.74715165 157 157 159
1.21665275 0.20046130 1.76534331 160 159 159
1.21813297 0.34868410 1.08636510 142 144 145
1.22218596 0.15745220 1.38661171 146 146 146
1.22198999 0.15937296 1.40350282 144 147 146
1.22224092 0.16083056 1.38817569 147 147 147
1.22847813 0.16175580 1.41376120 143 146 144
1.23244822 0.16629036 1.42115688 164 165 165
1.23164358 0.19578674 1.77551994 148 148 150
1.22780266 0.21232328 1.75619650 155 157 158
1.23259133 0.20924065 1.76632887 157 158 159
1.23418265 0.35069179 1.09178492 152 155 157
1.22876459 0.36123187 1.08835749 150 153 153
1.25284195 -0.10122028 1.09869015 163 164 165
1.25574028 -0.10861514 1.10322088 149 152 154
1.25515936 -0.09395144 1.09651001 156 156 156
1.25485638 -0.09524939 1.10251381 154 154 155
1.24155962 0.16380665 1.43166333 165 169 167
1.24356639 0.19563547 1.77691483 140 138 138
1.25420181 0.19657742 1.78549488 151 149 149
1.24778909 0.20806003 1.77382988 145 145 145
1.25423944 0.20438442 1.78627938 158 157 156
1.24501188 0.35150904 1.09229761 146 148 149
1.26233697 -0.10216978 1.09869015 151 155 158
1.26744445 -0.11058268 1.10784639 153 158 159
1.26039008 -0.09736872 1.09809756 147 148 149
1.26160532 -0.09956340 1.10136849 145 149 147
1.26267238 0.19606424 1.79021839 145 143 143
1.26607368 0.20473767 1.79210784 143 141 140
1.29980540 -0.52599889 1.46097374 145 145 145
1.30825240 -0.52648179 1.47333047 148 149 151
1.31491473 -0.52713366 1.48011315 154 155 157
1.30941456 -0.51146678 1.47368256 145 147 152
1.31435871 -0.50737785 1.48099646 159 161 167
1.33875871 -0.54016560 1.49315381 154 154 157
1.33337374 -0.53078430 1.49097687 153 156 159
1.33221979 -0.51071921 1.48479877 149 153 158
1.33985770 -0.49067850 1.48011315 160 161 164
1.34609854 -1.02011549 1.87781680 158 162 163
1.35450368 -1.02638962 1.89281602 162 165 166
1.35842192 -1.02786052 1.90419054 164 168 167
1.35154617 -1.01935532 1.88723495 164 167 167
1.35826290 -0.54176202 1.50475621 163 165 170
1.34859868 -0.52848939 1.49509258 157 160 162
1.35588813 -0.53539185 1.50356327 150 156 158
1.34714937 -0.50620192 1.47688854 160 166 167
1.34550688 -0.50915982 1.48570011 151 155 157
1.35101678 -0.48849415 1.47328355 159 161 160
1.34273177 -0.49274672 1.48287039 154 155 158
1.35675550 -0.47910994 1.47207958 156 156 156
1.37109637 -1.06253111 1.93131578 165 170 170
1.37895370 -1.06526279 1.94238353 164 170 170
1.36417252 -1.04378217 1.91225159 158 160 162
1.37473530 -1.05068592 1.93409046 164 166 167
1.37925148 -1.04325646 1.94517428 160 161 161
1.36529012 -1.02487925 1.89488238 161 164 165
1.37181577 -1.02504722 1.90986425 165 165 166
1.37525874 -1.03040905 1.93175950 155 154 154
1.37859267 -1.03155784 1.94424403 154 152 152
1.36118078 -1.01841724 1.89885676 163 163 163
1.37280948 -1.01689460 1.90956659 168 168 167
1.37660499 -1.01889336 1.92037344 168 168 167
1.37284933 -0.62878525 1.45052098 161 166 167
1.37556064 -0.62574330 1.46097374 157 166 165
1.37723789 -0.61688863 1.45275666 152 155 156
1.36341063 -0.53312987 1.49755355 152 154 159
1.36438279 -0.53513044 1.50411386 153 156 160
1.36578815 -0.48769618 1.47496214 153 155 152
1.38420360 -1.06330006 1.95359175 163 165 166
1.38814920 -1.06742519 1.96490383 167 170 171
1.39588511 -1.04028726 1.91494870 172 174 176
1.39299653 -1.05209926 1.92271156 164 165 167
1.38291034 -1.05143817 1.95569612 168 168 168
1.38475299 -1.05553859 1.96490383 169 170 170
1.38722176 -1.02795287 1.91023507 168 170 171
1.39221609 -1.02247119 1.93134705 151 152 152
1.38940017 -1.02539625 1.94573243 146 145 145
1.39046679 -1.01521962 1.91386986 167 168 169
1.39066282 -1.01860403 1.92401052 163 163 164
1.39491940 -0.66246498 1.43926084 161 165 166
1.39837068 -0.66154295 1.44540495 160 164 165
1.39740705 -0.65500200 1.43926084 176 177 177
1.39586108 -0.64848348 1.45180682 166 170 171
1.39567386 -0.62279054 1.43811896 162 164 166
1.38934421 -0.62889043 1.44945396 159 162 164
1.38331666 -0.62552637 1.46223593 156 162 162
1.39074118 -0.61389867 1.43168977 160 164 164
1.38884975 -0.61540342 1.44926942 161 164 164
1.40331715 -1.05352050 1.92857242 170 171 172
1.40381622 -1.01790458 1.92582905 165 166 167
1.40135765 -0.66295615 1.44848680 160 164 165
1.41068065 -0.66015351 1.46729839 161 164 166
1.40903001 -0.65054681 1.45253180 161 164 166
1.40940532 -0.65521295 1.46334206 168 170 172
1.40478855 -0.62617335 1.43875263 167 174 175
1.40718359 -0.63444010 1.44551958 168 172 173
1.43439933 -0.66257916 1.46519017 158 161 161
1.42272636 -0.64953206 1.45626771 161 163 164
1.43321051 -0.65278904 1.46458978 165 166 169
1.43067074 -0.63391793 1.45367408 168 175 177
1.44355893 -0.66387276 1.47367787 161 165 164
1.45772723 -0.66578239 1.48552060 162 164 164
1.45093649 -0.65195017 1.47414257 165 169 169
1.45656836 -0.65768531 1.48173255 170 172 173
1.46871632 -0.66877007 1.48972620 163 166 165
1.46714797 -0.65342169 1.48394857 155 158 161
1.49126053 -0.68296504 1.50642633 168 174 174
1.48409906 -0.66954322 1.49705324 162 164 165
1.49314988 -0.66846091 1.50308609 164 166 167
1.48002326 -0.65743411 1.48987222 160 160 163
1.53430384 -0.74863768 1.43280280 155 159 162
1.53998482 -0.74614143 1.44232309 159 162 163
1.54685305 -0.74989758 1.43425072 158 163 164
1.55084765 -0.74788339 1.44678129 159 164 165
1.55863583 -0.74821430 1.46097374 166 173 173
1.56434011 -0.74934297 1.45337803 160 166 166
1.57449282 -0.74982774 1.47025548 156 162 161
1.58674465 -0.75513475 1.47109699 161 166 167
1.59548254 -0.75530300 1.48196389 163 167 167
1.60335803 -0.76313275 1.48011315 162 167 167
1.60241759 -0.75891745 1.47688854 156 160 163
1.60173881 -0.75454720 1.48335195 161 165 165
2.13594248 0.69419634 1.95401563 152 154 154
2.13428024 0.70672442 1.95546087 153 154 156
2.13530827 0.70198315 1.96490383 154 155 157
2.13590956 0.72027248 1.95922494 151 152 152
2.14912186 0.69468914 1.95583727 154 156 155
2.14492154 0.69550866 1.97061586 149 150 154
2.14870249 0.70785579 1.95922494 152 153 155
2.14941120 0.71285909 1.96754015 153 154 156
2.15044725 0.72203365 1.96633184 152 153 153
2.17079217 0.69637297 1.95725203 152 153 156
2.17315960 0.70334065 1.95922494 156 158 159
2.17113280 0.71028588 1.96610636 155 157 159
2.17188609 0.72304088 1.97061586 154 154 157
2.18040323 0.70131373 1.95357883 154 155 157
2.18505925 0.71542984 1.96918786 157 160 162
2.18676727 0.72300033 1.97061586 155 156 160
