ply
format ascii 1.0
element vertex 1057
property float x
property float y
property float z
property uchar red
property uchar green
property uchar blue
end_header
-0.52873093 0.30920306 1.51993692 171 169 162
-0.52492690 0.30851132 1.51653659 159 155 150
-0.51997918 0.30713710 1.50978136 157 153 148
-0.51393574 0.30509859 1.49976075 150 147 142
-0.15430938 0.16035414 0.78824633 155 151 152
-0.15294696 0.16035414 0.78824633 150 149 149
-0.15176101 0.16054082 0.78916395 139 138 138
-0.15074798 0.16091548 0.79100567 128 127 127
-0.14938079 0.16091548 0.79100567 120 117 119
-0.14801361 0.16091548 0.79100567 125 123 125
-0.14664641 0.16091548 0.79100567 134 133 135
-0.14510991 0.16072793 0.79008371 144 143 145
-0.15068592 0.26367986 1.29616034 155 149 151
-0.14816232 0.26317665 1.29368675 151 144 147
-0.14564833 0.26267534 1.29122257 157 151 154
0.03094094 0.23138349 1.13740242 160 154 152
0.03279679 0.23060963 1.13359845 160 159 157
0.03469810 0.23022464 1.13170588 160 159 157
0.03653219 0.22945850 1.12793982 155 154 152
0.03841781 0.22907734 1.12606621 152 151 150
0.06670333 0.11257515 0.55338109 128 127 136
0.06760462 0.11248333 0.55292970 139 138 147
0.21464884 0.12973148 0.63771576 162 159 161
0.21554832 0.12960956 0.63711637 159 155 157
0.21644609 0.12948786 0.63651818 170 166 167
0.21775073 0.12960956 0.63711637 175 171 172
0.21905781 0.12973148 0.63771576 174 170 171
0.22016005 0.12973148 0.63771576 173 168 170
0.22147064 0.12985364 0.63831621 169 164 165
0.22278368 0.12997602 0.63891786 166 160 162
0.22367719 0.12985364 0.63831621 170 168 170
0.22478047 0.12985364 0.63831621 173 172 174
0.22567125 0.12973148 0.63771576 167 167 169
0.22677349 0.12973148 0.63771576 161 161 163
0.22766156 0.12960956 0.63711637 162 161 163
-0.56797707 0.31465212 1.53369200 147 146 143
-0.56660813 0.31536561 1.53716969 151 150 146
-0.56014079 0.31323478 1.52678347 154 153 149
-0.55876029 0.31394187 1.53022993 155 154 150
-0.54835004 0.31253088 1.52335250 164 163 159
-0.54327536 0.31113252 1.51653659 172 171 169
-0.54065418 0.31113252 1.51653659 169 168 168
-0.53803295 0.31113252 1.51653659 149 148 148
-0.53302681 0.30974665 1.50978136 138 136 137
-0.53160125 0.31043804 1.51315141 149 144 146
-0.51882362 0.30905831 1.50642633 165 158 154
-0.51167172 0.30633533 1.49315381 159 154 149
-0.15413016 0.16152874 0.78733081 151 150 149
-0.15276933 0.16152874 0.78733081 149 148 146
-0.15158454 0.16171657 0.78824633 142 141 140
-0.14784110 0.16209352 0.79008371 126 126 129
-0.14647549 0.16209352 0.79008371 123 123 127
-0.14494097 0.16190483 0.78916395 134 134 136
-0.15292622 0.26592016 1.29616034 162 154 155
-0.15097459 0.26642957 1.29864335 150 141 143
-0.14844561 0.26592016 1.29616034 152 143 146
-0.14592628 0.26541269 1.29368675 155 149 153
0.03083746 0.23256896 1.13359845 160 151 152
0.03268747 0.23179373 1.12981975 164 157 157
0.03458263 0.23140806 1.12793982 164 157 157
0.03641102 0.23064053 1.12419879 162 157 156
0.03829060 0.23025867 1.12233746 157 154 154
0.06754952 0.11334657 0.55247909 144 143 152
0.06856032 0.11343902 0.55292970 148 147 155
0.21554832 0.13071075 0.63711637 166 165 165
0.21644609 0.13058802 0.63651818 170 167 168
0.21775073 0.13071075 0.63711637 171 169 169
0.21885192 0.13071075 0.63711637 171 168 168
0.21995313 0.13071075 0.63711637 169 163 165
0.22147064 0.13095692 0.63831621 168 162 164
0.22278368 0.13108034 0.63891786 166 160 162
0.22388801 0.13108034 0.63891786 162 158 159
0.22478047 0.13095692 0.63831621 163 160 162
0.22567125 0.13083372 0.63771576 163 163 165
0.22677349 0.13083372 0.63771576 165 165 167
0.22787572 0.13083372 0.63771576 166 166 168
0.25990996 0.14779621 0.72039515 170 169 169
0.66181612 0.23896262 1.16476262 155 155 155
-0.54712057 0.31445724 1.51993692 167 166 162
-0.54206270 0.31305340 1.51315141 171 171 171
-0.53803295 0.31375375 1.51653659 154 154 156
-0.53421664 0.31305340 1.51315141 135 133 136
-0.51997918 0.31235617 1.50978136 162 158 157
-0.15413016 0.16288957 0.78733081 147 146 144
-0.15259209 0.16270061 0.78641742 146 146 144
-0.15158454 0.16307898 0.78824633 141 141 141
-0.15057229 0.16345912 0.79008371 139 139 139
-0.14647549 0.16345912 0.79008371 139 139 142
-0.14460430 0.16288957 0.78733081 140 140 144
-0.14341001 0.16307898 0.78824633 152 152 155
-0.14188261 0.16288957 0.78733081 149 149 152
-0.13987197 0.16213633 0.78368998 144 144 144
-0.15321918 0.26867419 1.29864335 166 157 158
-0.15126437 0.26918986 1.30113602 162 153 156
0.03073467 0.23374654 1.12981975 164 155 154
0.03257887 0.23296997 1.12606621 165 158 157
0.03446793 0.23258361 1.12419879 165 158 157
0.03629065 0.23181474 1.12048233 163 157 157
0.03816423 0.23143221 1.11863339 163 157 157
0.04023047 0.23219855 1.12233746 163 157 157
0.06664892 0.11439472 0.55292970 153 152 159
0.06749451 0.11420841 0.55202919 153 151 157
0.06850444 0.11430149 0.55247909 154 152 158
0.06945936 0.11430149 0.55247909 153 153 156
0.07018547 0.11393008 0.55068386 159 159 159
0.07096434 0.11365310 0.54934508 163 163 163
0.07168148 0.11328588 0.54757017 165 165 166
0.21624304 0.13156466 0.63592106 167 166 166
0.21754627 0.13168819 0.63651818 171 168 168
0.21864644 0.13168819 0.63651818 171 167 168
0.21974660 0.13168819 0.63651818 171 162 163
0.22126229 0.13193595 0.63771576 172 163 165
0.22257391 0.13206019 0.63831621 167 158 161
0.22367719 0.13206019 0.63831621 155 151 152
0.22478047 0.13206019 0.63831621 161 158 159
0.25963405 0.14888315 0.71963042 171 170 170
0.65968448 0.24390943 1.17894232 152 152 154
0.66552043 0.24306399 1.17485583 160 159 161
0.66295522 0.24139057 1.16676736 157 157 159
0.66382933 0.24097581 1.16476262 155 155 157
-0.53421664 0.31566876 1.51315141 140 140 142
-0.52113980 0.31566876 1.51315141 167 165 163
-0.15430938 0.16444141 0.78824633 148 148 146
-0.15259209 0.16405986 0.78641742 143 143 143
-0.15158454 0.16444141 0.78824633 144 144 144
-0.15057229 0.16482471 0.79008371 145 145 145
-0.14920670 0.16482471 0.79008371 141 141 142
-0.14766899 0.16463283 0.78916395 138 138 140
-0.14630498 0.16463283 0.78916395 136 136 138
-0.14443654 0.16405986 0.78641742 146 145 149
-0.14307728 0.16405986 0.78641742 155 155 159
-0.14171802 0.16405986 0.78641742 150 150 153
-0.13987197 0.16349088 0.78368998 156 156 158
-0.13580833 0.16349088 0.78368998 160 160 162
-0.15321918 0.27091879 1.29864335 175 172 173
-0.15126437 0.27143878 1.30113602 165 164 165
-0.14872998 0.27091879 1.29864335 169 169 170
0.03063256 0.23491628 1.12606621 170 164 162
0.03252484 0.23452671 1.12419879 164 158 156
0.03441086 0.23413841 1.12233746 162 156 153
0.03623077 0.23336568 1.11863339 161 158 155
0.03810136 0.23298122 1.11679053 168 163 162
0.04009770 0.23336568 1.11863339 168 162 163
0.04189290 0.23259804 1.11495364 168 162 163
0.06659461 0.11525640 0.55247909 161 160 160
0.06743959 0.11506884 0.55158001 160 158 159
0.06844866 0.11516254 0.55202919 160 156 159
0.06934632 0.11506884 0.55158001 154 154 156
0.07001483 0.11460260 0.54934508 161 161 163
0.07079223 0.11432466 0.54801279 166 166 168
0.21604039 0.13253947 0.63532507 162 156 156
0.21713848 0.13253947 0.63532507 172 165 165
0.21844132 0.13266379 0.63592106 174 167 167
0.21954046 0.13266379 0.63592106 178 169 167
0.22126229 0.13303819 0.63771576 175 166 165
0.22257391 0.13316347 0.63831621 162 153 153
0.22367719 0.13316347 0.63831621 157 148 149
0.25935870 0.14996776 0.71886730 172 168 167
0.65290236 0.24723707 1.18512559 160 160 162
0.65789741 0.24680559 1.18305731 163 163 165
0.65879250 0.24637562 1.18099630 161 161 163
0.65739787 0.24509463 1.17485583 158 158 160
0.65601766 0.24382690 1.16877902 154 155 157
0.66464168 0.24552014 1.17689562 160 160 161
0.66436905 0.24467060 1.17282331 157 156 158
0.66295522 0.24340723 1.16676736 154 153 155
0.66382933 0.24298900 1.16476262 152 151 153
0.49434054 0.12729037 0.61016369 169 171 170
0.49406105 0.12694758 0.60852051 168 171 169
0.49511284 0.12694758 0.60852051 166 170 167
-0.52230567 0.31899616 1.51653659 155 150 149
-0.14920670 0.16619031 0.79008371 151 150 148
-0.14766899 0.16599683 0.78916395 141 140 141
-0.14613485 0.16580382 0.78824633 137 136 137
-0.14426917 0.16522744 0.78550619 157 156 160
-0.14291149 0.16522744 0.78550619 164 164 166
-0.14171802 0.16541912 0.78641742 170 170 171
-0.13971046 0.16465506 0.78278506 169 170 172
-0.13819790 0.16446514 0.78188217 169 170 172
-0.13684647 0.16446514 0.78188217 165 166 168
-0.13565151 0.16465506 0.78278506 159 160 162
-0.15321918 0.27316338 1.29864335 184 184 184
-0.15126437 0.27368769 1.30113602 183 184 186
-0.14901546 0.27368769 1.30113602 178 178 182
0.03058176 0.23646979 1.12419879 157 152 146
0.03247099 0.23607829 1.12233746 153 148 143
0.03435399 0.23568808 1.12048233 151 147 142
0.03617107 0.23491150 1.11679053 157 154 152
0.03803869 0.23452514 1.11495364 173 168 168
0.04003164 0.23491150 1.11679053 170 166 165
0.04182411 0.23414004 1.11312294 169 164 163
0.04339181 0.23223336 1.10405838 159 153 155
0.05976408 0.11592788 0.55113161 145 144 153
0.06066734 0.11583370 0.55068386 155 155 159
0.06151920 0.11564581 0.54979062 167 167 169
0.06252018 0.11573968 0.55023688 171 171 173
0.06347122 0.11573968 0.55023688 169 168 169
0.06437001 0.11564581 0.54979062 163 163 163
0.06547959 0.11592788 0.55113161 162 162 162
0.06659461 0.11621132 0.55247909 162 161 161
0.06749451 0.11611668 0.55202919 160 159 159
0.06839295 0.11602220 0.55158001 159 158 158
0.06934632 0.11602220 0.55158001 158 158 160
0.07001483 0.11555210 0.54934508 163 164 167
0.07073504 0.11517874 0.54757017 167 168 172
0.11455952 0.17056374 0.81087542 161 161 158
0.11582251 0.17035995 0.80990660 160 157 156
0.11708248 0.17015666 0.80894017 154 151 151
0.25455144 0.15057158 0.71583086 166 158 159
0.25605908 0.15073074 0.71658754 169 163 162
0.25908396 0.15105009 0.71810579 172 168 167
0.64994186 0.24972203 1.18720114 168 174 174
0.65085399 0.24928546 1.18512559 166 171 172
0.65290236 0.24928546 1.18512559 165 169 170
0.65380776 0.24885041 1.18305731 165 168 169
0.65585256 0.24885041 1.18305731 166 167 167
0.65675122 0.24841687 1.18099630 166 166 166
0.65764678 0.24798484 1.17894232 163 163 163
0.65626049 0.24669772 1.17282331 157 157 158
0.65601766 0.24584705 1.16877902 152 152 154
0.65917432 0.24627165 1.17079771 156 156 157
0.66234189 0.24669772 1.17282331 162 161 162
0.66207808 0.24584705 1.16877902 161 160 160
0.66181612 0.24500221 1.16476262 158 157 157
0.66269070 0.24458197 1.16276479 155 154 154
0.66356224 0.24416316 1.16077375 154 153 153
0.66443080 0.24374579 1.15878952 152 151 151
0.49389598 0.12822957 0.60961497 161 162 162
0.49361795 0.12788457 0.60797477 159 160 159
0.49466878 0.12788457 0.60797477 160 160 159
-0.52347678 0.32233849 1.51993692 135 130 130
-0.14903300 0.16736084 0.78916395 150 146 147
-0.14749728 0.16716623 0.78824633 147 143 144
-0.14613485 0.16716623 0.78824633 146 142 143
-0.14426917 0.16658513 0.78550619 154 153 154
-0.14291149 0.16658513 0.78550619 170 170 171
-0.14155380 0.16658513 0.78550619 171 171 171
-0.13954931 0.16581658 0.78188217 163 163 165
-0.13684647 0.16581658 0.78188217 163 164 166
-0.13549505 0.16581658 0.78188217 155 159 160
-0.15321918 0.27540797 1.29864335 191 192 192
-0.15155526 0.27646723 1.30363810 187 188 189
-0.14901546 0.27593660 1.30113602 184 186 187
-0.14676654 0.27593660 1.30113602 179 181 183
0.03236383 0.23723261 1.11863339 149 143 140
0.03418447 0.23645225 1.11495364 151 145 143
0.03605229 0.23606399 1.11312294 155 151 150
0.03785192 0.23529127 1.10947931 169 168 166
0.03976957 0.23529127 1.10947931 166 165 163
0.04155120 0.23452359 1.10585940 162 161 159
0.04325092 0.23338144 1.10047376 155 152 151
0.05804768 0.11726180 0.55292970 150 150 154
0.05895529 0.11716623 0.55247909 143 142 149
0.05986141 0.11707082 0.55202919 138 137 145
0.06071666 0.11688046 0.55113161 153 153 157
0.06156914 0.11669072 0.55023688 166 166 168
0.06257097 0.11678551 0.55068386 171 171 171
0.06352278 0.11678551 0.55068386 168 168 168
0.06553287 0.11697556 0.55158001 164 164 164
0.06659461 0.11716623 0.55247909 162 162 162
0.06749451 0.11707082 0.55202919 161 160 160
0.06844866 0.11707082 0.55202919 160 159 159
0.06934632 0.11697556 0.55158001 161 161 163
0.07007162 0.11659608 0.54979062 167 168 171
0.07084951 0.11631308 0.54845619 168 169 173
0.11356552 0.17258459 0.81379575 161 161 161
0.11483424 0.17237766 0.81281996 159 159 159
0.11609992 0.17217122 0.81184649 154 154 155
0.11722236 0.17175981 0.80990660 150 150 151
0.11848067 0.17155485 0.80894017 152 152 154
0.25154570 0.15148890 0.71432227 156 151 150
0.25304699 0.15164870 0.71507579 162 155 155
0.25428292 0.15164870 0.71507579 163 156 156
0.25578871 0.15180883 0.71583086 167 158 159
0.25729766 0.15196931 0.71658754 170 163 164
0.25853622 0.15196931 0.71658754 172 166 166
0.25977477 0.15196931 0.71658754 167 162 163
0.64810801 0.25265899 1.19137406 164 173 175
0.64880562 0.25133386 1.18512559 164 173 173
0.64971811 0.25089523 1.18305731 167 176 175
0.65062749 0.25045812 1.18099630 169 175 174
0.65266871 0.25045812 1.18099630 166 170 170
0.65470999 0.25045812 1.18099630 165 167 167
0.65560907 0.25002256 1.17894232 163 163 163
0.65650505 0.24958849 1.17689562 164 163 163
0.65512705 0.24829528 1.17079771 162 161 161
0.65488857 0.24744056 1.16676736 156 156 157
0.65803784 0.24786718 1.16877902 156 156 158
0.66119796 0.24829528 1.17079771 164 163 164
0.66093856 0.24744056 1.16676736 165 165 165
0.66181612 0.24701540 1.16476262 161 160 160
0.66155595 0.24616946 1.16077375 157 157 157
0.66242796 0.24574865 1.15878952 150 150 150
0.66329700 0.24532929 1.15681207 144 144 144
0.49361795 0.12893540 0.60797477 152 153 153
0.49378309 0.12870453 0.60688615 152 152 152
-0.52465314 0.32569584 1.52335250 148 140 142
-0.14630498 0.16872485 0.78916395 150 149 151
-0.14291149 0.16794281 0.78550619 163 163 165
-0.14138997 0.16774844 0.78459704 164 164 166
-0.13954931 0.16716799 0.78188217 165 165 167
-0.13835748 0.16736102 0.78278506 165 167 168
-0.13684647 0.16716799 0.78188217 160 162 163
-0.13549505 0.16716799 0.78188217 158 162 163
-0.15184727 0.27925751 1.30614996 186 189 189
-0.14901546 0.27818552 1.30113602 183 187 187
-0.14704879 0.27872047 1.30363810 182 183 185
0.03220440 0.23798792 1.11312294 152 147 145
0.03401663 0.23720892 1.10947931 153 147 147
0.03587556 0.23682132 1.10766637 153 151 150
0.03772843 0.23643498 1.10585940 158 157 156
0.03957525 0.23604992 1.10405838 160 159 158
0.04141608 0.23566610 1.10226321 156 155 155
0.04311095 0.23452209 1.09691238 153 152 152
0.05895529 0.11812115 0.55247909 142 142 146
0.05986141 0.11802496 0.55202919 145 145 147
0.06071666 0.11783305 0.55113161 156 156 156
0.06161915 0.11773732 0.55068386 161 161 161
0.06257097 0.11773732 0.55068386 170 169 169
0.06357443 0.11783305 0.55113161 169 169 169
0.06558624 0.11802496 0.55202919 170 168 168
0.06664892 0.11821749 0.55292970 163 162 161
0.06754952 0.11812115 0.55247909 164 162 162
0.06844866 0.11802496 0.55202919 166 164 164
0.06940279 0.11802496 0.55202919 168 168 170
0.07018547 0.11773732 0.55068386 171 171 173
0.07096434 0.11745109 0.54934508 169 169 172
0.11242887 0.17440993 0.81575429 167 167 167
0.11342935 0.17378256 0.81281996 165 165 165
0.11469671 0.17357443 0.81184649 162 162 162
0.11596105 0.17336680 0.81087542 159 159 161
0.11722236 0.17315967 0.80990660 157 157 159
0.11848067 0.17295304 0.80894017 160 160 162
0.25031105 0.15272355 0.71432227 159 158 156
0.25154570 0.15272355 0.71432227 158 157 155
0.25278035 0.15272355 0.71432227 162 158 157
0.25428292 0.15288465 0.71507579 157 153 152
0.25578871 0.15304609 0.71583086 163 157 157
0.25729766 0.15320787 0.71658754 162 158 157
0.25826320 0.15304609 0.71583086 160 159 157
0.25977477 0.15320787 0.71658754 160 159 159
0.64810801 0.25471818 1.19137406 167 175 177
0.64788991 0.25382599 1.18720114 168 177 176
0.64767331 0.25294006 1.18305731 169 178 177
0.64858621 0.25249937 1.18099630 173 182 181
0.64949596 0.25206026 1.17894232 175 182 182
0.65153366 0.25206026 1.17894232 172 173 175
0.65243667 0.25162265 1.17689562 167 168 169
0.65447086 0.25162265 1.17689562 165 165 165
0.65536726 0.25118655 1.17485583 168 168 168
0.65512705 0.25031891 1.17079771 175 174 174
0.65488857 0.24945723 1.16676736 169 168 169
0.65803784 0.24988732 1.16877902 163 163 165
0.66119796 0.25031891 1.17079771 164 164 165
0.66207808 0.24988732 1.16877902 164 164 164
0.66181612 0.24902861 1.16476262 160 159 159
0.66269070 0.24860145 1.16276479 156 155 155
0.66329700 0.24732874 1.15681207 140 140 141
0.49195752 0.13010292 0.60852051 169 170 171
0.49345225 0.13021980 0.60906726 170 171 172
0.49273413 0.12975349 0.60688615 164 164 165
0.49290055 0.12952158 0.60580146 156 156 156
-0.14647549 0.17028710 0.79008371 152 152 154
-0.14460430 0.16969377 0.78733081 150 150 152
-0.14307728 0.16949689 0.78641742 153 153 154
-0.14155380 0.16930050 0.78550619 160 160 161
-0.13971046 0.16871400 0.78278506 163 163 164
-0.13851742 0.16890904 0.78368998 164 164 165
-0.13684647 0.16851941 0.78188217 162 162 162
-0.13565151 0.16871400 0.78278506 160 160 160
-0.13414364 0.16851941 0.78188217 162 162 162
-0.15214041 0.28205854 1.30867147 187 188 188
-0.14958970 0.28151509 1.30614996 181 181 181
0.03204654 0.23873582 1.10766637 157 153 152
0.03385043 0.23795819 1.10405838 157 153 152
0.03575870 0.23795819 1.10405838 154 150 149
0.03760573 0.23757127 1.10226321 152 150 150
0.03944676 0.23718560 1.10047376 152 151 151
0.04134884 0.23718560 1.10047376 152 151 151
0.06071666 0.11878563 0.55113161 159 159 158
0.06156914 0.11859280 0.55023688 159 159 158
0.06257097 0.11868913 0.55068386 163 159 158
0.06352278 0.11868913 0.55068386 164 162 160
0.06447459 0.11868913 0.55068386 164 164 162
0.06553287 0.11888228 0.55158001 173 169 168
0.06659461 0.11907607 0.55247909 170 167 166
0.06754952 0.11907607 0.55247909 170 167 166
0.06844866 0.11897910 0.55202919 172 168 169
0.06940279 0.11897910 0.55202919 167 167 169
0.07024252 0.11878563 0.55113161 173 173 175
0.07107954 0.11859280 0.55023688 171 171 173
0.11101891 0.17581989 0.81575429 173 172 174
0.11242887 0.17581989 0.81575429 174 173 173
0.11342935 0.17518744 0.81281996 174 173 173
0.11469671 0.17497765 0.81184649 169 168 170
0.11582251 0.17455953 0.80990660 164 164 166
0.11708248 0.17435123 0.80894017 164 164 165
0.11848067 0.17435123 0.80894017 165 165 166
0.11973597 0.17414342 0.80797595 164 164 165
0.25154570 0.15395820 0.71432227 162 161 159
0.25304699 0.15412059 0.71507579 167 164 163
0.25455144 0.15428334 0.71583086 166 162 161
0.25605908 0.15444644 0.71658754 166 165 165
0.25756994 0.15460987 0.71734589 166 165 165
0.25880980 0.15460987 0.71734589 164 163 163
0.26032516 0.15477365 0.71810579 163 162 162
0.64810801 0.25677738 1.19137406 168 175 176
0.64902651 0.25632688 1.18928397 167 175 174
0.64767331 0.25498486 1.18305731 166 174 173
0.64858621 0.25454065 1.18099630 164 172 171
0.65062749 0.25454065 1.18099630 170 177 177
0.65153366 0.25409797 1.17894232 177 178 180
0.65357137 0.25409797 1.17894232 175 176 178
0.65560907 0.25409797 1.17894232 171 171 173
0.65650505 0.25365683 1.17689562 172 172 173
0.65512705 0.25234252 1.17079771 171 171 171
0.65488857 0.25147387 1.16676736 164 164 164
0.65917432 0.25234252 1.17079771 155 155 155
0.66234189 0.25277913 1.17282331 156 156 156
0.66322160 0.25234252 1.17079771 162 162 162
0.66295522 0.25147387 1.16676736 167 167 167
0.66269070 0.25061119 1.16276479 160 160 158
0.48582640 0.13091965 0.60742998 127 128 131
0.48687628 0.13091965 0.60742998 134 135 138
0.49002597 0.13091965 0.60742998 165 166 167
0.49107587 0.13091965 0.60742998 171 172 173
0.49256712 0.13103707 0.60797477 171 172 173
0.49185345 0.13056865 0.60580146 166 167 168
0.49202114 0.13033570 0.60472065 159 159 159
0.49306634 0.13033570 0.60472065 157 158 158
0.49367118 0.13021955 0.60418171 155 155 154
0.49503917 0.12975696 0.60203540 159 159 157
0.49607974 0.12975696 0.60203540 159 159 157
0.49800485 0.12998784 0.60310662 159 159 158
0.49860370 0.12987229 0.60257053 160 160 160
0.50098115 0.13021955 0.60418171 163 163 163
0.50247324 0.13033570 0.60472065 164 165 165
0.50306970 0.13021955 0.60418171 163 164 164
-0.14835984 0.17225498 0.79285598 154 154 156
-0.14664641 0.17185299 0.79100567 154 154 155
-0.14494097 0.17145287 0.78916395 153 153 156
-0.14341001 0.17125350 0.78824633 157 157 160
-0.14171802 0.17085616 0.78641742 160 160 163
-0.14003386 0.17046066 0.78459704 161 161 165
-0.13867775 0.17046066 0.78459704 164 164 166
-0.13700449 0.17006698 0.78278506 164 164 166
-0.13565151 0.17006698 0.78278506 159 157 155
-0.13414364 0.16987082 0.78188217 155 150 149
0.03194215 0.23986647 1.10405838 163 158 158
0.03379539 0.23947644 1.10226321 159 155 154
0.03570056 0.23947644 1.10226321 153 149 150
0.03760573 0.23947644 1.10226321 149 145 146
0.06066734 0.11964095 0.55068386 164 163 161
0.06151920 0.11944689 0.54979062 163 162 160
0.06246947 0.11944689 0.54979062 160 155 153
0.06341974 0.11944689 0.54979062 156 151 150
0.06437001 0.11944689 0.54979062 159 153 153
0.06542640 0.11964095 0.55068386 165 159 161
0.06654038 0.11993323 0.55202919 170 166 166
0.06749451 0.11993323 0.55202919 172 169 168
0.06839295 0.11983564 0.55158001 172 172 174
0.06928994 0.11973822 0.55113161 174 174 176
0.07018547 0.11964095 0.55068386 171 171 173
0.07102189 0.11944689 0.54979062 172 172 174
0.11101891 0.17722985 0.81575429 172 168 169
0.11229374 0.17701684 0.81477386 176 172 173
0.11342935 0.17659234 0.81281996 175 172 173
0.11455952 0.17616987 0.81087542 169 169 169
0.11582251 0.17595939 0.80990660 169 169 169
0.11708248 0.17574942 0.80894017 168 168 168
0.11848067 0.17574942 0.80894017 168 168 168
0.11973597 0.17553994 0.80797595 165 165 165
0.25057507 0.15535656 0.71507579 163 162 160
0.25181103 0.15535656 0.71507579 163 162 160
0.25331420 0.15552060 0.71583086 166 165 163
0.25482053 0.15568499 0.71658754 171 170 168
0.25633004 0.15584974 0.71734589 170 169 167
0.25756994 0.15584974 0.71734589 168 167 166
0.25908396 0.15601484 0.71810579 165 164 164
0.26032516 0.15601484 0.71810579 164 163 163
0.26184371 0.15618029 0.71886730 166 166 166
0.64880562 0.25747904 1.18512559 162 168 168
0.65085399 0.25747904 1.18512559 167 170 171
0.65290236 0.25747904 1.18512559 181 184 185
0.65380776 0.25702968 1.18305731 185 185 187
0.65585256 0.25702968 1.18305731 181 181 183
0.65789741 0.25702968 1.18305731 178 178 178
0.65879250 0.25658190 1.18099630 174 174 174
0.65739787 0.25524786 1.17485583 167 166 166
0.65715069 0.25436616 1.17079771 164 163 163
0.66145915 0.25524786 1.17485583 163 163 163
0.66348982 0.25524786 1.17485583 162 162 162
0.66436905 0.25480625 1.17282331 168 168 168
0.66295522 0.25349054 1.16676736 173 173 173
0.48564684 0.13220647 0.60852051 124 125 129
0.48626211 0.13208790 0.60797477 121 122 126
0.48687628 0.13196954 0.60742998 130 131 135
0.48836377 0.13208790 0.60797477 140 141 145
0.49002597 0.13196954 0.60742998 153 154 157
0.49107587 0.13196954 0.60742998 156 158 160
0.49256712 0.13208790 0.60797477 158 161 162
0.49229339 0.13173346 0.60634333 159 161 162
0.49202114 0.13138092 0.60472065 157 159 159
0.49306634 0.13138092 0.60472065 153 155 155
0.49411157 0.13138092 0.60472065 150 151 151
0.49427494 0.13114694 0.60364366 150 150 150
0.49487761 0.13103026 0.60310662 158 158 158
0.49547920 0.13091378 0.60257053 159 159 159
0.49652070 0.13091378 0.60257053 159 159 159
0.49844831 0.13114694 0.60364366 159 159 159
0.49993685 0.13126382 0.60418171 159 159 159
0.50187576 0.13149822 0.60526055 160 160 160
0.50441843 0.13161574 0.60580146 167 168 168
-0.14681773 0.17342253 0.79192972 156 156 156
-0.14341001 0.17261592 0.78824633 169 169 173
-0.14171802 0.17221542 0.78641742 172 172 176
-0.14003386 0.17181677 0.78459704 169 169 169
-0.13867775 0.17181677 0.78459704 168 168 168
-0.13684647 0.17122225 0.78188217 166 166 166
-0.13565151 0.17141996 0.78278506 164 160 159
0.03189021 0.24138162 1.10226321 169 164 163
0.03374052 0.24098976 1.10047376 162 158 158
0.03564260 0.24098976 1.10047376 151 147 150
0.03754468 0.24098976 1.10047376 144 140 143
0.06066734 0.12059277 0.55068386 162 160 159
0.06151920 0.12039715 0.54979062 162 156 154
0.06241885 0.12029959 0.54934508 163 154 154
0.06336835 0.12029959 0.54934508 162 152 152
0.06426577 0.12020218 0.54890031 156 144 144
0.06532028 0.12039715 0.54979062 157 148 150
0.06648623 0.12078901 0.55158001 165 157 158
0.06743959 0.12078901 0.55158001 173 167 167
0.06833735 0.12069081 0.55113161 176 175 176
0.06928994 0.12069081 0.55113161 176 176 176
0.07018547 0.12059277 0.55068386 180 180 180
0.11088547 0.17842510 0.81477386 163 159 162
0.11229374 0.17842510 0.81477386 168 166 167
0.11342935 0.17799723 0.81281996 169 168 168
0.11469671 0.17778406 0.81184649 164 164 164
0.11596105 0.17757140 0.81087542 170 170 170
0.11736258 0.17757140 0.81087542 172 172 172
0.11862222 0.17735925 0.80990660 172 172 172
0.25013068 0.15708962 0.71734589 151 147 147
0.25083968 0.15675786 0.71583086 159 153 153
0.25181103 0.15659250 0.71507579 163 159 158
0.25331420 0.15675786 0.71583086 167 164 163
0.25482053 0.15692356 0.71658754 172 171 169
0.25605908 0.15692356 0.71658754 174 174 173
0.25729766 0.15692356 0.71658754 169 169 169
0.25853622 0.15692356 0.71658754 164 164 166
0.26004967 0.15708962 0.71734589 164 164 166
0.26128954 0.15708962 0.71734589 164 164 166
0.26308623 0.15742280 0.71886730 168 168 170
0.26517233 0.15792520 0.72116154 171 171 173
0.26585314 0.15758991 0.71963042 169 169 171
0.64880562 0.25952744 1.18512559 166 170 171
0.65085399 0.25952744 1.18512559 171 173 175
0.65290236 0.25952744 1.18512559 180 181 183
0.65495080 0.25952744 1.18512559 179 180 182
0.65699917 0.25952744 1.18512559 176 177 179
0.65789741 0.25907451 1.18305731 171 171 171
0.65994221 0.25907451 1.18305731 172 171 171
0.65853918 0.25772515 1.17689562 170 169 169
0.65942854 0.25727850 1.17485583 171 171 171
0.66375989 0.25817338 1.17894232 173 173 173
0.66579759 0.25817338 1.17894232 173 173 173
0.66667587 0.25772515 1.17689562 173 173 173
0.66524523 0.25638980 1.17079771 170 170 170
0.48564684 0.13325825 0.60852051 140 141 145
0.48626211 0.13313873 0.60797477 141 142 146
0.48731294 0.13313873 0.60797477 145 146 150
0.48836377 0.13313873 0.60797477 151 152 156
0.49046546 0.13313873 0.60797477 153 154 158
0.49107587 0.13301943 0.60742998 154 156 159
0.49256712 0.13313873 0.60797477 156 160 161
0.49273413 0.13290034 0.60688615 160 164 165
0.49290055 0.13266282 0.60580146 160 164 164
0.49350658 0.13254437 0.60526055 158 162 162
0.49455273 0.13254437 0.60526055 156 160 160
0.49471545 0.13230810 0.60418171 158 159 160
0.49487761 0.13207267 0.60310662 158 159 160
0.49547920 0.13195528 0.60257053 159 160 160
0.49696246 0.13207267 0.60310662 158 159 159
0.49889258 0.13230810 0.60418171 158 159 159
0.50082958 0.13254437 0.60526055 157 157 157
0.50232422 0.13266282 0.60580146 157 157 157
0.50441843 0.13266282 0.60580146 160 161 161
0.50456369 0.13242613 0.60472065 167 167 167
0.50606030 0.13254437 0.60526055 166 167 167
0.50710648 0.13254437 0.60526055 164 164 164
-0.14341001 0.17397834 0.78824633 170 170 173
-0.14138997 0.17317289 0.78459704 178 178 179
-0.14003386 0.17317289 0.78459704 175 175 175
-0.13851742 0.17297268 0.78368998 169 169 169
-0.13684647 0.17257367 0.78188217 168 168 168
0.03183844 0.24289183 1.10047376 169 163 161
0.03368584 0.24249817 1.09869015 157 152 152
0.03564260 0.24289183 1.10047376 142 137 140
0.03754468 0.24289183 1.10047376 138 132 136
0.06061810 0.12144592 0.55023688 159 158 159
0.06146935 0.12124909 0.54934508 159 151 153
0.06331704 0.12115091 0.54890031 163 153 154
0.06426577 0.12115091 0.54890031 160 147 147
0.06526735 0.12124909 0.54934508 156 143 143
0.06643218 0.12164339 0.55113161 156 144 143
0.06743959 0.12174237 0.55158001 161 149 149
0.06833735 0.12164339 0.55113161 172 166 165
0.06928994 0.12164339 0.55113161 179 176 173
0.07024252 0.12164339 0.55113161 184 183 179
0.07119511 0.12164339 0.55113161 174 174 172
0.11101891 0.18004979 0.81575429 150 149 154
0.11256433 0.18026671 0.81673717 160 159 164
0.11370201 0.17983338 0.81477386 171 171 173
0.11497210 0.17961749 0.81379575 169 168 170
0.11637868 0.17961749 0.81379575 171 170 172
0.11750314 0.17918727 0.81184649 172 171 173
0.11890635 0.17918727 0.81184649 173 172 174
0.24986628 0.15816213 0.71658754 166 162 163
0.25083968 0.15799512 0.71583086 166 160 161
0.25181103 0.15782845 0.71507579 162 156 158
0.25331420 0.15799512 0.71583086 166 161 163
0.25482053 0.15816213 0.71658754 176 175 175
0.25605908 0.15816213 0.71658754 175 175 175
0.25729766 0.15816213 0.71658754 170 170 170
0.25853622 0.15816213 0.71658754 167 167 167
0.26004967 0.15832949 0.71734589 163 163 164
0.26128954 0.15832949 0.71734589 161 161 163
0.26280752 0.15849721 0.71810579 161 161 165
0.26489052 0.15900253 0.72039515 168 168 172
0.26557124 0.15866530 0.71886730 169 169 173
0.64767331 0.26111934 1.18305731 176 177 179
0.65176296 0.26111934 1.18305731 175 176 178
0.65380776 0.26111934 1.18305731 170 171 173
0.65585256 0.26111934 1.18305731 165 166 168
0.65675122 0.26066440 1.18099630 163 163 165
0.65994221 0.26111934 1.18305731 162 162 164
0.65853918 0.25975934 1.17689562 163 163 165
0.66057336 0.25975934 1.17689562 161 161 162
0.66491628 0.26066440 1.18099630 157 157 158
0.66783530 0.26021108 1.17894232 165 165 165
0.48459506 0.13431002 0.60852051 146 147 147
0.48564684 0.13431002 0.60852051 150 150 150
0.48626211 0.13418958 0.60797477 152 154 153
0.48731294 0.13418958 0.60797477 156 157 157
0.48836377 0.13418958 0.60797477 163 164 164
0.48985395 0.13431002 0.60852051 164 167 167
0.49046546 0.13418958 0.60797477 164 168 168
0.49151629 0.13418958 0.60797477 166 170 170
0.49300927 0.13431002 0.60852051 169 173 174
0.49273413 0.13394931 0.60688615 162 166 167
0.49334142 0.13382949 0.60634333 161 164 165
0.49438944 0.13382949 0.60634333 161 163 164
0.49543744 0.13382949 0.60634333 161 163 163
0.49559888 0.13359050 0.60526055 163 164 165
0.49531826 0.13323364 0.60364366 161 162 164
0.49592003 0.13311510 0.60310662 161 162 163
0.49740496 0.13323364 0.60364366 163 164 164
0.49978346 0.13359050 0.60526055 166 167 167
0.50127715 0.13370989 0.60580146 163 163 163
0.50277358 0.13382949 0.60634333 157 157 157
0.50427264 0.13394931 0.60688615 151 151 151
0.50486958 0.13382949 0.60634333 151 151 151
0.50546551 0.13370989 0.60580146 157 157 157
0.50696564 0.13382949 0.60634333 160 161 161
0.50801361 0.13382949 0.60634333 160 161 162
0.50997394 0.13406932 0.60742998 160 161 162
0.03189021 0.24519196 1.10226321 159 153 151
0.03374052 0.24479392 1.10047376 143 137 137
0.03564260 0.24479392 1.10047376 140 134 140
0.03748383 0.24439716 1.09869015 133 129 135
0.06056894 0.12229769 0.54979062 159 159 161
0.06141958 0.12209964 0.54890031 153 147 151
0.06421377 0.12200085 0.54845619 161 150 152
0.06516173 0.12200085 0.54845619 156 143 144
0.06637821 0.12249639 0.55068386 143 131 131
0.06738476 0.12259598 0.55113161 140 127 128
0.06828184 0.12249639 0.55068386 150 139 140
0.06923366 0.12249639 0.55068386 169 161 161
0.07119511 0.12259598 0.55113161 165 164 161
0.11115266 0.18167837 0.81673717 144 144 149
0.11256433 0.18167837 0.81673717 161 161 166
0.11356552 0.18102407 0.81379575 171 171 173
0.11483424 0.18080702 0.81281996 169 169 171
0.11623913 0.18080702 0.81281996 169 169 171
0.11736258 0.18037446 0.81087542 169 169 171
0.11862222 0.18015896 0.80990660 167 167 168
0.24960242 0.15923236 0.71583086 173 170 170
0.25057507 0.15906440 0.71507579 170 165 165
0.25181103 0.15906440 0.71507579 156 151 152
0.25331420 0.15923236 0.71583086 163 159 160
0.25482053 0.15940069 0.71658754 173 172 173
0.25633004 0.15956937 0.71734589 175 174 175
0.25756994 0.15956937 0.71734589 172 172 172
0.25880980 0.15956937 0.71734589 167 167 167
0.26032516 0.15973841 0.71810579 161 161 161
0.26128954 0.15956937 0.71734589 159 159 161
0.26252943 0.15956937 0.71734589 163 163 166
0.65560907 0.26224878 1.17894232 155 155 157
0.65879250 0.26270565 1.18099630 152 152 154
0.65739787 0.26133978 1.17485583 155 155 157
0.65942854 0.26133978 1.17485583 149 149 151
0.66375989 0.26224878 1.17894232 141 141 143
0.48459506 0.13536181 0.60852051 151 151 148
0.48564684 0.13536181 0.60852051 153 154 150
0.48626211 0.13524041 0.60797477 157 158 155
0.48731294 0.13524041 0.60797477 157 160 157
0.48836377 0.13524041 0.60797477 157 160 157
0.48941460 0.13524041 0.60797477 160 163 162
0.49002597 0.13511923 0.60742998 163 167 166
0.49107587 0.13511923 0.60742998 167 171 170
0.49256712 0.13524041 0.60797477 172 176 176
0.49273413 0.13499826 0.60688615 158 162 162
0.49334142 0.13487750 0.60634333 152 155 154
0.49394763 0.13475697 0.60580146 155 155 155
0.49499470 0.13475697 0.60580146 160 161 161
0.49559888 0.13463666 0.60526055 162 162 162
0.49531826 0.13427699 0.60364366 162 163 163
0.49592003 0.13415752 0.60310662 161 162 162
0.49740496 0.13427699 0.60364366 161 162 162
0.49978346 0.13463666 0.60526055 164 165 165
0.50172555 0.13487750 0.60634333 165 166 166
0.50277358 0.13487750 0.60634333 162 163 163
0.50472450 0.13511923 0.60742998 155 156 156
0.50532156 0.13499826 0.60688615 153 154 154
0.50591761 0.13487750 0.60634333 155 156 156
0.50741947 0.13499826 0.60688615 158 159 159
0.50846845 0.13499826 0.60688615 157 158 158
0.50997394 0.13511923 0.60742998 157 158 159
-0.07855253 0.12385064 0.55247909 165 164 164
-0.07759761 0.12385064 0.55247909 165 164 164
-0.07670521 0.12395166 0.55292970 156 155 155
-0.07562614 0.12374979 0.55202919 155 154 154
-0.07473286 0.12385064 0.55247909 158 154 155
-0.07395878 0.12415420 0.55383319 161 155 157
-0.07288244 0.12395166 0.55292970 163 157 159
0.03564260 0.24669600 1.10047376 139 137 141
0.03748383 0.24629617 1.09869015 134 133 137
0.06051985 0.12314808 0.54934508 161 160 162
0.06141958 0.12304837 0.54890031 160 156 159
0.06226747 0.12284942 0.54801279 150 147 150
0.06326581 0.12294881 0.54845619 155 151 154
0.06421377 0.12294881 0.54845619 160 153 155
0.06516173 0.12294881 0.54845619 159 152 153
0.06637821 0.12344820 0.55068386 154 146 148
0.06743959 0.12364909 0.55158001 155 144 148
0.06828184 0.12344820 0.55068386 153 143 146
0.07119511 0.12354857 0.55113161 154 147 148
0.11142115 0.18353228 0.81870997 154 155 157
0.11270011 0.18331090 0.81772238 170 170 172
0.11370201 0.18264993 0.81477386 172 172 172
0.11497210 0.18243065 0.81379575 172 172 172
0.11623913 0.18221191 0.81281996 170 170 171
0.11722236 0.18155882 0.80990660 169 169 169
0.11862222 0.18155882 0.80990660 171 171 171
0.11987886 0.18134217 0.80894017 165 165 165
0.24960242 0.16046962 0.71583086 172 170 169
0.25057507 0.16030036 0.71507579 174 170 169
0.25181103 0.16030036 0.71507579 156 152 154
0.25331420 0.16046962 0.71583086 161 157 159
0.25482053 0.16063926 0.71658754 169 166 168
0.25633004 0.16080925 0.71734589 171 168 170
0.25756994 0.16080925 0.71734589 167 166 166
0.25880980 0.16080925 0.71734589 166 165 165
0.26032516 0.16097958 0.71810579 165 164 164
0.26156634 0.16097958 0.71810579 164 164 166
0.26280752 0.16097958 0.71810579 166 166 168
0.65789741 0.26520896 1.18305731 150 151 153
0.65994221 0.26520896 1.18305731 151 151 153
0.65853918 0.26382765 1.17689562 158 158 160
0.48503044 0.13653615 0.60906726 153 154 147
0.48564684 0.13641359 0.60852051 154 155 148
0.48626211 0.13629124 0.60797477 159 160 153
0.48731294 0.13629124 0.60797477 160 161 157
0.48836377 0.13629124 0.60797477 163 164 160
0.48941460 0.13629124 0.60797477 167 168 164
0.49002597 0.13616912 0.60742998 171 172 170
0.49063623 0.13604721 0.60688615 177 178 175
0.49212575 0.13616912 0.60742998 173 176 177
0.49229339 0.13592552 0.60634333 161 165 166
0.49290055 0.13580406 0.60580146 152 155 156
0.49394763 0.13580406 0.60580146 157 157 159
0.49499470 0.13580406 0.60580146 160 160 161
0.49515676 0.13556176 0.60472065 161 161 162
0.49531826 0.13532034 0.60364366 161 161 163
0.49547920 0.13507976 0.60257053 161 161 163
0.49740496 0.13532034 0.60364366 161 162 162
0.49889258 0.13544095 0.60418171 161 161 161
0.50082958 0.13568279 0.60526055 161 162 162
0.50277358 0.13592552 0.60634333 164 164 164
0.50427264 0.13604721 0.60688615 160 161 161
0.50846845 0.13604721 0.60688615 170 171 171
-0.08052798 0.12490735 0.55292970 169 165 166
-0.07950744 0.12480555 0.55247909 166 163 164
-0.07848856 0.12470392 0.55202919 166 164 165
-0.07747133 0.12460245 0.55158001 170 169 169
-0.07658029 0.12470392 0.55202919 163 162 161
-0.07544184 0.12440001 0.55068386 155 155 154
-0.07449003 0.12440001 0.55068386 158 153 155
-0.07371787 0.12470392 0.55202919 160 156 156
-0.07270452 0.12460245 0.55158001 163 159 159
-0.07180960 0.12470392 0.55202919 170 169 167
0.03564260 0.24859808 1.10047376 143 140 143
0.06326581 0.12389678 0.54845619 152 151 152
0.06416186 0.12379662 0.54801279 158 156 156
0.06521449 0.12399710 0.54890031 159 158 158
0.06643218 0.12450115 0.55113161 159 157 158
0.06749451 0.12470392 0.55202919 157 153 154
0.06833735 0.12450115 0.55113161 154 145 148
0.06940279 0.12470392 0.55202919 154 145 147
0.07041427 0.12480555 0.55247909 151 140 142
0.07136919 0.12480555 0.55247909 149 140 143
0.11013909 0.18517099 0.81969994 158 154 157
0.11169094 0.18539518 0.82069230 164 162 165
0.11297267 0.18517099 0.81969994 174 173 175
0.11383884 0.18427968 0.81575429 173 172 174
0.11511029 0.18405819 0.81477386 172 172 174
0.11637868 0.18383723 0.81379575 172 171 173
0.11736258 0.18317753 0.81087542 172 171 173
0.11862222 0.18295868 0.80990660 173 173 175
0.12002208 0.18295868 0.80990660 168 168 170
0.24960242 0.16170688 0.71583086 167 167 167
0.25057507 0.16153631 0.71507579 168 168 168
0.25181103 0.16153631 0.71507579 156 154 155
0.25304699 0.16153631 0.71507579 156 152 153
0.25455144 0.16170688 0.71583086 160 159 161
0.25605908 0.16187781 0.71658754 168 167 169
0.25729766 0.16187781 0.71658754 170 169 171
0.25853622 0.16187781 0.71658754 168 167 168
0.26004967 0.16204911 0.71734589 168 167 167
0.26128954 0.16204911 0.71734589 169 168 170
0.48459506 0.13746536 0.60852051 149 149 145
0.48521128 0.13734208 0.60797477 149 150 144
0.48539147 0.13709617 0.60688615 163 164 158
0.49158263 0.13648522 0.60418171 152 155 156
0.49262691 0.13648522 0.60418171 158 158 160
0.49652070 0.13612126 0.60257053 160 160 160
0.49800485 0.13624236 0.60310662 160 160 160
-0.08135097 0.12565807 0.55202919 161 160 159
-0.08039683 0.12565807 0.55202919 161 158 158
-0.07937805 0.12555581 0.55158001 164 161 161
-0.07836094 0.12545374 0.55113161 169 165 164
-0.07740835 0.12545374 0.55113161 176 172 168
-0.07645576 0.12545374 0.55113161 170 167 163
-0.07531947 0.12514849 0.54979062 164 161 158
-0.07430893 0.12504707 0.54934508 158 157 155
-0.07365789 0.12555581 0.55158001 159 158 156
-0.07252748 0.12525007 0.55023688 159 158 156
-0.07163459 0.12535183 0.55068386 159 158 158
-0.06833506 0.12454245 0.54712820 168 168 168
0.06416186 0.12474381 0.54801279 157 156 156
0.06521449 0.12494583 0.54890031 160 159 159
0.06754952 0.12576047 0.55247909 157 154 155
0.10885394 0.18681368 0.82069230 156 151 154
0.11027244 0.18681368 0.82069230 156 152 155
0.11169094 0.18681368 0.82069230 159 157 159
0.11297267 0.18658778 0.81969994 169 168 170
0.11383884 0.18568964 0.81575429 173 173 175
0.11511029 0.18546647 0.81477386 173 173 175
0.11637868 0.18524382 0.81379575 173 173 175
0.11736258 0.18457906 0.81087542 176 175 177
0.12002208 0.18435854 0.80990660 171 171 172
0.24960242 0.16294414 0.71583086 167 167 167
0.25057507 0.16277225 0.71507579 166 166 166
0.25154570 0.16260074 0.71432227 162 161 161
0.25304699 0.16277225 0.71507579 159 159 159
0.25428292 0.16277225 0.71507579 163 162 162
0.25551888 0.16277225 0.71507579 169 168 168
0.25702596 0.16294414 0.71583086 170 169 169
0.25826320 0.16294414 0.71583086 170 169 169
0.25977477 0.16311638 0.71658754 171 170 170
0.26101336 0.16311638 0.71658754 169 168 168
0.26225191 0.16311638 0.71658754 165 164 165
0.48503044 0.13864160 0.60906726 143 143 141
0.48564684 0.13851714 0.60852051 146 146 143
-0.08046236 0.12671539 0.55247909 155 154 152
-0.07944269 0.12661220 0.55202919 158 156 155
-0.07842469 0.12650917 0.55158001 163 159 156
-0.07747133 0.12650917 0.55158001 165 160 153
-0.07658029 0.12661220 0.55202919 167 162 156
-0.07550318 0.12640633 0.55113161 163 158 155
-0.07449003 0.12630364 0.55068386 161 157 155
-0.07377795 0.12671539 0.55247909 160 157 156
-0.07270452 0.12650917 0.55158001 158 155 156
-0.07169283 0.12640633 0.55113161 157 157 157
-0.07051094 0.12599657 0.54934508 160 160 160
-0.06961786 0.12609877 0.54979062 162 162 162
-0.06844554 0.12569101 0.54801279 161 161 161
-0.06744383 0.12558948 0.54757017 171 171 171
0.11169094 0.18823217 0.82069230 162 161 163
0.11297267 0.18800457 0.81969994 170 169 171
0.11397599 0.18732503 0.81673717 169 169 169
0.11524881 0.18709961 0.81575429 168 168 170
0.11651856 0.18687473 0.81477386 168 168 170
0.12016565 0.18598059 0.81087542 173 172 174
0.24960242 0.16418140 0.71583086 165 168 168
0.25057507 0.16400820 0.71507579 167 167 167
0.25181103 0.16400820 0.71507579 158 158 158
0.25304699 0.16400820 0.71507579 150 150 150
0.25401497 0.16383538 0.71432227 154 153 153
0.25551888 0.16400820 0.71507579 161 160 160
0.25675485 0.16400820 0.71507579 170 169 169
0.25799078 0.16400820 0.71507579 171 170 170
0.25977477 0.16435495 0.71658754 171 170 170
0.26073772 0.16418140 0.71583086 170 169 170
-0.08039683 0.12756634 0.55202919 150 149 147
-0.07924909 0.12725545 0.55068386 153 152 150
-0.07823373 0.12715216 0.55023688 157 156 152
-0.07728269 0.12715216 0.55023688 159 156 152
-0.07645576 0.12735891 0.55113161 160 158 154
-0.07531947 0.12704903 0.54979062 162 157 153
-0.07430893 0.12694608 0.54934508 161 157 156
-0.07365789 0.12746254 0.55158001 161 157 156
-0.07252748 0.12715216 0.55023688 162 158 157
-0.07151840 0.12704903 0.54979062 160 159 159
-0.07033993 0.12663820 0.54801279 164 164 163
-0.06939274 0.12663820 0.54801279 170 170 170
-0.06833506 0.12643379 0.54712820 163 163 165
0.11169094 0.18965067 0.82069230 165 165 166
0.11297267 0.18942136 0.81969994 168 168 168
0.11383884 0.18850958 0.81575429 163 163 163
0.11524881 0.18850958 0.81575429 160 160 161
0.11651856 0.18828300 0.81477386 163 162 164
0.12030956 0.18760654 0.81184649 174 173 175
0.25207692 0.16541864 0.71583086 162 162 164
0.25304699 0.16524415 0.71507579 146 145 151
0.25401497 0.16507003 0.71432227 152 152 157
-0.07798054 0.12768863 0.54845619 155 154 153
-0.07703258 0.12768863 0.54845619 158 156 154
-0.07614622 0.12779202 0.54890031 162 158 157
-0.07507592 0.12758540 0.54801279 164 160 159
-0.07406884 0.12748234 0.54757017 166 160 160
-0.07330003 0.12779202 0.54890031 168 163 163
-0.07229277 0.12768863 0.54845619 170 166 165
-0.07128713 0.12758540 0.54801279 171 170 168
-0.07022639 0.12737945 0.54712820 175 175 173
-0.06922486 0.12727672 0.54668695 172 172 171
-0.06822493 0.12717417 0.54624647 165 165 166
0.11142115 0.19060765 0.81870997 169 169 169
0.11270011 0.19037773 0.81772238 167 167 167
0.11370201 0.18969128 0.81477386 164 164 164
0.11511029 0.18969128 0.81477386 162 162 163
0.11623913 0.18923637 0.81281996 163 162 164
0.12030956 0.18900974 0.81184649 170 170 172
0.25207692 0.16665590 0.71583086 164 164 166
-0.07791750 0.12853259 0.54801279 158 157 157
-0.07697031 0.12853259 0.54801279 158 157 157
-0.07608462 0.12863658 0.54845619 158 155 156
-0.07501527 0.12842877 0.54757017 162 156 156
-0.07400906 0.12832512 0.54712820 166 160 160
-0.07223433 0.12853259 0.54801279 170 164 164
-0.07122955 0.12842877 0.54757017 170 169 166
-0.07016976 0.12822163 0.54668695 171 170 168
-0.06916907 0.12811831 0.54624647 169 168 166
0.11270011 0.19179110 0.81772238 175 175 175
0.11356552 0.19087014 0.81379575 174 174 174
0.11483424 0.19064127 0.81281996 171 171 171
0.11609992 0.19041295 0.81184649 169 169 169
0.12016565 0.19018519 0.81087542 171 171 171
-0.08026611 0.13021667 0.55113161 160 160 160
-0.07791750 0.12947980 0.54801279 158 158 158
-0.07626974 0.12989984 0.54979062 147 143 146
-0.07513665 0.12958455 0.54845619 149 143 144
-0.07353821 0.13011089 0.55068386 171 165 165
-0.07235131 0.12968947 0.54890031 169 163 163
-0.07128713 0.12947980 0.54801279 165 164 160
-0.07022639 0.12927078 0.54712820 161 160 157
-0.06922486 0.12916653 0.54668695 161 159 158
0.11256433 0.19297169 0.81673717 170 170 170
0.11342935 0.19204617 0.81281996 172 171 171
0.11455952 0.19158672 0.81087542 173 172 172
0.11596105 0.19158672 0.81087542 172 172 173
0.11708248 0.19112948 0.80894017 171 171 172
0.11862222 0.19135782 0.80990660 173 174 175
0.12002208 0.19135782 0.80990660 172 173 174
0.12209245 0.19022150 0.80509722 168 168 171
0.61940151 0.47107795 1.99379957 152 150 156
0.62284762 0.47107795 1.99379957 155 154 161
0.61901122 0.46560028 1.97061586 160 160 164
-0.08007082 0.13085011 0.54979062 162 161 161
-0.07785457 0.13032164 0.54757017 157 157 158
-0.07614622 0.13063821 0.54890031 136 132 137
-0.07513665 0.13053250 0.54845619 125 116 122
-0.07412872 0.13042699 0.54801279 160 151 153
-0.07353821 0.13106270 0.55068386 172 164 165
-0.07240994 0.13074407 0.54934508 171 164 164
-0.07128713 0.13042699 0.54801279 166 163 162
-0.07022639 0.13021645 0.54712820 167 164 163
-0.06922486 0.13011144 0.54668695 166 164 164
0.11229374 0.19391608 0.81477386 167 166 166
0.11302279 0.19275768 0.80990660 166 166 166
0.11428610 0.19252767 0.80894017 166 165 165
0.11568429 0.19252767 0.80894017 167 167 169
0.11680371 0.19206926 0.80701411 170 171 173
0.11833945 0.19229819 0.80797595 175 176 178
0.11959343 0.19206926 0.80701411 174 175 177
0.12194762 0.19138575 0.80414218 176 176 180
0.12290015 0.19070707 0.80129057 159 159 163
0.60217088 0.47452408 1.99379957 170 170 172
0.60207540 0.47174907 1.98213995 165 165 169
0.60727704 0.47313249 1.98795259 159 159 163
0.62263119 0.47174907 1.98213995 164 164 166
-0.08197135 0.13180038 0.54979062 169 167 166
-0.08088987 0.13158694 0.54890031 167 166 166
-0.08000593 0.13169357 0.54934508 163 163 163
-0.07867390 0.13105634 0.54668695 159 159 159
-0.07785457 0.13126807 0.54757017 159 159 159
-0.07697031 0.13137418 0.54801279 149 148 155
-0.07614622 0.13158694 0.54890031 140 137 146
-0.07507592 0.13137418 0.54801279 128 123 132
-0.07412872 0.13137418 0.54801279 152 150 153
-0.07347853 0.13190736 0.55023688 164 163 165
-0.07235131 0.13158694 0.54890031 169 168 166
-0.07122955 0.13126807 0.54757017 171 170 168
-0.07016976 0.13105634 0.54668695 174 173 171
-0.06916907 0.13095073 0.54624647 178 177 177
-0.06822493 0.13095073 0.54624647 178 178 178
0.11302279 0.19415754 0.80990660 166 165 167
0.11414989 0.19369471 0.80797595 164 164 166
0.11554641 0.19369471 0.80797595 165 166 168
0.11666483 0.19323409 0.80605453 174 175 175
0.11819857 0.19346413 0.80701411 176 176 176
0.11959343 0.19346413 0.80701411 174 174 174
0.12084442 0.19323409 0.80605453 175 175 176
0.12194762 0.19277564 0.80414218 176 176 177
0.12275504 0.19186525 0.80034459 165 165 167
0.59007215 0.47378969 1.97636104 168 168 169
0.59872478 0.47797018 1.99379957 170 170 171
0.60217088 0.47797018 1.99379957 170 170 171
0.60207540 0.47517505 1.98213995 166 165 169
0.60727704 0.47656852 1.98795259 160 160 165
0.61777234 0.47938013 1.99968100 161 162 165
0.62468493 0.47938013 1.99968100 168 168 170
0.62263119 0.47517505 1.98213995 169 169 171
-0.07614622 0.13253567 0.54890031 153 153 155
-0.07507592 0.13232137 0.54801279 148 147 149
-0.07406884 0.13221450 0.54757017 158 157 158
-0.07341893 0.13275065 0.54979062 169 168 168
-0.07229277 0.13242844 0.54845619 170 169 169
-0.07117206 0.13210778 0.54712820 173 172 170
0.11189029 0.19602580 0.81184649 168 165 168
0.11275337 0.19509123 0.80797595 168 166 169
0.11401400 0.19485898 0.80701411 165 165 167
0.11540885 0.19485898 0.80701411 173 173 172
0.11666483 0.19462729 0.80605453 176 175 174
0.11805803 0.19462729 0.80605453 173 172 171
0.11945122 0.19462729 0.80605453 172 171 170
0.12070090 0.19439614 0.80509722 172 171 171
0.12194762 0.19416553 0.80414218 172 172 172
0.12275504 0.19324858 0.80034459 170 170 171
0.12413838 0.19324858 0.80034459 164 164 166
0.12537369 0.19302069 0.79940075 157 157 159
0.59009695 0.48000452 1.98795259 167 167 169
0.59007215 0.47720566 1.97636104 168 168 170
0.59872478 0.48141631 1.99379957 169 169 171
0.60040498 0.48000452 1.98795259 173 173 173
0.60207540 0.47860101 1.98213995 169 169 171
0.60727704 0.48000452 1.98795259 167 167 171
