ply
format ascii 1.0
element vertex 1073
property float x
property float y
property float z
property uchar red
property uchar green
property uchar blue
end_header
-0.66968068 0.41404335 0.90099310 31 30 38
-0.66992057 0.42985031 0.90371642 30 30 37
-0.67002623 0.45028806 0.90711901 30 30 37
-0.67001307 0.46987488 0.91018066 31 31 37
-0.67009394 0.48956005 0.91300351 31 31 39
-0.66996387 0.50993226 0.91543955 7 6 8
-0.66975453 0.52073556 0.91658149 0 0 0
-0.64997413 -0.56429220 0.84078540 0 0 0
-0.64810072 -0.54504695 0.83974598 0 0 0
-0.65184309 -0.55455048 0.84028126 0 0 0
-0.64993747 -0.52984548 0.83901564 0 0 0
-0.65000345 -0.51027079 0.83774009 0 0 0
-0.65963948 -0.48182094 0.81676632 107 176 198
-0.64953523 -0.49483330 0.83499745 14 20 23
-0.65020300 -0.46560750 0.79784486 120 173 191
-0.65406604 -0.47571871 0.80642203 114 176 196
-0.65014902 -0.45029271 0.79728043 119 167 189
-0.64988706 -0.43020223 0.79706729 111 159 183
-0.64983233 -0.41021039 0.79694775 107 153 177
-0.64974091 -0.39018254 0.79683579 101 146 172
-0.65018681 -0.37004367 0.79670967 95 140 166
-0.65028138 -0.35016195 0.79665446 90 134 160
-0.65022318 -0.33016657 0.79658320 91 129 157
-0.65018047 -0.31018216 0.79653089 86 123 151
-0.65014531 -0.29020368 0.79648781 81 119 150
-0.65014896 -0.27024347 0.79649228 80 114 146
-0.65016520 -0.25028798 0.79651218 78 111 144
-0.65018169 -0.23033156 0.79653240 78 107 141
-0.65019208 -0.20968387 0.79654513 75 105 138
-0.65018497 -0.18971869 0.79653642 73 101 135
-0.65019056 -0.16975726 0.79654325 71 99 134
-0.65021675 -0.14980015 0.79657533 71 95 130
-0.65031158 -0.12985508 0.79669162 71 94 129
-0.64983074 -0.10995998 0.79688198 53 66 94
-0.64993077 -0.08996411 0.79706887 48 55 77
-0.65000972 -0.06988014 0.79741936 52 57 76
-0.65003529 -0.05222856 0.79853168 74 89 119
-0.65003960 -0.04193044 0.80059642 111 136 159
-0.64996662 -0.03034291 0.80366822 122 144 162
-0.65000813 -0.01018004 0.80912062 128 140 146
-0.65007242 0.01012663 0.81456827 115 123 129
-0.64995723 0.02575060 0.81857411 112 121 123
-0.65013938 0.03576349 0.82111200 107 115 120
-0.65004676 0.05015957 0.82474125 117 125 126
-0.64995299 0.06986585 0.82984579 95 102 108
-0.64995501 0.08976094 0.83496060 57 67 85
-0.64993679 0.10537557 0.83872648 51 58 75
-0.65000128 0.11513011 0.84098035 48 54 71
-0.65003879 0.12943161 0.84420939 43 48 62
-0.65004659 0.14994856 0.84868275 39 42 54
-0.64995974 0.17056118 0.85308503 37 38 48
-0.65002613 0.18993273 0.85714437 36 35 46
-0.64989984 0.20156997 0.85957239 34 34 43
-0.65003729 0.21183279 0.86168755 33 33 41
-0.64994294 0.22997508 0.86546699 32 32 39
-0.64992269 0.24983654 0.86956877 31 31 39
-0.65004581 0.26989936 0.87364743 30 30 38
-0.64995721 0.29010991 0.87773462 29 29 36
-0.64975640 0.30064896 0.87984935 27 27 36
-0.65004571 0.31055820 0.88185406 29 28 35
-0.65002868 0.32946705 0.88566898 28 28 35
-0.64996935 0.34933975 0.88959465 30 30 38
-0.64998072 0.36932497 0.89338858 31 31 37
-0.64998335 0.38951677 0.89704806 31 31 37
-0.65068781 0.40320252 0.89937865 32 31 38
-0.64979454 0.41329881 0.90118289 31 31 37
-0.64990641 0.43001610 0.90403348 31 31 38
-0.65007439 0.45038234 0.90735033 30 30 36
-0.65000539 0.46994901 0.91030360 30 30 36
-0.65000953 0.48939936 0.91294582 30 29 36
-0.65009069 0.50947290 0.91517594 0 0 1
-0.64976247 0.52058406 0.91631482 0 0 0
-0.62104141 -0.56084911 0.83998215 0 0 0
-0.63028032 -0.56408090 0.84034331 0 0 0
-0.62947695 -0.54937296 0.83955389 0 0 0
-0.63515648 -0.55833308 0.84010545 0 0 0
-0.62985364 -0.52981387 0.83856354 0 0 0
-0.62999083 -0.50984807 0.83732745 0 0 0
-0.62944170 -0.49458328 0.83563446 2 4 4
-0.63049938 -0.46459900 0.79779675 120 175 195
-0.62734450 -0.47418799 0.80782470 121 172 194
-0.63000987 -0.45026475 0.79713815 119 169 190
-0.62985863 -0.43018337 0.79694711 112 162 184
-0.62980116 -0.41017261 0.79687452 109 156 178
-0.62976061 -0.39017631 0.79682333 105 148 173
-0.62968336 -0.37016079 0.79672562 98 141 166
-0.62965213 -0.35017582 0.79668614 93 136 161
-0.62999695 -0.33035348 0.79663953 90 131 157
-0.63026676 -0.31020627 0.79659284 86 125 154
-0.63023127 -0.29022562 0.79654798 82 121 149
-0.63023294 -0.27026308 0.79655008 80 117 147
-0.63025283 -0.25030779 0.79657521 80 113 145
-0.63026282 -0.23034761 0.79658782 77 110 143
-0.63026748 -0.20969666 0.79659370 76 107 140
-0.63026070 -0.18973029 0.79658511 73 103 138
-0.63026225 -0.16976664 0.79658703 72 101 136
-0.63028326 -0.14980733 0.79661357 70 100 134
-0.62972759 -0.12981782 0.79672707 71 97 131
-0.62984885 -0.10992177 0.79693498 56 69 96
-0.63001227 -0.08997229 0.79714181 50 58 80
-0.63010830 -0.07015896 0.79750046 51 58 79
-0.63001142 -0.05211078 0.79860336 74 90 120
-0.62999142 -0.04193153 0.80061702 109 134 159
-0.63004038 -0.03024233 0.80365333 123 142 160
-0.62994619 -0.01019851 0.80903276 129 139 145
-0.63007818 0.01017518 0.81447548 116 128 132
-0.62997417 0.02575331 0.81846223 119 126 128
-0.63006940 0.03573353 0.82099893 108 118 123
-0.63008498 0.05018119 0.82467542 127 132 132
-0.63001674 0.06980834 0.82973130 113 118 120
-0.62999100 0.08970116 0.83478952 65 72 87
-0.62977832 0.10596276 0.83870401 47 55 71
-0.63025389 0.11563723 0.84093824 46 50 65
-0.62983857 0.12995238 0.84415717 42 46 62
-0.63016714 0.15041546 0.84861721 39 42 55
-0.62993560 0.17061658 0.85294229 37 39 49
-0.63005303 0.18993261 0.85702007 36 36 45
-0.63000231 0.20162404 0.85948619 35 35 44
-0.62995933 0.21172860 0.86160138 33 33 41
-0.63003892 0.22990330 0.86545668 32 32 39
-0.62995052 0.24978345 0.86964509 31 30 39
-0.63001896 0.26983309 0.87379864 31 30 39
-0.62991171 0.29011241 0.87797147 29 29 36
-0.63921265 0.30069649 0.87998843 28 27 34
-0.62991822 0.30982036 0.88197826 28 28 34
-0.63003672 0.32957039 0.88598511 28 28 35
-0.63002663 0.34951971 0.88994094 30 29 37
-0.62996149 0.36951817 0.89374962 31 30 37
-0.62994545 0.38958415 0.89738524 32 31 37
-0.63051743 0.40237607 0.89955103 31 31 37
-0.62996607 0.41247960 0.90133260 31 31 37
-0.62991579 0.43018113 0.90431675 32 32 38
-0.63007443 0.45052825 0.90754186 31 30 37
-0.63002031 0.47002482 0.91036384 31 30 37
-0.62996991 0.48943405 0.91278874 23 23 28
-0.63007118 0.50962031 0.91476668 0 0 0
-0.62963221 0.52030839 0.91582959 0 0 0
-0.60801392 -0.56255151 0.83985584 0 0 0
-0.61331999 -0.56551655 0.84011364 0 0 0
-0.61008278 -0.55004629 0.83925348 0 0 0
-0.60986104 -0.53016000 0.83824344 0 0 0
-0.61010094 -0.50963667 0.83713973 0 0 0
-0.60952623 -0.49280435 0.83506791 7 11 12
-0.61050523 -0.46341103 0.79755563 123 175 195
-0.61461859 -0.47532614 0.81263647 115 173 192
-0.61289621 -0.47967325 0.82033628 92 140 148
-0.60995187 -0.45020570 0.79703404 121 172 191
-0.60983714 -0.43014922 0.79688412 117 166 186
-0.60980853 -0.41015834 0.79684684 110 160 180
-0.60978585 -0.39017324 0.79681721 106 151 175
-0.60973270 -0.37017106 0.79674778 99 144 168
-0.60971335 -0.35019177 0.79672252 95 138 162
-0.61010059 -0.33005264 0.79669939 91 133 157
-0.61035487 -0.31023296 0.79666130 91 127 155
-0.61032554 -0.29025295 0.79662306 85 123 151
-0.61032766 -0.27028880 0.79662584 83 120 147
-0.61020739 -0.24981654 0.79664774 80 116 146
-0.61049893 -0.22987437 0.79666461 79 113 144
-0.61035542 -0.20971465 0.79666203 78 110 142
-0.61034091 -0.18974412 0.79664309 77 106 140
-0.61033984 -0.16977827 0.79664170 75 103 137
-0.61036065 -0.14981775 0.79666888 72 101 136
-0.60980747 -0.12991549 0.79678171 73 99 134
-0.60993499 -0.10993237 0.79701237 56 70 98
-0.61009897 -0.08998189 0.79722663 52 59 81
-0.60991428 -0.06988069 0.79757845 52 60 80
-0.60998458 -0.05223590 0.79857350 72 89 116
-0.60987242 -0.04192782 0.80054622 111 138 162
-0.61008044 -0.03027020 0.80355677 121 142 159
-0.60996655 -0.01019725 0.80893208 133 142 149
-0.60997969 0.01015240 0.81435188 122 131 136
-0.60974484 0.02607068 0.81844568 122 131 132
-0.61041742 0.03603080 0.82098758 110 120 122
-0.61001671 0.05012837 0.82457916 133 137 137
-0.61007097 0.06978177 0.82960683 125 130 131
-0.60996893 0.08972841 0.83462302 78 85 94
-0.61004406 0.10608464 0.83858131 49 57 73
-0.60990619 0.11578495 0.84083157 46 51 66
-0.60994598 0.13013016 0.84407404 42 48 62
-0.60996030 0.15057388 0.84855989 40 44 55
-0.60993078 0.17056038 0.85286964 37 40 50
-0.61004006 0.18987032 0.85698576 36 37 46
-0.60996777 0.20154942 0.85948085 35 35 44
-0.60995450 0.21177965 0.86165176 33 33 42
-0.61003921 0.22995194 0.86557357 32 32 40
-0.61004075 0.24987778 0.86984195 31 31 40
-0.60998398 0.26997765 0.87406948 31 30 39
-0.61007012 0.28958913 0.87814054 30 30 38
-0.60812666 0.29922205 0.88012536 31 30 37
-0.60992643 0.30978281 0.88225316 29 28 36
-0.61001806 0.32968773 0.88628792 28 28 34
-0.60998094 0.34961714 0.89023866 28 27 34
-0.61002349 0.36963932 0.89405442 29 28 36
-0.60992760 0.38976691 0.89770390 30 30 37
-0.61033374 0.40159917 0.89969899 31 30 37
-0.61001200 0.41170699 0.90146293 31 31 38
-0.60995035 0.43022088 0.90453876 31 31 38
-0.61003411 0.45055133 0.90767087 31 30 37
-0.60997929 0.47002608 0.91034480 31 30 37
-0.60993836 0.48962660 0.91248612 15 15 18
-0.60999282 0.51000608 0.91421277 0 0 0
-0.61747090 0.52006558 0.91540221 0 0 0
-0.59029206 -0.56350357 0.83961039 0 0 0
-0.58986909 -0.55004931 0.83893477 0 0 0
-0.59023354 -0.52977235 0.83793779 0 0 0
-0.58981023 -0.50986934 0.83690726 0 0 0
-0.58991875 -0.49197944 0.83527669 0 0 0
-0.59176698 -0.46227120 0.79759002 123 176 195
-0.58687729 -0.46806556 0.80509599 113 168 186
-0.58855714 -0.47895351 0.82397664 61 82 93
-0.59007200 -0.45027924 0.79716367 122 174 193
-0.58986816 -0.43015117 0.79688783 120 168 187
-0.58985540 -0.41017051 0.79687055 115 162 183
-0.58984346 -0.39019146 0.79685449 109 155 177
-0.58980034 -0.37019359 0.79679628 104 148 172
-0.58978521 -0.35021517 0.79677583 100 141 165
-0.58977369 -0.33023986 0.79676025 96 136 159
-0.58975443 -0.31026133 0.79673425 91 131 157
-0.58974286 -0.29028777 0.79671867 91 128 154
-0.58974240 -0.27032010 0.79671806 86 122 151
-0.58975638 -0.24967003 0.79673695 83 118 148
-0.58977063 -0.22970776 0.79675623 79 115 144
-0.58976878 -0.20973880 0.79675373 78 113 143
-0.58975421 -0.18976578 0.79673405 76 110 141
-0.58975988 -0.16979955 0.79674178 76 106 141
-0.58979211 -0.14983963 0.79678540 75 103 137
-0.58987217 -0.12988805 0.79689351 75 102 135
-0.59005733 -0.10995045 0.79714373 58 74 104
-0.59021245 -0.08999622 0.79735328 53 62 84
-0.59001571 -0.07019450 0.79767124 54 61 82
-0.59002624 -0.05211377 0.79858487 71 89 117
-0.58999104 -0.04189368 0.80049467 117 141 167
-0.59005717 -0.03029924 0.80350233 126 143 163
-0.58998430 -0.01027444 0.80886309 133 143 148
-0.58996514 0.01009793 0.81425797 125 133 137
-0.59011522 0.02644386 0.81845501 133 137 137
-0.58998188 0.03646779 0.82100435 112 122 125
-0.58993444 0.05016934 0.82448205 128 134 134
-0.59005321 0.06985823 0.82947739 129 134 133
-0.58990322 0.08974363 0.83445273 89 98 105
-0.59001988 0.10610851 0.83845644 59 67 81
-0.58992647 0.11588181 0.84076330 49 55 72
-0.59001089 0.13014671 0.84403187 44 49 61
-0.59000392 0.15063750 0.84859133 41 44 55
-0.58996048 0.17053817 0.85292554 39 41 51
-0.58999077 0.18992198 0.85709535 36 38 47
-0.59066161 0.20152968 0.85958468 36 36 45
-0.58984016 0.21162116 0.86175198 35 35 45
-0.58997296 0.23000290 0.86576562 34 34 43
-0.59004037 0.24998009 0.87010115 33 33 42
-0.59002003 0.27010621 0.87437239 31 31 39
-0.59016856 0.28890054 0.87829542 30 30 38
-0.58897684 0.29860808 0.88028821 30 30 36
-0.58999419 0.30998089 0.88258553 30 29 36
-0.58992777 0.32968806 0.88657366 28 27 35
-0.58998071 0.34967446 0.89052169 27 26 35
-0.59005674 0.36975097 0.89433648 28 27 34
-0.58993105 0.38988204 0.89796918 29 28 36
-0.59099328 0.40099693 0.89982117 29 29 36
-0.58993383 0.41104056 0.90155894 29 29 36
-0.58999934 0.43027998 0.90470743 29 29 37
-0.58995774 0.45055104 0.90775294 31 30 36
-0.58995082 0.47044838 0.91030131 30 29 36
-0.59003407 0.49038692 0.91204347 5 5 7
-0.59001955 0.51052881 0.91364308 0 0 0
-0.56972240 -0.56325342 0.83923769 0 0 0
-0.57000890 -0.54977685 0.83859250 0 0 0
-0.57010390 -0.53034850 0.83766713 0 0 0
-0.56991167 -0.51026565 0.83663586 0 0 0
-0.56985583 -0.49091480 0.83500910 0 0 0
-0.57157195 -0.46131709 0.79778680 119 178 196
-0.57362487 -0.47000472 0.81151065 106 157 174
-0.56637272 -0.47719871 0.82622678 50 76 85
-0.56999092 -0.45049967 0.79730941 125 175 193
-0.56994308 -0.43018648 0.79695311 120 171 188
-0.56993401 -0.41020647 0.79694040 117 163 183
-0.56992673 -0.39022853 0.79693023 113 158 178
-0.56988631 -0.37022958 0.79687369 107 151 172
-0.56986485 -0.35024499 0.79684365 101 144 166
-0.56985462 -0.33026849 0.79682934 99 138 162
-0.56984059 -0.31029069 0.79680976 94 133 158
-0.56972709 -0.29016558 0.79681076 90 131 156
-0.56995163 -0.27021210 0.79681158 89 124 153
-0.56986278 -0.24970258 0.79684086 86 122 150
-0.56988382 -0.22974062 0.79687029 80 119 145
-0.56988428 -0.20976964 0.79687093 81 115 144
-0.56987807 -0.18979628 0.79686230 79 112 143
-0.56990373 -0.16983282 0.79689825 78 110 141
-0.56994905 -0.14987279 0.79696164 77 107 139
-0.57001268 -0.12991366 0.79705059 77 104 139
-0.57019396 -0.10997256 0.79730402 62 78 109
-0.56969300 -0.08997057 0.79750705 55 64 86
-0.56985646 -0.07005120 0.79779612 55 63 84
-0.57009421 -0.05226979 0.79860121 71 88 116
-0.56991346 -0.04195458 0.80044311 113 139 164
-0.57000553 -0.03026428 0.80349525 126 144 163
-0.57003172 -0.01018370 0.80887810 133 143 151
-0.56997462 0.01011523 0.81421044 123 133 137
-0.57009439 0.02649735 0.81838509 134 140 138
-0.57005331 0.03646382 0.82091516 123 129 132
-0.56992145 0.05016387 0.82439217 132 138 138
-0.57002300 0.06980125 0.82936501 129 134 133
-0.56995517 0.08971029 0.83435068 98 107 113
-0.56970109 0.10657110 0.83849745 74 80 91
-0.57050605 0.11626167 0.84082271 57 62 76
-0.57002347 0.13012029 0.84405545 48 51 66
-0.56999697 0.15071748 0.84871796 42 45 57
-0.57000261 0.17063358 0.85311006 39 42 50
-0.56994043 0.18997176 0.85729895 38 38 47
-0.57021041 0.20088388 0.85965730 37 37 45
-0.57004301 0.21111835 0.86186446 36 36 45
-0.57001142 0.23003131 0.86603280 35 35 44
-0.57000728 0.24995595 0.87039031 34 33 42
-0.57001520 0.27009110 0.87468809 32 32 39
-0.57021891 0.28820996 0.87847693 30 30 38
-0.56910501 0.29789960 0.88046879 29 29 37
-0.56999810 0.31016132 0.88293598 29 29 36
-0.56995438 0.32989988 0.88691019 29 28 36
-0.56996701 0.34981622 0.89082016 29 28 35
-0.57006883 0.36986755 0.89460658 29 28 34
-0.56997087 0.38994831 0.89820268 28 28 35
-0.57593880 0.40084754 0.89995142 28 28 35
-0.56978094 0.41046555 0.90165148 29 28 35
-0.57008931 0.43047558 0.90487244 29 29 34
-0.56997698 0.45063439 0.90779851 29 29 35
-0.57002258 0.47079585 0.91018051 28 27 33
-0.56993457 0.49027637 0.91149269 0 0 0
-0.56997691 0.50995347 0.91302166 0 0 0
-0.55041954 -0.56335225 0.83886363 0 0 0
-0.54995296 -0.54985882 0.83821201 0 0 0
-0.54991292 -0.53028779 0.83729855 0 0 0
-0.55005483 -0.50975818 0.83625317 0 0 0
-0.54999748 -0.48953857 0.83470622 0 0 0
-0.55054105 -0.46016662 0.79878183 119 176 193
-0.54473797 -0.46529101 0.81011380 121 167 188
-0.54776619 -0.47802598 0.83205427 26 37 41
-0.55025492 -0.44943079 0.79754512 126 174 194
-0.55024124 -0.42990451 0.79708914 123 170 190
-0.55004233 -0.41026726 0.79705843 118 165 184
-0.55003076 -0.39028308 0.79704157 114 159 178
-0.54998130 -0.37027428 0.79696985 109 153 172
-0.54995459 -0.35028345 0.79693109 105 146 167
-0.54993737 -0.33030033 0.79690612 99 141 163
-0.54992841 -0.31032314 0.79689316 95 135 160
-0.54993837 -0.28966787 0.79690762 92 132 156
-0.54995114 -0.26970198 0.79692617 91 128 156
-0.54997157 -0.24973860 0.79695578 86 125 152
-0.54998912 -0.22977260 0.79698118 86 121 148
-0.54999113 -0.20979941 0.79698413 83 118 145
-0.54999529 -0.18982673 0.79699019 81 114 144
-0.55002677 -0.16986209 0.79703584 82 112 142
-0.55008189 -0.14990178 0.79711576 80 109 141
-0.55013643 -0.12993720 0.79719479 78 109 140
-0.55029838 -0.10998984 0.79742942 62 83 112
-0.54980644 -0.09007488 0.79764440 57 66 90
-0.54994033 -0.07006127 0.79790971 56 66 90
-0.55008817 -0.05208198 0.79863665 69 89 119
-0.55005814 -0.04188995 0.80043786 111 139 163
-0.54998493 -0.03027192 0.80351584 125 143 162
-0.55005253 -0.01016475 0.80890367 134 144 150
-0.55000500 0.01014678 0.81419580 130 138 140
-0.55010825 0.02642863 0.81832847 137 140 138
-0.55016168 0.03646201 0.82087462 135 137 137
-0.54989734 0.05015049 0.82435165 135 140 140
-0.54997452 0.06981305 0.82931721 122 129 130
-0.54998796 0.08964709 0.83428139 103 115 120
-0.54991002 0.10678010 0.83851469 87 96 102
-0.55014485 0.11650748 0.84088909 71 77 92
-0.55012847 0.12960809 0.84400227 55 59 73
-0.54979362 0.15010272 0.84873578 44 47 58
-0.55001814 0.17061879 0.85332672 40 43 52
-0.54998110 0.18997189 0.85754561 38 40 47
-0.55133038 0.20037133 0.85979618 38 38 45
-0.54992044 0.21044177 0.86199938 36 37 46
-0.55001080 0.23020873 0.86637978 36 36 44
-0.54997494 0.25019877 0.87076469 34 33 41
-0.55022354 0.26984152 0.87496621 32 31 39
-0.54980977 0.28692367 0.87855570 31 30 38
-0.54970496 0.29716111 0.88064539 30 30 38
-0.54992967 0.31017374 0.88325749 31 30 38
-0.55008403 0.33000098 0.88720842 30 30 36
-0.54986278 0.34990183 0.89108794 30 30 35
-0.55011626 0.36996752 0.89484846 30 29 36
-0.55021735 0.38978134 0.89838950 29 29 35
-0.54332583 0.39933055 0.90003821 30 29 35
-0.54991731 0.41025076 0.90181352 29 28 34
-0.55005142 0.43050398 0.90502867 29 28 34
-0.55000086 0.45072380 0.90785564 30 29 36
-0.54997379 0.47064884 0.90997351 20 19 23
-0.54994382 0.49001127 0.91099966 0 0 0
-0.54998487 0.50978770 0.91248966 0 0 0
-0.53002747 -0.56341505 0.83839910 0 0 0
-0.52993251 -0.55015059 0.83777896 0 0 0
-0.53010834 -0.52964767 0.83683431 0 0 0
-0.52997743 -0.51032572 0.83580385 0 0 0
-0.53008215 -0.48990933 0.83428413 0 0 0
-0.53420710 -0.46746573 0.81662312 93 138 153
-0.52733550 -0.47614515 0.83133921 17 25 28
-0.53008460 -0.44814729 0.79784251 126 174 192
-0.52737475 -0.45879565 0.80242348 123 176 195
-0.53001714 -0.42982046 0.79729541 124 170 188
-0.53015102 -0.41033277 0.79718552 118 166 184
-0.53011404 -0.39032632 0.79712978 116 159 178
-0.53005470 -0.37030711 0.79704050 113 154 173
-0.53002277 -0.35031045 0.79699250 108 149 168
-0.52989487 -0.33017183 0.79697192 102 143 165
-0.53011198 -0.31021002 0.79696155 99 138 160
-0.53001622 -0.28969512 0.79698269 95 134 156
-0.53003932 -0.26973285 0.79701747 93 131 154
-0.53006213 -0.24976868 0.79705176 89 128 152
-0.53007366 -0.22979797 0.79706911 90 122 150
-0.53007423 -0.20982198 0.79706996 87 120 149
-0.53008777 -0.18985054 0.79709033 83 118 145
-0.53013074 -0.16988746 0.79715502 81 114 145
-0.53018703 -0.14992509 0.79723965 83 111 143
-0.53023419 -0.12995605 0.79731054 81 110 142
-0.52978754 -0.10992502 0.79753582 63 86 116
-0.52983567 -0.09004082 0.79774799 57 71 93
-0.53000766 -0.07006986 0.79800697 59 69 93
-0.53008850 -0.05227261 0.79863664 70 89 119
-0.53000136 -0.04195220 0.80041178 107 136 164
-0.53006443 -0.03031420 0.80353603 126 145 163
-0.52993087 -0.01024246 0.80889723 139 149 154
-0.53004118 0.01010045 0.81416877 134 142 143
-0.53005670 0.02645044 0.81831253 143 147 146
-0.53013958 0.03650140 0.82086123 139 141 141
-0.52988149 0.05015990 0.82432816 134 138 139
-0.53000027 0.06981091 0.82929103 118 128 130
-0.52999162 0.08972124 0.83427864 116 126 129
-0.52998237 0.10676653 0.83851043 108 115 119
-0.53025011 0.11643676 0.84089358 95 102 109
-0.52999482 0.12939645 0.84402950 69 76 84
-0.52998667 0.14991025 0.84885535 46 50 61
-0.53002589 0.17070058 0.85356966 42 44 54
-0.53001714 0.19013896 0.85784772 39 41 49
-0.53771185 0.20021142 0.85996059 38 38 46
-0.52983278 0.20991332 0.86218814 38 38 46
-0.52999314 0.23020384 0.86668229 38 37 44
-0.52991868 0.25017697 0.87106198 34 33 42
-0.53004017 0.26964942 0.87523086 33 32 39
-0.53009739 0.28593334 0.87864340 32 31 38
-0.53004325 0.29645330 0.88079408 31 31 37
-0.52988880 0.31031335 0.88357316 31 31 37
-0.53012526 0.33006974 0.88748470 31 30 36
-0.52987051 0.35003875 0.89136234 30 30 38
-0.53009027 0.37005317 0.89509154 30 30 36
-0.53017795 0.38917246 0.89850920 30 29 35
-0.52847407 0.39918555 0.90017887 30 29 35
-0.52991383 0.41034055 0.90203312 30 29 35
-0.53001293 0.43057015 0.90519979 29 29 35
-0.52995774 0.45069925 0.90789880 28 27 34
-0.53002189 0.47025947 0.90966443 13 12 16
-0.53000768 0.48977674 0.91056386 0 0 0
-0.52990476 0.50933637 0.91195179 0 0 0
-0.51012655 -0.56304193 0.83784389 0 0 0
-0.51027591 -0.54985896 0.83727085 0 0 0
-0.50976846 -0.52995272 0.83636874 0 0 0
-0.51001657 -0.51007654 0.83529237 0 0 0
-0.50993069 -0.49053198 0.83397142 0 0 0
-0.50732987 -0.46168790 0.81362873 118 165 186
-0.50938552 -0.47562198 0.83190482 8 12 13
-0.51053846 -0.44671155 0.79805063 122 173 191
-0.51274032 -0.45709225 0.80381640 122 174 195
-0.51017480 -0.42965014 0.79748309 125 170 187
-0.51023874 -0.40969766 0.79728997 120 166 184
-0.51017442 -0.38966657 0.79718930 116 159 176
-0.51010956 -0.37032915 0.79708791 113 155 173
-0.51007866 -0.35033115 0.79703964 110 150 169
-0.51006773 -0.32965980 0.79702258 107 145 167
-0.51006312 -0.30968192 0.79701539 100 140 162
-0.51007859 -0.28971580 0.79703955 97 136 158
-0.51010529 -0.26975442 0.79708126 95 132 155
-0.51012941 -0.24978973 0.79711896 93 130 153
-0.51014238 -0.22981818 0.79713924 90 126 151
-0.51014449 -0.20984109 0.79714256 90 122 150
-0.51016027 -0.18986882 0.79716722 86 119 146
-0.51021171 -0.16990718 0.79724763 83 117 145
-0.51026559 -0.14994244 0.79733184 82 114 143
-0.51030822 -0.12997038 0.79739843 83 111 142
-0.50986400 -0.11009945 0.79761821 65 88 118
-0.50989564 -0.09005020 0.79783109 60 72 96
-0.51005757 -0.07007669 0.79808443 58 72 97
-0.51008614 -0.05208530 0.79868196 69 90 121
-0.50993994 -0.04189018 0.80044267 113 140 170
-0.51000003 -0.03025069 0.80359001 131 149 166
-0.50994643 -0.01022388 0.80891850 140 150 157
-0.51003355 0.01011451 0.81416466 140 146 147
-0.50993879 0.02642797 0.81830110 138 141 141
-0.51013199 0.03646067 0.82084441 135 137 138
-0.50992662 0.05015912 0.82431544 134 138 140
-0.51003920 0.06981030 0.82928412 117 126 129
-0.51001260 0.08970655 0.83427988 121 130 133
-0.51023490 0.10614830 0.83836429 127 132 135
-0.50973182 0.11590519 0.84077757 118 124 127
-0.50999809 0.12947320 0.84410300 96 102 107
-0.51000466 0.15002795 0.84902142 50 55 66
-0.51000514 0.16998710 0.85360641 43 46 55
-0.51026026 0.18883660 0.85780916 41 42 52
-0.50656138 0.19874994 0.86006833 42 42 50
-0.50995741 0.20966690 0.86241237 39 39 47
-0.50999749 0.23035349 0.86698821 38 38 44
-0.51000106 0.25034556 0.87135448 35 35 42
-0.50997247 0.26959909 0.87548058 33 32 39
-0.51023892 0.28523421 0.87875939 33 32 38
-0.50999208 0.29587004 0.88094098 32 31 38
-0.50994058 0.31043216 0.88385675 32 31 37
-0.51008512 0.33023378 0.88776882 31 30 37
-0.50993288 0.35016074 0.89163558 31 30 37
-0.51006521 0.37017892 0.89535988 31 30 38
-0.51009947 0.38856952 0.89865273 31 31 36
-0.50970938 0.39858153 0.90029814 31 31 35
-0.50989537 0.41042596 0.90224332 30 30 34
-0.51000869 0.43058901 0.90532531 28 28 34
-0.51007079 0.45047770 0.90785083 27 26 33
-0.50998111 0.47040360 0.90925964 5 5 6
-0.50996545 0.48965663 0.91009997 0 0 0
-0.51008601 0.50934375 0.91145661 0 0 0
-0.49023650 -0.56265137 0.83726273 0 0 0
-0.48993098 -0.55000912 0.83674115 0 0 0
-0.48989241 -0.53012862 0.83590388 0 0 0
-0.49018950 -0.50973247 0.83480724 0 0 0
-0.48985757 -0.49043688 0.83351617 0 0 0
-0.48724729 -0.46049116 0.81649315 118 164 183
-0.48999250 -0.47401123 0.83152696 7 10 12
-0.49037523 -0.44556920 0.79815531 122 170 188
-0.49271397 -0.45604079 0.80695293 119 168 188
-0.48979838 -0.42988252 0.79766534 125 169 184
-0.48989863 -0.40992321 0.79739802 120 165 180
-0.49022819 -0.38969280 0.79724289 117 160 177
-0.49011309 -0.37029610 0.79712961 114 156 174
-0.49017203 -0.35030352 0.79708185 111 152 172
-0.49012087 -0.32967875 0.79706835 108 147 168
-0.49011668 -0.30969986 0.79706156 103 142 162
-0.49013580 -0.28973510 0.79709267 100 137 157
-0.49016024 -0.26977173 0.79713239 96 133 156
-0.49018236 -0.24980522 0.79716836 94 130 154
-0.49019357 -0.22983183 0.79718659 92 128 151
-0.49020294 -0.20985667 0.79720185 88 124 149
-0.49021896 -0.18988330 0.79722791 88 121 147
-0.49026602 -0.16991927 0.79730440 85 117 143
-0.49031626 -0.14995267 0.79738609 83 114 145
-0.48975698 -0.12989947 0.79745664 83 112 145
-0.48981042 -0.11002508 0.79768458 66 88 120
-0.48993923 -0.09005733 0.79789435 61 72 99
-0.49009472 -0.07008224 0.79814762 60 72 99
-0.49015342 -0.05232057 0.79869307 67 87 117
-0.48989058 -0.04195296 0.80042674 119 143 169
-0.48997328 -0.03027199 0.80360761 135 153 168
-0.49000436 -0.01020417 0.80893280 143 152 157
-0.49003253 0.01013596 0.81417129 142 146 147
-0.48989860 0.02646129 0.81830572 148 151 151
-0.49012154 0.03648051 0.82084131 142 145 144
-0.48998055 0.05015921 0.82431655 128 134 137
-0.49003389 0.06977886 0.82928672 118 127 131
-0.48999283 0.08967473 0.83429426 132 137 138
-0.49006597 0.10607763 0.83836820 130 134 136
-0.48996269 0.11584094 0.84077616 126 130 132
-0.49003505 0.12935742 0.84409579 117 120 124
-0.49002188 0.14994337 0.84906352 64 67 77
-0.48997807 0.16994136 0.85371655 46 49 58
-0.49004242 0.18867892 0.85795012 44 44 53
-0.49029674 0.19878549 0.86022213 43 42 51
-0.48995570 0.20986376 0.86266283 42 42 48
-0.49001505 0.23031417 0.86719617 39 40 44
-0.49005112 0.25035152 0.87157193 37 36 43
-0.49005168 0.26973180 0.87572765 34 33 40
-0.49035750 0.28482315 0.87889463 33 33 37
-0.48968562 0.29542609 0.88107498 33 32 38
-0.49002763 0.31049389 0.88410148 32 31 37
-0.49002555 0.33030912 0.88802360 32 31 36
-0.48997403 0.35024514 0.89188795 31 31 36
-0.49008105 0.37028010 0.89560467 31 30 36
-0.48990641 0.38789016 0.89875423 31 30 36
-0.49036668 0.39787923 0.90036623 31 31 35
-0.48989541 0.41043104 0.90237779 30 30 34
-0.49000759 0.43049689 0.90533721 29 28 35
-0.48998248 0.45065760 0.90773549 27 27 32
-0.49005295 0.46972439 0.90867553 0 0 0
-0.49001383 0.49015476 0.90960112 0 0 0
-0.48999783 0.50959095 0.91091539 0 0 0
-0.47036266 -0.56254316 0.83671447 0 0 0
-0.46978287 -0.55010422 0.83622751 0 0 0
-0.47032107 -0.52994995 0.83544636 0 0 0
-0.46963569 -0.51000136 0.83438987 0 0 0
-0.47017768 -0.48982397 0.83306034 0 0 0
-0.46957196 -0.47292555 0.83143340 2 3 3
-0.47049818 -0.44412650 0.79835680 122 167 184
-0.47087062 -0.45499276 0.81036185 103 148 164
-0.46079553 -0.45943234 0.82217479 110 168 192
-0.46985517 -0.42992625 0.79774648 123 165 181
-0.46997907 -0.40961777 0.79746933 117 162 179
-0.47026611 -0.38970814 0.79727422 114 159 176
-0.47019266 -0.36966901 0.79714970 113 157 173
-0.47016275 -0.34966833 0.79709896 113 153 172
-0.47015962 -0.32968920 0.79709366 109 149 168
-0.47016062 -0.30971296 0.79709533 105 144 164
-0.47017794 -0.28974675 0.79712471 104 138 158
-0.47020019 -0.26978188 0.79716243 97 135 156
-0.47022412 -0.24981608 0.79720302 97 131 154
-0.47023324 -0.22984103 0.79721849 95 129 152
-0.47024456 -0.20986611 0.79723769 90 127 148
-0.47025916 -0.18989152 0.79726244 88 122 148
-0.47029937 -0.16992486 0.79733058 86 120 146
-0.47034379 -0.14995640 0.79740586 85 116 144
-0.46979716 -0.13006848 0.79748225 83 113 144
-0.46983086 -0.11002794 0.79770504 68 89 122
-0.46995548 -0.09005982 0.79791666 62 74 99
-0.47011392 -0.07008557 0.79818573 59 74 99
-0.47010679 -0.05204530 0.79878023 68 88 119
-0.47008099 -0.04192425 0.80047891 121 145 170
-0.46999131 -0.03033007 0.80360863 136 151 167
-0.46996748 -0.01017826 0.80894290 144 151 156
-0.46998147 0.01018172 0.81418658 143 148 148
-0.46993771 0.02644995 0.81829926 143 146 147
-0.46997527 0.03646023 0.82083458 146 149 148
-0.46998702 0.05014121 0.82431850 126 133 137
-0.47002546 0.06981176 0.82930113 123 132 137
-0.46996145 0.08968654 0.83430130 138 143 145
-0.46996893 0.10606615 0.83838058 138 142 144
-0.47006048 0.11579808 0.84077326 138 145 143
-0.47005993 0.12937533 0.84410227 133 135 134
-0.47000344 0.14999272 0.84908047 87 89 98
-0.46996666 0.17005882 0.85380582 53 54 65
-0.47021121 0.18831628 0.85796934 47 47 56
-0.46859149 0.19838034 0.86025573 47 47 52
-0.46996442 0.20974531 0.86277068 45 45 49
-0.47025386 0.23013681 0.86731203 41 40 46
-0.46978836 0.25004300 0.87167837 39 38 43
-0.47009604 0.26977024 0.87591359 36 35 41
-0.46997697 0.28435285 0.87897806 34 34 38
-0.46992584 0.29495680 0.88115672 33 33 37
-0.47008233 0.31056195 0.88430921 32 32 37
-0.46993631 0.33037171 0.88824405 32 31 36
-0.46998323 0.35033497 0.89210436 31 30 36
-0.47005392 0.37035607 0.89578857 31 30 37
-0.47011254 0.38775886 0.89886836 30 29 36
-0.46977337 0.39766682 0.90044787 31 30 36
-0.46997974 0.41059755 0.90246543 31 30 36
-0.46995854 0.43072453 0.90531242 32 30 37
-0.47007216 0.45040193 0.90740976 23 22 26
-0.46974264 0.47023080 0.90796277 0 0 0
-0.47024582 0.49007264 0.90897379 0 0 0
-0.47004570 0.50927992 0.91026046 0 0 0
-0.44987373 -0.56266701 0.83621074 0 0 0
-0.45020591 -0.54996091 0.83575687 0 0 0
-0.44995053 -0.53011047 0.83501201 0 0 0
-0.44981852 -0.51020928 0.83402764 0 0 0
-0.45013495 -0.48977442 0.83268370 0 0 0
-0.44978920 -0.47083503 0.83073778 4 5 6
-0.45147896 -0.44284943 0.79858832 122 165 182
-0.44639132 -0.44837086 0.80502573 115 162 181
-0.44827676 -0.45683904 0.82007051 108 155 170
-0.44994770 -0.43000873 0.79789900 120 163 178
-0.44974627 -0.40982707 0.79754129 118 160 176
-0.45004723 -0.38987943 0.79730896 115 157 175
-0.45023358 -0.36968473 0.79718361 114 155 171
-0.45020306 -0.34968178 0.79712959 114 152 171
-0.45020351 -0.32970439 0.79713042 112 148 167
-0.45020173 -0.30972539 0.79712725 108 144 164
-0.45021398 -0.28975556 0.79714890 105 139 159
-0.45023235 -0.26978830 0.79718135 99 135 157
-0.45024919 -0.24981862 0.79721112 97 131 155
-0.45026616 -0.22984754 0.79724124 96 129 153
-0.45028407 -0.20987540 0.79727299 93 127 150
-0.45029582 -0.18989900 0.79729382 91 122 148
-0.44990785 -0.16976104 0.79735899 89 121 145
-0.44967790 -0.14995904 0.79741984 83 117 144
-0.44972239 -0.12998665 0.79749875 85 113 144
-0.44985206 -0.11003119 0.79772872 67 91 122
-0.44996966 -0.09006215 0.79793722 60 76 101
-0.45012879 -0.07008847 0.79821948 61 74 100
-0.45014669 -0.05233507 0.79884264 67 84 115
-0.45003870 -0.04192607 0.80051340 119 142 169
-0.44995681 -0.03020804 0.80365254 133 150 167
-0.44992720 -0.01021082 0.80893607 145 153 157
-0.44997888 0.01013935 0.81417704 145 149 149
-0.44997588 0.02643855 0.81829053 148 151 151
-0.44997454 0.03646054 0.82084126 150 151 150
-0.44999581 0.05016038 0.82433551 123 132 135
-0.45002625 0.06977327 0.82931483 122 129 134
-0.44999499 0.08967441 0.83432659 148 153 153
-0.44997427 0.10602344 0.83840809 128 131 135
-0.45002877 0.11578167 0.84080724 141 146 147
-0.44998198 0.12944662 0.84414257 147 152 151
-0.44998293 0.15004186 0.84909577 112 117 122
-0.45000402 0.16995571 0.85381231 66 68 77
-0.44997533 0.18787738 0.85795442 52 52 58
-0.45018048 0.19805449 0.86027538 48 48 53
-0.45001276 0.20983895 0.86291383 47 46 50
-0.45000625 0.22964184 0.86733607 45 43 47
-0.45003144 0.24964098 0.87172708 40 39 43
-0.44999884 0.26982164 0.87608001 38 37 41
-0.45059069 0.28405678 0.87907271 35 34 39
-0.44961075 0.29444347 0.88122153 33 33 37
-0.45005981 0.31060758 0.88449242 32 32 37
-0.44987873 0.33048735 0.88843730 32 30 37
-0.44995494 0.35039275 0.89226404 32 30 36
-0.45005561 0.37042555 0.89592044 32 31 36
-0.44988528 0.38718517 0.89886987 33 32 38
-0.45018735 0.39717423 0.90043857 33 33 38
-0.45003701 0.41062305 0.90248875 35 35 40
-0.44994487 0.43064337 0.90518278 39 38 44
-0.45011403 0.45011575 0.90680313 19 18 21
-0.44997759 0.46975254 0.90722413 0 0 0
-0.45004900 0.49023053 0.90828890 0 0 0
-0.45002541 0.50887944 0.90954468 0 0 0
-0.43013705 -0.56237294 0.83577372 0 0 0
-0.42989985 -0.54979225 0.83531289 0 0 0
-0.42979573 -0.53000934 0.83459622 0 0 0
-0.43019320 -0.50961732 0.83365844 0 0 0
-0.42982273 -0.48958879 0.83236825 0 0 0
-0.42998712 -0.46999052 0.83069704 0 0 0
-0.43118502 -0.44146796 0.79871900 115 160 176
-0.42969491 -0.45125503 0.81403721 93 137 149
-0.42552763 -0.45770990 0.82590500 21 31 33
-0.43002617 -0.43008434 0.79803846 118 159 176
-0.42978973 -0.40985700 0.79759961 118 157 173
-0.43010878 -0.38959379 0.79734956 116 156 171
-0.43027703 -0.36970405 0.79722531 116 153 170
-0.43025013 -0.34970190 0.79717549 114 151 169
-0.43025405 -0.32972604 0.79718281 112 148 165
-0.43025340 -0.30974654 0.79718165 109 144 164
-0.43026024 -0.28977208 0.79719426 103 138 160
-0.43026629 -0.26979649 0.79720542 103 135 157
-0.43028252 -0.24982623 0.79723552 97 132 154
-0.43030506 -0.22985792 0.79727730 95 130 154
-0.43032581 -0.20988664 0.79731577 94 127 151
-0.43034005 -0.18991053 0.79734215 92 123 149
-0.42995990 -0.17010829 0.79738248 90 120 147
-0.42970219 -0.14996224 0.79743704 87 118 146
-0.42975168 -0.12999160 0.79752894 85 114 144
-0.42987729 -0.11003576 0.79776208 69 91 121
-0.42998406 -0.09006477 0.79796019 62 77 104
-0.43014439 -0.07009176 0.79825770 63 74 100
-0.42998807 -0.05209359 0.79894529 68 85 114
-0.43000583 -0.04192897 0.80056853 115 140 167
-0.42997352 -0.03038251 0.80362183 136 151 168
-0.42994245 -0.01025006 0.80894402 147 154 159
-0.42998685 0.01009725 0.81418597 142 147 147
-0.43003116 0.02642817 0.81831345 144 148 149
-0.42999117 0.03644201 0.82087394 148 151 152
-0.43002374 0.05013774 0.82437890 128 133 139
-0.43004817 0.06981937 0.82939179 126 133 137
-0.43004582 0.08966604 0.83438766 143 147 147
-0.42999306 0.10603910 0.83847708 151 152 151
-0.42985688 0.11583375 0.84087939 147 148 148
-0.42997310 0.12944541 0.84418786 150 154 154
-0.43003324 0.14989924 0.84909554 120 125 130
-0.42995821 0.16997678 0.85382341 92 97 104
-0.42997487 0.18790463 0.85798793 71 72 78
-0.43013193 0.19806583 0.86032462 59 57 66
-0.43003261 0.20993079 0.86300989 52 51 54
-0.43000442 0.22971266 0.86744601 47 45 47
-0.43004114 0.24977860 0.87187296 42 41 44
-0.42994342 0.26993215 0.87623881 39 38 41
-0.43026629 0.28374302 0.87915223 36 36 39
-0.42989369 0.29348825 0.88117259 34 34 37
-0.43004037 0.30984797 0.88448101 34 33 37
-0.42991362 0.33050860 0.88856018 35 34 38
-0.42995505 0.35043236 0.89236506 37 36 40
-0.43002878 0.37044339 0.89599997 41 41 45
-0.43001142 0.38718871 0.89893063 47 46 52
-0.42997282 0.39719060 0.90047572 52 51 56
-0.43001423 0.41057518 0.90247276 58 58 63
-0.43012665 0.43034734 0.90500674 64 65 68
-0.42985038 0.45010693 0.90601903 15 15 16
-0.43001622 0.47019843 0.90650341 0 0 0
-0.43007293 0.48959989 0.90750835 0 0 0
-0.43001195 0.50845098 0.90877889 0 0 0
-0.40970648 -0.56208953 0.83535254 0 0 0
-0.40994428 -0.55025859 0.83492545 0 0 0
-0.41001933 -0.52998767 0.83420150 0 0 0
-0.41021159 -0.51027027 0.83334158 0 0 0
-0.40968337 -0.49026922 0.83217514 0 0 0
-0.41021083 -0.46985754 0.83063310 0 0 0
-0.41474404 -0.44104579 0.79915870 115 157 173
-0.40691399 -0.44448010 0.80772922 115 155 170
-0.40896945 -0.45738599 0.82818846 20 28 31
-0.41018882 -0.42974662 0.79798534 119 156 171
-0.40980991 -0.40986652 0.79761842 117 155 171
-0.40969503 -0.38976722 0.79739490 117 153 170
-0.41007951 -0.36988499 0.79726999 112 153 170
-0.41029679 -0.34972368 0.79722518 112 150 167
-0.41030927 -0.32975359 0.79724947 114 146 165
-0.41030969 -0.30977322 0.79725028 109 143 163
-0.41031205 -0.28979413 0.79725487 108 139 160
-0.41031057 -0.26981226 0.79725196 103 135 157
-0.40985811 -0.24968532 0.79728564 100 132 154
-0.40966148 -0.22987303 0.79732963 96 129 153
-0.40968102 -0.20990028 0.79736765 93 129 150
-0.40969282 -0.18992209 0.79739058 93 123 149
-0.40970299 -0.16994200 0.79741038 88 122 146
-0.40973180 -0.14996773 0.79746646 89 119 145
-0.40978700 -0.12999892 0.79757390 85 117 144
-0.40991013 -0.11004284 0.79781358 69 92 121
-0.41000879 -0.09006995 0.79800563 64 76 104
-0.41015903 -0.07009522 0.79829802 63 74 99
-0.41002583 -0.05231341 0.79902937 68 85 115
-0.40996996 -0.04193185 0.80062335 104 130 157
-0.40999471 -0.03020286 0.80369742 136 151 168
-0.41001728 -0.01020488 0.80900012 152 158 161
-0.41001190 0.01009756 0.81424142 148 152 153
-0.41010310 0.02641895 0.81837171 149 153 153
-0.40988207 0.03642507 0.82094196 148 149 149
-0.40996392 0.05016120 0.82446606 127 134 138
-0.41002357 0.06982704 0.82948269 128 134 138
-0.40999891 0.08972085 0.83448277 147 152 151
-0.41001118 0.10617716 0.83858228 141 143 143
-0.40982920 0.11590977 0.84096580 149 151 149
-0.41002393 0.12938584 0.84422734 148 151 151
-0.40997378 0.15004594 0.84916560 137 144 147
-0.40998549 0.17004216 0.85385778 122 128 132
-0.41001562 0.18784021 0.85796817 118 121 124
-0.41004604 0.19806037 0.86030091 111 112 116
-0.41000806 0.20984717 0.86298199 94 95 97
-0.41009024 0.22968719 0.86747324 65 63 67
-0.40996375 0.24966756 0.87190976 49 49 53
-0.40996848 0.26988588 0.87628991 45 44 48
-0.41008783 0.28373814 0.87920966 45 43 49
-0.41012045 0.29350685 0.88122844 45 45 49
-0.40989790 0.30988499 0.88453631 48 48 52
-0.40996677 0.33052348 0.88860015 53 53 58
-0.40998956 0.35044511 0.89241014 65 65 70
-0.40998059 0.37046678 0.89604441 80 81 84
-0.41011734 0.38717569 0.89895305 92 93 95
-0.40974783 0.39719862 0.90049392 95 99 103
-0.40999129 0.41052635 0.90245475 103 106 107
-0.41012047 0.43036185 0.90488241 108 110 111
-0.41010775 0.45030224 0.90522017 2 2 2
-0.40994044 0.46986875 0.90576901 0 0 0
-0.40985530 0.49019051 0.90681511 0 0 0
-0.41019181 0.50871230 0.90807764 0 0 0
-0.39002431 -0.56181561 0.83494544 0 0 0
-0.39017380 -0.54982115 0.83452439 0 0 0
-0.39022170 -0.53007755 0.83382507 0 0 0
-0.38982128 -0.51009744 0.83296953 0 0 0
-0.38993188 -0.49007564 0.83189692 0 0 0
-0.39010875 -0.46983913 0.83051701 0 0 0
-0.39021635 -0.44624368 0.81412739 85 114 127
-0.38886527 -0.45690479 0.82872180 1 1 2
-0.39002117 -0.42880906 0.79795558 117 154 170
-0.39779294 -0.43939266 0.80118161 118 154 169
-0.38982727 -0.40987407 0.79763323 115 154 169
-0.38973740 -0.38979396 0.79744969 117 152 169
-0.39014777 -0.36959512 0.79732817 117 150 168
-0.39034603 -0.34975005 0.79728528 113 148 166
-0.39035954 -0.32977979 0.79731284 114 145 165
-0.39036315 -0.30980039 0.79732023 111 143 162
-0.39036605 -0.28982004 0.79732615 107 139 160
-0.39036022 -0.26983336 0.79731419 102 136 158
-0.38992521 -0.25001985 0.79734213 97 133 155
-0.38970818 -0.22989038 0.79738985 97 130 152
-0.38972344 -0.20991438 0.79742107 94 127 152
-0.38972923 -0.18993217 0.79743285 92 124 149
-0.38974052 -0.16995172 0.79745596 90 121 145
-0.38976925 -0.14997681 0.79751478 89 119 146
-0.38981914 -0.13000594 0.79761688 86 117 145
-0.38994031 -0.11004987 0.79786486 70 89 121
-0.39004136 -0.09007738 0.79807168 64 76 101
-0.39018930 -0.07010188 0.79837445 63 74 99
-0.39006498 -0.05256090 0.79907249 68 83 111
-0.38921120 -0.04237119 0.80056217 111 126 157
-0.38998086 -0.03031411 0.80372666 139 153 169
-0.39001427 -0.01016079 0.80909415 155 160 162
-0.39004825 0.01015552 0.81434559 151 156 158
-0.39003087 0.02648892 0.81848166 150 153 155
-0.38991859 0.03646982 0.82105011 151 155 155
-0.38995468 0.05017403 0.82455878 127 133 138
-0.39004788 0.06978562 0.82955621 129 136 141
-0.38989765 0.08972633 0.83456758 146 150 151
-0.39002766 0.10612576 0.83864568 151 153 154
-0.39009767 0.11583015 0.84100821 136 138 142
-0.39001095 0.12944517 0.84429251 151 155 156
-0.39001928 0.14999187 0.84918636 125 132 136
-0.39002267 0.17002852 0.85390260 113 122 127
-0.39002018 0.18795517 0.85803725 125 130 133
-0.38999756 0.19807334 0.86035726 148 150 147
-0.39005761 0.20989337 0.86303051 132 133 133
-0.39005184 0.22971919 0.86750533 104 106 108
-0.38997889 0.24973249 0.87195481 80 81 87
-0.39003204 0.26984927 0.87629538 78 79 84
-0.38973551 0.28364211 0.87919313 71 72 78
-0.39020648 0.29355870 0.88123487 74 77 83
-0.38990612 0.30990570 0.88454457 83 85 90
-0.39001439 0.33053549 0.88863228 80 83 89
-0.39003104 0.35047676 0.89247801 93 96 99
-0.39001458 0.37049269 0.89613128 112 116 116
-0.39024774 0.38713587 0.89902041 120 124 124
-0.38954379 0.39722875 0.90056223 125 130 129
-0.39011531 0.41038140 0.90245318 129 133 133
-0.38976014 0.43031808 0.90467573 104 107 107
-0.38965757 0.44974260 0.90443608 0 0 0
-0.38977712 0.46989479 0.90512255 0 0 0
-0.39028332 0.48979781 0.90616219 0 0 0
-0.38998655 0.50857098 0.90740855 0 0 0
-0.37113015 -0.56170794 0.83455983 0 0 0
-0.37002501 -0.54995114 0.83412961 0 0 0
-0.36986601 -0.52982125 0.83342192 0 0 0
-0.36970940 -0.51001391 0.83259572 0 0 0
-0.37023909 -0.48967143 0.83157566 0 0 0
-0.36989130 -0.46968574 0.83024614 0 0 0
-0.37366574 -0.44241116 0.81052497 97 131 145
-0.36968435 -0.45492502 0.82794467 4 5 6
-0.37034254 -0.42759273 0.79796101 119 152 167
-0.36697200 -0.43716748 0.80277229 112 148 167
-0.36984611 -0.40988424 0.79765317 118 151 167
-0.36978429 -0.38982833 0.79752012 118 150 168
-0.36973364 -0.36979006 0.79741088 117 148 166
-0.36971298 -0.34978565 0.79736639 112 147 166
-0.36972296 -0.32981083 0.79738791 113 144 164
-0.36972778 -0.30983072 0.79739832 111 143 162
-0.36973069 -0.28984855 0.79740462 106 139 159
-0.36972791 -0.26986194 0.79739865 104 136 157
-0.36973733 -0.24988371 0.79741889 101 133 154
-0.36975640 -0.22991060 0.79746000 97 130 152
-0.36977019 -0.20993247 0.79748974 96 127 151
-0.36977141 -0.18994636 0.79749237 92 124 149
-0.36978286 -0.16996474 0.79751711 92 121 146
-0.36981243 -0.14998923 0.79758086 91 119 145
-0.36985769 -0.13001595 0.79767841 88 117 145
-0.36997955 -0.11006040 0.79794133 70 91 119
-0.37008235 -0.09008767 0.79816312 63 76 102
-0.37022745 -0.07011079 0.79847609 64 73 99
-0.36980257 -0.05225908 0.79916502 68 83 111
-0.37006526 -0.04199371 0.80065662 110 127 154
-0.37001467 -0.03031348 0.80378743 140 153 169
-0.36995675 -0.01028458 0.80913230 153 158 161
-0.36998190 0.01015681 0.81443436 155 158 159
-0.37000411 0.02577659 0.81840569 139 144 146
-0.37001820 0.03575767 0.82097741 145 148 149
-0.36999133 0.05013898 0.82463693 128 135 140
-0.37011779 0.06985671 0.82964661 127 135 140
-0.36988912 0.08970753 0.83463459 147 149 150
-0.37031688 0.10591664 0.83866195 145 147 149
-0.36979492 0.11557218 0.84100295 136 139 140
-0.36993785 0.12946112 0.84434447 149 151 150
-0.37011293 0.14995060 0.84921228 134 138 141
-0.36993771 0.16991830 0.85391862 118 125 132
-0.36995298 0.18781038 0.85805722 137 143 144
-0.36995264 0.19808963 0.86042804 159 164 161
-0.37000942 0.20989080 0.86309018 150 154 153
-0.37002485 0.22973219 0.86757284 127 132 136
-0.37001035 0.24972603 0.87202288 102 108 117
-0.36999842 0.26993596 0.87638937 104 112 117
-0.37005884 0.28358438 0.87925937 96 100 105
-0.36987344 0.29338100 0.88127876 94 98 105
-0.36994611 0.30998097 0.88463198 105 110 114
-0.37002508 0.33058880 0.88873603 97 104 110
-0.37002860 0.35052531 0.89260154 99 107 111
-0.36999704 0.37055169 0.89626209 117 123 125
-0.37048132 0.38665141 0.89902765 110 116 117
-0.36947362 0.39661449 0.90052172 127 134 135
-0.37008297 0.41054405 0.90245015 129 136 138
-0.36986169 0.43037650 0.90422581 79 81 82
-0.37005234 0.44971194 0.90387732 0 0 0
-0.36994060 0.47034147 0.90462724 0 0 0
-0.36983770 0.49027364 0.90566714 0 0 0
-0.37017431 0.50805794 0.90685145 0 0 0
-0.34999380 -0.56198390 0.83412431 0 0 0
-0.34982556 -0.55018709 0.83372345 0 0 0
-0.34979498 -0.53016230 0.83303560 0 0 0
-0.34998487 -0.50998271 0.83220142 0 0 0
-0.35038903 -0.48988684 0.83123933 0 0 0
-0.34953234 -0.46982526 0.83001834 0 0 0
-0.34665743 -0.44182093 0.81511589 70 93 104
-0.35001705 -0.45430141 0.82819477 0 0 0
-0.35024428 -0.42644727 0.79802561 115 149 165
-0.35326586 -0.43851879 0.80807561 106 137 152
-0.34988260 -0.40991657 0.79771607 116 149 165
-0.34983601 -0.38987209 0.79760968 115 148 165
-0.34978455 -0.36982780 0.79749226 114 147 164
-0.34976804 -0.34982435 0.79745462 113 146 164
-0.34977676 -0.32984663 0.79747447 112 143 162
-0.34978417 -0.30986688 0.79749141 111 140 161
-0.34978795 -0.28988324 0.79750005 107 138 158
-0.34978792 -0.26989624 0.79750007 105 135 154
-0.34979420 -0.24991368 0.79751441 101 133 154
-0.34980781 -0.22993523 0.79754541 99 130 151
-0.34982077 -0.20995489 0.79757493 96 127 150
-0.34982222 -0.18996681 0.79757821 93 123 149
-0.34983667 -0.16998475 0.79761115 91 120 146
-0.34986542 -0.15000730 0.79767677 88 118 144
-0.34990523 -0.13003046 0.79776750 88 118 145
-0.35002745 -0.11007483 0.79804619 70 91 117
-0.35012865 -0.09010047 0.79827697 63 75 101
-0.35011372 -0.07000716 0.79859883 65 73 98
-0.34985214 -0.05221743 0.79922088 70 83 111
-0.34980037 -0.04193495 0.80068316 108 127 154
-0.35004761 -0.03025110 0.80387638 136 150 166
-0.35003635 -0.01020152 0.80923016 150 156 159
-0.34990965 0.01010144 0.81450280 148 151 153
-0.35006306 0.02576685 0.81849444 138 140 145
-0.35018919 0.03576143 0.82106379 143 146 150
-0.34991828 0.05015493 0.82471867 129 136 140
-0.35012484 0.06984607 0.82970918 128 134 140
-0.34992408 0.08976723 0.83470738 143 146 148
-0.35010505 0.10534211 0.83857714 150 154 154
-0.34994689 0.11511632 0.84094314 145 148 149
-0.34997645 0.12940797 0.84437465 139 142 144
-0.35000514 0.14922516 0.84908507 141 146 147
-0.35002782 0.16931972 0.85383258 123 130 136
-0.34995801 0.18803404 0.85816706 127 134 136
-0.34990260 0.19810484 0.86049408 130 137 137
-0.35006647 0.20986131 0.86314720 134 138 139
-0.34999727 0.22964809 0.86762327 138 142 144
-0.34999429 0.24976313 0.87212135 114 121 127
-0.34997862 0.27003638 0.87652921 117 124 131
-0.34994165 0.28297717 0.87927782 114 121 127
-0.34999387 0.29277779 0.88132418 100 108 115
-0.34996911 0.31001100 0.88481945 105 112 117
-0.35000443 0.33065088 0.88892930 112 116 122
-0.35003987 0.35059290 0.89277378 115 123 127
-0.34998366 0.37059946 0.89641387 97 104 111
-0.35006806 0.38649205 0.89911891 115 126 130
-0.35032632 0.39636844 0.90054370 126 132 136
-0.34985228 0.41058311 0.90241509 158 164 166
-0.35029172 0.43063215 0.90370213 60 63 63
-0.35019622 0.45003714 0.90345668 0 0 0
-0.35026948 0.46978998 0.90423264 0 0 0
-0.34991207 0.49020658 0.90527793 0 0 0
-0.34978392 0.50792247 0.90643476 0 0 0
-0.32962716 -0.56167279 0.83366254 0 0 0
-0.32977484 -0.55008199 0.83328863 0 0 0
-0.33005098 -0.52993625 0.83261699 0 0 0
-0.33032569 -0.51009600 0.83179311 0 0 0
-0.32994183 -0.49011697 0.83082648 0 0 0
-0.32973729 -0.47026127 0.82969728 0 0 0
-0.33743613 -0.44200317 0.81710037 52 70 77
-0.33010604 -0.45247416 0.82761333 3 4 4
-0.33084916 -0.42552328 0.79827228 111 148 160
-0.32615290 -0.43281673 0.80414226 112 147 156
-0.32995023 -0.40999167 0.79786141 114 148 162
-0.32989211 -0.38992625 0.79772061 114 147 162
-0.32984144 -0.36987696 0.79759816 114 145 162
-0.32982187 -0.34986655 0.79755080 112 143 162
-0.32982703 -0.32988334 0.79756321 113 141 160
-0.32983882 -0.30990582 0.79759176 107 138 158
-0.32984744 -0.28992418 0.79761272 106 136 156
-0.32985067 -0.26993700 0.79762054 105 134 155
-0.32985565 -0.24995072 0.79763256 101 131 153
-0.32986559 -0.22996727 0.79765651 99 129 151
-0.32987333 -0.20998130 0.79767515 96 126 149
-0.32987337 -0.18998992 0.79767527 94 122 147
-0.32988869 -0.17000627 0.79771235 92 120 145
-0.32992236 -0.15002929 0.79779383 90 117 145
-0.32996644 -0.13005215 0.79790054 89 117 144
-0.33007963 -0.11009248 0.79817421 71 88 117
-0.33018093 -0.09011648 0.79841925 62 75 100
-0.33016444 -0.07024224 0.79871795 64 72 95
-0.32984097 -0.05222072 0.79926698 70 81 108
-0.32995573 -0.04190376 0.80068824 97 115 146
-0.32997835 -0.03031102 0.80391993 130 145 163
-0.33006456 -0.01014417 0.80932198 152 158 162
-0.32992871 0.01015887 0.81459371 144 146 151
-0.33002196 0.02575017 0.81856299 134 138 142
-0.33022617 0.03580648 0.82113910 139 144 147
-0.32988259 0.05018766 0.82478497 135 141 145
-0.33006622 0.06985000 0.82975569 139 143 145
-0.32995006 0.08975669 0.83474766 144 147 149
-0.33003774 0.10533191 0.83861521 154 158 158
-0.32985004 0.11519485 0.84099894 129 133 138
-0.33001026 0.12951696 0.84444192 132 136 140
-0.33004636 0.14927700 0.84914518 137 140 142
-0.33006797 0.16920728 0.85386035 117 124 128
-0.33011474 0.18714278 0.85801877 112 118 124
-0.32958100 0.19745576 0.86040660 129 137 139
-0.33006926 0.20996068 0.86323681 121 126 130
-0.32997496 0.22989480 0.86776150 128 134 141
-0.32997178 0.24986598 0.87223807 110 119 125
-0.33001278 0.27002704 0.87663945 104 112 116
-0.33041034 0.28297239 0.87940192 117 123 127
-0.32978767 0.29269670 0.88144402 103 111 118
-0.33003064 0.31005826 0.88497978 122 132 134
