ply
format ascii 1.0
element vertex 1116
property float x
property float y
property float z
property uchar red
property uchar green
property uchar blue
end_header
-0.83008510 -0.57010079 0.88955050 0 0 0
-0.82983530 -0.55037806 0.88848813 0 0 0
-0.83068226 -0.52278292 0.87340842 48 44 46
-0.83032277 -0.53565115 0.88721884 3 3 3
-0.83065773 -0.50951513 0.86775123 49 43 46
-0.82913072 -0.49054723 0.86690569 51 48 49
-0.82713930 -0.47053192 0.86612570 56 53 54
-0.82701496 -0.45057280 0.86626851 64 57 56
-0.82677940 -0.43016929 0.86744990 57 54 55
-0.82622745 -0.41046251 0.86897853 60 57 55
-0.83860058 -0.40662101 0.88077271 0 0 0
-0.82645061 -0.39095719 0.87219412 45 43 41
-0.83760333 -0.38766222 0.88185951 0 0 0
-0.82683826 -0.37284852 0.87584707 27 24 23
-0.83593592 -0.36851427 0.88228509 0 0 0
-0.82233511 -0.34794342 0.87641931 29 28 28
-0.83422273 -0.34973364 0.88255195 0 0 0
-0.82115963 -0.33225561 0.87856326 26 25 23
-0.83170366 -0.32981169 0.88281690 0 0 0
-0.83024390 -0.31004856 0.88295926 0 0 0
-0.83007022 -0.29041446 0.88313717 0 0 0
-0.83025554 -0.27022281 0.88326514 0 0 0
-0.83014794 -0.24975494 0.88345744 0 0 0
-0.83046758 -0.22950897 0.88368433 0 0 0
-0.82994455 -0.20975620 0.88387305 0 0 0
-0.83016099 -0.18994563 0.88410390 0 0 0
-0.82978113 -0.17026510 0.88431412 0 0 0
-0.82975910 -0.15028081 0.88449054 0 0 0
-0.82992069 -0.13043219 0.88466275 0 0 0
-0.83009271 -0.11057721 0.88484609 0 0 0
-0.83043052 -0.09019328 0.88504707 0 0 0
-0.83027426 -0.06957941 0.88520262 0 0 0
-0.82989566 -0.04932834 0.88533403 0 0 0
-0.82995601 -0.02954210 0.88551573 0 0 0
-0.83015981 -0.00964738 0.88573323 0 0 0
-0.82977309 0.01011243 0.88593745 0 0 0
-0.82981366 0.03017182 0.88618143 0 0 0
-0.83008545 0.05010032 0.88647172 0 0 0
-0.83013067 0.07021608 0.88678598 0 0 0
-0.82990655 0.09000110 0.88709914 0 0 0
-0.83006892 0.10983865 0.88745059 0 0 0
-0.82981114 0.12997168 0.88781763 0 0 0
-0.83022672 0.14999566 0.88826229 0 0 0
-0.82991241 0.17004740 0.88874751 0 0 0
-0.82993522 0.18996832 0.88932780 0 0 0
-0.83006905 0.21045757 0.89000694 0 0 0
-0.82997382 0.23029441 0.89070191 0 0 0
-0.82992485 0.25017654 0.89141455 0 0 0
-0.83018258 0.26966573 0.89213820 0 0 0
-0.82990751 0.28966852 0.89287425 0 0 0
-0.83009871 0.31017509 0.89366901 0 0 0
-0.82993385 0.33033382 0.89449707 0 0 0
-0.83015860 0.35022607 0.89537881 0 0 0
-0.82992965 0.36976008 0.89623117 0 0 0
-0.83003693 0.39032331 0.89712289 0 0 0
-0.82999120 0.41005673 0.89797372 0 0 0
-0.82998467 0.42985725 0.89886938 0 0 0
-0.82785006 0.44800393 0.89960254 0 0 0
-0.83483407 0.45458262 0.90023053 0 0 0
-0.82067703 0.46203436 0.89995935 0 0 0
-0.83018125 0.46981586 0.90074925 0 0 0
-0.82992966 0.49010335 0.90172111 0 0 0
-0.83010351 0.50658457 0.90250238 0 0 0
-0.81027150 -0.60093789 0.89079914 0 0 0
-0.80982152 -0.58983428 0.89030453 0 0 0
-0.81019105 -0.56989037 0.88936353 0 0 0
-0.80989952 -0.55011974 0.88825091 0 0 0
-0.81063225 -0.52250777 0.87294873 46 46 45
-0.81035997 -0.53568118 0.88734702 0 0 0
-0.81023638 -0.50881003 0.86585993 49 46 47
-0.81005783 -0.48995949 0.86531569 52 49 50
-0.80969811 -0.46984150 0.86475432 57 53 54
-0.81010723 -0.45012708 0.86433734 68 60 60
-0.81003237 -0.43024671 0.86395383 72 67 66
-0.81011984 -0.40989017 0.86373160 76 70 69
-0.80907193 -0.39004311 0.86328898 80 72 70
-0.80755343 -0.37038709 0.86300566 78 73 69
-0.80567371 -0.35084371 0.86307038 80 77 74
-0.80617816 -0.33168836 0.86502058 76 71 70
-0.80753599 -0.31161456 0.86916653 67 66 58
-0.81878252 -0.30631814 0.88102432 3 3 3
-0.80901775 -0.29030045 0.87419385 31 28 25
-0.81774111 -0.28758625 0.88188116 0 0 0
-0.80426102 -0.26826641 0.87378741 27 26 23
-0.81615565 -0.26949685 0.88201897 0 0 0
-0.80505905 -0.25452239 0.87756442 13 12 10
-0.81450427 -0.24985353 0.88225174 0 0 0
-0.80179584 -0.23319682 0.87781305 0 0 0
-0.81259799 -0.22957904 0.88230476 0 0 0
-0.80998192 -0.20937300 0.88247443 0 0 0
-0.80989012 -0.18967158 0.88282891 0 0 0
-0.81019470 -0.16989889 0.88316124 0 0 0
-0.81037014 -0.15008754 0.88335249 0 0 0
-0.81047918 -0.13025662 0.88347109 0 0 0
-0.81060913 -0.11042304 0.88361257 0 0 0
-0.81012605 -0.09044370 0.88373746 0 0 0
-0.81015755 -0.07002823 0.88389721 0 0 0
-0.80952967 -0.04952875 0.88402281 0 0 0
-0.80966616 -0.02949984 0.88425084 0 0 0
-0.80989441 -0.00963390 0.88450020 0 0 0
-0.81014398 0.01024354 0.88477284 0 0 0
-0.81040291 0.03013355 0.88505568 0 0 0
-0.80999329 0.05013618 0.88532347 0 0 0
-0.80995794 0.06978679 0.88564854 0 0 0
-0.80971113 0.08988685 0.88597261 0 0 0
-0.81004606 0.10983962 0.88633912 0 0 0
-0.81035979 0.12987420 0.88675187 0 0 0
-0.81003606 0.14981073 0.88716679 0 0 0
-0.80972177 0.16983998 0.88766313 0 0 0
-0.81024172 0.18998085 0.88830287 0 0 0
-0.80989303 0.20986428 0.88893790 0 0 0
-0.80999216 0.23018905 0.88964528 0 0 0
-0.81017336 0.25057305 0.89038004 0 0 0
-0.80956016 0.27029179 0.89105843 0 0 0
-0.81049426 0.28987350 0.89183932 0 0 0
-0.80978227 0.30943714 0.89252789 0 0 0
-0.81024721 0.33004202 0.89338738 0 0 0
-0.80966815 0.35008568 0.89420996 0 0 0
-0.81037964 0.36999931 0.89512811 0 0 0
-0.80970711 0.38961909 0.89592663 0 0 0
-0.81011659 0.41026426 0.89688362 0 0 0
-0.80996340 0.42984226 0.89779808 0 0 0
-0.81041503 0.45003466 0.89877199 0 0 0
-0.80753538 0.46804545 0.89948382 3 2 4
-0.81492645 0.47454901 0.90027150 0 0 0
-0.80262919 0.48276165 0.89983862 14 14 21
-0.81065455 0.49052444 0.90080701 3 3 6
-0.80997659 0.50677631 0.90160980 7 7 10
-0.78997171 -0.60072196 0.89047906 0 0 0
-0.78971858 -0.58977525 0.89000578 0 0 0
-0.79024845 -0.56978893 0.88912586 0 0 0
-0.78995283 -0.55000447 0.88806472 0 0 0
-0.79123508 -0.52315760 0.87403439 29 28 29
-0.78960892 -0.53504148 0.88694899 0 0 0
-0.78987073 -0.50845040 0.86434356 51 47 48
-0.79010736 -0.49007317 0.86382240 55 49 51
-0.79004307 -0.47041086 0.86319536 60 55 56
-0.78992698 -0.44997501 0.86272831 66 62 61
-0.78965439 -0.42975052 0.86236489 73 66 65
-0.79025399 -0.41011268 0.86213148 78 71 69
-0.78986195 -0.39001011 0.86177191 79 72 72
-0.78961846 -0.37005181 0.86139737 82 74 73
-0.79001106 -0.35023453 0.86116016 84 78 74
-0.79026997 -0.32986213 0.86096332 84 76 74
-0.78968135 -0.31009701 0.86084795 84 81 74
-0.78855354 -0.29021981 0.86082083 87 81 74
-0.78694066 -0.27036644 0.86106349 86 80 75
-0.78075368 -0.24199052 0.85998252 87 82 81
-0.78617323 -0.25075105 0.86195465 81 76 70
-0.78072853 -0.23455085 0.85995482 88 78 78
-0.78696972 -0.23082072 0.86431641 70 61 59
-0.78991835 -0.21025564 0.87108103 50 46 40
-0.79900126 -0.20594556 0.88064057 0 0 0
-0.78669003 -0.18976110 0.87184859 51 46 45
-0.79780917 -0.18853595 0.88156568 0 0 0
-0.78795480 -0.17196885 0.87638467 25 25 22
-0.79633114 -0.16855493 0.88194918 0 0 0
-0.78392511 -0.14963934 0.87604073 21 21 19
-0.79503026 -0.14949299 0.88206791 0 0 0
-0.78310152 -0.13296584 0.87833519 18 18 13
-0.79306449 -0.12964569 0.88197859 0 0 0
-0.78090954 -0.11078484 0.87923707 4 3 3
-0.79177708 -0.10996411 0.88202864 0 0 0
-0.78999603 -0.09035798 0.88204764 0 0 0
-0.78953792 -0.07060560 0.88225250 0 0 0
-0.78972004 -0.05003084 0.88245603 0 0 0
-0.78997310 -0.02944928 0.88273888 0 0 0
-0.79023963 -0.00961788 0.88303692 0 0 0
-0.79038215 0.01033322 0.88333647 0 0 0
-0.78999033 0.03008441 0.88361115 0 0 0
-0.78960360 0.04984819 0.88389279 0 0 0
-0.78978380 0.06984228 0.88423529 0 0 0
-0.79009945 0.08974644 0.88458864 0 0 0
-0.79042700 0.10966810 0.88495529 0 0 0
-0.79015656 0.12971794 0.88532067 0 0 0
-0.78958155 0.14956689 0.88572260 0 0 0
-0.79009491 0.16957898 0.88629856 0 0 0
-0.79025079 0.18977535 0.88694872 0 0 0
-0.78970778 0.20971250 0.88758536 0 0 0
-0.79037818 0.22985101 0.88833889 0 0 0
-0.78977824 0.24985748 0.88898124 0 0 0
-0.79007621 0.27019389 0.88972777 0 0 0
-0.79059347 0.29028542 0.89049725 0 0 0
-0.79045209 0.31021339 0.89119707 0 0 0
-0.79129525 0.32971667 0.89191776 0 0 0
-0.79067494 0.35017350 0.89246443 2 2 3
-0.79074059 0.37002405 0.89310438 5 4 7
-0.78958221 0.38996718 0.89362753 8 8 12
-0.79000074 0.40981561 0.89467112 10 10 15
-0.78951945 0.43016191 0.89582330 14 13 23
-0.78997292 0.45014307 0.89719168 17 16 25
-0.78988403 0.47028471 0.89854210 18 18 25
-0.78903197 0.48635106 0.89960142 20 19 28
-0.79166210 0.49557579 0.90027801 20 19 30
-0.78990395 0.50639677 0.90093430 21 21 29
-0.76973024 -0.60054034 0.89020984 0 0 0
-0.77005755 -0.59006985 0.88976773 0 0 0
-0.76996814 -0.57024490 0.88890202 0 0 0
-0.77001506 -0.54980899 0.88780839 0 0 0
-0.77081905 -0.52317087 0.87658785 40 36 38
-0.77005141 -0.53463022 0.88687884 0 0 0
-0.77072578 -0.50756109 0.86331286 53 47 49
-0.76954195 -0.48972964 0.86252416 54 50 51
-0.77018445 -0.46955937 0.86195599 62 56 57
-0.77025375 -0.45015743 0.86153644 67 60 60
-0.77007312 -0.43008694 0.86116607 75 67 66
-0.76948845 -0.40986732 0.86085345 78 72 71
-0.76139960 -0.38244086 0.85994780 75 69 70
-0.77007842 -0.39048549 0.86060925 79 73 72
-0.76296526 -0.36789091 0.85983276 77 72 70
-0.77240360 -0.37034502 0.86043880 82 74 72
-0.76467560 -0.34924923 0.85973891 82 74 72
-0.77480099 -0.35020168 0.86031785 85 77 75
-0.76604520 -0.32989111 0.85967973 79 73 69
-0.77610370 -0.33025297 0.86022006 83 76 72
-0.76682052 -0.30990938 0.85962043 78 73 71
-0.77702129 -0.31010195 0.86018853 86 79 74
-0.76751989 -0.29004614 0.85954776 80 74 72
-0.77766420 -0.29066976 0.86015922 87 79 75
-0.76765590 -0.27006886 0.85946200 82 74 72
-0.77791399 -0.27027846 0.86012961 87 81 77
-0.76904028 -0.24950212 0.85939146 85 77 75
-0.77847967 -0.25525384 0.86009765 89 80 78
-0.76979090 -0.23003950 0.85913346 87 79 74
-0.76922660 -0.21027222 0.85883403 85 79 76
-0.77825551 -0.20576443 0.86078120 89 84 69
-0.76734966 -0.19022570 0.85868211 87 79 77
-0.77671669 -0.19234992 0.86162840 87 81 75
-0.76522674 -0.17066231 0.85867467 87 82 75
-0.77489205 -0.16988661 0.86375899 82 80 70
-0.76337234 -0.15066413 0.85885414 85 84 76
-0.77171059 -0.14872097 0.86433524 82 80 69
-0.76139451 -0.13181815 0.85901023 85 81 64
-0.77036983 -0.12976839 0.86627140 76 72 57
-0.76106317 -0.11930411 0.85956782 84 78 70
-0.76930534 -0.11005497 0.86837091 60 60 56
-0.77019903 -0.08948232 0.87192472 47 45 39
-0.77958807 -0.09177031 0.88049041 0 0 0
-0.77002121 -0.06892446 0.87417267 23 21 19
-0.77810070 -0.06888687 0.88093472 0 0 0
-0.76528330 -0.04927675 0.87174059 22 21 19
-0.77688869 -0.04939596 0.88111039 0 0 0
-0.76672311 -0.03035605 0.87551123 14 12 11
-0.77617742 -0.02886396 0.88144959 0 0 0
-0.76721246 -0.01300774 0.87788522 11 10 9
-0.77525055 -0.00890045 0.88170237 0 0 0
-0.76519004 0.01169123 0.87793964 8 7 7
-0.77475830 0.01002359 0.88203761 0 0 0
-0.76138438 0.03056416 0.87530905 13 11 10
-0.77341884 0.03003429 0.88213085 0 0 0
-0.76271135 0.04950049 0.87783033 11 9 8
-0.77321986 0.05019655 0.88240041 0 0 0
-0.76322148 0.06716434 0.87916798 2 2 2
-0.77294348 0.06993258 0.88267723 0 0 0
-0.76013900 0.09811165 0.87736404 12 11 11
-0.77251110 0.08956841 0.88283377 0 0 0
-0.76061308 0.11031281 0.87791124 7 7 9
-0.77273577 0.10953458 0.88314976 0 0 0
-0.76086143 0.13008019 0.87819789 6 5 7
-0.77245128 0.12935068 0.88339013 0 0 0
-0.76078433 0.14979846 0.87810889 8 7 9
-0.77254287 0.14981410 0.88377630 0 0 0
-0.76032062 0.16108265 0.87757367 11 10 13
-0.77309130 0.16987564 0.88436196 0 0 0
-0.77329237 0.18937794 0.88495198 0 0 0
-0.76015426 0.21639946 0.87738166 17 17 23
-0.77316200 0.20961369 0.88532494 1 1 1
-0.76190541 0.23106441 0.87859886 16 16 20
-0.77448596 0.22931454 0.88619179 1 1 1
-0.76196070 0.24777871 0.87946651 16 15 21
-0.77250822 0.25082930 0.88560147 5 4 5
-0.76964553 0.27007057 0.88444024 9 9 13
-0.76918287 0.28993073 0.88492271 12 11 16
-0.76927113 0.31027715 0.88587603 13 13 19
-0.76967586 0.33008313 0.88715456 15 15 22
-0.77001011 0.34979132 0.88856424 16 16 23
-0.76990682 0.37034207 0.89011057 16 16 22
-0.77005554 0.39025532 0.89166624 16 16 23
-0.76983895 0.41017808 0.89326985 16 16 24
-0.77011107 0.43014117 0.89490253 17 17 25
-0.76989376 0.44958964 0.89642681 18 18 26
-0.77009393 0.46974488 0.89795314 18 18 26
-0.76952896 0.48900554 0.89937918 21 21 30
-0.77403182 0.49811235 0.90010933 22 21 31
-0.76986335 0.50633814 0.90062011 23 22 31
-0.74951280 -0.60036810 0.88995452 0 0 0
-0.75011741 -0.59004243 0.88952724 0 0 0
-0.74998146 -0.57033061 0.88868728 0 0 0
-0.75013047 -0.54964415 0.88760151 0 0 0
-0.75025309 -0.52349869 0.87777190 7 7 8
-0.74912026 -0.53360535 0.88627954 0 0 0
-0.74999843 -0.50725458 0.86231972 45 41 42
-0.74986099 -0.49049623 0.86154491 44 42 42
-0.75048716 -0.47006666 0.86098211 48 44 46
-0.74144711 -0.44189906 0.85995597 43 41 42
-0.75018493 -0.45011206 0.86048387 48 47 47
-0.74437833 -0.42853604 0.85982708 46 41 43
-0.75391200 -0.43132387 0.86028457 55 51 52
-0.74724240 -0.40920237 0.85967240 50 44 46
-0.75682274 -0.41233436 0.86014338 65 59 59
-0.75006210 -0.38955592 0.85950675 51 50 48
-0.75898713 -0.39634726 0.86002119 72 71 65
-0.75039336 -0.37025291 0.85925722 54 50 51
-0.75020432 -0.35011506 0.85904091 55 52 51
-0.75008503 -0.33001780 0.85890427 55 51 51
-0.74998424 -0.30993484 0.85878884 54 50 51
-0.74984719 -0.28984327 0.85863191 56 52 53
-0.74972686 -0.26980059 0.85843788 59 51 52
-0.74942588 -0.24971153 0.85820952 60 54 52
-0.74949761 -0.23011055 0.85795706 60 55 53
-0.75009682 -0.21037292 0.85777713 59 54 53
-0.75050945 -0.19020157 0.85769274 60 54 54
-0.75057869 -0.17020393 0.85777168 61 55 54
-0.75009717 -0.15025983 0.85786843 61 55 55
-0.74940580 -0.13022724 0.85812592 60 55 53
-0.74942326 -0.11042778 0.85845610 59 56 54
-0.74856984 -0.09041990 0.85860982 59 55 51
-0.75918125 -0.09269418 0.86080313 74 69 57
-0.74730024 -0.07045372 0.85876636 57 53 53
-0.75797912 -0.07127376 0.86203969 74 67 63
-0.74621245 -0.05040374 0.85888344 57 52 50
-0.75522784 -0.05136719 0.86184756 58 54 48
-0.74503646 -0.03078077 0.85906366 57 51 52
-0.75306366 -0.02901760 0.86231491 56 47 49
-0.74378182 -0.01036658 0.85954316 56 51 49
-0.75280243 -0.00908373 0.86429414 52 46 46
-0.74158888 0.00450528 0.85984124 57 53 53
-0.74734037 0.01099417 0.86255563 53 48 48
-0.74521727 0.02981232 0.86183078 55 48 47
-0.74608190 0.04979660 0.86341803 52 46 43
-0.74600274 0.06978163 0.86448861 41 38 42
-0.74674803 0.08993867 0.86630803 33 32 35
-0.74566398 0.11042042 0.86652859 32 31 37
-0.74634423 0.13016810 0.86819131 32 30 37
-0.74684447 0.14996836 0.86976385 31 28 34
-0.74855151 0.16996353 0.87180864 25 23 32
-0.74919057 0.18981449 0.87337170 23 21 27
-0.74943464 0.20954645 0.87492290 18 17 24
-0.74967989 0.22993836 0.87673046 16 16 21
-0.74974442 0.24991311 0.87861010 15 15 20
-0.75895273 0.25915320 0.88009157 15 15 18
-0.74580272 0.26373385 0.87965823 15 15 20
-0.75108621 0.27237775 0.88076939 16 15 21
-0.75000970 0.28996542 0.88232854 15 15 20
-0.75001676 0.30966379 0.88405568 15 15 21
-0.74997793 0.33018349 0.88581471 15 15 21
-0.74999223 0.34991956 0.88747491 15 15 21
-0.75001684 0.36970759 0.88913030 16 15 22
-0.74997380 0.38967883 0.89078964 16 16 23
-0.74997744 0.40979372 0.89247202 16 16 24
-0.74999002 0.42996796 0.89419081 17 17 24
-0.75004314 0.45025868 0.89589802 18 17 26
-0.74994440 0.47052684 0.89754407 20 19 28
-0.74996733 0.48991647 0.89911365 22 21 30
-0.74648917 0.50089370 0.89990845 23 22 32
-0.75084260 0.50682472 0.90040818 23 22 31
-0.73004085 -0.60016730 0.88965687 0 0 0
-0.73027824 -0.58975478 0.88923001 0 0 0
-0.72979618 -0.57016101 0.88842306 0 0 0
-0.73039668 -0.54968606 0.88736732 0 0 0
-0.72389551 -0.52180343 0.87939012 19 18 20
-0.72940996 -0.53255654 0.88607346 0 0 0
-0.73020323 -0.50692787 0.86222105 42 38 40
-0.72977709 -0.48972625 0.86072892 45 41 43
-0.72323711 -0.46319100 0.85993249 51 51 51
-0.73103433 -0.47111016 0.86031707 49 43 45
-0.72870702 -0.44872207 0.85975680 53 49 51
-0.73649129 -0.45600121 0.86009646 47 42 45
-0.72976313 -0.42975488 0.85944844 58 54 54
-0.72953512 -0.41031525 0.85917991 64 58 59
-0.72993008 -0.39003489 0.85894743 66 61 63
-0.72999441 -0.37011228 0.85872052 70 65 63
-0.73047167 -0.34990898 0.85853531 75 66 65
-0.73033167 -0.32981288 0.85837073 73 67 65
-0.73022116 -0.30973706 0.85824084 74 67 67
-0.73010244 -0.28966409 0.85810137 75 69 67
-0.72997835 -0.27033714 0.85795562 78 70 68
-0.72982039 -0.25026389 0.85777009 80 72 71
-0.72964814 -0.23019460 0.85756770 81 72 71
-0.72981480 -0.20994782 0.85737443 80 73 72
-0.73013309 -0.19010722 0.85726675 78 72 69
-0.73011403 -0.17009946 0.85724422 79 71 70
-0.72998395 -0.15022729 0.85728097 81 72 72
-0.72949845 -0.13011619 0.85739134 82 72 72
-0.72965211 -0.11013326 0.85757160 79 71 69
-0.72980875 -0.09014225 0.85775552 78 70 68
-0.72996062 -0.07014232 0.85793386 78 72 68
-0.73011934 -0.05013435 0.85812044 77 69 68
-0.73034854 -0.03012057 0.85838978 75 69 66
-0.73012279 -0.01019647 0.85873876 73 66 62
-0.72941556 0.00989353 0.85909991 74 64 63
-0.73917628 0.01887556 0.86003149 60 50 52
-0.72838642 0.02963174 0.85940743 72 64 62
-0.73841858 0.03225866 0.86014778 58 51 51
-0.72533562 0.04821012 0.85968380 71 63 62
-0.73455811 0.05166631 0.86037304 57 51 50
-0.72176034 0.06098671 0.85994391 64 57 58
-0.72980637 0.07037071 0.86098246 48 46 48
-0.73013479 0.09032114 0.86251286 38 37 41
-0.72999598 0.11013921 0.86425858 35 34 40
-0.72997985 0.12988821 0.86615238 33 31 39
-0.72998518 0.14971732 0.86801175 30 27 34
-0.72997648 0.16958017 0.86985814 26 25 31
-0.73004192 0.18953282 0.87173177 22 21 26
-0.73000847 0.20962350 0.87363791 18 18 23
-0.73001657 0.22969243 0.87559140 17 17 21
-0.72999782 0.24984207 0.87752123 16 16 20
-0.72897709 0.26833445 0.87921454 16 16 21
-0.73408628 0.27710024 0.88028733 16 15 21
-0.72980076 0.29024317 0.88128829 16 16 21
-0.73012170 0.30995301 0.88306408 15 15 21
-0.73002017 0.32994968 0.88483394 15 15 21
-0.72981015 0.35018426 0.88660936 15 15 22
-0.73019104 0.37013356 0.88837062 16 15 22
-0.72987266 0.39039372 0.89009756 16 16 23
-0.73007676 0.41033076 0.89183038 16 16 24
-0.72994883 0.42973761 0.89355167 18 17 25
-0.73000762 0.44988823 0.89534828 18 18 26
-0.73001406 0.47010615 0.89710133 20 20 29
-0.73001987 0.48956764 0.89877330 22 21 31
-0.72908669 0.50233437 0.89978334 23 22 32
-0.73077571 0.50874704 0.90029584 20 20 28
-0.71834937 -0.60003513 0.88946094 0 0 0
-0.71010389 -0.59029637 0.88893482 0 0 0
-0.70970507 -0.57007002 0.88812383 0 0 0
-0.71021726 -0.55006566 0.88705814 0 0 0
-0.70965127 -0.53212325 0.88576333 0 0 0
-0.71054279 -0.50640607 0.86270585 48 44 47
-0.70299960 -0.48315634 0.85991470 56 50 50
-0.71061950 -0.49060018 0.86030028 52 48 49
-0.70871996 -0.46885261 0.85973858 56 53 53
-0.71626133 -0.47600592 0.86009002 54 48 51
-0.71057629 -0.45005456 0.85939618 60 56 56
-0.70992254 -0.42983667 0.85901478 67 62 62
-0.70986634 -0.41010532 0.85874028 76 69 67
-0.70966397 -0.38995652 0.85849544 80 73 71
-0.70960108 -0.36973304 0.85827242 81 75 72
-0.71020141 -0.34987936 0.85809501 84 76 74
-0.70979423 -0.32980645 0.85791596 83 76 75
-0.71021431 -0.31049639 0.85779802 84 77 77
-0.71047127 -0.29026266 0.85767875 86 77 76
-0.71036751 -0.27021037 0.85755349 89 80 79
-0.71024243 -0.25015657 0.85740251 90 82 81
-0.71008858 -0.23010040 0.85721676 91 85 82
-0.70992840 -0.21005098 0.85702343 92 84 81
-0.70982286 -0.19002507 0.85689603 90 82 79
-0.70978091 -0.17002035 0.85684538 93 83 79
-0.70979787 -0.15003049 0.85686587 93 85 82
-0.70985924 -0.13004781 0.85693990 93 83 80
-0.70995062 -0.11006639 0.85705013 91 84 82
-0.71005559 -0.09008153 0.85717675 91 82 79
-0.71017176 -0.07009191 0.85731691 92 85 82
-0.71032554 -0.05009827 0.85750245 93 84 81
-0.71051415 -0.03009756 0.85772996 93 84 80
-0.71017244 -0.00999173 0.85796473 89 83 78
-0.70942737 0.00993605 0.85820838 92 81 78
-0.70973127 0.02997428 0.85857589 88 80 77
-0.71011816 0.05003548 0.85904383 85 76 75
-0.70802007 0.06773503 0.85959218 70 63 64
-0.71418377 0.07513315 0.86033486 54 50 52
-0.70046002 0.08130052 0.85994875 55 49 51
-0.71011881 0.09033211 0.86125998 42 40 45
-0.70998030 0.10984776 0.86296389 39 38 45
-0.70996047 0.12950752 0.86482566 36 34 40
-0.70981755 0.14957869 0.86672879 31 30 36
-0.71001444 0.17005288 0.86872755 27 25 32
-0.71002914 0.19037823 0.87069924 23 22 28
-0.70992282 0.21025708 0.87263413 19 19 23
-0.71020368 0.22973291 0.87456372 17 17 21
-0.71000686 0.24955057 0.87646439 17 17 21
-0.71004798 0.26983542 0.87838934 16 16 20
-0.70773156 0.28403315 0.87960739 16 16 20
-0.71109074 0.29346732 0.88064674 15 15 20
-0.70973814 0.31013967 0.88210986 15 15 21
-0.71016238 0.32979759 0.88394027 15 15 22
-0.70997286 0.35016553 0.88579751 15 15 22
-0.71001483 0.37001300 0.88760627 15 15 22
-0.71001095 0.38993693 0.88937885 16 16 23
-0.70998573 0.40995315 0.89117482 16 16 23
-0.70990948 0.43003150 0.89302926 18 18 24
-0.71007468 0.45024268 0.89492470 19 19 27
-0.71006999 0.46978802 0.89670613 21 20 29
-0.70996072 0.48937321 0.89845134 22 22 31
-0.70949155 0.50331098 0.89964025 20 19 28
-0.71040054 0.50977594 0.90029650 2 2 4
-0.69001605 -0.59024674 0.88860920 0 0 0
-0.68979796 -0.56984733 0.88780478 0 0 0
-0.69007293 -0.54990362 0.88670887 0 0 0
-0.68980775 -0.53106652 0.88536499 0 0 0
-0.69170874 -0.50615987 0.86358951 50 44 45
-0.68231126 -0.51914357 0.88262041 27 26 27
-0.68900109 -0.48700493 0.85973037 56 51 50
-0.69206770 -0.49642605 0.86013037 55 48 49
-0.68963345 -0.46975454 0.85934557 58 54 54
-0.69002845 -0.45031090 0.85898885 63 58 58
-0.69031319 -0.43021984 0.85862944 68 62 63
-0.69025175 -0.40991586 0.85834357 76 70 68
-0.69004618 -0.38977144 0.85808795 80 74 71
-0.68986372 -0.36965122 0.85786103 81 77 72
-0.68971465 -0.35029981 0.85767566 84 77 74
-0.68956944 -0.33021757 0.85749507 85 80 77
-0.68986307 -0.30997854 0.85734704 89 81 79
-0.69009963 -0.29011177 0.85723292 89 80 78
-0.68999664 -0.27006905 0.85710499 91 83 82
-0.68987776 -0.25002666 0.85695732 91 85 82
-0.69036391 -0.23008167 0.85679221 92 85 81
-0.69033854 -0.20994972 0.85661033 92 86 83
-0.69023439 -0.18993304 0.85648107 94 86 83
-0.69019963 -0.16993950 0.85643794 94 86 84
-0.69022114 -0.14996023 0.85646466 93 86 80
-0.69027679 -0.12998620 0.85653372 92 84 79
-0.69035042 -0.11001187 0.85662505 93 87 82
-0.69042779 -0.09003369 0.85672101 95 87 83
-0.69051045 -0.07005165 0.85682350 97 88 83
-0.68996287 -0.04997395 0.85693953 95 85 80
-0.68998306 -0.03007517 0.85708772 94 84 80
-0.68970794 -0.01026726 0.85725504 91 82 79
-0.68954189 0.00992724 0.85746015 94 84 80
-0.68978205 0.02994564 0.85775866 92 83 77
-0.69011162 0.04998433 0.85816831 91 81 77
-0.69021151 0.07001262 0.85881531 73 66 66
-0.68738050 0.08532386 0.85956059 53 48 52
-0.69210737 0.09370738 0.86055461 44 43 47
-0.68999210 0.10968953 0.86185709 40 39 45
-0.68979580 0.12957996 0.86371357 37 35 41
-0.69012075 0.15006489 0.86569620 32 30 36
-0.68999849 0.17041393 0.86770057 28 26 32
-0.68993886 0.19036752 0.86966403 25 24 30
-0.68998592 0.21038103 0.87162229 21 20 27
-0.68992810 0.23041984 0.87359089 18 18 22
-0.68993451 0.24997598 0.87549900 17 17 22
-0.69009660 0.26950900 0.87738724 17 17 21
-0.68913315 0.28836659 0.87915533 16 16 20
-0.69447055 0.29743521 0.88023914 15 16 20
-0.68025410 0.30068533 0.87995577 15 15 22
-0.68999646 0.31023772 0.88126321 15 15 21
-0.68997949 0.32989598 0.88314259 15 15 22
-0.68994541 0.34970974 0.88501953 16 15 22
-0.69003429 0.36960468 0.88689028 17 16 22
-0.68993644 0.38956550 0.88872074 17 16 23
-0.68995763 0.40972165 0.89059379 17 17 23
-0.68997512 0.42994154 0.89252976 17 18 24
-0.69001239 0.45026121 0.89449952 20 19 28
-0.69001588 0.46987758 0.89635504 21 20 30
-0.68993905 0.49029210 0.89821608 23 22 31
-0.69053564 0.50385241 0.89959583 8 7 11
-0.68918664 0.50967777 0.90047933 0 0 0
-0.66981222 -0.59003777 0.88829457 0 0 0
-0.67002675 -0.56962068 0.88749442 0 0 0
-0.66989057 -0.54980289 0.88644432 0 0 0
-0.66991882 -0.53013675 0.88512535 0 0 0
-0.66626090 -0.50133950 0.85993177 56 49 52
-0.67157600 -0.50580433 0.86339133 52 46 48
-0.66942016 -0.51898967 0.88353824 4 3 4
-0.67003415 -0.48989279 0.85943296 57 50 52
-0.67860511 -0.49954209 0.86003590 57 49 50
-0.66988430 -0.46963912 0.85892688 60 55 56
-0.66966148 -0.45009341 0.85857400 66 59 59
-0.66997315 -0.42975292 0.85821476 70 66 64
-0.66990941 -0.40972367 0.85794115 76 70 68
-0.67034925 -0.39043663 0.85771072 80 73 70
-0.67028520 -0.37022536 0.85747353 83 76 73
-0.67013418 -0.35013833 0.85728032 86 79 74
-0.66998167 -0.33005977 0.85708519 89 82 80
-0.66985133 -0.31000037 0.85691844 89 82 77
-0.66975299 -0.28996275 0.85679266 91 84 80
-0.66965297 -0.26993033 0.85666470 92 86 82
-0.66953567 -0.24989748 0.85651464 92 86 82
-0.67005050 -0.22978073 0.85636313 93 87 80
-0.67003106 -0.20984955 0.85620169 95 88 84
-0.66993359 -0.18984347 0.85607717 94 87 84
-0.66989687 -0.16985863 0.85603024 94 88 83
-0.66990739 -0.14988653 0.85604362 95 88 82
-0.66995177 -0.12992045 0.85610027 95 87 82
-0.67000916 -0.10995392 0.85617355 95 87 81
-0.67006377 -0.08998354 0.85624327 94 87 82
-0.67012254 -0.07001041 0.85631834 94 88 81
-0.66955431 -0.05013032 0.85639416 96 89 84
-0.66952253 -0.03005455 0.85649753 95 87 81
-0.66961873 -0.01007069 0.85662048 93 84 80
-0.66975185 0.00991941 0.85679069 93 85 78
-0.66994319 0.02992026 0.85703535 94 86 80
-0.67019510 0.04993689 0.85735738 92 85 79
-0.67030943 0.06994511 0.85783873 82 74 71
-0.66955324 0.08965920 0.85892183 57 53 54
-0.67767381 0.09833563 0.86016391 45 42 47
-0.66383977 0.10199944 0.85980379 46 42 45
-0.67062878 0.11052082 0.86093080 40 38 43
-0.66995375 0.13003649 0.86277158 34 32 38
-0.66995339 0.15046128 0.86476468 30 29 34
-0.67000037 0.17028390 0.86675907 27 26 33
-0.66996619 0.19014509 0.86872761 26 25 31
-0.66996528 0.21013551 0.87067777 22 22 28
-0.66997991 0.23022143 0.87265696 19 19 24
-0.66994010 0.25036204 0.87464635 18 17 23
-0.66994303 0.26988843 0.87656786 18 17 22
-0.66996347 0.28951641 0.87849852 15 16 20
-0.66723534 0.30298213 0.87969863 15 15 22
-0.67093022 0.31246643 0.88075856 15 15 22
-0.66980317 0.33000672 0.88244422 16 15 22
-0.67012074 0.34986760 0.88439865 16 16 22
-0.66995949 0.37034177 0.88638425 17 16 23
-0.66990976 0.39037133 0.88826487 17 17 25
-0.66977476 0.40997881 0.89014348 17 17 24
-0.67018664 0.43012341 0.89213204 18 18 26
-0.66999965 0.45009177 0.89410240 20 19 27
-0.67000418 0.46960030 0.89599965 22 21 30
-0.67025992 0.48956659 0.89791622 21 20 28
-0.66984186 0.50213351 0.89961577 0 0 0
-0.66952579 0.50853211 0.90049362 0 0 0
-0.64964710 -0.58985115 0.88801359 0 0 0
-0.65017356 -0.57009297 0.88724004 0 0 0
-0.64985437 -0.55035602 0.88620311 0 0 0
-0.65020077 -0.52958266 0.88490225 0 0 0
-0.65284521 -0.50130990 0.85988100 57 52 54
-0.65120839 -0.50722913 0.86831567 51 49 49
-0.64756787 -0.51686302 0.88316194 8 8 8
-0.64989926 -0.49036448 0.85914710 58 53 54
-0.65027430 -0.47023681 0.85859720 63 57 57
-0.65008567 -0.44989688 0.85819906 67 60 59
-0.64998540 -0.43013592 0.85784173 70 65 64
-0.64944159 -0.41001538 0.85756998 77 71 71
-0.65006122 -0.39007739 0.85732989 82 74 73
-0.64998738 -0.37006037 0.85709136 85 77 74
-0.64983947 -0.34998149 0.85689632 86 79 74
-0.65038155 -0.32996775 0.85670965 89 82 81
-0.65030744 -0.30986253 0.85653741 90 84 80
-0.65021250 -0.28983404 0.85641236 90 85 81
-0.65011952 -0.26981226 0.85628991 95 89 83
-0.65000030 -0.24978610 0.85613286 94 90 84
-0.64987498 -0.22976509 0.85596778 95 89 84
-0.64975208 -0.20975252 0.85580588 95 88 84
-0.64966333 -0.18975737 0.85568902 95 88 83
-0.64963070 -0.16978240 0.85564605 95 86 83
-0.64963085 -0.14981700 0.85564623 95 87 82
-0.64965453 -0.12985631 0.85567737 95 90 83
-0.64969024 -0.10989628 0.85572433 96 89 83
-0.64973230 -0.08993484 0.85577968 99 89 85
-0.64978414 -0.06997197 0.85584794 97 89 86
-0.64984202 -0.05000634 0.85592414 97 89 83
-0.64990541 -0.03003742 0.85600758 94 89 82
-0.64997077 -0.01006456 0.85609363 95 87 84
-0.65007811 0.00991292 0.85623497 96 86 81
-0.65022494 0.02989890 0.85642823 94 85 79
-0.65040263 0.04989619 0.85666209 94 85 81
-0.65017476 0.07001199 0.85699804 87 79 73
-0.64987495 0.09000908 0.85791923 66 59 59
-0.64848446 0.10523301 0.85941878 47 44 47
-0.65177073 0.11445046 0.86049811 40 39 43
-0.65000862 0.12986061 0.86195468 35 34 39
-0.64997191 0.15037494 0.86396191 31 30 35
-0.64995897 0.17017528 0.86593411 29 27 34
-0.64999262 0.19011773 0.86790620 26 25 31
-0.64994789 0.21008947 0.86985402 23 22 29
-0.64999168 0.23020885 0.87185669 20 19 25
-0.64998214 0.25037583 0.87386991 18 17 23
-0.64986459 0.27052367 0.87588140 17 16 23
-0.65004274 0.29007788 0.87785123 16 16 22
-0.64895272 0.30588482 0.87937739 16 15 22
-0.65145025 0.31575475 0.88045006 16 15 22
-0.64995696 0.33038751 0.88187418 16 16 23
-0.64992000 0.35022829 0.88387077 16 16 23
-0.65000694 0.37015880 0.88585767 17 17 24
-0.64990847 0.39012846 0.88776758 19 19 27
-0.65001413 0.41016755 0.88973112 20 19 28
-0.65000788 0.43035468 0.89175679 19 19 28
-0.65002328 0.44980705 0.89371719 20 20 28
-0.64981990 0.46991223 0.89569623 22 21 30
-0.65024671 0.48964882 0.89781033 16 15 22
-0.65042934 0.50182130 0.89971199 0 0 0
-0.64973522 0.50855812 0.90049471 0 0 0
-0.62961360 -0.58977370 0.88774485 0 0 0
-0.63037339 -0.56990036 0.88697831 0 0 0
-0.62975202 -0.55019029 0.88593614 0 0 0
-0.63037908 -0.53017916 0.88469466 0 0 0
-0.62943708 -0.50306017 0.86569503 55 54 50
-0.62904630 -0.51671535 0.88341799 1 1 1
-0.62988910 -0.48966647 0.85889922 61 56 56
-0.62046057 -0.49918721 0.86134729 59 58 53
-0.63000581 -0.46986358 0.85825967 61 58 57
-0.63006900 -0.44987585 0.85783944 67 60 59
-0.63028816 -0.43026238 0.85749946 73 66 65
-0.63010474 -0.41013447 0.85724995 78 71 71
-0.62991976 -0.39001708 0.85699834 83 76 72
-0.62974561 -0.36991792 0.85676143 86 80 75
-0.62959946 -0.34984520 0.85656261 87 80 79
-0.63014508 -0.32973312 0.85636507 90 84 81
-0.63007104 -0.30973951 0.85619741 93 85 83
-0.62998056 -0.28971968 0.85607443 88 83 79
-0.62989814 -0.26970907 0.85596248 93 88 83
-0.62982476 -0.24973709 0.85579572 95 88 82
-0.63039310 -0.22967450 0.85563030 96 88 82
-0.63027447 -0.20967002 0.85546930 95 87 82
-0.63019155 -0.18968368 0.85535675 94 88 82
-0.63016233 -0.16971711 0.85531708 95 88 82
-0.63015938 -0.14975868 0.85531305 95 89 84
-0.63016707 -0.12980266 0.85532346 95 89 84
-0.63018341 -0.10984768 0.85534558 98 89 83
-0.63020998 -0.08989304 0.85538159 97 88 83
-0.63024464 -0.06993772 0.85542855 98 89 84
-0.63028239 -0.04998042 0.85547974 98 88 83
-0.63033058 -0.03002120 0.85554511 97 89 82
-0.63039180 -0.01005910 0.85562820 97 86 81
-0.63048347 0.00990727 0.85575257 98 87 84
-0.62993528 0.02997105 0.85587762 95 87 80
-0.62996278 0.04986038 0.85604953 93 83 81
-0.62977077 0.06966173 0.85627267 92 80 77
-0.62992347 0.08991245 0.85700212 72 65 63
-0.62932544 0.10856705 0.85900986 51 47 50
-0.63273899 0.11819479 0.86018683 41 40 43
-0.63017287 0.13035947 0.86132397 38 36 40
-0.63000020 0.15030897 0.86328058 33 32 39
-0.62997910 0.17003414 0.86521634 32 30 37
-0.62995680 0.18984778 0.86715946 27 26 33
-0.62993617 0.20985982 0.86912512 23 22 31
-0.63000729 0.22992074 0.87114105 21 20 26
-0.62996882 0.25007731 0.87317477 19 18 25
-0.63000272 0.27037154 0.87524196 18 17 24
-0.62995022 0.28993995 0.87724196 17 16 23
-0.62948069 0.30823871 0.87908327 16 15 22
-0.63294008 0.31809380 0.88018541 16 15 23
-0.62994003 0.33013276 0.88134048 16 15 23
-0.62996922 0.34999521 0.88338242 17 16 23
-0.63001819 0.36989415 0.88540096 19 18 26
-0.62998536 0.38986694 0.88734341 20 20 28
-0.63003165 0.40992306 0.88932093 21 21 30
-0.63001989 0.43011086 0.89136572 22 22 31
-0.63007987 0.44953353 0.89335425 22 21 30
-0.62998330 0.46989091 0.89537678 23 22 31
-0.62985965 0.48996311 0.89790041 10 10 14
-0.63024849 0.50184928 0.89976219 0 0 0
-0.62999430 0.50849301 0.90051062 0 0 0
-0.60997507 -0.58981195 0.88746704 0 0 0
-0.61020032 -0.57007142 0.88670199 0 0 0
-0.60967691 -0.55003800 0.88569115 0 0 0
-0.61032007 -0.53012848 0.88449070 0 0 0
-0.60982505 -0.50506209 0.87278871 42 41 39
-0.60934485 -0.51583541 0.88331224 0 0 0
-0.61024100 -0.48871541 0.85860411 60 55 55
-0.60327464 -0.49764418 0.86125338 57 57 55
-0.61001054 -0.47015106 0.85791309 63 56 56
-0.60963884 -0.44975702 0.85747930 66 61 60
-0.61002952 -0.43008597 0.85714793 73 67 66
-0.60986539 -0.40997533 0.85691739 78 73 70
-0.61021511 -0.39003776 0.85670544 83 77 71
-0.61030249 -0.36980148 0.85649183 84 78 73
-0.61016564 -0.34973787 0.85629981 87 81 77
-0.61014303 -0.32983928 0.85609407 87 83 77
-0.60976814 -0.30982087 0.85592303 90 84 82
-0.60998867 -0.29001215 0.85580237 91 84 82
-0.60955235 -0.27003396 0.85568680 94 90 83
-0.60972583 -0.25022701 0.85552484 95 91 84
-0.61013757 -0.23023977 0.85535129 97 89 82
-0.61021070 -0.21022823 0.85519045 97 89 84
-0.60993705 -0.19026009 0.85507013 97 89 86
-0.60998741 -0.16965672 0.85501251 95 88 85
-0.60997323 -0.14970259 0.85499260 98 90 87
-0.60997359 -0.12975255 0.85499306 99 91 87
-0.60997805 -0.10980323 0.85499930 98 89 86
-0.60998943 -0.08985460 0.85501520 98 89 85
-0.61000490 -0.06990574 0.85503682 98 89 85
-0.61002552 -0.04995627 0.85506566 99 89 86
-0.61005746 -0.03000597 0.85511037 98 88 82
-0.61010626 -0.01005386 0.85517869 97 88 82
-0.61017573 0.00990170 0.85527598 96 89 81
-0.60961403 0.02976525 0.85536724 95 87 82
-0.60959632 0.04982828 0.85550022 96 85 80
-0.60971279 0.06980377 0.85566356 92 83 78
-0.61003886 0.08993296 0.85629110 78 68 65
-0.60991294 0.11019501 0.85855643 58 53 53
-0.60638369 0.12233556 0.85983168 47 45 48
-0.61052607 0.13168517 0.86088493 40 38 43
-0.61001963 0.15023415 0.86270278 34 33 39
-0.61006304 0.16997177 0.86463076 32 31 37
-0.60998848 0.18976945 0.86656034 28 27 33
-0.60992821 0.20966065 0.86851956 25 24 32
-0.60995560 0.22971721 0.87053744 22 22 27
-0.60995081 0.24991433 0.87260541 20 19 26
-0.60997238 0.27013644 0.87471224 18 18 24
-0.60988747 0.29041618 0.87682157 18 17 24
-0.61002591 0.31006030 0.87885198 17 16 24
-0.60541482 0.32085258 0.87990174 17 16 23
-0.61028446 0.33060616 0.88099493 16 15 22
-0.60998033 0.34980063 0.88299134 16 16 23
-0.60999316 0.36973426 0.88503991 18 18 25
-0.61006625 0.38967390 0.88699466 20 20 28
-0.61004924 0.40972559 0.88897240 23 22 30
-0.61001357 0.42990316 0.89101817 23 22 31
-0.60998465 0.44949017 0.89303781 24 23 32
-0.61000820 0.46991088 0.89509506 24 23 32
-0.60985943 0.49008635 0.89806527 3 3 5
-0.60995087 0.50167837 0.89977448 0 0 0
-0.61029585 0.50813585 0.90049506 0 0 0
-0.59006060 -0.59004377 0.88717231 0 0 0
-0.59025660 -0.57040274 0.88641281 0 0 0
-0.58963819 -0.54991305 0.88540209 0 0 0
-0.59028446 -0.52998440 0.88415944 0 0 0
-0.59260995 -0.50542313 0.87602536 12 10 11
-0.58906688 -0.51414233 0.88286712 0 0 0
-0.59015248 -0.48756525 0.85831775 60 55 56
-0.58262200 -0.49639537 0.86374340 55 52 52
-0.59019909 -0.47041494 0.85757149 62 59 55
-0.59001680 -0.45007745 0.85713023 66 62 60
-0.58977764 -0.42990270 0.85678278 71 66 64
-0.58963640 -0.40981271 0.85657765 79 72 70
-0.59003685 -0.38959418 0.85639830 82 78 74
-0.59028350 -0.36988394 0.85621888 86 79 76
-0.58984370 -0.34985255 0.85603528 88 82 78
-0.58986374 -0.33031735 0.85583354 90 83 80
-0.58975113 -0.31028832 0.85567019 93 87 83
-0.59034975 -0.29033521 0.85555438 92 87 80
-0.59033328 -0.27028447 0.85544226 95 89 86
-0.59021995 -0.25027587 0.85527808 96 91 86
-0.59009287 -0.23026955 0.85509392 99 88 84
-0.58997622 -0.21027541 0.85492488 97 90 84
-0.58988766 -0.19029825 0.85479649 95 91 83
-0.58998922 -0.17009841 0.85472088 101 92 88
-0.58965931 -0.15017104 0.85468200 101 92 87
-0.58980665 -0.12970489 0.85467902 101 94 88
-0.58981231 -0.10976315 0.85468722 98 90 86
-0.58981475 -0.08982054 0.85469073 99 90 86
-0.58981525 -0.06987753 0.85469144 102 92 88
-0.58982229 -0.04993503 0.85470161 100 91 86
-0.58983759 -0.02999245 0.85472370 99 91 84
-0.58986964 -0.01004911 0.85477010 98 90 83
-0.58991827 0.00989660 0.85484051 99 86 81
-0.58997028 0.02984588 0.85491576 96 88 83
-0.59004530 0.04980051 0.85502440 97 86 82
-0.59014707 0.06976361 0.85517186 92 83 78
-0.59011125 0.08985338 0.85570571 82 70 67
-0.58991734 0.11004994 0.85798738 68 59 59
-0.58915093 0.12426075 0.85962349 52 48 51
-0.59047395 0.13377542 0.86063117 44 41 45
-0.58998254 0.15012834 0.86224931 37 36 40
-0.59004052 0.16995298 0.86418886 32 31 36
-0.59003703 0.18980451 0.86612431 28 27 32
-0.58998922 0.20966000 0.86807825 25 24 30
-0.58996527 0.22958595 0.87007343 23 23 27
-0.58998164 0.24973989 0.87215091 21 21 27
-0.58991707 0.26999704 0.87428937 20 19 25
-0.58997082 0.29036406 0.87644266 18 17 23
-0.58992704 0.31006366 0.87850746 18 17 24
-0.58919151 0.32190441 0.87975309 17 16 23
-0.59023394 0.33204281 0.88081984 17 17 22
-0.58984461 0.34987535 0.88269195 17 16 23
-0.59016743 0.36977599 0.88476290 17 17 23
-0.58991540 0.39000558 0.88675389 19 18 26
-0.59029133 0.41003742 0.88874401 21 21 29
-0.59000023 0.42979512 0.89074171 23 22 31
-0.58997212 0.45021592 0.89285570 24 23 32
-0.59008048 0.47060161 0.89499515 23 22 30
-0.58985447 0.48981915 0.89820732 0 0 0
-0.58981114 0.50184655 0.89975730 0 0 0
-0.59030548 0.50849348 0.90051146 0 0 0
-0.57030594 -0.58973502 0.88684368 0 0 0
-0.57012371 -0.57018700 0.88607751 0 0 0
-0.56974980 -0.54975191 0.88505257 0 0 0
-0.57016983 -0.52975405 0.88377500 0 0 0
-0.56345691 -0.50137987 0.87690009 24 21 20
-0.56966571 -0.51272405 0.88250521 0 0 0
-0.57015158 -0.48573140 0.85796494 61 56 55
-0.57253063 -0.49834667 0.86975712 48 44 44
-0.56998795 -0.47005172 0.85724764 61 59 56
-0.57007370 -0.45006933 0.85675856 67 61 57
-0.57027768 -0.42971537 0.85640944 73 66 64
-0.57032760 -0.41008807 0.85622900 79 72 70
-0.56987932 -0.39005909 0.85606243 85 77 75
-0.56994927 -0.37029259 0.85591643 87 81 77
-0.56984100 -0.35025450 0.85575392 90 84 79
-0.56971311 -0.33021246 0.85556192 92 86 79
-0.56960826 -0.31019197 0.85540447 94 88 81
-0.57021505 -0.29014273 0.85528532 92 88 83
-0.57019182 -0.27019870 0.85517088 96 90 86
-0.57008821 -0.25019904 0.85501550 96 92 84
-0.56996588 -0.23019904 0.85483202 98 91 86
-0.56984869 -0.21020935 0.85465621 99 91 85
-0.56975352 -0.19023526 0.85451345 98 91 86
-0.57007980 -0.17045617 0.85442698 102 93 87
-0.57041004 -0.15033561 0.85439080 100 92 87
-0.57040450 -0.12965989 0.85438251 100 92 86
-0.57041066 -0.10972520 0.85439172 100 89 87
-0.57041334 -0.08978953 0.85439573 99 91 84
-0.57041414 -0.06985346 0.85439693 101 93 89
-0.57041212 -0.04991711 0.85439389 101 92 86
-0.57041181 -0.02998090 0.85439338 101 91 86
-0.57042897 -0.01004503 0.85441904 99 90 84
-0.57015611 0.01006180 0.85445516 101 88 83
-0.56974117 0.02983113 0.85449463 99 89 84
-0.56980638 0.04977534 0.85459241 98 87 82
-0.56989640 0.06972733 0.85472738 92 83 80
-0.56993984 0.08955575 0.85519981 82 72 69
-0.57000667 0.10991646 0.85750694 75 64 64
-0.56943409 0.12589204 0.85941895 60 54 56
-0.57064089 0.13562491 0.86046535 48 46 47
-0.56992833 0.14992957 0.86189875 41 38 42
-0.56994780 0.16974760 0.86384693 34 32 37
-0.57001948 0.18965401 0.86579560 30 28 33
-0.57003557 0.20963321 0.86775357 25 24 30
-0.57000974 0.22964701 0.86973742 24 24 29
-0.57003417 0.24962795 0.87179085 23 22 29
-0.56992567 0.26987877 0.87393504 21 21 26
-0.56994291 0.29024377 0.87610618 18 18 24
-0.56992438 0.30991965 0.87819521 18 17 23
-0.56969276 0.32325217 0.87961559 18 18 22
-0.57013575 0.33339604 0.88068638 18 17 22
-0.56998854 0.35035788 0.88249377 17 17 22
-0.57005115 0.37030583 0.88457958 18 17 23
-0.57007674 0.39028724 0.88655491 18 18 24
-0.57011436 0.41030470 0.88854271 20 20 26
-0.56989327 0.42973507 0.89050399 22 21 29
-0.56992611 0.45011776 0.89260547 23 22 31
-0.57009443 0.46976900 0.89488804 18 17 23
-0.57000601 0.48920913 0.89814727 0 0 0
-0.56956454 0.50182052 0.89971063 0 0 0
-0.57005236 0.50847641 0.90048118 0 0 0
-0.55041648 -0.58955667 0.88649904 0 0 0
-0.54998689 -0.56995164 0.88571167 0 0 0
-0.54993208 -0.55016336 0.88470222 0 0 0
-0.55003229 -0.53024684 0.88341362 0 0 0
-0.55695055 -0.50158601 0.87858786 11 9 10
-0.54959515 -0.51069748 0.88189641 0 0 0
-0.55122088 -0.48424172 0.85769065 62 56 54
-0.54866818 -0.49201677 0.86506311 61 55 54
-0.54988074 -0.46996158 0.85691816 63 58 58
-0.55002422 -0.45003649 0.85640312 68 60 60
-0.54990112 -0.43006805 0.85603706 72 66 65
-0.54993667 -0.41020526 0.85585247 80 73 69
-0.54984951 -0.39017325 0.85571691 84 78 74
-0.54976553 -0.37014970 0.85558627 87 81 77
-0.55025310 -0.35026434 0.85545591 92 86 80
-0.55030814 -0.33010390 0.85528065 94 88 81
-0.55021106 -0.31009235 0.85512979 95 88 85
-0.55013347 -0.29009807 0.85500923 95 88 82
-0.55005893 -0.27011100 0.85489335 96 89 83
-0.54996332 -0.25011979 0.85474477 96 90 83
-0.54984846 -0.23012749 0.85456628 98 91 85
-0.54973033 -0.21014209 0.85438268 100 91 86
-0.54963065 -0.19017168 0.85422775 101 93 88
-0.54998337 -0.17004503 0.85413705 100 93 86
-0.55028451 -0.15028385 0.85409659 98 92 87
-0.55027892 -0.12961518 0.85408791 100 92 86
-0.55028474 -0.10968734 0.85409696 101 92 87
-0.55028848 -0.08975875 0.85410281 100 93 88
-0.55028854 -0.06982943 0.85410289 100 94 89
-0.55028742 -0.04990000 0.85410117 102 93 89
-0.55028142 -0.02997035 0.85409182 101 93 87
-0.55028923 -0.01004137 0.85410390 101 92 85
-0.55002939 0.00972134 0.85412134 100 91 85
-0.54957642 0.02981882 0.85414331 98 90 84
-0.54962315 0.04975337 0.85421586 99 88 81
-0.54970029 0.06969534 0.85433569 92 84 80
-0.54995265 0.08973543 0.85482255 82 72 69
-0.55000437 0.10992612 0.85711132 82 69 68
-0.54970109 0.12713247 0.85923245 69 61 62
-0.55058160 0.13698217 0.86032828 56 50 52
-0.55000055 0.14992979 0.86165281 44 42 45
-0.54993707 0.16956290 0.86360864 37 35 40
-0.54997064 0.18946587 0.86556761 32 31 35
-0.54999258 0.20948956 0.86752078 27 26 30
-0.55002376 0.22956401 0.86949188 25 23 30
-0.55004692 0.24974336 0.87154955 23 22 30
-0.54999532 0.26990244 0.87366665 21 20 26
-0.54996520 0.29014188 0.87582541 18 18 25
-0.54989408 0.30981307 0.87792048 18 17 22
-0.54974445 0.32440679 0.87948238 18 18 22
-0.55019298 0.33464642 0.88057213 18 18 22
-0.54994680 0.35026929 0.88224795 18 18 23
-0.55002189 0.37020266 0.88433314 18 18 24
-0.55006497 0.39014212 0.88630809 18 18 25
-0.55006021 0.41024834 0.88830264 20 20 27
-0.54985441 0.42971802 0.89026181 22 21 28
-0.54993114 0.44993459 0.89231551 23 22 31
-0.55016612 0.46984038 0.89506322 10 10 14
-0.55001745 0.48937470 0.89816539 0 0 0
-0.54936410 0.50199786 0.89967109 0 0 0
-0.55004296 0.50853101 0.90040297 0 0 0
-0.53033218 -0.58936154 0.88612391 0 0 0
-0.52986418 -0.56971376 0.88534199 0 0 0
-0.52995807 -0.54996106 0.88432939 0 0 0
-0.53000801 -0.53007244 0.88303207 0 0 0
-0.53009318 -0.51014167 0.88158557 0 0 0
-0.53073499 -0.48240895 0.85714111 61 57 56
-0.52988519 -0.49392549 0.87225191 33 34 34
-0.52859982 -0.49974049 0.88068783 0 0 0
-0.53003428 -0.46997911 0.85662822 64 59 58
-0.53009944 -0.45025902 0.85606741 67 61 61
-0.52986873 -0.43009649 0.85569486 71 66 64
-0.52975443 -0.41004123 0.85551029 77 73 69
-0.52967862 -0.39002319 0.85538787 86 79 75
-0.52960808 -0.37001457 0.85527401 89 84 79
-0.53012600 -0.34988415 0.85515803 93 86 80
-0.53017766 -0.32999577 0.85500054 93 88 81
-0.53008793 -0.30999299 0.85485583 96 89 85
-0.53001345 -0.29000527 0.85473573 97 90 82
-0.52994531 -0.27002647 0.85462587 97 91 84
-0.52985723 -0.25004343 0.85448386 98 92 85
-0.52974638 -0.23005716 0.85430508 99 93 86
-0.53025488 -0.21017484 0.85412975 100 92 86
-0.53027938 -0.19011533 0.85397456 102 94 89
-0.53021184 -0.17016718 0.85386577 103 95 86
-0.53017382 -0.15023248 0.85380448 103 93 87
-0.53016674 -0.13030829 0.85379308 102 92 86
-0.53017427 -0.11038773 0.85380521 103 93 90
-0.53018354 -0.08972903 0.85382015 102 92 88
-0.53018681 -0.06980674 0.85382542 101 93 88
-0.53018355 -0.04988359 0.85382018 104 94 90
-0.53017745 -0.02996047 0.85381035 105 92 88
-0.53017847 -0.01003796 0.85381198 104 94 89
-0.53018304 0.00988467 0.85381931 100 91 86
-0.53019157 0.02980794 0.85383299 98 89 84
-0.53022689 0.04973436 0.85388981 98 89 84
-0.53029022 0.06966723 0.85399177 95 84 81
-0.53012843 0.08977381 0.85447900 82 72 68
-0.52994446 0.10994075 0.85676417 84 71 70
-0.52983817 0.12847593 0.85909874 78 67 66
-0.53064208 0.13809560 0.86021866 65 59 58
-0.53006109 0.15007117 0.86147894 50 47 49
-0.52997616 0.16985023 0.86349000 39 37 41
-0.53003859 0.18942669 0.86543482 34 31 36
-0.52989679 0.20926097 0.86735921 28 27 32
-0.52998358 0.22942209 0.86931834 25 24 30
-0.52999796 0.24960603 0.87134593 24 22 30
-0.53005575 0.26986120 0.87344869 20 20 26
-0.53002383 0.29017351 0.87559851 19 18 25
-0.52979223 0.30984408 0.87768200 19 18 23
-0.52983568 0.32556964 0.87936160 18 18 24
-0.53045064 0.33569323 0.88044024 19 18 24
-0.52996481 0.35016458 0.88198430 19 18 25
-0.53005006 0.37007173 0.88405567 19 18 26
-0.53010355 0.39001141 0.88603185 19 19 27
-0.52993592 0.41012092 0.88802673 20 20 28
-0.52968970 0.42990613 0.89001664 22 21 29
-0.53022040 0.45012163 0.89208974 24 23 30
-0.53011519 0.46996075 0.89539502 4 4 5
-0.52993618 0.48933673 0.89811440 0 0 0
-0.52985645 0.50272277 0.89964460 0 0 0
-0.53010408 0.50938609 0.90037021 0 0 0
-0.51019856 -0.58910412 0.88573695 0 0 0
-0.50996386 -0.56977716 0.88500593 0 0 0
-0.50980665 -0.55005467 0.88399631 0 0 0
-0.50996671 -0.52986476 0.88268605 0 0 0
-0.51009349 -0.50990366 0.88114840 0 0 0
-0.51223422 -0.48151842 0.85698561 63 57 57
-0.50697361 -0.49242725 0.87391949 22 19 19
-0.51130635 -0.49885108 0.88021711 0 0 0
-0.50991201 -0.46947647 0.85635720 65 58 55
-0.50994514 -0.45010097 0.85576687 66 61 59
-0.51001970 -0.43012640 0.85538280 71 65 64
-0.51035058 -0.40989586 0.85520705 78 72 69
-0.51028260 -0.38988879 0.85509315 84 78 74
-0.51022489 -0.36989448 0.85499647 89 83 77
-0.51015783 -0.34989841 0.85488414 93 86 81
-0.51006907 -0.32989343 0.85473541 93 89 83
-0.50998504 -0.30989825 0.85459462 97 90 86
-0.50991451 -0.28991728 0.85447642 98 89 84
-0.50985177 -0.26994603 0.85437132 99 91 87
-0.50977288 -0.24997181 0.85423919 100 91 87
-0.50967154 -0.22999366 0.85406937 100 94 88
-0.51019604 -0.20993078 0.85389023 103 93 89
-0.51020783 -0.19006124 0.85373154 103 95 89
-0.51013459 -0.17011601 0.85360891 103 95 87
-0.51008590 -0.15018378 0.85352739 102 93 90
-0.51007065 -0.13026385 0.85350179 102 94 87
-0.51007710 -0.11034989 0.85351258 104 93 89
-0.51008764 -0.08969856 0.85353022 102 93 87
-0.51009149 -0.06978314 0.85353667 103 94 87
-0.51008940 -0.04986682 0.85353318 104 95 90
-0.51008431 -0.02995045 0.85352466 105 94 89
-0.51007971 -0.01003452 0.85351694 103 93 88
-0.51008079 0.00988119 0.85351872 103 92 87
-0.51008640 0.02979728 0.85352811 102 90 86
-0.51011320 0.04971589 0.85357295 102 89 82
-0.51016358 0.06963989 0.85365720 96 86 81
-0.51006472 0.08943401 0.85413440 83 71 68
-0.50997818 0.10969975 0.85642734 85 72 68
-0.50973110 0.12902518 0.85890595 89 73 73
-0.51195794 0.13888234 0.86011558 80 70 68
-0.50998445 0.14978317 0.86129415 61 55 56
-0.50999470 0.16967006 0.86336392 41 39 42
-0.51006791 0.18968626 0.86536137 35 32 37
-0.50998976 0.20946369 0.86726603 29 28 33
-0.50991190 0.22924403 0.86916982 26 25 30
-0.50997377 0.24947627 0.87116826 24 23 29
-0.51002134 0.26977074 0.87324308 21 20 28
-0.51009596 0.29008618 0.87536205 20 19 26
-0.51000740 0.31046931 0.87750626 19 19 24
-0.50951247 0.32739255 0.87929378 19 19 26
-0.51080685 0.33685869 0.88030487 19 19 26
-0.50997948 0.35004948 0.88169447 19 19 26
-0.51007797 0.36996299 0.88376063 21 21 29
-0.51014500 0.38987350 0.88573926 22 21 30
-0.50981440 0.40998578 0.88773407 22 21 30
-0.50990789 0.43019026 0.88975753 24 23 31
-0.51032591 0.45015236 0.89190065 23 22 28
-0.50976505 0.46979119 0.89564598 0 0 0
-0.50973206 0.48988312 0.89807216 0 0 0
-0.51036860 0.50416587 0.89961911 0 0 0
-0.51089168 0.51016594 0.90027399 0 0 0
-0.49009969 -0.58886760 0.88538146 0 0 0
-0.48972500 -0.57006789 0.88470471 0 0 0
-0.49005900 -0.55032917 0.88371531 0 0 0
-0.48997064 -0.52968895 0.88239329 0 0 0
-0.48102985 -0.50086464 0.87998849 0 0 0
-0.49019318 -0.50979454 0.88086640 0 0 0
-0.49755316 -0.48057312 0.85735530 63 55 55
-0.48906717 -0.49374548 0.87689435 9 8 8
-0.49704624 -0.49938980 0.88006982 0 0 0
-0.49012850 -0.46957827 0.85613871 61 54 53
-0.48983046 -0.44996653 0.85551127 64 57 56
-0.48994288 -0.42962441 0.85513098 69 61 61
-0.49024349 -0.40976892 0.85494217 76 68 66
-0.49017295 -0.38976384 0.85481909 81 74 71
-0.49011693 -0.36977543 0.85472133 86 78 77
-0.49005283 -0.34978599 0.85460949 91 83 79
-0.48996929 -0.32978860 0.85446383 95 87 84
-0.48989717 -0.30980521 0.85433809 96 87 82
