ply
format ascii 1.0
element vertex 1059
property float x
property float y
property float z
property uchar red
property uchar green
property uchar blue
end_header
-0.24260832 0.31092848 0.80115241 174 174 174
-0.25410179 0.32937136 0.79762085 163 164 164
-0.24418407 0.33065832 0.80166737 169 169 170
-0.25624449 0.34841621 0.79848010 165 165 165
-0.24685863 0.35084091 0.80240706 164 164 163
-0.25853885 0.36140075 0.79949585 161 161 159
-0.24954317 0.36955493 0.80655517 79 79 79
-0.25038960 0.38938056 0.81586881 0 0 0
-0.24290981 0.39851813 0.82061173 0 0 0
-0.25619593 0.40177341 0.81936151 0 0 0
-0.24940900 0.41071761 0.82350056 0 0 0
-0.25011382 0.42996018 0.82952167 0 0 0
-0.24985448 0.44993630 0.83598369 0 0 0
-0.25398438 0.46232513 0.83921778 0 0 0
-0.24916007 0.47173130 0.84211909 0 0 0
-0.22983928 -0.56836090 0.85213485 0 0 0
-0.23023314 -0.54990516 0.85012743 0 0 0
-0.22973904 -0.53006756 0.84749027 0 0 0
-0.23003183 -0.50998610 0.84429290 0 0 0
-0.23509389 -0.48246304 0.83955368 0 0 0
-0.22920376 -0.49136885 0.84149856 0 0 0
-0.22995656 -0.47002266 0.83756362 0 0 0
-0.22107929 -0.47958970 0.84005868 0 0 0
-0.23010642 -0.45021743 0.83286891 0 0 0
-0.23002603 -0.42985920 0.82806868 165 168 166
-0.22992663 -0.40979289 0.82599370 181 182 180
-0.23001058 -0.39000365 0.82489347 176 176 175
-0.22978482 -0.37000335 0.82428489 179 179 178
-0.22970658 -0.35002327 0.82398084 177 177 176
-0.22962469 -0.33007986 0.82385863 176 176 175
-0.22956823 -0.31008117 0.82382603 180 181 182
-0.22959262 -0.29007385 0.82388980 176 176 176
-0.22965181 -0.27011452 0.82395602 176 175 174
-0.22966510 -0.25019095 0.82400329 173 173 174
-0.22963037 -0.23021726 0.82387851 175 173 172
-0.23003322 -0.21046908 0.82355982 176 175 175
-0.23007126 -0.19031129 0.82290377 178 178 178
-0.23009655 -0.17001494 0.82186438 174 173 174
-0.23931322 -0.14939718 0.81977422 173 169 174
-0.22941810 -0.15037261 0.82197621 177 157 164
-0.22864259 -0.12702318 0.81580426 141 90 105
-0.23283682 -0.13625198 0.82171671 163 125 141
-0.22389294 -0.10329328 0.79697254 131 118 125
-0.23116530 -0.11131893 0.80693627 137 90 105
-0.22139269 -0.08216211 0.77860688 131 119 129
-0.22999414 -0.08987550 0.79084875 133 123 130
-0.23797470 -0.09756107 0.80126365 137 110 123
-0.22257299 -0.07209255 0.77781620 126 116 129
-0.23192511 -0.06927584 0.78767577 125 117 130
-0.22000516 -0.05969979 0.77965182 127 125 134
-0.22747251 -0.05192248 0.79322203 136 132 141
-0.23526954 -0.04641437 0.80392631 136 122 135
-0.22192026 -0.03697306 0.79817032 137 135 144
-0.23107272 -0.02950218 0.80649412 146 109 124
-0.23030509 -0.01008131 0.80421158 157 122 133
-0.23863923 0.01223485 0.79971786 179 178 178
-0.22879348 0.00948264 0.80162574 171 163 165
-0.23586190 0.03138907 0.79930064 172 171 172
-0.22638082 0.02916547 0.80109066 169 169 170
-0.23410102 0.05026528 0.79892515 173 172 172
-0.22429699 0.04973704 0.80073027 174 173 174
-0.23313456 0.07019424 0.79868345 174 174 175
-0.22338553 0.06977772 0.80069858 172 170 170
-0.23247080 0.09022446 0.79852599 172 172 173
-0.22263321 0.08983268 0.80060361 177 174 174
-0.23291825 0.10976810 0.79858974 174 173 173
-0.22326430 0.11039041 0.80067281 170 167 166
-0.23432231 0.12955824 0.79877156 172 172 173
-0.22462960 0.13066249 0.80105080 170 170 171
-0.23584979 0.14943673 0.79899195 169 169 169
-0.22623409 0.15027546 0.80143002 167 166 165
-0.23667584 0.16982637 0.79913638 170 169 169
-0.22715321 0.17006677 0.80174885 170 169 169
-0.23740950 0.18961217 0.79928129 168 166 167
-0.22755633 0.19036664 0.80215915 166 165 164
-0.23831381 0.20907050 0.79948297 168 168 169
-0.22834336 0.21014923 0.80244438 167 166 165
-0.23940870 0.22778411 0.79980174 160 158 160
-0.22939761 0.23008054 0.80293643 167 164 163
-0.23024223 0.24991647 0.80350411 160 161 162
-0.23033767 0.26997487 0.80407190 169 170 169
-0.23027736 0.28988549 0.80451251 167 167 166
-0.23004385 0.31001435 0.80540732 171 171 171
-0.22979219 0.33009145 0.80664368 169 168 168
-0.23017440 0.34988581 0.80814771 163 163 164
-0.23001765 0.36974424 0.81261391 69 70 70
-0.23222894 0.38555419 0.81820831 0 0 0
-0.22768341 0.39380919 0.82175248 0 0 0
-0.23001267 0.40980491 0.82621875 0 0 0
-0.23006712 0.42982164 0.83210339 0 0 0
-0.23064035 0.44834879 0.83761096 0 0 0
-0.22674634 0.45759202 0.84069699 0 0 0
-0.22988820 0.46983201 0.84347861 0 0 0
-0.22996156 0.48066217 0.84604564 0 0 0
-0.20994167 -0.56806505 0.85282656 0 0 0
-0.21017832 -0.55010826 0.85101345 0 0 0
-0.20971807 -0.53020492 0.84853501 0 0 0
-0.21028350 -0.51002620 0.84552552 0 0 0
-0.20970295 -0.49009735 0.84262536 0 0 0
-0.21091675 -0.46741994 0.83852455 0 0 0
-0.20803356 -0.47670439 0.84052670 0 0 0
-0.21000221 -0.44992731 0.83454647 0 0 0
-0.21003221 -0.42976887 0.83021352 167 169 168
-0.21011299 -0.40991245 0.82856924 177 179 178
-0.21010317 -0.39008300 0.82770381 173 175 175
-0.20983234 -0.37003353 0.82722519 179 178 178
-0.20977907 -0.34992731 0.82701519 181 182 182
-0.20975556 -0.32987819 0.82692273 182 182 182
-0.20974861 -0.30985806 0.82689546 177 177 177
-0.20976142 -0.28986628 0.82694506 170 169 168
-0.20975653 -0.26984978 0.82692557 170 171 172
-0.20974141 -0.24982179 0.82686498 174 173 175
-0.20970895 -0.22977782 0.82673668 176 175 174
-0.21001706 -0.20955038 0.82629675 175 174 175
-0.21000542 -0.18971576 0.82550223 180 180 180
-0.21004288 -0.16984431 0.82506380 172 164 167
-0.20679940 -0.14316300 0.81844272 140 91 104
-0.21169895 -0.15226921 0.82339865 149 113 125
-0.20096785 -0.12096562 0.79860489 135 126 129
-0.21034568 -0.13029255 0.81147879 140 97 110
-0.20127018 -0.10176299 0.77841989 134 125 132
-0.20918673 -0.10846019 0.79179800 134 121 130
-0.21492522 -0.11629808 0.80305252 136 110 123
-0.20183937 -0.08136081 0.75798610 126 122 127
-0.20871552 -0.08854608 0.77188524 131 124 131
-0.21542865 -0.09527579 0.78372761 134 126 132
-0.20374882 -0.06959292 0.75507620 121 117 126
-0.21357049 -0.07016089 0.76820287 125 120 130
-0.20216900 -0.05724779 0.75714873 120 116 129
-0.20793585 -0.05089137 0.77132908 127 124 133
-0.21600962 -0.04623040 0.78522265 133 131 140
-0.20250075 -0.03686057 0.77711514 132 131 140
-0.20961931 -0.03041969 0.79097353 139 137 147
-0.21695911 -0.02432122 0.80231617 143 140 148
-0.20375141 -0.01565059 0.79670791 143 142 147
-0.21196610 -0.00858116 0.80637059 148 121 133
-0.21054452 0.01043207 0.80924001 155 113 129
-0.20987864 0.02996065 0.80541526 169 152 158
-0.20999387 0.05025486 0.80324016 169 166 167
-0.21010080 0.06987378 0.80310328 172 169 170
-0.20978163 0.08996619 0.80295596 170 170 171
-0.20998113 0.10994801 0.80319282 172 171 172
-0.21035012 0.12983755 0.80392016 170 168 168
-0.21031062 0.15011829 0.80509594 167 167 167
-0.20990256 0.17008046 0.80613304 167 166 167
-0.21013568 0.18989875 0.80671727 165 164 165
-0.20976577 0.20994156 0.80741772 164 162 162
-0.20993064 0.22995309 0.80827982 159 157 158
-0.21012697 0.24996102 0.80913790 170 170 170
-0.21031675 0.26993214 0.80989530 164 163 163
-0.21020958 0.29002600 0.81052562 167 165 165
-0.21006619 0.30992717 0.81143213 164 164 164
-0.20972403 0.32984157 0.81268970 163 163 163
-0.21008216 0.34991357 0.81423010 162 162 163
-0.21133219 0.36811045 0.81711972 71 72 73
-0.20519636 0.37618708 0.82105583 0 0 0
-0.21888474 0.38099937 0.81960911 0 0 0
-0.20980326 0.39019471 0.82402733 0 0 0
-0.21003099 0.41007513 0.82946800 0 0 0
-0.20999105 0.43012328 0.83489781 0 0 0
-0.21137189 0.44466728 0.83875128 0 0 0
-0.20924506 0.45409221 0.84158650 0 0 0
-0.21007324 0.46999654 0.84544753 0 0 0
-0.20861630 0.48129969 0.84815074 0 0 0
-0.18997998 -0.56849885 0.85364556 0 0 0
-0.18963113 -0.54999145 0.85184971 0 0 0
-0.19036567 -0.52980162 0.84943504 0 0 0
-0.18976949 -0.50989479 0.84673258 0 0 0
-0.19013368 -0.48999620 0.84392989 0 0 0
-0.19144112 -0.46359043 0.83929073 0 0 0
-0.18903221 -0.47310073 0.84127369 0 0 0
-0.19005764 -0.45003159 0.83639751 0 0 0
-0.18985623 -0.42965005 0.83253744 168 168 167
-0.19003118 -0.40992412 0.83108080 178 180 179
-0.18994594 -0.38996772 0.83037943 177 178 179
-0.18994624 -0.37011410 0.83002503 178 178 177
-0.19035999 -0.34990013 0.82974117 178 179 180
-0.19034005 -0.32987726 0.82962179 178 178 178
-0.19033877 -0.30989082 0.82958399 181 181 182
-0.19034050 -0.28991078 0.82955891 176 177 178
-0.19035064 -0.26999053 0.82955551 177 177 177
-0.19036279 -0.25010163 0.82947999 178 177 178
-0.19042138 -0.23027172 0.82921119 176 174 174
-0.19016544 -0.21028356 0.82874662 178 176 176
-0.19003505 -0.19009996 0.82818209 176 170 172
-0.18035599 -0.16057275 0.81994617 144 94 107
-0.19015971 -0.17046179 0.82614282 145 105 117
-0.18905929 -0.14808573 0.81509501 139 102 114
-0.19376530 -0.15672301 0.82187239 140 91 106
-0.18756739 -0.12568042 0.79399261 134 127 132
-0.19227569 -0.13400785 0.80548182 136 123 130
-0.18141579 -0.10143109 0.75915015 132 123 131
-0.18830781 -0.10664624 0.77259279 132 125 130
-0.19285356 -0.11478868 0.78603682 134 126 131
-0.18292341 -0.08296309 0.73675645 122 118 121
-0.18900174 -0.08876182 0.75137095 127 120 126
-0.19496663 -0.09518833 0.76517464 131 124 130
-0.18157941 -0.06464863 0.71663664 91 81 96
-0.18739064 -0.06987976 0.73084505 108 103 114
-0.19638785 -0.07186953 0.74551817 118 113 121
-0.18170265 -0.05670492 0.71630633 86 77 95
-0.18568123 -0.05230728 0.73177893 98 94 110
-0.19208617 -0.04857106 0.74980611 115 112 123
-0.19750162 -0.04353675 0.76363137 124 122 131
-0.18448818 -0.03439874 0.75332837 118 112 123
-0.19109137 -0.02908327 0.76950018 131 129 138
-0.19725283 -0.02365460 0.78309863 138 137 146
-0.18422224 -0.01456545 0.77461380 138 133 142
-0.19139137 -0.00877356 0.78927516 139 135 143
-0.19819608 -0.00257167 0.80166315 145 141 150
-0.18441588 0.00551844 0.79538590 144 141 149
-0.19221292 0.01177467 0.80713606 147 134 143
-0.19060778 0.03033942 0.81316445 151 112 126
-0.18989826 0.04997947 0.80953831 166 136 148
-0.18996734 0.06998461 0.80663476 169 163 165
-0.19003305 0.08993550 0.80623558 173 172 172
-0.18982393 0.11018638 0.80670865 167 166 166
-0.19021829 0.13011056 0.80769645 166 166 168
-0.19045634 0.14983652 0.80910895 166 165 166
-0.18959507 0.16990210 0.81060710 167 167 169
-0.18979476 0.18985770 0.81144004 167 166 168
-0.18992014 0.20993393 0.81225825 161 160 160
-0.19012582 0.22996980 0.81328273 167 166 166
-0.19034457 0.24997498 0.81419084 163 162 163
-0.19052430 0.26998725 0.81498856 165 164 164
-0.19016593 0.28995859 0.81582339 169 169 169
-0.18955225 0.31005001 0.81687054 165 165 166
-0.19020733 0.32969918 0.81773052 168 169 170
-0.18106628 0.33673391 0.82024604 168 168 169
-0.19361177 0.34879403 0.81849539 166 166 167
-0.18434805 0.35196081 0.82092849 159 159 160
-0.19740897 0.36257650 0.81921448 161 162 162
-0.18920116 0.37070143 0.82299615 36 36 37
-0.19011685 0.38982174 0.82737852 0 0 0
-0.18984296 0.40983176 0.83239669 0 0 0
-0.19040283 0.42945731 0.83725667 0 0 0
-0.18315470 0.43870723 0.84037572 0 0 0
-0.19641959 0.44151160 0.83959841 0 0 0
-0.18983634 0.45077025 0.84272626 0 0 0
-0.19000987 0.47018003 0.84738229 0 0 0
-0.19004299 0.48201470 0.84997765 0 0 0
-0.16983062 -0.56926970 0.85457961 0 0 0
-0.17010773 -0.55002024 0.85268241 0 0 0
-0.16995305 -0.53001811 0.85043073 0 0 0
-0.16984462 -0.51013697 0.84787800 0 0 0
-0.17015108 -0.48979832 0.84516646 0 0 0
-0.17783240 -0.46094585 0.83981955 0 0 0
-0.16988895 -0.47020227 0.84210872 0 0 0
-0.17055951 -0.44930598 0.83802231 2 2 2
-0.16387326 -0.45842241 0.84034906 0 0 0
-0.16987522 -0.42996295 0.83492584 173 175 174
-0.16986578 -0.41002967 0.83366036 173 173 173
-0.16953367 -0.39002833 0.83318439 179 180 180
-0.16972142 -0.36973947 0.83275243 178 179 179
-0.17011996 -0.34994986 0.83239971 179 179 180
-0.17016776 -0.33006542 0.83218870 180 181 182
-0.17019897 -0.31022334 0.83206931 178 178 178
-0.17004745 -0.29017906 0.83193890 177 177 178
-0.17003346 -0.27002525 0.83186876 175 175 176
-0.17000656 -0.24985599 0.83173508 176 175 174
-0.16982998 -0.22970219 0.83130972 179 179 180
-0.16985131 -0.20977344 0.83128979 180 170 174
-0.17069072 -0.19020117 0.82902105 152 113 126
-0.16695457 -0.16598704 0.81655050 139 97 113
-0.17259157 -0.17330519 0.82291665 143 92 106
-0.16506344 -0.14381435 0.79614090 135 126 133
-0.17149476 -0.15169651 0.80817713 136 124 131
-0.16604320 -0.12453628 0.77444224 129 115 123
-0.17156196 -0.13235786 0.78876487 132 122 129
-0.17823157 -0.13883770 0.80084580 141 132 135
-0.16177692 -0.10163846 0.73779624 120 111 117
-0.16802640 -0.10657717 0.75213736 128 119 125
-0.17268637 -0.11420663 0.76735687 131 122 130
-0.17969386 -0.11906929 0.78015393 134 126 133
-0.16431683 -0.08412877 0.71424605 116 108 117
-0.17017310 -0.08968781 0.73002691 119 112 120
-0.17549841 -0.09606049 0.74535164 122 113 121
-0.16108412 -0.06137996 0.67897807 78 76 81
-0.16550052 -0.06666407 0.69058776 89 84 92
-0.17267043 -0.07157458 0.70929885 104 97 107
-0.17778800 -0.07716796 0.72304438 115 111 116
-0.16107380 -0.05726762 0.67893453 74 72 78
-0.16547451 -0.05101505 0.68994413 80 74 80
-0.17379862 -0.04957722 0.70800766 82 76 86
-0.17717857 -0.04407565 0.72567912 98 95 104
-0.16086260 -0.03801401 0.69708782 92 83 88
-0.16416778 -0.03372319 0.71068179 97 88 96
-0.16968012 -0.02996689 0.73097412 111 108 119
-0.17563694 -0.02624071 0.74830679 124 120 130
-0.17948561 -0.02015601 0.76209342 133 126 137
-0.16226328 -0.01771950 0.73624186 115 113 123
-0.16670849 -0.01235871 0.75180777 128 125 134
-0.17352614 -0.00741688 0.76830026 137 133 142
-0.17837495 -0.00085861 0.78225259 142 137 145
-0.16503302 0.00619170 0.77331127 139 137 145
-0.17229970 0.01181533 0.78858779 143 141 149
-0.17870717 0.01852509 0.80194614 148 141 152
-0.16531057 0.02536454 0.79501801 146 143 151
-0.17223846 0.03196987 0.80655540 147 142 150
-0.17053530 0.05006681 0.81384353 152 124 135
-0.16992557 0.06998529 0.81350153 161 122 137
-0.16972094 0.08983115 0.81004970 164 154 157
-0.16993162 0.10981179 0.80995216 168 167 168
-0.16991745 0.13006780 0.81092934 168 167 169
-0.17025993 0.15021667 0.81250468 171 169 169
-0.16996992 0.17019305 0.81409358 170 168 169
-0.17009543 0.19023789 0.81521096 170 169 171
-0.16970985 0.21004650 0.81633030 167 166 166
-0.17005265 0.22990583 0.81765037 162 161 162
-0.16055288 0.23842827 0.82013947 141 134 138
-0.17215767 0.24961986 0.81829648 164 164 164
-0.16224284 0.25153216 0.82049474 170 169 167
-0.17453717 0.26970770 0.81865880 167 166 168
-0.16446252 0.27051725 0.82087499 166 167 167
-0.17606964 0.28906040 0.81907770 168 167 167
-0.16619919 0.29036549 0.82126232 167 165 165
-0.17761757 0.30817873 0.81959769 168 168 169
-0.16840620 0.31036265 0.82163919 171 170 169
-0.17893002 0.32268034 0.81990602 174 176 178
-0.16998583 0.33012552 0.82220989 166 166 165
-0.16983724 0.34993088 0.82365656 167 167 167
-0.16995599 0.36976714 0.82643262 35 35 35
-0.17013249 0.39016575 0.83056825 0 0 0
-0.16982687 0.41004198 0.83507230 0 0 0
-0.17157335 0.42581528 0.83858160 0 0 0
-0.16772220 0.43497194 0.84112690 0 0 0
-0.17016401 0.44982128 0.84440920 0 0 0
-0.16988789 0.46993171 0.84910268 0 0 0
-0.17040936 0.48240774 0.85170847 0 0 0
-0.15004223 -0.56884866 0.85545234 0 0 0
-0.15004752 -0.54991156 0.85359346 0 0 0
-0.14988244 -0.53006615 0.85139632 0 0 0
-0.14976202 -0.50989844 0.84891034 0 0 0
-0.15051221 -0.49004440 0.84635126 0 0 0
-0.14961527 -0.47009779 0.84341665 0 0 0
-0.15167339 -0.44582212 0.83888040 9 9 9
-0.14855935 -0.45531341 0.84084489 0 0 0
-0.14998627 -0.42996878 0.83705439 162 164 165
-0.15006283 -0.40997324 0.83607432 173 174 174
-0.14973570 -0.38994540 0.83577836 179 181 182
-0.14978141 -0.36998350 0.83530100 179 180 180
-0.14989745 -0.35012897 0.83489266 177 178 180
-0.14967415 -0.33005389 0.83459416 177 178 178
-0.14958403 -0.30981915 0.83435914 169 168 170
-0.14946156 -0.28978326 0.83407561 179 179 180
-0.14968975 -0.27017162 0.83370749 177 177 178
-0.14944620 -0.25033036 0.83331299 176 175 175
-0.14935047 -0.23004005 0.83346139 182 172 175
-0.15007245 -0.21045816 0.83285776 156 118 130
-0.14542787 -0.18314719 0.81752533 141 113 123
-0.15117781 -0.19166327 0.82519085 144 92 107
-0.14347548 -0.16252512 0.79724295 135 129 132
-0.15073709 -0.17077224 0.81010762 138 123 131
-0.15847756 -0.17909598 0.82040191 142 92 107
-0.14386287 -0.14302153 0.77637466 132 127 131
-0.15023893 -0.15014184 0.79024335 133 128 132
-0.15641068 -0.15715958 0.80251129 136 126 132
-0.14577868 -0.12430946 0.75399380 128 121 125
-0.15113056 -0.13135493 0.76900536 131 123 127
-0.15685044 -0.13769839 0.78256413 133 125 131
-0.14284477 -0.10219146 0.71576425 115 105 112
-0.14849117 -0.10734101 0.73160141 124 115 119
-0.15292479 -0.11454579 0.74764253 129 119 125
-0.15931345 -0.11863904 0.76011860 131 120 128
-0.14218143 -0.08134127 0.67744058 94 82 87
-0.14658831 -0.08565363 0.69095487 95 89 94
-0.15179136 -0.09169853 0.70943231 112 105 111
-0.15654693 -0.09723392 0.72460012 119 112 117
-0.14776490 -0.06759760 0.67008631 90 81 85
-0.15541292 -0.07582449 0.68688598 94 86 94
-0.14879212 -0.05292136 0.67520229 94 85 89
-0.15082852 -0.04341998 0.68264480 93 84 86
-0.14781210 -0.03179750 0.68945083 97 89 94
-0.15496267 -0.02478919 0.70671158 92 87 95
-0.15858713 -0.02078368 0.72286701 97 94 105
-0.14214502 -0.01794000 0.69737335 96 89 92
-0.14603801 -0.01258717 0.70968018 97 91 99
-0.15185489 -0.00823569 0.72908538 106 104 115
-0.15671518 -0.00397103 0.74664863 125 124 132
-0.14326804 0.00406253 0.73377654 120 119 127
-0.14846352 0.00886243 0.75162565 131 130 137
-0.15430338 0.01376713 0.76797439 135 131 140
-0.15903813 0.01917466 0.78135768 141 140 147
-0.14062839 0.02058142 0.75854456 132 132 137
-0.14555817 0.02634792 0.77349952 140 136 143
-0.15260972 0.03241000 0.78818669 146 143 151
-0.15907669 0.03926097 0.80081284 146 146 149
-0.14580502 0.04646898 0.79425749 143 138 147
-0.15308315 0.05281920 0.80607268 149 146 152
-0.14999483 0.07003760 0.81361906 154 141 151
-0.15043924 0.09015080 0.81715686 156 115 131
-0.14954691 0.10987139 0.81428355 156 132 141
-0.15012167 0.12965030 0.81356917 159 157 158
-0.14991784 0.14978362 0.81524977 170 167 167
-0.15006124 0.16975316 0.81707785 169 168 168
-0.15070401 0.18943368 0.81833114 172 171 171
-0.14142609 0.19690845 0.82019836 172 171 172
-0.15361075 0.20838080 0.81903766 168 165 164
-0.14482860 0.21212442 0.82074095 170 170 170
-0.15768705 0.22448500 0.81962989 170 169 170
-0.14935667 0.23082003 0.82159598 165 163 162
-0.14992099 0.25020993 0.82276830 168 166 164
-0.14983456 0.26998370 0.82371906 167 166 167
-0.14995200 0.28995647 0.82451435 161 160 161
-0.15006792 0.31001226 0.82530192 165 163 164
-0.15029968 0.32994284 0.82600460 163 162 163
-0.14982302 0.34996913 0.82721152 166 166 167
-0.15015801 0.36991093 0.82956931 22 21 22
-0.14969285 0.38985905 0.83328165 0 0 0
-0.15036440 0.40986532 0.83729037 0 0 0
-0.14197695 0.41927131 0.84023792 0 0 0
-0.15521087 0.42191414 0.83944152 0 0 0
-0.14914631 0.43097243 0.84204990 0 0 0
-0.15018006 0.44984109 0.84620131 0 0 0
-0.14982281 0.47009547 0.85077567 0 0 0
-0.14939444 0.48290692 0.85342301 0 0 0
-0.12992371 -0.56968138 0.85653174 0 0 0
-0.12968388 -0.54998401 0.85460230 0 0 0
-0.12993168 -0.52998279 0.85240325 0 0 0
-0.13039166 -0.51004807 0.84998839 0 0 0
-0.12989307 -0.48988671 0.84756471 0 0 0
-0.12973417 -0.47001980 0.84473309 0 0 0
-0.13563059 -0.44232912 0.83961190 52 54 51
-0.12950446 -0.45086243 0.84161221 8 9 8
-0.13206452 -0.42914721 0.83902594 176 177 175
-0.12300030 -0.43386633 0.84028529 175 176 175
-0.12995591 -0.40999112 0.83846888 173 174 173
-0.12997184 -0.38998644 0.83806820 177 177 176
-0.13011935 -0.37009528 0.83762367 176 176 177
-0.12983446 -0.34994339 0.83719728 178 178 179
-0.12967844 -0.32986836 0.83676227 178 178 177
-0.12994883 -0.31018550 0.83641249 176 176 176
-0.12968304 -0.29011858 0.83590441 175 175 175
-0.12952902 -0.26971832 0.83521865 176 176 175
-0.12937036 -0.24972727 0.83477305 181 174 175
-0.13007414 -0.23050980 0.83516870 164 129 141
-0.12215067 -0.20009136 0.81927758 141 134 140
-0.13022526 -0.21015009 0.82873919 143 96 111
-0.12193595 -0.18001665 0.79930520 135 129 137
-0.12863735 -0.18833448 0.81222240 138 131 137
-0.13470046 -0.19623514 0.82253159 143 108 120
-0.12216512 -0.16148037 0.77789176 133 127 129
-0.12884784 -0.16821858 0.79142016 134 128 132
-0.13426743 -0.17604328 0.80385883 134 129 133
-0.12413459 -0.14315710 0.75557230 127 119 123
-0.12981049 -0.14985956 0.77038814 130 125 130
-0.13556684 -0.15659402 0.78397262 133 128 132
-0.12075973 -0.12081029 0.71834528 121 104 111
-0.12623342 -0.12541446 0.73250433 125 113 118
-0.13163884 -0.13206757 0.74864899 126 114 120
-0.13726253 -0.13797301 0.76313834 131 125 131
-0.12470370 -0.10385363 0.69217900 93 80 85
-0.12935147 -0.10977981 0.71010327 106 99 102
-0.13413148 -0.11553477 0.72722733 120 113 115
-0.13981554 -0.11939334 0.74035537 128 119 124
-0.12915202 -0.08572151 0.67763082 96 84 89
-0.12762030 -0.09277578 0.68387010 94 82 88
-0.13937756 -0.09813436 0.70266640 108 98 105
-0.13218731 -0.07025763 0.67432375 108 98 101
-0.12242111 -0.06847711 0.68139814 118 110 114
-0.13547045 -0.05498556 0.67723096 115 106 108
-0.12811184 -0.04816183 0.68332100 125 117 120
-0.12990681 -0.03016896 0.68865405 119 110 112
-0.12867660 -0.01301608 0.69628323 114 104 106
-0.13139746 -0.00380859 0.70371744 110 102 106
-0.12629957 0.00701126 0.71189585 114 105 108
-0.13210886 0.01277969 0.72694622 115 111 116
-0.13753788 0.01675526 0.74507627 129 127 134
-0.12309092 0.02445530 0.73165609 121 116 118
-0.12874135 0.02917104 0.75068107 128 127 130
-0.13503555 0.03381153 0.76839021 140 139 143
-0.12151117 0.04140985 0.75583269 137 136 139
-0.12616454 0.04731668 0.77259871 144 143 147
-0.13341485 0.05273417 0.78728157 148 144 152
-0.12683856 0.06718842 0.79402116 150 147 155
-0.13386890 0.07365908 0.80524477 152 150 159
-0.12994992 0.09006757 0.81243227 153 145 156
-0.13025701 0.11055361 0.81809867 159 124 140
-0.13032873 0.13024814 0.81734885 162 124 138
-0.13037462 0.14961100 0.81793246 164 156 157
-0.12187969 0.15780370 0.82031409 181 178 177
-0.13486666 0.16826376 0.81920961 173 172 172
-0.12624708 0.17197948 0.82090969 174 173 175
-0.13844253 0.18298663 0.81978678 178 178 180
-0.12998588 0.19051521 0.82163964 173 173 175
-0.12975378 0.20992781 0.82308064 166 165 166
-0.12997278 0.22994545 0.82481480 162 162 164
-0.12995055 0.24992491 0.82627471 168 167 168
-0.12985147 0.27006965 0.82741131 165 164 164
-0.12986344 0.28996627 0.82824809 166 165 165
-0.12991504 0.30991805 0.82897571 159 158 158
-0.13016128 0.32997666 0.82945768 163 162 162
-0.13036649 0.34996640 0.83021954 160 160 160
-0.13023229 0.37008709 0.83240794 12 11 11
-0.12946330 0.38980340 0.83567928 0 0 0
-0.13154810 0.40648726 0.83857539 0 0 0
-0.12845491 0.41576553 0.84085586 0 0 0
-0.12968730 0.43016410 0.84371440 0 0 0
-0.13003486 0.45020276 0.84798419 0 0 0
-0.13008251 0.47020261 0.85231184 0 0 0
-0.12968511 0.48351411 0.85496575 0 0 0
-0.10990596 -0.56982801 0.85754189 0 0 0
-0.11004981 -0.55003484 0.85561458 0 0 0
-0.11028184 -0.53002970 0.85346898 0 0 0
-0.10977694 -0.50981952 0.85115463 0 0 0
-0.10988527 -0.49010656 0.84881023 0 0 0
-0.10978510 -0.47011458 0.84609927 0 0 0
-0.11034547 -0.44987949 0.84307528 23 24 24
-0.11942608 -0.42000579 0.83995271 181 181 177
-0.11028905 -0.42995183 0.84133520 174 175 175
-0.11772318 -0.40811016 0.83975603 168 169 169
-0.10783094 -0.41035047 0.84081035 173 174 173
-0.11581483 -0.38904794 0.83956357 174 174 172
-0.10612580 -0.39085067 0.84059565 169 169 168
-0.11332868 -0.36921293 0.83936338 173 173 173
-0.10359176 -0.37118835 0.84037225 176 176 175
-0.11074005 -0.34945077 0.83912349 177 178 177
-0.10154660 -0.35476629 0.84016780 175 176 177
-0.10994257 -0.33007244 0.83867596 177 176 176
-0.10966408 -0.30983770 0.83817713 173 172 172
-0.10974820 -0.29002813 0.83741094 175 174 174
-0.10956474 -0.27015848 0.83673305 173 170 172
-0.10997891 -0.25032540 0.83645724 164 137 148
-0.10990647 -0.22991224 0.83136070 144 94 110
-0.10733781 -0.20545833 0.81550055 140 132 140
-0.11223706 -0.21391926 0.82479372 142 115 129
-0.10750231 -0.18475591 0.79466932 133 129 133
-0.11149935 -0.19353786 0.80667588 138 132 138
-0.10136151 -0.16088856 0.75903249 129 120 124
-0.10828787 -0.16643231 0.77248730 133 125 130
-0.11226942 -0.17498772 0.78646610 130 117 126
-0.10450278 -0.14328760 0.73538249 122 114 116
-0.10994073 -0.14947344 0.75026941 128 121 124
-0.11447128 -0.15663100 0.76466776 130 123 128
-0.10175928 -0.12170518 0.69766931 89 78 84
-0.10805419 -0.12621222 0.71102302 107 96 101
-0.11178267 -0.13405122 0.72856312 121 112 114
-0.11750736 -0.13858098 0.74168993 130 119 124
-0.10868765 -0.10833341 0.69125585 102 91 94
-0.11596153 -0.11722637 0.70517989 108 95 100
-0.11033003 -0.09006265 0.68843486 115 103 107
-0.11015073 -0.06983833 0.68858437 129 119 121
-0.10997279 -0.05015103 0.69175279 130 121 123
-0.11194834 -0.03127591 0.69547823 138 129 131
-0.10316247 -0.02579230 0.70175724 144 136 137
-0.11659777 -0.01486626 0.69838953 140 134 136
-0.10833536 -0.00896939 0.70439579 142 133 135
-0.10983374 0.00987140 0.71232759 126 118 120
-0.11988756 0.01955095 0.72056568 129 123 124
-0.10754430 0.02179947 0.71897015 127 117 118
-0.10921303 0.03065269 0.72623177 125 116 118
-0.11827306 0.03769610 0.74369634 120 118 122
-0.10511501 0.04523115 0.73480943 135 123 126
-0.11005641 0.05050222 0.74845127 130 124 129
-0.11539028 0.05550485 0.76786490 145 144 147
-0.10216165 0.06299393 0.75525012 131 127 129
-0.10760670 0.06770505 0.77302565 146 145 149
-0.11370302 0.07325290 0.78684621 147 143 151
-0.10702389 0.08732792 0.79384403 151 148 154
-0.11392034 0.09370123 0.80403899 154 153 159
-0.11004864 0.11003074 0.81084461 154 150 157
-0.11203997 0.12811404 0.81835445 164 130 143
-0.10605798 0.13512839 0.82077416 180 168 174
-0.11833193 0.14445135 0.81963780 181 160 165
-0.10928764 0.15048631 0.82192414 174 172 173
-0.10986567 0.16973980 0.82343820 170 168 169
-0.11015063 0.18991555 0.82491006 168 167 169
-0.10980157 0.21009325 0.82652163 166 164 164
-0.10985326 0.22999383 0.82823196 169 168 169
-0.10994533 0.24994398 0.82964964 168 167 168
-0.11036586 0.27004408 0.83076874 163 162 162
-0.11035909 0.29002363 0.83161940 166 165 164
-0.11032484 0.30996732 0.83226344 160 159 159
-0.11036260 0.32990716 0.83253831 164 164 165
-0.11069266 0.34993824 0.83307522 162 162 163
-0.10978946 0.36987187 0.83511273 1 1 1
-0.10988468 0.38984856 0.83790040 0 0 0
-0.10105899 0.39840783 0.84013778 0 0 0
-0.11469239 0.40256364 0.83950005 0 0 0
-0.10926701 0.41119291 0.84176228 0 0 0
-0.11015438 0.42981737 0.84538775 0 0 0
-0.10987170 0.44970821 0.84950097 0 0 0
-0.11023063 0.46966473 0.85365841 0 0 0
-0.10965837 0.48366391 0.85637274 0 0 0
-0.09015897 -0.57025308 0.85850625 0 0 0
-0.08990823 -0.54980535 0.85662585 0 0 0
-0.08980248 -0.53003264 0.85457264 0 0 0
-0.08989538 -0.51036088 0.85235281 0 0 0
-0.08986283 -0.48981049 0.84995512 0 0 0
-0.09045732 -0.46993510 0.84736677 0 0 0
-0.09017101 -0.45013995 0.84472937 35 35 35
-0.08982755 -0.43003982 0.84328297 175 176 175
-0.09012893 -0.41004340 0.84257240 175 176 175
-0.08978007 -0.38999876 0.84223991 178 178 177
-0.08992597 -0.37007481 0.84170769 175 175 176
-0.09910237 -0.34016196 0.83996415 175 176 176
-0.08978702 -0.35008762 0.84113610 174 174 174
-0.09684894 -0.32734974 0.83974876 176 176 177
-0.08736954 -0.33077742 0.84070145 177 177 178
-0.09188896 -0.30860166 0.83945402 170 170 171
-0.08396212 -0.31423858 0.84029429 176 175 176
-0.08937086 -0.28993092 0.83883063 176 171 173
-0.08993002 -0.27024191 0.83783808 163 134 144
-0.09017404 -0.24983081 0.83337864 146 92 108
-0.08498856 -0.22383794 0.81724495 140 131 137
-0.09142702 -0.23187638 0.82577088 141 113 125
-0.08354144 -0.20271192 0.79764018 135 129 133
-0.09048542 -0.21078546 0.80963588 138 130 137
-0.09865737 -0.21864423 0.82114814 133 109 127
-0.08509927 -0.18303141 0.77577237 130 125 130
-0.09060547 -0.19102856 0.78971315 133 128 132
-0.09686355 -0.19809647 0.80188560 136 131 135
-0.08741920 -0.16513304 0.75285475 128 120 122
-0.09161704 -0.17349423 0.76838713 132 124 129
-0.09752067 -0.17922257 0.78079996 133 126 132
-0.08526757 -0.14343165 0.71392246 93 80 83
-0.09009018 -0.14985953 0.73059783 114 105 107
-0.09422874 -0.15653217 0.74576882 126 116 119
-0.08977540 -0.12531497 0.69798285 91 78 80
-0.08776500 -0.13209724 0.70450681 94 81 84
-0.09760828 -0.13943786 0.72157991 113 104 105
-0.09323986 -0.11033352 0.69668845 104 92 94
-0.08312641 -0.10921399 0.70157485 116 103 105
-0.09432688 -0.09010697 0.69710109 123 112 114
-0.08418926 -0.08986732 0.70203946 131 121 123
-0.09550760 -0.07107752 0.69720234 129 119 121
-0.08558285 -0.06931375 0.70305049 134 126 128
-0.09749535 -0.05316652 0.69861935 137 128 128
-0.08843617 -0.04924541 0.70502816 142 132 133
-0.08991227 -0.03010639 0.70818967 144 137 139
-0.09050899 -0.00993096 0.71317489 149 141 142
-0.08053635 -0.00137231 0.72060903 166 159 160
-0.09388450 0.00815861 0.71733830 141 132 133
-0.08532327 0.01249547 0.72230369 152 141 140
-0.09941478 0.02118385 0.71962055 138 126 130
-0.09017568 0.03020637 0.72621670 133 124 125
-0.08931729 0.04970856 0.73431963 137 129 129
-0.09753053 0.05899773 0.74153636 132 125 125
-0.08589073 0.06133908 0.73959305 136 132 130
-0.08844868 0.06953357 0.74665618 134 126 126
-0.09679097 0.07630036 0.76726051 141 138 141
-0.08382917 0.08252597 0.75678082 134 125 126
-0.08751861 0.08762027 0.77022299 137 132 134
-0.09326206 0.09375831 0.78875436 148 147 151
-0.08841621 0.10285786 0.79590544 147 146 151
-0.09203845 0.11199167 0.80920507 159 153 159
-0.08334745 0.11737786 0.82118307 173 167 169
-0.09695103 0.12213486 0.81847251 162 149 158
-0.08935658 0.13046423 0.82265780 168 166 168
-0.08985019 0.14982876 0.82494553 170 168 169
-0.08979732 0.17018460 0.82672852 168 166 167
-0.08987052 0.19002884 0.82828464 170 168 169
-0.08984601 0.20984889 0.82967544 166 164 165
-0.09025674 0.23007495 0.83126470 167 166 167
-0.09035421 0.25004078 0.83266399 166 165 166
-0.09032590 0.26994757 0.83385692 160 157 157
-0.09069059 0.29007618 0.83469916 157 155 156
-0.09062507 0.31002519 0.83530604 162 161 161
-0.09054669 0.32988730 0.83548070 164 162 162
-0.09052501 0.35007070 0.83595462 154 153 154
-0.08937258 0.37002640 0.83759766 0 0 0
-0.09239667 0.38580610 0.83918051 0 0 0
-0.08723531 0.39406210 0.84089931 0 0 0
-0.09012516 0.41000597 0.84334275 0 0 0
-0.09038232 0.42983101 0.84710323 0 0 0
-0.08983399 0.45032244 0.85118258 0 0 0
-0.08975970 0.47032285 0.85525571 0 0 0
-0.09008600 0.48438748 0.85782048 0 0 0
-0.07767321 -0.58008634 0.85988988 0 0 0
-0.06804243 -0.58034716 0.86027652 0 0 0
-0.07093448 -0.56853029 0.85928516 0 0 0
-0.06540543 -0.57685558 0.86018655 0 0 0
-0.07022207 -0.55022181 0.85768769 0 0 0
-0.06989028 -0.52987956 0.85560875 0 0 0
-0.06998261 -0.50968331 0.85339127 0 0 0
-0.07042653 -0.49014084 0.85114987 0 0 0
-0.07006121 -0.46987739 0.84873350 0 0 0
-0.06968850 -0.44966290 0.84620991 51 51 51
-0.06990868 -0.43004933 0.84499267 173 174 172
-0.06962165 -0.40997680 0.84451206 179 180 180
-0.06968418 -0.39001843 0.84417636 172 174 174
-0.06972527 -0.36996168 0.84357956 174 174 175
-0.06945485 -0.34995703 0.84297039 176 176 176
-0.06964958 -0.33002205 0.84224521 176 176 177
-0.07877242 -0.30094549 0.83991504 178 178 177
-0.06939199 -0.31020415 0.84126566 175 175 175
-0.07210063 -0.28803634 0.83976099 168 153 160
-0.06736207 -0.29284307 0.84037461 176 167 170
-0.07207125 -0.26877109 0.83777588 156 113 127
-0.06766103 -0.27180379 0.84055511 209 166 181
-0.06444758 -0.24168166 0.81887277 137 129 138
-0.07078153 -0.25072065 0.82863781 143 113 124
-0.06915994 -0.22930930 0.81247610 137 131 136
-0.07700243 -0.23684046 0.82192468 140 131 138
-0.06851279 -0.20738003 0.79273759 133 128 132
-0.07312734 -0.21591430 0.80379979 135 130 134
-0.06318523 -0.18158303 0.75742935 126 115 117
-0.06919648 -0.18853614 0.77073404 127 115 120
-0.07343212 -0.19669923 0.78416339 132 125 129
-0.06712768 -0.16389248 0.73253750 105 93 95
-0.07077316 -0.17246344 0.74967256 123 114 116
-0.07736856 -0.17802012 0.76247796 129 119 122
-0.06839839 -0.14728780 0.71205891 101 88 90
-0.07326798 -0.15673459 0.72587388 106 94 96
-0.06999518 -0.12996379 0.70777593 110 97 98
-0.07016259 -0.11001259 0.70853432 126 114 116
-0.07015855 -0.08995090 0.70945756 134 124 126
-0.07036058 -0.06993802 0.71202689 137 127 128
-0.06007950 -0.06013020 0.72024250 147 141 139
-0.07158066 -0.05081119 0.71487671 144 136 137
-0.06210316 -0.04716643 0.72141653 152 143 144
-0.07472728 -0.03082379 0.71678982 156 148 149
-0.06499567 -0.02872586 0.72296767 153 144 145
-0.07784862 -0.01415713 0.71863405 159 149 149
-0.06887917 -0.00906452 0.72472274 150 139 138
-0.07008117 0.01043050 0.72864952 150 141 142
-0.06997762 0.03000961 0.73326677 147 139 138
-0.07171379 0.04789651 0.73733185 142 134 132
-0.06540271 0.05530177 0.74125191 149 139 139
-0.07961213 0.06099046 0.73979670 136 124 119
-0.06993017 0.06996171 0.74707807 142 133 132
-0.07212175 0.08269310 0.75689908 142 133 133
-0.07023042 0.09043379 0.76801740 135 127 128
-0.06924488 0.09702264 0.78602107 145 129 133
-0.06279774 0.09705936 0.81095504 181 150 159
-0.07647577 0.10260927 0.79120355 134 121 125
-0.07321470 0.10550287 0.81353279 183 160 164
-0.06816652 0.11203676 0.82320892 173 167 169
-0.06964541 0.13012597 0.82578998 169 166 168
-0.06996108 0.15016119 0.82800698 168 165 166
-0.06975485 0.16983782 0.82987771 166 164 165
-0.07006479 0.18997489 0.83141052 164 163 165
-0.07035909 0.21006863 0.83268590 155 155 158
-0.07011944 0.22990875 0.83427210 152 150 152
-0.07053925 0.24999158 0.83557003 163 162 162
-0.07051182 0.27000136 0.83670899 164 163 163
-0.07046290 0.28997660 0.83759356 160 159 160
-0.07078180 0.31009572 0.83811853 167 165 166
-0.07066786 0.32998633 0.83833554 166 165 165
-0.07063734 0.34956637 0.83865739 148 148 149
-0.06194957 0.35852777 0.84014838 38 38 39
-0.07388114 0.36749263 0.83927402 0 0 0
-0.06578649 0.37264879 0.84074423 0 0 0
-0.06942506 0.38979357 0.84222296 0 0 0
-0.06990715 0.40994353 0.84524852 0 0 0
-0.06993139 0.43002666 0.84888344 0 0 0
-0.07025948 0.44964214 0.85254151 0 0 0
-0.07002073 0.46965614 0.85652073 0 0 0
-0.07073178 0.48400924 0.85905619 0 0 0
-0.06432447 0.48836614 0.86026008 0 0 0
-0.05024561 -0.58089393 0.86108701 0 0 0
-0.05379138 -0.56359380 0.85967009 0 0 0
-0.04880532 -0.57248114 0.86061544 0 0 0
-0.04991684 -0.54984621 0.85868732 0 0 0
-0.05018013 -0.53007314 0.85666856 0 0 0
-0.04986302 -0.51001632 0.85454065 0 0 0
-0.04957107 -0.48976909 0.85237329 0 0 0
-0.04967367 -0.47003129 0.85014178 0 0 0
-0.05007043 -0.45033573 0.84775114 58 58 58
-0.05008871 -0.43002286 0.84670804 173 173 173
-0.05011010 -0.40999229 0.84625254 174 174 173
-0.05013834 -0.39003589 0.84590950 179 179 179
-0.05000326 -0.37003111 0.84531752 174 174 173
-0.05006214 -0.35002583 0.84462062 171 170 170
-0.04997019 -0.33008286 0.84388589 174 172 173
-0.04991171 -0.31003122 0.84290182 166 165 164
-0.05990587 -0.28064886 0.83999741 163 159 164
-0.05055467 -0.28998148 0.84149330 173 172 172
-0.05792303 -0.27265402 0.83987856 167 159 166
-0.04940803 -0.26950666 0.84054137 174 169 172
-0.05837787 -0.24095105 0.81857804 139 133 140
-0.04983070 -0.24640841 0.83649677 172 154 161
-0.04914696 -0.25565583 0.84034578 181 169 173
-0.05122757 -0.22137249 0.79897964 132 128 131
-0.05303870 -0.22917743 0.80802691 132 121 130
-0.04446197 -0.23574213 0.83367500 180 152 161
-0.04761959 -0.20244678 0.77637668 123 113 118
-0.05101307 -0.21222527 0.78947730 130 125 128
-0.04049098 -0.21767052 0.80060148 121 107 117
-0.04793310 -0.18468665 0.75292454 107 99 100
-0.05141884 -0.19408894 0.76762525 119 113 116
-0.04866893 -0.16726361 0.72971796 92 81 81
-0.05228699 -0.17740704 0.74443705 103 94 96
-0.05589440 -0.14869701 0.71726717 103 91 91
-0.04631311 -0.15076925 0.72396527 109 97 97
-0.05525695 -0.12972111 0.71679620 121 111 111
-0.04511146 -0.13029109 0.72337847 126 114 113
-0.05517580 -0.11034019 0.71700656 126 114 115
-0.04513113 -0.10956200 0.72322906 135 125 125
-0.05635751 -0.09084376 0.71759298 140 130 130
-0.04640944 -0.08951033 0.72399883 141 132 133
-0.05822596 -0.07439495 0.71874022 138 130 131
-0.04892531 -0.06942084 0.72529393 147 136 137
-0.05000845 -0.05007791 0.72804246 157 148 148
-0.05021246 -0.03006662 0.73099387 152 141 140
-0.05049807 -0.00996122 0.73403488 161 153 152
-0.04043555 -0.00187946 0.74046317 168 158 158
-0.05291655 0.00917524 0.73631423 158 150 149
-0.04287520 0.01164302 0.74155450 159 152 151
-0.05573905 0.02730510 0.73846160 152 143 142
-0.04681918 0.03099794 0.74307753 163 155 152
-0.05916746 0.04054132 0.73997414 168 159 154
-0.04989379 0.04991818 0.74561420 157 148 146
-0.05131189 0.06753879 0.75179420 157 148 147
-0.04816601 0.07623432 0.76668555 162 148 149
-0.04314017 0.07694278 0.79215504 168 153 156
-0.04219518 0.07836676 0.80678035 178 155 160
-0.05626763 0.08294022 0.76975533 152 141 142
-0.05307383 0.08497621 0.79000497 161 144 147
-0.05182894 0.08833175 0.81288179 184 158 164
-0.04681932 0.09319734 0.82357227 179 172 174
-0.04964354 0.11027076 0.82638214 172 169 170
-0.04992413 0.13011019 0.82891225 172 170 171
-0.04979818 0.14980592 0.83097672 169 167 168
-0.05003304 0.17014984 0.83284417 167 164 166
-0.05025575 0.19010218 0.83440933 161 159 160
-0.05008129 0.20987802 0.83569902 161 157 158
-0.05047353 0.23005052 0.83712785 167 165 165
-0.05052766 0.24969420 0.83846522 166 165 165
-0.04145410 0.25721248 0.84015412 153 146 138
-0.05384036 0.26904631 0.83906585 163 162 162
-0.04438091 0.27182902 0.84053411 160 157 156
-0.05692417 0.28919983 0.83949693 158 157 157
-0.04682616 0.29038517 0.84088246 166 165 166
-0.05887282 0.30910957 0.83976046 167 167 169
-0.04888587 0.31014197 0.84116127 162 161 162
-0.05971652 0.32872966 0.83988700 151 149 150
-0.04986060 0.33022875 0.84122710 162 162 162
-0.05990391 0.34146524 0.83996996 162 164 165
-0.05041615 0.35005398 0.84134644 142 142 142
-0.05035377 0.36976134 0.84237924 0 0 0
-0.05000199 0.38999091 0.84443785 0 0 0
-0.04979649 0.41003425 0.84722518 0 0 0
-0.04983305 0.42990708 0.85056842 0 0 0
-0.04973977 0.45005936 0.85417751 0 0 0
-0.05019278 0.47002693 0.85795750 0 0 0
-0.04231296 0.47945513 0.86014531 0 0 0
-0.05619284 0.48231469 0.85970664 0 0 0
-0.04858390 0.48598288 0.86080583 0 0 0
-0.02853066 -0.58110703 0.86201651 0 0 0
-0.03034093 -0.57031563 0.86125260 0 0 0
-0.03145136 -0.54736008 0.85939597 0 0 0
-0.02723640 -0.55636653 0.86032289 0 0 0
-0.02990166 -0.52986681 0.85772325 0 0 0
-0.03000115 -0.51002403 0.85569352 0 0 0
-0.02998858 -0.49017760 0.85361493 0 0 0
-0.02981503 -0.46990576 0.85144404 0 0 0
-0.03030863 -0.44944830 0.84917339 82 83 81
-0.03034403 -0.42997006 0.84837145 167 168 167
-0.03051404 -0.40996681 0.84791489 169 168 167
-0.03031465 -0.39000071 0.84754944 169 170 170
-0.03047652 -0.36994230 0.84687252 162 163 162
-0.03036110 -0.34999322 0.84618015 161 161 161
-0.03033572 -0.32997273 0.84547223 171 171 171
-0.03030522 -0.30993695 0.84463193 165 163 164
-0.03011076 -0.29002063 0.84345133 169 168 169
-0.03037354 -0.26996003 0.84219851 167 166 167
-0.03874205 -0.24285050 0.83982502 166 152 155
-0.02969870 -0.25024374 0.84119775 165 162 164
-0.03902638 -0.22043681 0.81336677 139 120 127
-0.03149854 -0.22847084 0.83775901 185 150 161
-0.02524528 -0.23477057 0.84057772 171 166 169
-0.03672790 -0.20240100 0.77513252 108 92 104
-0.03609815 -0.20830664 0.78871308 108 93 102
-0.03141683 -0.20987983 0.81075403 139 117 127
-0.02508132 -0.21283471 0.83309675 198 156 171
-0.03215678 -0.18535545 0.75121828 89 77 80
-0.03208477 -0.19446887 0.76635163 98 86 92
-0.02304084 -0.19275454 0.78735288 120 102 109
-0.02201807 -0.19668981 0.80820608 130 108 116
-0.03316877 -0.16703418 0.73582296 97 86 88
-0.02580879 -0.17258768 0.74253039 93 81 83
-0.03141403 -0.14967476 0.73441636 118 105 106
-0.02161328 -0.15225560 0.74072352 115 106 105
-0.03004356 -0.12993871 0.73309621 130 120 119
-0.03012768 -0.11002487 0.73282147 137 125 124
-0.03046982 -0.09020545 0.73410666 137 128 129
-0.02080479 -0.08546658 0.74021932 141 130 130
-0.03184667 -0.07036901 0.73524859 152 142 141
-0.02222853 -0.06773668 0.74108967 157 148 146
-0.03437936 -0.05067395 0.73671645 148 137 137
-0.02457548 -0.04887370 0.74231623 151 140 140
-0.03680862 -0.03155681 0.73805092 155 145 145
-0.02709137 -0.02935502 0.74347025 161 150 147
-0.03905391 -0.01460605 0.73924191 158 150 151
-0.02952296 -0.00970555 0.74483930 165 158 157
-0.03002915 0.00995083 0.74738518 165 156 155
-0.03031180 0.02985766 0.75070323 164 153 152
-0.03140314 0.04888132 0.75451790 163 155 154
-0.02327112 0.05294138 0.76382746 164 157 155
-0.02266292 0.05781695 0.78710958 171 160 161
-0.02062257 0.05966054 0.80840737 177 165 167
-0.03736695 0.06320670 0.75609407 168 160 159
-0.03470360 0.06501974 0.76462032 171 164 162
-0.03291613 0.06667299 0.78759533 171 161 160
-0.03025914 0.06905042 0.81360967 180 162 165
-0.02627630 0.07431869 0.82351456 175 166 169
-0.02971266 0.09028835 0.82693459 173 170 171
-0.02972316 0.10997066 0.82993276 166 163 164
-0.02985306 0.12972969 0.83210870 163 161 163
-0.02996963 0.15015913 0.83401025 162 160 161
-0.02993392 0.16997164 0.83578133 155 153 155
-0.03003722 0.18985478 0.83721816 158 155 155
-0.03056630 0.20979087 0.83841047 164 159 160
-0.02119418 0.21714924 0.84018842 173 172 172
-0.03411768 0.22808641 0.83924921 159 158 160
-0.02532378 0.23206335 0.84072775 157 157 158
-0.03863620 0.24382679 0.83977807 163 160 161
-0.02970986 0.25053426 0.84138203 163 162 163
-0.03003498 0.27000706 0.84240890 159 159 159
-0.03041981 0.29002686 0.84309023 161 160 161
-0.03014499 0.30994515 0.84367613 165 164 165
-0.03022977 0.32999842 0.84393627 169 168 168
-0.03047070 0.35005748 0.84402674 139 139 140
-0.03021839 0.37004378 0.84497360 0 0 0
-0.03037933 0.39010730 0.84672740 0 0 0
-0.03040330 0.40986132 0.84915127 0 0 0
-0.02966551 0.42999364 0.85231756 0 0 0
-0.02996140 0.44988447 0.85563748 0 0 0
-0.03100361 0.46704743 0.85871990 0 0 0
-0.02815198 0.47643746 0.86054197 0 0 0
-0.02999519 0.48526722 0.86183752 0 0 0
-0.01008145 -0.58132157 0.86282621 0 0 0
-0.01001970 -0.56972772 0.86212860 0 0 0
-0.01572130 -0.54292890 0.85978084 0 0 0
-0.00907898 -0.55087592 0.86075204 0 0 0
-0.01042415 -0.52992381 0.85875742 0 0 0
-0.00150324 -0.53821085 0.86006735 0 0 0
-0.01001063 -0.50990725 0.85683963 0 0 0
-0.00978545 -0.48978618 0.85479550 0 0 0
-0.01006350 -0.47011075 0.85275780 0 0 0
-0.00985606 -0.45005656 0.85079682 95 95 93
-0.01010321 -0.42993051 0.85001547 174 174 172
-0.00979410 -0.40997065 0.84958269 179 179 178
-0.01004557 -0.38996508 0.84914639 174 175 175
-0.00991300 -0.37003938 0.84854872 173 173 171
-0.00985601 -0.35000358 0.84785834 177 176 175
-0.00994842 -0.32995015 0.84714738 172 170 170
-0.00976276 -0.31000284 0.84640279 169 167 168
-0.01000622 -0.28993776 0.84543060 172 170 170
-0.00971319 -0.26997210 0.84458409 154 150 152
-0.01000988 -0.24999558 0.84359819 157 155 157
-0.01761424 -0.22195705 0.83972187 174 167 171
-0.00931875 -0.23048523 0.84191869 161 158 160
-0.01173867 -0.20853225 0.83771259 179 153 165
-0.00414483 -0.21445959 0.84070714 161 159 164
-0.01874928 -0.18051106 0.76063794 96 87 90
-0.01599060 -0.18386534 0.78726153 105 92 98
-0.01383657 -0.18774788 0.81181495 154 133 141
-0.00680586 -0.19215831 0.83334357 198 161 175
-0.01477583 -0.16639883 0.74803093 113 102 103
-0.00861656 -0.16946127 0.76724748 111 97 102
-0.00550812 -0.17166373 0.79056893 140 116 124
-0.00282909 -0.17472103 0.81322227 176 147 155
-0.00203557 -0.17838468 0.82698008 193 161 170
-0.01029827 -0.14968435 0.74700327 126 116 115
-0.00034496 -0.15752863 0.76394629 133 119 124
-0.01903479 -0.12638338 0.73947987 135 123 124
-0.00922584 -0.13024174 0.74558459 138 127 126
-0.01904274 -0.11234921 0.73955205 139 129 129
-0.00913687 -0.10974547 0.74562894 145 136 135
-0.01000698 -0.08998857 0.74623905 143 134 133
-0.00994264 -0.07001934 0.74786183 154 144 143
-0.01019946 -0.05002221 0.75003151 158 148 146
-0.00994074 -0.03012930 0.75247411 159 150 149
-0.01038197 -0.01013719 0.75446866 158 151 149
-0.00034334 -0.00236783 0.76036711 163 154 149
-0.01243276 0.00948916 0.75595431 160 151 150
-0.00240059 0.01207504 0.76152579 160 153 152
-0.01595628 0.02791623 0.75758389 166 157 153
-0.00627373 0.03123572 0.76440692 166 156 154
-0.01872358 0.04096009 0.75959530 164 156 153
-0.01305691 0.04498700 0.76780903 167 153 152
-0.01067148 0.04987430 0.79056860 171 154 155
-0.00896674 0.05237829 0.81292522 182 157 163
-0.00473125 0.05578095 0.82478199 177 163 167
-0.01827055 0.06081681 0.81767907 184 165 170
-0.00961169 0.07042566 0.82761100 168 163 166
-0.00961007 0.08995218 0.83102176 165 161 164
-0.00973272 0.10976800 0.83342551 166 163 166
-0.00980332 0.13017937 0.83530350 161 159 161
-0.00972462 0.14998076 0.83708145 157 155 157
-0.01070047 0.16920452 0.83854321 152 151 152
-0.00183172 0.17603486 0.84033617 161 161 163
-0.01501368 0.18875513 0.83923938 160 158 158
-0.00541996 0.19121799 0.84081811 156 155 158
-0.01818309 0.20459864 0.83973568 167 162 161
-0.00892804 0.21039385 0.84146803 160 158 160
-0.01001745 0.22996549 0.84268929 158 155 156
-0.00968671 0.25001130 0.84406688 161 161 162
-0.01004545 0.27003373 0.84501534 164 164 166
-0.00970680 0.28999169 0.84579138 162 161 162
-0.01007429 0.31003970 0.84628976 163 163 163
-0.00969940 0.32990973 0.84667588 165 166 167
-0.01004387 0.34993673 0.84689295 137 136 139
-0.00974299 0.37001806 0.84767382 0 0 0
-0.00991780 0.38994461 0.84910529 0 0 0
-0.00994338 0.41005455 0.85124352 0 0 0
-0.01014797 0.43004790 0.85398229 0 0 0
-0.00994688 0.45004442 0.85715839 0 0 0
-0.01207015 0.46374258 0.85940374 0 0 0
-0.00901571 0.47312451 0.86119386 0 0 0
-0.01008419 0.48589625 0.86313322 0 0 0
0.01006293 -0.58198364 0.86380889 0 0 0
0.01005491 -0.57033325 0.86311972 0 0 0
0.01003726 -0.54996830 0.86159801 0 0 0
0.00880959 -0.52604323 0.85939654 0 0 0
0.01211353 -0.53504794 0.86044541 0 0 0
0.00980336 -0.51022063 0.85801318 0 0 0
0.00997273 -0.49019032 0.85602843 0 0 0
0.00994916 -0.46984126 0.85400301 0 0 0
0.00992909 -0.44972449 0.85224735 122 122 119
0.01004972 -0.43005742 0.85158153 171 169 166
0.00979244 -0.40997593 0.85110356 173 173 173
0.00991055 -0.39007078 0.85065384 171 171 171
0.00995237 -0.37002058 0.85006904 168 167 167
0.00984483 -0.34993389 0.84944071 172 172 172
0.01001210 -0.32996561 0.84880417 176 176 177
0.00975346 -0.30992245 0.84810134 178 178 179
0.01003820 -0.28996679 0.84735179 177 176 176
0.00969652 -0.27000110 0.84666434 175 173 174
0.01002996 -0.25004241 0.84587253 170 168 169
0.00966263 -0.22990166 0.84428813 166 165 166
0.00107238 -0.20148709 0.83985111 169 159 164
0.00992075 -0.21019110 0.84233831 167 164 166
0.00670954 -0.18798876 0.83809235 178 170 173
0.01500678 -0.19248239 0.84104842 165 162 165
0.00238308 -0.16144500 0.78960641 149 128 134
0.00455405 -0.16472759 0.81250757 167 142 148
0.01194538 -0.17113328 0.83490209 177 162 166
0.01946699 -0.17857112 0.84017108 159 154 156
0.00409058 -0.14499833 0.75533467 140 131 132
0.00803719 -0.14804868 0.76826707 141 131 134
0.01220897 -0.14818644 0.78763893 155 141 144
0.01376701 -0.15202002 0.80848211 169 154 159
0.01743201 -0.15621119 0.83064911 176 164 167
0.00676012 -0.12943708 0.75516065 146 136 134
0.01640486 -0.12968928 0.76325734 151 141 140
0.01859619 -0.13847156 0.78311861 162 141 146
0.00744640 -0.11014629 0.75567311 154 143 141
0.01724483 -0.10945688 0.76164235 148 138 136
0.00687715 -0.08996169 0.75599401 157 146 144
0.01677531 -0.08992979 0.76177592 158 150 150
0.00606216 -0.07028443 0.75676684 156 146 145
0.01600048 -0.06972681 0.76229796 157 148 147
0.00460080 -0.05097087 0.75780513 163 152 150
0.01445724 -0.04954272 0.76311991 159 150 150
0.00261595 -0.03174491 0.75888293 162 155 155
0.01215415 -0.02932161 0.76389622 157 150 149
0.00113422 -0.01533213 0.75969128 153 145 144
0.01058622 -0.00943755 0.76494063 161 152 149
0.01029567 0.01022902 0.76800972 167 157 155
0.00715934 0.02635352 0.77201114 161 153 152
0.01150672 0.03032811 0.78684987 170 161 158
0.01201428 0.03427424 0.81079661 173 153 156
0.01650019 0.03675217 0.82512779 185 159 166
0.00100123 0.04024955 0.78412318 163 154 155
0.00343569 0.04247691 0.81378405 179 158 165
0.01082162 0.05089636 0.82915777 170 163 165
