ply
format ascii 1.0
element vertex 1047
property float x
property float y
property float z
property uchar red
property uchar green
property uchar blue
end_header
-0.26991558 -0.11372930 0.53800941 186 186 188
-0.26919934 -0.11381963 0.53843671 186 186 188
-0.26848194 -0.11391011 0.53886473 186 186 188
-0.26776341 -0.11400073 0.53929341 187 187 189
-0.26661918 -0.11391011 0.53886473 187 188 190
-0.26547676 -0.11381963 0.53843671 186 186 188
-0.26412654 -0.11363911 0.53758276 184 185 187
-0.26257268 -0.11336939 0.53630686 183 184 186
0.82335693 -0.18185142 0.86026883 159 159 166
0.82319677 -0.18116172 0.85700613 160 160 166
0.82052869 -0.18025021 0.85269415 161 162 167
0.81993979 -0.17979789 0.85055441 159 160 164
0.81935382 -0.17934783 0.84842533 153 154 158
0.81673145 -0.17845444 0.84419906 153 154 158
0.81819057 -0.17845444 0.84419906 155 156 160
0.82169628 -0.17890002 0.84630692 160 161 165
0.82110882 -0.17845444 0.84419906 164 166 169
0.82052433 -0.17801107 0.84210169 162 166 167
0.82197982 -0.17801107 0.84210169 156 160 161
0.82139462 -0.17756991 0.84001470 157 161 163
0.82182813 -0.17735013 0.83897507 158 162 164
0.82327825 -0.17735013 0.83897507 157 162 164
0.82370889 -0.17713092 0.83793801 154 162 163
0.82515717 -0.17713092 0.83793801 154 163 164
0.82558501 -0.17691223 0.83690351 156 165 166
0.82601178 -0.17669410 0.83587158 155 162 165
0.82847804 -0.17691223 0.83690351 151 156 161
0.82992458 -0.17691223 0.83690351 147 151 157
0.83239871 -0.17713092 0.83793801 150 151 158
-0.27270532 -0.11279939 0.53800941 174 174 176
-0.27177539 -0.11279939 0.53800941 180 180 182
-0.27063072 -0.11270994 0.53758276 188 189 189
-0.26970154 -0.11270994 0.53758276 185 186 186
-0.26898569 -0.11279939 0.53800941 183 184 184
-0.26826870 -0.11288898 0.53843671 178 178 179
-0.26755056 -0.11297872 0.53886473 180 180 180
-0.26640740 -0.11288898 0.53843671 183 183 184
-0.26526606 -0.11279939 0.53800941 185 185 185
-0.26391724 -0.11262063 0.53715676 186 186 187
-0.26195097 -0.11217619 0.53503698 186 186 188
0.82501096 -0.18105380 0.86355650 163 164 168
0.82335693 -0.18036450 0.86026883 162 163 167
0.82067800 -0.17945358 0.85592407 163 164 168
0.82319677 -0.17968045 0.85700613 169 169 173
0.82156211 -0.17900155 0.85376805 163 164 168
0.81774980 -0.17721599 0.84525168 145 145 149
0.81921077 -0.17721599 0.84525168 151 152 156
0.82375312 -0.17788139 0.84842533 161 162 166
0.82315904 -0.17743725 0.84630692 160 163 166
0.82256800 -0.17699531 0.84419906 157 160 163
0.82300222 -0.17677516 0.84314907 153 156 159
0.82241368 -0.17633651 0.84105688 153 156 159
0.82182813 -0.17590004 0.83897507 155 157 160
0.82327825 -0.17590004 0.83897507 157 159 162
0.82370889 -0.17568260 0.83793801 157 161 164
0.82515717 -0.17568260 0.83793801 158 162 165
0.82558501 -0.17546572 0.83690351 158 161 165
0.82601178 -0.17524937 0.83587158 153 154 159
0.82847804 -0.17546572 0.83690351 150 150 156
0.83095044 -0.17568260 0.83793801 148 148 154
-0.27292192 -0.11195834 0.53843671 177 177 179
-0.27177539 -0.11186948 0.53800941 175 175 176
-0.27084550 -0.11186948 0.53800941 187 188 188
-0.26991558 -0.11186948 0.53800941 184 185 185
-0.26898569 -0.11186948 0.53800941 180 181 181
-0.26826870 -0.11195834 0.53843671 173 174 174
-0.26733804 -0.11195834 0.53843671 173 173 173
-0.26619598 -0.11186948 0.53800941 180 180 180
-0.26505572 -0.11178077 0.53758276 186 186 186
-0.26349965 -0.11151547 0.53630686 186 186 186
-0.26133218 -0.11098862 0.53377312 185 185 185
0.82501096 -0.17956121 0.86355650 174 174 177
0.82440317 -0.17910489 0.86136192 175 175 177
0.82171547 -0.17819919 0.85700613 174 174 176
0.82423878 -0.17842475 0.85809094 172 172 174
0.81979418 -0.17619444 0.84736478 142 142 146
0.82462186 -0.17597447 0.84630692 147 148 152
0.82402712 -0.17553619 0.84419906 143 144 148
0.82343537 -0.17510006 0.84210169 149 149 153
0.82413846 -0.17401920 0.83690351 161 162 166
0.82558501 -0.17401920 0.83690351 162 163 167
0.82601178 -0.17380463 0.83587158 157 157 161
0.82847804 -0.17401920 0.83690351 155 155 158
-0.27313885 -0.11111595 0.53886473 187 187 187
-0.27220747 -0.11111595 0.53886473 184 184 184
-0.27106062 -0.11102770 0.53843671 183 184 184
-0.27012998 -0.11102770 0.53843671 183 183 183
-0.26941332 -0.11111595 0.53886473 182 183 183
-0.26826870 -0.11102770 0.53843671 185 185 185
-0.26640740 -0.11102770 0.53843671 172 172 172
-0.26526606 -0.11093958 0.53800941 178 178 178
0.82606328 -0.17829575 0.86465794 166 167 169
0.82440317 -0.17761610 0.86136192 166 166 168
0.82275563 -0.17694160 0.85809094 163 163 165
0.82423878 -0.17694160 0.85809094 163 163 165
0.82565260 -0.17472984 0.84736478 153 154 158
0.82505459 -0.17429410 0.84525168 150 151 155
0.82343537 -0.17364456 0.84210169 155 155 159
0.82515717 -0.17278600 0.83793801 157 157 159
0.82601178 -0.17235988 0.83587158 159 159 161
-0.27335617 -0.11027223 0.53929341 184 185 185
-0.27242404 -0.11027223 0.53929341 182 183 183
-0.27127609 -0.11018457 0.53886473 181 182 183
-0.27034470 -0.11018457 0.53886473 184 184 185
-0.26941332 -0.11018457 0.53886473 185 185 186
-0.26848194 -0.11018457 0.53886473 188 189 190
0.82606328 -0.17680126 0.86465794 145 145 147
0.82440317 -0.17612730 0.86136192 141 141 142
0.82275563 -0.17545846 0.85809094 143 143 143
0.82423878 -0.17545846 0.85809094 153 153 153
0.82363677 -0.17501539 0.85592407 158 158 158
0.82876045 -0.17391743 0.85055441 163 164 168
0.82919019 -0.17369948 0.84948850 164 165 168
0.82651550 -0.17283316 0.84525168 161 161 164
-0.27242404 -0.10934010 0.53929341 178 182 183
-0.27127609 -0.10925318 0.53886473 181 185 186
-0.27034470 -0.10925318 0.53886473 183 187 188
-0.26962766 -0.10934010 0.53929341 181 183 185
-0.26848194 -0.10925318 0.53886473 181 182 184
-0.26661918 -0.10925318 0.53886473 187 187 187
0.82501096 -0.17508344 0.86355650 141 141 143
0.82335693 -0.17441688 0.86026883 140 140 140
0.82275563 -0.17397532 0.85809094 142 142 142
0.82423878 -0.17397532 0.85809094 151 150 150
0.82961881 -0.17201565 0.84842533 161 163 165
-0.27220747 -0.10832180 0.53886473 181 182 182
-0.27106062 -0.10823576 0.53843671 178 180 180
-0.27034470 -0.10832180 0.53886473 176 179 179
-0.26941332 -0.10832180 0.53886473 176 179 178
-0.26826870 -0.10823576 0.53843671 176 177 177
-0.26733804 -0.10823576 0.53843671 173 173 173
-0.26640740 -0.10823576 0.53843671 176 176 176
0.82817596 -0.17425682 0.86686939 145 144 146
0.82650352 -0.17359087 0.86355650 141 140 141
0.82484382 -0.17292999 0.86026883 142 141 142
0.82633078 -0.17292999 0.86026883 150 149 150
0.82937157 -0.17140733 0.85269415 166 173 175
0.82980162 -0.17119199 0.85162294 162 169 171
0.83127356 -0.17119199 0.85162294 157 164 166
0.82961881 -0.17054921 0.84842533 158 161 163
-0.27084550 -0.10721996 0.53800941 180 180 180
-0.27034470 -0.10739042 0.53886473 174 175 175
-0.26941332 -0.10739042 0.53886473 169 170 170
-0.26826870 -0.10730512 0.53843671 170 171 171
-0.26733804 -0.10730512 0.53843671 177 178 179
-0.26640740 -0.10730512 0.53843671 181 181 183
0.82923633 -0.17297970 0.86797929 157 157 159
0.82861465 -0.17253786 0.86576223 155 154 156
0.82694268 -0.17187932 0.86245781 158 157 159
0.82738072 -0.17166092 0.86136192 165 164 166
0.82572192 -0.17100905 0.85809094 170 169 171
0.83231920 -0.16993351 0.85269415 159 167 168
0.83065844 -0.16929467 0.84948850 158 161 163
-0.27177539 -0.10629005 0.53800941 175 175 175
-0.27084550 -0.10629005 0.53800941 181 182 182
-0.27012998 -0.10637447 0.53843671 183 184 186
-0.26919934 -0.10637447 0.53843671 176 177 178
-0.26826870 -0.10637447 0.53843671 156 156 158
-0.26733804 -0.10637447 0.53843671 161 162 164
-0.26640740 -0.10637447 0.53843671 175 174 178
-0.26526606 -0.10629005 0.53800941 182 182 186
1.12584639 -0.39506036 1.99968100 178 178 179
1.12598121 -0.39389843 1.99379957 178 176 178
1.13621533 -0.39506036 1.99968100 147 145 148
1.13298726 -0.39274329 1.98795259 115 115 119
1.12979686 -0.39045325 1.97636104 97 96 101
0.82923633 -0.17147946 0.86797929 165 166 168
0.82755774 -0.17082329 0.86465794 169 169 171
0.82589191 -0.17017213 0.86136192 171 170 172
0.82738072 -0.17017213 0.86136192 171 171 173
-0.27248904 -0.10527659 0.53758276 189 190 192
-0.27134469 -0.10519318 0.53715676 175 176 178
-0.27041626 -0.10519318 0.53715676 173 174 175
-0.26991558 -0.10536014 0.53800941 183 184 188
-0.26898569 -0.10536014 0.53800941 182 183 186
-0.26784322 -0.10527659 0.53758276 155 155 159
-0.26691404 -0.10527659 0.53758276 150 150 154
-0.26619598 -0.10536014 0.53800941 167 166 173
-0.26505572 -0.10527659 0.53758276 184 183 190
-0.26349965 -0.10502673 0.53630686 174 173 178
0.30628434 -0.16389357 0.83690351 113 86 74
0.30773085 -0.16389357 0.83690351 113 87 74
0.31624994 -0.16532227 0.84419906 115 86 71
1.11924326 -0.38930729 1.98795259 170 169 171
1.11939657 -0.38816896 1.98213995 173 172 174
1.12611520 -0.38930729 1.98795259 159 158 160
1.12955129 -0.38930729 1.98795259 138 138 141
1.12638092 -0.38703728 1.97636104 130 130 134
1.12651265 -0.38591215 1.97061586 118 116 122
1.12338734 -0.38368145 1.95922494 116 113 121
1.13003969 -0.38479358 1.96490383 131 129 135
1.16386557 -0.39160407 1.99968100 171 170 169
0.82817596 -0.16976187 0.86686939 164 165 167
0.82650352 -0.16911310 0.86355650 165 165 167
0.82589191 -0.16868334 0.86136192 164 165 167
0.82738072 -0.16868334 0.86136192 162 163 165
0.82467800 -0.16783032 0.85700613 160 161 163
-0.27112985 -0.10418218 0.53673148 174 178 180
-0.27020216 -0.10418218 0.53673148 171 175 178
-0.26970154 -0.10434742 0.53758276 179 183 186
-0.26877236 -0.10434742 0.53758276 173 177 180
-0.26763096 -0.10426474 0.53715676 168 170 173
-0.26649138 -0.10418218 0.53673148 175 176 180
-0.26577410 -0.10426474 0.53715676 179 178 185
-0.26463598 -0.10418218 0.53673148 185 184 191
0.30666292 -0.16264784 0.83793801 115 86 74
0.30811122 -0.16264784 0.83793801 115 86 75
0.30955955 -0.16264784 0.83793801 115 89 73
0.31177863 -0.16305093 0.84001470 115 89 73
0.31245616 -0.16264784 0.83793801 115 89 73
0.31546423 -0.16345602 0.84210169 115 87 71
1.11924326 -0.38587126 1.98795259 174 174 176
1.11939657 -0.38474298 1.98213995 178 178 180
1.12611520 -0.38587126 1.98795259 172 172 174
1.12624848 -0.38474298 1.98213995 164 164 166
1.12638092 -0.38362128 1.97636104 156 156 158
1.12651265 -0.38250610 1.97061586 147 147 150
1.12338734 -0.38029510 1.95922494 149 149 152
1.13003969 -0.38139740 1.96490383 148 148 150
1.14680433 -0.38474298 1.98213995 167 166 167
1.15699637 -0.38700619 1.99379957 174 173 173
0.82440317 -0.16719455 0.86136192 160 161 163
0.82633078 -0.16698237 0.86026883 161 162 164
-0.26998839 -0.10317280 0.53630686 178 181 184
-0.26948783 -0.10333630 0.53715676 182 186 188
-0.26855940 -0.10333630 0.53715676 176 180 183
-0.26763096 -0.10333630 0.53715676 170 172 174
0.30521461 -0.16119952 0.83793801 114 83 70
0.30628434 -0.16100052 0.83690351 115 85 71
0.30811122 -0.16119952 0.83793801 116 87 73
0.30917737 -0.16100052 0.83690351 115 86 71
0.31177863 -0.16159904 0.84001470 116 87 72
0.31245616 -0.16119952 0.83793801 115 88 72
0.31507283 -0.16179954 0.84105688 115 87 71
1.11924326 -0.38243526 1.98795259 180 179 181
1.11939657 -0.38131702 1.98213995 174 174 177
1.12611520 -0.38243526 1.98795259 163 163 167
1.12624848 -0.38131702 1.98213995 149 149 152
1.12310660 -0.37910005 1.97061586 146 146 148
1.12324739 -0.37800121 1.96490383 156 156 158
1.12338734 -0.37690872 1.95922494 160 160 162
1.13003969 -0.37800121 1.96490383 153 153 155
1.13343585 -0.37800121 1.96490383 156 156 156
1.14680433 -0.38131702 1.98213995 164 163 163
1.15699637 -0.38356006 1.99379957 165 164 164
-0.26998839 -0.10224584 0.53630686 184 185 187
-0.26970154 -0.10248908 0.53758276 183 185 187
-0.26877236 -0.10248908 0.53758276 177 182 184
-0.26763096 -0.10240787 0.53715676 172 175 177
0.30414227 -0.15994893 0.83897507 117 83 72
0.30521461 -0.15975122 0.83793801 120 84 71
0.30666292 -0.15975122 0.83793801 121 86 72
0.30849257 -0.15994893 0.83897507 123 88 74
0.30955955 -0.15975122 0.83793801 122 88 73
0.31177863 -0.16014713 0.84001470 120 87 72
0.31284285 -0.15994893 0.83897507 116 87 71
0.31546423 -0.16054502 0.84210169 115 86 71
1.12584639 -0.38123521 1.99968100 170 168 170
1.12598121 -0.38011393 1.99379957 169 166 170
1.12942731 -0.38011393 1.99379957 161 158 163
1.12624848 -0.37789106 1.98213995 153 152 155
1.12310660 -0.37569401 1.97061586 164 164 166
1.12324739 -0.37460503 1.96490383 175 175 178
1.11693108 -0.37137568 1.94796503 166 165 169
1.12677372 -0.37352237 1.95922494 151 150 152
1.13016009 -0.37352237 1.95922494 149 149 149
1.14680433 -0.37789106 1.98213995 160 160 160
1.16040933 -0.38123521 1.99968100 170 169 169
-0.26977497 -0.10123878 0.53588289 185 186 188
-0.26948783 -0.10147944 0.53715676 184 186 188
-0.26855940 -0.10147944 0.53715676 182 186 189
-0.26741907 -0.10139909 0.53673148 180 184 187
0.30489695 -0.15889212 0.84105688 117 84 75
0.30559236 -0.15849884 0.83897507 121 84 74
0.30742294 -0.15869524 0.84001470 122 86 75
0.30887482 -0.15869524 0.84001470 123 88 75
0.30994266 -0.15849884 0.83897507 122 87 74
0.31177863 -0.15869524 0.84001470 121 87 73
0.31664428 -0.15968461 0.84525168 115 86 72
1.12930274 -0.37777895 1.99968100 174 170 173
1.12942731 -0.37666783 1.99379957 164 160 164
1.12955129 -0.37556323 1.98795259 156 155 156
1.12638092 -0.37337336 1.97636104 166 166 166
1.12651265 -0.37228796 1.97061586 176 175 177
1.12014997 -0.36906934 1.95357883 171 170 173
1.13003969 -0.37120888 1.96490383 163 162 164
1.13343585 -0.37120888 1.96490383 166 166 166
1.14680433 -0.37446508 1.98213995 175 174 175
1.16040933 -0.37777895 1.99968100 175 175 177
0.57339448 -0.13257459 0.70175141 169 169 173
0.57401317 -0.13243750 0.70102566 166 166 169
-0.26956186 -0.10023332 0.53545958 178 178 182
0.30527571 -0.15763400 0.84210169 117 85 77
0.30597103 -0.15724334 0.84001470 119 86 76
0.30742294 -0.15724334 0.84001470 119 86 76
0.30887482 -0.15724334 0.84001470 120 88 76
0.30994266 -0.15704873 0.83897507 119 87 76
0.31783319 -0.15881774 0.84842533 115 85 73
1.12253511 -0.37322170 1.99379957 169 167 168
1.12267923 -0.37212721 1.98795259 170 169 171
1.12611520 -0.37212721 1.98795259 168 168 170
1.12955129 -0.37212721 1.98795259 167 167 167
1.12967443 -0.37103912 1.98213995 169 169 169
1.12979686 -0.36995736 1.97636104 173 172 173
1.12664354 -0.36781269 1.96490383 165 164 166
1.13332474 -0.36888191 1.97061586 168 167 169
1.13673079 -0.36888191 1.97061586 179 179 181
1.15016735 -0.37212721 1.98795259 178 178 180
0.57398868 -0.13149780 0.70247859 169 169 171
0.57401317 -0.13122582 0.70102566 167 167 169
0.57522488 -0.13122582 0.70102566 167 167 169
0.57763118 -0.13149780 0.70247859 165 165 167
0.58125472 -0.13204513 0.70540255 169 169 171
0.58186847 -0.13190788 0.70466930 174 175 175
0.58613288 -0.13259704 0.70835096 172 173 173
0.58674407 -0.13245864 0.70761150 172 173 174
0.58858150 -0.13259704 0.70835096 173 174 175
0.59042281 -0.13273574 0.70909190 171 172 173
0.30565539 -0.15637276 0.84314907 117 86 78
0.30635065 -0.15598473 0.84105688 118 86 76
0.30780435 -0.15598473 0.84105688 119 87 76
0.30925804 -0.15598473 0.84105688 120 88 76
0.31071174 -0.15598473 0.84105688 120 89 77
0.31255323 -0.15617850 0.84210169 119 88 75
0.31676319 -0.15754849 0.84948850 116 86 73
0.31943235 -0.15814301 0.85269415 114 86 72
1.12253511 -0.36977556 1.99379957 161 161 161
1.11939657 -0.36761314 1.98213995 167 167 167
1.12611520 -0.36869121 1.98795259 164 164 164
1.12955129 -0.36869121 1.98795259 151 151 152
1.12967443 -0.36761314 1.98213995 147 147 148
1.12979686 -0.36654139 1.97636104 155 155 157
1.12991869 -0.36547586 1.97061586 162 161 163
1.13662887 -0.36654139 1.97636104 174 174 176
1.14004481 -0.36654139 1.97636104 179 180 182
1.15355015 -0.36977556 1.99379957 174 176 177
0.57339448 -0.13014875 0.70175141 164 164 165
0.57342017 -0.12987985 0.70030147 165 165 166
0.57703322 -0.13014875 0.70175141 171 171 171
0.58004755 -0.13055420 0.70393753 173 174 174
0.58126426 -0.13055420 0.70393753 176 177 177
0.58491045 -0.13109875 0.70687366 174 175 175
0.58613223 -0.13109875 0.70687366 179 180 181
0.58796716 -0.13123558 0.70761150 179 180 181
0.29760522 -0.15376791 0.83690351 114 84 75
0.29868299 -0.15357831 0.83587158 114 84 75
0.30673122 -0.15472300 0.84210169 117 88 73
0.30818671 -0.15472300 0.84210169 118 89 74
0.30964223 -0.15472300 0.84210169 118 89 74
0.31109771 -0.15472300 0.84210169 119 90 75
0.31333169 -0.15510836 0.84419906 118 89 74
0.31983465 -0.15686652 0.85376805 114 87 73
1.11924326 -0.36525518 1.98795259 156 156 157
1.11939657 -0.36418718 1.98213995 159 159 160
1.12282252 -0.36418718 1.98213995 140 139 140
1.12955129 -0.36525518 1.98795259 117 117 121
1.12967443 -0.36418718 1.98213995 111 111 117
1.12979686 -0.36312541 1.97636104 132 133 140
1.12991869 -0.36206982 1.97061586 159 163 169
1.13995230 -0.36418718 1.98213995 173 177 180
1.14337838 -0.36418718 1.98213995 175 180 181
0.57218158 -0.12893583 0.70175141 163 163 164
0.57280153 -0.12880249 0.70102566 165 165 165
0.57342017 -0.12866944 0.70030147 171 171 171
0.57463062 -0.12866944 0.70030147 179 180 180
0.57643652 -0.12880249 0.70102566 180 181 181
0.57944584 -0.12920333 0.70320731 181 182 182
0.58066130 -0.12920333 0.70320731 179 181 180
0.58430117 -0.12974168 0.70613736 177 179 179
0.58613223 -0.12987697 0.70687366 179 182 181
0.58796716 -0.13001254 0.70761150 176 179 178
0.29760522 -0.15232140 0.83690351 116 86 74
0.29868299 -0.15213358 0.83587158 116 86 74
0.30635065 -0.15307733 0.84105688 117 88 73
0.30818671 -0.15326750 0.84210169 117 88 73
0.30964223 -0.15326750 0.84210169 117 88 72
0.31109771 -0.15326750 0.84210169 117 88 73
1.12239015 -0.36395380 1.99968100 169 169 171
1.11924326 -0.36181915 1.98795259 171 171 173
1.11939657 -0.36076120 1.98213995 172 171 173
1.12282252 -0.36076120 1.98213995 148 147 149
1.13287342 -0.36288333 1.99379957 123 122 127
1.13298726 -0.36181915 1.98795259 111 110 116
1.13310039 -0.36076120 1.98213995 123 126 130
1.13321292 -0.35970944 1.97636104 149 155 158
1.14329529 -0.36181915 1.98795259 169 175 176
1.14673138 -0.36181915 1.98795259 168 174 174
0.57215321 -0.12798789 0.70320731 168 168 170
0.57277447 -0.12785527 0.70247859 162 163 164
0.57339448 -0.12772292 0.70175141 166 167 167
0.57401317 -0.12759084 0.70102566 172 173 173
0.57522488 -0.12759084 0.70102566 174 175 175
0.57823038 -0.12798789 0.70320731 173 174 174
0.58125472 -0.12838745 0.70540255 171 174 173
0.58186847 -0.12825398 0.70466930 170 174 173
0.58552104 -0.12878950 0.70761150 171 175 174
0.58674407 -0.12878950 0.70761150 168 173 173
0.58858150 -0.12892407 0.70835096 163 168 168
0.29760522 -0.15087488 0.83690351 117 85 74
0.29868299 -0.15068884 0.83587158 117 85 74
0.30597103 -0.15143575 0.84001470 117 87 72
0.30742294 -0.15143575 0.84001470 117 86 72
0.30925804 -0.15162364 0.84105688 117 86 72
1.11893380 -0.36049750 1.99968100 171 172 174
1.12239015 -0.36049750 1.99968100 172 173 175
1.11597061 -0.35733524 1.98213995 173 174 176
1.11613297 -0.35629344 1.97636104 168 168 170
1.13287342 -0.35943723 1.99379957 158 158 160
1.12967443 -0.35733524 1.98213995 153 153 155
1.12979686 -0.35629344 1.97636104 150 154 154
1.13321292 -0.35629344 1.97636104 158 164 162
1.14665794 -0.35943723 1.99379957 167 173 173
1.14673138 -0.35838315 1.98795259 162 168 168
0.57218158 -0.12650999 0.70175141 165 166 167
0.57280153 -0.12637916 0.70102566 173 174 174
0.57342017 -0.12624861 0.70030147 176 177 177
0.58186018 -0.12730068 0.70613736 167 172 171
0.58186847 -0.12703602 0.70466930 167 173 171
0.58613288 -0.12769975 0.70835096 168 174 172
0.58735716 -0.12769975 0.70835096 167 173 172
0.29723826 -0.14924411 0.83587158 115 83 72
0.29831514 -0.14906031 0.83484215 114 83 71
0.30012771 -0.14924411 0.83587158 114 83 71
0.30414227 -0.14979823 0.83897507 116 84 73
0.30559236 -0.14979823 0.83897507 116 84 73
1.11564291 -0.35599110 1.99379957 174 175 177
1.11908901 -0.35599110 1.99379957 175 175 177
1.11597061 -0.35390928 1.98213995 174 174 176
1.11613297 -0.35287747 1.97636104 162 162 164
1.12955129 -0.35494712 1.98795259 171 171 173
1.12967443 -0.35390928 1.98213995 172 172 175
0.58186018 -0.12608019 0.70613736 167 173 171
0.58186847 -0.12581806 0.70466930 169 175 173
0.58552104 -0.12634340 0.70761150 169 175 173
0.58735716 -0.12647541 0.70835096 168 174 174
0.29723826 -0.14779937 0.83587158 113 83 72
0.29794821 -0.14743578 0.83381528 112 82 72
0.29975811 -0.14761735 0.83484215 112 82 72
0.30269215 -0.14834814 0.83897507 115 81 73
0.30414227 -0.14834814 0.83897507 117 83 75
0.30521461 -0.14816476 0.83793801 117 83 78
0.30628434 -0.14798184 0.83690351 117 83 78
1.11564291 -0.35254496 1.99379957 176 176 178
1.11908901 -0.35254496 1.99379957 178 178 180
1.11924326 -0.35151112 1.98795259 174 174 176
0.57223791 -0.12357246 0.69885755 173 177 176
0.57344580 -0.12357246 0.69885755 168 174 172
0.57584101 -0.12382778 0.70030147 169 174 172
0.57944584 -0.12434158 0.70320731 169 174 173
0.58005953 -0.12421273 0.70247859 170 174 173
0.58430117 -0.12485968 0.70613736 170 174 173
0.58613223 -0.12498987 0.70687366 167 171 172
0.29723826 -0.14635463 0.83587158 113 83 73
0.29758218 -0.14581524 0.83279097 112 84 73
0.29975811 -0.14617440 0.83484215 112 85 74
0.30269215 -0.14689803 0.83897507 114 84 74
0.30414227 -0.14689803 0.83897507 116 84 76
0.30521461 -0.14671645 0.83793801 118 84 78
0.30628434 -0.14653532 0.83690351 119 84 78
1.11893380 -0.35012865 1.99968100 179 179 181
1.12253511 -0.34909886 1.99379957 179 179 181
0.57164854 -0.12223852 0.69813782 174 177 177
0.57285523 -0.12223852 0.69813782 170 173 173
0.57524675 -0.12249082 0.69957876 172 174 174
0.57824618 -0.12287123 0.70175141 171 174 174
0.57885987 -0.12274417 0.70102566 170 174 173
0.58369321 -0.12351052 0.70540255 168 172 171
0.29687220 -0.14473143 0.83484215 114 86 74
0.29758218 -0.14437583 0.83279097 115 85 74
0.29975811 -0.14473143 0.83484215 117 84 75
0.30231801 -0.14526814 0.83793801 119 83 75
0.30376631 -0.14526814 0.83793801 120 84 76
0.30483779 -0.14508881 0.83690351 122 85 77
1.12584639 -0.34667236 1.99968100 181 181 183
0.57044190 -0.12103185 0.69813782 181 182 182
0.57106042 -0.12090734 0.69741958 177 178 178
0.57167774 -0.12078307 0.69670284 174 175 175
0.57465374 -0.12115663 0.69885755 174 175 175
0.57705146 -0.12140695 0.70030147 173 174 174
0.57826185 -0.12140695 0.70030147 172 174 173
0.29723826 -0.14346516 0.83587158 115 85 73
0.29794821 -0.14311224 0.83381528 116 85 73
0.29975811 -0.14328848 0.83484215 120 84 75
0.30269215 -0.14399783 0.83897507 122 85 75
0.30414227 -0.14399783 0.83897507 122 85 75
0.30521461 -0.14381984 0.83793801 122 85 75
0.34125865 -0.08650576 0.50400883 168 168 170
0.34162182 -0.08637732 0.50326043 170 171 173
0.34325615 -0.08657012 0.50438380 174 175 177
0.34412792 -0.08657012 0.50438380 174 174 177
0.34397599 -0.08631324 0.50288713 162 161 164
0.34561434 -0.08650576 0.50400883 140 136 141
0.34648550 -0.08650576 0.50400883 148 144 149
0.34684089 -0.08637732 0.50326043 164 161 166
0.35092527 -0.08695833 0.50664562 167 165 168
0.35127589 -0.08682854 0.50588942 164 164 166
0.56985503 -0.11970190 0.69741958 170 171 171
0.56988782 -0.11945610 0.69598752 173 174 175
0.57050508 -0.11933359 0.69527370 172 173 175
0.57288194 -0.11957888 0.69670284 173 174 175
0.57526857 -0.11982518 0.69813782 173 177 176
0.57647526 -0.11982518 0.69813782 175 180 178
0.58007151 -0.12032083 0.70102566 176 181 180
-0.14488129 -0.17968576 1.05755353 90 56 54
0.29723826 -0.14202042 0.83587158 115 85 73
0.29831514 -0.14184552 0.83484215 117 85 74
0.30049825 -0.14219576 0.83690351 120 86 76
0.30306724 -0.14272436 0.84001470 121 86 76
0.30414227 -0.14254773 0.83897507 121 86 76
0.30483779 -0.14219576 0.83690351 121 85 75
1.11893380 -0.33975977 1.99968100 162 162 162
0.33591592 -0.08627608 0.50778413 186 186 184
0.33578748 -0.08601835 0.50626725 173 173 171
0.33715364 -0.08569834 0.50438380 151 149 151
0.33727258 -0.08550747 0.50326043 139 138 142
0.33789158 -0.08544404 0.50288713 139 138 142
0.33951637 -0.08563462 0.50400883 143 142 146
0.34064078 -0.08569834 0.50438380 153 152 156
0.34125865 -0.08563462 0.50400883 157 157 159
0.34187561 -0.08557100 0.50363433 165 165 166
0.34351173 -0.08576215 0.50475937 172 172 172
0.34438416 -0.08576215 0.50475937 174 174 174
0.34423134 -0.08550747 0.50326043 164 164 165
0.34561434 -0.08563462 0.50400883 150 150 152
0.34648550 -0.08563462 0.50400883 160 160 162
0.34709856 -0.08557100 0.50363433 167 167 170
0.34900621 -0.08582605 0.50513548 163 162 165
0.35066319 -0.08601835 0.50626725 164 164 166
0.35127589 -0.08595415 0.50588942 168 168 170
0.35162547 -0.08582605 0.50513548 167 167 169
0.35197401 -0.08569834 0.50438380 161 162 163
0.35337165 -0.08582605 0.50513548 165 166 168
0.35319200 -0.08557100 0.50363433 170 170 171
0.35795572 -0.08525430 0.50177044 172 174 175
0.35829258 -0.08512828 0.50102872 169 172 174
0.35889333 -0.08506541 0.50065869 167 171 174
0.36366740 -0.08456576 0.49771795 156 156 160
0.36506373 -0.08469012 0.49844989 170 170 174
0.56868488 -0.11825315 0.69598752 166 167 168
0.56872004 -0.11801083 0.69456130 171 173 173
0.56933719 -0.11789004 0.69385040 167 172 172
0.57112104 -0.11801083 0.69456130 166 171 171
0.57290852 -0.11813186 0.69527370 166 171 170
0.57469964 -0.11825315 0.69598752 168 172 171
0.57768190 -0.11861850 0.69813782 171 174 173
-0.14809541 -0.17953840 1.06754625 85 57 54
-0.14465562 -0.17758082 1.05590630 86 55 55
-0.14216624 -0.17675486 1.05099511 87 57 56
-0.13991584 -0.17620848 1.04774630 86 57 56
-0.13789177 -0.17593655 1.04612935 87 58 55
-0.13267206 -0.17620848 1.04774630 83 57 55
-0.13065916 -0.17593655 1.04612935 83 58 54
0.29687220 -0.14040257 0.83484215 117 88 73
0.29831514 -0.14040257 0.83484215 118 88 75
0.30049825 -0.14074925 0.83690351 119 87 76
0.30306724 -0.14127247 0.84001470 119 87 76
0.30451915 -0.14127247 0.84001470 118 86 75
0.30521461 -0.14092322 0.83793801 118 86 75
0.33503684 -0.08495297 0.50513548 155 155 154
0.33541006 -0.08482655 0.50438380 150 147 148
0.33628184 -0.08482655 0.50438380 153 149 150
0.33665267 -0.08470051 0.50363433 148 146 148
0.33727258 -0.08463763 0.50326043 144 143 147
0.33814242 -0.08463763 0.50326043 144 143 146
0.33951637 -0.08476348 0.50400883 151 150 152
0.34064078 -0.08482655 0.50438380 156 155 157
0.34125865 -0.08476348 0.50400883 156 155 155
0.34212980 -0.08476348 0.50400883 162 161 161
0.34351173 -0.08488971 0.50475937 165 164 164
0.34438416 -0.08488971 0.50475937 165 165 166
0.34423134 -0.08463763 0.50326043 167 167 168
0.34561434 -0.08476348 0.50400883 170 170 172
0.34648550 -0.08476348 0.50400883 177 177 179
0.34709856 -0.08470051 0.50363433 165 166 168
0.34874636 -0.08488971 0.50475937 157 158 160
0.35066319 -0.08514331 0.50626725 159 159 161
0.35075238 -0.08495297 0.50513548 165 165 167
0.35110223 -0.08482655 0.50438380 167 168 170
0.35145101 -0.08470051 0.50363433 161 165 166
0.35284579 -0.08482655 0.50438380 168 172 172
0.35266799 -0.08457484 0.50288713 172 173 173
0.35802796 -0.08420006 0.50065869 174 176 180
0.35889333 -0.08420006 0.50065869 181 182 186
0.36274588 -0.08389027 0.49881667 155 155 157
0.36307371 -0.08376700 0.49808365 155 155 157
0.36366740 -0.08370549 0.49771795 170 170 172
0.36506373 -0.08382859 0.49844989 181 181 183
0.36592528 -0.08382859 0.49844989 180 180 182
0.56864959 -0.11729103 0.69741958 161 162 162
0.56985503 -0.11729103 0.69741958 169 170 170
0.56988782 -0.11705019 0.69598752 173 175 175
0.57109076 -0.11705019 0.69598752 176 177 179
0.57229376 -0.11705019 0.69598752 178 178 180
0.57408613 -0.11717049 0.69670284 178 178 179
0.57647526 -0.11741183 0.69813782 178 178 178
-0.14856333 -0.17825466 1.07091916 84 57 55
-0.14533475 -0.17658092 1.06086361 85 56 55
-0.14238700 -0.17520994 1.05262709 86 57 56
-0.14013243 -0.17466749 1.04936814 85 58 56
-0.13789177 -0.17412840 1.04612935 85 58 56
-0.13287742 -0.17466749 1.04936814 85 58 56
-0.13086110 -0.17439753 1.04774630 83 58 55
0.29650703 -0.13878869 0.83381528 120 88 77
0.29794821 -0.13878869 0.83381528 119 87 76
0.30049825 -0.13930272 0.83690351 119 87 76
0.30344325 -0.13999406 0.84105688 118 86 75
0.30451915 -0.13982058 0.84001470 117 85 74
0.30521461 -0.13947491 0.83793801 117 86 75
0.33478737 -0.08401728 0.50475937 156 155 157
0.33516067 -0.08389235 0.50400883 170 167 171
0.33628184 -0.08395477 0.50438380 180 176 181
0.33665267 -0.08383001 0.50363433 181 179 183
0.33702239 -0.08370564 0.50288713 174 173 176
0.33839366 -0.08383001 0.50363433 164 163 165
0.33951637 -0.08389235 0.50400883 159 158 158
0.34089443 -0.08401728 0.50475937 153 152 152
0.34125865 -0.08389235 0.50400883 157 156 156
0.34212980 -0.08389235 0.50400883 164 163 163
0.34351173 -0.08401728 0.50475937 166 165 167
0.34438416 -0.08401728 0.50475937 163 163 165
0.34423134 -0.08376779 0.50326043 161 161 163
0.34587151 -0.08395477 0.50438380 171 171 173
0.34674329 -0.08395477 0.50438380 180 180 182
0.34735662 -0.08389235 0.50400883 168 171 173
0.34900621 -0.08407988 0.50513548 163 167 168
0.35066319 -0.08426826 0.50626725 162 164 165
0.35101396 -0.08414258 0.50551218 166 166 168
0.35084116 -0.08389235 0.50400883 171 172 174
0.35258347 -0.08389235 0.50400883 170 174 174
0.35240653 -0.08364359 0.50251436 172 173 175
0.35802796 -0.08333471 0.50065869 165 166 170
0.35889333 -0.08333471 0.50065869 180 180 184
0.35949317 -0.08327321 0.50028920 172 172 174
0.36334068 -0.08296706 0.49844989 170 170 172
0.36393461 -0.08290610 0.49808365 168 168 169
0.36533237 -0.08302811 0.49881667 172 173 173
0.56923521 -0.11620516 0.69813782 169 170 170
0.56985503 -0.11608560 0.69741958 169 169 169
0.57047355 -0.11596629 0.69670284 169 169 169
0.57167774 -0.11596629 0.69670284 171 170 170
0.57347131 -0.11608560 0.69741958 177 176 176
0.57526857 -0.11620516 0.69813782 178 178 178
0.57766509 -0.11644500 0.69957876 173 173 173
0.58007151 -0.11668584 0.70102566 163 163 164
-0.15202516 -0.17612544 1.06923008 85 59 56
-0.15041433 -0.17640367 1.07091916 84 57 55
-0.14832900 -0.17612544 1.06923008 84 57 55
-0.14533475 -0.17474730 1.06086361 85 58 56
-0.14238700 -0.17339057 1.05262709 85 58 56
-0.14013243 -0.17285375 1.04936814 85 58 56
-0.13789177 -0.17232025 1.04612935 85 58 56
-0.13587393 -0.17205474 1.04451752 85 58 56
-0.13427547 -0.17232025 1.04612935 85 58 56
-0.13267206 -0.17258659 1.04774630 86 59 56
-0.13086110 -0.17258659 1.04774630 86 61 57
-0.12885101 -0.17232025 1.04612935 88 65 59
0.29650703 -0.13734750 0.83381528 120 88 77
0.29794821 -0.13734750 0.83381528 119 87 76
0.33565980 -0.08314484 0.50475937 163 162 167
0.33690298 -0.08302121 0.50400883 170 169 172
0.33752316 -0.08295953 0.50363433 171 170 172
0.33889720 -0.08308298 0.50438380 165 163 165
0.34002200 -0.08314484 0.50475937 151 148 148
0.34114844 -0.08320680 0.50513548 146 142 143
0.34176686 -0.08314484 0.50475937 152 151 153
0.34263930 -0.08314484 0.50475937 164 163 165
0.34376770 -0.08320680 0.50513548 171 172 174
0.34464079 -0.08320680 0.50513548 169 170 172
0.34474322 -0.08302121 0.50400883 168 169 171
0.34612903 -0.08314484 0.50475937 176 176 178
0.34674329 -0.08308298 0.50438380 180 180 182
0.34735662 -0.08302121 0.50400883 177 181 182
0.34874636 -0.08314484 0.50475937 175 179 180
0.35066319 -0.08339322 0.50626725 167 169 170
0.35075238 -0.08320680 0.50513548 166 167 169
0.35084116 -0.08302121 0.50400883 171 173 174
0.35119009 -0.08289794 0.50326043 173 175 176
0.35214549 -0.08271372 0.50214213 174 174 175
0.35802796 -0.08246937 0.50065869 150 150 154
0.35889333 -0.08246937 0.50065869 164 163 167
0.36241707 -0.08228704 0.49955183 183 183 185
0.36301300 -0.08222646 0.49918398 181 182 184
0.36360803 -0.08216595 0.49881667 172 173 175
0.36420220 -0.08210553 0.49844989 164 165 165
0.56864959 -0.11488017 0.69741958 172 172 172
0.56985503 -0.11488017 0.69741958 166 166 166
0.57047355 -0.11476210 0.69670284 163 162 162
0.57167774 -0.11476210 0.69670284 164 163 163
0.57288194 -0.11476210 0.69670284 170 169 170
0.57467675 -0.11488017 0.69741958 161 161 162
0.57706958 -0.11511704 0.69885755 152 152 154
-0.15017708 -0.17427735 1.06923008 86 58 54
-0.14809541 -0.17400290 1.06754625 84 58 53
-0.14488129 -0.17237417 1.05755353 85 58 54
-0.14216624 -0.17130518 1.05099511 85 58 55
-0.13991584 -0.17077564 1.04774630 85 58 55
-0.13767929 -0.17024937 1.04451752 85 59 55
-0.13587393 -0.17024937 1.04451752 84 58 54
-0.13406856 -0.17024937 1.04451752 85 58 54
-0.13267206 -0.17077564 1.04774630 86 60 55
-0.13086110 -0.17077564 1.04774630 88 62 57
-0.12885101 -0.17051210 1.04612935 91 65 60
0.29794821 -0.13590632 0.83381528 119 89 76
0.33665267 -0.08208904 0.50363433 166 164 168
0.33752316 -0.08208904 0.50363433 162 159 162
0.33864525 -0.08215006 0.50400883 151 147 150
0.34002200 -0.08227240 0.50475937 148 144 145
0.34114844 -0.08233371 0.50513548 148 144 145
0.34151256 -0.08221119 0.50438380 156 156 157
0.34263930 -0.08227240 0.50475937 161 161 162
0.34376770 -0.08233371 0.50513548 163 164 165
0.34464079 -0.08233371 0.50513548 164 164 165
0.34448707 -0.08208904 0.50363433 166 166 167
0.34587151 -0.08221119 0.50438380 172 172 174
0.34648550 -0.08215006 0.50400883 175 175 177
0.34709856 -0.08208904 0.50363433 172 173 175
0.34822777 -0.08215006 0.50400883 172 173 175
0.35040152 -0.08245660 0.50588942 166 167 169
0.35049123 -0.08227240 0.50475937 166 167 168
0.35032025 -0.08202809 0.50326043 170 171 172
0.35066944 -0.08190648 0.50251436 172 173 175
0.35153800 -0.08190648 0.50251436 172 173 175
0.35162458 -0.08172473 0.50139928 165 165 167
0.35249120 -0.08172473 0.50139928 170 170 171
0.35776374 -0.08154380 0.50028920 149 145 148
0.35862845 -0.08154380 0.50028920 154 150 153
0.35949317 -0.08154380 0.50028920 158 154 157
0.36122259 -0.08154380 0.50028920 179 178 180
0.36155364 -0.08142361 0.49955183 186 186 188
0.36241707 -0.08142361 0.49955183 186 188 190
0.36274588 -0.08130378 0.49881667 178 182 183
0.36360803 -0.08130378 0.49881667 162 167 167
0.36393461 -0.08118431 0.49808365 166 171 171
0.56806517 -0.11355790 0.69670284 172 172 172
0.56926936 -0.11355790 0.69670284 172 173 173
0.56988782 -0.11344132 0.69598752 173 174 175
0.57109076 -0.11344132 0.69598752 169 170 172
0.57288194 -0.11355790 0.69670284 162 164 165
0.57467675 -0.11367474 0.69741958 151 153 155
-0.15130918 -0.17161721 1.06419444 88 62 54
-0.14970483 -0.17188704 1.06586766 85 61 55
-0.14763044 -0.17161721 1.06419444 84 60 54
-0.14443065 -0.17001580 1.05426419 84 60 54
-0.14194617 -0.16922626 1.04936814 83 59 53
-0.14013243 -0.16922626 1.04936814 82 59 53
-0.13789177 -0.16870396 1.04612935 82 59 53
-0.13587393 -0.16844401 1.04451752 82 59 53
-0.13427547 -0.16870396 1.04612935 82 59 53
-0.13267206 -0.16896470 1.04774630 85 60 55
-0.13086110 -0.16896470 1.04774630 88 62 57
-0.12885101 -0.16870396 1.04612935 91 65 61
0.33640274 -0.08115825 0.50326043 164 162 166
0.33702239 -0.08109804 0.50288713 153 152 154
0.33839366 -0.08121854 0.50363433 147 146 147
0.33951637 -0.08127893 0.50400883 147 146 146
0.34089443 -0.08139997 0.50475937 145 144 144
0.34125865 -0.08127893 0.50400883 149 148 148
0.34289461 -0.08146062 0.50513548 146 145 145
0.34376770 -0.08146062 0.50513548 151 151 151
0.34464079 -0.08146062 0.50513548 161 161 161
0.34474322 -0.08127893 0.50400883 165 165 166
0.34587151 -0.08133940 0.50438380 162 162 164
0.34622806 -0.08121854 0.50363433 175 175 177
0.34684089 -0.08115825 0.50326043 173 174 175
0.34822777 -0.08127893 0.50400883 171 172 173
0.35014021 -0.08152137 0.50551218 169 170 170
0.35023043 -0.08133940 0.50438380 168 169 169
0.35006037 -0.08109804 0.50288713 166 167 167
0.35066944 -0.08103792 0.50251436 164 163 163
0.35127759 -0.08097789 0.50214213 161 161 161
0.35162458 -0.08085810 0.50139928 159 160 159
0.35249120 -0.08085810 0.50139928 174 174 174
0.35361940 -0.08091795 0.50177044 181 182 183
0.35629728 -0.08073867 0.50065869 172 172 175
0.35742661 -0.08079834 0.50102872 158 156 159
0.35802796 -0.08073867 0.50065869 153 150 153
0.35862845 -0.08067908 0.50028920 160 158 160
0.35949317 -0.08067908 0.50028920 174 172 175
0.36062402 -0.08073867 0.50065869 183 182 184
0.36122259 -0.08067908 0.50028920 187 188 188
0.36182028 -0.08061959 0.49992025 187 188 188
0.36268434 -0.08061959 0.49992025 177 180 181
0.36301300 -0.08050086 0.49918398 158 164 164
0.36387581 -0.08050086 0.49918398 138 144 144
0.36420220 -0.08038247 0.49844989 148 151 153
0.56864959 -0.11246930 0.69741958 166 167 169
0.56985503 -0.11246930 0.69741958 167 168 170
0.57047355 -0.11235371 0.69670284 164 167 168
0.57167774 -0.11235371 0.69670284 161 165 166
0.57347131 -0.11246930 0.69741958 161 165 166
0.57467675 -0.11246930 0.69741958 161 165 166
-0.15130918 -0.16977783 1.06419444 89 63 57
-0.14970483 -0.17004478 1.06586766 85 59 54
-0.14763044 -0.16977783 1.06419444 85 59 54
-0.14465562 -0.16845557 1.05590630 84 58 53
-0.14238700 -0.16793242 1.05262709 84 58 54
-0.14056762 -0.16793242 1.05262709 84 57 55
-0.13831867 -0.16741250 1.04936814 85 58 56
-0.13629395 -0.16715376 1.04774630 84 57 56
-0.13448299 -0.16715376 1.04774630 85 58 56
-0.13287742 -0.16741250 1.04936814 86 59 58
-0.13106368 -0.16741250 1.04936814 85 58 57
-0.12905017 -0.16715376 1.04774630 87 58 60
-0.12743619 -0.16741250 1.04936814 71 51 51
0.33590400 -0.08016937 0.50251436 162 161 167
0.33652309 -0.08010998 0.50214213 162 161 165
0.33789158 -0.08022884 0.50288713 155 154 157
0.33901227 -0.08028840 0.50326043 143 142 142
0.34013462 -0.08034805 0.50363433 143 142 142
0.34075198 -0.08028840 0.50326043 148 147 147
0.34212980 -0.08040779 0.50400883 147 146 146
0.34325615 -0.08046762 0.50438380 163 163 163
0.34412792 -0.08046762 0.50438380 174 174 174
0.34397599 -0.08022884 0.50288713 165 165 165
0.34510118 -0.08028840 0.50326043 158 158 158
0.34571439 -0.08022884 0.50288713 174 174 174
0.34658358 -0.08022884 0.50288713 174 174 174
0.34745279 -0.08022884 0.50288713 173 173 173
0.34935865 -0.08046762 0.50438380 172 172 172
0.34945041 -0.08028840 0.50326043 171 171 171
0.34954175 -0.08010998 0.50214213 171 171 170
0.35040969 -0.08010998 0.50214213 172 171 169
0.35075796 -0.07999148 0.50139928 176 175 173
0.35136470 -0.07993235 0.50102872 173 174 173
0.35223067 -0.07993235 0.50102872 177 178 178
0.35742661 -0.07993235 0.50102872 161 160 163
0.35802796 -0.07987332 0.50065869 156 155 158
0.35862845 -0.07981437 0.50028920 163 163 165
0.35949317 -0.07981437 0.50028920 179 180 182
0.36062402 -0.07987332 0.50065869 185 186 188
0.36122259 -0.07981437 0.50028920 184 185 187
0.36208728 -0.07981437 0.50028920 177 178 180
0.36295199 -0.07981437 0.50028920 161 163 165
0.36354840 -0.07975551 0.49992025 143 146 148
0.36500737 -0.07969674 0.49955183 145 144 151
0.36614063 -0.07975551 0.49992025 145 144 152
0.56864959 -0.11126386 0.69741958 164 168 169
0.56985503 -0.11126386 0.69741958 162 166 167
0.57047355 -0.11114952 0.69670284 163 167 168
0.57167774 -0.11114952 0.69670284 164 169 169
0.57288194 -0.11114952 0.69670284 159 164 165
0.57408613 -0.11114952 0.69670284 155 161 162
0.57588220 -0.11126386 0.69741958 152 160 161
-0.15154709 -0.16820252 1.06586766 87 61 56
-0.14809541 -0.16846740 1.06754625 85 58 58
-0.14510767 -0.16715124 1.05920601 84 57 57
-0.14305340 -0.16689049 1.05755353 84 57 57
-0.14122550 -0.16689049 1.05755353 84 57 57
-0.13874823 -0.16611303 1.05262709 84 57 57
-0.13650493 -0.16559877 1.04936814 85 58 58
-0.13469118 -0.16559877 1.04936814 85 58 58
-0.13308345 -0.16585550 1.05099511 85 57 59
-0.13126688 -0.16585550 1.05099511 84 55 58
-0.12924993 -0.16559877 1.04936814 120 92 97
-0.12763377 -0.16585550 1.05099511 132 119 117
0.33652309 -0.07924207 0.50214213 153 151 157
0.33764109 -0.07930081 0.50251436 154 152 157
0.33876079 -0.07935964 0.50288713 146 145 147
0.33988211 -0.07941855 0.50326043 143 142 144
0.34049919 -0.07935964 0.50288713 151 151 146
0.34187561 -0.07947756 0.50363433 155 155 148
0.34300092 -0.07953665 0.50400883 161 162 155
0.34387207 -0.07953665 0.50400883 164 165 158
0.34372100 -0.07930081 0.50251436 162 163 158
0.34484518 -0.07935964 0.50288713 161 161 162
0.34545809 -0.07930081 0.50251436 168 168 169
0.34658358 -0.07935964 0.50288713 169 169 171
0.34719521 -0.07930081 0.50251436 169 169 171
0.35015032 -0.07918341 0.50177044 172 171 170
0.35197055 -0.07900798 0.50065869 170 171 171
0.35802796 -0.07900798 0.50065869 159 158 160
0.35862845 -0.07894967 0.50028920 158 158 160
0.35949317 -0.07894967 0.50028920 159 160 162
0.36062402 -0.07900798 0.50065869 162 163 165
0.36122259 -0.07894967 0.50028920 169 170 172
0.36208728 -0.07894967 0.50028920 167 167 169
0.36295199 -0.07894967 0.50028920 158 158 161
0.36354840 -0.07889144 0.49992025 150 149 153
0.36468142 -0.07894967 0.50028920 151 150 154
0.36500737 -0.07883330 0.49955183 156 155 160
0.36641085 -0.07894967 0.50028920 167 166 170
0.56748194 -0.10983244 0.69598752 163 169 169
0.56926936 -0.10994532 0.69670284 160 165 165
0.56930333 -0.10971979 0.69527370 156 162 162
0.57109076 -0.10983244 0.69598752 152 158 158
0.57229376 -0.10983244 0.69598752 145 151 151
0.57349670 -0.10983244 0.69598752 148 154 155
0.57469964 -0.10983244 0.69598752 152 158 160
-0.14533475 -0.16557921 1.06086361 86 57 58
-0.14372607 -0.16583875 1.06252635 87 56 57
-0.14166752 -0.16557921 1.06086361 85 56 57
-0.13918047 -0.16480547 1.05590630 85 56 57
-0.13671656 -0.16403894 1.05099511 84 57 57
-0.13469118 -0.16378501 1.04936814 84 57 57
-0.13308345 -0.16403894 1.05099511 84 58 60
-0.13126688 -0.16403894 1.05099511 110 85 89
-0.12924993 -0.16378501 1.04936814 126 113 113
-0.12763377 -0.16403894 1.05099511 123 115 113
0.33652309 -0.07837416 0.50214213 157 156 159
0.33764109 -0.07843226 0.50251436 153 151 154
0.33876079 -0.07849044 0.50288713 142 139 142
0.33988211 -0.07854871 0.50326043 135 132 134
0.34336150 -0.07854871 0.50326043 160 159 153
0.34346637 -0.07837416 0.50214213 159 159 156
0.34458953 -0.07843226 0.50251436 155 155 156
0.34520221 -0.07837416 0.50214213 155 155 155
0.34632665 -0.07843226 0.50251436 156 156 156
0.35776374 -0.07808496 0.50028920 181 181 183
0.35862845 -0.07808496 0.50028920 182 183 185
0.35949317 -0.07808496 0.50028920 178 179 181
0.36062402 -0.07814263 0.50065869 172 173 174
0.36122259 -0.07808496 0.50028920 179 179 180
0.36208728 -0.07808496 0.50028920 176 176 177
0.36295199 -0.07808496 0.50028920 171 170 171
0.36354840 -0.07802738 0.49992025 169 168 169
0.36441249 -0.07802738 0.49992025 170 169 169
0.36500737 -0.07796987 0.49955183 167 166 166
0.36614063 -0.07802738 0.49992025 170 169 169
0.36700469 -0.07802738 0.49992025 177 177 176
0.56751955 -0.10840688 0.69456130 164 166 167
0.56755698 -0.10818519 0.69314092 162 166 166
0.56933719 -0.10829592 0.69385040 163 168 169
0.57053643 -0.10829592 0.69385040 166 170 171
0.57173574 -0.10829592 0.69385040 170 176 176
0.57293499 -0.10829592 0.69385040 172 178 178
-0.14579107 -0.16425972 1.06419444 87 58 57
-0.14440508 -0.16477707 1.06754625 87 56 57
-0.14233576 -0.16451798 1.06586766 85 56 57
-0.13961542 -0.16348974 1.05920601 84 57 57
-0.13692886 -0.16247427 1.05262709 84 57 58
-0.13490000 -0.16222239 1.05099511 79 53 55
-0.13308345 -0.16222239 1.05099511 81 55 58
-0.13126688 -0.16222239 1.05099511 132 107 111
-0.12945032 -0.16222239 1.05099511 119 101 104
-0.12783195 -0.16247427 1.05262709 99 85 87
0.33764109 -0.07756370 0.50251436 126 124 126
0.33850965 -0.07756370 0.50251436 123 119 122
0.33962998 -0.07762124 0.50288713 120 116 119
0.35802796 -0.07727728 0.50065869 181 181 181
0.35862845 -0.07722025 0.50028920 174 174 174
0.35949317 -0.07722025 0.50028920 168 169 169
0.36062402 -0.07727728 0.50065869 167 168 168
0.36122259 -0.07722025 0.50028920 172 172 172
0.36208728 -0.07722025 0.50028920 175 175 175
0.36295199 -0.07722025 0.50028920 177 176 176
0.36354840 -0.07716330 0.49992025 178 178 178
0.36441249 -0.07716330 0.49992025 177 177 177
0.36500737 -0.07710644 0.49955183 173 172 170
0.36614063 -0.07716330 0.49992025 175 174 172
0.36700469 -0.07716330 0.49992025 177 177 174
0.56693864 -0.10709666 0.69385040 167 167 167
0.56697726 -0.10687787 0.69243294 175 176 176
0.56933719 -0.10709666 0.69385040 180 181 181
0.56995308 -0.10698716 0.69314092 179 179 179
0.57173574 -0.10709666 0.69385040 175 178 178
-0.14602029 -0.16267571 1.06586766 86 58 56
-0.14255992 -0.16293190 1.06754625 82 55 55
-0.13983390 -0.16191198 1.06086361 84 57 57
-0.13692886 -0.16065490 1.05262709 80 55 57
-0.13490000 -0.16040581 1.05099511 89 64 68
-0.13308345 -0.16040581 1.05099511 104 80 85
-0.13126688 -0.16040581 1.05099511 136 116 120
-0.12803076 -0.16090475 1.05426419 140 129 130
0.33876079 -0.07675204 0.50288713 109 106 110
0.33962998 -0.07675204 0.50288713 131 128 131
0.35802796 -0.07641193 0.50065869 170 170 170
0.35862845 -0.07635554 0.50028920 165 166 166
0.35949317 -0.07635554 0.50028920 162 163 164
0.36062402 -0.07641193 0.50065869 163 164 165
0.36122259 -0.07635554 0.50028920 166 166 166
0.36208728 -0.07635554 0.50028920 170 170 170
0.36354840 -0.07629923 0.49992025 175 174 172
0.36468142 -0.07635554 0.50028920 168 167 165
0.36500737 -0.07624301 0.49955183 160 159 155
0.36614063 -0.07629923 0.49992025 167 166 162
0.56520313 -0.10557322 0.69172639 172 172 172
0.56582135 -0.10546560 0.69102126 173 173 173
0.56817406 -0.10568105 0.69243294 164 164 165
0.56937093 -0.10568105 0.69243294 153 153 155
-0.14255992 -0.16108672 1.06754625 81 54 54
-0.13983390 -0.16007836 1.06086361 86 59 60
-0.13650493 -0.15834376 1.04936814 103 77 79
-0.13469118 -0.15834376 1.04936814 127 106 108
-0.13287742 -0.15834376 1.04936814 148 130 132
-0.13126688 -0.15858926 1.05099511 151 141 142
0.36500737 -0.07537957 0.49955183 163 162 160
0.56462699 -0.10427123 0.69102126 160 160 160
0.56524515 -0.10416505 0.69031757 159 158 159
0.56759429 -0.10437763 0.69172639 150 149 151
0.56821012 -0.10427123 0.69102126 137 136 138
0.56998551 -0.10437763 0.69172639 135 134 138
-0.13983390 -0.15824474 1.06086361 96 68 71
-0.13671656 -0.15677270 1.05099511 116 100 100
-0.13469118 -0.15653002 1.04936814 130 119 119
-0.13308345 -0.15677270 1.05099511 134 126 126
-0.13126688 -0.15677270 1.05099511 135 134 134
-0.12945032 -0.15677270 1.05099511 129 127 128
-0.12823018 -0.15750529 1.05590630 106 104 104
0.36473858 -0.07446126 0.49918398 159 158 159
0.36560139 -0.07446126 0.49918398 152 151 152
0.56582135 -0.10307685 0.69102126 159 156 158
0.56759429 -0.10318203 0.69172639 156 152 155
0.56878990 -0.10318203 0.69172639 150 147 149
0.56998551 -0.10318203 0.69172639 143 141 148
-0.13469118 -0.15471627 1.04936814 132 128 127
-0.13287742 -0.15471627 1.04936814 129 127 125
-0.13106368 -0.15471627 1.04936814 134 134 134
-0.12924993 -0.15471627 1.04936814 131 131 131
-0.12783195 -0.15519676 1.05262709 131 131 130
0.56817406 -0.10209061 0.69243294 158 157 159
0.56937093 -0.10209061 0.69243294 154 153 155
-0.13448299 -0.15266620 1.04774630 133 128 125
-0.13267206 -0.15266620 1.04774630 127 123 120
-0.13086110 -0.15266620 1.04774630 133 131 129
0.56639874 -0.10079084 0.69172639 158 157 159
0.56817406 -0.10089380 0.69243294 158 158 160
0.56937093 -0.10089380 0.69243294 158 157 159
0.28918436 -0.10999998 0.78278506 122 89 83
0.28916705 -0.10915117 0.78641742 125 93 86
0.29018965 -0.10902469 0.78550619 124 91 86
0.29087323 -0.10877261 0.78368998 122 89 85
0.29222777 -0.10877261 0.78368998 122 89 86
0.29223096 -0.10827193 0.78008264 120 87 85
0.39653200 -0.06475451 0.46654636 169 169 170
0.39679223 -0.06466550 0.46590504 166 166 167
0.39650744 -0.06448822 0.46462771 161 161 161
0.40050235 -0.06435589 0.46367431 161 161 162
0.40102950 -0.06431190 0.46335739 148 148 149
0.40155590 -0.06426797 0.46304089 146 146 145
0.40775046 -0.06448822 0.46462771 172 172 173
0.40827370 -0.06444404 0.46430948 179 179 181
0.28373000 -0.10779191 0.78641742 124 96 86
0.28847709 -0.10804258 0.78824633 127 95 88
0.28983951 -0.10804258 0.78824633 127 95 86
0.29086372 -0.10791710 0.78733081 126 94 86
0.29188555 -0.10779191 0.78641742 125 93 86
0.29324481 -0.10779191 0.78641742 126 93 88
0.29290509 -0.10717027 0.78188217 140 107 103
0.39653200 -0.06394812 0.46654636 154 151 152
0.39651969 -0.06381636 0.46558505 151 148 149
0.39650744 -0.06368514 0.46462771 150 149 149
0.39649525 -0.06355447 0.46367431 155 154 154
0.39915490 -0.06346764 0.46304089 168 168 166
0.40022862 -0.06351102 0.46335739 167 167 166
0.40102950 -0.06351102 0.46335739 163 164 162
0.40155590 -0.06346764 0.46304089 160 161 159
0.40263122 -0.06351102 0.46335739 157 158 156
