ply
format ascii 1.0
element vertex 585
property float x
property float y
property float z
property uchar red
property uchar green
property uchar blue
end_header
-0.92152594 -0.64721513 1.51569408 180 180 180
-0.92486787 -0.65114397 1.52335250 180 180 180
-0.91005109 -0.65044455 1.49834183 177 178 179
-0.91343441 -0.65217838 1.50509221 176 178 179
-0.91313690 -0.63587540 1.49976075 180 181 181
-0.88256884 -0.67101288 1.45783186 176 178 180
-0.88324332 -0.64680457 1.47155607 177 180 182
-0.89414596 -0.64846355 1.48703298 175 180 181
-0.86336546 -0.66594768 1.43926084 173 174 175
-0.86845999 -0.66736748 1.44562001 174 175 176
-0.86125863 -0.66119605 1.47528321 173 179 179
-0.86280054 -0.66080248 1.48011315 168 174 174
-0.86710625 -0.64976394 1.44787593 176 178 178
-0.86892757 -0.65073669 1.46890354 174 178 179
-0.85160737 -0.66491376 1.43293277 176 178 179
-0.85427684 -0.66180673 1.46985292 174 177 178
-0.85076876 -0.65522729 1.43665451 178 179 179
-0.85016013 -0.65485053 1.44773059 174 176 177
-0.85256064 -0.65801781 1.46255147 174 177 178
-0.70248266 -0.38213491 1.11679252 170 170 173
-0.70235236 -0.38252812 1.12171908 179 179 180
-0.70249274 -0.37288798 1.11731834 177 178 177
-0.70157802 -0.37726578 1.12048233 176 177 176
-0.70322615 -0.35917050 1.11541891 173 174 173
-0.70405722 -0.35895483 1.12196643 175 175 173
-0.69849728 -0.38300519 1.11557400 174 174 176
-0.69543715 -0.38280016 1.12308446 179 179 180
-0.69246533 -0.36790399 1.11432782 178 179 177
-0.69087888 -0.37579789 1.12076773 180 181 181
-0.69344745 -0.35876133 1.11057892 179 180 178
-0.69770467 -0.35886747 1.12048233 178 178 175
-0.64217603 0.33838502 1.64937186 178 178 180
-0.64295918 0.34308083 1.65138328 181 181 182
-0.62499793 0.33018933 1.62900828 182 182 182
-0.63086406 0.33690981 1.64218140 178 178 178
-0.62899590 0.34461009 1.64866770 182 181 182
-0.60037947 0.31142962 1.59880149 179 178 178
-0.60537446 0.31625302 1.60673059 177 176 176
-0.60203192 0.30682158 1.62564927 182 182 182
-0.60664620 0.32405195 1.61116199 182 182 181
-0.60852725 0.33444852 1.62934000 180 180 179
-0.61920720 0.33958334 1.64138460 180 180 179
-0.60756023 0.35277210 1.63676234 181 181 182
-0.60958218 0.34867387 1.64412539 181 182 183
-0.59743837 0.31451808 1.61275879 172 171 171
-0.59286211 0.31134491 1.62956654 173 173 174
-0.59699384 0.30578654 1.64271259 182 182 182
-0.59052697 0.32377043 1.61595530 180 180 181
-0.59154155 0.33257969 1.62588193 184 184 185
-0.59335042 0.34816626 1.63113723 186 186 187
-0.59699384 0.34553668 1.64271259 176 178 179
-0.56792264 0.31728325 1.60511491 185 185 183
-0.56861443 0.32713306 1.60675387 178 178 178
-0.55892849 0.31419301 1.59880149 185 185 185
-0.55546367 0.31735274 1.60638962 179 179 179
-0.55518804 0.32598847 1.60727872 177 176 177
-0.32286586 0.04976081 1.21485996 178 178 176
-0.31575510 0.03670168 1.19980860 182 181 180
-0.30508272 0.03861589 1.21108562 189 182 181
-0.31264444 0.04188611 1.19980860 183 180 180
-0.30860244 0.04894450 1.20911971 179 178 179
-0.30595008 0.06651828 1.21777141 177 175 176
-0.30772197 0.06375218 1.22142673 177 175 175
-0.28996065 -0.00581237 0.50886287 179 180 180
-0.29908144 0.04787212 1.21268998 188 187 187
-0.26877507 -0.10898630 0.53798083 179 180 182
-0.24437670 -0.00202320 0.89906079 175 174 174
-0.24325890 -0.00203371 0.90331049 182 179 179
-0.24437670 0.01118541 0.89906079 169 168 166
-0.24611914 0.00740748 0.90382152 181 180 179
-0.24776204 0.23797009 0.77033405 179 179 180
-0.24663435 0.24308831 0.77147532 176 175 174
-0.23638650 -0.00255273 0.90365682 183 183 184
-0.23614463 0.00836652 0.90503651 183 181 182
-0.23747375 0.23757486 0.77232794 177 177 177
-0.22950804 0.25393806 0.75672299 178 177 179
-0.23622921 0.24452161 0.76915450 178 177 176
-0.22923562 0.26388842 0.75126578 177 178 179
-0.16157555 0.09852521 0.86576305 171 172 173
-0.16258473 0.10539723 0.86798041 177 177 177
-0.14262753 -0.17153019 1.05363711 84 57 55
-0.14721927 -0.17018055 1.06581144 85 57 55
-0.15015329 0.09502986 0.86575537 174 171 173
-0.15487894 0.10648797 0.86806679 181 181 181
-0.13344665 -0.16759268 1.04901832 91 66 65
-0.13983390 -0.16099517 1.06086361 85 58 58
-0.13236163 -0.15593373 1.05009405 129 122 121
-0.13983390 -0.15824474 1.06086361 96 68 71
-0.13640043 0.09872949 0.86946873 180 179 182
-0.12225290 0.26066262 0.65942788 167 168 167
-0.12188468 0.26326405 0.66052042 172 171 171
-0.10567636 0.25651117 0.65478923 176 172 172
-0.11012390 0.26240876 0.65833225 177 175 174
-0.11483284 0.26987141 0.66150004 176 175 174
-0.06684289 0.17841834 0.53622847 176 173 173
-0.06659702 0.18425787 0.53694499 177 175 174
-0.04038001 0.15859838 0.50501011 190 187 184
-0.04063575 0.16470745 0.50396797 168 167 166
-0.05970951 0.17997806 0.53758276 140 137 140
-0.05831534 0.18358133 0.53725596 173 174 175
-0.03676831 0.15899730 0.50334916 170 166 165
-0.03624571 0.16500157 0.50213451 174 171 168
0.01448116 -0.17224966 0.60447300 113 83 71
0.02085159 -0.16848108 0.59773063 115 83 72
0.03600460 0.05216258 0.49253290 156 150 150
0.03704368 0.11861495 1.24326867 170 166 169
0.03647383 0.13145702 1.25567441 174 170 171
0.03321594 0.13362246 1.26119611 178 171 171
0.03747369 0.14064093 1.25768435 155 150 152
0.04108553 0.05400575 0.49310815 173 170 172
0.04724508 0.11753853 1.23384363 168 166 166
0.04921901 0.12139251 1.23872501 155 151 153
0.04981942 0.12808604 1.25313153 165 161 162
0.05066360 0.13495034 1.26051976 166 162 162
0.04508201 0.14281473 1.25768435 183 180 180
0.05058511 0.14294852 1.26069244 171 165 166
0.07554269 -0.20042866 0.58476823 110 85 80
0.07453222 -0.18493555 0.57929622 112 84 75
0.07390786 -0.19239546 0.58331807 115 87 80
0.07871969 -0.00472842 0.51264402 171 168 168
0.07877250 0.00194654 0.51242878 171 168 168
0.06443677 0.13350976 1.25727929 165 159 161
0.07007445 0.13315891 1.26035724 164 161 161
0.06682007 0.14172783 1.25768435 166 157 160
0.08265007 -0.00520937 0.51249691 169 163 163
0.08222472 0.00242685 0.51196824 166 159 160
0.13678432 0.00664060 0.73911532 167 163 165
0.13443891 0.01198870 0.74284186 170 165 166
0.14098347 0.00600283 0.73924953 162 159 159
0.14240308 0.01229676 0.74237032 161 154 156
0.14527065 0.20950363 0.45619884 0 0 0
0.14726737 0.21531036 0.46884314 0 0 0
0.14893670 0.22016504 0.47941431 0 0 0
0.15069661 0.22528306 0.49055891 0 0 0
0.15348453 0.23339073 0.50821356 0 0 0
0.15544911 0.23910397 0.52065426 0 0 0
0.15699641 0.24360373 0.53045261 0 0 0
0.15914789 0.24986052 0.54407689 0 0 0
0.17995846 0.08494513 0.51355445 165 164 166
0.17309924 0.15913992 0.55167059 151 145 147
0.17413279 0.16807832 0.55144513 165 164 164
0.16083170 0.25475726 0.55473965 0 0 0
0.16199391 0.25813714 0.56209940 0 0 0
0.16380037 0.26339056 0.57353884 0 0 0
0.16632083 0.27072038 0.58949971 0 0 0
0.16830041 0.27647725 0.60203540 0 0 0
0.17037601 0.28251341 0.61517927 0 0 0
0.17328163 0.29096334 0.63357919 0 0 0
0.17557155 0.29762271 0.64808017 0 0 0
0.17716132 0.30224597 0.65814739 0 0 0
0.17880127 0.30701515 0.66853237 0 0 0
0.18457176 0.07952408 0.51485739 178 177 180
0.18393481 0.08741891 0.51361675 163 162 163
0.18049379 0.31193724 0.67925036 0 0 0
0.18224147 0.31701973 0.69031757 0 0 0
0.18498023 0.32498443 0.70766088 0 0 0
0.18884258 0.33621663 0.73211926 0 0 0
0.19190988 0.34513676 0.75154305 0 0 0
0.19516410 0.35460047 0.77215049 0 0 0
0.19858041 0.36453557 0.79378438 0 0 0
0.21292213 0.15770268 0.67327893 168 167 168
0.21065515 0.16058670 0.67310745 159 158 159
0.20097373 0.37149566 0.80894017 0 0 0
0.20346023 0.37872672 0.82468593 0 0 0
0.20739041 0.39015621 0.84957391 0 0 0
0.21153651 0.40221366 0.87582928 0 0 0
0.21445592 0.41070366 0.89431643 0 0 0
0.21750121 0.41955981 0.91360086 0 0 0
0.23565317 -0.26439796 0.70520426 170 169 171
0.22942550 -0.25549901 0.69957876 164 164 166
0.23485523 -0.25347742 0.70335143 166 167 169
0.22495908 0.15774303 0.67421581 168 165 163
0.22482519 0.16175393 0.67312609 166 162 161
0.22068074 0.42880630 0.93373531 0 0 0
0.22400357 0.43846953 0.95477724 0 0 0
0.22747962 0.44857833 0.97678941 0 0 0
0.23111972 0.45916426 0.99984050 0 0 0
0.23493579 0.47026187 1.02400577 0 0 0
0.23894089 0.48190925 1.04936814 0 0 0
0.24217651 -0.26558989 0.71057889 167 166 168
0.24094576 -0.25467718 0.70736639 162 163 166
0.24314941 0.49414819 1.07601881 0 0 0
0.24757728 0.50702500 1.10405838 0 0 0
0.25224209 0.52059090 1.13359845 0 0 0
0.25716338 0.53490269 1.16476262 0 0 0
0.26236290 0.55002362 1.19768882 0 0 0
0.26786497 0.56602430 1.23253059 0 0 0
0.27369672 0.58298385 1.26946032 0 0 0
0.27988875 0.60099107 1.30867147 0 0 0
0.29977700 -0.64167559 1.44848680 179 179 180
0.29579961 -0.63585378 1.45132707 182 183 184
0.29668429 -0.63628436 1.46323156 179 181 183
0.29807662 -0.14671841 0.83518646 115 84 73
0.29737174 -0.13763574 0.83381528 119 87 76
0.28968713 -0.10519345 0.78885079 135 114 110
0.29278952 -0.10184032 0.80382609 151 145 142
0.28877420 -0.09816887 0.79658512 147 140 138
0.29470279 -0.08883512 0.81142422 157 147 147
0.29868771 -0.07808361 0.81936995 175 171 172
0.29893297 -0.07844586 0.82069230 175 171 170
0.28647548 0.62014616 1.35038221 0 0 0
0.29349589 0.64056247 1.39483917 0 0 0
0.30717337 -0.64504178 1.44901701 180 180 182
0.30429609 -0.64109306 1.46624657 175 176 180
0.31480295 -0.63356489 1.43621551 173 173 176
0.30990736 -0.63094925 1.45020316 174 174 176
0.30525285 -0.63674776 1.46384609 176 177 179
0.31279346 -0.61768734 1.43926084 171 172 172
0.31595194 -0.61900157 1.44232309 168 169 169
0.30836807 -0.16217983 0.83756183 114 86 72
0.31394102 -0.16227428 0.84135763 115 87 71
0.30506722 -0.14961066 0.83817293 118 84 74
0.30943916 -0.15466285 0.84245444 118 87 74
0.30285643 -0.13938881 0.83742076 118 86 75
0.30398120 -0.13990732 0.84053579 117 85 74
0.31353019 -0.10417554 0.81945245 174 170 170
0.31343101 -0.10264481 0.82218725 170 166 166
0.31235222 -0.08993295 0.81655621 170 169 171
0.31074359 -0.09262784 0.82192130 172 170 171
0.31507838 -0.07789975 0.81920496 171 169 171
0.30640374 -0.07854106 0.82168829 171 170 169
0.30099431 0.66236889 1.44232309 0 0 0
0.30902123 0.68571228 1.49315381 0 0 0
0.31763461 0.71076113 1.54769826 0 0 0
0.32218428 -0.64143801 1.44232309 175 175 177
0.32554266 -0.63572277 1.43926084 168 168 170
0.32788045 -0.62916027 1.44581366 162 162 165
0.33886446 -0.12180736 0.46170937 170 170 171
0.33839872 -0.11403503 0.45919947 162 163 164
0.33835394 -0.11677563 0.46141527 173 175 175
0.32197574 -0.10531579 0.82448603 172 172 174
0.33720388 -0.08340382 0.50390383 158 156 159
0.33844505 -0.07826303 0.50271525 137 135 138
0.33706103 0.31158423 0.76776564 114 111 121
0.32690114 0.73770940 1.60637879 0 0 0
0.33689803 0.76678169 1.66968429 0 0 0
0.34440445 -0.12213388 0.46220235 165 166 167
0.34057304 -0.11522384 0.45958801 157 158 161
0.34181010 -0.11833224 0.46151581 169 170 171
0.34822292 -0.08322349 0.50365499 164 164 166
0.35183947 -0.07874797 0.50151887 165 166 165
0.34511885 0.31813774 0.75996846 142 142 147
0.34481295 0.31163142 0.76636385 146 147 148
0.34771517 0.79823941 1.73818421 0 0 0
0.35945785 0.83238870 1.81254506 0 0 0
0.36353791 -0.08230102 0.49877156 169 170 172
0.36102307 -0.08098718 0.50041236 183 182 184
0.36502491 -0.07742453 0.49974487 164 163 163
0.36214778 -0.07817667 0.50037318 169 170 171
0.37891227 0.03905421 0.51372131 157 158 156
0.37777202 0.04379018 0.51419160 160 161 163
0.37893469 0.29268315 0.75903460 142 142 145
0.37903915 0.28561933 0.76082134 145 141 142
0.37672336 0.33939207 1.07773221 165 164 162
0.37512252 0.33954093 1.08116722 166 164 161
0.37231800 0.34751795 1.07845205 150 150 151
0.37373423 0.35391248 1.08463855 156 155 155
0.37180622 0.36541362 1.08641715 160 160 161
0.37225014 0.86959040 1.89355266 0 0 0
0.39576253 -0.54607674 1.33090543 165 165 167
0.39376408 -0.52042240 1.31885576 175 176 180
0.39644822 -0.53260105 1.32990081 170 170 172
0.39375624 -0.51663566 1.31501931 177 178 181
0.39679844 -0.06214399 0.46426802 161 158 157
0.39797031 -0.05858529 0.46338193 160 160 160
0.38195488 0.03849488 0.51333613 158 158 155
0.38245219 0.04415858 0.51364933 158 158 159
0.39130635 0.29218944 0.75841766 145 145 146
0.38644420 0.28979537 0.76147894 141 141 142
0.39012787 0.30051225 0.75759127 143 145 147
0.39518717 0.30085469 0.76110631 138 137 139
0.38696341 0.34832892 1.07944560 157 158 157
0.38825893 0.35335733 1.08322697 161 162 162
0.38798801 0.36791178 1.08788567 162 162 162
0.38623938 0.91027302 1.98213995 0 0 0
0.40636923 -0.54645646 1.33593972 167 168 170
0.40972084 -0.52498150 1.31885576 170 171 173
0.40661119 -0.53116746 1.33107375 170 171 173
0.40249108 -0.51650226 1.31757528 177 178 179
0.40748997 -0.51851565 1.32271707 176 176 178
0.40423501 -0.06200930 0.46355925 160 161 161
0.40400861 -0.05809870 0.46371889 161 162 162
0.40115154 0.29744434 0.75911742 150 148 148
0.40073696 0.29811201 0.76082134 139 138 138
0.40032053 0.30141863 0.76253301 149 149 149
0.49977666 -0.12043607 0.48455456 165 168 168
0.49819340 -0.11311379 0.47963244 160 163 165
0.49772976 -0.11471177 0.48131802 156 159 161
0.50057109 -0.12223387 0.48559604 166 170 169
0.50506445 -0.11206863 0.47853701 158 160 162
0.50138186 -0.11302695 0.48040290 156 157 160
0.51795768 -0.09066149 0.74472567 163 163 166
0.53917965 -0.57780251 1.34903985 177 178 180
0.52454704 -0.10048734 0.74248832 169 170 173
0.52326962 -0.09032758 0.74498480 163 163 165
0.52332498 -0.07760927 0.74562292 167 166 167
0.55716254 -0.60272838 1.37559540 176 179 178
0.55658138 -0.60684484 1.38063514 175 179 179
0.54924382 -0.58382084 1.35488454 176 177 179
0.54965734 -0.59415145 1.36555156 177 179 179
0.55129405 -0.57412628 1.34883457 175 176 178
0.56140375 -0.60561144 1.37782896 177 178 180
0.57082185 -0.58573606 1.35101905 174 174 175
0.56621791 -0.59445733 1.36240242 176 176 178
0.57013963 -0.57362006 1.35360123 176 176 177
0.57292864 -0.56975006 1.36685911 176 178 178
0.57447875 -0.57105011 1.38063514 174 178 177
0.57258534 -0.12199908 0.69829859 173 176 175
0.57509766 -0.12787306 0.70146221 169 170 171
0.57069199 -0.11161143 0.69536933 164 165 166
0.58094199 -0.58303720 1.35308115 176 176 177
0.59354923 -0.58220390 1.37136392 177 177 179
0.58100702 -0.57528934 1.35687051 178 179 180
0.58851632 -0.56789068 1.36718480 177 177 179
0.59587383 -0.55578393 1.36947846 174 177 178
0.58443761 -0.12858209 0.70625401 171 174 174
0.58007151 -0.11668584 0.70102566 163 163 164
0.59943751 0.02820533 0.55572515 144 151 150
0.59158890 0.15923984 0.93583174 150 151 151
0.58875517 0.16990281 0.93429620 143 142 144
0.59868747 0.17664276 0.94021058 148 150 149
0.58832544 0.18324542 0.93369170 156 156 156
0.60611868 -0.58238342 1.38204396 176 176 176
0.60208210 -0.57128524 1.37736317 177 178 180
0.60570678 -0.57482545 1.38110475 178 178 180
0.61140292 -0.04377980 0.63172953 158 160 161
0.61179627 -0.03301034 0.63329585 157 158 159
0.60810125 0.02727986 0.55608183 145 148 149
0.60886641 0.10660013 0.67839077 146 146 144
0.61261804 0.11471770 0.68174973 144 143 141
0.61873633 0.12060492 0.68612534 137 131 131
0.60002202 0.16666114 0.93890840 145 144 153
0.60170420 0.17759531 0.94238943 151 151 149
0.60006142 0.18177010 0.94151646 164 164 166
0.63635280 -0.06782027 1.32401089 172 172 172
0.62104833 -0.04533987 0.63512677 159 159 159
0.65223976 -0.06569124 1.33555822 167 166 167
0.65190999 -0.05713340 1.33280186 168 168 170
0.67765531 -0.35855633 0.59248107 27 26 34
0.67093122 -0.08993527 1.35850072 164 163 165
0.67760040 -0.08835025 1.37041004 170 169 171
0.67091303 -0.06722705 1.35126185 166 165 167
0.67756063 -0.07615392 1.36397119 159 160 162
0.66396517 -0.05858862 1.33970726 162 162 164
0.67118527 -0.05896787 1.34837934 157 154 157
0.69748622 -0.38451348 0.61669273 26 25 34
0.69972706 -0.38302284 0.62021214 26 25 34
0.68256561 -0.36501274 0.59858161 28 26 33
0.69001288 -0.37131383 0.60754792 27 26 34
0.68319826 -0.35927884 0.59823086 28 27 36
0.68602513 -0.09165844 1.37406502 168 168 169
0.69306328 -0.08749444 1.38393197 170 170 172
0.69150504 -0.06995106 1.37162924 161 160 161
0.69671513 -0.07790381 1.38305516 174 175 175
0.68316054 -0.05935109 1.35714221 161 160 163
0.68992427 -0.05952980 1.36122859 171 171 172
0.68978384 0.35257479 0.83828389 144 145 145
0.69260638 0.35137099 0.84109238 143 144 144
0.68750498 0.36177843 0.83742098 139 142 144
0.69193149 0.36345711 0.84147637 140 143 145
0.70015848 -0.39124081 0.61964518 28 26 35
0.70227626 -0.39179822 0.62204884 27 26 34
0.70184963 -0.08540292 1.38660395 163 163 166
0.70262548 -0.07027266 1.37573290 157 158 157
0.70400807 -0.07912164 1.38289154 169 169 169
0.70334278 0.35671203 0.84455761 146 147 148
0.70961559 0.36505954 0.84997957 147 148 149
0.72837353 0.14066406 1.99968100 175 173 173
0.72129821 0.36335410 0.85561568 152 152 152
0.77755490 0.11808244 0.93545668 154 153 146
0.77772847 0.12097071 0.93696222 163 162 160
0.77823752 0.13706142 0.94743842 152 152 152
0.78096923 0.11935171 0.93696582 145 142 138
0.78096923 0.12097118 0.93696582 150 147 146
0.78616690 0.13196353 0.94775341 148 148 147
0.78664000 0.14549251 0.95104841 150 150 150
0.81757457 -0.18110463 0.84568328 158 160 166
0.81802106 -0.17872372 0.84490848 156 157 161
0.82481793 -0.18132349 0.83675864 156 160 161
0.82140399 -0.18207355 0.84487409 160 165 168
0.82390827 -0.18108991 0.86136472 161 162 167
0.82582174 -0.17695997 0.83695820 155 159 162
0.82450717 -0.17537224 0.84955902 158 160 162
0.82636523 -0.17280146 0.86305576 158 158 159
0.83872601 -0.06322243 0.84640693 162 163 163
0.83922935 -0.05554171 0.83897507 159 159 159
0.83669044 -0.05450170 0.84339504 159 159 159
0.84859018 -0.08365385 0.85783698 151 152 153
0.84988205 -0.08646408 0.86456706 157 157 158
0.84495797 -0.06827693 0.84992787 159 161 161
0.85144517 -0.07905403 0.86547079 155 155 157
0.84197113 -0.05550693 0.83845654 160 160 160
0.84206895 -0.05230914 0.84343737 155 155 156
0.91958421 0.18423994 1.24383819 157 157 158
0.93750056 -0.00540045 0.93513828 150 151 154
0.93477882 -0.00259202 0.94845586 153 155 156
0.93662255 0.00517931 0.93696361 161 163 165
0.93545869 0.00644024 0.95077505 153 153 154
0.93698694 0.01107800 0.96511269 137 137 140
0.93846558 0.02394070 0.96428555 160 161 163
0.92287523 0.17911869 1.23815966 153 154 154
0.92804003 0.17718079 1.24460598 154 155 155
0.92807110 0.19456575 1.23744159 146 142 144
0.92666385 0.19191138 1.24659914 154 153 154
0.92719340 0.19970419 1.26002204 134 133 133
0.93622722 0.20579294 1.23720416 143 136 139
0.93418465 0.20360505 1.24974018 146 142 143
0.93392836 0.21281041 1.26913333 158 158 159
0.93494580 0.21506691 1.28413988 158 158 160
0.93451898 0.22399862 1.27050991 154 153 153
0.93685565 0.22437227 1.28829543 166 166 167
0.94910431 -0.51518711 0.85700613 43 41 54
0.95453814 -0.51515576 0.86191267 44 41 55
0.94120551 -0.00412085 0.93486314 152 155 157
0.94077798 -0.00375377 0.94574913 153 155 155
0.94202025 0.00714496 0.93636402 153 154 156
0.94164986 0.00870326 0.95063631 156 157 157
0.94578925 0.01691014 0.96601894 144 144 146
0.94600192 0.02179640 0.96772913 151 153 154
0.94264013 0.21069846 1.23929036 149 149 149
0.94423852 0.21296734 1.24931527 153 149 149
0.94179215 0.21502597 1.26207732 161 159 159
0.94915169 0.22517202 1.25291687 156 157 157
0.94804918 0.23095719 1.27029451 154 155 155
0.94778340 0.23430259 1.28954933 147 147 147
0.94486153 0.23680710 1.30238706 149 150 150
0.94847038 0.24809548 1.27033045 144 144 145
0.94961266 0.24518487 1.28145909 153 155 156
0.96553096 -0.52189893 0.87320156 43 42 55
0.97957873 -0.53109360 0.88729298 45 42 56
0.96643960 -0.51513319 0.87296377 43 42 54
0.97656627 -0.51656222 0.88290603 44 43 53
0.97913921 -0.50284958 0.91114497 154 155 157
0.97789530 -0.49511791 0.90645046 146 146 149
0.99784088 -0.78256893 1.31885576 178 179 181
0.99367474 -0.78564837 1.32976209 175 178 179
0.99182312 -0.76766199 1.31487378 172 176 176
0.99093098 -0.77017958 1.32537171 171 175 176
0.99462163 -0.75959017 1.31460079 173 176 177
0.98200757 -0.52659905 0.88949298 44 42 55
0.98937329 -0.50997409 0.89264907 46 45 55
0.98949192 -0.50650828 0.91107768 87 85 94
0.98856405 -0.49203589 0.89167368 50 48 63
0.99001558 -0.49613080 0.90638939 105 104 115
1.00142274 -0.79378808 1.33061054 175 178 179
1.00398881 -0.50727700 0.91308096 52 49 66
1.01100438 -0.50862423 0.92444256 81 82 93
1.00382898 -0.49503347 0.91100504 65 63 81
1.01420979 -0.49610222 0.92251296 112 115 120
1.02038789 -0.52051848 0.92861897 48 46 62
1.02359185 -0.50464861 0.93493455 138 140 142
1.03273980 -0.50418284 0.94660120 155 157 154
1.02213940 -0.49809700 0.93021299 146 149 150
1.03130519 -0.49845588 0.94151646 158 159 159
1.08905087 0.44951212 1.73564718 150 149 150
1.09559337 0.45691958 1.74265254 134 134 135
1.09428632 0.47076955 1.73818421 126 126 127
1.09744296 0.46695491 1.74639920 106 104 107
1.11931992 -0.38530713 1.98504627 174 174 176
1.11693108 -0.37137568 1.94796503 166 165 169
1.11926834 -0.36335556 1.98700100 166 165 167
1.11613297 -0.35458545 1.97636104 164 164 167
1.11744776 -0.35374455 1.99088897 175 175 177
1.11893380 -0.33975977 1.99968100 162 162 162
1.11801596 -0.04917736 1.59817451 158 155 155
1.11450223 -0.04838230 1.60705744 161 158 158
1.11769056 -0.04008935 1.62175083 161 160 158
1.11459699 -0.03989872 1.61403918 158 157 153
1.11615622 -0.03737570 1.62563992 159 155 151
1.11871511 0.15404893 1.34636050 158 158 163
1.11801201 0.35849261 1.39484507 149 148 147
1.11724353 0.36145792 1.39388839 117 115 115
1.11848903 0.36476187 1.40350680 137 132 132
1.10179710 0.44973937 1.73818421 148 145 145
1.11227570 0.45520419 1.75053279 148 147 146
1.11089451 0.47040326 1.75223307 137 136 141
1.11707501 0.47069693 1.76228646 144 142 153
1.11797845 0.48136485 1.74940121 148 148 148
1.12338734 -0.38198827 1.95922494 132 131 136
1.12795191 -0.38510300 1.97144607 132 131 135
1.12789838 -0.38701589 1.99111419 158 157 160
1.12511778 -0.37325570 1.95781341 157 157 159
1.12921624 -0.37109313 1.97002332 162 162 164
1.12789242 -0.36833946 1.98847746 152 151 154
1.13207424 -0.35743211 1.97636104 152 157 158
1.12835918 -0.35356668 1.98991877 169 169 171
1.12729743 -0.05499708 1.59880149 162 161 161
1.13214196 -0.05143946 1.60424374 165 164 164
1.12139069 -0.03574226 1.61547962 163 162 162
1.12687581 -0.03063217 1.63011808 162 162 162
1.13558099 -0.02652340 1.64978786 162 161 161
1.13609526 0.13915137 1.37156045 158 156 153
1.12665301 0.15235524 1.35297313 151 151 154
1.13357848 0.14452454 1.36638203 155 151 150
1.13944471 0.33958825 1.40641463 123 123 125
1.12519285 0.35610313 1.39638774 137 135 135
1.13217315 0.35181070 1.40294309 139 137 137
1.12794892 0.36497897 1.39575691 126 124 127
1.12996126 0.37201529 1.40606998 132 128 133
1.13286597 0.37668253 1.42489520 138 132 134
1.13433497 0.38247971 1.41581516 147 148 150
1.13558955 0.38603196 1.42531337 150 151 153
1.12633990 0.45668647 1.75166520 157 157 153
1.13132274 0.45710181 1.76075804 155 155 152
1.12802663 0.47012582 1.75339173 144 144 143
1.12822371 0.46973241 1.76305068 148 147 148
1.12850380 0.48047411 1.75165856 152 152 152
1.15190035 -0.38415656 1.98796976 167 166 166
1.14004481 -0.36654139 1.97636104 179 180 182
1.14724731 -0.36886920 1.98629674 171 173 174
1.14669466 -0.35891019 1.99087608 164 170 170
1.14464307 -0.06177494 1.60258114 150 149 151
1.14723188 -0.05245476 1.60755909 160 159 160
1.15697932 0.11199775 1.35850072 155 154 154
1.15759921 0.11011028 1.37413065 155 156 159
1.15812562 0.11802891 1.38515484 152 152 153
1.15296118 0.13548251 1.37503766 163 163 162
1.15849623 0.12965153 1.38416582 156 155 155
1.14985706 0.14855254 1.37211168 160 159 159
1.15405521 0.14245836 1.38063514 154 153 152
1.15655494 0.32782438 1.39771509 138 138 142
1.15649126 0.33161282 1.40350759 143 143 144
1.14633327 0.35307277 1.37559540 92 89 111
1.15031921 0.35074505 1.38914223 100 100 107
1.15139582 0.34998129 1.40807462 128 127 128
1.15875757 0.35297331 1.42115688 138 136 137
1.14512295 0.36285695 1.39308745 145 149 151
1.14390352 0.36478378 1.40234525 126 131 131
1.14165753 0.38247669 1.41670340 138 139 142
1.14393838 0.38927529 1.42514610 151 152 152
1.16213745 -0.38641964 1.99968100 170 169 169
1.16040933 -0.37777895 1.99968100 175 175 177
1.16518505 0.11158500 1.37475127 159 158 160
1.16583171 0.11544967 1.38222149 154 154 155
1.16764853 0.13581660 1.37382346 158 157 156
1.16846404 0.12769955 1.38451848 152 151 151
1.16947516 0.14598810 1.37643158 153 153 150
1.16949980 0.14459445 1.38419580 155 154 153
1.16276886 0.33674552 1.40876110 150 150 149
1.16311014 0.34344496 1.41227776 127 127 128
1.19942427 0.15832511 1.26002204 156 157 153
1.19560253 0.17001414 1.25524764 139 140 141
1.19942427 0.16159188 1.26002204 143 143 137
1.20596743 0.15647704 1.23403549 139 139 139
1.20872147 0.15544165 1.25320602 143 143 143
1.20508664 0.15788954 1.26002204 157 158 156
1.20819904 0.16549348 1.23519429 138 138 137
1.20881959 0.16821826 1.25375726 139 139 140
1.20486885 0.16159188 1.26002204 150 149 144
1.21526444 0.53818709 1.50642633 131 132 132
1.21838713 0.53896815 1.52335250 166 167 165
1.21740800 0.55090201 1.49151301 150 152 153
1.21683335 0.54892925 1.51054695 143 143 143
1.21663678 0.56741656 1.49426220 132 131 132
1.21404972 0.57069792 1.50980890 148 148 147
1.22205853 0.15217250 1.25419503 150 150 150
1.22479206 0.53846875 1.51823676 145 144 143
1.22695858 0.53743225 1.52564326 161 161 158
1.22367462 0.55613391 1.49865715 147 151 152
1.22369773 0.55119438 1.51246730 147 148 147
1.23079835 0.54795590 1.52640569 146 145 144
1.22146289 0.56371297 1.49700663 139 139 139
1.22642688 0.56842969 1.51354653 142 142 143
1.23002908 0.57012314 1.52817060 149 149 150
1.22514786 0.58396009 1.51597492 138 137 139
1.23446937 0.59341737 1.53023513 147 143 144
1.25833175 -0.80580626 1.33281226 162 167 166
1.25846785 -0.79868019 1.33050537 168 173 174
1.24558724 0.53729705 1.53456143 149 149 148
1.24240184 0.54140139 1.53022993 137 136 137
1.27296162 -0.82041293 1.33970726 168 174 174
1.26439920 -0.80814549 1.33444050 166 170 170
1.26168017 -0.80299069 1.34413572 162 163 166
1.26910567 -0.78256893 1.31885576 169 175 175
1.26922983 -0.79473656 1.33392430 166 170 171
1.26664138 -0.77877432 1.31629479 165 171 171
1.29475031 -0.84210765 1.35524464 163 166 166
1.29438871 -0.82598451 1.35039290 164 169 169
1.28828175 -0.80796648 1.33767617 160 163 163
1.29044508 -0.81443524 1.34573840 160 163 164
1.28250304 -0.79567795 1.33608165 166 170 170
1.30255902 -0.84131396 1.35850072 164 168 168
1.30884368 -0.84546990 1.36802003 164 169 169
1.30483485 -0.83076527 1.35326014 167 173 173
1.30229843 -0.83636670 1.36191332 163 169 169
