ply
format ascii 1.0
element vertex 1062
property float x
property float y
property float z
property uchar red
property uchar green
property uchar blue
end_header
-1.36002469 -0.01105387 1.93683386 160 159 146
-1.36392164 -0.01780005 1.94238353 158 159 147
-1.34938712 -0.02882647 1.95200918 95 92 87
-1.34237731 -0.03838350 1.96490383 52 43 48
-1.34970163 -0.00832137 1.93377174 160 159 148
-1.34403783 -0.01347906 1.94534034 87 86 79
-1.34134734 0.01885953 1.91494870 157 154 146
-1.34602010 0.00792549 1.92310125 157 158 149
-1.32451046 -0.04153887 1.95357883 50 45 48
-1.33129043 -0.02898470 1.95563930 48 46 47
-1.33898115 -0.03838350 1.96490383 53 44 49
-1.33531704 -0.00156788 1.93499450 89 90 88
-1.33046651 -0.00949433 1.94662222 45 45 47
-1.33141792 0.01885953 1.91494870 148 149 140
-1.33042695 0.00946022 1.92651109 91 95 90
-1.32744772 0.02261410 1.91263689 145 144 136
-1.31733751 -0.04141950 1.94796503 50 45 49
-1.30509667 -0.03107116 1.93315514 46 45 46
-1.31475153 -0.02956861 1.94331378 47 45 46
-1.30927503 -0.00797452 1.93315775 43 43 45
-1.31692016 -0.01780005 1.94238353 42 42 44
-1.31187963 0.01140653 1.92626069 44 45 47
-1.30964328 0.02544800 1.91272755 42 43 43
-1.30642311 0.02776418 1.92037344 43 45 46
-1.28839004 -0.02582322 1.91494870 45 45 45
-1.29676336 -0.02650859 1.92492497 45 45 45
-1.28700409 -0.00831659 1.91148315 44 42 43
-1.29146650 -0.01264996 1.92446515 46 42 44
-1.28084528 0.01870105 1.89885676 44 45 47
-1.28880239 0.01110734 1.90956121 43 43 46
-1.29867828 0.00895533 1.92037344 43 43 46
-1.29480503 0.02477603 1.91171217 44 44 45
-1.26936018 -0.22570233 1.99968100 100 97 102
-1.27684951 0.00884637 1.89779594 41 41 44
-1.27786064 0.00558862 1.90419054 41 41 43
-1.23710148 -0.24413585 1.99968100 166 159 155
-1.18618123 -0.12466221 1.96871185 44 43 46
-1.18370809 -0.08596981 1.85006070 165 163 154
-1.18288410 -0.07593943 1.84586188 163 162 154
-1.16796772 -0.14450960 1.88722908 48 48 51
-1.17256331 -0.12257733 1.95357883 45 44 46
-1.16811422 -0.10462926 1.85248242 119 115 110
-1.16251278 -0.11483135 1.93683386 44 43 44
-1.17341834 -0.11650768 1.95078808 44 43 45
-1.17029365 -0.08918050 1.85216432 131 131 123
-1.16256487 -0.09753570 1.92582905 43 43 45
-1.17604041 -0.08053828 1.99968100 47 47 47
-1.17198149 -0.06393538 1.83710527 168 166 158
-1.17117733 -0.07078565 1.84420227 162 163 153
-1.17431092 -0.07524558 1.99674028 51 49 52
-1.16902632 -0.05151896 1.83388059 50 46 50
-1.16740179 -0.05026985 1.99870076 168 165 158
-1.16395734 -0.03095598 1.99674028 170 168 161
-1.17028290 -0.00449947 1.99870076 175 172 164
-1.16766497 0.00781567 1.99548982 172 171 162
-1.14565217 -0.14608756 1.86576049 46 46 47
-1.15951276 -0.14093362 1.88303292 46 46 48
-1.14179546 -0.13358508 1.87133971 44 44 45
-1.14635336 -0.13190240 1.89355266 44 44 45
-1.15604091 -0.12971656 1.90955448 44 44 46
-1.14881248 -0.10282341 1.85317843 46 43 45
-1.14300036 -0.10273369 1.89885676 44 42 44
-1.14613914 -0.10992367 1.90956962 44 43 43
-1.15066441 -0.08823245 1.85546780 47 46 49
-1.14300036 -0.09124662 1.89885676 44 43 44
-1.14621115 -0.09808541 1.90419054 43 42 44
-1.14994470 -0.06195811 1.83600190 87 90 83
-1.14833817 -0.07125310 1.84833374 50 52 53
-1.14108944 -0.04178463 1.81740439 172 164 167
-1.14973249 -0.05056861 1.82897856 118 112 113
-1.15879693 -0.04957385 1.99381392 168 167 158
-1.14478008 -0.03756468 1.81578461 71 66 75
-1.15840560 -0.03092821 1.99511804 170 170 162
-1.15894675 -0.00784063 1.97061586 175 172 163
-1.15027129 -0.01020642 1.99222136 173 170 162
-1.14946832 0.01104678 1.97459329 175 173 164
-1.14725921 0.00924939 1.98435429 174 172 162
-1.14208865 0.03284103 1.95922494 175 174 162
-1.14803593 0.02486688 1.97177153 174 175 161
-1.13410175 -0.14182454 1.85216355 45 45 47
-1.13311218 -0.13201353 1.85368587 44 44 45
-1.13699499 -0.12694763 1.86876032 45 44 46
-1.12382297 -0.10362648 1.83710527 45 44 45
-1.13094330 -0.10970585 1.85048127 46 44 46
-1.13423355 -0.10737748 1.86555381 44 44 45
-1.12839031 -0.09027720 1.84880424 45 44 47
-1.13168647 -0.09025492 1.86859028 44 43 45
-1.13980770 -0.08608247 1.89355266 47 46 46
-1.12971187 -0.06120648 1.83462268 77 77 79
-1.13021437 -0.06978170 1.84920454 48 48 52
-1.13576946 -0.07190124 1.86541846 43 43 46
-1.13166577 -0.04178463 1.81740439 171 166 163
-1.13297428 -0.04883921 1.82990387 167 167 154
-1.13528895 -0.05413977 1.84600743 167 168 154
-1.12073982 -0.04770356 1.99968100 53 52 50
-1.12884949 -0.03631956 1.81324295 169 163 159
-1.12941014 -0.00944403 1.99602870 98 96 93
-1.12588855 0.01661771 1.97636104 171 173 159
-1.12987517 0.00848828 1.98515518 138 138 129
-1.13219166 0.02399352 1.97444598 172 173 160
-1.11384827 -0.10401280 1.83462268 44 44 44
-1.11838639 -0.10921460 1.84209740 44 44 44
-1.11838639 -0.09966285 1.84209740 45 44 45
-1.11565924 -0.06095890 1.82720172 81 79 82
-1.11072417 -0.05120834 1.81740439 168 169 152
-1.11502236 -0.05528310 1.82228994 168 168 155
-1.11590104 -0.04874045 1.99968100 50 49 48
-1.10101128 -0.03823339 1.79812157 171 166 161
-1.11188879 -0.03469312 1.80772190 170 165 160
-1.11728358 -0.02178141 1.99968100 47 47 49
-1.10138416 -0.00093354 1.78863287 175 173 159
-1.11286697 -0.00898720 1.99703435 48 46 49
-1.11405819 0.01246161 1.98431969 45 45 46
-1.09355199 -0.08306610 1.82720172 46 45 45
-1.08412820 -0.02397854 1.77807927 173 168 163
-1.09216413 -0.03121862 1.78770139 170 165 162
-1.08719742 -0.00869473 1.77521348 172 170 161
-1.09454392 -0.00934420 1.78435380 171 169 159
-1.09534419 -0.01414666 1.99497585 48 42 45
-1.09012446 0.01048890 1.77552238 174 171 161
-1.09496193 0.00611662 1.78392589 174 173 159
-1.09246479 0.02188804 1.77304959 172 169 160
-1.07764459 -0.00857184 1.76995254 172 171 161
-1.07776701 0.01588121 1.76764792 175 169 162
-0.90113950 -0.94761193 1.91494870 44 44 46
-0.90376441 -0.94467118 1.92583683 45 44 47
-0.90216529 -0.93902057 1.93131578 48 47 49
-0.88369322 -0.98010629 1.88827813 135 144 143
-0.88554074 -0.97461607 1.89518924 67 68 71
-0.89016735 -0.96917475 1.90799126 59 58 61
-0.88700287 -0.94840084 1.89885676 45 45 50
-0.88951417 -0.95108231 1.90777357 57 55 61
-0.89188003 -0.94432579 1.92173734 76 73 78
-0.88459033 -0.93602753 1.91494870 103 95 104
-0.89346240 -0.93888475 1.92693262 71 63 70
-0.86487234 -0.98223721 1.87367260 121 138 141
-0.87056039 -0.98040193 1.88536412 124 138 141
-0.86333939 -0.98214579 1.93407482 162 162 154
-0.86198997 -0.97736764 1.85216355 126 141 148
-0.86880764 -0.97838534 1.86941583 121 141 143
-0.86989539 -0.97421728 1.89295428 136 141 139
-0.87195465 -0.96656170 1.90560210 160 155 153
-0.86171651 -0.97268404 1.92858019 167 162 153
-0.86695421 -0.95035471 1.89852525 161 153 152
-0.87353685 -0.94778759 1.90802914 155 152 148
-0.87281528 -0.93735166 1.91090304 162 159 150
-0.85632640 -0.98004538 1.85723794 127 137 146
-0.85899928 -0.98195562 1.87005001 125 139 143
-0.84228081 -0.97259688 1.83710527 131 138 158
-0.84438033 -0.97336671 1.85217732 127 139 149
-0.84843418 -0.97487904 1.86711837 124 139 143
-0.85272386 -0.97386528 1.89032037 132 143 141
-0.85639467 -0.97034232 1.90867058 162 158 153
-0.85965866 -0.96298200 1.92582905 170 165 158
-0.85548004 -0.94977946 1.89644581 167 161 158
-0.85489325 -0.95395007 1.90776650 167 162 154
-0.82699429 -0.96293390 1.82721772 119 137 149
-0.83206112 -0.96837763 1.85074127 120 139 145
-0.83560439 -0.97028500 1.86833988 125 139 143
-0.82005382 -0.95989573 1.83710527 120 141 147
-0.83382779 -0.95874259 1.87522310 147 143 139
-0.83730048 -0.95622841 1.88303292 166 167 159
-0.80595767 -0.94706291 1.81254506 119 141 147
-0.81029075 -0.94900495 1.82228994 122 140 145
-0.81909829 -0.95613629 1.84209740 123 140 143
-0.58314776 0.14716235 1.25768435 96 95 95
-0.56309140 0.13919962 1.22584820 96 93 97
-0.56606034 0.15026268 1.23242874 113 113 113
-0.56200453 0.15370126 1.25038696 119 116 117
-0.56463110 0.15396942 1.26002204 129 125 124
-0.56046408 0.16148020 1.25072300 124 116 119
-0.55489236 0.13585208 1.21485996 90 89 94
-0.55210802 0.13621697 1.22956478 87 87 90
-0.55550918 0.14922180 1.23210183 115 114 114
-0.55419022 0.14952257 1.24550383 102 101 100
-0.55500408 0.16167085 1.23568435 118 116 116
-0.55884269 0.16364126 1.25072512 116 111 112
-0.52150522 -0.28575859 0.88648229 157 156 150
-0.53937234 0.15633666 1.22732464 115 107 106
-0.50797355 -0.30135757 0.87923717 145 145 136
-0.51423896 -0.30115111 0.88085603 157 158 143
-0.50771823 -0.29320990 0.87884946 104 104 98
-0.51464684 -0.29046624 0.88223883 150 149 140
-0.51358567 -0.27800245 0.88581763 146 147 139
-0.49733573 -0.29375911 0.87923717 47 46 49
-0.49912287 -0.29337978 0.88037902 46 45 48
-0.46400488 0.01666360 0.75553966 142 139 132
-0.46327852 0.02181526 0.75889225 170 169 159
-0.46566007 0.02977478 0.76474046 167 165 153
-0.46848795 0.04082668 0.76945728 163 163 152
-0.44805975 -0.50765357 1.08995735 158 158 149
-0.45868430 0.01758859 0.75658137 114 111 107
-0.45796987 0.01932818 0.76082134 97 96 94
-0.45744621 0.02430147 0.75954306 169 168 155
-0.45745743 0.02527571 0.76172060 169 167 154
-0.42027763 -0.50058019 1.07944560 116 131 138
-0.43207193 -0.50416987 1.08993522 122 130 133
-0.43226901 -0.50082135 1.10047376 123 132 134
-0.43326163 -0.49811283 1.09229397 124 130 131
-0.41974866 -0.50030780 1.08289433 117 132 141
-0.40214997 -0.24149068 0.55456065 46 46 50
-0.40300948 -0.23147632 0.55532545 43 43 44
-0.40939648 -0.23540486 0.56093666 43 43 43
-0.40006760 0.36948431 1.53022993 85 86 88
-0.39843205 -0.24319550 0.55113449 48 48 52
-0.39906723 -0.22539422 0.55263003 42 42 45
-0.39970750 -0.21956101 0.55158001 44 44 49
-0.38087817 -0.16434337 0.52734125 43 43 47
-0.38088000 -0.15458257 0.52568208 43 42 45
-0.38195450 0.35785397 1.51091476 59 59 63
-0.38497190 0.36419995 1.51623985 63 64 65
-0.38848372 0.37114271 1.52925636 74 75 77
-0.38149205 0.37999225 1.54066324 84 84 86
-0.38152184 0.39860421 1.53543085 79 79 81
-0.38592007 0.39109041 1.54831102 75 76 78
-0.39216557 0.39064506 1.56196272 83 83 85
-0.37470411 -0.16751434 0.52776668 66 64 67
-0.37761670 -0.14448515 0.51985568 44 44 48
-0.37948941 -0.15208822 0.52343200 43 42 45
-0.36649892 0.33947548 1.48011315 68 65 71
-0.37117098 0.34757598 1.49289967 67 66 69
-0.37159257 0.35580176 1.50727066 86 82 84
-0.37093785 0.36466297 1.51386671 92 90 94
-0.37468188 0.37583355 1.53023617 82 79 85
-0.37882912 0.37999225 1.54066324 77 74 79
-0.36203197 0.39530766 1.49976075 78 78 79
-0.36753283 0.39267138 1.51486248 77 79 80
-0.37337758 0.38944765 1.52999823 65 65 70
-0.37900171 0.38815531 1.54136515 64 64 69
-0.36915530 0.40402692 1.51429991 72 72 73
-0.37523018 0.41072094 1.52816827 71 70 72
-0.35172853 -0.14301490 0.49599217 48 46 49
-0.35459207 -0.13692479 0.49687982 52 52 57
-0.35797338 -0.13366947 0.50156584 123 122 122
-0.35481886 0.39350551 1.49316029 80 80 81
-0.35905710 0.39063963 1.50978637 87 88 89
-0.35476643 0.40155396 1.49535124 76 75 77
-0.35919756 0.40449765 1.50308609 75 74 76
-0.28117079 0.25752231 1.00876760 76 76 78
-0.26479594 0.13501108 1.73272505 87 88 91
-0.26788013 0.13111682 1.74603853 92 91 94
-0.27505222 0.13468225 1.76305068 97 97 100
-0.26607226 0.15050169 1.72884452 99 99 100
-0.26467408 0.16315207 1.73276092 97 97 100
-0.27186993 0.16475230 1.74265254 103 105 111
-0.27349812 0.24919485 0.99984050 79 79 80
-0.27090953 0.25405049 1.00560006 84 84 86
-0.26786825 0.26425980 1.01348892 92 92 92
-0.26289019 0.27377609 1.02588369 73 73 74
-0.27016488 0.27817011 1.04371405 69 68 69
-0.26501146 0.28098494 1.03416055 86 86 85
-0.27035217 0.28379025 1.04559378 88 88 88
-0.24028567 -0.02828201 0.46133403 168 165 157
-0.24221954 0.13464839 1.71402043 108 107 109
-0.25106537 0.13410611 1.72382952 106 105 108
-0.24719515 0.14743808 1.71473833 94 92 95
-0.25297047 0.15205135 1.72163215 103 101 104
-0.25030128 0.16160873 1.72743329 93 91 93
-0.25850433 0.25926590 1.00876760 100 101 102
-0.25781814 0.26581311 1.01599960 76 77 79
-0.25834918 0.27325242 1.02194802 71 71 70
-0.23586770 -0.04101703 0.45958769 58 52 59
-0.23464070 -0.03855424 0.45969162 90 89 87
-0.23345975 -0.03060060 0.46119409 87 86 83
-0.23118632 -0.00478288 0.45568649 116 114 110
-0.22992528 0.00404495 0.45408784 122 118 115
-0.22570791 0.01176019 0.47869614 123 117 111
-0.22333769 0.00664144 0.48082168 136 132 125
-0.22847009 0.13378275 1.69379746 120 120 121
-0.23505959 0.13260124 1.70682470 109 109 111
-0.22117293 0.14268417 1.67795014 110 110 105
-0.22682757 0.14746879 1.69233263 106 107 106
-0.23237706 0.15227664 1.70754871 95 95 97
-0.23868169 0.15968773 1.72053766 94 95 95
-0.22324604 0.16224974 1.71618187 93 93 97
-0.23345200 0.16315906 1.72580013 89 89 91
-0.21783545 0.01403594 0.47856915 135 131 120
-0.21620872 0.00646975 0.48212355 69 66 65
-0.21532881 0.13705135 1.68894213 104 102 107
-0.20950025 0.14325480 1.67735827 96 95 101
-0.21339138 0.14687455 1.68516643 90 89 93
-0.21917003 0.15257835 1.70753610 109 109 111
-0.19988202 0.14631015 1.66968429 78 73 83
-0.18608192 0.19855581 1.01633418 94 95 97
-0.18257530 0.20894270 1.01873104 83 82 87
-0.18883552 0.20969194 1.02619744 90 89 93
-0.19485047 0.21543460 1.04130852 82 78 83
-0.19037354 0.22161262 1.03653193 89 87 88
-0.19405029 0.22188895 1.04344948 84 84 84
-0.16701255 0.13510299 0.61819647 86 85 88
-0.17396337 0.13531768 0.62139789 102 101 103
-0.17021858 0.14221015 0.61700955 83 83 86
-0.17624708 0.14023481 0.62078005 115 115 114
-0.16321299 0.17931690 1.02349095 109 109 113
-0.16005042 0.19510731 0.73924953 88 89 92
-0.16331931 0.19399920 0.74850991 94 94 97
-0.16845431 0.18990664 1.01843044 85 80 84
-0.16778143 0.18786497 1.02713957 93 90 92
-0.16914010 0.19333902 1.04184254 99 98 103
-0.16494425 0.20050527 0.74988037 83 83 92
-0.17129155 0.20992022 1.01689621 91 90 93
-0.16597012 0.20627889 1.02891407 94 92 96
-0.16491277 0.20451885 1.04552125 98 97 101
-0.17193004 0.22069709 1.01582551 90 89 95
-0.16456693 0.22003965 1.02092147 106 106 109
-0.14922907 0.19200807 0.73333418 90 88 90
-0.15589006 0.19068543 0.74430061 105 101 104
-0.15879513 0.18243336 1.01785715 87 80 80
-0.15788987 0.18342319 1.02339268 83 80 82
-0.15217084 0.20078450 0.73665065 81 80 80
-0.15756032 0.20193559 0.74559460 89 90 90
-0.15849855 0.21633514 1.01595607 81 82 84
-0.15937899 0.20910375 1.02350191 97 95 98
-0.15550941 0.21197672 1.05391788 104 104 103
-0.15592333 0.21399205 1.06430720 102 101 99
-0.15506954 0.22120409 1.06475478 87 83 85
-0.12091186 0.18343870 0.91730964 102 96 101
-0.12144262 0.18265468 0.92948214 69 64 69
-0.12247323 0.18339778 0.94151825 72 72 75
-0.10731044 0.17961984 0.91401295 133 133 131
-0.10483158 0.17965463 0.92230183 163 160 156
-0.10903811 0.18731074 0.89787000 167 165 160
-0.10867791 0.18393182 0.91226729 149 147 145
-0.11399560 0.18225193 0.92635853 114 112 113
-0.08025339 0.01830095 0.74575561 137 128 129
-0.08287893 0.03136266 0.74639214 108 105 107
-0.08228818 0.04059015 0.74086541 82 82 90
-0.09431773 0.17923106 0.90975566 171 168 164
-0.09643840 0.18454362 0.90936059 173 166 164
-0.07058348 0.01749653 0.73898111 121 112 115
-0.07515857 0.01785028 0.74142861 131 125 125
-0.07016475 0.02719087 0.73860601 111 107 109
-0.07499473 0.02922605 0.74270014 107 103 106
-0.07623458 0.04043549 0.73804250 120 120 123
-0.07772140 0.04118540 0.74005657 140 137 138
-0.02078390 0.36619576 0.87385739 94 87 84
-0.00065049 0.13984828 0.49427046 133 131 131
-0.00476524 0.14726628 0.49293665 142 137 134
-0.00467194 0.27570191 0.73290456 121 116 114
-0.01191134 0.27870581 0.74411839 142 138 134
-0.00543497 0.28032601 0.73710855 120 120 116
-0.01196068 0.28308573 0.74720104 131 127 120
-0.00879807 0.35798640 0.86842729 126 123 117
-0.01025146 0.36631448 0.87550381 96 92 89
-0.00967075 0.37388237 0.88927236 66 63 61
-0.00040705 0.37814456 0.90145195 106 106 101
-0.01063379 0.38407412 0.89405360 0 0 0
-0.01141766 0.38609044 0.90316172 0 0 0
0.00205032 0.13943468 0.49331170 134 131 130
0.00873132 0.14699171 0.49364172 130 125 124
0.01101532 0.14414534 0.50028920 138 134 133
0.01433939 0.19935520 0.61889138 120 112 119
0.00791900 0.19494365 0.62711156 117 113 112
0.01877063 0.18830281 1.07830334 168 161 161
0.01715989 0.18908697 1.08637182 168 161 161
0.01473496 0.20105073 0.61572123 123 123 127
0.00760947 0.20241971 0.62590090 118 114 112
0.01674763 0.21960094 0.99494936 168 162 158
0.01261924 0.20959866 1.05728328 172 169 162
0.01594471 0.20844701 1.06666542 174 169 164
0.01749709 0.22527871 0.98898907 146 142 139
0.00541136 0.27646341 0.73834480 122 121 120
0.01135616 0.27580581 0.74720185 115 109 107
0.00986654 0.28010449 0.73764074 126 125 122
0.01579704 0.28164056 0.74678315 120 116 114
0.00243118 0.37315652 0.89570666 119 114 112
0.00115411 0.37759069 0.90385580 131 126 122
0.00269598 0.38406317 0.89707822 0 0 0
0.00115698 0.38478926 0.90610382 13 13 13
0.03887795 0.01275050 0.55900137 157 150 150
0.03621991 0.01381040 0.56197306 159 151 149
0.02487419 0.19444643 1.07709238 167 161 159
0.02358330 0.19306746 1.08531002 167 159 159
0.03270704 0.21688056 0.93502501 136 135 135
0.03159125 0.21832458 0.95012389 140 140 140
0.02998812 0.21777935 0.97419765 140 138 139
0.02604005 0.21700763 0.99449549 117 112 113
0.02560952 0.21319050 1.00529087 101 94 95
0.03370208 0.21185732 1.05580808 138 134 131
0.02742215 0.20886016 1.06856203 164 159 155
0.02949455 0.22213309 0.95129858 140 139 139
0.02642527 0.22489456 0.97178873 140 138 140
0.02260805 0.22425203 0.98669948 115 110 114
0.04244758 0.01118539 0.55837668 156 151 150
0.04066739 0.01423551 0.56035702 159 154 154
0.04011855 0.02085576 0.55610490 162 158 157
0.05724397 0.14320427 0.45511024 105 101 103
0.04284282 0.21274717 1.05296969 153 148 143
0.04220498 0.21140583 1.06453011 145 143 143
0.06006239 0.14103830 0.45283377 127 121 119
0.07792485 0.19921919 0.51239005 91 89 86
0.07885537 0.20110479 0.51268061 104 102 102
0.07432830 0.23831026 0.71681964 116 108 103
0.07614051 0.23766620 0.72187597 112 104 99
0.07510371 0.25157236 0.71822373 123 118 114
0.07520435 0.25187196 0.72205777 128 125 120
0.07637937 0.27006543 0.71532409 120 111 108
0.07049883 0.26710081 0.72321997 127 123 117
0.07812578 0.28750694 0.71775072 89 85 85
0.07613617 0.29215203 0.72503049 96 91 90
0.07393596 0.29733558 0.74086541 109 101 99
0.07558831 0.30329338 0.73206460 94 88 88
0.08532129 0.19835298 0.51292955 108 106 103
0.08583901 0.20392960 0.51300568 127 124 122
0.09822922 0.23434374 0.69858210 139 135 130
0.08977455 0.23668222 0.70954044 121 120 120
0.08626721 0.23627950 0.72308977 83 81 86
0.08927843 0.25027053 0.71273053 113 111 112
0.08285038 0.25288643 0.72039515 95 95 94
0.08643570 0.26915971 0.69730146 107 101 98
0.08363124 0.26587598 0.70941689 112 109 107
0.08289213 0.28773677 0.71217809 102 99 98
0.11488890 0.19852453 0.79378438 139 133 131
0.11535082 0.19567372 0.85553606 137 135 135
0.11453986 0.18985415 0.86356071 137 135 135
0.11560742 0.20460466 0.79194536 134 128 127
0.11293408 0.20741808 0.80721184 133 131 129
0.11031988 0.21068308 0.82735532 134 133 132
0.11401445 0.20234060 0.84579804 140 139 138
0.10044607 0.25411926 0.70924071 117 116 112
0.13959351 0.13618925 0.64746275 86 77 86
0.12181194 0.19809890 0.85565659 135 132 130
0.12599848 0.19879627 0.86026883 130 125 126
0.12135980 0.20098262 0.85377350 137 132 127
0.13525879 0.47427768 1.97636104 118 112 114
0.13200344 0.47226660 1.98431969 112 109 108
0.13227727 0.48968550 1.97554030 116 110 110
0.13127334 0.49014431 1.98630165 114 107 110
0.12755044 0.50696472 1.97120032 110 101 103
0.12303973 0.50771779 1.99186969 121 115 116
0.12352338 0.52431184 1.99968100 104 103 107
0.15372734 0.03839087 0.67150178 118 114 116
0.14391593 0.05447625 0.65849448 125 124 124
0.15351722 0.04968290 0.66650217 112 108 111
0.15476750 0.06046690 0.66385664 109 108 109
0.15266776 0.13640056 0.63816461 134 131 131
0.14749152 0.13453077 0.64506139 117 116 117
0.15342108 0.14102754 0.63795685 132 123 125
0.15504570 0.20913737 0.45712176 0 0 0
0.15731808 0.21494602 0.46981803 0 0 0
0.15921806 0.21980275 0.48043361 0 0 0
0.14357925 0.47446925 1.97444598 109 104 108
0.15196213 0.47265684 1.98738506 121 120 123
0.14809647 0.48468783 1.99308160 131 128 130
0.16257474 0.03934565 0.67552766 127 121 119
0.16371277 0.05133294 0.66876532 122 118 120
0.17910372 0.17763159 0.72700448 145 144 143
0.17912707 0.18380718 0.72494082 125 123 126
0.16122133 0.22492352 0.49162631 0 0 0
0.16439517 0.23303649 0.50935924 0 0 0
0.16663195 0.23875418 0.52185667 0 0 0
0.16839386 0.24325795 0.53170082 0 0 0
0.17148321 0.25115498 0.54896172 0 0 0
0.17408548 0.25780690 0.56350112 0 0 0
0.17614325 0.26306698 0.57499838 0 0 0
0.17901468 0.27040696 0.59104171 0 0 0
0.16552059 0.40574211 0.90566754 0 0 0
0.16753649 0.41460475 0.92545006 0 0 0
0.16964243 0.42386322 0.94611609 0 0 0
0.17184456 0.43354464 0.96772617 0 0 0
0.17414966 0.44367865 0.99034655 0 0 0
0.17656509 0.45429775 1.01404971 0 0 0
0.17909898 0.46543765 1.03891528 0 0 0
0.18581285 0.17526832 0.71413773 137 132 131
0.18183023 0.17522018 0.72246197 142 140 138
0.18270252 0.18623719 0.71395033 126 121 122
0.18162550 0.18740809 0.72295775 122 115 120
0.18127018 0.27617246 0.60364366 0 0 0
0.18283175 0.28016412 0.61236840 0 0 0
0.18526670 0.28638837 0.62597308 0 0 0
0.18867829 0.29510909 0.64503437 0 0 0
0.19230419 0.30437763 0.66529307 0 0 0
0.19616526 0.31424728 0.68686563 0 0 0
0.19922078 0.32205781 0.70393753 0 0 0
0.18176027 0.47713761 1.06503105 0 0 0
0.18455879 0.48944095 1.09249359 0 0 0
0.18750547 0.50239557 1.12140989 0 0 0
0.19061236 0.51605466 1.15189862 0 0 0
0.19389292 0.53047717 1.18409145 0 0 0
0.19736212 0.54572904 1.21813548 0 0 0
0.20134945 0.32749915 0.71583086 0 0 0
0.20355129 0.33312750 0.72813302 0 0 0
0.20583013 0.33895266 0.74086541 0 0 0
0.20819008 0.34498519 0.75405097 0 0 0
0.21063557 0.35123634 0.76771444 0 0 0
0.21317130 0.35771820 0.78188217 0 0 0
0.21580240 0.36444381 0.79658264 0 0 0
0.21853432 0.37142718 0.81184649 0 0 0
0.20103671 0.56188387 1.25419503 0 0 0
0.20474014 0.57735544 1.29122257 0 0 0
0.20513086 0.58069330 1.29368675 0 0 0
0.20907963 0.59724346 1.33312190 0 0 0
0.21349303 0.61664641 1.37643158 0 0 0
0.21820281 0.63735235 1.42264968 0 0 0
0.22498677 -0.08727539 0.71315143 44 43 43
0.23720815 -0.08672964 0.72738881 44 43 44
0.22137299 0.37868339 0.82770675 0 0 0
0.22432478 0.38622874 0.84419906 0 0 0
0.22739659 0.39408094 0.86136192 0 0 0
0.23059590 0.40225899 0.87923717 0 0 0
0.23393080 0.41078368 0.89787000 0 0 0
0.23741011 0.41967753 0.91730964 0 0 0
0.22299749 0.65750891 1.47048128 0 0 0
0.22348227 0.66148537 1.47367787 0 0 0
0.22863958 0.68323618 1.52506799 0 0 0
0.23444251 0.70874807 1.58201343 0 0 0
0.24462063 -0.08612290 0.72694486 44 43 44
0.25566115 0.07734288 0.45200725 129 128 125
0.24104342 0.42896500 0.93760973 0 0 0
0.24484117 0.43867284 0.95882863 0 0 0
0.24881481 0.44883022 0.98103017 0 0 0
0.25297680 0.45946917 1.00428426 0 0 0
0.25734094 0.47062472 1.02866745 0 0 0
0.24069563 0.73623905 1.64337659 0 0 0
0.24745341 0.76594871 1.70969212 0 0 0
0.25444472 0.79556853 1.77924371 0 0 0
0.25511432 0.80074549 1.78392589 0 0 0
0.26192221 0.48233545 1.05426419 0 0 0
0.26673734 0.49464384 1.08116722 0 0 0
0.27180463 0.50759685 1.10947931 0 0 0
0.27714443 0.52124655 1.13931406 0 0 0
0.26057613 0.73812550 1.62563992 0 0 0
0.26805130 0.76757687 1.69050336 0 0 0
0.27614775 0.79947615 1.76075804 0 0 0
0.26238838 0.83044273 1.85723794 0 0 0
0.26310921 0.83594310 1.86234021 0 0 0
0.27144983 0.87144592 1.94517428 0 0 0
0.29210174 0.14737236 0.59069616 134 132 131
0.28277940 0.53565061 1.17079771 0 0 0
0.28873461 0.55087334 1.20407081 0 0 0
0.29503822 0.56698662 1.23929036 0 0 0
0.28494635 0.83414179 1.83710527 0 0 0
0.29454255 0.87194991 1.92037344 0 0 0
0.30210178 0.14689434 0.59159495 145 144 137
0.31509978 0.15489121 0.76574371 141 139 138
0.30172169 0.58407098 1.27663243 0 0 0
0.30882046 0.60221684 1.31629479 0 0 0
0.31637445 0.62152642 1.35850072 0 0 0
0.33827316 0.06928694 0.76852095 117 116 112
0.32867901 0.15805406 0.77576660 105 100 104
0.32855331 0.15517068 0.78506713 113 111 114
0.33328146 0.16588162 0.75399658 125 121 120
0.33136006 0.17088743 0.77277484 128 122 123
0.32361493 0.16360018 0.78098240 127 123 118
0.33232958 0.18998448 0.49363411 107 101 99
0.33632464 0.18054584 0.77385690 133 126 123
0.33952162 0.54230517 1.89355266 129 127 121
0.33701032 0.55204386 1.94517428 142 140 135
0.32442895 0.64211529 1.40350282 0 0 0
0.33303532 0.66411495 1.45158851 0 0 0
0.35057910 0.07101132 0.77354167 125 122 119
0.34977334 0.08184108 0.77267899 103 101 105
0.34191692 0.16811145 0.75869286 135 131 129
0.34497902 0.17563442 0.77174286 122 119 122
0.34013514 0.19092541 0.49601848 91 90 89
0.34676890 0.18285973 0.77629844 140 135 133
0.34765135 0.18896398 0.78165939 139 132 129
0.35855755 0.20666791 0.45848993 112 110 110
0.35751707 0.20619106 0.46212760 119 114 111
0.35366982 0.50725266 1.81497473 139 139 139
0.35194138 0.51559651 1.82228994 140 135 135
0.35882084 0.51375172 1.84966767 136 135 135
0.34857388 0.51714976 1.89532069 114 111 107
0.35559568 0.51553264 1.90956962 111 111 110
0.35023491 0.52680186 1.87206732 124 122 124
0.34914600 0.52966705 1.88900492 116 114 113
0.35838930 0.52139857 1.90687251 136 136 128
0.34827721 0.53111073 1.94238353 89 88 91
0.35117517 0.54071049 1.89180434 98 96 98
0.34004819 0.54512310 1.91494870 127 126 126
0.34079915 0.54735062 1.92860365 129 129 126
0.34156269 0.54789701 1.94238353 119 119 117
0.35095352 0.54210931 1.97636104 86 85 86
0.34225234 0.68767560 1.50308609 0 0 0
0.35214743 0.71296942 1.55837202 0 0 0
0.36256335 0.07122162 0.77639903 128 124 124
0.36457492 0.19817844 0.46793893 92 91 86
0.36098117 0.20349528 0.45847170 128 128 125
0.36238677 0.20272066 0.46443685 109 108 104
0.37601703 0.42600730 1.15878952 134 130 129
0.37482149 0.43050579 1.16882782 130 130 130
0.37974545 0.43516243 1.18928397 132 131 131
0.36285418 0.51294333 1.82967091 144 143 140
0.37322697 0.51214668 1.84966767 136 131 130
0.37393010 0.51701901 1.86919967 136 131 130
0.37557485 0.51739921 1.88829772 136 131 129
0.36321703 0.51864439 1.91494870 137 137 134
0.37136521 0.51779932 1.92720851 129 127 124
0.36558948 0.51926456 1.94518235 109 104 104
0.36832118 0.52548462 1.85723794 144 141 134
0.36727889 0.53094697 1.87651995 135 128 127
0.36820235 0.52819127 1.89093258 135 129 129
0.37019322 0.52205694 1.91187062 141 138 133
0.37158075 0.52248035 1.92913983 141 138 134
0.37958008 0.52085274 1.94796503 135 128 125
0.36266536 0.54428983 1.87781680 81 71 83
0.36808807 0.54343939 1.89180430 106 93 102
0.36279821 0.74019498 1.61788034 0 0 0
0.37429473 0.76958233 1.68211377 0 0 0
0.38770303 0.15556017 0.45989949 132 132 124
0.38666109 0.15407965 0.46506523 115 114 112
0.38953181 0.16054851 0.47223607 124 123 119
0.39867286 0.23332518 0.64839026 129 121 116
0.39135873 0.34795588 1.13931406 137 133 132
0.39492088 0.35289979 1.15549823 135 132 131
0.39743929 0.35494158 1.16878775 141 138 136
0.39921515 0.35631350 1.18782658 147 144 140
0.39781772 0.36013785 1.17588282 131 131 130
0.39906084 0.36479588 1.19349686 135 135 134
0.39645426 0.37302990 1.21137010 125 123 124
0.39494273 0.37793702 1.22363150 111 104 110
0.39663038 0.38864648 1.14315653 145 145 141
0.39710683 0.38177745 1.21649869 119 117 119
0.39743116 0.39006793 1.22682883 107 105 110
0.39931485 0.39922729 1.24383819 113 109 108
0.39795499 0.41857176 1.19768882 124 122 119
0.39607487 0.41277641 1.21413553 109 107 107
0.39944876 0.41519182 1.23382752 118 116 112
0.38123044 0.42988315 1.17485583 135 131 130
0.39462143 0.42559490 1.19804500 135 132 127
0.39411505 0.43122746 1.20959379 137 134 129
0.39853116 0.42962008 1.23240568 139 133 128
0.38213927 0.51507890 1.87781680 129 122 122
0.38210261 0.51396984 1.88565552 114 110 109
0.38199696 0.51388294 1.90955448 133 124 123
0.38468900 0.51806954 1.93133146 133 127 123
0.38520697 0.51936036 1.94238353 143 139 134
0.38788869 0.53694316 1.89004608 128 117 117
0.38084203 0.52011365 1.92037344 142 136 132
0.38758171 0.54153508 1.85723794 104 94 101
0.38899377 0.54652711 1.87435853 111 104 106
0.39215817 0.54482013 1.89093012 94 85 91
0.38750604 0.54578767 1.90956457 127 117 118
0.39302540 0.55312022 1.93132623 123 113 115
0.38674185 0.80139971 1.75165856 0 0 0
0.41623286 0.11864899 0.48906174 139 136 131
0.41497052 0.12442226 0.48646946 123 120 117
0.41356039 0.21852501 0.65800694 91 92 91
0.41576563 0.21790746 0.66207052 105 104 105
0.40797084 0.23119385 0.65696099 111 105 101
0.41448537 0.23069123 0.66470886 112 107 103
0.40967584 0.24061492 0.66071332 103 94 93
0.40019980 0.35129690 1.17689562 144 144 137
0.40135804 0.35701728 1.18722093 148 145 141
0.40063575 0.37036300 1.19642138 137 135 135
0.40219331 0.37000764 1.21151023 136 135 134
0.40456895 0.36925532 1.22289658 145 144 145
0.40446738 0.39226524 1.13740885 138 136 134
0.40463231 0.39659726 1.15151903 138 137 134
0.40301410 0.39756575 1.16545395 141 140 137
0.40970284 0.38993411 1.19874871 105 104 100
0.41008118 0.38979962 1.21407160 126 123 120
0.40739670 0.39338121 1.22731710 118 116 115
0.40826718 0.40351916 1.15747344 128 127 127
0.40804127 0.40608577 1.17024736 128 127 126
0.40963145 0.41335443 1.19091659 117 114 114
0.41062460 0.41803846 1.21551079 112 113 112
0.40942336 0.40567460 1.23366063 112 105 105
0.40326517 0.41002716 1.25054309 94 89 87
0.40995240 0.42860158 1.19248374 94 87 88
0.40973520 0.42824469 1.20763915 107 103 103
0.41323137 0.43847904 1.22142673 102 98 97
0.40218854 0.43088345 1.25212111 136 133 125
0.40383473 0.43326048 1.26472652 136 133 125
0.40543967 0.44030093 1.18928760 103 97 95
0.40943851 0.44084827 1.21487358 107 103 102
0.41136887 0.44085526 1.22216165 113 106 106
0.40152645 0.44142936 1.25072724 139 133 133
0.40308271 0.44226546 1.26237134 140 133 132
0.40026256 0.83596140 1.82720172 0 0 0
0.41500205 0.87363857 1.90955448 0 0 0
0.42608442 0.11275764 0.49068110 125 121 118
0.42344027 0.12151466 0.48952424 123 120 117
0.43724864 0.21224808 0.45157147 113 111 111
0.42239595 0.23094316 0.66694881 93 90 86
0.42513219 0.43979773 1.21922994 96 92 91
0.42251852 0.44137617 1.21777066 90 81 84
0.42273149 0.44059017 1.22142673 90 81 84
0.43113288 0.91487223 1.99968100 0 0 0
0.45776087 -0.26228133 0.52234290 93 95 94
0.45768957 -0.25766664 0.52252209 91 96 95
0.45955917 0.18077079 0.84210169 136 131 132
0.44065248 0.21542085 0.45256175 117 116 114
0.46262266 -0.26451573 0.52311227 95 97 94
0.46256511 -0.25718108 0.52205265 90 97 96
0.46654792 0.17747099 0.82906906 142 140 137
0.46375577 0.17790475 0.84330766 132 131 130
0.47395656 0.19979168 0.75699839 139 135 134
0.47651073 0.18636348 0.81871133 153 146 140
0.47413540 0.18676581 0.83370698 139 133 131
0.46785706 0.18750879 0.84164541 140 133 130
0.47113173 0.20189598 0.75185502 111 109 103
0.47731246 0.49665430 1.26912905 143 139 137
0.47783938 0.49989817 1.28145909 142 142 138
0.47755894 0.51194694 1.26837262 126 121 120
0.47869320 0.50640746 1.28673760 136 132 132
0.47249006 0.52193395 1.26829795 110 109 103
0.47856899 0.52473447 1.28940952 94 91 90
0.49827648 0.07444565 0.52429349 93 94 94
0.49778200 0.08509042 0.52566473 89 90 91
0.48934265 0.19247922 0.75373132 122 119 115
0.48258686 0.19316910 0.83592942 148 141 137
0.48460102 0.19772744 0.84233877 144 137 136
0.48453946 0.20101731 0.75820560 129 128 121
0.48683300 0.20203707 0.83793904 151 143 137
0.48836760 0.20422957 0.84722015 144 139 133
0.49981546 0.27870727 0.96154869 135 134 133
0.49516340 0.28216214 0.93804262 103 101 101
0.49726945 0.28714907 0.94945283 106 101 101
0.49850427 0.28623664 0.96604070 123 119 118
0.48201692 0.49279740 1.25768435 145 140 136
0.48242494 0.49806041 1.26331401 140 132 129
0.48178733 0.50908815 1.26551871 133 128 126
0.48097328 0.51546220 1.29062872 114 109 109
0.48090992 0.51569475 1.30176154 125 123 122
0.48128071 0.52143830 1.29368910 94 89 88
0.48185213 0.52536190 1.30534035 92 88 88
0.49164292 0.53545359 1.33706999 97 93 93
0.49196487 0.54274788 1.33794558 75 74 73
0.49717495 0.55225873 1.35850072 79 75 74
0.51465247 0.05571802 0.53841598 119 117 112
0.51468765 0.05425238 0.54043182 124 123 117
0.50573654 0.07237270 0.52522738 96 96 96
0.51473563 0.06114965 0.54015285 110 103 102
0.50416937 0.08541790 0.52522671 83 84 86
0.51447695 0.23904100 0.57939476 91 91 82
0.51771365 0.23915757 0.58764064 104 97 92
0.50751856 0.24261411 0.57717580 73 72 73
0.51794287 0.24484637 0.59118682 80 77 77
0.51909083 0.24274784 0.60096794 115 108 102
0.51188177 0.27685708 0.95357894 132 126 120
0.51272215 0.27688870 0.96291971 145 138 134
0.50114673 0.28149253 0.93761155 110 110 112
0.50545297 0.28158173 0.95099981 112 106 106
0.50227579 0.28458820 0.96585713 116 112 111
0.50391555 0.56120664 1.38345277 80 74 77
0.52189038 0.23863341 0.59266885 103 96 93
0.52463094 0.23928525 0.60096824 128 124 116
0.52145104 0.24461414 0.59738834 87 82 80
0.52323537 0.24821595 0.60219687 85 81 80
0.55877034 0.13867073 0.80271414 102 103 100
0.55855063 0.14540234 0.79402356 119 120 117
0.56816222 0.13099042 0.55645217 127 127 122
0.57560299 0.13429220 0.57336701 117 116 110
0.57745467 0.13872458 0.58146626 86 87 81
0.56739410 0.13814659 0.79689753 112 112 112
0.56939502 0.13441095 0.80802565 99 98 98
0.57647403 0.13075519 0.82202351 99 101 102
0.57947372 0.14201484 0.57680680 125 128 120
0.57936440 0.14074128 0.58288407 85 87 79
0.56244951 0.14334175 0.79439504 132 131 130
0.56453516 0.14190230 0.80335120 130 129 129
0.58855767 -0.25169282 0.65025468 84 89 88
0.58011508 0.13982461 0.57497185 130 131 122
0.58117847 0.14391330 0.57760302 128 130 124
0.58315998 0.14572564 0.58465183 116 117 109
0.59152480 0.21701900 0.71588295 112 110 107
0.58967380 0.21806919 0.72218937 97 91 90
0.58921015 0.22278450 0.71699890 98 97 91
0.58990346 0.22749639 0.72488047 116 110 104
0.60838121 0.19980589 0.59990430 118 118 114
0.61005293 0.19206878 0.60643553 123 121 116
0.61041998 0.20627196 0.59860654 133 131 126
0.61185787 0.20850231 0.60317982 110 108 107
0.61854679 0.22387305 0.60337491 91 89 87
0.63702144 0.11677826 0.64378618 134 131 129
0.62147068 0.21893043 0.60355527 73 72 74
0.62184386 0.22425753 0.60474543 86 84 82
0.62494671 0.31471575 0.79546663 87 87 85
0.62941397 0.31918201 0.80186182 89 89 87
0.63426541 0.32786641 0.80608237 90 87 85
0.65400922 0.11427927 0.65652528 114 114 111
0.65798985 0.11038538 0.66160304 88 88 90
0.65998125 0.12125710 0.65750909 123 122 116
0.64098158 0.32808428 0.80533712 84 85 84
0.64014798 0.33190250 0.82168710 94 93 89
0.66322941 0.11420312 0.65805994 125 123 119
0.66691108 0.11096019 0.66218538 100 99 99
0.66118509 0.12106142 0.65644801 132 127 125
0.69853735 0.27904096 0.72657384 115 108 102
0.69813126 0.28214380 0.72647931 113 111 94
0.70849702 0.27898100 0.73554149 112 111 105
0.71513952 0.27887791 0.74184201 112 109 102
0.70652175 0.28323192 0.73384750 114 111 100
0.70966576 0.28562792 0.74640613 111 106 99
0.83284293 0.43126076 1.21009284 107 107 104
0.83606037 0.43061877 1.22308627 101 100 98
0.84728285 0.43145061 1.21416698 101 99 98
0.84808847 0.42890491 1.22425635 100 96 95
0.85040137 0.44361558 1.21813679 104 103 101
0.85068102 0.44754618 1.22442128 123 122 117
0.85995972 0.46502012 1.24156010 120 118 111
0.86138327 0.43532858 1.21704298 124 115 112
0.86072670 0.43315930 1.22589263 108 102 99
0.87168461 0.43113098 1.25535524 114 108 101
0.86249527 0.44811596 1.22809650 100 94 94
0.86637607 0.46583793 1.23731366 125 122 107
0.86864944 0.46776862 1.24582998 122 119 109
0.91007385 -0.20859452 1.43404634 45 45 44
0.91594404 -0.20457877 1.44695914 45 45 44
0.91610770 -0.19515361 1.45228667 47 47 46
0.91810262 0.35103924 1.02845566 107 104 96
0.93838415 -0.61017481 0.99906663 104 105 98
0.93664003 -0.60945955 1.00648502 104 105 101
0.93480474 -0.59853429 1.00577426 104 106 98
0.92670834 -0.20313787 1.45046907 46 45 45
0.92594969 -0.19396001 1.45428481 47 46 46
0.93302092 -0.18782410 1.46488135 47 46 45
0.92176065 0.34837950 1.03584728 118 116 105
0.92631856 0.35329704 1.04592463 115 112 106
0.93760008 0.35260433 1.06419444 136 132 129
0.92154743 0.36149167 1.03181005 80 81 82
0.93055318 0.36358704 1.04909662 88 85 84
0.93870523 0.36321383 1.06475389 103 98 97
0.94342495 -0.62387692 1.00458751 106 107 102
0.94000024 -0.60275483 0.99836797 102 103 101
0.94077588 -0.60448204 1.00324694 104 105 102
0.94069344 -0.59888154 0.99910423 103 107 102
0.94104648 -0.59934342 1.00131738 104 108 103
0.95981991 -0.18682021 1.45470357 46 46 46
0.95093770 -0.18587733 1.46656520 45 45 45
0.94292368 0.35668849 1.07094157 128 124 119
0.95068514 0.35635930 1.08116722 139 138 132
0.94502528 0.36580904 1.07263909 104 99 97
0.95678908 0.37369299 1.08810890 102 93 94
0.95883894 0.38130495 1.07772946 69 70 72
0.95918614 0.38935784 1.09514034 116 116 116
0.96341332 -0.18394510 1.45470924 45 44 44
0.96689438 -0.18242914 1.46708181 45 45 45
0.96822084 -0.17720534 1.46667552 46 45 45
0.97027339 0.39008666 1.07920044 101 102 100
0.96906711 0.39086969 1.09147794 94 93 92
0.96999995 0.39703704 1.10226842 103 100 96
0.96815524 0.40086356 1.07773221 108 109 105
0.97625568 0.40376308 1.09260407 105 104 98
0.97408619 0.40192640 1.11069977 117 117 109
0.97768432 0.43940848 1.51148146 100 100 100
0.96747652 0.44469392 1.49598117 100 100 100
0.97171681 0.44529511 1.50830352 98 98 98
0.97835040 0.45045871 1.52678347 88 88 88
0.98169770 0.39672738 1.09632548 95 94 93
0.98287839 0.39886239 1.10047376 97 96 94
0.98305062 0.41002879 1.09727021 107 106 102
0.98610854 0.40790185 1.10471470 106 105 100
0.98331887 0.40611443 1.12048233 118 117 109
0.98348939 0.42032266 1.09691238 99 98 100
0.98007661 0.43859068 1.51315141 113 113 113
0.98970671 0.43676334 1.52852421 112 112 115
0.99338046 0.43556413 1.54890037 110 108 106
0.99436469 0.43339652 1.57212696 99 97 92
0.99849886 0.43992254 1.58385944 101 97 94
0.98622110 0.44605466 1.53162725 80 80 83
0.99084602 0.44147270 1.54771976 95 92 98
0.99392643 0.44093187 1.56800850 91 87 88
0.99694719 0.44470342 1.58139809 92 85 84
1.00836456 0.41810594 1.55765717 120 116 109
1.00721210 0.43095398 1.55335708 126 123 122
1.01192860 0.42860265 1.56848718 123 120 117
1.01273586 0.43451697 1.58626011 114 113 109
1.00753152 0.43958271 1.60258114 106 106 97
1.01058054 0.44501191 1.57283826 105 104 106
1.01088286 0.44743439 1.58991098 106 103 103
1.02318060 0.43319961 1.55480599 133 131 130
1.02855357 0.42900529 1.57220132 129 127 124
1.02894568 0.42660671 1.58016741 113 108 104
1.02867675 0.43993288 1.61402822 112 108 104
1.03359866 0.43923473 1.62175083 111 108 106
1.02545182 0.45012262 1.61056278 107 104 104
1.03326750 0.45012233 1.62563992 108 104 100
1.02901638 0.46532725 1.61019444 75 75 77
1.05828750 0.28759129 0.93373531 135 135 133
1.04327488 0.44738936 1.64138460 113 108 104
1.04358506 0.46894988 1.63741994 73 75 80
1.05376637 0.47781165 1.65339470 75 75 76
1.05120867 0.48235008 1.64938164 66 66 68
1.07815117 0.27325638 0.95126116 132 130 128
1.06128716 0.28495294 0.93566898 134 133 131
1.07317711 0.28569894 0.94687451 133 132 129
1.06126237 0.47819027 1.66968429 76 77 80
1.07182884 0.48732698 1.68630856 76 76 77
1.08538983 0.25774741 0.95531741 125 121 120
1.09399108 0.25795627 0.96474733 125 123 118
1.08720154 0.27205972 0.95292053 127 125 120
1.09086331 0.26816718 0.96395083 127 125 125
1.08728636 0.28233256 0.95251215 127 127 121
1.09165737 0.28837499 0.96612446 132 130 125
1.09517193 0.39424473 1.25535524 147 139 136
1.08248210 0.49283239 1.70539099 72 73 75
1.09061134 0.49572825 1.72053766 84 84 84
1.09859931 0.75131673 1.67380702 80 72 78
1.09669155 0.75452715 1.68420595 71 68 70
1.10528696 0.39757670 1.26946485 143 137 135
1.11697364 0.40274758 1.28714983 139 136 135
1.11519265 0.45883679 1.53716969 99 96 88
1.11772716 0.45721668 1.54066324 106 104 93
1.10421884 0.72417444 1.67795014 81 81 79
1.11224635 0.73446478 1.69052787 87 88 84
1.10131860 0.75027627 1.67795014 85 79 82
1.10921860 0.74897113 1.68940017 97 94 95
1.11524917 0.75099440 1.71146799 86 83 83
1.10940254 0.76070821 1.69472957 80 71 78
1.11616635 0.76544568 1.71185899 73 70 72
1.11737561 0.76931876 1.72053766 78 75 76
1.13533865 0.39389566 1.30658103 127 126 123
1.12180889 0.40482503 1.29616505 133 131 129
1.12997026 0.40718659 1.30929237 134 132 128
1.13745403 0.41203093 1.32660190 133 132 124
1.12589316 0.41658592 1.53485644 134 135 128
1.13554049 0.42319360 1.54770231 136 136 130
1.13133889 0.45760905 1.55203778 113 111 104
1.13451040 0.45637637 1.56286457 125 120 107
1.13015674 0.46408956 1.54770934 98 98 96
1.12099266 0.73031276 1.69897699 81 82 79
1.12652624 0.73288661 1.71184814 82 82 80
1.12861428 0.73773035 1.72316890 81 79 78
1.12099266 0.74988971 1.69897699 103 102 98
1.12214835 0.75176545 1.70970300 96 95 93
1.12968346 0.74775450 1.72845389 78 77 75
1.13372995 0.75091466 1.74340109 78 77 76
1.12480578 0.76544303 1.73197865 84 79 79
1.13457410 0.77818549 1.75168184 83 79 78
1.13563111 0.77457519 1.77343369 109 103 101
1.13795845 0.77675837 1.78549488 125 117 114
1.12583160 0.78021353 1.73818421 40 38 38
1.13254559 0.78323499 1.75166631 63 63 62
1.13837069 0.78070122 1.79099876 127 121 116
1.15836906 0.37484016 1.33706999 139 140 131
1.14792129 0.37896645 1.37295502 96 96 94
1.15605521 0.37843660 1.38843280 119 115 114
1.14927975 0.39202282 1.31333568 114 113 117
1.15498205 0.39244496 1.33118451 120 119 119
1.15947413 0.39720693 1.34236014 119 120 118
1.15107407 0.38997227 1.37369605 117 115 110
1.15055792 0.38769730 1.38353853 127 126 120
1.14845525 0.40452428 1.32886028 135 134 127
1.15867651 0.40225663 1.34502705 136 137 128
1.15438867 0.40174857 1.37782896 101 101 100
1.14407551 0.42965806 1.55658489 135 136 131
1.14823215 0.43324282 1.56667068 136 136 131
1.15385583 0.43697253 1.58432959 142 141 137
1.14316555 0.45763134 1.55718060 123 119 115
1.15024881 0.45138991 1.57111827 140 139 128
1.15574880 0.45065542 1.58791941 145 145 135
1.15987778 0.45620230 1.60258114 142 143 134
1.14148748 0.46035546 1.55123997 122 123 123
1.14388859 0.46108162 1.56739044 117 111 107
1.14970769 0.46290765 1.58759271 128 123 107
1.15572286 0.46589707 1.60258114 131 130 108
1.14363639 0.74691143 1.75166631 84 81 81
1.15508356 0.75216818 1.76998880 85 84 82
1.14391901 0.77549767 1.77275679 89 86 83
1.15622088 0.77195928 1.78510264 85 78 78
1.15528619 0.77186996 1.80290389 111 96 94
1.14707956 0.78914946 1.77691483 89 85 84
1.15386577 0.78650010 1.78922744 93 88 87
1.16643161 0.37820132 1.34907192 141 141 132
1.17104995 0.37855697 1.39771509 112 108 105
1.16426581 0.39120088 1.31629980 122 120 124
1.17056416 0.39025935 1.33209199 126 124 126
1.16568091 0.39010747 1.34969655 126 126 123
1.17342967 0.39587909 1.36443690 110 110 108
1.16572866 0.38812510 1.38787948 112 111 106
1.17266782 0.38305605 1.41131628 125 120 118
1.16792516 0.40530289 1.33083950 118 115 113
1.16871965 0.40198296 1.35850072 128 130 125
1.17265230 0.40259350 1.36858229 110 112 107
1.17368945 0.40212001 1.38402667 96 94 91
1.16269016 0.43337874 1.59503961 133 131 125
1.16189675 0.44462597 1.57466660 137 138 131
1.16309387 0.44926952 1.59345242 143 143 135
1.16354430 0.45088386 1.60828964 143 142 137
1.17657840 0.44979608 1.62954772 143 139 136
1.16259396 0.46588619 1.61211133 134 133 117
1.17658430 0.46726440 1.63151103 135 135 119
1.17946982 0.46980439 1.64536858 133 135 125
1.17708492 0.73408163 1.79812157 112 107 105
1.17065103 0.75462793 1.79472556 85 81 80
1.16956922 0.75466392 1.80772450 96 90 88
1.17715764 0.75812191 1.82228994 103 95 94
1.16342087 0.76963117 1.79621880 87 81 81
1.16687191 0.76927874 1.80987128 93 86 87
1.17243375 0.77193802 1.82392720 104 97 98
1.16154540 0.78225422 1.79812157 89 87 85
1.16461587 0.78330171 1.80771160 99 92 93
1.19859535 0.37768768 1.45003766 145 145 137
1.18058479 0.39817637 1.37782896 111 109 107
1.18671242 0.38541259 1.43216725 132 126 126
1.19350352 0.38480977 1.44478858 139 134 132
1.19143569 0.39361857 1.47688854 144 145 140
1.19468542 0.39175349 1.48360873 132 132 130
1.18201401 0.40617030 1.38711182 97 98 95
1.18648661 0.47009035 1.64865466 138 139 127
1.19534087 0.46579503 1.66149962 144 145 140
1.18490946 0.73701328 1.80530775 113 108 106
1.18252382 0.75661394 1.79812157 84 78 79
1.18650081 0.74992744 1.80830812 95 86 84
1.19215515 0.75255707 1.82597378 103 94 92
1.19950449 0.75681061 1.84209740 102 91 89
1.18330085 0.76049882 1.79812157 80 78 77
1.18195331 0.77751997 1.83462268 99 94 95
1.19479150 0.76366165 1.84711671 109 100 96
1.20291841 0.39035697 1.45678910 136 131 129
1.20938224 0.38716960 1.46985704 141 140 134
1.21589317 0.39094832 1.48642198 142 141 134
1.21607608 0.40094358 1.48987937 146 144 135
1.21776569 0.40189970 1.50308609 149 149 142
1.21213031 0.75793493 1.83710527 101 92 91
1.21880019 0.75670815 1.84964013 109 101 100
1.20384341 0.76237184 1.81740439 88 80 76
1.21202099 0.76380318 1.83214009 90 82 78
1.20605922 0.76414746 1.85216355 101 91 88
1.22365633 0.38956984 1.48579168 145 144 137
1.22910681 0.39738218 1.51063886 141 142 134
1.22014880 0.40529829 1.49644995 143 143 134
1.22784650 0.40480198 1.51151150 143 142 135
1.23681808 0.40731856 1.52335250 146 143 137
1.22165620 0.76746076 1.83710527 92 84 80
1.22618846 0.76951851 1.84712589 92 84 80
1.24528317 0.40461565 1.53508620 143 144 137
1.25087273 0.40129554 1.54066324 143 144 136
1.38932428 0.51635020 1.44609349 80 74 73
1.40234339 0.51970857 1.45470357 93 88 89
1.41069484 0.51456676 1.46731762 99 92 88
1.40787888 0.52082622 1.45783186 98 94 93
1.41649365 0.52223225 1.46413378 102 99 94
1.42372986 0.51827453 1.47688854 104 94 93
1.43399647 0.51467020 1.48705763 96 88 86
1.42920797 0.52301885 1.47288916 105 104 94
1.43579233 0.52111167 1.48011315 104 99 95
1.44647620 0.51203547 1.49057291 105 101 94
1.44376582 0.52296093 1.48173255 120 120 112
1.51332462 0.23686720 1.83462268 88 86 86
1.51264563 0.23861417 1.84815361 108 103 105
1.51204407 0.23722689 1.86234021 119 119 119
1.51647372 0.24180639 1.84813709 93 93 93
1.51545385 0.24949883 1.86654298 101 100 100
1.51545852 0.26990265 1.85470074 79 78 78
1.51829916 0.26406683 1.87005001 78 77 78
1.53819168 0.23971339 1.83214009 99 99 97
1.52798928 0.23317411 1.85318394 89 87 87
1.53313351 0.22874615 1.86319528 86 87 87
1.53404558 0.24222542 1.82720172 90 86 87
1.52798092 0.24628568 1.85434222 88 90 90
1.52894801 0.25299456 1.86825580 88 89 89
1.52074182 0.26225764 1.85723794 83 80 82
1.52685771 0.27030962 1.87163898 84 85 83
1.54452503 0.23971339 1.83214009 103 102 101
1.55286817 0.23913545 1.85219109 101 102 97
1.54668766 0.23271301 1.86919494 88 89 89
1.54553545 0.24036302 1.83710527 106 105 104
1.55123758 0.24460217 1.85723794 90 89 90
1.55062859 0.24899001 1.86959651 93 96 97
1.54447249 0.26701865 1.87291146 94 94 94
1.56247282 0.23978704 1.85723794 106 106 98
1.56193447 0.23919831 1.87781680 97 97 97
1.56738070 0.23400659 1.88828546 82 86 85
1.56417310 0.24630708 1.87190466 96 96 96
1.56855147 0.25483423 1.88303292 92 93 98
1.57066280 0.26483569 1.89092521 114 116 114
1.58205914 0.24053089 1.88827813 119 120 114
1.58694620 0.26440766 1.89568021 88 89 89
1.59305100 0.26751524 1.90848169 112 113 110
