ply
format ascii 1.0
element vertex 1056
property float x
property float y
property float z
property uchar red
property uchar green
property uchar blue
end_header
-0.23692684 -0.03836916 0.45958769 161 163 149
-0.23613249 -0.03836916 0.45958769 168 169 158
-0.23533812 -0.03836916 0.45958769 146 146 143
-0.23454377 -0.03836916 0.45958769 61 61 59
-0.23374940 -0.03836916 0.45958769 16 15 16
-0.23295504 -0.03836916 0.45958769 39 37 39
-0.23231819 -0.03839519 0.45989949 33 32 35
-0.23152329 -0.03839519 0.45989949 26 25 27
-0.23088503 -0.03842125 0.46021169 24 23 25
-0.23804398 -0.03762582 0.46021169 163 162 149
-0.23724854 -0.03762582 0.46021169 165 164 151
-0.23629268 -0.03760029 0.45989949 168 167 155
-0.23565766 -0.03762582 0.46021169 157 155 147
-0.23470289 -0.03760029 0.45989949 62 60 54
-0.23390798 -0.03760029 0.45989949 26 22 25
-0.23311308 -0.03760029 0.45989949 59 56 60
-0.23247591 -0.03762582 0.46021169 50 48 54
-0.23168047 -0.03762582 0.46021169 49 48 52
-0.23104188 -0.03765138 0.46052435 48 48 51
-1.14355195 -0.14904161 1.86234021 47 46 46
-0.23979765 -0.03685540 0.46052435 162 162 153
-0.23900166 -0.03685540 0.46052435 162 162 152
-0.23820569 -0.03685540 0.46052435 158 158 148
-0.23740971 -0.03685540 0.46052435 158 158 148
-0.23645310 -0.03683038 0.46021169 164 164 155
-0.23581775 -0.03685540 0.46052435 168 165 159
-0.23486222 -0.03683038 0.46021169 58 55 50
-0.23406678 -0.03683038 0.46021169 27 23 26
-0.23327135 -0.03683038 0.46021169 56 52 55
-0.23263383 -0.03685540 0.46052435 47 46 50
-0.23168047 -0.03683038 0.46021169 46 45 49
-0.23104188 -0.03685540 0.46052435 46 45 49
-1.16927004 -0.14785366 1.88827813 49 48 50
-1.14670229 -0.14622442 1.86747062 47 46 48
-0.23996067 -0.03608393 0.46083742 165 165 158
-0.23916414 -0.03608393 0.46083742 165 165 157
-0.23836762 -0.03608393 0.46083742 167 167 158
-0.23740971 -0.03605942 0.46052435 161 161 152
-0.23661374 -0.03605942 0.46052435 160 160 151
-0.23581775 -0.03605942 0.46052435 176 173 165
-0.23502177 -0.03605942 0.46052435 59 56 48
-0.23422579 -0.03605942 0.46052435 23 22 22
-0.23342982 -0.03605942 0.46052435 48 47 47
-0.23263383 -0.03605942 0.46052435 46 45 49
-0.23183785 -0.03605942 0.46052435 45 44 48
-0.23119894 -0.03608393 0.46083742 45 44 48
-1.17253387 -0.14458993 1.88827813 48 48 51
-1.16602206 -0.14418828 1.88303292 49 49 53
-1.16600633 -0.14458993 1.88827813 49 49 52
-1.14670229 -0.14299665 1.86747062 46 46 48
-1.13410175 -0.14182454 1.85216355 45 45 47
-0.24012390 -0.03531142 0.46115091 167 164 158
-0.23932683 -0.03531142 0.46115091 165 165 158
-0.23852979 -0.03531142 0.46115091 165 165 157
-0.23757111 -0.03528741 0.46083742 162 162 152
-0.23677458 -0.03528741 0.46083742 165 165 154
-0.23597807 -0.03528741 0.46083742 170 169 161
-0.23518154 -0.03528741 0.46083742 64 62 56
-0.23438503 -0.03528741 0.46083742 29 28 27
-0.23358850 -0.03528741 0.46083742 50 49 48
-0.23279199 -0.03528741 0.46083742 48 47 48
-0.23199546 -0.03528741 0.46083742 46 45 46
-0.23135622 -0.03531142 0.46115091 44 43 45
-1.16600633 -0.14132619 1.88827813 46 47 49
-1.15951276 -0.14093362 1.88303292 46 46 48
-1.14670229 -0.13976888 1.86747062 45 45 47
-1.13720882 -0.13900302 1.85723794 46 46 48
-1.13399875 -0.13900302 1.85723794 46 46 47
-0.23932683 -0.03451436 0.46115091 164 164 155
-0.23852979 -0.03451436 0.46115091 163 163 154
-0.23773272 -0.03451436 0.46115091 162 163 152
-0.23693566 -0.03451436 0.46115091 164 165 152
-0.23613860 -0.03451436 0.46115091 164 165 156
-0.23151371 -0.03453785 0.46146482 47 43 46
-0.23071611 -0.03453785 0.46146482 46 41 44
-0.22991851 -0.03453785 0.46146482 43 40 43
-1.13720882 -0.13579294 1.85723794 42 42 42
-1.13090038 -0.13542192 1.85216355 41 41 40
-1.14015985 -0.13691829 1.87262940 43 44 42
-0.23948976 -0.03374024 0.46146482 166 166 157
-0.23869215 -0.03374024 0.46146482 165 165 156
-0.23773272 -0.03371729 0.46115091 162 162 152
-0.23693566 -0.03371729 0.46115091 161 161 150
-0.23151371 -0.03374024 0.46146482 45 41 44
-0.23071611 -0.03374024 0.46146482 46 42 45
-0.22991851 -0.03374024 0.46146482 46 42 45
-0.22927697 -0.03376323 0.46177918 46 42 45
-0.22863458 -0.03378624 0.46209395 44 43 43
-0.22752570 -0.03374024 0.46146482 44 43 43
-1.13410175 -0.13222061 1.85216355 45 45 47
-1.13090038 -0.13222061 1.85216355 44 44 45
-1.13701892 -0.13331334 1.86747062 44 44 44
-0.24028736 -0.03294264 0.46146482 167 167 156
-0.23948976 -0.03294264 0.46146482 166 165 151
-0.23869215 -0.03294264 0.46146482 167 164 145
-0.23789455 -0.03294264 0.46146482 166 164 147
-0.23709695 -0.03294264 0.46146482 167 164 149
-0.23629934 -0.03294264 0.46146482 162 161 149
-0.23310892 -0.03294264 0.46146482 46 46 50
-0.23231132 -0.03294264 0.46146482 45 45 49
-0.23151371 -0.03294264 0.46146482 44 44 46
-0.23071611 -0.03294264 0.46146482 44 43 45
-0.22991851 -0.03294264 0.46146482 43 42 44
-0.22927697 -0.03296508 0.46177918 43 42 44
-0.22863458 -0.03298755 0.46209395 44 43 44
-0.22752570 -0.03294264 0.46146482 43 42 43
-1.13410175 -0.12901929 1.85216355 45 45 45
-1.13090038 -0.12901929 1.85216355 44 44 45
-1.14015985 -0.13044491 1.87262940 44 44 45
-1.13692319 -0.13044491 1.87262940 44 44 45
-1.14635336 -0.13190240 1.89355266 44 44 45
-0.24028736 -0.03214504 0.46146482 171 168 156
-0.23948976 -0.03214504 0.46146482 168 165 152
-0.23869215 -0.03214504 0.46146482 169 166 150
-0.23789455 -0.03214504 0.46146482 169 166 149
-0.23709695 -0.03214504 0.46146482 172 169 151
-0.23629934 -0.03214504 0.46146482 164 162 147
-0.23470414 -0.03214504 0.46146482 30 30 26
-0.23390652 -0.03214504 0.46146482 48 48 51
-0.23310892 -0.03214504 0.46146482 46 46 49
-0.23231132 -0.03214504 0.46146482 45 45 48
-0.23151371 -0.03214504 0.46146482 43 43 46
-0.23071611 -0.03214504 0.46146482 42 42 44
-0.22991851 -0.03214504 0.46146482 41 41 42
-0.22912090 -0.03214504 0.46146482 40 40 42
-0.22863458 -0.03218886 0.46209395 41 41 41
-0.22737092 -0.03212317 0.46115091 40 40 40
-1.13090038 -0.12581797 1.85216355 45 44 46
-1.14015985 -0.12720823 1.87262940 45 44 46
-1.15604091 -0.12971656 1.90955448 44 44 46
-0.24028736 -0.03134743 0.46146482 168 167 152
-0.23948976 -0.03134743 0.46146482 163 163 147
-0.23869215 -0.03134743 0.46146482 169 167 149
-0.23789455 -0.03134743 0.46146482 167 166 147
-0.23709695 -0.03134743 0.46146482 168 166 148
-0.23629934 -0.03134743 0.46146482 162 161 145
-0.23470414 -0.03134743 0.46146482 25 25 19
-0.23390652 -0.03134743 0.46146482 51 51 52
-0.23326771 -0.03136879 0.46177918 45 45 45
-0.23246957 -0.03136879 0.46177918 44 44 44
-0.23151371 -0.03134743 0.46146482 44 44 44
-0.23071611 -0.03134743 0.46146482 42 42 42
-0.22991851 -0.03134743 0.46146482 40 40 40
-0.22912090 -0.03134743 0.46146482 40 40 40
-0.22847883 -0.03136879 0.46177918 40 40 40
-0.22737092 -0.03132611 0.46115091 40 40 40
-0.22641982 -0.03130481 0.46083742 40 40 40
-1.13090038 -0.12261666 1.85216355 46 45 48
-1.13701892 -0.12363002 1.86747062 46 46 50
-0.24028736 -0.03054983 0.46146482 165 166 157
-0.23948976 -0.03054983 0.46146482 166 167 158
-0.23869215 -0.03054983 0.46146482 167 165 152
-0.23789455 -0.03054983 0.46146482 167 165 152
-0.23709695 -0.03054983 0.46146482 167 165 150
-0.23629934 -0.03054983 0.46146482 164 163 149
-0.23390652 -0.03054983 0.46146482 50 50 50
-0.23310892 -0.03054983 0.46146482 45 45 45
-0.23231132 -0.03054983 0.46146482 44 44 44
-0.23151371 -0.03054983 0.46146482 44 44 44
-0.23071611 -0.03054983 0.46146482 45 45 45
-0.22991851 -0.03054983 0.46146482 45 44 44
-0.22912090 -0.03054983 0.46146482 42 42 42
-0.22847883 -0.03057064 0.46177918 41 41 41
-0.22721635 -0.03050829 0.46083742 41 40 40
-0.22641982 -0.03050829 0.46083742 40 40 40
-1.12781894 -0.11908996 1.84711671 49 45 46
-1.13701892 -0.12040225 1.86747062 49 45 46
-1.18619525 -0.12705237 1.97061586 44 44 46
-0.23852979 -0.02973198 0.46115091 167 164 155
-0.23773272 -0.02973198 0.46115091 167 164 155
-0.23693566 -0.02973198 0.46115091 169 166 155
-0.23454447 -0.02973198 0.46115091 6 5 5
-0.23374741 -0.02973198 0.46115091 46 42 43
-0.23310892 -0.02975222 0.46146482 48 44 45
-0.23231132 -0.02975222 0.46146482 46 43 44
-0.23151371 -0.02975222 0.46146482 45 42 43
-0.23055916 -0.02973198 0.46115091 45 43 44
-0.22991851 -0.02975222 0.46146482 44 43 43
-0.22896503 -0.02973198 0.46115091 43 42 42
-0.22847883 -0.02977249 0.46177918 42 41 41
-0.22721635 -0.02971177 0.46083742 42 41 41
-0.22641982 -0.02971177 0.46083742 41 40 40
-1.13701892 -0.11717448 1.86747062 47 44 47
-1.12449777 -0.11621403 1.85216355 46 43 46
-1.18615317 -0.12328793 1.96490383 45 44 46
-1.18619525 -0.12364633 1.97061586 45 44 46
-1.17256331 -0.12257733 1.95357883 45 44 46
-0.23932683 -0.02893492 0.46115091 168 164 158
-0.23852979 -0.02893492 0.46115091 168 164 156
-0.23773272 -0.02893492 0.46115091 167 163 155
-0.23693566 -0.02893492 0.46115091 173 169 161
-0.23613860 -0.02893492 0.46115091 171 167 160
-0.23454447 -0.02893492 0.46115091 12 13 10
-0.23374741 -0.02893492 0.46115091 44 42 44
-0.23295034 -0.02893492 0.46115091 46 45 47
-0.23231132 -0.02895462 0.46146482 46 45 47
-0.23135622 -0.02893492 0.46115091 45 44 45
-0.23055916 -0.02893492 0.46115091 43 42 44
-0.22976209 -0.02893492 0.46115091 42 41 43
-0.22896503 -0.02893492 0.46115091 41 41 43
-0.22847883 -0.02897434 0.46177918 41 41 42
-0.22721635 -0.02891525 0.46083742 40 40 41
-0.22641982 -0.02891525 0.46083742 39 39 40
-0.22623850 -0.02899409 0.46209395 38 38 40
-1.13389528 -0.11363366 1.86234021 45 44 46
-1.12143373 -0.11270478 1.84711671 44 44 46
-1.17933857 -0.11954524 1.95922494 44 43 45
-1.16919386 -0.11885820 1.94796503 43 43 45
-0.24012390 -0.02813786 0.46115091 169 165 158
-0.23932683 -0.02813786 0.46115091 168 164 157
-0.23852979 -0.02813786 0.46115091 167 162 155
-0.23773272 -0.02813786 0.46115091 166 161 154
-0.23693566 -0.02813786 0.46115091 168 165 157
-0.23613860 -0.02813786 0.46115091 171 168 160
-0.23534153 -0.02813786 0.46115091 98 99 94
-0.23454447 -0.02813786 0.46115091 25 26 22
-0.23374741 -0.02813786 0.46115091 48 49 50
-0.23295034 -0.02813786 0.46115091 44 45 47
-0.23231132 -0.02815701 0.46146482 43 44 46
-0.23135622 -0.02813786 0.46115091 43 44 46
-0.23055916 -0.02813786 0.46115091 41 41 43
-0.22976209 -0.02813786 0.46115091 42 42 44
-0.22896503 -0.02813786 0.46115091 43 43 45
-0.22847883 -0.02817619 0.46177918 40 40 42
-0.22721635 -0.02811873 0.46083742 39 39 41
-0.22641982 -0.02811873 0.46083742 38 38 40
-1.16931617 -0.10981140 1.85216355 173 168 161
-1.16930974 -0.11011226 1.85723794 85 80 73
-1.16609967 -0.11011226 1.85723794 36 32 32
-1.13389528 -0.11041476 1.86234021 44 44 44
-1.11838639 -0.10921460 1.84209740 44 44 44
-1.17593992 -0.11582413 1.95357883 45 44 45
-1.16251278 -0.11483135 1.93683386 44 43 44
-1.14606714 -0.11353382 1.91494870 44 43 43
-0.24012390 -0.02734080 0.46115091 169 166 158
-0.23932683 -0.02734080 0.46115091 167 164 156
-0.23852979 -0.02734080 0.46115091 165 162 154
-0.23773272 -0.02734080 0.46115091 165 162 154
-0.23693566 -0.02734080 0.46115091 166 166 154
-0.23613860 -0.02734080 0.46115091 171 172 158
-0.23374741 -0.02734080 0.46115091 47 47 47
-0.23310892 -0.02735941 0.46146482 47 47 49
-0.23231132 -0.02735941 0.46146482 45 45 48
-0.23135622 -0.02734080 0.46115091 45 44 47
-0.23055916 -0.02734080 0.46115091 41 41 43
-0.22976209 -0.02734080 0.46115091 44 44 46
-0.22896503 -0.02734080 0.46115091 43 43 45
-0.22847883 -0.02737805 0.46177918 40 40 42
-0.22721635 -0.02732221 0.46083742 38 38 40
-0.22626601 -0.02730365 0.46052435 38 38 40
-1.17251754 -0.10661009 1.85216355 168 165 157
-1.16931617 -0.10661009 1.85216355 178 175 167
-1.16611493 -0.10661009 1.85216355 89 86 78
-1.16291356 -0.10661009 1.85216355 43 40 38
-1.14050436 -0.10661009 1.85216355 46 46 46
-1.13730311 -0.10661009 1.85216355 45 45 45
-1.12488139 -0.10574334 1.83710527 44 44 44
-1.13389528 -0.10719585 1.86234021 44 44 44
-1.11234105 -0.10545754 1.83214009 45 45 45
-1.16920102 -0.11180313 1.94238353 44 44 45
-0.23932683 -0.02654374 0.46115091 161 161 150
-0.23869215 -0.02656181 0.46146482 165 165 154
-0.23789455 -0.02656181 0.46146482 164 164 153
-0.23693566 -0.02654374 0.46115091 166 167 155
-0.23374741 -0.02654374 0.46115091 46 46 45
-0.23310892 -0.02656181 0.46146482 46 46 48
-0.23231132 -0.02656181 0.46146482 44 44 46
-0.23135622 -0.02654374 0.46115091 43 43 45
-0.23055916 -0.02654374 0.46115091 43 43 45
-0.22976209 -0.02654374 0.46115091 44 44 46
-0.22896503 -0.02654374 0.46115091 43 43 43
-0.22832330 -0.02656181 0.46146482 41 41 41
-0.22721635 -0.02652569 0.46083742 40 40 40
-0.22626601 -0.02650767 0.46052435 38 38 38
-1.17251527 -0.10312700 1.84711671 167 164 156
-1.17251754 -0.10340877 1.85216355 168 165 157
-1.16931617 -0.10340877 1.85216355 177 174 168
-1.16611493 -0.10340877 1.85216355 93 90 84
-1.16291356 -0.10340877 1.85216355 42 37 36
-1.15971231 -0.10340877 1.85216355 46 40 42
-1.14050436 -0.10340877 1.85216355 46 46 47
-1.13730311 -0.10340877 1.85216355 46 46 47
-1.12488139 -0.10256805 1.83710527 46 45 46
-1.12170613 -0.10256805 1.83710527 45 45 45
-1.13389528 -0.10397695 1.86234021 44 44 44
-1.11535549 -0.10256805 1.83710527 44 44 44
-1.13368654 -0.10455141 1.87262940 44 44 44
-1.14621115 -0.10631351 1.90419054 45 43 44
-0.24012390 -0.02574667 0.46115091 168 164 157
-0.23932683 -0.02574667 0.46115091 165 165 155
-0.23869215 -0.02576420 0.46146482 167 167 157
-0.23789455 -0.02576420 0.46146482 164 164 154
-0.23310892 -0.02576420 0.46146482 45 45 51
-0.23231132 -0.02576420 0.46146482 42 42 49
-0.23151371 -0.02576420 0.46146482 42 42 49
-0.23055916 -0.02574667 0.46115091 41 41 46
-0.22976209 -0.02574667 0.46115091 40 41 45
-0.22896503 -0.02574667 0.46115091 41 41 43
-1.17251527 -0.09993441 1.84711671 166 166 157
-1.17251754 -0.10020745 1.85216355 165 165 156
-1.16931617 -0.10020745 1.85216355 176 172 166
-1.16611493 -0.10020745 1.85216355 101 97 91
-1.16291356 -0.10020745 1.85216355 46 41 41
-1.15971231 -0.10020745 1.85216355 45 40 44
-1.14362907 -0.10048199 1.85723794 48 47 49
-1.13730311 -0.10020745 1.85216355 47 46 49
-1.12793815 -0.09966285 1.84209740 47 46 49
-1.12475419 -0.09966285 1.84209740 46 45 48
-1.13389528 -0.10075804 1.86234021 46 45 47
-1.11838639 -0.09966285 1.84209740 45 44 45
-1.13368654 -0.10131472 1.87262940 45 44 45
-1.14300036 -0.10273369 1.89885676 44 42 44
-0.24028736 -0.02496659 0.46146482 170 166 160
-0.23932683 -0.02494961 0.46115091 168 165 157
-0.23869215 -0.02496659 0.46146482 167 164 156
-0.23789455 -0.02496659 0.46146482 166 163 155
-0.23310892 -0.02496659 0.46146482 45 46 49
-0.23231132 -0.02496659 0.46146482 43 44 47
-0.23151371 -0.02496659 0.46146482 42 43 47
-0.23071611 -0.02496659 0.46146482 41 41 45
-0.22991851 -0.02496659 0.46146482 40 41 44
-0.22896503 -0.02494961 0.46115091 41 41 43
-1.17571878 -0.09700613 1.85216355 166 166 155
-1.17251754 -0.09700613 1.85216355 166 166 155
-1.16931617 -0.09700613 1.85216355 173 172 163
-1.16611493 -0.09700613 1.85216355 109 108 99
-1.16291356 -0.09700613 1.85216355 43 42 40
-1.16288960 -0.09727190 1.85723794 36 36 41
-1.15967941 -0.09727190 1.85723794 51 51 56
-1.15646935 -0.09727190 1.85723794 49 49 53
-1.14362907 -0.09727190 1.85723794 46 45 47
-1.13730311 -0.09700613 1.85216355 46 45 48
-1.12793815 -0.09647893 1.84209740 46 45 48
-1.12475419 -0.09647893 1.84209740 46 45 48
-1.13389528 -0.09753913 1.86234021 46 45 47
-1.12143373 -0.09674182 1.84711671 46 45 47
-1.13368654 -0.09807803 1.87262940 46 45 47
-1.14621115 -0.09973103 1.90419054 44 43 45
-0.24028736 -0.02416899 0.46146482 170 166 162
-0.23932683 -0.02415255 0.46115091 167 164 158
-0.23869215 -0.02416899 0.46146482 167 164 157
-0.23789455 -0.02416899 0.46146482 166 163 155
-0.23231132 -0.02416899 0.46146482 45 44 45
-0.23151371 -0.02416899 0.46146482 43 42 43
-0.23071611 -0.02416899 0.46146482 42 41 43
-0.22991851 -0.02416899 0.46146482 42 41 43
-0.22896503 -0.02415255 0.46115091 41 41 43
-1.18209302 -0.09354922 1.84711671 165 165 156
-1.17571878 -0.09380482 1.85216355 165 165 155
-1.17251754 -0.09380482 1.85216355 164 165 154
-1.16931617 -0.09380482 1.85216355 168 169 159
-1.16611493 -0.09380482 1.85216355 115 116 107
-1.16291356 -0.09380482 1.85216355 38 39 33
-1.15971231 -0.09380482 1.85216355 36 37 38
-1.15967941 -0.09406182 1.85723794 51 52 52
-1.15646935 -0.09406182 1.85723794 49 50 52
-1.15325928 -0.09406182 1.85723794 46 47 49
-1.15004921 -0.09406182 1.85723794 42 42 44
-1.14683914 -0.09406182 1.85723794 39 40 42
-1.14362907 -0.09406182 1.85723794 43 43 45
-1.14041901 -0.09406182 1.85723794 44 44 46
-1.13101161 -0.09354922 1.84711671 44 44 46
-1.12781894 -0.09354922 1.84711671 44 44 46
-1.13389528 -0.09432023 1.86234021 44 44 46
-1.12449777 -0.09380482 1.85216355 44 44 46
-1.13368654 -0.09484134 1.87262940 44 44 46
-1.16256487 -0.09753570 1.92582905 43 43 45
-1.14621115 -0.09643979 1.90419054 42 41 43
-0.24092096 -0.02335549 0.46115091 168 165 159
-0.24028736 -0.02337139 0.46146482 169 166 159
-0.23932683 -0.02335549 0.46115091 167 164 156
-0.23869215 -0.02337139 0.46146482 167 164 156
-0.23789455 -0.02337139 0.46146482 165 162 154
-0.23071611 -0.02337139 0.46146482 42 42 42
-0.22991851 -0.02337139 0.46146482 41 41 41
-1.18532276 -0.09060351 1.85216355 165 165 156
-1.18212152 -0.09060351 1.85216355 165 165 156
-1.17892015 -0.09060351 1.85216355 165 165 156
-1.17571878 -0.09060351 1.85216355 164 165 155
-1.17251754 -0.09060351 1.85216355 161 162 151
-1.16931617 -0.09060351 1.85216355 159 160 149
-1.16611493 -0.09060351 1.85216355 114 115 106
-1.16291356 -0.09060351 1.85216355 33 34 27
-1.15971231 -0.09060351 1.85216355 46 47 47
-1.15967941 -0.09085174 1.85723794 53 54 54
-1.15646935 -0.09085174 1.85723794 49 50 52
-1.15325928 -0.09085174 1.85723794 46 47 49
-1.14690697 -0.09060351 1.85216355 46 46 48
-1.14683914 -0.09085174 1.85723794 46 45 47
-1.14362907 -0.09085174 1.85723794 46 45 48
-1.14041901 -0.09085174 1.85723794 46 45 49
-1.13101161 -0.09035663 1.84711671 45 44 48
-1.12781894 -0.09035663 1.84711671 44 43 47
-1.13389528 -0.09110133 1.86234021 45 44 47
-1.12449777 -0.09060351 1.85216355 45 44 46
-1.13368654 -0.09160465 1.87262940 45 44 46
-1.14300036 -0.09288763 1.89885676 44 43 45
-1.12708998 -0.09185840 1.87781680 42 41 42
-1.18528557 -0.08716404 1.84711671 165 165 156
-1.18209302 -0.08716404 1.84711671 165 165 156
-1.18212152 -0.08740219 1.85216355 165 165 156
-1.17892015 -0.08740219 1.85216355 165 165 155
-1.17571878 -0.08740219 1.85216355 162 163 152
-1.17251754 -0.08740219 1.85216355 162 163 152
-1.16931617 -0.08740219 1.85216355 162 163 153
-1.16611493 -0.08740219 1.85216355 125 127 119
-1.16291356 -0.08740219 1.85216355 27 28 22
-1.15971231 -0.08740219 1.85216355 46 46 47
-1.15967941 -0.08764165 1.85723794 52 51 53
-1.15646935 -0.08764165 1.85723794 50 50 53
-1.15325928 -0.08764165 1.85723794 48 48 51
-1.14690697 -0.08740219 1.85216355 49 47 50
-1.14683914 -0.08764165 1.85723794 48 46 49
-1.14362907 -0.08764165 1.85723794 48 45 49
-1.14041901 -0.08764165 1.85723794 47 45 48
-1.13410175 -0.08740219 1.85216355 46 44 47
-1.12781894 -0.08716404 1.84711671 45 43 46
-1.13389528 -0.08788242 1.86234021 46 44 47
-1.12449777 -0.08740219 1.85216355 45 44 46
-1.13368654 -0.08836796 1.87262940 45 44 46
-1.14300036 -0.08960561 1.89885676 45 44 44
-1.12397647 -0.08836796 1.87262940 44 43 44
-1.12073970 -0.08836796 1.87262940 45 44 44
-1.18528557 -0.08397145 1.84711671 167 163 155
-1.18532276 -0.08420088 1.85216355 166 163 154
-1.18212152 -0.08420088 1.85216355 165 162 152
-1.17892015 -0.08420088 1.85216355 164 161 151
-1.17571878 -0.08420088 1.85216355 163 162 151
-1.17251754 -0.08420088 1.85216355 163 163 152
-1.16931617 -0.08420088 1.85216355 164 164 155
-1.16611493 -0.08420088 1.85216355 138 138 134
-1.16291356 -0.08420088 1.85216355 19 19 16
-1.15971231 -0.08420088 1.85216355 47 44 49
-1.15967941 -0.08443157 1.85723794 52 49 55
-1.15330958 -0.08420088 1.85216355 50 48 54
-1.15010834 -0.08420088 1.85216355 49 48 53
-1.14690697 -0.08420088 1.85216355 49 47 53
-1.14683914 -0.08443157 1.85723794 48 45 52
-1.14362907 -0.08443157 1.85723794 48 45 51
-1.14041901 -0.08443157 1.85723794 49 45 49
-1.13410175 -0.08420088 1.85216355 47 44 48
-1.13090038 -0.08420088 1.85216355 45 44 46
-1.13389528 -0.08466352 1.86234021 45 44 46
-1.12449777 -0.08420088 1.85216355 45 44 46
-1.13368654 -0.08513127 1.87262940 45 44 46
-1.13980770 -0.08608247 1.89355266 47 46 46
-1.09355199 -0.08306610 1.82720172 46 45 45
-1.18528557 -0.08077886 1.84711671 165 161 151
-1.18532276 -0.08099956 1.85216355 164 160 151
-1.18212152 -0.08099956 1.85216355 165 161 152
-1.17892015 -0.08099956 1.85216355 165 162 152
-1.17571878 -0.08099956 1.85216355 164 162 152
-1.17251754 -0.08099956 1.85216355 163 164 154
-1.16931617 -0.08099956 1.85216355 164 164 156
-1.16611493 -0.08099956 1.85216355 142 142 138
-1.16291356 -0.08099956 1.85216355 22 22 18
-1.15971231 -0.08099956 1.85216355 46 45 50
-1.15651095 -0.08099956 1.85216355 50 49 56
-1.15330958 -0.08099956 1.85216355 48 47 54
-1.15010834 -0.08099956 1.85216355 47 46 53
-1.14690697 -0.08099956 1.85216355 46 45 51
-1.14370573 -0.08099956 1.85216355 46 45 49
-1.14362907 -0.08122148 1.85723794 47 45 49
-1.14041901 -0.08122148 1.85723794 49 45 50
-1.13410175 -0.08099956 1.85216355 48 45 49
-1.13090038 -0.08099956 1.85216355 46 45 47
-1.13389528 -0.08144461 1.86234021 45 44 46
-1.12449777 -0.08099956 1.85216355 45 44 46
-1.18528557 -0.07758626 1.84711671 166 163 155
-1.18209302 -0.07758626 1.84711671 167 163 155
-1.17890048 -0.07758626 1.84711671 166 163 155
-1.17570782 -0.07758626 1.84711671 165 162 154
-1.17251527 -0.07758626 1.84711671 164 162 154
-1.16932261 -0.07758626 1.84711671 165 166 157
-1.16613007 -0.07758626 1.84711671 167 168 159
-1.16293752 -0.07758626 1.84711671 140 141 134
-1.15974486 -0.07758626 1.84711671 31 32 26
-1.15655231 -0.07758626 1.84711671 45 45 49
-1.15651095 -0.07779825 1.85216355 48 48 55
-1.15330958 -0.07779825 1.85216355 46 45 53
-1.15010834 -0.07779825 1.85216355 46 45 52
-1.14690697 -0.07779825 1.85216355 45 44 51
-1.14370573 -0.07779825 1.85216355 45 44 51
-1.14050436 -0.07779825 1.85216355 45 44 51
-1.14041901 -0.07801139 1.85723794 45 44 51
-1.13410175 -0.07779825 1.85216355 45 44 50
-1.12781894 -0.07758626 1.84711671 45 45 47
-1.13389528 -0.07822571 1.86234021 45 45 47
-1.12449777 -0.07779825 1.85216355 44 44 46
-1.18206477 -0.07419152 1.84209740 162 161 153
-1.18209302 -0.07439367 1.84711671 161 161 154
-1.17890048 -0.07439367 1.84711671 160 160 152
-1.17570782 -0.07439367 1.84711671 161 161 152
-1.17251527 -0.07439367 1.84711671 162 162 153
-1.16932261 -0.07439367 1.84711671 163 164 155
-1.16613007 -0.07439367 1.84711671 169 170 161
-1.16293752 -0.07439367 1.84711671 136 137 130
-1.15974486 -0.07439367 1.84711671 39 40 33
-1.15655231 -0.07439367 1.84711671 36 38 41
-1.15335965 -0.07439367 1.84711671 46 49 56
-1.15016711 -0.07439367 1.84711671 46 48 55
-1.15010834 -0.07459693 1.85216355 45 46 54
-1.14378190 -0.07439367 1.84711671 45 46 53
-1.14370573 -0.07459693 1.85216355 46 46 52
-1.14050436 -0.07459693 1.85216355 46 46 51
-1.14041901 -0.07480131 1.85723794 46 46 50
-1.13410175 -0.07459693 1.85216355 46 46 50
-1.12781894 -0.07439367 1.84711671 45 46 49
-1.13389528 -0.07500681 1.86234021 45 45 48
-1.12757862 -0.07480131 1.85723794 45 45 49
-1.17604041 -0.08053828 1.99968100 47 47 47
-1.17886126 -0.07081517 1.83710527 166 164 158
-1.17888081 -0.07100760 1.84209740 164 165 158
-1.17569685 -0.07100760 1.84209740 164 164 157
-1.17570782 -0.07120108 1.84711671 162 162 154
-1.16932905 -0.07100760 1.84209740 162 162 153
-1.16614509 -0.07100760 1.84209740 161 162 152
-1.16296124 -0.07100760 1.84209740 170 172 161
-1.15977728 -0.07100760 1.84209740 136 139 130
-1.15659344 -0.07100760 1.84209740 51 54 45
-1.15340948 -0.07100760 1.84209740 35 38 36
-1.15335965 -0.07120108 1.84711671 49 53 55
-1.15016711 -0.07120108 1.84711671 48 52 54
-1.14697456 -0.07120108 1.84711671 45 48 52
-1.14378190 -0.07120108 1.84711671 45 48 51
-1.14370573 -0.07139562 1.85216355 45 48 50
-1.14050436 -0.07139562 1.85216355 45 48 50
-1.14041901 -0.07159123 1.85723794 45 48 50
-1.13101161 -0.07120108 1.84711671 45 48 50
-1.12781894 -0.07120108 1.84711671 45 46 49
-1.13701892 -0.07198567 1.86747062 45 46 48
-1.12757862 -0.07159123 1.85723794 45 46 49
-1.17604041 -0.07708200 1.99968100 48 48 49
-1.17886126 -0.06763988 1.83710527 166 163 155
-1.17888081 -0.06782369 1.84209740 162 160 152
-1.17569685 -0.06782369 1.84209740 163 162 154
-1.17251301 -0.06782369 1.84209740 160 161 152
-1.16932905 -0.06782369 1.84209740 160 161 152
-1.16614509 -0.06782369 1.84209740 159 162 147
-1.16296124 -0.06782369 1.84209740 168 171 156
-1.15977728 -0.06782369 1.84209740 122 128 114
-1.15659344 -0.06782369 1.84209740 58 65 51
-1.15340948 -0.06782369 1.84209740 44 50 43
-1.15335965 -0.06800849 1.84711671 57 61 62
-1.15016711 -0.06800849 1.84711671 55 58 60
-1.14697456 -0.06800849 1.84711671 52 54 57
-1.14067376 -0.06782369 1.84209740 53 55 58
-1.14370573 -0.06819431 1.85216355 50 52 55
-1.14050436 -0.06819431 1.85216355 50 52 55
-1.14041901 -0.06838114 1.85723794 52 53 55
-1.13101161 -0.06800849 1.84711671 47 48 50
-1.12781894 -0.06800849 1.84711671 46 47 49
-1.13701892 -0.06875789 1.86747062 47 48 50
-1.17258143 -0.07340916 1.99379957 54 51 56
-1.17888081 -0.06463977 1.84209740 171 170 158
-1.17569685 -0.06463977 1.84209740 172 172 159
-1.17251301 -0.06463977 1.84209740 168 171 158
-1.16932905 -0.06463977 1.84209740 168 170 157
-1.16614509 -0.06463977 1.84209740 159 165 149
-1.16296124 -0.06463977 1.84209740 163 171 153
-1.15977728 -0.06463977 1.84209740 121 128 113
-1.15345895 -0.06446459 1.83710527 59 66 53
-1.15028369 -0.06446459 1.83710527 35 39 33
-1.15022552 -0.06463977 1.84209740 41 42 46
-1.14704168 -0.06463977 1.84209740 30 30 34
-1.14385772 -0.06463977 1.84209740 26 25 29
-1.14067376 -0.06463977 1.84209740 32 31 35
-1.14058936 -0.06481590 1.84711671 32 31 35
-1.13739669 -0.06481590 1.84711671 32 31 35
-1.14041901 -0.06517106 1.85723794 33 32 36
-1.12793815 -0.06463977 1.84209740 34 34 38
-1.12475419 -0.06463977 1.84209740 34 33 40
-1.13701892 -0.06553012 1.86747062 33 31 40
-1.17568600 -0.06128931 1.83710527 169 164 157
-1.17569685 -0.06145585 1.84209740 173 168 161
-1.16933548 -0.06128931 1.83710527 173 173 164
-1.16616011 -0.06128931 1.83710527 169 169 160
-1.16298485 -0.06128931 1.83710527 166 167 155
-1.15980959 -0.06128931 1.83710527 159 161 148
-1.15663433 -0.06128931 1.83710527 143 146 134
-1.15034151 -0.06112366 1.83214009 105 110 100
-1.14717484 -0.06112366 1.83214009 69 72 65
-1.14710844 -0.06128931 1.83710527 69 69 66
-1.14393318 -0.06128931 1.83710527 73 73 71
-1.14075780 -0.06128931 1.83710527 76 76 78
-1.13758254 -0.06128931 1.83710527 79 79 81
-1.14058936 -0.06162331 1.84711671 79 78 80
-1.13430595 -0.06145585 1.84209740 77 76 78
-1.13730311 -0.06179168 1.85216355 74 74 76
-1.12184119 -0.06112366 1.83214009 76 76 78
-1.11565924 -0.06095890 1.82720172 81 79 82
-1.13078868 -0.06196097 1.85723794 83 80 85
-1.17568600 -0.05811402 1.83710527 31 25 26
-1.17251074 -0.05811402 1.83710527 46 40 41
-1.16933548 -0.05811402 1.83710527 46 43 43
-1.16300833 -0.05795695 1.83214009 49 47 47
-1.15984166 -0.05795695 1.83214009 52 51 46
-1.15667498 -0.05795695 1.83214009 67 66 59
-1.15350819 -0.05795695 1.83214009 114 114 108
-1.15034151 -0.05795695 1.83214009 162 163 157
-1.14408267 -0.05780074 1.82720172 169 170 165
-1.14400816 -0.05795695 1.83214009 172 172 166
-1.14084136 -0.05795695 1.83214009 174 174 168
-1.13767469 -0.05795695 1.83214009 175 177 166
-1.13450801 -0.05795695 1.83214009 173 175 163
-1.13748991 -0.05827194 1.84209740 172 172 164
-1.13123202 -0.05811402 1.83710527 172 172 164
-1.13420415 -0.05843072 1.84711671 170 170 162
-1.11580980 -0.05764535 1.82228994 169 169 160
-1.11266005 -0.05764535 1.82228994 170 169 162
-1.12462640 -0.05843072 1.84711671 171 170 164
-1.17250848 -0.05479025 1.83214009 44 40 45
-1.17251074 -0.05493873 1.83710527 45 41 46
-1.16933548 -0.05493873 1.83710527 50 45 51
-1.16300833 -0.05479025 1.83214009 55 49 56
-1.15984166 -0.05479025 1.83214009 40 35 39
-1.15667498 -0.05479025 1.83214009 49 44 46
-1.15350819 -0.05479025 1.83214009 111 107 107
-1.14724088 -0.05464257 1.82720172 168 168 164
-1.14408267 -0.05464257 1.82720172 165 165 159
-1.14092457 -0.05464257 1.82720172 164 167 150
-1.14084136 -0.05479025 1.83214009 165 168 150
-1.13767469 -0.05479025 1.83214009 167 170 150
-1.13450801 -0.05479025 1.83214009 162 165 145
-1.13748991 -0.05508802 1.84209740 169 170 154
-1.12817454 -0.05479025 1.83214009 173 174 159
-1.13420415 -0.05523812 1.84711671 169 169 153
-1.11580980 -0.05449568 1.82228994 168 167 150
-1.10967708 -0.05434958 1.81740439 171 171 153
-1.16567159 -0.05980057 1.99968100 169 169 160
-1.17250848 -0.05162354 1.83214009 51 50 53
-1.17251074 -0.05176344 1.83710527 51 50 53
-1.16933548 -0.05176344 1.83710527 54 51 56
-1.16300833 -0.05162354 1.83214009 61 56 62
-1.15984166 -0.05162354 1.83214009 51 43 50
-1.15667498 -0.05162354 1.83214009 51 40 47
-1.15350819 -0.05162354 1.83214009 109 98 104
-1.14724088 -0.05148439 1.82720172 179 168 171
-1.14408267 -0.05148439 1.82720172 174 163 165
-1.14400816 -0.05162354 1.83214009 165 167 147
-1.14084136 -0.05162354 1.83214009 165 167 146
-1.13767469 -0.05162354 1.83214009 167 169 148
-1.13450801 -0.05162354 1.83214009 162 164 143
-1.13748991 -0.05190410 1.84209740 161 163 143
-1.13123202 -0.05176344 1.83710527 164 166 147
-1.13730311 -0.05218773 1.85216355 166 167 149
-1.11580980 -0.05134600 1.82228994 166 168 150
-1.10967708 -0.05120834 1.81740439 166 168 150
-1.17258418 -0.05634428 1.99968100 166 161 156
-1.16912782 -0.05634428 1.99968100 170 166 160
-1.15883482 -0.05601381 1.98795259 170 168 160
-1.16221523 -0.05634428 1.99968100 168 166 158
-1.15875900 -0.05634428 1.99968100 166 166 157
-1.17250848 -0.04845684 1.83214009 51 50 52
-1.17251074 -0.04858816 1.83710527 51 50 52
-1.16933548 -0.04858816 1.83710527 53 49 53
-1.16300833 -0.04845684 1.83214009 59 53 59
-1.15984166 -0.04845684 1.83214009 58 48 58
-1.15667498 -0.04845684 1.83214009 58 42 57
-1.15350819 -0.04845684 1.83214009 102 86 101
-1.14724088 -0.04832623 1.82720172 185 168 184
-1.14408267 -0.04832623 1.82720172 180 163 179
-1.14400816 -0.04845684 1.83214009 169 165 154
-1.14084136 -0.04845684 1.83214009 167 165 151
-1.13767469 -0.04845684 1.83214009 168 165 151
-1.13450801 -0.04845684 1.83214009 167 165 151
-1.13748991 -0.04872019 1.84209740 166 166 151
-1.12817454 -0.04845684 1.83214009 166 167 152
-1.13730311 -0.04898642 1.85216355 167 168 153
-1.11281836 -0.04806710 1.81740439 168 169 153
-1.16913533 -0.05273244 1.99379957 168 165 159
-1.16568923 -0.05273244 1.99379957 170 167 161
-1.15883482 -0.05257780 1.98795259 172 169 163
-1.15879703 -0.05273244 1.99379957 169 167 160
-1.15875900 -0.05288799 1.99968100 165 165 156
-1.11728358 -0.05288799 1.99968100 54 50 51
-1.16934812 -0.04516806 1.82720172 49 48 50
-1.16934180 -0.04529013 1.83214009 52 50 52
-1.16617501 -0.04529013 1.83214009 55 50 54
-1.15987360 -0.04516806 1.82720172 61 52 58
-1.15671539 -0.04516806 1.82720172 60 50 57
-1.15355718 -0.04516806 1.82720172 52 39 50
-1.15039909 -0.04516806 1.82720172 99 85 97
-1.14415693 -0.04504664 1.82228994 180 166 177
-1.14100718 -0.04504664 1.82228994 179 165 175
-1.14092457 -0.04516806 1.82720172 169 165 160
-1.13776636 -0.04516806 1.82720172 166 165 155
-1.13460815 -0.04516806 1.82720172 166 165 154
-1.13145006 -0.04516806 1.82720172 166 165 153
-1.13440728 -0.04541287 1.83710527 167 167 154
-1.12513375 -0.04516806 1.82720172 168 169 155
-1.16912782 -0.04943171 1.99968100 167 167 159
-1.15883482 -0.04914179 1.98795259 172 172 163
-1.15879703 -0.04928632 1.99379957 168 168 158
-1.15875900 -0.04943171 1.99968100 164 164 153
-1.12073982 -0.04943171 1.99968100 53 52 50
-1.11728358 -0.04943171 1.99968100 52 50 49
-1.11382723 -0.04943171 1.99968100 50 49 47
-1.16303170 -0.04200989 1.82720172 55 51 54
-1.15675557 -0.04189696 1.82228994 61 54 60
-1.15360594 -0.04189696 1.82228994 57 50 56
-1.15045631 -0.04189696 1.82228994 35 24 29
-1.14730656 -0.04189696 1.82228994 101 90 95
-1.14108944 -0.04178463 1.81740439 172 164 167
-1.13794827 -0.04178463 1.81740439 175 167 170
-1.13785756 -0.04189696 1.82228994 168 165 161
-1.13470781 -0.04189696 1.82228994 166 164 157
-1.13155818 -0.04189696 1.82228994 167 165 157
-1.12538326 -0.04178463 1.81740439 167 165 156
-1.12829185 -0.04200989 1.82720172 168 166 157
-1.12210917 -0.04189696 1.82228994 168 168 158
-1.16912782 -0.04597542 1.99968100 171 169 160
-1.15883482 -0.04570577 1.98795259 171 171 159
-1.16221523 -0.04597542 1.99968100 166 167 154
-1.15875900 -0.04597542 1.99968100 167 167 156
-1.12073982 -0.04597542 1.99968100 53 52 50
-1.11728358 -0.04597542 1.99968100 50 49 47
-1.11382723 -0.04597542 1.99968100 49 48 47
-0.23769841 -0.01049540 0.45649281 47 46 46
-0.23690940 -0.01049540 0.45649281 46 46 46
-0.23612039 -0.01049540 0.45649281 46 45 46
-1.32451046 -0.04153887 1.95357883 50 45 48
-1.31733751 -0.04141950 1.94796503 50 45 49
-1.15051317 -0.03864340 1.81740439 47 45 55
-1.14737189 -0.03864340 1.81740439 17 9 19
-1.14423072 -0.03864340 1.81740439 96 88 98
-1.14108944 -0.03864340 1.81740439 163 158 159
-1.13490558 -0.03854007 1.81254506 170 166 165
-1.13480699 -0.03864340 1.81740439 166 162 157
-1.13166571 -0.03864340 1.81740439 167 162 155
-1.12852454 -0.03864340 1.81740439 169 165 158
-1.12237418 -0.03854007 1.81254506 170 167 159
-1.12224209 -0.03864340 1.81740439 168 165 157
-1.11610854 -0.03854007 1.81254506 169 165 157
-1.10101128 -0.03823339 1.79812157 171 166 161
-1.17258418 -0.04251913 1.99968100 172 167 160
-1.16912782 -0.04251913 1.99968100 169 164 157
-1.15883482 -0.04226976 1.98795259 167 165 156
-1.16221523 -0.04251913 1.99968100 165 163 154
-1.15875900 -0.04251913 1.99968100 174 173 163
-0.23848742 -0.00970639 0.45649281 49 45 46
-0.23769841 -0.00970639 0.45649281 49 46 47
-0.23690940 -0.00970639 0.45649281 49 47 47
-0.23612039 -0.00970639 0.45649281 48 46 47
-0.23517302 -0.00969986 0.45618564 49 48 49
-0.23438454 -0.00969986 0.45618564 54 51 53
-1.35204303 -0.03827256 1.95922494 41 35 37
-1.34865665 -0.03827256 1.95922494 44 38 40
-1.34527028 -0.03827256 1.95922494 60 51 56
-1.34188390 -0.03827256 1.95922494 54 45 50
-1.34237731 -0.03838350 1.96490383 52 43 48
-1.33898115 -0.03838350 1.96490383 53 44 49
-1.33172488 -0.03827256 1.95922494 53 44 49
-1.32070434 -0.03805260 1.94796503 53 44 49
-1.31733751 -0.03805260 1.94796503 52 44 49
-1.30274010 -0.03772737 1.93131578 48 44 47
-1.14430404 -0.03540723 1.81254506 21 16 28
-1.14117122 -0.03540723 1.81254506 87 82 94
-1.13803840 -0.03540723 1.81254506 157 149 153
-1.13490558 -0.03540723 1.81254506 176 167 168
-1.13177276 -0.03540723 1.81254506 172 163 162
-1.12863994 -0.03540723 1.81254506 171 162 159
-1.12550712 -0.03540723 1.81254506 172 164 160
-1.12237418 -0.03540723 1.81254506 174 168 162
-1.11313224 -0.03531282 1.80771160 171 166 160
-1.11297572 -0.03540723 1.81254506 171 166 160
-1.09809852 -0.03503256 1.79336464 171 166 162
-1.17258418 -0.03906285 1.99968100 171 166 159
-1.15883482 -0.03883374 1.98795259 173 172 163
-1.16221523 -0.03906285 1.99968100 167 167 158
-1.15875900 -0.03906285 1.99968100 166 167 157
-0.23769841 -0.00891738 0.45649281 46 44 45
-0.23690940 -0.00891738 0.45649281 45 44 45
-0.23612039 -0.00891738 0.45649281 49 48 49
-0.23517302 -0.00891138 0.45618564 52 51 51
-0.23438454 -0.00891138 0.45618564 51 51 49
-0.23359606 -0.00891138 0.45618564 46 46 43
-0.23123062 -0.00891138 0.45618564 179 176 167
-0.23044214 -0.00891138 0.45618564 174 171 161
-0.22728822 -0.00891138 0.45618564 172 169 159
-0.22680499 -0.00892339 0.45680043 173 170 161
-1.35774028 -0.03468570 1.94796503 158 155 147
-1.35437334 -0.03468570 1.94796503 167 164 156
-1.35489988 -0.03478566 1.95357883 149 146 138
-1.35542941 -0.03488620 1.95922494 92 88 85
-1.35204303 -0.03488620 1.95922494 37 33 36
-1.34865665 -0.03488620 1.95922494 41 37 40
-1.34527028 -0.03488620 1.95922494 55 54 56
-1.34188390 -0.03488620 1.95922494 50 49 51
-1.33849764 -0.03488620 1.95922494 50 47 49
-1.33511126 -0.03488620 1.95922494 50 46 49
-1.33172488 -0.03488620 1.95922494 50 46 49
-1.32070434 -0.03468570 1.94796503 49 45 48
-1.31356287 -0.03458632 1.94238353 47 44 47
-1.30274010 -0.03438924 1.93131578 45 45 47
-1.29203987 -0.03419440 1.92037344 45 44 46
-1.12563014 -0.03218833 1.80771160 170 163 162
-1.12250566 -0.03218833 1.80771160 170 163 162
-1.11017179 -0.03210273 1.80290389 171 165 163
-1.10705566 -0.03210273 1.80290389 172 166 164
-1.09809852 -0.03193287 1.79336464 169 163 161
-1.08923566 -0.03176480 1.78392589 171 165 163
-1.15883482 -0.03539773 1.98795259 173 173 164
-1.15875900 -0.03560656 1.99968100 166 168 159
-0.23753846 -0.00812290 0.45618564 48 48 48
-0.23674998 -0.00812290 0.45618564 49 49 49
-0.23596150 -0.00812290 0.45618564 49 49 49
-0.23517302 -0.00812290 0.45618564 50 50 50
-0.23438454 -0.00812290 0.45618564 51 51 50
-0.23359606 -0.00812290 0.45618564 43 42 39
-0.23280758 -0.00812290 0.45618564 63 61 57
-0.23201910 -0.00812290 0.45618564 141 139 133
-0.23123062 -0.00812290 0.45618564 181 177 170
-0.23044214 -0.00812290 0.45618564 176 170 163
-0.22949921 -0.00811743 0.45587885 172 169 159
-0.22792332 -0.00811743 0.45587885 174 171 161
-0.22728822 -0.00812290 0.45618564 174 171 162
-0.22665225 -0.00812837 0.45649281 174 171 162
-1.35384989 -0.03122906 1.94238353 159 156 148
-1.35437334 -0.03131880 1.94796503 168 165 157
-1.35489988 -0.03140906 1.95357883 151 148 139
-1.35152328 -0.03140906 1.95357883 93 91 86
-1.34814668 -0.03140906 1.95357883 32 31 30
-1.34865665 -0.03149984 1.95922494 40 39 38
-1.34527028 -0.03149984 1.95922494 54 53 54
-1.34188390 -0.03149984 1.95922494 51 50 51
-1.33849764 -0.03149984 1.95922494 51 49 50
-1.33511126 -0.03149984 1.95922494 53 50 52
-1.33172488 -0.03149984 1.95922494 51 49 50
-1.32070434 -0.03131880 1.94796503 47 46 47
-1.31356287 -0.03122906 1.94238353 46 45 47
-1.29903913 -0.03096291 1.92582905 46 45 46
-1.28839004 -0.03078798 1.91494870 46 45 46
-1.08923566 -0.02868143 1.78392589 170 166 163
-1.08615232 -0.02868143 1.78392589 172 168 165
-1.16224313 -0.03205572 1.99379957 171 172 164
-1.15875900 -0.03215028 1.99968100 169 171 163
-0.23674998 -0.00733442 0.45618564 48 48 48
-0.23596150 -0.00733442 0.45618564 48 48 48
-0.23517302 -0.00733442 0.45618564 50 50 50
-0.23438454 -0.00733442 0.45618564 51 51 51
-0.23359606 -0.00733442 0.45618564 43 42 43
-0.23280758 -0.00733442 0.45618564 56 55 54
-0.23201910 -0.00733442 0.45618564 135 134 130
-0.23123062 -0.00733442 0.45618564 179 177 171
-0.23044214 -0.00733442 0.45618564 175 172 164
-0.22949921 -0.00732948 0.45587885 173 170 162
-0.22871126 -0.00732948 0.45587885 172 169 161
-0.22792332 -0.00732948 0.45587885 173 170 162
-0.22713536 -0.00732948 0.45587885 174 171 163
-0.22665225 -0.00733936 0.45649281 175 172 164
-0.22586325 -0.00733936 0.45649281 175 172 164
-0.22492278 -0.00733442 0.45618564 173 173 162
-0.22338267 -0.00730982 0.45465583 173 173 162
-1.35720718 -0.02787181 1.94238353 160 159 146
-1.35384989 -0.02787181 1.94238353 159 157 143
-1.35437334 -0.02795190 1.94796503 166 164 152
-1.35100651 -0.02795190 1.94796503 152 149 138
-1.35152328 -0.02803246 1.95357883 99 97 88
-1.34814668 -0.02803246 1.95357883 31 29 27
-1.34477007 -0.02803246 1.95357883 40 38 37
-1.34527028 -0.02811348 1.95922494 52 50 48
-1.34188390 -0.02811348 1.95922494 51 50 48
-1.33849764 -0.02811348 1.95922494 50 49 47
-1.33511126 -0.02811348 1.95922494 50 49 47
-1.33172488 -0.02811348 1.95922494 50 49 47
-1.32070434 -0.02795190 1.94796503 49 48 46
-1.31356287 -0.02787181 1.94238353 48 47 46
-1.29903913 -0.02763427 1.92582905 46 46 45
-1.28839004 -0.02747814 1.91494870 45 45 45
-1.08637679 -0.02553087 1.77924371 172 167 162
-1.08330154 -0.02553087 1.77924371 173 168 164
-1.16224313 -0.02860959 1.99379957 170 170 162
-1.15875900 -0.02869399 1.99968100 170 171 165
-0.23753846 -0.00654594 0.45618564 47 47 48
-0.23674998 -0.00654594 0.45618564 47 47 48
-0.23596150 -0.00654594 0.45618564 48 48 50
-0.23501486 -0.00654153 0.45587885 50 50 52
-0.23422691 -0.00654153 0.45587885 50 50 52
-0.23343895 -0.00654153 0.45587885 42 41 43
-0.23265101 -0.00654153 0.45587885 55 54 55
-0.23186307 -0.00654153 0.45587885 126 125 122
-0.23107511 -0.00654153 0.45587885 180 179 174
-0.23044214 -0.00654594 0.45618564 174 174 165
-0.22949921 -0.00654153 0.45587885 173 173 164
-0.22871126 -0.00654153 0.45587885 173 173 164
-0.22792332 -0.00654153 0.45587885 172 172 163
-0.22713536 -0.00654153 0.45587885 172 172 163
-0.22665225 -0.00655035 0.45649281 172 172 163
-0.22586325 -0.00655035 0.45649281 173 173 164
-0.22507423 -0.00655035 0.45649281 172 172 162
-0.22353259 -0.00652836 0.45496097 170 170 160
-1.35720718 -0.02451456 1.94238353 159 157 143
-1.35384989 -0.02451456 1.94238353 158 156 142
-1.35049260 -0.02451456 1.94238353 165 164 149
-1.35100651 -0.02458500 1.94796503 154 154 139
-1.34763956 -0.02458500 1.94796503 104 103 91
-1.34814668 -0.02465585 1.95357883 26 22 21
-1.34477007 -0.02465585 1.95357883 40 36 35
-1.34139347 -0.02465585 1.95357883 48 47 45
-1.34188390 -0.02472711 1.95922494 47 47 45
-1.33849764 -0.02472711 1.95922494 46 45 43
-1.33511126 -0.02472711 1.95922494 47 47 45
-1.33172488 -0.02472711 1.95922494 47 47 45
-1.32070434 -0.02458500 1.94796503 47 47 45
-1.31356287 -0.02451456 1.94238353 47 46 44
-1.29903913 -0.02430563 1.92582905 46 46 44
-1.28839004 -0.02416831 1.91494870 45 45 44
-1.08353293 -0.02239681 1.77458596 175 170 163
-1.08330154 -0.02245559 1.77924371 175 170 163
-1.16224313 -0.02516347 1.99379957 173 169 165
-1.15875900 -0.02523770 1.99968100 175 172 168
-0.23737870 -0.00575358 0.45587885 46 45 47
-0.23659076 -0.00575358 0.45587885 47 46 48
-0.23580281 -0.00575358 0.45587885 49 48 50
-0.23501486 -0.00575358 0.45587885 52 51 53
-0.23422691 -0.00575358 0.45587885 54 53 54
-0.23343895 -0.00575358 0.45587885 47 46 46
-0.23265101 -0.00575358 0.45587885 54 53 52
-0.23186307 -0.00575358 0.45587885 118 117 116
-0.23107511 -0.00575358 0.45587885 183 182 179
-0.23028716 -0.00575358 0.45587885 174 171 165
-0.22949921 -0.00575358 0.45587885 170 168 161
-0.22871126 -0.00575358 0.45587885 171 172 163
-0.22792332 -0.00575358 0.45587885 169 170 161
-0.22713536 -0.00575358 0.45587885 169 170 161
-0.22665225 -0.00576133 0.45649281 170 171 162
-0.22586325 -0.00576133 0.45649281 171 171 162
-0.22507423 -0.00576133 0.45649281 171 171 162
-0.22353259 -0.00574200 0.45496097 170 170 161
-1.35720718 -0.02115731 1.94238353 158 158 144
-1.35384989 -0.02115731 1.94238353 157 157 143
-1.35049260 -0.02115731 1.94238353 163 164 150
-1.35100651 -0.02121810 1.94796503 158 160 145
-1.34763956 -0.02121810 1.94796503 111 112 99
-1.34427261 -0.02121810 1.94796503 24 21 19
-1.34477007 -0.02127925 1.95357883 42 38 37
-1.34139347 -0.02127925 1.95357883 51 50 49
-1.33801687 -0.02127925 1.95357883 49 49 49
-1.33464026 -0.02127925 1.95357883 45 45 45
-1.33126366 -0.02127925 1.95357883 45 45 45
-1.32788706 -0.02127925 1.95357883 44 44 44
-1.31692016 -0.02115731 1.94238353 45 45 45
-1.30980980 -0.02109686 1.93683386 46 46 46
-1.29535913 -0.02091756 1.92037344 46 46 46
-1.28839004 -0.02085847 1.91494870 45 45 45
-1.29606378 -0.02103675 1.93131578 45 45 44
-1.08353293 -0.01932958 1.77458596 174 170 162
-1.08046567 -0.01932958 1.77458596 174 171 163
-1.15883482 -0.02165366 1.98795259 173 169 161
-1.16221523 -0.02178141 1.99968100 173 168 161
-1.15535092 -0.02171735 1.99379957 172 169 162
-1.11728358 -0.02178141 1.99968100 47 47 49
-0.23580281 -0.00496564 0.45587885 50 49 51
-0.23485692 -0.00496230 0.45557249 47 46 46
-0.23406950 -0.00496230 0.45557249 56 54 54
-0.23328207 -0.00496230 0.45557249 62 57 58
-0.23249465 -0.00496230 0.45557249 50 46 47
-0.23186307 -0.00496564 0.45587885 116 112 111
-0.23091982 -0.00496230 0.45557249 188 183 182
-0.23013240 -0.00496230 0.45557249 177 172 169
-0.22934498 -0.00496230 0.45557249 172 168 163
-0.22855756 -0.00496230 0.45557249 174 172 164
-0.22777013 -0.00496230 0.45557249 173 171 162
-0.22698271 -0.00496230 0.45557249 172 170 162
-0.22649974 -0.00496898 0.45618564 171 170 161
-0.22571126 -0.00496898 0.45618564 170 170 161
-0.22507423 -0.00497232 0.45649281 167 165 156
-0.22353259 -0.00495564 0.45496097 168 165 155
-1.36392164 -0.01780005 1.94238353 158 159 147
-1.35667706 -0.01774920 1.93683386 157 158 146
-1.35332942 -0.01774920 1.93683386 157 157 144
-1.34998178 -0.01774920 1.93683386 158 156 143
-1.35049260 -0.01780005 1.94238353 163 162 149
-1.34713542 -0.01780005 1.94238353 161 162 148
-1.34763956 -0.01785120 1.94796503 114 115 102
-1.34427261 -0.01785120 1.94796503 31 26 25
-1.34090579 -0.01785120 1.94796503 46 40 40
-1.34139347 -0.01790265 1.95357883 52 50 51
-1.33801687 -0.01790265 1.95357883 49 49 51
-1.33464026 -0.01790265 1.95357883 46 46 48
-1.33126366 -0.01790265 1.95357883 45 45 47
-1.32407129 -0.01785120 1.94796503 44 44 46
-1.31692016 -0.01780005 1.94238353 42 42 44
-1.30980980 -0.01774920 1.93683386 43 43 45
-1.29169989 -0.01754864 1.91494870 44 44 45
-1.28476083 -0.01749921 1.90955448 44 44 44
-1.29238176 -0.01764835 1.92582905 45 45 45
-1.09829271 -0.01639108 1.78863287 170 170 161
-1.09231901 -0.01634794 1.78392589 172 170 162
-1.08353293 -0.01626235 1.77458596 175 172 164
-1.08046567 -0.01626235 1.77458596 175 172 164
-1.15883482 -0.01821765 1.98795259 175 171 163
-1.15879703 -0.01827123 1.99379957 174 169 162
-1.15196276 -0.01821765 1.98795259 173 168 161
-1.15530264 -0.01832513 1.99968100 173 168 161
-1.15184641 -0.01832513 1.99968100 173 168 161
-1.14839017 -0.01832513 1.99968100 172 169 161
-1.14493382 -0.01832513 1.99968100 172 169 161
-1.14147758 -0.01832513 1.99968100 171 168 160
-1.13802123 -0.01832513 1.99968100 168 165 157
-1.13456500 -0.01832513 1.99968100 172 166 164
-1.13110864 -0.01832513 1.99968100 24 18 16
-1.12765241 -0.01832513 1.99968100 50 49 50
-1.12419617 -0.01832513 1.99968100 47 46 48
-1.12073982 -0.01832513 1.99968100 47 46 48
-1.11728358 -0.01832513 1.99968100 49 47 49
-1.11382723 -0.01832513 1.99968100 50 48 49
-1.10000217 -0.01832513 1.99968100 48 45 46
-1.09654582 -0.01832513 1.99968100 47 44 46
-0.23564434 -0.00417488 0.45557249 47 46 48
-0.23469919 -0.00417207 0.45526651 52 48 49
-0.23391230 -0.00417207 0.45526651 55 51 52
-0.23312540 -0.00417207 0.45526651 58 50 53
-0.23249465 -0.00417488 0.45557249 42 34 37
-0.23170725 -0.00417488 0.45557249 118 110 111
-0.23091982 -0.00417488 0.45557249 189 181 182
-0.23013240 -0.00417488 0.45557249 175 169 167
-0.22919095 -0.00417207 0.45526651 172 166 163
-0.22840406 -0.00417207 0.45526651 170 167 161
-0.22761717 -0.00417207 0.45526651 171 168 161
-0.22683027 -0.00417207 0.45526651 172 169 161
-0.22649974 -0.00418050 0.45618564 172 169 161
-0.22571126 -0.00418050 0.45618564 174 171 163
-1.36002469 -0.01440153 1.93683386 159 159 150
-1.35667706 -0.01440153 1.93683386 159 159 150
-1.35332942 -0.01440153 1.93683386 160 158 147
-1.34998178 -0.01440153 1.93683386 159 157 144
-1.34663415 -0.01440153 1.93683386 163 160 147
-1.34713542 -0.01444280 1.94238353 165 161 147
-1.34377813 -0.01444280 1.94238353 121 117 103
-1.34427261 -0.01448430 1.94796503 38 37 34
-1.34090579 -0.01448430 1.94796503 41 40 40
-1.33753884 -0.01448430 1.94796503 51 51 52
-1.33417201 -0.01448430 1.94796503 49 49 51
-1.33464026 -0.01452604 1.95357883 47 47 49
-1.32743812 -0.01448430 1.94796503 46 46 48
-1.32407129 -0.01448430 1.94796503 45 45 47
-1.31315744 -0.01440153 1.93683386 41 41 44
-1.30607820 -0.01436050 1.93131578 41 41 44
-1.29169989 -0.01423881 1.91494870 42 42 44
-1.28476083 -0.01419870 1.90955448 43 43 44
-1.29238176 -0.01431971 1.92582905 45 44 45
-1.09540236 -0.01326457 1.78392589 172 169 159
-1.09231901 -0.01326457 1.78392589 173 170 161
-1.08070385 -0.01316067 1.76995254 175 172 164
-1.07764459 -0.01316067 1.76995254 174 171 163
-1.15894675 -0.01465272 1.97061586 174 170 159
-1.15883482 -0.01478163 1.98795259 176 171 161
-1.15879703 -0.01482511 1.99379957 175 170 163
-1.15196276 -0.01478163 1.98795259 173 168 161
-1.15530264 -0.01486884 1.99968100 172 167 160
-1.15184641 -0.01486884 1.99968100 172 167 160
-1.14839017 -0.01486884 1.99968100 172 169 161
-1.14493382 -0.01486884 1.99968100 172 169 161
-1.14147758 -0.01486884 1.99968100 175 171 162
