ply
format ascii 1.0
element vertex 1064
property float x
property float y
property float z
property uchar red
property uchar green
property uchar blue
end_header
-0.45005238 -0.29044768 0.76977114 108 137 157
-0.45013471 -0.27053976 0.76991194 102 132 152
-0.45037609 -0.25021818 0.77006205 97 128 148
-0.45013309 -0.22964231 0.77017514 96 123 144
-0.45034483 -0.20942394 0.77027124 92 121 142
-0.45044210 -0.18949445 0.77043767 91 117 138
-0.45055166 -0.16956119 0.77062503 88 113 138
-0.44970585 -0.14950014 0.77086396 90 110 136
-0.44934661 -0.13357784 0.77147175 101 113 135
-0.44988012 -0.12472330 0.78499728 147 113 111
-0.44971523 -0.11037393 0.78544747 127 107 97
-0.44976070 -0.09001935 0.78552689 133 119 106
-0.44979633 -0.06965910 0.78558923 143 131 118
-0.44983580 -0.04997495 0.78565828 157 147 132
-0.44989237 -0.03028847 0.78575714 161 151 136
-0.44995098 -0.00991795 0.78585958 164 156 141
-0.45012476 0.01046142 0.78616304 166 146 134
-0.45000866 0.03025624 0.78834353 130 126 122
-0.44999520 0.04965200 0.79338291 145 146 143
-0.45004495 0.06712638 0.79794842 130 132 134
-0.44996750 0.07773851 0.80067858 130 134 137
-0.44998366 0.09062106 0.80395231 135 137 137
-0.45003048 0.11005830 0.80882953 138 139 139
-0.44999008 0.12969296 0.81365618 148 148 146
-0.44963295 0.14731925 0.81804963 125 123 119
-0.45025046 0.15723197 0.82080225 110 106 104
-0.45009107 0.16977120 0.82542772 77 68 69
-0.45010025 0.19009892 0.83122084 59 53 54
-0.44994426 0.21053607 0.83583874 47 46 49
-0.44936624 0.22549941 0.83897435 41 41 45
-0.45065377 0.23529237 0.84098432 39 38 43
-0.44999577 0.25047210 0.84395251 36 35 42
-0.44981983 0.27038289 0.84767782 33 32 39
-0.45014572 0.28986492 0.85116918 32 31 38
-0.45004231 0.30971900 0.85457812 31 30 37
-0.45008625 0.33014849 0.85790250 31 30 37
-0.44756599 0.34226794 0.85974750 31 31 35
-0.45048680 0.35143155 0.86120431 31 30 36
-0.45000015 0.36971626 0.86386016 30 29 36
-0.44977035 0.38985671 0.86648594 29 28 34
-0.45011574 0.40978797 0.86904520 28 28 32
-0.44984083 0.42994223 0.87144784 24 23 27
-0.45026892 0.45001123 0.87387214 0 0 0
-0.44993890 0.47028232 0.87582568 0 0 0
-0.44991655 0.49018492 0.87763939 0 0 0
-0.42998102 -0.54464810 0.81361107 0 0 0
-0.42975798 -0.52987643 0.81284615 0 0 0
-0.43011945 -0.51029899 0.81169778 0 0 0
-0.42991199 -0.48973285 0.81006933 0 0 0
-0.42990224 -0.46956547 0.80796227 0 0 0
-0.43171436 -0.44417350 0.79733260 67 85 97
-0.42996878 -0.45348865 0.80569681 3 4 5
-0.43104970 -0.42551911 0.77079379 120 158 177
-0.42455191 -0.43544405 0.78374807 117 155 175
-0.42998854 -0.41009112 0.76958060 121 157 175
-0.42992221 -0.39007783 0.76946156 116 155 173
-0.42988455 -0.37009601 0.76939424 115 152 168
-0.42987860 -0.35014341 0.76938358 114 149 166
-0.42992715 -0.33023330 0.76947048 112 145 164
-0.42999029 -0.31032938 0.76958349 111 143 162
-0.43004688 -0.29041509 0.76968469 109 137 157
-0.43011990 -0.27050585 0.76981531 104 133 152
-0.43018937 -0.25058793 0.76993952 99 129 150
-0.43024178 -0.22998890 0.77003329 97 124 146
-0.43031908 -0.20939686 0.77017198 94 121 143
-0.43042694 -0.18947661 0.77036516 93 117 139
-0.43052713 -0.16954340 0.77054439 90 114 138
-0.43008199 -0.14962946 0.77077893 90 112 136
-0.42986295 -0.13305890 0.77104505 102 113 135
-0.42990153 -0.12445634 0.78463095 155 119 117
-0.42985787 -0.11032979 0.78513301 128 108 95
-0.42989608 -0.08998218 0.78520268 132 115 102
-0.42992921 -0.06963015 0.78526314 142 132 118
-0.42998216 -0.04995590 0.78535990 156 146 132
-0.43004753 -0.03027774 0.78547940 160 152 136
-0.43011196 -0.00991463 0.78559713 163 155 140
-0.42990576 0.01063243 0.78590344 163 144 130
-0.43004524 0.03018879 0.78830536 125 121 118
-0.42997034 0.04956714 0.79337155 143 143 141
-0.42997406 0.06716967 0.79794303 128 130 132
-0.43004415 0.07776991 0.80063961 128 133 135
-0.42999029 0.09051256 0.80384557 134 138 139
-0.42997035 0.10998090 0.80870326 141 142 141
-0.43000526 0.12964934 0.81347267 143 144 142
-0.42990430 0.14812183 0.81794150 138 137 134
-0.43021120 0.15847557 0.82048814 116 117 114
-0.42997125 0.17030561 0.82371018 96 92 93
-0.43000018 0.19045479 0.83015669 68 62 63
-0.42997360 0.21021837 0.83490336 50 49 50
-0.42960098 0.22723846 0.83852195 43 42 47
-0.43103294 0.23717101 0.84060924 40 39 46
-0.42997345 0.25022717 0.84318291 38 37 44
-0.43001510 0.27038978 0.84702270 35 34 41
-0.42991008 0.28991707 0.85055022 33 32 39
-0.43010891 0.30955866 0.85394659 32 31 38
-0.43002525 0.33001506 0.85726528 31 30 37
-0.42874378 0.34400398 0.85942876 31 30 35
-0.43046271 0.35367785 0.86092754 31 30 37
-0.43016778 0.36992255 0.86330794 32 31 36
-0.43002405 0.39015500 0.86597108 32 32 37
-0.42987277 0.41003735 0.86854649 34 34 38
-0.42999612 0.43008099 0.87104730 20 20 24
-0.43000237 0.45024521 0.87353093 0 0 0
-0.43011793 0.47012249 0.87542739 0 0 0
-0.42974169 0.48996062 0.87722058 0 0 0
-0.41045133 -0.54473517 0.81318143 0 0 0
-0.40951477 -0.53022344 0.81241918 0 0 0
-0.41016844 -0.51021701 0.81128887 0 0 0
-0.40997133 -0.49010254 0.80976511 0 0 0
-0.40993522 -0.47021505 0.80774671 0 0 0
-0.40724655 -0.44132565 0.79799904 48 65 74
-0.40956980 -0.45232826 0.80542926 2 2 3
-0.41096375 -0.42366962 0.77042957 118 154 172
-0.41331064 -0.43766950 0.79003976 91 121 137
-0.40998604 -0.41004102 0.76948583 117 154 170
-0.40989797 -0.39000636 0.76932071 117 151 170
-0.40987185 -0.37003708 0.76927177 116 149 167
-0.40986852 -0.35008969 0.76926558 113 147 164
-0.40991592 -0.33018354 0.76935454 114 144 163
-0.40997317 -0.31028042 0.76946196 111 142 160
-0.41001799 -0.29036280 0.76954605 104 138 156
-0.41007388 -0.27044817 0.76965085 104 133 153
-0.41011614 -0.25051981 0.76972987 100 130 150
-0.41017064 -0.23059402 0.76983233 98 125 145
-0.41029485 -0.21003325 0.77006588 96 120 144
-0.41041665 -0.18945925 0.77029452 93 118 140
-0.41052691 -0.16953394 0.77050162 92 115 137
-0.41041751 -0.14974635 0.77069380 92 113 137
-0.40995923 -0.13198713 0.77143995 107 118 138
-0.41045862 -0.12336610 0.78457450 152 113 113
-0.41004489 -0.11029327 0.78487284 126 104 92
-0.41007226 -0.08995040 0.78492536 130 115 100
-0.41010081 -0.06960504 0.78498009 137 125 111
-0.41015444 -0.04993826 0.78508274 150 139 124
-0.41022772 -0.03026780 0.78522297 153 143 130
-0.41029646 -0.00991155 0.78535458 159 151 136
-0.41011448 0.01027983 0.78567734 159 137 129
-0.40999655 0.03032273 0.78834166 134 130 126
-0.41000725 0.04973348 0.79345194 143 142 142
-0.40998347 0.06717068 0.79795767 125 128 132
-0.40997534 0.07776930 0.80063362 124 126 129
-0.40997330 0.09064683 0.80384478 139 141 142
-0.40999476 0.10996461 0.80864070 144 145 145
-0.40996603 0.12959550 0.81335641 146 147 146
-0.41010494 0.14872531 0.81791258 141 142 142
-0.40945586 0.15909386 0.82038688 127 128 129
-0.41002464 0.17029087 0.82306313 116 118 118
-0.40988226 0.18997069 0.82829654 100 95 95
-0.41001608 0.21000687 0.83363016 63 62 64
-0.40967860 0.22921228 0.83804136 46 45 50
-0.41394488 0.23874107 0.84023678 41 41 47
-0.41005557 0.24993350 0.84233548 39 39 45
-0.40998825 0.27013428 0.84624598 37 36 43
-0.40998420 0.29051788 0.84998335 35 34 41
-0.40994743 0.31012804 0.85339976 34 33 41
-0.40998827 0.32977719 0.85660224 35 34 41
-0.40937392 0.34592519 0.85911699 38 38 43
-0.41086456 0.35588719 0.86066217 39 39 44
-0.41002781 0.37018618 0.86274995 45 44 48
-0.41006529 0.39009470 0.86543013 52 52 54
-0.41000706 0.40991570 0.86808745 61 60 62
-0.40992541 0.42983766 0.87071306 22 22 23
-0.40983989 0.44997926 0.87318072 0 0 0
-0.41022714 0.46999496 0.87509050 0 0 0
-0.40967875 0.48979212 0.87687650 0 0 0
-0.39019420 -0.54477658 0.81275399 0 0 0
-0.38983790 -0.53024590 0.81201195 0 0 0
-0.38999092 -0.50988048 0.81087156 0 0 0
-0.38999541 -0.49008526 0.80942627 0 0 0
-0.39007861 -0.47018705 0.80754322 0 0 0
-0.38985133 -0.45062328 0.80511932 1 2 2
-0.39235808 -0.42338855 0.77167843 117 151 167
-0.38761526 -0.43170778 0.78617873 108 148 161
-0.38994445 -0.40994480 0.76930552 117 150 166
-0.38987800 -0.38993199 0.76917421 115 148 165
-0.38986473 -0.36997753 0.76914808 114 147 163
-0.38986488 -0.35003634 0.76914831 114 145 162
-0.38990578 -0.33012963 0.76922890 113 142 160
-0.38995432 -0.31022509 0.76932465 110 140 158
-0.38999362 -0.29030853 0.76940213 106 137 155
-0.39002452 -0.27038227 0.76946287 103 134 152
-0.39003339 -0.25043863 0.76948018 101 129 149
-0.39008678 -0.23052000 0.76958556 98 126 146
-0.39025436 -0.20999242 0.76991651 96 121 143
-0.38049546 -0.20880863 0.78548405 136 135 137
-0.39037184 -0.18942333 0.77014837 95 119 141
-0.38020803 -0.19305087 0.78489069 136 138 141
-0.39050868 -0.16951555 0.77041862 94 115 139
-0.39039087 -0.14949839 0.77064373 92 114 136
-0.39042963 -0.13177979 0.77131802 105 117 138
-0.38962161 -0.12315764 0.78472461 165 121 121
-0.38963313 -0.11027567 0.78474900 139 111 101
-0.38966680 -0.08993796 0.78481659 140 112 102
-0.38970257 -0.06959682 0.78488805 145 121 109
-0.38975194 -0.04993227 0.78498692 150 128 116
-0.38980928 -0.03026317 0.78510198 154 137 122
-0.38988003 -0.00991008 0.78524464 157 139 128
-0.39004243 0.01045368 0.78557146 160 132 123
-0.39002449 0.03024158 0.78837682 138 133 129
-0.39000324 0.04960384 0.79347245 142 142 142
-0.39005397 0.06715457 0.79796730 131 133 137
-0.38991086 0.07776951 0.80063584 132 135 137
-0.38997520 0.09057170 0.80382126 137 139 140
-0.39002485 0.10999697 0.80860156 153 154 152
-0.38994507 0.12957497 0.81327408 159 160 156
-0.39007798 0.14869927 0.81779226 133 133 134
-0.38953689 0.15906642 0.82024542 136 138 138
-0.39002883 0.17025608 0.82289588 127 128 130
-0.38995917 0.18978712 0.82750413 128 128 128
-0.38999808 0.20953023 0.83226187 102 101 103
-0.38996800 0.22958683 0.83697070 81 80 84
-0.38737700 0.24184044 0.83950941 66 66 70
-0.39064899 0.25157571 0.84169975 54 54 60
-0.38996523 0.26990532 0.84529143 49 48 55
-0.38997206 0.29012753 0.84908826 48 47 54
-0.38980283 0.31019984 0.85264498 49 48 54
-0.39017410 0.32983863 0.85591905 54 54 58
-0.38968633 0.34765854 0.85876593 64 63 66
-0.39115274 0.35782775 0.86038110 70 70 72
-0.38995673 0.36983318 0.86217760 81 81 81
-0.38998295 0.38982553 0.86502658 94 94 92
-0.39008615 0.40998610 0.86789087 103 104 101
-0.39001652 0.43002414 0.87062978 12 12 12
-0.38978830 0.44981721 0.87291338 0 0 0
-0.39021024 0.46990604 0.87482795 0 0 0
-0.38979250 0.48969985 0.87661633 0 0 0
-0.37033709 -0.54449695 0.81233682 0 0 0
-0.37000058 -0.52997608 0.81159875 0 0 0
-0.36973960 -0.50946074 0.81045335 0 0 0
-0.37024821 -0.48987235 0.80907480 0 0 0
-0.36996861 -0.46988536 0.80725868 0 0 0
-0.36978086 -0.44990180 0.80486135 0 0 0
-0.37046207 -0.42112629 0.77046517 112 147 162
-0.36983446 -0.43345134 0.79165856 44 59 65
-0.36658124 -0.43863289 0.80105808 0 0 0
-0.36993248 -0.40987078 0.76916661 117 146 162
-0.36987082 -0.38986282 0.76903831 113 145 162
-0.36988110 -0.36993510 0.76905984 113 144 162
-0.36987486 -0.34999020 0.76904680 114 143 161
-0.36989810 -0.33007219 0.76909498 112 141 158
-0.36994296 -0.31017007 0.76918821 110 138 157
-0.36996825 -0.29024773 0.76924069 108 135 155
-0.36997774 -0.27031111 0.76926026 103 132 152
-0.36998178 -0.25036975 0.76926866 103 129 149
-0.37002547 -0.23045240 0.76935949 98 126 145
-0.37317653 -0.21307349 0.77117889 112 126 139
-0.37021037 -0.20850479 0.78544053 147 129 117
-0.37784587 -0.18955218 0.77176498 105 123 140
-0.36969089 -0.19001766 0.78555117 147 128 112
-0.37761627 -0.16918057 0.77174272 104 119 138
-0.37001691 -0.17025643 0.78541189 146 129 114
-0.37694402 -0.14989905 0.77160474 103 115 136
-0.36948147 -0.14980749 0.78532920 145 126 112
-0.37665840 -0.13225774 0.77165091 103 115 138
-0.36934861 -0.12997697 0.78517475 146 127 110
-0.36957394 -0.11036143 0.78535625 150 124 102
-0.36954725 -0.08999350 0.78529989 151 123 102
-0.36952994 -0.06963044 0.78526329 151 125 100
-0.36951163 -0.04994752 0.78522419 148 121 100
-0.36952378 -0.03026908 0.78524994 147 120 99
-0.36958070 -0.00991172 0.78537061 144 116 96
-0.36968164 0.01045347 0.78558463 143 115 96
-0.37005274 0.03020723 0.78842870 143 139 134
-0.36994167 0.04961345 0.79351862 144 143 142
-0.37000196 0.06717334 0.79799074 127 131 134
-0.37001489 0.07780586 0.80064790 130 133 135
-0.37002828 0.09055690 0.80381654 141 142 142
-0.37000538 0.10998964 0.80854758 148 148 145
-0.37002972 0.12959981 0.81320797 140 140 138
-0.36983758 0.14932185 0.81785578 136 137 138
-0.37077040 0.15960609 0.82028710 131 135 135
-0.37005588 0.17022809 0.82276121 123 126 128
-0.37004175 0.18970360 0.82724373 128 130 130
-0.36997429 0.20942181 0.83167100 149 149 144
-0.37004196 0.22933959 0.83607071 132 131 129
-0.36941517 0.24370579 0.83916484 106 106 108
-0.37038812 0.25351487 0.84120091 103 106 108
-0.37001436 0.26948582 0.84437032 97 97 99
-0.36991599 0.28984073 0.84827091 83 84 86
-0.37001796 0.31028951 0.85201622 81 82 84
-0.36997588 0.33006203 0.85547263 79 80 83
-0.37003819 0.34821958 0.85857253 86 89 90
-0.36990189 0.35865567 0.86030957 89 90 91
-0.37005292 0.36975949 0.86209150 94 95 95
-0.36998361 0.38960698 0.86501752 113 114 111
-0.36993382 0.40972723 0.86792338 111 112 110
-0.37002078 0.42997989 0.87056258 0 0 0
-0.36995763 0.44981159 0.87271742 0 0 0
-0.36999543 0.46967272 0.87459018 0 0 0
-0.37000116 0.48957525 0.87639323 0 0 0
-0.35048880 -0.54419967 0.81189333 0 0 0
-0.35017749 -0.52969746 0.81117212 0 0 0
-0.34976098 -0.51003662 0.81009221 0 0 0
-0.35013488 -0.49045703 0.80875878 0 0 0
-0.34989384 -0.46962467 0.80691985 0 0 0
-0.35002197 -0.44959953 0.80450140 0 0 0
-0.35334656 -0.42124228 0.77363074 110 140 159
-0.34655585 -0.42782323 0.78695044 69 97 103
-0.34945614 -0.43781455 0.80213887 2 4 4
-0.35009263 -0.40886504 0.76900349 114 144 160
-0.34988604 -0.38981100 0.76893635 115 142 159
-0.34990929 -0.36990039 0.76898762 114 142 159
-0.34989684 -0.34995082 0.76896017 114 141 159
-0.34990680 -0.33002373 0.76898197 112 139 158
-0.34993528 -0.31011208 0.76904430 107 137 155
-0.34995306 -0.29018843 0.76908336 108 134 154
-0.34994502 -0.27024277 0.76906554 104 132 151
-0.34994027 -0.25030022 0.76905509 101 128 149
-0.34999257 -0.23039565 0.76917020 101 125 145
-0.34926228 -0.21546192 0.77039937 109 125 138
-0.35037190 -0.20694702 0.78512221 148 128 111
-0.34983347 -0.19041741 0.78522431 149 127 105
-0.34983321 -0.17005934 0.78522424 149 126 103
-0.34984912 -0.14970824 0.78526039 148 124 99
-0.34986994 -0.13003577 0.78530725 149 126 102
-0.34988425 -0.11035892 0.78533952 149 124 101
-0.34989151 -0.08999984 0.78535608 150 127 102
-0.34989659 -0.06963962 0.78536758 151 126 100
-0.34988417 -0.04995487 0.78533987 146 121 98
-0.34989747 -0.03027371 0.78536973 144 119 94
-0.34991994 -0.00991258 0.78541997 142 117 92
-0.34997313 0.01045269 0.78553922 139 114 94
-0.34997276 0.03025280 0.78848939 142 140 135
-0.35002141 0.04968742 0.79357585 147 147 146
-0.35001372 0.06717575 0.79801605 133 135 137
-0.34996593 0.07773407 0.80064572 128 132 136
-0.35003004 0.09062466 0.80383570 139 140 142
-0.35000074 0.10998596 0.80852185 144 144 142
-0.35007527 0.12960936 0.81315653 145 146 144
-0.34988978 0.14939068 0.81780553 140 140 139
-0.34984041 0.15977510 0.82024524 127 129 131
-0.35004382 0.17019640 0.82264620 124 128 130
-0.35005812 0.18965386 0.82706200 123 125 126
-0.34990967 0.20935843 0.83141958 140 140 137
-0.34996203 0.22930611 0.83577357 128 128 126
-0.34988384 0.24416833 0.83896814 110 112 114
-0.35034012 0.25419054 0.84104282 100 104 107
-0.35002140 0.26952225 0.84409674 108 111 113
-0.34994233 0.28976487 0.84797691 96 99 100
-0.34998989 0.31017415 0.85179101 105 107 107
-0.34997679 0.32995804 0.85536916 90 93 96
-0.35024593 0.34805443 0.85857637 91 94 95
-0.34886431 0.35825031 0.86034013 116 118 117
-0.35005342 0.37000246 0.86226064 113 116 114
-0.34999064 0.39007335 0.86527280 113 114 112
-0.35006641 0.40987536 0.86811300 80 83 83
-0.34980473 0.42966451 0.87046536 0 0 0
-0.35022182 0.44978871 0.87257054 0 0 0
-0.34975719 0.46941407 0.87440119 0 0 0
-0.35023110 0.48946629 0.87619822 0 0 0
-0.33016633 -0.54393688 0.81140621 0 0 0
-0.33055146 -0.52974772 0.81073283 0 0 0
-0.32975534 -0.51018739 0.80967017 0 0 0
-0.32993470 -0.49005538 0.80830931 0 0 0
-0.33021466 -0.47010727 0.80662595 0 0 0
-0.32989499 -0.45008760 0.80434884 0 0 0
-0.33595885 -0.42227410 0.77979827 102 142 155
-0.32994433 -0.42826557 0.79150166 69 88 95
-0.32933657 -0.43667854 0.80203016 0 0 0
-0.33011471 -0.40822632 0.76915750 114 141 155
-0.32992816 -0.38978502 0.76888478 114 140 156
-0.32994218 -0.36986663 0.76891732 113 141 158
-0.32991989 -0.34990766 0.76886525 112 140 157
-0.32991888 -0.32997264 0.76886275 110 137 156
-0.32993190 -0.31005109 0.76889300 109 136 153
-0.32994846 -0.29013119 0.76893161 107 133 152
-0.32993307 -0.27018315 0.76889571 104 131 149
-0.32992626 -0.25024315 0.76887973 103 127 147
-0.32997663 -0.23034374 0.76899697 100 124 145
-0.32960045 -0.21373308 0.76965345 108 124 141
-0.33063541 -0.20528788 0.78471009 151 133 113
-0.33003722 -0.19035022 0.78494715 150 128 106
-0.33006904 -0.17001555 0.78502295 149 125 102
-0.33010167 -0.14967775 0.78510060 147 123 99
-0.33012809 -0.13001195 0.78516351 150 127 102
-0.33014236 -0.11033886 0.78519735 149 126 100
-0.33016163 -0.08998687 0.78524305 152 129 102
-0.33017597 -0.06963151 0.78527732 151 126 101
-0.33017562 -0.04995085 0.78527658 145 122 95
-0.33018063 -0.03027061 0.78528845 144 119 94
-0.33019586 -0.00991140 0.78532464 142 116 90
-0.33025025 0.01045154 0.78545418 137 114 93
-0.32997959 0.03030418 0.78853195 140 138 133
-0.33004325 0.04964738 0.79358000 140 140 141
-0.33002202 0.06717710 0.79803580 125 128 132
-0.33006638 0.07782158 0.80068059 126 129 132
-0.32998934 0.09056146 0.80382471 141 141 142
-0.33005531 0.10996159 0.80851007 146 146 145
-0.33003083 0.12952573 0.81309532 146 146 143
-0.32990601 0.14941691 0.81773917 143 144 142
-0.32995786 0.15975849 0.82015998 127 130 131
-0.33004326 0.17018407 0.82254912 121 124 127
-0.33010325 0.18970741 0.82695109 125 127 129
-0.32978355 0.20955174 0.83131225 146 146 144
-0.33009365 0.23015299 0.83578959 141 142 139
-0.33019737 0.24533742 0.83906167 114 117 119
-0.32986158 0.25474877 0.84102757 107 112 116
-0.33000099 0.26945268 0.84398029 106 110 113
-0.32997874 0.28981133 0.84796693 96 99 102
-0.32996875 0.31032256 0.85187729 103 105 105
-0.33001866 0.33011480 0.85555001 101 103 105
-0.33026815 0.34730281 0.85864507 99 102 102
-0.32936955 0.35778195 0.86047251 100 106 106
-0.33009207 0.36984265 0.86245891 99 103 104
-0.32988943 0.38978761 0.86543339 104 107 109
-0.33011046 0.41017347 0.86829229 48 50 51
-0.32987471 0.42983141 0.87043824 0 0 0
-0.33003249 0.45049252 0.87252460 0 0 0
-0.32989600 0.47022512 0.87432926 0 0 0
-0.33027522 0.48949396 0.87601767 0 0 0
-0.30999722 -0.54396220 0.81088410 0 0 0
-0.31015957 -0.53047320 0.81025384 0 0 0
-0.31016400 -0.51022726 0.80919878 0 0 0
-0.30978222 -0.48967770 0.80779114 0 0 0
-0.31022647 -0.47011179 0.80616887 0 0 0
-0.31000745 -0.44993973 0.80392166 0 0 0
-0.31070019 -0.42911447 0.79623786 32 39 44
-0.30899138 -0.43567917 0.80165802 0 0 0
-0.31025660 -0.40754522 0.76974199 113 137 150
-0.30122098 -0.41959563 0.78234330 110 136 150
-0.30997023 -0.38975556 0.76882611 113 138 153
-0.30997366 -0.36982680 0.76883447 112 138 154
-0.30994627 -0.34986277 0.76876656 110 137 154
-0.30993972 -0.32992441 0.76875027 109 134 153
-0.30994681 -0.31000064 0.76876783 108 133 151
-0.30995728 -0.29007916 0.76879370 104 131 150
-0.30994115 -0.27013329 0.76875377 101 130 147
-0.30992453 -0.25018873 0.76871238 101 127 146
-0.30996543 -0.23028886 0.76881370 99 122 145
-0.30977346 -0.21193823 0.76947262 103 122 139
-0.31022976 -0.20345041 0.78449644 150 135 116
-0.30965425 -0.19025947 0.78464878 152 129 107
-0.30962905 -0.16996738 0.78480109 148 124 101
-0.30967510 -0.14964286 0.78491803 148 124 100
-0.30969876 -0.12998130 0.78497804 150 126 100
-0.30971183 -0.11031275 0.78501113 151 127 100
-0.30972513 -0.08996414 0.78504484 150 125 100
-0.30974664 -0.06961570 0.78509944 150 127 101
-0.30975293 -0.04994056 0.78511545 147 123 95
-0.30975902 -0.03026455 0.78513095 144 119 94
-0.30976770 -0.00990925 0.78515296 142 116 92
-0.30983049 0.01044997 0.78531244 139 116 95
-0.31008374 0.03023425 0.78853630 135 132 129
-0.31000083 0.04965693 0.79357429 137 138 140
-0.31001990 0.06717706 0.79803144 132 134 136
-0.31001608 0.07772426 0.80066126 127 129 131
-0.31003895 0.09053984 0.80381914 146 146 144
-0.31000174 0.10992964 0.80848894 149 149 149
-0.30994465 0.12960857 0.81308618 133 134 135
-0.30999154 0.14940012 0.81768986 135 135 134
-0.31008908 0.15974685 0.82010020 128 130 132
-0.31005835 0.17015337 0.82247623 118 121 123
-0.31011739 0.18965583 0.82686399 120 122 123
-0.30997783 0.21004001 0.83133482 120 121 120
-0.30993069 0.23066371 0.83583639 124 126 128
-0.30998315 0.24536198 0.83899618 110 114 116
-0.31009596 0.25462127 0.84092940 101 104 107
-0.31000772 0.26929568 0.84389936 107 110 110
-0.30998636 0.28964329 0.84798298 97 100 104
-0.31002245 0.31008801 0.85194420 116 117 117
-0.30999713 0.32996669 0.85568248 121 122 122
-0.31003003 0.34697690 0.85879120 115 118 117
-0.30997466 0.35724162 0.86058540 100 102 102
-0.31005091 0.37026545 0.86275817 93 98 100
-0.30998647 0.39016470 0.86566085 144 146 145
-0.30988506 0.40985928 0.86831407 43 43 42
-0.31017523 0.42990325 0.87038789 0 0 0
-0.30980122 0.45021437 0.87237187 0 0 0
-0.31012987 0.47019235 0.87415223 0 0 0
-0.31001435 0.48926058 0.87578825 0 0 0
-0.28957129 -0.54381880 0.81028058 0 0 0
-0.28985142 -0.52998903 0.80964391 0 0 0
-0.29037568 -0.50986262 0.80862056 0 0 0
-0.29004252 -0.48996795 0.80727538 0 0 0
-0.28982447 -0.47017742 0.80563490 0 0 0
-0.28998953 -0.45035603 0.80352020 0 0 0
-0.28930054 -0.42465614 0.79253422 66 81 89
-0.29009746 -0.43536925 0.80126905 0 0 0
-0.29030883 -0.40585498 0.76928430 110 135 147
-0.28953363 -0.41992309 0.78548521 108 136 147
-0.29000868 -0.38971689 0.76874986 112 134 150
-0.29000494 -0.36978126 0.76873981 111 135 150
-0.28998387 -0.34982524 0.76868407 110 134 150
-0.28997351 -0.32988420 0.76865649 108 133 151
-0.28997412 -0.30995640 0.76865804 106 130 148
-0.28997786 -0.29003169 0.76866786 104 128 147
-0.28996423 -0.27009039 0.76863168 102 127 145
-0.28994441 -0.25014543 0.76857917 98 124 144
-0.28996859 -0.23023775 0.76864317 96 121 141
-0.28976257 -0.21039076 0.76935114 102 119 138
-0.29194742 -0.20208952 0.78397262 152 135 123
-0.28987715 -0.19021646 0.78431623 152 129 108
-0.28982638 -0.16988859 0.78443793 150 126 103
-0.28988654 -0.14958242 0.78460114 149 126 101
-0.28992349 -0.12993542 0.78470146 152 127 101
-0.28993715 -0.11027448 0.78473850 152 126 100
-0.28994766 -0.08993228 0.78476700 150 125 100
-0.28997106 -0.06959183 0.78483037 150 126 101
-0.28998176 -0.04992427 0.78485942 146 121 94
-0.28999312 -0.03025521 0.78489024 144 118 94
-0.29001226 -0.00990649 0.78494232 142 116 92
-0.29000286 0.01053176 0.78517744 136 112 92
-0.29001890 0.03025386 0.78851918 129 128 127
-0.29006244 0.04965950 0.79356216 137 138 139
-0.29001461 0.06717561 0.79801764 131 133 136
-0.29010880 0.07781029 0.80068056 143 143 147
-0.28999458 0.09061830 0.80383895 146 145 144
-0.28995113 0.11005167 0.80850585 135 137 139
-0.28996404 0.12959255 0.81307389 132 135 137
-0.29003470 0.14938022 0.81766562 134 134 135
-0.29023328 0.15974072 0.82006876 114 115 119
-0.29002923 0.17013480 0.82242428 114 119 123
-0.29003197 0.18960849 0.82679386 115 119 122
-0.28999018 0.21005646 0.83126925 105 108 111
-0.28996214 0.23066341 0.83577852 133 135 136
-0.28978308 0.24539579 0.83896243 120 124 125
-0.29022287 0.25459392 0.84089494 109 110 113
-0.28998306 0.26946502 0.84394311 95 99 101
-0.28999762 0.28987997 0.84809537 109 112 113
-0.29001429 0.31048279 0.85213689 106 109 109
-0.28995398 0.33035751 0.85589516 107 109 110
-0.29018101 0.34619331 0.85879526 114 117 118
-0.28973364 0.35671434 0.86062470 103 106 111
-0.28997810 0.37001415 0.86285886 153 155 154
-0.29000302 0.39015340 0.86577511 185 187 180
-0.29005114 0.41002555 0.86832156 6 7 6
-0.29001255 0.42979317 0.87029258 0 0 0
-0.28985079 0.45031652 0.87223429 0 0 0
-0.29035438 0.47013773 0.87395237 0 0 0
-0.28969968 0.48894531 0.87553671 0 0 0
-0.26974056 -0.54336798 0.80960887 0 0 0
-0.26957778 -0.52960528 0.80896043 0 0 0
-0.27039593 -0.50995930 0.80798344 0 0 0
-0.26997262 -0.49016798 0.80666359 0 0 0
-0.26975834 -0.46990644 0.80501438 0 0 0
-0.27015451 -0.45023751 0.80302712 0 0 0
-0.26847980 -0.42678917 0.79754464 20 27 28
-0.27015540 -0.43512651 0.80089444 0 0 0
-0.27026541 -0.40541115 0.76964586 110 134 144
-0.26772298 -0.41842746 0.78522629 110 130 142
-0.27005125 -0.38967885 0.76867430 110 133 144
-0.27003988 -0.36973398 0.76864172 109 132 147
-0.27002224 -0.34978313 0.76859140 107 131 145
-0.27000418 -0.32983421 0.76853992 106 129 144
-0.27000192 -0.30990617 0.76853342 104 127 143
-0.27000263 -0.28998172 0.76853541 102 125 144
-0.26999095 -0.27004486 0.76850217 100 123 142
-0.26997485 -0.25010549 0.76845654 98 120 141
-0.27000189 -0.23020487 0.76853368 97 117 138
-0.27012005 -0.21029677 0.76876923 97 116 136
-0.27598048 -0.20086355 0.78361937 141 129 123
-0.26822209 -0.19925526 0.77152684 118 120 126
-0.27008015 -0.18995933 0.78386701 153 130 107
-0.27002263 -0.16979793 0.78401959 150 126 103
-0.27010064 -0.14951462 0.78424636 150 124 102
-0.27014989 -0.12988377 0.78438959 154 130 103
-0.27016625 -0.11023209 0.78443712 152 128 100
-0.27017692 -0.08989805 0.78446815 150 125 101
-0.27019930 -0.06956547 0.78453312 151 126 101
-0.27021519 -0.04990641 0.78457936 147 120 97
-0.27023181 -0.03024502 0.78462765 145 119 94
-0.27026947 -0.00990371 0.78473727 142 116 91
-0.27030385 0.01036850 0.78508533 136 113 96
-0.26996422 0.03019983 0.78850687 128 127 128
-0.27001865 0.04960766 0.79353184 144 144 145
-0.27000632 0.06717389 0.79799324 147 147 149
-0.27004804 0.07773522 0.80064500 152 152 152
-0.26999496 0.09062097 0.80383226 154 154 152
-0.27000897 0.10996524 0.80848195 126 129 133
-0.27003612 0.12954390 0.81305698 141 143 144
-0.27003111 0.14934798 0.81765710 128 129 131
-0.27038626 0.15973894 0.82005961 127 128 130
-0.27000950 0.17012060 0.82239337 121 123 127
-0.26995813 0.18963284 0.82676374 108 110 114
-0.27002187 0.21009424 0.83125791 114 116 119
-0.27000155 0.23077156 0.83576182 121 122 121
-0.26996260 0.24537430 0.83894619 129 130 128
-0.26999061 0.25463932 0.84090021 110 112 114
-0.26997132 0.26952743 0.84400789 121 123 122
-0.27001379 0.28987844 0.84818560 126 127 127
-0.27000003 0.31033908 0.85221930 109 110 112
-0.27002991 0.33005276 0.85595735 118 121 122
-0.27000897 0.34627789 0.85890705 151 152 151
-0.26996216 0.35651902 0.86069466 176 177 171
-0.26999779 0.37040468 0.86303546 190 191 183
-0.26993692 0.38999990 0.86579911 161 162 155
-0.27012712 0.41015548 0.86824394 0 0 0
-0.26977790 0.42953858 0.87011141 0 0 0
-0.27018435 0.45020329 0.87201512 0 0 0
-0.27013511 0.47005188 0.87371049 0 0 0
-0.26969177 0.48896895 0.87530818 0 0 0
-0.25047305 -0.54319948 0.80889503 0 0 0
-0.24964222 -0.53014849 0.80826210 0 0 0
-0.24965592 -0.51014502 0.80726540 0 0 0
-0.25027280 -0.49022079 0.80600822 0 0 0
-0.25000894 -0.46974187 0.80437555 0 0 0
-0.24990227 -0.44986488 0.80238199 0 0 0
-0.24881987 -0.42837789 0.79918924 4 5 5
-0.25079824 -0.43626985 0.80064075 0 0 0
-0.25035003 -0.40508470 0.77028885 109 132 140
-0.24313967 -0.41626979 0.78473998 93 111 112
-0.25010617 -0.38965408 0.76862434 109 130 140
-0.25007768 -0.36968337 0.76853644 107 129 141
-0.25005904 -0.34973209 0.76847920 107 128 140
-0.25003885 -0.32978153 0.76841715 106 128 141
-0.25003547 -0.30985509 0.76840675 103 125 141
-0.25003352 -0.28993091 0.76840071 100 123 141
-0.25002342 -0.26999832 0.76836977 98 121 139
-0.25001522 -0.25006902 0.76834460 97 118 138
-0.25004698 -0.23017737 0.76844199 94 115 136
-0.25011295 -0.21031005 0.76864435 95 114 136
-0.24946494 -0.19799627 0.77074855 117 124 133
-0.25003961 -0.18885844 0.78351102 153 131 110
-0.24957716 -0.16971743 0.78364681 151 126 105
-0.24979379 -0.14993397 0.78388950 152 128 103
-0.24956980 -0.13033286 0.78404721 153 129 105
-0.24972758 -0.11018741 0.78411932 150 126 100
-0.24974147 -0.08986306 0.78416302 150 124 99
-0.24976284 -0.06953858 0.78423004 151 125 102
-0.24978042 -0.04988770 0.78428524 148 122 98
-0.24979896 -0.03023404 0.78434360 144 118 94
-0.24983381 -0.00990012 0.78445296 143 117 94
-0.24998288 0.01044631 0.78492200 140 118 100
-0.25001350 0.03032773 0.78854987 126 126 127
-0.24998039 0.04965727 0.79353076 146 146 146
-0.24994101 0.06714619 0.79797499 146 147 148
-0.25014423 0.07776971 0.80063778 146 147 150
-0.24999448 0.09046854 0.80378594 150 150 149
-0.25001676 0.10984167 0.80845481 131 132 135
-0.25001292 0.12943238 0.81303791 126 129 133
-0.24998072 0.14927240 0.81765946 136 138 139
-0.25054640 0.15974142 0.82007232 116 122 125
-0.24994891 0.17006625 0.82239077 119 123 127
-0.24995398 0.18963428 0.82677001 117 120 123
-0.25001371 0.21009003 0.83126997 116 119 121
-0.24995429 0.23072915 0.83578324 126 127 129
-0.25027854 0.24527284 0.83893319 106 109 111
-0.24976527 0.25469234 0.84093070 111 113 114
-0.25001508 0.26940510 0.84403520 120 123 121
-0.25008387 0.28968759 0.84823359 126 129 129
-0.24992344 0.31027449 0.85231281 119 123 125
-0.25002274 0.33044736 0.85614242 165 167 162
-0.25000817 0.34614058 0.85897567 189 190 184
-0.25003219 0.35669638 0.86080123 178 179 177
-0.24988799 0.37007344 0.86303620 190 191 183
-0.25011896 0.39026285 0.86580391 124 124 119
-0.24984101 0.40973219 0.86805398 0 0 0
-0.24998785 0.42957389 0.86991756 0 0 0
-0.25022073 0.45025659 0.87178298 0 0 0
-0.24975013 0.46964992 0.87342451 0 0 0
-0.24995619 0.48883618 0.87507043 0 0 0
-0.23012183 -0.54303531 0.80807277 0 0 0
-0.22996045 -0.53009508 0.80750644 0 0 0
-0.22968192 -0.50993750 0.80652883 0 0 0
-0.22992830 -0.48959629 0.80528261 0 0 0
-0.23028762 -0.46999401 0.80377798 0 0 0
-0.22987697 -0.45001511 0.80179878 0 0 0
-0.22936780 -0.42967391 0.79900497 0 0 0
-0.23221359 -0.43752034 0.80028949 0 0 0
-0.23027356 -0.40310500 0.76894223 108 129 135
-0.22997325 -0.41617071 0.78609072 93 112 120
-0.23013789 -0.38958492 0.76848758 107 128 137
-0.23011148 -0.36961768 0.76839987 107 128 137
-0.23009677 -0.34967363 0.76835087 105 127 138
-0.23008299 -0.32973336 0.76830488 105 125 136
-0.23007616 -0.30980484 0.76828204 102 122 138
-0.23007344 -0.28988267 0.76827293 98 121 137
-0.23006645 -0.26995608 0.76824964 98 118 137
-0.23006034 -0.25003144 0.76822919 96 116 135
-0.23008317 -0.23013672 0.76830543 93 113 134
-0.23013531 -0.21026494 0.76847943 92 111 133
-0.22991013 -0.19640518 0.76928450 113 121 135
-0.23013138 -0.18775304 0.78329769 153 130 112
-0.22984649 -0.16965094 0.78333836 151 126 102
-0.22989049 -0.15004702 0.78348716 155 131 108
-0.22993331 -0.13043555 0.78363303 153 128 105
-0.22997012 -0.11013663 0.78375894 151 125 104
-0.23000167 -0.08982909 0.78386746 150 124 102
-0.23001694 -0.06951107 0.78391945 151 125 101
-0.23002852 -0.04986693 0.78395868 148 120 99
-0.23004670 -0.03022163 0.78402040 144 116 94
-0.23006371 -0.00989555 0.78407726 142 116 95
-0.22992205 0.01061980 0.78471480 146 125 109
-0.23001130 0.03026478 0.78855030 127 127 129
-0.22999177 0.04969804 0.79353041 147 147 147
-0.22999613 0.06717046 0.79795273 142 142 144
-0.23006873 0.07776635 0.80060319 144 145 145
-0.22994690 0.09071505 0.80383783 147 147 146
-0.23002243 0.11012139 0.80852271 126 128 133
-0.22999652 0.12970466 0.81313360 129 131 134
-0.23004061 0.14939788 0.81771983 130 132 134
-0.22999993 0.15974576 0.82009462 110 112 115
-0.22994515 0.17015999 0.82243354 119 121 124
-0.22990442 0.18960206 0.82680002 112 115 119
-0.22996292 0.21007458 0.83131047 114 115 117
-0.22996539 0.23074263 0.83583081 107 109 111
-0.23022470 0.24536121 0.83899338 105 107 109
-0.22992024 0.25469400 0.84099160 132 134 133
-0.22999943 0.26934268 0.84406956 118 121 123
-0.22996419 0.28998137 0.84834611 118 121 121
-0.22988437 0.31063120 0.85246748 164 165 161
-0.23007682 0.33013362 0.85615796 190 191 182
-0.22996543 0.34633677 0.85905325 193 194 186
-0.22997281 0.35656358 0.86079997 185 185 182
-0.23011413 0.37024607 0.86305247 187 188 180
-0.22990398 0.38995160 0.86568180 95 96 91
-0.22976406 0.41000823 0.86789589 0 0 0
-0.23039590 0.42973237 0.86971324 0 0 0
-0.22982967 0.44976508 0.87149627 0 0 0
-0.22971100 0.47034492 0.87323382 0 0 0
-0.23035867 0.48936103 0.87488120 0 0 0
-0.21035893 -0.54249617 0.80727050 0 0 0
-0.21021958 -0.52958906 0.80673571 0 0 0
-0.21012470 -0.50967490 0.80581557 0 0 0
-0.20958127 -0.49012677 0.80464398 0 0 0
-0.20998607 -0.47033666 0.80317639 0 0 0
-0.20360224 -0.44008152 0.79991667 0 0 0
-0.21034576 -0.45007471 0.80128136 0 0 0
-0.20958150 -0.43054856 0.79865049 0 0 0
-0.21746445 -0.43877234 0.80005054 0 0 0
-0.21065468 -0.40328060 0.76944737 107 128 134
-0.20934365 -0.41674093 0.78831106 53 67 69
-0.21016264 -0.38949012 0.76830041 108 127 134
-0.21015085 -0.36954918 0.76825760 107 126 136
-0.21014087 -0.34961459 0.76822118 104 124 136
-0.21013352 -0.32968597 0.76819452 101 123 136
-0.21012852 -0.30976220 0.76817629 101 121 136
-0.21012673 -0.28984375 0.76816980 100 118 135
-0.21011996 -0.26991933 0.76814501 98 117 135
-0.21011612 -0.24999948 0.76813105 94 114 133
-0.21014247 -0.23011338 0.76822747 93 112 133
-0.21019370 -0.21024735 0.76841525 93 110 132
-0.20955786 -0.19462816 0.76949993 105 113 131
-0.21086672 -0.18569337 0.78322755 148 126 110
-0.20198062 -0.16420585 0.77769983 125 116 118
-0.21130027 -0.17022811 0.78308227 148 125 106
-0.20184917 -0.14968315 0.77460683 122 116 114
-0.21285703 -0.14997243 0.78309727 154 131 111
-0.20183232 -0.12958870 0.77454184 115 110 112
-0.21290832 -0.13037775 0.78328624 152 128 108
-0.20175553 -0.10982715 0.77433588 106 106 110
-0.21295226 -0.11009279 0.78344706 150 126 106
-0.20158592 -0.08999005 0.77359940 66 62 64
-0.21301358 -0.08984641 0.78351601 150 126 105
-0.20221722 -0.06972039 0.77356931 82 78 76
-0.21370077 -0.06963080 0.78374352 149 123 101
-0.20221480 -0.04986548 0.77344611 79 69 72
-0.21366974 -0.04992594 0.78375536 146 119 100
-0.20254092 -0.02966132 0.77491831 104 99 103
-0.21371501 -0.03021210 0.78376232 144 119 99
-0.20252375 -0.01231786 0.77790821 138 138 143
-0.21263986 -0.00916633 0.78323960 142 119 104
-0.21007802 0.01031052 0.78413834 139 127 118
-0.21001344 0.03011443 0.78853900 129 129 132
-0.20995648 0.04950332 0.79347449 148 148 149
-0.20999295 0.06716859 0.79793459 140 139 143
-0.20999888 0.07776451 0.80058424 149 149 147
-0.20994677 0.09050386 0.80377070 145 145 146
-0.20998148 0.10998455 0.80851237 128 131 134
-0.21003259 0.12964657 0.81316939 130 132 136
-0.21015255 0.14949279 0.81777645 123 125 130
-0.20945848 0.15975478 0.82014092 143 145 142
-0.21005695 0.17017054 0.82248449 117 120 124
-0.20985673 0.18965653 0.82686713 112 115 118
-0.20996603 0.21012252 0.83138341 109 110 114
-0.21003084 0.23070465 0.83586794 113 115 118
-0.20993844 0.24537944 0.83905577 116 118 121
-0.21019990 0.25460543 0.84102240 110 113 114
-0.20992199 0.26962489 0.84418752 127 129 131
-0.20996231 0.28997395 0.84841388 174 175 171
-0.21002094 0.31027923 0.85246962 190 191 183
-0.20997049 0.33044308 0.85622982 192 193 184
-0.20993058 0.34615423 0.85900965 195 196 187
-0.21016658 0.35662032 0.86077851 192 193 186
-0.21007996 0.37031338 0.86300028 191 192 185
-0.20983727 0.39002017 0.86555605 62 63 60
-0.21030127 0.41054639 0.86772431 0 0 0
-0.20992048 0.43001990 0.86948363 0 0 0
-0.20970939 0.44980268 0.87123936 0 0 0
-0.21012585 0.47031100 0.87296943 0 0 0
-0.21037613 0.48943149 0.87461588 0 0 0
-0.19048471 -0.54254787 0.80656962 0 0 0
-0.19005912 -0.53052801 0.80607545 0 0 0
-0.19028618 -0.51043579 0.80518953 0 0 0
-0.19005825 -0.49029128 0.80402912 0 0 0
-0.18975353 -0.46990466 0.80251677 0 0 0
-0.18809122 -0.44227793 0.79980474 0 0 0
-0.19043714 -0.45167493 0.80093083 0 0 0
-0.19008808 -0.43082251 0.79828948 0 0 0
-0.19025478 -0.40283844 0.76969740 103 129 131
-0.19005075 -0.41815352 0.79242305 39 50 50
-0.19019725 -0.38939527 0.76811371 106 126 133
-0.19019973 -0.36948493 0.76812422 107 124 135
-0.19019598 -0.34956363 0.76810930 104 123 134
-0.19019300 -0.32964429 0.76809744 105 120 134
-0.19019062 -0.30972656 0.76808794 100 119 134
-0.19019040 -0.28981251 0.76808705 100 117 133
-0.19018684 -0.26989392 0.76807277 99 116 134
-0.19018571 -0.24997905 0.76806839 95 114 133
-0.19020858 -0.23009345 0.76816088 93 112 133
-0.19025051 -0.21022390 0.76832958 94 110 132
-0.18957336 -0.19147005 0.76891237 98 112 131
-0.19688290 -0.18392161 0.78267561 130 122 116
-0.18867988 -0.16876272 0.76986381 98 108 127
-0.19831036 -0.17700343 0.78231605 144 137 132
-0.18990220 -0.14954291 0.76990940 93 106 129
-0.18975454 -0.12935294 0.77013131 93 104 130
-0.18938478 -0.10956370 0.77020787 90 102 126
-0.18943868 -0.08962044 0.77042901 64 65 79
-0.18950914 -0.06967152 0.77071486 60 61 74
-0.18965109 -0.04972611 0.77129164 60 60 74
-0.19005753 -0.02983534 0.77311467 90 93 112
-0.18977657 -0.01163746 0.77760226 134 137 147
-0.19090131 -0.00168997 0.78039302 125 126 134
-0.18999484 0.01047275 0.78353387 127 129 133
-0.19000741 0.03039956 0.78862139 136 136 139
-0.18997174 0.04982520 0.79356641 151 151 151
-0.19006086 0.06713371 0.79793415 131 131 136
-0.18993693 0.07776551 0.80059450 135 136 139
-0.18999946 0.09058875 0.80378822 147 147 146
-0.18994090 0.10984775 0.80849826 133 134 139
-0.18996718 0.12954495 0.81319354 121 123 127
-0.19010810 0.14948882 0.81784151 118 120 124
-0.18962847 0.15976804 0.82020898 126 128 131
-0.19017112 0.17018537 0.82255611 120 122 127
-0.18980923 0.18962189 0.82692010 116 118 120
-0.19007705 0.20939995 0.83126984 108 109 114
-0.19008952 0.22987666 0.83576383 133 134 135
-0.18965157 0.24540082 0.83912895 123 124 127
-0.19009831 0.25470159 0.84110567 143 144 146
-0.18996563 0.26956773 0.84426133 185 186 180
-0.19007670 0.28977818 0.84844779 194 195 186
-0.18995447 0.31063590 0.85255752 190 191 183
-0.18999865 0.33017312 0.85616922 193 194 186
-0.18995761 0.34634281 0.85901575 195 196 187
-0.19006981 0.35659830 0.86072539 195 195 187
-0.18992951 0.37007284 0.86286898 191 191 184
-0.19022293 0.39002743 0.86535914 32 33 31
-0.18999620 0.41030129 0.86742333 0 0 0
-0.18968781 0.42996950 0.86919863 0 0 0
-0.19007029 0.44965390 0.87095122 0 0 0
-0.19038248 0.47020096 0.87266640 0 0 0
-0.18990930 0.48905326 0.87426763 0 0 0
-0.16962593 -0.54233464 0.80599368 0 0 0
-0.16982744 -0.52998987 0.80547744 0 0 0
-0.17002495 -0.51009860 0.80458447 0 0 0
-0.17006999 -0.49009871 0.80344554 0 0 0
-0.17015678 -0.46960646 0.80192935 0 0 0
-0.16886145 -0.44418530 0.79952950 0 0 0
-0.17048811 -0.45362278 0.80058787 0 0 0
-0.17002854 -0.43071297 0.79783993 0 0 0
-0.17084811 -0.40312419 0.77060498 102 125 131
-0.16877359 -0.41796100 0.79302968 30 37 39
-0.17036500 -0.38946307 0.76799994 107 124 131
-0.17015381 -0.36956713 0.76800469 105 122 130
-0.17025881 -0.34951652 0.76800595 103 121 131
-0.17026157 -0.32961047 0.76801875 104 120 132
-0.17026236 -0.30970013 0.76802247 101 118 132
-0.17026497 -0.28979260 0.76803434 102 116 132
-0.17026414 -0.26987914 0.76803078 97 114 132
-0.17026749 -0.24997171 0.76804603 96 113 131
-0.17028845 -0.23008737 0.76814042 96 110 131
-0.17031588 -0.21020599 0.76826380 95 109 131
-0.17035923 -0.19033553 0.76845788 93 108 131
-0.17046105 -0.17051313 0.76891508 92 106 129
-0.17056536 -0.15000536 0.76938511 90 104 130
-0.17038175 -0.12961201 0.76970859 89 103 130
-0.16961398 -0.10936212 0.76994676 85 99 126
-0.16943934 -0.08960698 0.77031450 59 62 77
-0.16950635 -0.06966283 0.77061922 56 59 73
-0.16962642 -0.04971813 0.77116451 57 60 73
-0.17001078 -0.02978572 0.77291135 89 93 111
-0.16991434 -0.01108720 0.77766948 130 134 144
-0.17031730 -0.00108164 0.78043923 132 135 144
-0.16997865 0.01052163 0.78346850 126 128 133
-0.17000756 0.03028435 0.78862321 141 140 141
-0.17009748 0.04949136 0.79352232 146 146 149
-0.16994716 0.06713005 0.79797512 126 127 133
-0.16988170 0.07776979 0.80063858 128 130 136
-0.17001013 0.09066642 0.80384393 139 139 143
-0.17005734 0.11007922 0.80859129 128 129 135
-0.16990216 0.12948816 0.81323709 116 118 124
-0.17006243 0.14938396 0.81789700 120 122 127
-0.16918080 0.15968655 0.82027572 123 124 128
-0.17022557 0.17024899 0.82263806 112 115 120
-0.16975553 0.18968484 0.82699036 115 115 119
-0.17003909 0.20935294 0.83133488 124 126 128
-0.17009489 0.22923249 0.83568038 135 136 137
-0.17013187 0.24394588 0.83889724 174 174 171
-0.16963929 0.25400722 0.84106253 190 191 182
-0.17012547 0.26937974 0.84431908 194 195 186
-0.16988757 0.29005209 0.84855351 193 194 185
-0.17007332 0.31031354 0.85250211 192 193 185
-0.16994912 0.33040243 0.85620734 195 196 187
-0.16992648 0.34611036 0.85895068 197 198 189
-0.16997337 0.35657205 0.86066207 196 196 189
-0.17007166 0.37030047 0.86280212 185 185 182
-0.16999460 0.38972306 0.86510075 6 6 6
-0.16975229 0.41021198 0.86712945 0 0 0
-0.16995988 0.43001302 0.86891409 0 0 0
-0.17051594 0.44972104 0.87066262 0 0 0
-0.16996103 0.46991243 0.87232257 0 0 0
-0.16957456 0.48895797 0.87393730 0 0 0
-0.15004857 -0.54206802 0.80559745 0 0 0
-0.14994638 -0.52987315 0.80504857 0 0 0
-0.14976952 -0.50979074 0.80409880 0 0 0
-0.14985786 -0.48944594 0.80291325 0 0 0
-0.14997062 -0.47002286 0.80145826 0 0 0
-0.14945251 -0.44672016 0.79928378 0 0 0
-0.15124073 -0.45670665 0.80036313 0 0 0
-0.14992458 -0.43029542 0.79722902 0 0 0
-0.15045716 -0.40091638 0.76856844 104 124 130
-0.15011052 -0.41557560 0.79010913 52 61 65
-0.15034292 -0.38999348 0.76798423 105 123 128
-0.15032568 -0.37003854 0.76789574 106 122 129
-0.15033178 -0.34948062 0.76792715 104 120 131
-0.15033778 -0.32958428 0.76795781 104 119 131
-0.15034164 -0.30968205 0.76797765 102 117 131
-0.15034547 -0.28977863 0.76799739 99 116 131
-0.15034999 -0.26987557 0.76802083 97 113 130
-0.15035479 -0.24997153 0.76804538 98 112 129
-0.15037045 -0.23008283 0.76812520 96 110 130
-0.15039115 -0.21019704 0.76823084 94 109 131
-0.15041886 -0.19031461 0.76837265 94 106 130
-0.15047700 -0.17045881 0.76866834 92 105 129
-0.15070935 -0.15028082 0.76903398 90 103 130
-0.15044814 -0.12975014 0.76933468 89 102 130
-0.14983489 -0.10950073 0.76968800 85 98 123
-0.14944287 -0.08959199 0.77018660 58 61 74
-0.14950500 -0.06965282 0.77050695 56 59 72
-0.14960042 -0.04970750 0.77099811 56 59 73
-0.14993017 -0.02977715 0.77269696 89 93 110
-0.14993905 -0.01111328 0.77755678 134 138 146
-0.15006989 -0.00108155 0.78036943 133 134 143
-0.15002731 0.01042353 0.78343622 132 133 137
-0.15006171 0.03011805 0.78862886 145 144 145
-0.15001868 0.04977404 0.79364898 137 137 141
-0.15002018 0.06717793 0.79804389 130 132 138
-0.14982701 0.07777551 0.80069748 124 129 135
-0.14997883 0.09043870 0.80383852 130 131 136
-0.15002069 0.11005548 0.80865224 127 129 134
-0.15008781 0.12962431 0.81336088 130 132 135
-0.14985442 0.14860585 0.81779961 120 121 125
-0.14993555 0.15906116 0.82021832 122 124 131
-0.15022650 0.17025942 0.82272625 116 118 123
-0.14975976 0.18970468 0.82707716 130 131 133
-0.15010653 0.20934293 0.83142178 142 142 144
-0.14989712 0.22926934 0.83581461 192 192 186
-0.15035594 0.24387118 0.83900652 193 193 186
-0.14980916 0.25409342 0.84118952 191 191 184
-0.14998262 0.26957955 0.84442856 194 195 186
-0.15004321 0.28992377 0.84856426 194 195 186
-0.14995538 0.31049210 0.85257170 192 193 185
-0.14998507 0.33021808 0.85620296 195 195 186
-0.15005077 0.34633513 0.85899205 197 198 189
-0.14988501 0.35655792 0.86062804 195 196 187
-0.14993880 0.36991035 0.86264432 168 168 164
-0.14988025 0.38971957 0.86489047 0 0 0
-0.15022272 0.41008742 0.86686621 0 0 0
-0.15012008 0.43064646 0.86868660 0 0 0
-0.15002074 0.45006019 0.87037831 0 0 0
-0.14960495 0.46978763 0.87199809 0 0 0
-0.14988395 0.48878291 0.87362439 0 0 0
-0.12980790 -0.54185709 0.80528396 0 0 0
-0.13025557 -0.52977402 0.80472261 0 0 0
-0.13025147 -0.50955434 0.80372585 0 0 0
-0.13021163 -0.48988001 0.80256010 0 0 0
-0.12967226 -0.47028382 0.80104177 0 0 0
-0.12965171 -0.44891659 0.79901815 0 0 0
-0.13333447 -0.45880414 0.80013766 0 0 0
-0.12995615 -0.43017549 0.79672466 0 0 0
-0.13020988 -0.40100707 0.76870087 104 124 126
-0.13006785 -0.41539005 0.78981709 48 56 58
-0.13041400 -0.38993928 0.76787787 105 122 127
-0.13040412 -0.37000215 0.76782040 105 121 128
-0.13041389 -0.34945821 0.76787795 104 119 128
-0.13042065 -0.32956712 0.76791789 103 119 129
-0.13042443 -0.30966688 0.76794004 103 116 129
-0.13043027 -0.28976998 0.76797461 102 114 129
-0.13043768 -0.26987467 0.76801841 99 113 130
-0.13044205 -0.24997125 0.76804436 97 111 129
-0.13045353 -0.23007882 0.76811181 96 109 130
-0.13047302 -0.21019592 0.76822674 94 108 130
-0.13049822 -0.19031523 0.76837512 93 106 129
-0.13053367 -0.17044026 0.76858329 90 105 128
-0.13057782 -0.15056435 0.76884261 91 104 128
-0.13045468 -0.12988673 0.76914421 91 103 129
-0.12960142 -0.10961557 0.76956347 84 98 122
-0.12946804 -0.08958724 0.77014661 57 60 74
-0.12952439 -0.06965063 0.77048215 56 58 70
-0.12960220 -0.04970416 0.77094501 57 59 71
-0.12987794 -0.02977284 0.77258448 90 94 110
-0.13002235 -0.01114635 0.77744629 140 142 152
-0.12982614 -0.00108144 0.78029911 142 143 148
-0.13012566 0.01028131 0.78339798 137 138 142
-0.12991055 0.03031392 0.78872805 147 147 149
-0.13004502 0.04963636 0.79368040 132 133 138
-0.13003118 0.06718399 0.79811580 125 127 135
-0.12977236 0.07778300 0.80077464 129 131 138
-0.13003382 0.09076696 0.80399099 127 128 136
-0.12988373 0.10987512 0.80869868 131 132 136
-0.13016614 0.12980446 0.81350298 125 127 132
-0.12978545 0.14867979 0.81791638 124 125 129
-0.13010414 0.15908095 0.82032038 132 132 133
-0.13022716 0.17027505 0.82283914 130 131 133
-0.12976685 0.18973500 0.82720910 147 148 149
-0.13029264 0.20929740 0.83156121 191 191 186
-0.12969409 0.22930782 0.83595526 195 195 189
-0.13018521 0.24394791 0.83912019 195 195 188
-0.13021362 0.25392049 0.84122842 191 191 185
-0.12983384 0.26977978 0.84453936 194 195 187
-0.13014153 0.28994122 0.84863347 194 195 187
-0.13005015 0.30972665 0.85249577 194 194 185
-0.12986553 0.32954669 0.85613536 194 195 186
-0.13003123 0.34612375 0.85897953 195 196 187
-0.12980012 0.35654882 0.86060616 194 195 186
-0.13009236 0.37002671 0.86254290 144 144 138
-0.13017721 0.38979348 0.86470955 0 0 0
-0.12995750 0.40996729 0.86661242 0 0 0
-0.12982997 0.43012786 0.86836516 0 0 0
-0.12972366 0.44994866 0.87006679 0 0 0
-0.12996773 0.46962919 0.87170395 0 0 0
-0.13021290 0.48862856 0.87334847 0 0 0
-0.10959174 -0.54168931 0.80503461 0 0 0
-0.11006459 -0.52936012 0.80443733 0 0 0
-0.11026162 -0.50973068 0.80344034 0 0 0
-0.10971580 -0.49028644 0.80225707 0 0 0
-0.10771676 -0.46151631 0.79987251 0 0 0
-0.11037965 -0.47157666 0.80079845 0 0 0
-0.11010833 -0.44976271 0.79868617 0 0 0
-0.10993277 -0.42967258 0.79619888 0 0 0
-0.10997470 -0.40104111 0.76880705 104 121 126
-0.11000358 -0.41536533 0.78971048 45 54 56
-0.11049817 -0.38991271 0.76782597 106 119 125
-0.11049057 -0.36997933 0.76777290 104 120 127
-0.11050017 -0.34944076 0.76783969 106 118 126
-0.11050751 -0.32955551 0.76789083 102 118 129
-0.11051143 -0.30965815 0.76791841 102 115 129
-0.11051669 -0.28976261 0.76795510 101 114 128
-0.11052519 -0.26987316 0.76801427 100 112 127
-0.11053191 -0.24997668 0.76806109 97 110 129
-0.11054107 -0.23008273 0.76812480 96 109 128
-0.11055692 -0.21019815 0.76823491 95 108 129
-0.11057640 -0.19031408 0.76837013 93 106 129
-0.11060180 -0.17043207 0.76854630 92 104 128
-0.11026835 -0.15038964 0.76876512 90 103 128
-0.10985208 -0.13012890 0.76905416 90 102 128
-0.10940794 -0.10946072 0.76949201 86 96 121
-0.10949894 -0.08958557 0.77013271 57 60 72
-0.10954969 -0.06965130 0.77049006 55 57 69
-0.10961662 -0.04970520 0.77096092 56 58 71
-0.10983548 -0.02976974 0.77249856 91 94 110
-0.11016932 -0.01120812 0.77736269 145 147 155
-0.10959172 -0.00108140 0.78027037 157 158 163
-0.11004068 0.01043640 0.78346784 146 146 148
-0.10990794 0.03038349 0.78882325 139 139 142
-0.11002288 0.04959312 0.79376940 129 129 136
-0.11024366 0.06695594 0.79816040 126 128 134
-0.10942760 0.07754900 0.80081265 122 124 129
-0.10990871 0.09046084 0.80401010 126 126 133
-0.11010738 0.11002775 0.80882694 127 128 135
-0.10990107 0.12958152 0.81354985 120 121 128
-0.10994803 0.14874873 0.81804283 122 123 126
-0.11026929 0.15910283 0.82043320 136 137 139
