ply
format ascii 1.0
element vertex 893
property float x
property float y
property float z
property uchar red
property uchar green
property uchar blue
end_header
-0.38521526 0.34547890 1.49315623 82 95 111
-0.36069793 -0.18719251 0.53801024 50 40 40
-0.36945163 0.33934209 1.48755475 124 131 139
-0.36250412 0.35779167 1.43723226 108 116 127
-0.36281849 0.35889257 1.45005095 104 113 126
-0.36665604 0.35389497 1.47049753 94 101 117
-0.36951847 0.34626451 1.48400776 111 121 133
-0.36228297 0.36868607 1.43448012 99 109 121
-0.36462030 0.37568092 1.44232309 96 111 120
-0.36681736 0.36200259 1.46943865 88 98 114
-0.37838426 0.36665919 1.48660493 110 118 126
-0.34306822 -0.29413389 0.81878777 53 42 43
-0.34535684 -0.29193025 0.82181616 55 43 43
-0.35523878 -0.18879981 0.53505750 51 42 42
-0.34239204 -0.16649464 0.51216789 56 46 44
-0.34849977 -0.17395413 0.52065426 48 39 40
-0.34201992 -0.15692810 0.50501548 75 62 57
-0.35042549 0.35798172 1.43365805 116 127 137
-0.35244524 0.35698596 1.45121077 98 115 128
-0.35727784 0.35201606 1.46955256 90 99 113
-0.35116422 0.37674704 1.41818380 101 111 117
-0.35153180 0.36914827 1.43054796 102 112 122
-0.35692680 0.36053163 1.45158851 102 115 128
-0.33563244 -0.30040494 0.81674191 49 39 40
-0.33635587 -0.30089658 0.82193699 49 39 41
-0.33507846 -0.29725206 0.81708880 50 40 41
-0.33585214 -0.29621438 0.82313923 51 41 41
-0.33678072 -0.16550734 0.51048670 61 50 50
-0.32838992 -0.14678841 0.49382640 71 58 55
-0.33540269 -0.15552273 0.50350704 64 55 50
-0.32495882 -0.13844856 0.48457611 77 64 59
-0.33890814 0.35958853 1.41818380 105 117 128
-0.33845330 0.36576836 1.42314728 105 112 121
-0.31007121 -0.22578959 0.60865055 48 40 40
-0.30744337 -0.20261554 0.59968600 56 46 45
-0.30726030 -0.21090227 0.60337392 53 44 44
-0.30404717 -0.19205133 0.59473422 60 49 48
-0.30372845 -0.19933132 0.60064873 55 47 47
-0.30180991 -0.16838566 0.57674295 77 64 60
-0.30738808 -0.16456623 0.58518062 85 68 64
-0.31480746 -0.14322705 0.48561512 82 63 60
-0.30089533 -0.15758660 0.57594889 91 70 64
-0.30591432 -0.15854700 0.58314112 90 70 64
-0.31123632 -0.12576468 0.47192672 81 67 62
-0.31398683 -0.13706762 0.48381605 84 70 65
-0.30027208 -0.10978714 0.45927632 85 73 62
-0.30721271 -0.11550397 0.46461579 82 68 62
-0.29765130 -0.22151417 0.60673322 54 47 46
-0.29604262 -0.20069133 0.59990430 61 51 52
-0.29626054 -0.20922080 0.60330042 61 50 50
-0.29547270 -0.19053465 0.59367269 67 54 54
-0.29617570 -0.19966029 0.60070178 64 53 54
-0.29013750 -0.16800872 0.57394026 75 61 59
-0.28932641 -0.17720286 0.58190387 72 57 57
-0.28766239 -0.14246678 0.55919559 89 74 69
-0.28673083 -0.15113054 0.56656751 83 66 64
-0.28530204 -0.12858334 0.55817790 91 77 70
-0.28989091 -0.13415318 0.56252421 92 77 69
-0.29769580 -0.11158028 0.45751135 90 77 65
-0.28472904 -0.11182630 0.55416059 98 80 72
-0.29203671 -0.10931110 0.56084792 102 83 74
-0.28534856 -0.09022788 0.55108335 105 86 76
-0.29172078 -0.09857806 0.56024116 109 87 76
-0.28386545 -0.06942175 0.54990482 106 87 76
-0.28399660 -0.05761238 0.55088448 107 89 75
-0.27845840 -0.16384297 0.57034785 88 70 69
-0.27251202 -0.14254382 0.55924023 101 83 74
-0.27555143 -0.15071970 0.56461373 97 78 75
-0.27374566 -0.12833803 0.55501710 92 75 70
-0.27565781 -0.13331513 0.56039564 96 79 75
-0.26030642 -0.10001885 0.53929341 104 84 80
-0.27191032 -0.10849051 0.54856391 93 76 71
-0.27734866 -0.11849442 0.56055011 84 69 69
-0.26705067 -0.08577693 0.53836030 97 79 73
-0.27167587 -0.09347216 0.54190035 98 79 73
-0.26534857 -0.06994519 0.53237155 97 77 71
-0.27886041 -0.07231021 0.54274961 105 87 74
-0.26196407 -0.04155933 0.51929855 111 88 81
-0.26446198 -0.05164615 0.52760649 102 82 74
-0.27941875 -0.05057243 0.54383630 111 89 80
-0.26098105 -0.03826777 0.51826654 108 88 79
-0.26184211 -0.00743857 0.51834537 109 89 78
-0.26451784 -0.00793926 0.52185667 109 88 79
-0.25947754 -0.10052510 0.53950810 105 85 79
-0.25833029 -0.08842730 0.53640457 107 85 79
-0.25653661 -0.06670424 0.53164003 109 87 77
-0.25648897 -0.04118491 0.51942914 107 85 78
-0.25537541 -0.05146646 0.52858785 104 85 77
-0.25051764 -0.02952239 0.51463302 104 84 76
-0.24933767 -0.03958845 0.52092147 111 87 83
-0.24889901 -0.01047781 0.51073198 104 83 77
-0.24636289 0.00061141 0.50677232 103 83 73
-0.23820245 -0.00377207 0.50730386 109 86 81
-0.20211545 0.21881493 0.97235291 130 139 146
-0.20398076 0.22536833 0.97471143 105 113 124
-0.20214195 0.23560041 0.98560810 143 153 158
-0.20101370 0.24204767 0.99179548 125 133 140
-0.18322315 0.11901346 0.75254771 110 109 126
-0.18498677 0.12497642 0.75273133 126 132 143
-0.18212546 0.18833517 0.99788001 121 127 141
-0.18854538 0.18825728 1.00758543 130 138 145
-0.18404132 0.21751272 0.95379591 117 125 139
-0.19280364 0.21772908 0.96777719 132 140 148
-0.18525970 0.22146098 0.95477724 105 113 131
-0.19393194 0.22766454 0.97104148 116 123 138
-0.19841544 0.23739055 0.98316488 136 144 150
-0.19515814 0.24161357 0.97961247 96 100 119
-0.19643652 0.24139268 0.98388304 110 113 127
-0.17041960 0.11775694 0.75178833 127 135 143
-0.16552985 0.12590381 0.73804250 142 146 155
-0.17386140 0.12443784 0.74714947 118 124 137
-0.16501192 0.17762460 0.99485678 113 119 133
-0.17060605 0.18934501 0.99470480 119 125 138
-0.16944693 0.18363355 1.00280082 102 109 127
-0.17846235 0.20096292 0.99349119 97 109 125
-0.14014760 0.07139502 0.48769197 125 131 137
-0.15642365 0.17773771 0.99165375 110 116 134
-0.15435479 0.18531668 0.99257481 143 148 156
-0.12620817 -0.02647091 0.71582568 146 122 111
-0.12280947 -0.01455077 0.71246427 144 121 111
-0.12909397 0.06894513 0.48860144 125 133 145
-0.11974091 -0.00828918 0.70503592 146 120 112
-0.11954447 0.06865220 0.48617637 142 152 159
-0.10014808 0.12824734 0.52549756 106 112 124
-0.11274610 0.17382375 0.84599829 173 179 186
-0.10924158 0.18590931 0.83793972 197 200 204
-0.11060487 0.18455049 0.84549479 196 200 203
-0.10007662 0.21527800 0.48145743 0 0 0
-0.09143492 0.11432785 0.51781819 131 136 146
-0.09137337 0.12268791 0.51916362 127 134 142
-0.09415945 0.12591360 0.52137971 129 134 145
-0.08971894 0.19591823 0.47572292 192 198 200
-0.08857956 0.19184432 0.48077580 197 204 203
-0.09358186 0.20542994 0.47634260 152 158 162
-0.09993463 0.21331081 0.48077434 0 0 0
-0.02218544 0.24384478 0.61823391 156 159 163
-0.02587582 0.25082377 0.62958762 161 164 168
-0.03019047 0.25105466 0.64073011 159 162 166
-0.02401142 0.26337336 0.63430279 164 166 168
-0.02111317 0.26645007 0.64284915 138 140 143
-0.00595833 0.13808888 0.49477306 185 189 193
-0.00609770 0.14371754 0.49214908 165 168 173
-0.00028195 0.19213420 0.62441212 171 173 178
-0.01443467 0.26522479 0.63530383 119 123 126
-0.01912803 0.26617536 0.64113442 101 101 104
0.00486805 0.13840871 0.49620012 169 171 175
0.00468146 0.13714156 0.50103001 176 176 185
0.01007232 0.14460125 0.49399222 153 156 163
0.00843364 0.14002848 0.50102872 172 172 174
0.01528406 0.19496473 0.49284514 147 155 162
0.01982335 0.19545294 0.50438410 160 163 171
0.00824443 0.19150851 0.61866116 150 154 161
0.00561301 0.18820051 0.62486604 149 152 159
0.01666489 0.20229728 0.48735571 108 114 119
0.01587219 0.21038082 0.95358625 161 163 172
0.01213373 0.20915838 0.96705099 175 178 183
0.03363881 0.13935839 0.46351606 133 134 143
0.03636148 0.14500988 0.45847260 147 147 152
0.03301160 0.14415457 0.46299394 153 157 164
0.03165155 0.19961487 0.49844989 143 147 151
0.02596621 0.19694360 0.50274319 156 161 166
0.03028392 0.19990985 0.93502325 180 184 188
0.02734867 0.20346536 0.49705497 163 168 171
0.02607973 0.20377125 0.50360134 162 168 173
0.03897305 0.21763833 0.76685973 131 137 155
0.02838514 0.20442523 0.93387332 171 178 185
0.02337838 0.20700270 0.94916803 163 168 175
0.02176545 0.20319580 0.96337370 143 146 155
0.03867190 0.22931170 0.77350032 146 152 164
0.03893737 0.24146923 0.77314603 172 180 183
0.04014157 0.14414429 0.45772596 153 153 152
0.04825797 0.21765164 0.75996846 158 161 169
0.04448437 0.21771206 0.76288830 156 160 168
0.04415876 0.22946296 0.76716346 154 158 166
0.04226689 0.24120703 0.76614416 173 180 186
0.05768377 0.51932365 1.99379957 139 140 153
0.07830240 -0.20734241 0.47339630 96 113 123
0.07853561 -0.19327298 0.46474087 97 110 124
0.07637855 0.09725068 0.72682019 119 121 140
0.06848931 0.11824113 0.71423615 172 173 179
0.07564458 0.10818557 0.72479735 121 127 143
0.06615615 0.12088964 0.71225883 158 158 167
0.07446253 0.12053113 0.72116154 137 140 148
0.07711106 0.19615483 0.51322249 139 144 150
0.07545347 0.23282939 0.71653763 133 137 143
0.07304210 0.23583463 0.72364230 147 151 154
0.07687525 0.25064169 0.71659705 133 134 140
0.07226852 0.24730091 0.72477591 155 158 162
0.07685545 0.43117191 1.69474018 152 158 167
0.07544484 0.43693920 1.70927398 149 156 166
0.07554138 0.45103858 1.73154992 158 164 177
0.07631632 0.45566928 1.74940121 158 167 178
0.07300328 0.45728785 1.77924371 142 146 163
0.07836049 0.45729345 1.99379957 133 133 144
0.07509308 0.46350622 1.75619650 169 178 184
0.07664646 0.46835526 1.77459204 166 173 181
0.07427925 0.47319124 1.79527245 164 171 181
0.07397407 0.46960115 1.80290389 153 163 175
0.07181285 0.47908819 1.82720172 157 171 182
0.07279390 0.47762983 1.85216355 144 149 164
0.07074019 0.46797708 1.97348845 131 136 144
0.07370001 0.47750174 1.99187350 131 135 146
0.07978204 0.48261493 1.79336464 173 176 180
0.07436965 0.48464376 1.81254506 173 176 184
0.07161980 0.48095000 1.82228994 167 176 187
0.07279390 0.48723377 1.85216355 160 169 178
0.07055647 0.49235934 1.87781680 150 163 176
0.07101634 0.49337739 1.89005593 150 158 170
0.06825619 0.49927449 1.90419054 144 153 163
0.07236047 0.49496216 1.92582905 143 146 154
0.07416240 0.48655039 1.98893853 156 161 167
0.07521660 0.50232765 1.87262940 172 175 183
0.07435148 0.50910352 1.89179448 164 168 174
0.07020006 0.50800309 1.91225159 160 166 176
0.07040714 0.51243883 1.93315514 159 165 173
0.06486990 0.51317101 1.95078404 147 154 161
0.06450654 0.51328278 1.97062249 142 147 155
0.06664032 0.51381317 1.99382021 140 142 153
0.07791106 0.52085012 1.89885676 143 146 150
0.07812991 0.52560443 1.90419054 133 133 143
0.07558662 0.53082898 1.92310125 143 145 154
0.06914590 0.53313885 1.95600321 168 171 178
0.06537917 0.53103615 1.97189257 168 172 179
0.06077240 0.53512949 1.98213995 169 175 180
0.07750450 0.54604453 1.95078808 126 130 140
0.06907792 0.54774875 1.96934652 147 149 158
0.06152909 0.54708288 1.98447187 165 169 175
0.08173445 -0.21127714 0.47367193 96 112 124
0.08085823 -0.19323588 0.46312931 98 111 122
0.08596193 0.09772218 0.72468936 125 130 141
0.08405596 0.10512583 0.72499973 115 121 138
0.08524141 0.19748143 0.49803716 162 169 171
0.08520029 0.19596201 0.50848595 146 151 157
0.08608389 0.20186971 0.50408016 150 155 159
0.09392984 0.23389148 0.69831948 146 150 158
0.08618126 0.23351894 0.71008105 145 152 160
0.08443628 0.22877586 0.72250944 104 106 130
0.09390210 0.24121898 0.69885755 137 148 155
0.08672976 0.24443279 0.71264171 134 142 150
0.08324372 0.24500431 0.72165093 126 129 139
0.09731981 0.44597715 1.95922494 172 173 175
0.08782679 0.45003592 1.97406297 152 152 160
0.08783733 0.45384734 1.99379957 151 150 161
0.08288173 0.48881429 1.79336464 139 143 147
0.08172794 0.50867483 1.83710527 127 128 142
0.08228558 0.50575387 1.84964013 138 141 148
0.08051647 0.51650971 1.88303292 137 139 148
0.08119308 0.53069615 1.89885676 120 127 140
0.08188116 0.54181325 1.91494870 119 126 140
0.08281694 0.54465777 1.93683386 119 126 139
0.08015633 0.54936659 1.95357883 121 128 141
0.11884089 -0.12227975 0.48121389 88 104 121
0.11497624 0.17653951 0.59652455 139 144 154
0.11134195 0.17515315 0.60070178 113 120 129
0.10704196 0.17323190 0.83683794 136 139 153
0.10878455 0.17771711 0.84210845 161 167 177
0.11894073 0.18096074 0.59844798 149 156 161
0.10648598 0.19926041 0.81170216 152 153 164
0.10613836 0.18143751 0.83845654 182 186 187
0.11163638 0.19265727 0.85199351 168 172 181
0.11232564 0.20813635 0.81001229 168 173 178
0.10688047 0.20864467 0.82544177 157 160 168
0.10884499 0.20144158 0.85208043 179 182 189
0.11432038 0.23107646 0.81920496 125 131 137
0.11798213 0.22904678 0.82461639 119 124 140
0.11779046 0.43241458 1.90687251 145 148 153
0.11321203 0.43452608 1.92720851 155 159 160
0.10823364 0.43710767 1.94238353 165 170 170
0.11828934 0.44251823 1.91494870 138 140 145
0.11696513 0.44588098 1.92948687 139 140 146
0.11108348 0.44685322 1.95038017 152 155 157
0.10446765 0.44929051 1.96633184 160 162 164
0.10218280 0.45595244 1.98795259 166 167 169
0.11729897 0.46495155 1.95357883 148 155 162
0.11474800 0.46662325 1.96776537 153 159 165
0.11120820 0.47039209 1.99576579 154 158 165
0.11592687 0.48000452 1.98795259 173 179 182
0.12657307 -0.12431904 0.48246142 88 103 121
0.13256679 -0.11967514 0.48317310 88 102 122
0.12421273 0.17750361 0.59804175 132 134 143
0.12125939 0.17419204 0.60096794 167 169 173
0.12369499 0.18146225 0.59726363 142 148 153
0.12036685 0.19098948 0.85198090 159 162 169
0.12311090 0.21147623 0.81048106 143 146 152
0.12020194 0.21943918 0.82069230 151 153 156
0.12507750 0.22392257 0.81833305 130 133 144
0.12320049 0.22865415 0.82296124 115 119 134
0.12153385 0.43471290 1.88829279 150 153 160
0.12091602 0.44332343 1.90419054 151 156 158
0.12263947 0.45465420 1.93133146 142 146 154
0.12032881 0.45688167 1.94796503 140 147 154
0.12084996 0.46393514 1.95640188 131 140 147
0.12243984 0.47860101 1.98213995 156 161 168
0.12352338 0.48629269 1.99968100 169 175 175
0.15596204 -0.18893562 0.71452850 90 104 122
0.15337820 0.03600375 0.67361040 146 147 153
0.15386401 0.04911986 0.67155006 131 134 143
0.14767834 0.17860118 0.46192591 162 169 168
0.14939408 0.18697292 0.46596419 129 134 141
0.16607738 -0.18645201 0.71513958 88 103 123
0.16462506 -0.17792029 0.71467497 87 101 122
0.16929398 -0.14457653 0.57388663 88 103 122
0.16882826 -0.13954939 0.57545996 92 102 114
0.17400238 0.03603819 0.89088100 126 127 138
0.16791208 0.03359773 0.90422008 132 135 143
0.16166617 0.05016728 0.66934235 132 136 147
0.17416003 0.04594264 0.88996806 137 138 145
0.17909179 0.17863426 0.71142203 153 154 161
0.17941800 0.18178015 0.69789940 163 168 172
0.17900535 0.18264707 0.71091685 156 163 168
0.17880723 0.18553832 0.72259229 151 156 163
0.17837952 0.27789462 0.67902415 139 141 141
0.17727599 0.27570453 0.68710035 154 158 162
0.17776294 0.28215215 0.67891106 68 66 66
0.17764130 0.28757841 0.68683073 49 49 50
0.17107142 0.39337603 1.94751067 171 177 183
0.17593289 0.38856040 1.96735185 173 177 184
0.17370006 0.40185651 1.94238353 175 180 185
0.18831525 0.03137326 0.87696376 141 140 153
0.18565904 0.03595670 0.88902015 133 134 141
0.18642880 0.04896821 0.89196806 141 143 150
0.18578008 0.17851143 0.69683179 143 148 160
0.18190123 0.17780713 0.70206080 133 137 146
0.18718313 0.18396538 0.68943412 154 157 165
0.18049391 0.27788980 0.67925080 118 122 126
0.18153206 0.27494914 0.68453123 120 124 131
0.19579867 0.37066779 1.92857242 136 137 144
0.19361129 0.37518772 1.94686165 152 154 161
0.19015743 0.38963988 1.95461714 156 157 165
0.18890912 0.38879711 1.96976569 160 161 167
0.21569909 0.17479440 0.53164213 147 151 156
0.21886067 0.18604890 0.53318326 144 147 149
0.21764736 0.28725991 1.16877902 166 168 177
0.20757230 0.37494404 1.94958282 141 141 150
0.21533605 0.37481807 1.96490383 145 145 154
0.21651031 0.37186162 1.99031200 154 156 168
0.20548906 0.38126968 1.95734290 143 143 154
0.20842684 0.39059274 1.97144607 143 145 153
0.21671956 0.39582275 1.98796403 152 156 158
0.21828804 0.40291112 1.99185057 158 162 163
0.23224822 -0.38362129 1.97636104 82 92 112
0.23257768 -0.38430444 1.98651232 84 93 112
0.23954700 -0.36674964 1.95922494 80 92 113
0.23194289 -0.36974228 1.97521200 81 93 115
0.23242276 -0.36944267 1.98520465 81 91 113
0.23344733 -0.34760244 1.97444598 81 90 112
0.23206620 -0.35177411 1.98456760 81 89 111
0.22776049 0.19161966 0.53279339 144 149 154
0.23395840 0.20080137 0.53770076 149 151 153
0.22310606 0.25734989 1.16828308 166 168 175
0.22341670 0.26532385 1.15681207 136 139 149
0.22387553 0.27092433 1.16678694 156 160 167
0.22604619 0.27699447 1.18099630 161 166 173
0.23229690 0.29115854 1.13159278 136 140 156
0.22843753 0.29341337 1.15117077 135 139 148
0.22397611 0.28821482 1.16887019 155 157 166
0.22301430 0.28259568 1.18223436 158 165 174
0.22943493 0.30102895 1.15190524 130 129 146
0.22082485 0.38612264 1.97348845 138 140 146
0.22449099 0.39640173 1.99087608 164 166 165
0.22277046 0.40328892 1.99087608 155 157 158
0.24164218 -0.38362128 1.97636104 87 95 112
0.24995152 -0.38836643 1.99040316 83 94 109
0.24293336 -0.36674964 1.95922494 79 91 111
0.24544030 -0.37131733 1.97024390 80 93 112
0.24333740 -0.35394756 1.97277445 82 90 113
0.25463035 0.07606241 0.45362694 160 166 169
0.25073106 0.08181378 0.45224037 157 162 169
0.24821462 0.11872603 0.47584273 162 167 171
0.24898131 0.12528078 0.47434554 169 175 178
0.24049135 0.19741489 0.53323013 163 166 168
0.26728666 0.20111606 0.95612389 142 150 158
0.26890668 0.21171062 0.97411243 135 139 150
0.26616673 0.21519053 0.98655068 147 147 156
0.27371834 0.22469324 0.97507064 154 157 165
0.26733474 0.22772746 0.99103876 163 169 176
0.26607504 0.22706389 1.00131738 159 167 173
0.28732689 0.13779966 0.59591868 141 144 155
0.29654092 0.13979021 0.60043561 160 168 172
0.28962635 0.14337092 0.59886369 159 166 172
0.29398121 0.14596386 0.60166240 163 171 176
0.28239659 0.21712415 0.97230766 149 154 164
0.28248031 0.22157647 0.97433338 147 151 162
0.30197302 0.13928407 0.59937412 162 169 171
0.30069214 0.13979021 0.60043561 174 183 185
0.30353668 0.14070338 0.59990430 167 175 174
0.30296200 0.14734483 0.60286009 168 173 176
0.31389215 0.14998151 0.77918601 169 173 183
0.31386894 0.15226634 0.78246222 167 171 178
0.30442277 0.27457476 0.71433277 152 155 157
0.30468748 0.27554773 0.72282307 151 153 155
0.30644898 0.28483811 0.71493533 166 173 174
0.30716796 0.29069510 0.72819084 161 167 171
0.30993560 0.29413262 0.74578896 157 164 169
0.30719340 0.30192436 0.73771473 142 149 155
0.30667581 0.30173918 0.74668726 142 149 155
0.30783578 0.30778277 0.76360834 139 148 155
0.33642149 0.05741420 0.77799484 136 135 143
0.33576355 0.05628720 0.78098206 145 145 150
0.33729434 0.06274749 0.77739948 138 138 146
0.33547078 0.15242495 0.77562910 171 173 177
0.33069481 0.15196382 0.79166417 144 150 158
0.33581430 0.16993534 0.79431635 159 163 168
0.33288203 0.16996124 0.80563291 164 171 175
0.32993031 0.18479957 0.49733302 137 142 144
0.35251511 0.05578019 0.79142718 143 145 148
0.35377127 0.04938218 0.80034459 155 158 162
0.34750680 0.07463852 0.77881328 132 141 148
0.35310048 0.06974549 0.78531376 142 146 151
0.35855651 0.08169455 0.77689210 121 127 139
0.34147324 0.14921144 0.79426274 172 177 183
0.34260630 0.14790518 0.80295318 170 177 181
0.35786660 0.16408127 0.45329848 142 147 148
0.34518517 0.16987178 0.77636667 156 162 168
0.34499293 0.17404721 0.78952845 156 162 166
0.34689053 0.18167633 0.79410864 160 168 173
0.34909189 0.18581113 0.80167127 163 171 178
0.35369381 0.20464173 0.45909008 127 132 139
0.35657871 0.20608260 0.46540371 129 134 140
0.36116048 0.05757599 0.78631760 145 146 152
0.36259994 0.07635863 0.77918601 126 127 140
0.36149562 0.06885358 0.78377261 138 141 148
0.36016583 0.08030660 0.77829146 117 121 139
0.36137315 0.16586505 0.45117672 154 163 163
0.36159879 0.16748413 0.46209395 153 156 156
0.36751105 0.19674473 0.47707398 132 139 140
0.36455147 0.20371644 0.47475477 150 157 158
0.39528471 0.36966766 1.13644981 170 176 176
0.39682751 0.37418609 1.15203685 166 173 176
0.39660527 0.37721043 1.16396484 164 171 175
0.39461559 0.38259008 1.17245309 158 166 172
0.39794423 0.38680236 1.18471339 158 166 172
0.40005150 0.37793833 1.15878952 169 176 180
0.40271278 0.38161817 1.15780079 174 180 181
0.41034576 0.39084637 1.17221514 167 172 175
0.40756695 0.39528424 1.18712631 163 169 174
0.40527838 0.39895019 1.20407081 157 171 176
0.41130412 0.40381685 1.19203535 149 152 159
0.40968213 0.40911559 1.20904746 143 149 155
0.42861902 0.10934245 0.49253337 141 149 153
0.43063015 0.10967369 0.50200294 151 157 157
0.43803385 0.19713674 0.47051896 135 140 143
0.43916366 0.19931693 0.48009336 145 153 154
0.43823977 0.20085999 0.47566985 131 136 138
0.42069846 0.40221182 1.18305731 151 155 158
0.42134312 0.41499239 1.20836341 142 143 147
0.42378706 0.41947880 1.22142673 143 144 147
0.42841861 0.42619747 1.23477566 150 152 154
0.45093292 0.13908463 0.46320769 139 146 144
0.45154024 0.14269205 0.46227422 144 149 147
0.44087514 0.19635410 0.47595056 148 154 157
0.44178279 0.19833739 0.48174413 151 157 161
0.51921564 0.23704257 0.58885874 139 142 142
0.51980090 0.24035068 0.58998418 152 158 158
0.52226346 0.23878621 0.59371228 136 139 139
0.52890825 0.23776501 0.60150117 139 141 145
0.53864467 0.23858878 0.63118422 150 156 155
0.52196109 0.24131095 0.59360057 142 146 147
0.53607656 0.24383870 0.61350967 134 138 139
0.53732011 0.24938792 0.62661623 120 121 125
0.55773807 0.20790002 0.53763262 123 129 130
0.55626705 0.20614433 0.54041144 126 133 132
0.55334137 0.23893551 0.63696305 137 144 147
0.55728426 0.23799251 0.64133686 94 98 105
0.54838888 0.24637157 0.63470596 143 145 146
0.55180621 0.24528743 0.64012450 157 161 160
0.57298189 0.11857345 1.48497844 144 146 151
0.57832828 0.12893626 0.57517354 152 158 158
0.57197398 0.13026053 1.49097742 155 158 161
0.57336290 0.14937715 1.49410138 127 134 143
0.57448590 0.15224362 1.50576124 122 132 141
0.57252178 0.16188317 1.49382179 128 135 142
0.56082919 0.20897171 0.53665361 135 144 144
0.56046575 0.23823592 0.64499700 114 117 124
0.58387979 0.11715913 1.49269950 140 142 149
0.59005067 0.11266355 1.50894448 138 141 145
0.58107684 0.13077468 0.57890026 157 165 164
0.58762786 0.13462684 0.59084911 143 152 153
0.58334641 0.12981541 1.49355524 154 156 160
0.59305101 0.14270973 0.59610873 151 162 165
0.59669467 0.14916693 0.60370766 140 149 153
0.58318781 0.14738422 1.49337936 119 123 137
0.58256391 0.15769121 1.50308609 138 145 155
0.60598058 0.15606605 0.60684392 153 164 166
0.61321848 0.17746202 0.51058905 145 154 154
0.60215986 0.16040422 0.59990430 169 176 174
0.60962447 0.16757211 0.61226548 159 167 169
0.61837743 0.17607394 0.62421560 138 147 152
0.61389283 0.18414483 0.51066095 141 149 154
0.61960617 0.18234360 0.62536201 151 161 164
0.61476671 0.20733260 0.62646718 119 126 131
0.62106740 0.17508434 0.51498938 137 145 152
0.62223644 0.17744426 0.52194144 153 161 160
0.62048368 0.17892201 0.61851480 146 158 160
0.62316675 0.17775541 0.63141277 136 144 149
0.63071268 0.18968146 0.61637357 132 138 140
0.62970085 0.18990838 0.62729696 148 155 156
0.63317938 0.20667175 0.63143760 151 158 159
0.63793653 0.21623227 0.64255653 132 148 151
0.65510842 0.11463616 0.66622224 147 157 159
0.64527770 0.21289877 0.63286555 142 145 147
0.64226798 0.21907355 0.64767104 124 136 141
0.64781899 0.22568980 0.63806732 125 130 136
0.65380050 0.22807517 0.64508750 111 121 128
0.65177763 0.22576906 0.66071332 112 121 125
0.66970803 0.11547806 0.67237776 155 165 166
0.66135514 0.12141606 0.66459984 166 172 172
0.66136005 0.23265204 0.64892845 105 115 124
0.69085275 -0.48338086 0.76774511 104 126 130
0.68993553 -0.46408219 0.75933047 108 125 131
0.69107636 -0.47301734 0.76388936 103 125 128
0.69006025 0.11387739 0.67625764 150 158 162
0.68810345 0.11119113 0.68112766 119 131 140
0.68796010 0.12096456 0.67273536 165 169 173
0.73557332 0.09490794 0.61278557 144 149 151
0.73576954 0.10362036 0.61380399 146 155 158
0.72971725 0.17807373 0.61360831 152 158 161
0.73087779 0.18279502 0.61607042 147 154 156
0.73071028 0.18756563 0.62206742 143 152 154
0.72916979 0.28825983 0.75911742 145 146 144
0.73256076 0.28996164 0.77043707 148 150 149
0.73847387 0.29296599 0.78098345 142 143 143
0.74151084 0.09768945 0.61412574 152 160 162
0.74275000 0.10172007 0.61577591 151 161 165
0.74622419 0.29461397 0.79227136 147 149 148
0.75184726 0.29668353 0.80546999 154 161 158
0.74787349 0.30107138 0.79285598 128 129 127
0.75417025 0.30281903 0.80891061 138 141 141
0.76094007 0.30805880 0.81870997 129 132 137
0.79316597 0.41871965 1.19663635 157 166 167
0.79711551 0.41468138 1.20442788 152 160 161
0.79593085 0.42338795 1.19716319 161 167 166
0.79519665 0.42576083 1.20731262 159 166 166
0.81895673 0.19281226 1.25768435 97 101 113
0.80289441 0.41887136 1.21052504 151 160 161
0.80590284 0.41947880 1.22142673 153 162 163
0.80200791 0.42138636 1.19980860 170 179 178
0.81174429 0.42383395 1.21437664 161 169 169
0.81480324 0.43057460 1.23815966 133 142 149
0.82601429 0.19486541 1.25574632 110 120 131
0.83333926 0.19443205 1.26356369 111 120 130
0.83384290 0.20192180 1.26709193 103 110 119
0.82877147 0.24875371 1.13849478 157 163 163
0.83093535 0.25293664 1.14784812 161 168 168
0.83445946 0.26718525 1.15303660 153 158 163
0.83610433 0.27425772 1.16077375 152 156 159
0.82146938 0.43012299 1.21868271 167 175 175
0.82886954 0.42654784 1.22660461 155 160 160
0.82459223 0.43249983 1.25303483 145 154 156
0.85934204 0.17351540 1.27025425 86 96 113
0.85565571 0.17735778 1.28754967 117 125 131
0.85728848 0.17992423 1.30614996 126 131 138
0.84558301 0.19200654 1.27257097 108 118 132
0.85369224 0.18519474 1.28819201 119 126 134
0.85399753 0.18148245 1.30113602 133 138 145
0.84787499 0.25153008 1.15421476 147 152 154
0.85675341 0.25155682 1.16157017 148 156 157
0.84847600 0.26581216 1.15602825 153 161 165
0.85620873 0.27281607 1.16180909 159 167 170
0.85061026 0.28643964 1.15730810 163 169 170
0.85403643 0.28377876 1.16196905 171 175 177
0.85956806 0.34383136 0.94413906 155 164 165
0.84125149 0.42775577 1.23929036 122 121 132
0.85048277 0.43336591 1.24930669 135 139 145
0.85601448 0.43374588 1.26426845 133 135 140
0.84589076 0.44088385 1.24612474 167 171 172
0.85750234 0.44144508 1.26002204 169 174 174
0.86493215 0.17314627 1.27361497 112 122 136
0.86476323 0.17724295 1.28992768 116 126 135
0.86586444 0.18027125 1.27663243 109 119 134
0.86894110 0.18995964 1.29117657 108 119 130
0.87705213 0.20732178 1.29864335 118 131 138
0.87829708 0.20763498 1.30531591 111 127 135
0.86398577 0.25452505 1.16335560 155 163 164
0.86332784 0.26522300 1.16321103 154 165 167
0.86112273 0.28123978 1.16476262 173 179 180
0.87281175 0.35364594 0.95747562 149 157 157
0.87592298 0.35343103 0.96320250 152 160 162
0.87929734 0.36304274 0.96337370 149 156 156
0.86300808 0.43511055 1.25536386 115 122 132
0.86925047 0.43270648 1.26755565 137 141 146
0.87265537 0.43637287 1.29010828 135 137 141
0.86963822 0.44682603 1.26880021 147 151 154
0.87611095 0.44370405 1.30955442 147 149 150
0.88097700 0.20767290 1.29616505 92 96 111
0.88324250 0.20943178 1.30364054 107 118 127
0.89547700 0.22389552 1.13931406 153 162 163
0.89734187 0.22707352 1.15134337 156 165 167
0.89806524 0.23433331 1.16176927 168 176 176
0.88457176 0.35579603 0.97468859 153 162 164
0.89538886 0.35611693 0.98723765 154 164 165
0.88630016 0.36854467 0.97311933 158 164 164
0.89655234 0.36823474 0.98946517 150 157 159
0.88535425 0.43871818 1.27425301 146 151 149
0.88358899 0.43228083 1.29453003 149 151 156
0.88720518 0.43728906 1.30615723 141 145 150
0.88203350 0.44338796 1.27184212 116 125 129
0.88764554 0.45008907 1.28633854 151 153 154
0.88386416 0.44382101 1.31885576 140 141 143
0.89315027 0.44906300 1.33443272 143 144 147
0.88540679 0.46177749 1.28632694 158 163 163
0.90586721 0.23205289 1.15648809 158 168 168
0.90577576 0.23600624 1.16143788 170 179 177
0.91026563 0.24260684 1.15813037 148 154 157
0.91204962 0.24390639 1.16210202 155 162 163
0.90369409 0.35563024 0.99544126 161 170 169
0.91338404 0.35720667 1.00668688 157 166 169
0.90097705 0.37266381 0.99502562 155 162 164
0.91326493 0.37025085 1.01051838 146 153 155
0.90058219 0.38147819 0.99106997 173 177 176
0.90347350 0.44460469 1.30113602 143 144 144
0.90557587 0.44604163 1.33574873 139 142 146
0.90329197 0.45300047 1.35308295 142 143 147
0.92203550 0.22853806 1.15615515 149 159 159
0.92363928 0.23584415 1.16426776 162 172 174
0.92922461 0.24133039 1.15681207 154 161 163
0.92729100 0.24504853 1.16603281 158 168 170
0.92967836 0.29748854 0.97961247 147 152 150
0.93100875 0.29687321 0.98834894 145 149 150
0.93233685 0.30139557 0.97855331 140 143 143
0.93198242 0.30646900 0.99277343 142 148 148
0.92159411 0.35809505 1.01709718 149 160 164
0.92767227 0.35637131 1.02478039 147 158 158
0.92140573 0.36100048 1.01785791 162 170 173
0.93453342 0.36513068 1.03458254 152 162 163
0.93472701 0.38464469 1.03653193 142 145 148
0.94192612 0.31182692 0.99675683 132 141 141
0.94373593 0.35962439 1.04451996 156 166 165
0.94721078 0.35014054 1.07545400 148 153 153
0.95645496 0.35686546 1.08840613 150 153 153
0.95893025 0.35825947 1.10136849 151 160 160
0.94772441 0.36891064 1.05128188 153 163 164
0.95858748 0.37404782 1.06503233 151 160 161
0.95884118 0.36281383 1.09691807 143 145 146
0.95970923 0.36140749 1.10226321 148 157 157
0.94047922 0.38881433 1.04291058 134 140 142
0.96381128 0.35856977 1.09073579 157 158 158
0.96186122 0.36916766 1.06866968 152 162 162
0.96778395 0.36647613 1.09403296 144 147 149
0.96861135 0.36951227 1.10487163 126 129 135
0.97514471 0.38310933 1.08551276 147 156 158
0.98348939 0.37482047 1.09691238 164 175 173
0.98432152 0.37822773 1.10316368 153 164 163
0.98220664 0.38589513 1.09337389 146 154 158
0.99110174 0.38492961 1.11078104 142 151 153
0.99558251 0.38751663 1.12383389 129 142 144
1.01967359 -0.80096996 1.82228994 95 109 125
1.00131214 0.39319462 1.11679053 143 151 156
1.00671759 0.39397035 1.13009636 137 148 151
1.01730871 0.39982736 1.14123201 132 141 146
1.01514870 0.40076332 1.13550997 144 154 158
1.01971877 0.40191460 1.15287733 123 137 141
1.01262784 0.43837579 1.59316748 136 140 147
1.01861119 0.43681279 1.60258114 150 156 158
1.00906920 0.44095281 1.58756876 124 128 136
1.01824844 0.44062439 1.60637879 140 144 152
1.02871951 -0.81060223 1.81740439 95 111 124
1.03301300 -0.80648094 1.82766033 97 110 120
1.02545449 0.40584319 1.15328411 131 141 146
1.03246212 0.40996335 1.16728765 126 138 143
1.02309728 0.43993288 1.61402822 145 151 154
1.03824711 0.43676329 1.63347435 163 167 168
1.03979933 0.42675999 1.64937186 149 152 151
1.03595781 0.43564147 1.66149962 144 144 151
1.02030754 0.44272259 1.61402822 129 133 143
1.03035023 0.44298464 1.62695503 146 152 156
1.03694338 0.44600125 1.64939141 148 155 156
1.04837619 -0.82744086 1.83710527 94 109 124
1.05910635 -0.82784531 1.84711671 96 110 124
1.04461160 -0.81358086 1.83511920 95 111 122
1.05416743 -0.81459473 1.84964931 96 111 119
1.05201519 -0.00087577 1.67795014 124 129 139
1.05536989 0.01444701 1.67735827 120 132 139
1.05305850 0.01103362 1.69094594 123 134 142
1.05468678 0.01916948 1.70668242 123 132 138
1.05869770 0.03006684 1.69192962 134 141 144
1.05511931 0.02781020 1.70610748 134 140 144
1.05299680 0.04173051 1.68882964 133 139 146
1.05082715 0.41813207 1.19350354 124 133 139
1.05459368 0.41976160 1.20407081 124 126 139
1.05534058 0.42247274 1.19643477 130 141 147
1.05563939 0.42392521 1.20407456 133 136 146
1.04647809 0.43181495 1.65117069 156 161 161
1.04778858 0.43875004 1.66970456 147 150 153
1.05753303 0.43813905 1.68211377 140 144 144
1.05955195 0.44849486 1.19558390 139 149 151
1.04075491 0.44064841 1.63741994 156 162 164
1.04448101 0.44495139 1.65340948 156 162 163
1.05068929 0.44417534 1.66708469 154 158 160
1.05212500 0.44869405 1.68462439 141 145 147
1.07105410 -0.84432495 1.86234021 99 109 126
1.07035861 -0.82993762 1.85459043 95 110 122
1.07277722 -0.82276031 1.86453896 98 111 119
1.06972474 -0.81793606 1.85723794 98 111 119
1.07073541 -0.81595560 1.86841892 96 111 120
1.06144028 0.00901602 1.68462439 116 128 134
1.06071579 0.02377593 1.67795014 124 132 138
1.06307840 0.02680885 1.68629813 112 120 127
1.06159949 0.02805932 1.70926092 126 131 136
1.06034255 0.41954377 1.20944226 112 122 128
1.06443701 0.43373323 1.19708794 145 156 159
1.06825344 0.43140123 1.21387690 130 139 144
1.07101651 0.43446502 1.22480997 128 134 140
1.06493711 0.43171158 1.65743732 153 160 160
1.06996980 0.43616804 1.66901582 150 157 158
1.07765150 0.43922895 1.68629813 141 146 147
1.06406047 0.44440474 1.19671444 138 146 149
1.06971601 0.44808293 1.21159181 136 145 147
1.07412071 0.44608871 1.22657386 131 140 141
1.07350546 0.44765264 1.67257836 161 167 170
1.06756635 0.44573258 1.68884225 148 152 153
1.07326806 0.45476031 1.71184814 144 150 150
1.07276845 0.45409492 1.72053766 144 147 150
1.08096004 -0.82275122 1.85723794 101 110 122
1.08789294 -0.82369830 1.86362281 96 110 122
1.08392978 -0.81776898 1.86234021 95 111 121
1.08295476 -0.81790495 1.88303292 97 110 125
1.08257920 0.43651140 1.67587858 153 161 163
1.08905771 0.43840851 1.69157571 147 156 155
1.09192330 0.43839779 1.70863044 149 156 156
1.08460573 0.44962469 1.23381584 132 141 143
1.08814430 0.45357514 1.24156010 131 139 141
1.08338213 0.44959101 1.67712152 160 168 171
1.09336193 0.45051969 1.68715172 158 167 171
1.08146095 0.45226902 1.72491562 148 151 154
1.09761608 0.46412846 1.25072300 129 135 141
1.10286510 -0.82956958 1.87262940 95 113 125
1.11173236 0.43996635 1.71184814 161 173 172
1.10239458 0.45231991 1.69897699 158 167 171
1.11179690 0.44995747 1.71042891 155 164 167
1.11469114 0.46067789 1.71184814 159 169 174
1.12606549 0.45641175 1.72931588 146 154 158
1.13058603 0.46539080 1.72936094 158 168 172
1.17377186 0.47744033 1.63741994 121 127 132
1.17686169 0.47614859 1.65031528 140 142 144
1.17884269 0.47528332 1.66456637 157 158 158
1.17377186 0.48027048 1.63741994 123 128 132
1.17450976 0.48096203 1.65441030 148 149 152
1.16570167 0.75605239 1.79495029 118 125 131
1.17712831 0.75720060 1.81254506 113 121 126
1.16912805 0.76754546 1.80985981 119 126 131
1.17479533 0.76914576 1.82228994 116 122 127
1.16564683 0.78748566 1.81255368 114 123 129
1.19844407 0.45823783 1.67587858 172 181 181
1.19854182 0.45122233 1.68211377 167 174 176
1.18505731 0.46966033 1.63250688 148 155 159
1.19032436 0.47519283 1.65283128 138 143 148
1.19255349 0.47044624 1.66819563 153 156 156
1.19569609 0.47056197 1.68631381 155 157 156
1.19241828 0.48041227 1.65743732 128 136 142
1.18512005 0.76801127 1.83462268 111 117 122
1.19969493 0.77321070 1.85470074 113 121 125
1.18843794 0.79027294 1.84965046 122 128 134
1.19827855 0.78499812 1.86748481 109 114 121
1.19666910 0.81403941 1.86748481 106 114 120
1.21483939 0.19278170 1.31686501 101 115 123
1.21480164 0.19174593 1.32605493 123 133 140
1.21052909 0.43669483 1.67656910 160 169 169
1.21755373 0.43631431 1.68629813 165 174 172
1.21385642 0.45786115 1.67450094 172 177 175
1.21180000 0.45112411 1.68939597 169 175 177
1.21362436 0.45497074 1.70431843 171 179 180
1.20244491 0.47468278 1.65743732 149 157 161
1.20852455 0.46856857 1.67300181 164 169 169
1.21021450 0.46664471 1.69014875 171 178 177
1.21004382 0.46718927 1.70861955 165 174 174
1.20706558 0.77669559 1.87160337 117 125 129
1.21516726 0.77818168 1.88618004 119 127 130
1.20543746 0.78789364 1.87695223 111 117 123
1.21055679 0.78812801 1.88916703 114 121 126
1.20328975 0.80231932 1.87781680 123 128 135
1.21010029 0.80086052 1.89355266 108 113 122
1.21689856 0.81194222 1.90419054 119 124 131
1.21689856 0.82839841 1.90419054 103 113 118
1.22272154 0.19066911 1.31800210 106 117 128
1.22779676 0.18740890 1.32864532 121 131 138
1.22424364 0.37999225 1.54066324 152 155 155
1.22652173 0.38271649 1.53026110 168 174 177
1.23263752 0.39121705 1.55061660 158 165 167
1.23429949 0.40512161 1.51316652 166 171 170
1.22793033 0.40727361 1.53313579 168 176 175
1.23121934 0.40603545 1.54860797 170 178 177
1.23846900 0.40279382 1.56196272 167 176 177
1.23846900 0.42034203 1.56196272 165 172 171
1.22071230 0.43849590 1.69472957 168 177 176
1.23148978 0.43793285 1.70969212 175 185 183
1.23632801 0.43922588 1.72053766 176 187 185
1.22312701 0.45735595 1.67795014 156 162 163
1.22525839 0.45302606 1.69157570 167 173 175
1.23034406 0.45435152 1.70970300 169 177 177
1.23649251 0.44034350 1.72491562 175 186 185
1.22040784 0.46779414 1.68420595 175 179 178
1.22703723 0.46088754 1.70898072 182 187 186
1.22304821 0.75946486 1.88827813 136 138 140
1.22825903 0.76371959 1.89885676 130 133 135
1.22363035 0.78894204 1.90956457 121 126 131
1.22957150 0.79711292 1.92402089 117 126 129
1.22377372 0.82314914 1.91494870 124 129 136
1.23248017 0.83400306 1.92857242 117 123 130
1.25960203 0.17252657 1.34789233 115 131 142
1.24797165 0.18901599 1.33706950 116 129 137
1.25420003 0.18733358 1.34519596 113 128 136
1.25439882 0.39505853 1.53196096 163 167 168
1.24968843 0.39546813 1.54913435 166 174 175
1.24847996 0.39480835 1.56776462 158 165 168
1.25309992 0.39749554 1.58386809 144 147 155
1.24161255 0.41243708 1.51315141 172 175 175
1.24645976 0.40947469 1.52961179 165 169 170
1.25620080 0.41221327 1.54614570 169 174 174
1.24517381 0.41264340 1.57041895 164 171 171
1.25477164 0.40968780 1.58724890 159 167 169
1.25946029 0.42282025 1.55124533 174 179 179
1.25897622 0.42411016 1.59129536 171 176 176
1.24506319 0.45591161 1.71618187 165 174 174
1.24032295 0.77681148 1.91494870 124 125 128
1.24051738 0.77403322 1.92037344 131 132 133
1.24197787 0.78674096 1.91494870 114 118 121
1.24625106 0.78879508 1.93132832 121 124 129
1.25142697 0.79368074 1.95031488 123 126 130
1.25922149 0.79313049 1.96775985 132 133 135
1.24508417 0.81949484 1.95357883 121 124 130
1.25595161 0.80960022 1.97063007 120 128 131
1.24509454 0.82795294 1.95359498 116 120 128
1.25521663 0.82956304 1.97349674 121 124 132
1.25986123 0.82804978 1.98213995 126 129 135
1.27521815 0.13472561 1.35093412 136 143 149
1.27495050 0.15864143 1.35578732 124 131 140
1.27432290 0.15740088 1.36535352 128 140 150
1.27013206 0.16677639 1.35083078 114 128 136
1.26324304 0.18285624 1.35578732 111 127 137
1.26761347 0.39780159 1.55301887 168 175 175
1.26456511 0.39517428 1.56922770 171 180 179
1.26655924 0.39519802 1.58016741 172 181 180
1.26500207 0.40123829 1.55421571 160 165 167
1.26889808 0.40379993 1.56880075 165 171 173
1.27458870 0.40464878 1.58971316 164 173 173
1.26282871 0.42274660 1.54770366 174 179 178
1.26365439 0.79303617 1.95358960 121 123 127
1.26616061 0.79598713 1.97061586 130 131 133
1.27356517 0.79721606 1.98213995 131 132 134
1.26392132 0.80154514 1.95922494 119 123 128
1.26249063 0.80047226 1.96490383 119 122 126
1.26887697 0.80245653 1.99091047 136 140 141
1.26428313 0.83159556 1.99297413 126 129 132
1.26470121 0.84994882 1.98795259 121 126 132
1.26699185 0.86140221 1.98795259 117 123 126
1.28131676 0.13651220 1.35714221 144 152 157
1.28748305 0.13793961 1.36893969 155 164 168
1.28665471 0.15243050 1.35782146 124 130 138
1.29335299 0.15271629 1.37116294 135 142 149
1.29608274 0.15006709 1.38479364 145 153 158
1.28085773 0.16373958 1.35146034 122 133 139
1.28468037 0.16024344 1.36947846 117 126 135
1.28350798 0.40486706 1.57527339 167 173 173
1.28405730 0.40758349 1.58946411 166 174 174
1.28389904 0.40796922 1.60353056 168 177 177
1.30334171 0.15426281 1.35850072 126 138 143
1.30245607 0.15288358 1.36730978 131 140 145
1.30273322 0.15092872 1.38685855 133 141 146
1.57274663 0.66507101 1.62563992 144 150 148
1.58223480 0.67332509 1.63544714 156 162 160
1.59570903 0.67763492 1.64938164 152 159 156
1.59293306 0.69215605 1.65357477 160 167 165
1.59601590 0.69538346 1.66456637 162 172 168
1.58878549 0.71298512 1.65206687 157 163 161
1.59377098 0.70482181 1.66422117 162 168 166
1.60617760 0.69348071 1.65512725 153 160 159
1.61450434 0.69179489 1.66286039 152 160 157
1.60542107 0.71459410 1.67587858 162 166 164
1.60993862 0.71724921 1.68211377 163 166 165
1.60777438 0.72672591 1.67380702 159 165 163
1.63180627 0.70271499 1.67175245 152 160 159
1.62397277 0.73239319 1.69473664 160 165 163
1.63388526 0.73632358 1.70610603 159 165 163
1.65247194 0.70875692 1.69192616 153 162 162
1.65960324 0.70859635 1.70324588 153 161 159
1.64135599 0.73880422 1.71184814 159 166 164
1.66009283 0.71091175 1.69472957 155 164 165
1.67109366 0.71294382 1.70898434 154 162 162
1.67942584 0.71281642 1.72053766 152 161 161
1.68407297 0.71991062 1.71618187 157 166 166
1.68834722 0.71876401 1.72053766 158 167 168
1.69275558 0.72234746 1.72199698 157 166 166
1.70879042 0.72397722 1.73374329 158 167 167
1.71848194 0.72484656 1.74715165 159 168 168
1.72599288 0.72546804 1.74866430 161 170 169
1.73910701 0.72965190 1.77226925 153 161 161
1.74445939 0.73137400 1.77460417 153 162 162
1.75394402 0.72974713 1.78675504 142 151 152
1.76735066 0.72981324 1.79473095 139 148 150
1.77332727 0.72824353 1.80290389 139 149 152
1.78900954 0.73032794 1.81194735 149 160 161
1.80940378 0.73346088 1.82886565 155 164 164
