ply
format ascii 1.0
element vertex 1053
property float x
property float y
property float z
property uchar red
property uchar green
property uchar blue
end_header
-0.03568137 -0.13993169 0.92734861 215 215 215
-0.03407853 -0.13993169 0.92734861 201 201 201
-0.03247568 -0.13993169 0.92734861 194 194 194
-0.29184517 -0.07490251 0.50214213 207 209 211
-0.29097727 -0.07490251 0.50214213 207 209 210
-0.29010934 -0.07490251 0.50214213 210 212 213
-0.28945583 -0.07495803 0.50251436 217 218 219
-0.28858730 -0.07495803 0.50251436 218 219 220
-0.28771874 -0.07495803 0.50251436 214 217 218
-0.28663769 -0.07490251 0.50214213 216 218 220
-0.28555825 -0.07484707 0.50177044 215 217 219
-0.28490189 -0.07490251 0.50214213 207 209 211
-0.28403395 -0.07490251 0.50214213 200 201 203
-0.04037944 -0.13795142 0.92481834 186 186 188
-0.03883394 -0.13813987 0.92608178 198 199 199
-0.03723329 -0.13813987 0.92608178 214 214 214
-0.03568137 -0.13832885 0.92734861 217 217 217
-0.03403197 -0.13813987 0.92608178 213 212 212
-0.03238707 -0.13795142 0.92481834 192 190 191
-0.29206151 -0.07408948 0.50251436 207 208 210
-0.29119295 -0.07408948 0.50251436 218 219 221
-0.29032439 -0.07408948 0.50251436 220 222 224
-0.28967059 -0.07414445 0.50288713 219 223 224
-0.28858730 -0.07408948 0.50251436 215 219 220
-0.28771874 -0.07408948 0.50251436 207 211 212
-0.28685018 -0.07408948 0.50251436 211 215 216
-0.28555825 -0.07397980 0.50177044 211 215 216
-0.28490189 -0.07403460 0.50214213 206 210 211
-0.28403395 -0.07403460 0.50214213 196 197 199
-0.04032442 -0.13616718 0.92355835 187 186 188
-0.03878096 -0.13635294 0.92481834 200 197 198
-0.03718249 -0.13635294 0.92481834 208 202 204
-0.03558402 -0.13635294 0.92481834 204 196 199
-0.03393924 -0.13616718 0.92355835 205 200 202
-0.03229894 -0.13598192 0.92230183 193 187 188
-0.29206151 -0.07322092 0.50251436 196 197 199
-0.29140899 -0.07327525 0.50288713 200 201 203
-0.29053977 -0.07327525 0.50288713 200 201 203
-0.28967059 -0.07327525 0.50288713 202 207 208
-0.28858730 -0.07322092 0.50251436 205 211 211
-0.28771874 -0.07322092 0.50251436 201 206 207
-0.28663769 -0.07316669 0.50214213 201 207 207
-0.28555825 -0.07311253 0.50177044 204 208 209
-0.28469098 -0.07311253 0.50177044 206 210 211
-0.03872813 -0.13457088 0.92355835 185 180 181
-0.03713183 -0.13457088 0.92355835 201 194 197
-0.03558402 -0.13475448 0.92481834 211 202 205
-0.29314739 -0.07240605 0.50288713 199 203 203
-0.29206151 -0.07235237 0.50251436 200 203 204
-0.29140899 -0.07240605 0.50288713 204 205 205
-0.29032439 -0.07235237 0.50251436 202 203 203
-0.28945583 -0.07235237 0.50251436 200 201 203
-0.28837353 -0.07229878 0.50214213 205 206 207
-0.28771874 -0.07235237 0.50251436 205 208 209
-0.28663769 -0.07229878 0.50214213 200 203 205
-0.28555825 -0.07224526 0.50177044 203 206 207
-0.28490189 -0.07229878 0.50214213 211 215 216
-0.03872813 -0.13297459 0.92355835 187 183 182
-0.03558402 -0.13315600 0.92481834 210 204 204
-0.03389306 -0.13279366 0.92230183 205 199 199
-0.29314739 -0.07153685 0.50288713 207 208 209
-0.29206151 -0.07148381 0.50251436 207 208 209
-0.29140899 -0.07153685 0.50288713 212 213 214
-0.29032439 -0.07148381 0.50251436 214 215 215
-0.28945583 -0.07148381 0.50251436 210 211 211
-0.28837353 -0.07143086 0.50214213 208 209 210
-0.28750560 -0.07143086 0.50214213 210 211 213
-0.28663769 -0.07143086 0.50214213 203 204 206
-0.28555825 -0.07137799 0.50177044 203 204 206
-0.28511307 -0.07148381 0.50251436 210 211 213
-0.03878096 -0.13155752 0.92481834 200 195 196
-0.03723329 -0.13173725 0.92608178 199 193 194
-0.03563263 -0.13173725 0.92608178 203 197 198
-0.03398554 -0.13155752 0.92481834 206 204 202
-0.03238707 -0.13155752 0.92481834 214 213 211
-0.29140899 -0.07066765 0.50288713 208 209 210
-0.29032439 -0.07061526 0.50251436 207 208 209
-0.28924143 -0.07056295 0.50214213 206 207 209
-0.28816006 -0.07051072 0.50177044 208 209 211
-0.28750560 -0.07056295 0.50214213 211 212 214
-0.28642553 -0.07051072 0.50177044 207 208 211
-0.16970506 -0.08348816 0.59412080 223 222 225
-0.16867818 -0.08348816 0.59412080 220 219 221
-0.16779836 -0.08356139 0.59464198 218 218 220
-0.16706365 -0.08370825 0.59568703 210 210 212
-0.03878096 -0.12995905 0.92481834 205 202 204
-0.03718249 -0.12995905 0.92481834 190 186 189
-0.03563263 -0.13013659 0.92608178 194 191 193
-0.03393924 -0.12978199 0.92355835 218 217 217
-0.03234294 -0.12978199 0.92355835 219 218 218
-0.28924143 -0.06969504 0.50214213 197 198 200
-0.28837353 -0.06969504 0.50214213 198 199 201
-0.17130843 -0.08224502 0.59256279 204 203 205
-0.17058246 -0.08238906 0.59360057 203 202 204
-0.16955647 -0.08238906 0.59360057 209 208 210
-0.16853048 -0.08238906 0.59360057 214 214 216
-0.16765130 -0.08246127 0.59412080 215 215 217
-0.16677056 -0.08253360 0.59464198 218 218 220
-0.16530775 -0.08231698 0.59308124 217 217 217
-0.03867544 -0.12801130 0.92230183 197 193 196
-0.03708131 -0.12801130 0.92230183 195 192 194
-0.03553554 -0.12818570 0.92355835 206 205 207
-0.03384702 -0.12783737 0.92104870 224 223 224
-0.03225506 -0.12783737 0.92104870 224 223 223
-0.17248340 -0.08129188 0.59308124 216 216 216
-0.16940813 -0.08129188 0.59308124 204 205 207
-0.16838303 -0.08129188 0.59308124 203 203 205
-0.16750449 -0.08136307 0.59360057 204 204 206
-0.16662440 -0.08143438 0.59412080 211 211 213
-0.16530775 -0.08129188 0.59308124 216 216 217
-0.16209066 -0.08122083 0.59256279 210 210 211
-0.03867544 -0.12641717 0.92230183 204 202 203
-0.03708131 -0.12641717 0.92230183 211 209 209
-0.03548719 -0.12641717 0.92230183 211 210 211
-0.03384702 -0.12624541 0.92104870 233 232 230
-0.17335683 -0.08019663 0.59256279 215 215 216
-0.17263444 -0.08033708 0.59360057 219 219 219
-0.17145830 -0.08026679 0.59308124 219 219 219
-0.17058246 -0.08033708 0.59360057 217 218 218
-0.16955647 -0.08033708 0.59360057 208 209 209
-0.16853048 -0.08033708 0.59360057 208 209 209
-0.16765130 -0.08040749 0.59412080 210 211 211
-0.16677056 -0.08047802 0.59464198 212 212 214
-0.16545251 -0.08033708 0.59360057 215 215 217
-0.16428266 -0.08026679 0.59308124 215 215 217
-0.16237453 -0.08033708 0.59360057 208 208 210
-0.17248340 -0.07924170 0.59308124 217 217 217
-0.17145830 -0.07924170 0.59308124 217 217 217
-0.17043322 -0.07924170 0.59308124 216 217 217
-0.16955647 -0.07931109 0.59360057 212 213 213
-0.16853048 -0.07931109 0.59360057 216 218 218
-0.16765130 -0.07938059 0.59412080 216 218 218
-0.16677056 -0.07945023 0.59464198 212 212 212
-0.16545251 -0.07931109 0.59360057 207 208 208
-0.16428266 -0.07924170 0.59308124 210 210 210
-0.16251685 -0.07938059 0.59412080 206 205 207
-0.16163161 -0.07945023 0.59464198 209 209 211
-0.44368151 -0.14513244 1.10047376 195 197 200
-0.17320542 -0.07807998 0.59204525 203 204 207
-0.17248340 -0.07821660 0.59308124 211 213 214
-0.17145830 -0.07821660 0.59308124 215 217 217
-0.17058246 -0.07828510 0.59360057 216 216 216
-0.16970506 -0.07835371 0.59412080 203 203 203
-0.16867818 -0.07835371 0.59412080 209 209 209
-0.16779836 -0.07842244 0.59464198 213 213 213
-0.16691698 -0.07849129 0.59516406 206 207 207
-0.16559751 -0.07835371 0.59412080 205 205 205
-0.16457061 -0.07835371 0.59412080 209 209 209
-0.16325757 -0.07821660 0.59308124 211 210 210
-0.16294527 -0.07856026 0.59568703 209 208 208
-0.16191567 -0.07856026 0.59568703 209 208 208
-0.45288834 -0.14253619 1.09514034 207 207 208
-0.44954300 -0.14207713 1.09161329 213 213 214
-0.44910264 -0.14253619 1.09514034 206 207 207
-0.44720978 -0.14253619 1.09514034 198 200 199
-0.44459864 -0.14230628 1.09337389 198 201 199
-0.44414157 -0.14276683 1.09691238 199 203 202
-0.44224563 -0.14276683 1.09691238 187 191 190
-0.44034970 -0.14276683 1.09691238 182 183 185
-0.17263444 -0.07725911 0.59360057 205 209 210
-0.17088172 -0.07739465 0.59464198 216 217 219
-0.16985394 -0.07739465 0.59464198 209 210 210
-0.16882615 -0.07739465 0.59464198 202 203 203
-0.16809325 -0.07753067 0.59568703 207 207 209
-0.16721059 -0.07759885 0.59621096 207 208 210
-0.16588829 -0.07746260 0.59516406 208 209 211
-0.16471498 -0.07739465 0.59464198 214 214 216
-0.16354373 -0.07732682 0.59412080 214 214 215
-0.16323215 -0.07766716 0.59673578 210 209 210
-0.16234365 -0.07773560 0.59726155 208 207 209
-0.45142978 -0.14019036 1.09161329 202 202 202
-0.44738173 -0.13951637 1.08636510 211 211 211
-0.44693655 -0.13996498 1.08985829 209 210 210
-0.44505280 -0.13996498 1.08985829 206 207 206
-0.44245774 -0.13974032 1.08810890 205 206 204
-0.44199595 -0.14019036 1.09161329 201 204 203
-0.44081903 -0.14041649 1.09337389 192 196 195
-0.43822241 -0.14019036 1.09161329 190 191 192
-0.16882615 -0.07636686 0.59464198 202 204 206
-0.16809325 -0.07650107 0.59568703 212 213 215
-0.16721059 -0.07656836 0.59621096 213 216 217
-0.16588829 -0.07643390 0.59516406 212 215 216
-0.16471498 -0.07636686 0.59464198 211 212 214
-0.16234365 -0.07670327 0.59726155 208 208 210
-0.45374197 -0.13785961 1.08810890 206 206 206
-0.45404768 -0.13852668 1.09337389 212 212 212
-0.45070401 -0.13808125 1.08985829 209 209 209
-0.44595242 -0.13719894 1.08289433 208 208 208
-0.44550404 -0.13763869 1.08636510 205 205 203
-0.44433844 -0.13785961 1.08810890 206 206 204
-0.44174865 -0.13763869 1.08636510 207 208 206
-0.44057703 -0.13785961 1.08810890 200 200 199
-0.43940160 -0.13808125 1.08985829 201 202 201
-0.43751788 -0.13808125 1.08985829 202 202 202
-0.17278574 -0.07527304 0.59412080 210 210 214
-0.17175885 -0.07527304 0.59412080 209 209 213
-0.17088172 -0.07533907 0.59464198 205 205 209
-0.16985394 -0.07533907 0.59464198 199 200 202
-0.16882615 -0.07533907 0.59464198 204 205 207
-0.16809325 -0.07547148 0.59568703 218 218 220
-0.16706365 -0.07547148 0.59568703 221 222 224
-0.16588829 -0.07540521 0.59516406 218 219 221
-0.16471498 -0.07533907 0.59464198 211 212 214
-0.16354373 -0.07527304 0.59412080 212 213 215
-0.16294527 -0.07547148 0.59568703 209 210 212
-0.16205809 -0.07553785 0.59621096 212 212 214
-0.45447147 -0.13619752 1.08985829 210 210 210
-0.45551711 -0.13707906 1.09691238 206 206 206
-0.45070401 -0.13619752 1.08985829 209 209 209
-0.44738173 -0.13576099 1.08636510 211 211 210
-0.44693655 -0.13619752 1.08985829 213 213 211
-0.44505280 -0.13619752 1.08985829 211 211 209
-0.44245774 -0.13597891 1.08810890 211 211 209
-0.44057703 -0.13597891 1.08810890 203 203 201
-0.43940160 -0.13619752 1.08985829 203 204 202
-0.43681559 -0.13597891 1.08810890 213 214 212
-0.43703941 -0.13663687 1.09337389 217 218 216
-0.43514961 -0.13663687 1.09337389 220 221 221
-0.17263444 -0.07418113 0.59360057 214 214 216
-0.17175885 -0.07424615 0.59412080 214 214 215
-0.17088172 -0.07431128 0.59464198 214 214 216
-0.16985394 -0.07431128 0.59464198 209 209 211
-0.16882615 -0.07431128 0.59464198 203 203 205
-0.16794567 -0.07437652 0.59516406 203 203 204
-0.16691698 -0.07437652 0.59516406 213 213 214
-0.16574277 -0.07431128 0.59464198 216 216 216
-0.16457061 -0.07424615 0.59412080 217 217 217
-0.16340053 -0.07418113 0.59360057 217 217 217
-0.16265941 -0.07431128 0.59464198 212 212 213
-0.16177352 -0.07437652 0.59516406 211 211 212
-0.16145357 -0.07470446 0.59778821 212 212 213
-0.45215788 -0.13474706 1.09337389 200 201 201
-0.44882026 -0.13431379 1.08985829 205 206 206
-0.44837826 -0.13474706 1.09337389 210 211 211
-0.44576949 -0.13453007 1.09161329 210 211 211
-0.44316909 -0.13431379 1.08985829 207 208 206
-0.44128534 -0.13431379 1.08985829 200 201 199
-0.43940160 -0.13431379 1.08985829 197 198 196
-0.43681559 -0.13409819 1.08810890 209 210 207
-0.43703941 -0.13474706 1.09337389 218 219 215
-0.43444890 -0.13453007 1.09161329 211 212 210
-0.43325981 -0.13474706 1.09337389 207 208 206
-0.43136999 -0.13474706 1.09337389 212 215 214
-0.42809922 -0.13431379 1.08985829 204 207 206
-0.17350850 -0.07309114 0.59308124 219 219 221
-0.17278574 -0.07321926 0.59412080 216 216 217
-0.17190951 -0.07328349 0.59464198 217 217 217
-0.17088172 -0.07328349 0.59464198 215 215 215
-0.17000306 -0.07334783 0.59516406 210 210 210
-0.16882615 -0.07328349 0.59464198 206 207 207
-0.16794567 -0.07334783 0.59516406 208 208 208
-0.16691698 -0.07334783 0.59516406 211 211 211
-0.16574277 -0.07328349 0.59464198 211 211 211
-0.16442652 -0.07315514 0.59360057 212 209 210
-0.16340053 -0.07315514 0.59360057 217 215 216
-0.16237453 -0.07315514 0.59360057 219 218 219
-0.16163161 -0.07328349 0.59464198 221 220 220
-0.45142978 -0.13264331 1.09161329 202 202 203
-0.44666594 -0.13179439 1.08462691 204 205 207
-0.44693655 -0.13243006 1.08985829 204 204 206
-0.44505280 -0.13243006 1.08985829 206 206 208
-0.44245774 -0.13221748 1.08810890 201 202 204
-0.43987095 -0.13200560 1.08636510 195 196 198
-0.43869632 -0.13221748 1.08810890 195 197 195
-0.43611559 -0.13200560 1.08636510 204 206 204
-0.43633565 -0.13264331 1.09161329 210 211 210
-0.43375042 -0.13243006 1.08985829 206 207 205
-0.43186668 -0.13243006 1.08985829 199 200 198
-0.43067536 -0.13264331 1.09161329 207 208 206
-0.42741206 -0.13221748 1.08810890 209 210 208
-0.17190951 -0.07225569 0.59464198 213 214 214
-0.17030209 -0.07244635 0.59621096 201 201 201
-0.16897437 -0.07231914 0.59516406 201 201 202
-0.16809325 -0.07238268 0.59568703 202 201 201
-0.16721059 -0.07244635 0.59621096 207 206 206
-0.16588829 -0.07231914 0.59516406 211 210 212
-0.16457061 -0.07219237 0.59412080 207 206 207
-0.44782409 -0.12971216 1.08289433 207 207 207
-0.44382545 -0.12909350 1.07772946 209 209 210
-0.44408071 -0.12971216 1.08289433 210 210 211
-0.44150373 -0.12950528 1.08116722 212 212 214
-0.44033733 -0.12971216 1.08289433 206 208 209
-0.43846563 -0.12971216 1.08289433 200 203 205
-0.43729249 -0.12991971 1.08462691 196 200 199
-0.43541780 -0.12991971 1.08462691 199 202 202
-0.43563414 -0.13054632 1.08985829 203 206 205
-0.43305418 -0.13033678 1.08810890 201 203 202
-0.43117347 -0.13033678 1.08810890 194 195 194
-0.42998296 -0.13054632 1.08985829 194 195 194
-0.42741206 -0.13033678 1.08810890 202 202 202
-0.16912284 -0.07135309 0.59568703 207 207 209
-0.16838919 -0.07147871 0.59673578 209 208 210
-0.16735779 -0.07147871 0.59673578 211 210 212
-0.16603406 -0.07135309 0.59568703 215 215 217
-0.44710988 -0.12763657 1.08116722 216 216 216
-0.44382545 -0.12723073 1.07772946 221 221 221
-0.44266644 -0.12743333 1.07944560 220 220 220
-0.44080070 -0.12743333 1.07944560 215 215 215
-0.43963504 -0.12763657 1.08116722 205 205 205
-0.43776631 -0.12763657 1.08116722 202 202 202
-0.43659392 -0.12784046 1.08289433 203 207 206
-0.43472224 -0.12784046 1.08289433 206 210 209
-0.43493488 -0.12845607 1.08810890 217 221 220
-0.43236020 -0.12825021 1.08636510 215 219 218
-0.43117347 -0.12845607 1.08810890 203 207 206
-0.42998296 -0.12866259 1.08985829 202 203 204
-0.42741206 -0.12845607 1.08810890 208 208 210
-0.42690182 -0.12886977 1.09161329 210 209 211
-0.16927159 -0.07038534 0.59621096 205 205 207
-0.16853756 -0.07050937 0.59726155 208 208 210
-0.44710988 -0.12576786 1.08116722 216 216 216
-0.44453219 -0.12556760 1.07944560 215 216 216
-0.44337246 -0.12576786 1.08116722 214 216 215
-0.44080070 -0.12556760 1.07944560 205 209 208
-0.43893498 -0.12556760 1.07944560 202 204 204
-0.43776631 -0.12576786 1.08116722 202 202 202
-0.43659392 -0.12596877 1.08289433 203 204 204
-0.43472224 -0.12596877 1.08289433 203 203 203
-0.43493488 -0.12657537 1.08810890 210 214 213
-0.43236020 -0.12637252 1.08636510 217 221 220
-0.43117347 -0.12657537 1.08810890 210 214 214
-0.42998296 -0.12677886 1.08985829 207 208 209
-0.42809922 -0.12677886 1.08985829 208 208 210
-0.42690182 -0.12698302 1.09161329 201 201 203
-0.44639790 -0.12370186 1.07944560 216 216 216
-0.44312096 -0.12330916 1.07601881 211 214 213
-0.44009992 -0.12350520 1.07772946 202 206 205
-0.43823713 -0.12350520 1.07772946 207 209 209
-0.43637437 -0.12350520 1.07772946 207 207 207
-0.43520349 -0.12370186 1.07944560 206 206 206
-0.43402889 -0.12389915 1.08116722 208 208 208
-0.43423790 -0.12449482 1.08636510 199 203 203
-0.43097883 -0.12409708 1.08289433 201 205 206
-0.42979372 -0.12429563 1.08462691 199 203 202
-0.42741206 -0.12469465 1.08810890 203 203 204
-0.42621550 -0.12489513 1.08985829 197 197 197
-0.43940133 -0.12144934 1.07601881 208 209 209
-0.43754154 -0.12144934 1.07601881 207 207 207
-0.43568173 -0.12144934 1.07601881 205 201 204
-0.43451160 -0.12164243 1.07772946 198 195 197
-0.43333778 -0.12183613 1.07944560 207 203 206
-0.43029147 -0.12203044 1.08116722 192 192 193
-0.43568173 -0.11958954 1.07601881 197 196 198
-0.43333778 -0.11997040 1.07944560 199 199 203
0.36751711 -0.00921524 0.47174102 24 23 30
0.36629325 -0.00916423 0.46912929 24 23 30
0.36685023 -0.00915789 0.46880487 25 24 30
0.36828598 -0.00841745 0.47272792 24 23 30
0.36756513 -0.00838238 0.47075823 25 24 31
0.36761293 -0.00836495 0.46977952 25 24 31
0.36766052 -0.00834760 0.46880487 25 24 31
0.36685807 -0.00762164 0.47405025 25 23 30
0.36767742 -0.00762164 0.47405025 25 23 30
0.36901289 -0.00763231 0.47471419 25 23 30
0.36880034 -0.00761099 0.47338817 25 23 30
0.36858898 -0.00758979 0.47206953 26 24 31
0.36837879 -0.00756871 0.47075823 26 24 31
0.36842489 -0.00755298 0.46977952 26 24 31
0.36949292 -0.00755821 0.47010529 26 24 31
-0.35145098 -0.01143039 0.79658264 205 202 198
-0.34966326 -0.01141697 0.79564768 206 204 201
-0.34747240 -0.01139024 0.79378438 204 203 201
0.36935195 -0.00687925 0.47941431 25 23 30
0.36861646 -0.00685018 0.47738862 25 23 30
0.36788711 -0.00682136 0.47537997 25 23 30
0.36905804 -0.00679753 0.47371897 25 23 30
0.36910304 -0.00678331 0.47272792 25 23 30
0.36914784 -0.00676915 0.47174102 25 23 30
0.36944902 -0.00675974 0.47108537 25 23 30
0.37026325 -0.00675974 0.47108537 25 23 30
0.37004885 -0.00674100 0.46977952 25 23 30
-0.35420465 -0.01005356 0.79658264 199 194 192
-0.35200056 -0.01002999 0.79471493 201 196 194
-0.35103849 -0.01004176 0.79564768 189 186 185
-0.34925336 -0.01002999 0.79471493 187 183 184
-0.34706599 -0.01000653 0.79285598 189 184 187
0.36861646 -0.00602506 0.47738862 24 23 27
0.36685807 -0.00598292 0.47405025 23 22 27
0.36863479 -0.00594550 0.47108537 25 23 30
0.36893624 -0.00593725 0.47043154 25 23 30
0.37000611 -0.00594138 0.47075823 25 23 30
0.37004885 -0.00592902 0.46977952 25 23 30
-0.35420465 -0.00867673 0.79658264 204 203 202
-0.35200056 -0.00865639 0.79471493 198 197 196
-0.35103849 -0.00866655 0.79564768 185 184 184
-0.34925336 -0.00865639 0.79471493 182 179 181
-0.34747240 -0.00864625 0.79378438 179 173 179
0.36987513 -0.00522939 0.48009336 25 23 30
0.36887622 -0.00520359 0.47772506 24 22 29
0.36762932 -0.00517442 0.47504684 22 20 27
0.36922663 -0.00518532 0.47604764 21 19 26
0.36910304 -0.00514916 0.47272792 25 23 30
0.36889112 -0.00513484 0.47141296 25 23 30
0.36919245 -0.00512771 0.47075823 25 23 30
0.37000611 -0.00512771 0.47075823 25 23 30
0.36979258 -0.00511350 0.46945420 25 23 30
0.36983564 -0.00510290 0.46848089 25 23 30
-0.35420465 -0.00729990 0.79658264 202 201 201
-0.35200056 -0.00728279 0.79471493 201 200 200
-0.35062695 -0.00728279 0.79471493 196 195 195
-0.34925336 -0.00728279 0.79471493 195 194 195
-0.34747240 -0.00727426 0.79378438 183 182 184
0.36935195 -0.00439337 0.47941431 25 23 30
0.36861646 -0.00437480 0.47738862 24 22 29
0.36737189 -0.00435029 0.47471419 23 21 28
0.36845040 -0.00435334 0.47504684 23 21 28
0.36978975 -0.00435945 0.47571358 23 21 28
0.36884582 -0.00432907 0.47239849 25 23 30
0.36863479 -0.00431704 0.47108537 26 24 31
0.36919245 -0.00431404 0.47075823 26 24 31
0.37000611 -0.00431404 0.47075823 26 24 31
0.36979258 -0.00430209 0.46945420 26 24 31
0.36983564 -0.00429317 0.46848089 26 24 31
-0.35462138 -0.00593004 0.79751980 196 195 195
-0.35241371 -0.00591612 0.79564768 195 194 194
-0.35103849 -0.00591612 0.79564768 199 198 197
-0.34966326 -0.00591612 0.79564768 206 205 204
-0.34787974 -0.00590919 0.79471493 196 196 196
0.36835703 -0.00354718 0.47705266 25 23 30
0.36685807 -0.00352485 0.47405025 25 23 30
0.36742049 -0.00352239 0.47371897 25 23 30
0.36927149 -0.00353226 0.47504684 24 22 29
0.36884582 -0.00351257 0.47239849 24 22 29
0.36863479 -0.00350281 0.47108537 25 23 30
0.36944902 -0.00350281 0.47108537 25 24 29
-0.35545775 -0.00456233 0.79940075 199 198 198
-0.35324293 -0.00455160 0.79751980 196 195 195
-0.35227889 -0.00455696 0.79845917 206 205 203
-0.35089883 -0.00455696 0.79845917 210 210 208
-0.34869733 -0.00454625 0.79658264 202 202 201
-0.34650615 -0.00453559 0.79471493 199 199 198
-0.34416243 -0.00454091 0.79564768 198 198 198
0.36861646 -0.00272455 0.47738862 25 23 29
0.36711478 -0.00270739 0.47438198 25 24 29
0.36793473 -0.00270739 0.47438198 25 24 29
0.36953044 -0.00271308 0.47537997 25 24 29
0.36931613 -0.00270549 0.47405025 24 23 28
0.36910304 -0.00269795 0.47272792 24 23 28
0.36889112 -0.00269044 0.47141296 24 24 28
0.36996320 -0.00269231 0.47174102 24 24 28
0.37077856 -0.00269231 0.47174102 24 24 28
0.36979258 -0.00267926 0.46945420 24 24 28
0.36958024 -0.00267186 0.46815735 24 24 28
-0.35629806 -0.00318815 0.80129057 202 201 201
-0.35407606 -0.00318063 0.79940075 199 199 199
-0.35311073 -0.00318439 0.80034459 207 206 205
-0.35131264 -0.00318063 0.79940075 210 210 208
-0.34910756 -0.00317315 0.79751980 208 208 206
-0.34650615 -0.00316199 0.79471493 209 209 207
-0.34553763 -0.00316570 0.79564768 198 198 196
-0.34416243 -0.00316570 0.79564768 196 196 195
-0.34238535 -0.00316199 0.79471493 204 204 204
0.36887622 -0.00190076 0.47772506 24 23 27
0.36814529 -0.00189275 0.47571358 24 23 27
0.36922663 -0.00189408 0.47604764 24 23 27
0.37004945 -0.00189408 0.47604764 25 24 28
0.36983338 -0.00188878 0.47471419 24 24 28
0.36936063 -0.00188219 0.47305781 24 24 28
0.36940491 -0.00187826 0.47206953 24 24 28
0.37047884 -0.00187956 0.47239849 24 24 28
0.37129533 -0.00187956 0.47239849 24 24 28
0.37030548 -0.00187044 0.47010529 24 24 28
0.37009141 -0.00186527 0.46880487 24 24 28
-0.35629806 -0.00180318 0.80129057 206 206 205
-0.35407606 -0.00179893 0.79940075 202 202 201
-0.35269433 -0.00179893 0.79940075 207 207 205
-0.35089883 -0.00179681 0.79845917 211 211 209
-0.34869733 -0.00179259 0.79658264 212 212 211
-0.34610039 -0.00178629 0.79378438 207 207 206
0.36866271 -0.00107203 0.47638217 23 21 28
0.36974594 -0.00107278 0.47671717 23 21 28
0.37030947 -0.00107203 0.47638217 23 21 28
0.36983338 -0.00106827 0.47471419 24 22 29
0.36936063 -0.00106455 0.47305781 24 23 30
0.36966231 -0.00106306 0.47239849 24 23 30
0.37129533 -0.00106306 0.47239849 24 23 30
0.37056243 -0.00105864 0.47043154 24 23 30
0.37009141 -0.00105497 0.46880487 24 23 30
-0.35365900 -0.00041674 0.79845917 205 205 205
-0.35227889 -0.00041674 0.79845917 205 205 205
-0.34828806 -0.00041527 0.79564768 215 216 216
-0.34610039 -0.00041430 0.79378438 198 199 199
-0.34375894 -0.00041479 0.79471493 188 189 189
0.37056991 -0.00024881 0.47671717 23 21 28
0.36983338 -0.00024777 0.47471419 23 21 28
0.36936063 -0.00024690 0.47305781 23 21 28
0.37155426 -0.00024673 0.47272792 24 23 30
0.37081978 -0.00024570 0.47075823 24 23 30
0.36983564 -0.00024451 0.46848089 24 23 30
-0.35365900 0.00096333 0.79845917 202 203 203
-0.35227889 0.00096333 0.79845917 200 203 202
-0.34828806 0.00095994 0.79564768 212 216 215
-0.34375894 0.00095881 0.79471493 182 183 184
0.36965773 0.00057759 0.47873718 23 21 28
0.37078893 0.00057678 0.47806194 23 21 28
0.37083068 0.00057556 0.47705266 23 21 28
0.37009257 0.00057314 0.47504684 23 21 28
0.37133554 0.00056875 0.47141296 25 23 30
0.37034753 0.00056600 0.46912929 25 23 30
-0.35503906 0.00234340 0.79845917 205 206 204
-0.35324293 0.00234065 0.79751980 201 202 202
-0.35186446 0.00234065 0.79751980 203 206 206
-0.35007414 0.00233790 0.79658264 205 209 208
-0.34787974 0.00233241 0.79471493 212 214 214
-0.34375894 0.00233241 0.79471493 208 208 208
-0.33924043 0.00232968 0.79378438 207 206 205
0.36965773 0.00140505 0.47873718 23 21 28
0.36996266 0.00140307 0.47806194 22 20 27
0.37078893 0.00140307 0.47806194 23 21 28
0.37083068 0.00140011 0.47705266 23 21 28
0.37035209 0.00139520 0.47537997 24 22 29
0.37133554 0.00138355 0.47141296 25 23 30
0.37034753 0.00137685 0.46912929 25 23 30
-0.35462138 0.00371909 0.79751980 205 205 204
-0.35282785 0.00371472 0.79658264 201 202 202
-0.35145098 0.00371472 0.79658264 201 204 203
-0.34966326 0.00371036 0.79564768 199 203 202
-0.34787974 0.00370601 0.79471493 202 205 204
-0.34472841 0.00370168 0.79378438 219 219 219
-0.34335643 0.00370168 0.79378438 218 218 218
-0.34158444 0.00369735 0.79285598 216 216 216
-0.33924043 0.00370168 0.79378438 219 219 217
0.36996266 0.00222936 0.47806194 20 18 25
0.37078893 0.00222936 0.47806194 22 20 27
0.37083068 0.00222465 0.47705266 23 21 28
0.37061200 0.00221841 0.47571358 23 22 29
0.36936063 0.00220602 0.47305781 24 23 30
0.36966231 0.00220295 0.47239849 24 23 30
0.37159392 0.00219988 0.47174102 24 23 30
0.37086082 0.00219073 0.46977952 24 23 30
-0.35021639 0.00507367 0.79378438 196 197 198
-0.34884438 0.00507367 0.79378438 192 193 194
-0.34706599 0.00506773 0.79285598 199 199 200
-0.34529176 0.00506181 0.79192972 209 209 209
-0.34432521 0.00506773 0.79285598 218 216 217
-0.34295484 0.00506773 0.79285598 214 212 212
-0.34118539 0.00506181 0.79192972 210 210 210
-0.34021404 0.00506773 0.79285598 209 209 208
-0.33884367 0.00506773 0.79285598 211 211 210
0.37078893 0.00305565 0.47806194 22 21 28
0.37056991 0.00304705 0.47671717 22 21 28
0.37061200 0.00304064 0.47571358 22 21 28
0.36961854 0.00302578 0.47338817 24 23 30
0.37017825 0.00302366 0.47305781 24 23 30
0.37211183 0.00301945 0.47239849 24 23 30
0.37111801 0.00300479 0.47010529 24 23 30
-0.34295484 0.00643812 0.79285598 213 209 210
-0.34118539 0.00643060 0.79192972 205 204 204
-0.33981660 0.00643060 0.79192972 203 203 203
-0.33884367 0.00643812 0.79285598 202 202 202
0.37083068 0.00387375 0.47705266 25 23 30
0.37087226 0.00386558 0.47604764 25 23 30
0.36987683 0.00384668 0.47371897 25 23 30
0.37237132 0.00383863 0.47272792 25 23 30
0.37137556 0.00381998 0.47043154 25 23 30
0.37064537 0.00380414 0.46848089 25 23 30
-0.34335643 0.00781765 0.79378438 206 205 205
-0.34158444 0.00780851 0.79285598 203 203 203
-0.34021404 0.00780851 0.79285598 207 207 207
0.37113288 0.00469169 0.47638217 25 23 30
0.37013549 0.00466872 0.47405025 25 23 30
0.37043676 0.00466220 0.47338817 25 23 30
0.37211183 0.00465246 0.47239849 25 23 30
0.37111801 0.00462987 0.47010529 24 23 30
0.37064537 0.00461387 0.46848089 24 22 29
-0.34472841 0.00918964 0.79378438 197 197 197
-0.34335643 0.00918964 0.79378438 202 203 203
-0.34198442 0.00918964 0.79378438 203 203 203
-0.34061244 0.00918964 0.79378438 211 211 211
-0.33924043 0.00918964 0.79378438 213 214 212
0.37207317 0.00548042 0.47338817 24 23 29
0.37237132 0.00547277 0.47272792 23 23 28
0.37111801 0.00544241 0.47010529 22 22 27
0.37064537 0.00542360 0.46848089 22 22 27
-0.34335643 0.01056164 0.79378438 215 216 216
-0.34158444 0.01054928 0.79285598 209 210 210
-0.34021404 0.01054928 0.79285598 210 211 211
-0.33884367 0.01054928 0.79285598 211 212 212
0.37207317 0.00629863 0.47338817 23 23 27
0.37237132 0.00628984 0.47272792 22 22 26
0.37111801 0.00625495 0.47010529 22 22 26
0.37064537 0.00623334 0.46848089 22 22 26
-0.34295484 0.01191967 0.79285598 217 218 219
-0.34158444 0.01191967 0.79285598 208 209 211
-0.34021404 0.01191967 0.79285598 201 202 204
-0.33884367 0.01191967 0.79285598 206 206 208
-0.34295484 0.01329006 0.79285598 215 219 219
-0.34118539 0.01327453 0.79192972 209 210 212
-0.34021404 0.01329006 0.79285598 200 200 202
-0.33884367 0.01329006 0.79285598 192 192 195
-0.34255418 0.01464332 0.79192972 214 214 215
-0.34118539 0.01464332 0.79192972 210 210 212
-0.34021404 0.01466044 0.79285598 198 198 200
0.40974313 0.04558473 0.55292970 18 17 26
0.40903068 0.04539958 0.55068386 18 17 26
0.40463462 0.04650250 0.55247909 18 17 26
0.40625173 0.04657842 0.55338109 18 17 26
0.40687606 0.04654042 0.55292970 18 17 26
0.40979019 0.04665459 0.55428606 18 17 26
0.40974313 0.04654042 0.55292970 18 17 26
0.40936324 0.04638907 0.55113161 18 17 26
0.40998250 0.04635139 0.55068386 18 17 26
0.41093430 0.04635139 0.55068386 18 17 26
0.40658364 0.04757373 0.55383319 18 17 26
0.40687606 0.04749612 0.55292970 18 17 26
0.40849814 0.04757373 0.55383319 18 17 26
0.40979019 0.04761263 0.55428606 17 16 25
0.40974313 0.04749612 0.55292970 17 16 25
0.40969631 0.04738018 0.55158001 17 16 25
0.41031581 0.04734166 0.55113161 18 17 26
0.41160303 0.04738018 0.55158001 18 17 26
0.40720820 0.04849137 0.55338109 18 17 26
0.40849814 0.04853098 0.55383319 18 17 26
0.40979019 0.04857067 0.55428606 17 16 25
0.40974313 0.04845181 0.55292970 16 15 24
0.40936324 0.04829425 0.55113161 16 15 24
0.41031581 0.04829425 0.55113161 17 16 25
0.41193822 0.04837290 0.55202919 18 17 26
0.40720820 0.04944784 0.55338109 18 17 26
0.40849814 0.04948824 0.55383319 18 17 26
0.40979019 0.04952870 0.55428606 17 16 25
0.40974313 0.04940751 0.55292970 16 15 23
0.40903068 0.04920683 0.55068386 16 15 22
0.40720820 0.05040431 0.55338109 18 17 26
0.40849814 0.05044550 0.55383319 18 17 26
0.40945539 0.05044550 0.55383319 17 16 25
0.40974313 0.05036320 0.55292970 16 15 24
0.40936324 0.05019942 0.55113161 16 15 24
0.40658364 0.05140275 0.55383319 18 17 26
0.40754089 0.05140275 0.55383319 18 17 26
0.40816468 0.05136079 0.55338109 18 17 26
0.40945539 0.05140275 0.55383319 18 17 26
0.40974313 0.05131890 0.55292970 17 16 25
0.40936324 0.05115201 0.55113161 17 16 25
0.41064969 0.05119363 0.55158001 17 16 25
0.41227394 0.05127707 0.55247909 17 16 25
0.40724906 0.05244570 0.55473965 18 17 26
0.40820789 0.05244570 0.55473965 18 17 26
0.40883216 0.05240282 0.55428606 18 17 26
0.41012555 0.05244570 0.55473965 18 17 26
0.41041267 0.05236001 0.55383319 18 17 26
0.41069883 0.05227459 0.55292970 18 17 26
0.41199058 0.05231727 0.55338109 18 17 26
0.41525948 0.05248865 0.55519396 18 17 26
0.41656023 0.05253168 0.55564904 18 17 26
0.41854987 0.05266117 0.55701876 18 17 26
0.40144271 0.05314359 0.55202919 19 18 27
0.40305328 0.05323029 0.55292970 19 18 27
0.40500000 0.05336086 0.55428606 19 18 27
0.40595806 0.05336086 0.55428606 19 18 27
0.40791669 0.05349207 0.55564904 18 17 26
0.40887710 0.05349207 0.55564904 18 17 26
0.40983748 0.05349207 0.55564904 18 17 26
0.41046143 0.05344826 0.55519396 18 17 26
0.41074824 0.05336086 0.55428606 18 17 26
0.41136992 0.05331726 0.55383319 18 17 26
0.41266432 0.05336086 0.55428606 18 17 26
0.41396084 0.05340452 0.55473965 18 17 26
0.41594079 0.05353596 0.55610490 18 17 26
0.41758710 0.05362394 0.55701876 18 17 26
0.41958416 0.05375645 0.55839527 18 17 26
0.42020318 0.05371220 0.55793566 17 16 25
0.40466914 0.05427452 0.55383319 19 18 27
0.40595806 0.05431890 0.55428606 19 18 27
0.40791669 0.05445247 0.55564904 18 17 26
0.40887710 0.05445247 0.55564904 18 17 26
0.40950182 0.05440787 0.55519396 18 17 26
0.41046143 0.05440787 0.55519396 18 17 26
0.41074824 0.05431890 0.55428606 18 17 26
0.41136992 0.05427452 0.55383319 18 17 26
0.41266432 0.05431890 0.55428606 18 17 26
0.41396084 0.05436335 0.55473965 18 17 26
0.41594079 0.05449714 0.55610490 18 17 26
0.41690198 0.05449714 0.55610490 18 17 26
0.41854987 0.05458670 0.55701876 18 17 26
0.41916820 0.05454188 0.55656147 18 17 26
0.40433878 0.05518669 0.55338109 18 17 26
0.40562639 0.05523178 0.55383319 18 17 26
0.40758261 0.05536748 0.55519396 18 17 26
0.40820789 0.05532217 0.55473965 18 17 26
0.40916672 0.05532217 0.55473965 18 17 26
0.41046143 0.05536748 0.55519396 18 17 26
0.41074824 0.05527693 0.55428606 18 17 26
0.40724906 0.05628099 0.55473965 17 16 25
0.40787411 0.05623497 0.55428606 18 17 26
0.40916672 0.05628099 0.55473965 18 17 26
0.41046143 0.05632709 0.55519396 18 17 26
0.41074824 0.05623497 0.55428606 18 17 26
0.40724906 0.05723982 0.55473965 18 17 26
0.40787411 0.05719301 0.55428606 18 17 26
0.40916672 0.05723982 0.55473965 18 17 26
0.41046143 0.05728669 0.55519396 18 17 26
0.41074824 0.05719301 0.55428606 18 17 26
0.40724906 0.05819864 0.55473965 19 18 27
0.40787411 0.05815105 0.55428606 19 18 27
0.40950182 0.05824630 0.55519396 18 17 26
0.41079789 0.05829405 0.55564904 18 17 26
0.40758261 0.05920591 0.55519396 18 18 27
0.40820789 0.05915746 0.55473965 18 17 26
0.40983748 0.05925444 0.55564904 17 17 26
-0.37737039 0.16617286 1.19137406 174 174 176
-0.37399662 0.16559082 1.18720114 175 175 177
-0.37194464 0.16559082 1.18720114 177 176 178
-0.38081950 0.16793691 1.18928397 173 173 175
-0.37604859 0.16764280 1.18720114 173 173 175
-0.37269121 0.16705766 1.18305731 175 175 177
-0.37000066 0.16676661 1.18099630 176 176 178
-0.36541298 0.16561252 1.17282331 176 176 178
-0.37882566 0.16910248 1.18305731 173 173 173
-0.37352151 0.16763966 1.17282331 173 173 173
-0.37408319 0.16880788 1.18099630 173 173 173
-0.37075010 0.16822174 1.17689562 172 172 172
-0.36680549 0.16735013 1.17079771 174 174 174
-0.36352617 0.16677405 1.16676736 175 175 175
-0.37948796 0.17144650 1.18512559 173 173 173
-0.37473604 0.17114730 1.18305731 172 172 172
-0.37139490 0.17055200 1.17894232 171 171 171
-0.36744010 0.16966678 1.17282331 172 172 172
-0.38015255 0.17379874 1.18720114 172 172 172
-0.37547031 0.17258970 1.17894232 168 168 168
-0.37539116 0.17349491 1.18512559 169 169 169
-0.37139490 0.17258970 1.17894232 172 172 172
-0.36415294 0.17110187 1.16877902 168 168 168
-0.38490087 0.17709130 1.19557643 172 172 172
-0.38148877 0.17646883 1.19137406 169 169 171
-0.37743956 0.17554329 1.18512559 161 161 161
-0.37670833 0.17615923 1.18928397 164 164 164
-0.37334278 0.17554329 1.18512559 166 166 166
-0.36604628 0.17402212 1.17485583 175 172 173
-0.50288200 0.15724836 1.04936814 198 199 201
-0.38765100 0.17947428 1.19768882 172 171 171
-0.38558090 0.17947428 1.19768882 171 170 171
-0.38148877 0.17852803 1.19137406 167 167 169
-0.37810057 0.17790270 1.18720114 160 160 162
-0.37670833 0.17821482 1.18928397 163 163 165
-0.37334278 0.17759168 1.18512559 163 163 163
-0.37129438 0.17759168 1.18512559 172 169 170
-0.36604628 0.17605276 1.17485583 177 173 174
-0.36026934 0.17424090 1.16276479 177 173 174
1.33475566 0.29615873 1.97636104 24 23 32
1.33428168 0.29529780 1.97061586 24 23 32
-0.50288200 0.15906212 1.04936814 201 200 202
-0.38972992 0.17964008 1.18512559 171 170 172
-0.38422322 0.18090515 1.19347155 170 171 172
-0.38148877 0.18058722 1.19137406 168 169 170
-0.37810057 0.17995469 1.18720114 166 166 168
-0.37670833 0.18027040 1.18928397 167 168 170
-0.37334278 0.17964008 1.18512559 169 169 171
-0.37129438 0.17964008 1.18512559 170 169 170
-0.36668178 0.17839257 1.17689562 174 173 173
-0.36026934 0.17625065 1.16276479 175 174 174
1.34359252 0.30310953 1.99968100 24 23 32
1.33914816 0.30133176 1.98795259 24 23 32
1.33865857 0.30045065 1.98213995 24 23 32
1.33817172 0.29957470 1.97636104 23 22 31
1.33381033 0.29783803 1.96490383 22 21 30
-0.51354069 0.16137548 1.05262709 208 208 209
-0.51172131 0.16137548 1.05262709 201 202 204
-0.51069492 0.16162644 1.05426419 194 195 197
-0.50887269 0.16162644 1.05426419 202 202 204
-0.50547826 0.16112529 1.05099511 204 203 205
-0.50288200 0.16087586 1.04936814 202 201 203
-0.50106829 0.16087586 1.04936814 204 198 201
-0.49848288 0.16062722 1.04774630 207 194 198
-0.49793944 0.16162644 1.05426419 220 192 199
-0.49534687 0.16137548 1.05262709 228 198 206
-0.38904977 0.18137139 1.18305731 172 172 174
-0.38836047 0.18200667 1.18720114 171 171 173
-0.38563314 0.18168847 1.18512559 171 171 172
-0.38425651 0.18200667 1.18720114 170 171 171
-0.38287506 0.18232597 1.18928397 170 171 171
-0.38081950 0.18232597 1.18928397 172 173 173
-0.37678084 0.18137139 1.18305731 171 172 173
-0.37604859 0.18200667 1.18720114 169 170 172
-0.37269121 0.18137139 1.18305731 173 173 173
-0.37064639 0.18137139 1.18305731 175 174 174
-0.36604628 0.18011405 1.17485583 176 175 175
-0.35903764 0.17765096 1.15878952 177 176 176
1.34653294 0.30566415 1.99379957 24 23 32
1.34208453 0.30387664 1.98213995 23 22 31
1.33768773 0.30210990 1.97061586 22 21 30
-0.51717943 0.16319486 1.05262709 209 208 208
-0.51536006 0.16319486 1.05262709 208 208 208
-0.51274449 0.16294184 1.05099511 205 205 205
-0.51092792 0.16294184 1.05099511 193 194 196
-0.50990194 0.16319486 1.05262709 193 194 196
-0.50808251 0.16319486 1.05262709 207 207 209
-0.50469577 0.16268961 1.04936814 207 207 208
-0.50210476 0.16243815 1.04774630 204 204 204
-0.50029385 0.16243815 1.04774630 206 198 200
-0.49848288 0.16243815 1.04774630 210 192 197
-0.49744079 0.16268961 1.04936814 211 188 193
-0.49639544 0.16294184 1.05099511 218 190 197
-0.49457890 0.16294184 1.05099511 225 197 204
-0.39177832 0.18373686 1.18512559 166 166 166
-0.38837197 0.18309666 1.18099630 171 171 171
-0.38768151 0.18373686 1.18512559 173 173 173
-0.38496011 0.18341620 1.18305731 173 173 173
-0.38358474 0.18373686 1.18512559 173 173 173
-0.38220453 0.18405865 1.18720114 172 172 172
-0.38081950 0.18438156 1.18928397 172 172 172
-0.37743956 0.18373686 1.18512559 172 172 174
-0.37670833 0.18438156 1.18928397 173 173 175
-0.37334278 0.18373686 1.18512559 173 173 174
-0.37129438 0.18373686 1.18512559 174 174 175
-0.36731949 0.18277824 1.17894232 176 176 176
-0.36088836 0.18057987 1.16476262 176 176 176
-0.35642549 0.17934725 1.15681207 176 176 176
1.34997904 0.30911025 1.99379957 23 22 31
-0.51899880 0.16501424 1.05262709 216 215 215
-0.51717943 0.16501424 1.05262709 214 214 214
-0.51536006 0.16501424 1.05262709 208 209 211
-0.51354069 0.16501424 1.05262709 203 204 206
-0.51172131 0.16501424 1.05262709 201 202 204
-0.50990194 0.16501424 1.05262709 199 200 201
-0.50729483 0.16475840 1.05099511 205 205 205
-0.50469577 0.16450337 1.04936814 207 207 207
-0.50210476 0.16424911 1.04774630 206 206 206
-0.50106829 0.16450337 1.04936814 207 203 203
-0.49848288 0.16424911 1.04774630 207 198 199
-0.49639544 0.16475840 1.05099511 218 190 195
-0.49457890 0.16475840 1.05099511 221 193 199
-0.38837197 0.18513793 1.18099630 170 170 170
-0.38700494 0.18546103 1.18305731 170 170 170
-0.38496011 0.18546103 1.18305731 172 172 172
-0.38358474 0.18578526 1.18512559 173 172 172
-0.38081950 0.18643714 1.18928397 173 173 173
-0.37743956 0.18578526 1.18512559 171 171 172
-0.37604859 0.18611063 1.18720114 170 170 172
-0.37334278 0.18578526 1.18512559 171 171 171
-0.37129438 0.18578526 1.18512559 173 173 173
-0.36795941 0.18513793 1.18099630 175 175 175
-0.36275825 0.18353915 1.17079771 176 175 175
1.35396135 0.31347838 1.99968100 24 23 32
-0.51980597 0.16709308 1.05426419 207 208 208
-0.51798373 0.16709308 1.05426419 209 210 210
-0.51616156 0.16709308 1.05426419 207 208 210
-0.51354069 0.16683362 1.05262709 205 206 208
-0.51172131 0.16683362 1.05262709 205 206 208
-0.51069492 0.16709308 1.05426419 207 208 209
-0.50729483 0.16657495 1.05099511 209 209 209
-0.50469577 0.16631711 1.04936814 210 210 209
-0.50210476 0.16606005 1.04774630 210 210 207
-0.50184512 0.16657495 1.05099511 212 208 206
-0.49925452 0.16631711 1.04936814 209 200 199
-0.49716625 0.16683362 1.05262709 214 182 190
-0.49457890 0.16657495 1.05099511 222 189 198
-0.39109457 0.18750584 1.18305731 172 172 172
-0.38837197 0.18717918 1.18099630 172 172 172
-0.38633072 0.18717918 1.18099630 169 168 168
-0.38428947 0.18717918 1.18099630 175 174 174
-0.38291532 0.18750584 1.18305731 173 173 173
-0.38015255 0.18816261 1.18720114 173 173 173
-0.37743956 0.18783365 1.18512559 173 173 174
-0.37539116 0.18783365 1.18512559 174 174 176
-0.37334278 0.18783365 1.18512559 176 175 175
-0.37129438 0.18783365 1.18512559 177 176 176
-0.36731949 0.18685365 1.17894232 177 176 176
-0.36275825 0.18556277 1.17079771 172 171 171
-0.51899880 0.16865300 1.05262709 207 207 207
-0.51717943 0.16865300 1.05262709 203 204 204
-0.51536006 0.16865300 1.05262709 197 198 200
-0.51354069 0.16865300 1.05262709 200 201 203
-0.51172131 0.16865300 1.05262709 203 203 204
-0.50990194 0.16865300 1.05262709 206 207 207
-0.50729483 0.16839153 1.05099511 207 207 207
-0.50469577 0.16813086 1.04936814 205 204 203
-0.50210476 0.16787100 1.04774630 201 200 196
-0.50106829 0.16813086 1.04936814 204 197 195
-0.49925452 0.16813086 1.04936814 204 189 190
-0.49821201 0.16839153 1.05099511 206 178 184
-0.49639544 0.16839153 1.05099511 211 176 184
-0.49457890 0.16839153 1.05099511 218 181 191
-0.39109457 0.18955067 1.18305731 171 171 171
-0.38633072 0.18922044 1.18099630 174 173 173
-0.37810057 0.19021459 1.18720114 172 172 173
-0.37539116 0.18988205 1.18512559 174 174 176
-0.37334278 0.18988205 1.18512559 176 175 177
-0.37129438 0.18988205 1.18512559 176 175 176
-0.36731949 0.18889137 1.17894232 176 175 176
-0.36213279 0.18726298 1.16877902 170 170 172
-0.51899880 0.17047238 1.05262709 207 208 209
-0.51717943 0.17047238 1.05262709 201 202 203
-0.51536006 0.17047238 1.05262709 194 195 197
-0.51354069 0.17047238 1.05262709 194 195 197
-0.51092792 0.17020808 1.05099511 195 195 195
-0.50911134 0.17020808 1.05099511 194 194 194
-0.50650954 0.16994460 1.04936814 195 195 194
-0.50391573 0.16968194 1.04774630 193 193 191
-0.50210476 0.16968194 1.04774630 189 188 185
-0.50029385 0.16968194 1.04774630 195 186 186
-0.49848288 0.16968194 1.04774630 204 186 188
-0.49744079 0.16994460 1.04936814 211 183 188
-0.49639544 0.17020808 1.05099511 215 180 188
-0.49381328 0.16994460 1.04936814 223 185 193
-0.49048102 0.16942008 1.04612935 228 188 197
-0.46488136 0.16608807 1.02555501 165 130 141
-0.37876391 0.19260389 1.18928397 171 170 172
-0.37670833 0.19260389 1.18928397 173 173 175
-0.37399662 0.19226657 1.18720114 174 174 176
-0.37259716 0.19260389 1.18928397 173 173 175
-0.51717943 0.17229176 1.05262709 196 196 198
-0.51456106 0.17202464 1.05099511 196 198 200
-0.51274449 0.17202464 1.05099511 202 203 205
-0.51092792 0.17202464 1.05099511 201 201 201
-0.50911134 0.17202464 1.05099511 196 196 196
-0.50572670 0.17149287 1.04774630 197 197 197
-0.50313807 0.17122823 1.04612935 196 196 195
-0.50132990 0.17122823 1.04612935 194 194 192
-0.49952176 0.17122823 1.04612935 203 197 196
-0.49771363 0.17122823 1.04612935 207 196 196
-0.49667194 0.17149287 1.04774630 212 189 193
-0.49486101 0.17149287 1.04774630 216 186 192
-0.49305004 0.17149287 1.04774630 221 186 194
-0.48972526 0.17096440 1.04451752 225 190 197
-0.48716927 0.17070137 1.04291058 221 190 196
-0.48462111 0.17043915 1.04130852 199 170 176
-0.47702339 0.16965733 1.03653193 167 133 143
-0.47378296 0.16914009 1.03337169 164 130 139
-0.47056222 0.16862598 1.03023076 165 128 139
-0.46736100 0.16811499 1.02710891 167 131 141
-0.46488136 0.16786066 1.02555501 167 132 142
-0.37810057 0.19431855 1.18720114 174 173 175
-0.37604859 0.19431855 1.18720114 173 172 174
-0.37399662 0.19431855 1.18720114 173 172 174
-0.37259716 0.19465946 1.18928397 172 171 173
-0.51717943 0.17411114 1.05262709 204 207 208
-0.51354069 0.17411114 1.05262709 215 221 221
-0.51092792 0.17384121 1.05099511 219 219 219
-0.50911134 0.17384121 1.05099511 211 211 211
-0.50572670 0.17330383 1.04774630 206 206 206
-0.50313807 0.17303638 1.04612935 206 206 205
-0.50055748 0.17276976 1.04451752 204 204 202
-0.49875209 0.17276976 1.04451752 206 203 202
-0.49694672 0.17276976 1.04451752 203 197 197
-0.49590546 0.17303638 1.04612935 209 190 193
-0.49409732 0.17303638 1.04612935 217 189 196
-0.49153063 0.17276976 1.04451752 221 192 198
-0.48972526 0.17276976 1.04451752 219 191 196
-0.48642093 0.17223898 1.04130852 220 192 199
-0.48387784 0.17197481 1.03971136 203 176 183
-0.48208076 0.17197481 1.03971136 164 137 143
-0.47881496 0.17144889 1.03653193 160 132 140
-0.47629511 0.17118713 1.03494942 168 125 140
-0.47378296 0.17092618 1.03337169 168 123 139
-0.47056222 0.17040665 1.03023076 171 124 140
-0.46736100 0.16989027 1.02710891 171 128 142
-0.46488136 0.16963324 1.02555501 168 130 141
-0.37269121 0.19568512 1.18305731 170 169 171
1.35741758 0.33075982 1.99968100 19 18 27
-0.51172131 0.17593051 1.05262709 220 220 220
-0.50911134 0.17565776 1.05099511 221 221 221
-0.50650954 0.17538585 1.04936814 217 217 217
-0.50313807 0.17484453 1.04612935 213 213 213
-0.50055748 0.17457512 1.04451752 209 208 207
-0.49875209 0.17457512 1.04451752 208 203 204
-0.49618220 0.17430654 1.04291058 205 195 198
-0.48462111 0.17403880 1.04130852 199 175 182
-0.48208076 0.17377186 1.03971136 159 135 146
-0.47881496 0.17324045 1.03653193 150 124 136
-0.47702339 0.17324045 1.03653193 169 123 142
-0.47306183 0.17244940 1.03179884 173 129 147
-0.46984816 0.17192604 1.02866745 170 128 143
-0.46736100 0.17166553 1.02710891 168 129 141
-0.46488136 0.17140584 1.02555501 166 131 140
-0.50990194 0.17774990 1.05262709 213 213 213
-0.50729483 0.17747432 1.05099511 210 210 210
-0.50469577 0.17719959 1.04936814 209 209 209
-0.50132990 0.17665268 1.04612935 208 207 207
-0.49952176 0.17665268 1.04612935 209 202 204
-0.49694672 0.17638049 1.04451752 207 194 198
-0.48356408 0.17610914 1.04291058 155 132 144
-0.47954822 0.17530006 1.03811920 154 129 142
-0.47702339 0.17503202 1.03653193 161 128 143
-0.47306183 0.17423278 1.03179884 165 132 145
-0.46594903 0.17291683 1.02400577 165 132 141
-0.46347898 0.17265601 1.02246130 166 133 141
-0.51149040 0.18012869 1.05590630 202 202 200
-0.51308882 0.18252234 1.05920601 203 204 199
-0.51469725 0.18493101 1.06252635 208 209 203
-0.79484731 0.27716979 1.33970726 111 110 111
-0.79096860 0.27662313 1.33706474 113 113 115
-0.79484731 0.27948537 1.33970726 109 109 109
-0.79096860 0.27893412 1.33706474 108 108 110
-0.79021615 0.27948537 1.33970726 108 108 111
-0.78479862 0.27838504 1.33443272 98 98 103
-0.80497575 0.28291923 1.34502351 104 103 103
-0.80106157 0.28235897 1.34236014 103 102 102
-0.79874146 0.28235897 1.34236014 104 103 103
-0.79484731 0.28180096 1.33970726 105 104 105
-0.79096860 0.28124514 1.33706474 105 105 109
-0.78865755 0.28124514 1.33706474 105 105 110
-0.78479862 0.28069150 1.33443272 100 99 108
-0.79874146 0.28467914 1.34236014 103 102 104
-0.79484731 0.28411654 1.33970726 104 104 107
-0.79096860 0.28355613 1.33706474 105 105 111
-0.78865755 0.28355613 1.33706474 103 103 110
-0.78325677 0.28244197 1.33181107 101 101 110
-0.80497575 0.28756875 1.34502351 103 103 105
-0.80106157 0.28699932 1.34236014 101 101 103
-0.79874146 0.28699932 1.34236014 103 103 105
-0.79484731 0.28643212 1.33970726 105 104 109
-0.79096860 0.28586715 1.33706474 104 104 113
-0.78865755 0.28586715 1.33706474 101 101 110
-0.78325677 0.28474391 1.33181107 102 102 111
-0.78249216 0.28530443 1.33443272 103 103 112
-0.80497575 0.28989351 1.34502351 104 99 107
-0.80106157 0.28931946 1.34236014 102 100 105
-0.79874146 0.28931946 1.34236014 104 103 107
-0.79484731 0.28874770 1.33970726 105 105 109
-0.79096860 0.28817818 1.33706474 105 105 110
-0.79021615 0.28874770 1.33970726 105 105 110
-0.78479862 0.28761089 1.33443272 104 104 111
-0.78249216 0.28761089 1.33443272 104 104 111
-0.80497575 0.29221827 1.34502351 100 99 102
-0.80106157 0.29163963 1.34236014 101 101 104
-0.79874146 0.29163963 1.34236014 103 103 107
-0.79642129 0.29163963 1.34236014 103 103 108
-0.79253173 0.29106325 1.33970726 102 102 109
-0.79021615 0.29106325 1.33970726 102 102 109
-0.78479862 0.28991735 1.33443272 102 103 109
-0.78403556 0.29048917 1.33706474 103 103 109
-0.80497575 0.29454303 1.34502351 99 100 102
-0.80106157 0.29395980 1.34236014 101 101 104
-0.79874146 0.29395980 1.34236014 101 102 104
-0.79484731 0.29337883 1.33970726 101 102 105
-0.79253173 0.29337883 1.33970726 100 102 106
-0.79178095 0.29395980 1.34236014 100 102 107
-0.78634655 0.29280019 1.33706474 101 103 109
-0.80497575 0.29686779 1.34502351 92 95 96
-0.80106157 0.29627994 1.34236014 91 94 100
-0.79874146 0.29627994 1.34236014 95 98 105
-0.79484731 0.29569441 1.33970726 96 100 106
-0.79096860 0.29511118 1.33706474 97 100 106
-0.79021615 0.29569441 1.33970726 97 100 106
-0.78479862 0.29453027 1.33443272 96 99 106
-0.78403556 0.29511118 1.33706474 97 100 106
-0.80497575 0.29919258 1.34502351 100 104 105
-0.79947847 0.29800999 1.33970726 97 100 103
-0.79874146 0.29860011 1.34236014 96 99 101
-0.79642129 0.29860011 1.34236014 96 99 101
-0.79253173 0.29800999 1.33970726 97 99 101
-0.79178095 0.29860011 1.34236014 96 99 101
-0.78479862 0.29683670 1.33443272 95 99 102
-0.78403556 0.29742220 1.33706474 95 99 103
-0.79780287 0.29797006 1.32919967 103 103 103
-0.80338174 0.30092028 1.34236014 103 103 103
-0.79790157 0.29973319 1.33706474 99 100 101
-0.79716289 0.30032557 1.33970726 99 99 100
-0.79484731 0.30032557 1.33970726 97 97 99
-0.79253173 0.30032557 1.33970726 97 97 99
-0.79178095 0.30092028 1.34236014 98 98 101
-0.78479862 0.29914317 1.33443272 97 98 102
