ply
format ascii 1.0
element vertex 352
property float x
property float y
property float z
property uchar red
property uchar green
property uchar blue
end_header
-0.80316920 0.29105848 1.34379426 100 100 102
-0.80338174 0.30092028 1.34236014 103 103 103
-0.79110776 0.27834714 1.33794733 107 107 109
-0.78852612 0.29791135 1.31374383 97 97 97
-0.78942975 0.29057780 1.33666623 101 101 107
-0.79719468 0.29221967 1.34236014 100 101 104
-0.78437021 0.30645385 1.31629980 93 93 98
-0.78932361 0.30458026 1.33260799 94 95 100
-0.79178095 0.30092028 1.34236014 98 98 101
-0.77173004 0.30708678 1.30932140 96 95 101
-0.77697738 0.30360594 1.32972808 97 97 103
-0.50288200 0.15815524 1.04936814 199 199 201
-0.50915290 0.16839174 1.05073602 204 204 204
-0.51228961 0.18132552 1.05755615 202 203 199
-0.51469725 0.18493101 1.06252635 208 209 203
-0.48267978 0.17257382 1.03971136 175 149 157
-0.49489485 0.16932862 1.04745570 211 188 193
-0.47131487 0.17117587 1.03066140 165 128 141
-0.44676039 -0.44873673 1.09869015 208 209 209
-0.44525012 -0.44562237 1.10333126 213 214 214
-0.44555275 -0.43155397 1.10424910 211 212 212
-0.44584764 -0.14191725 1.09434053 198 200 200
-0.44368151 -0.14513244 1.10047376 195 197 200
-0.44289663 -0.12587137 1.07849280 212 213 213
-0.44644744 -0.13467717 1.08793831 207 208 207
-0.44189703 0.45590494 1.06559320 176 175 175
-0.44775778 0.47241249 1.07046854 178 178 175
-0.44911799 0.48897780 1.07295700 178 179 180
-0.45333890 0.49713545 1.08116722 177 177 177
-0.44755098 0.50052214 1.07772946 182 182 182
-0.45352722 0.50254393 1.08438577 179 179 179
-0.43876545 -0.44562576 1.10406356 211 212 212
-0.43794878 -0.43263741 1.10733757 213 215 215
-0.42181694 -0.22719704 0.71800420 205 207 207
-0.42153344 -0.21408586 0.71886730 202 208 208
-0.42367449 -0.21454088 0.72039515 203 209 209
-0.43822241 -0.14019036 1.09161329 190 191 192
-0.43658044 -0.12267849 1.07773129 205 204 205
-0.43356168 -0.13002979 1.08777123 204 206 205
-0.43450975 -0.11977997 1.07773221 198 197 200
-0.43531492 0.45451835 1.06378266 177 178 179
-0.42945338 0.47469986 1.05687146 185 185 185
-0.43490436 0.47046959 1.06666474 184 185 184
-0.43608531 0.48420937 1.06467700 188 189 189
-0.41002214 -0.22674731 0.71514654 211 213 213
-0.41371334 -0.23072776 0.72039515 205 205 204
-0.41684888 -0.21645313 0.71438652 206 213 211
-0.39883384 -0.22492042 0.71382099 209 215 214
-0.38179370 -0.19252134 0.82840863 209 211 212
-0.38397653 0.17655156 1.19191411 170 170 171
-0.38540815 0.18468380 1.18513546 171 171 171
-0.38279331 0.35877132 1.20193589 197 197 198
-0.38333083 0.37802090 1.19874871 192 192 195
-0.38357558 0.36592829 1.21238892 194 196 196
-0.38626334 0.38094783 1.19980860 192 191 191
-0.38352435 0.38958418 1.21019629 194 195 194
-0.38196365 0.39625630 1.22142673 192 192 192
-0.38477850 0.40047857 1.22142673 187 187 188
-0.36875017 -0.18253065 0.81558635 207 207 207
-0.37270130 -0.18837766 0.82360856 205 208 209
-0.36853264 -0.17370329 0.81230069 207 209 210
-0.36727883 0.17140381 1.17271156 173 172 172
-0.37496431 0.17288582 1.18562462 169 169 170
-0.36456780 0.18444776 1.17335248 174 174 174
-0.37447878 0.18790844 1.18599903 172 172 173
-0.37552224 0.35669386 1.20193589 200 202 201
-0.37474282 0.37007559 1.21366779 195 196 196
-0.36119041 0.37742630 1.22197792 184 186 184
-0.37456069 0.38663905 1.21651865 190 190 191
-0.36620761 0.39198656 1.22368888 187 187 186
-0.36366713 0.40047857 1.22142673 196 196 194
-0.35969949 -0.18078840 0.80894017 204 204 204
-0.35969949 -0.17939022 0.80894017 201 201 203
-0.34991868 -0.00550646 0.79608912 199 198 198
-0.35523562 -0.00272524 0.80097524 205 204 203
-0.34519676 0.00664603 0.79410548 206 206 207
-0.35773157 0.17849910 1.15780079 176 176 176
-0.35813508 0.37814282 1.22658439 188 189 188
-0.35910837 0.38557735 1.23114376 183 183 183
-0.35959053 0.39062780 1.24383819 183 183 184
-0.33908403 0.00765738 0.79306253 207 207 207
-0.30146807 -0.28424103 0.63226988 210 211 208
-0.30060500 -0.27982461 0.63413644 208 208 206
-0.30015168 -0.18025228 0.64255148 215 216 216
-0.30072176 -0.17948194 0.64377195 209 211 213
-0.29517878 -0.28631226 0.63244811 210 212 211
-0.29827397 -0.27969386 0.63384011 206 207 205
-0.29109371 -0.18573731 0.64626521 212 214 215
-0.28478487 -0.17545030 0.63921922 217 219 220
-0.29219230 -0.17729610 0.64315190 207 209 210
-0.29264130 -0.08045919 0.50251490 208 212 211
-0.28357135 -0.07800821 0.49979744 206 207 209
-0.28840102 -0.07458147 0.50194393 206 207 209
-0.28601854 0.15772692 0.61148384 154 130 140
-0.28793105 0.16334343 0.61247762 135 120 130
-0.26548234 -0.14264867 0.76793714 206 206 204
-0.26815652 -0.12996993 0.77204933 200 200 201
-0.27059637 -0.11849934 0.76771723 193 195 197
-0.25383840 -0.14147362 0.76518765 197 198 199
-0.25374305 -0.13284445 0.76673210 200 200 200
-0.25377703 -0.10175701 0.47941457 216 218 220
-0.24678668 -0.10265840 0.48328182 205 208 208
-0.25423290 -0.09947982 0.47975361 219 220 221
-0.24679364 -0.09848420 0.48279469 208 210 209
-0.23899455 -0.10217384 0.48226727 209 213 214
-0.22067384 0.16189478 0.62709735 170 169 169
-0.20663495 -0.18427683 0.54420679 204 204 203
-0.20589614 -0.17683352 0.54545896 212 212 212
-0.21201663 0.15734630 0.63021772 160 155 155
-0.21266775 0.16471895 0.62654721 166 162 162
-0.20184739 0.27593148 0.63464202 181 181 180
-0.20322596 0.28649851 0.63732129 163 163 163
-0.20844008 0.29370757 0.64243941 129 129 130
-0.21082325 0.30058070 0.64561244 0 0 0
-0.19973955 -0.18479216 0.54187995 199 200 200
-0.18966268 0.27188429 0.63349761 177 178 178
-0.19255703 0.28583653 0.63406378 147 149 149
-0.18260369 0.49943051 1.54769826 180 181 180
-0.18199212 0.50681333 1.55391645 185 185 181
-0.18579318 0.51687890 1.56816343 182 182 180
-0.18565870 0.52352516 1.55837202 180 179 175
-0.18491254 0.52384726 1.56957163 181 181 178
-0.18654662 0.52250266 1.58109042 181 181 179
-0.16818638 -0.08151014 0.59363723 212 212 213
-0.16735901 -0.07563109 0.59475744 210 210 211
-0.17738324 0.26592085 0.63449121 171 172 172
-0.17951876 0.49829283 1.54417276 183 184 181
-0.17841626 0.50376912 1.55006476 178 179 174
-0.17804333 0.51218889 1.57041895 178 178 175
-0.17146373 0.51765766 1.58598399 178 178 177
-0.17877092 0.52793363 1.57284337 182 183 181
-0.17030233 0.52926134 1.58965239 181 183 183
-0.17313074 0.54190503 1.59598008 184 188 187
-0.15119322 0.50440884 1.55479777 185 186 188
-0.15495065 0.50993730 1.56557840 184 185 186
-0.15912262 0.51810163 1.58016741 190 193 195
-0.15949440 0.52341852 1.58385944 192 198 199
-0.12714366 -0.16527180 0.51673210 211 211 211
-0.13030899 -0.15947580 0.51747528 211 212 214
-0.12074994 0.53852725 1.41818380 174 173 172
-0.12390667 0.53631061 1.42315009 173 173 170
-0.12063790 0.55027060 1.41686789 172 168 169
-0.12610139 0.55348683 1.42324870 169 165 164
-0.12462147 0.56231411 1.41759164 176 176 176
-0.12464491 0.56910642 1.42391865 180 181 181
-0.12424083 0.58015031 1.43015158 194 198 198
-0.11711470 -0.16613797 0.51515566 213 213 213
-0.10939243 0.23213494 0.55112561 169 168 168
-0.11151970 0.24170346 0.55520174 173 176 176
-0.11093946 0.53848173 1.40742985 163 162 162
-0.11854673 0.53719991 1.42115688 173 173 173
-0.10445837 0.55100763 1.39699611 173 174 170
-0.11228730 0.54959284 1.40914704 172 171 168
-0.11218304 0.56406897 1.41522801 173 175 176
-0.11609038 0.56831372 1.42115688 180 183 184
-0.04423866 -0.21301920 0.47507828 209 210 209
-0.04045045 -0.14619700 0.92644472 207 206 206
-0.04077909 -0.13835226 0.92481920 193 193 193
-0.03857660 -0.21647561 0.47682483 206 207 206
-0.03508691 -0.14813055 0.92682387 210 210 211
-0.03580981 -0.13318831 0.92444379 205 202 203
-0.00443435 0.15408029 0.49925756 160 159 156
-0.00556624 0.15499577 0.50056963 160 158 157
0.00157235 0.15381341 0.49748769 146 146 145
0.00063912 0.15344499 0.50053553 153 153 151
0.05541868 -0.18396142 0.69742670 197 197 197
0.05294202 -0.18362225 0.70030147 202 201 200
0.05578926 -0.17935428 0.69813956 196 196 198
0.05548828 -0.17572902 0.70187363 202 201 202
0.06157740 -0.18286456 0.69592808 202 201 202
0.06104604 -0.17816912 0.69885844 202 202 202
0.06084115 -0.17414966 0.70066357 206 204 204
0.17736988 -0.62651578 1.19942386 107 138 165
0.17811787 -0.62697816 1.20193589 114 143 169
0.17609528 -0.60987768 1.19153549 115 136 170
0.17451401 -0.59353611 1.17080116 119 131 165
0.18858105 -0.63017978 1.19931026 86 106 137
0.19171856 -0.62831909 1.20826417 90 104 135
0.19789536 -0.62553412 1.22142673 83 98 131
0.18271691 -0.61563061 1.19804335 98 113 147
0.18956153 -0.61700729 1.20600129 90 105 139
0.19799234 -0.52207902 1.11679252 90 96 118
0.19963083 -0.52036220 1.12420183 90 93 119
0.19827219 -0.51458944 1.12890442 94 109 131
0.19938125 -0.50628099 1.14508760 102 112 131
0.19950705 -0.49573891 1.13454783 112 113 130
0.19904502 -0.49851173 1.14315653 113 117 127
0.19981059 -0.49235290 1.17079771 149 155 157
0.19942324 -0.47247535 1.15681207 139 140 143
0.20158136 -0.62740681 1.21455392 87 98 127
0.20268423 -0.62575395 1.22809253 77 97 127
0.20226875 -0.63072687 1.24841964 85 103 133
0.20584237 -0.52330458 1.11679474 87 88 105
0.20574708 -0.52101146 1.12562111 92 92 114
0.20750323 -0.51554776 1.11075401 81 84 101
0.20875768 -0.51036119 1.12847626 83 87 111
0.20073758 -0.50673610 1.15287733 114 115 136
0.21494444 -0.48247179 1.09337389 72 75 96
0.21290744 -0.48884510 1.11384028 75 80 104
0.20771664 -0.49019442 1.12889268 94 100 121
0.20754635 -0.48614943 1.14944149 116 121 133
0.20724178 -0.48633477 1.16326538 133 137 144
0.21466413 -0.46535933 1.07235919 72 75 100
0.21575728 -0.47200815 1.09137185 75 78 102
0.21521576 -0.47432373 1.10587977 77 80 105
0.21747872 -0.47938102 1.12606621 84 89 114
0.20663749 -0.47378954 1.15069708 121 122 130
0.20994360 -0.47501134 1.16765736 117 117 127
0.21144339 -0.47365318 1.18305973 90 94 106
0.21770641 -0.44715619 1.04952374 72 73 98
0.21453751 -0.45186917 1.06904881 75 79 104
0.21387560 -0.44876889 1.08833447 86 95 120
0.21230134 -0.44847824 1.10586731 106 112 128
0.21470535 -0.45769131 1.12862086 110 117 128
0.21509421 -0.45753212 1.14444606 122 125 131
0.21899754 -0.43768607 1.03654152 74 75 97
0.21921714 -0.43902376 1.04613936 74 75 100
0.21499694 -0.43616685 1.07474256 88 96 121
0.21527414 -0.43865512 1.08550718 91 99 122
0.20530811 -0.24240753 0.63952059 162 169 175
0.21083547 -0.24555285 0.64499388 158 162 169
0.20879473 -0.22823749 0.63642222 168 175 183
0.20911352 -0.23766717 0.64121579 166 170 177
0.20964822 -0.21906038 0.63592106 166 174 182
0.22741562 -0.54445577 1.15681207 128 129 133
0.22702486 -0.52336902 1.13767643 127 128 134
0.22794647 -0.52783964 1.14842066 125 127 132
0.22456628 -0.51458338 1.13527686 109 111 122
0.22652146 -0.51536745 1.14219591 107 109 124
0.22028629 -0.46554131 1.07037389 74 75 99
0.22045110 -0.47500444 1.08637818 72 76 101
0.22039965 -0.44138260 1.03891528 77 76 98
0.22090735 -0.44509840 1.04130852 77 75 102
0.22118276 -0.44948962 1.07772946 74 78 105
0.22283844 -0.44909586 1.08579687 73 80 102
0.22597834 -0.45641097 1.11044830 78 85 108
0.36910116 -0.00424331 0.47283172 24 22 29
0.36987513 -0.00522939 0.48009336 25 23 30
0.37081178 0.00312472 0.47365116 23 22 28
0.40977155 0.05229963 0.55399118 17 16 25
0.42020318 0.05371220 0.55793566 17 16 25
0.56608708 -0.20438413 0.54908303 44 44 48
0.57473518 -0.19647179 0.55825070 46 46 49
0.57604040 -0.19621822 0.56037357 45 45 48
0.69989753 -0.30538197 1.42714071 95 98 99
0.69881374 -0.29620799 1.46097374 92 91 93
0.70112656 -0.30186027 1.43092018 94 95 96
0.70193913 -0.30210161 1.44488800 96 97 98
0.71325135 -0.30002639 1.46729839 92 92 96
0.70989442 -0.28997609 1.43571548 92 91 93
0.71182335 -0.29011821 1.44754516 92 91 92
0.71238628 -0.29141344 1.46571960 93 90 93
0.71528351 -0.27113378 1.43444049 84 81 82
0.71343797 -0.26913191 1.44805733 89 81 83
0.71331971 -0.27199564 1.46731354 96 84 87
0.71081674 -0.25324725 1.43926084 97 79 83
0.71259276 -0.25625008 1.44794092 97 79 83
0.72038049 -0.29367629 1.44848680 93 93 95
0.72406548 -0.29620799 1.46097374 91 91 91
0.90620598 -0.32108831 1.33838600 73 75 77
0.91899651 -0.32280043 1.35038221 74 75 78
0.91881192 -0.32369041 1.36396754 71 75 78
0.91302630 -0.31052161 1.35086122 74 75 77
0.91776197 -0.31351269 1.36328554 75 75 77
0.91422423 -0.29577270 1.35368613 72 72 78
0.92267153 -0.32174486 1.35578912 74 76 78
0.93301170 -0.32309785 1.37146505 73 75 78
0.92401235 -0.31371526 1.35578680 75 75 79
0.93313137 -0.30866659 1.37023038 74 74 78
0.93719870 -0.30139640 1.38063514 74 75 79
0.92267251 -0.28659782 1.35578370 76 72 75
0.92988354 -0.29477416 1.36927171 74 74 78
0.93719870 -0.29781693 1.38063514 74 75 79
0.95781893 -0.48907763 1.08289433 49 48 53
0.95884632 -0.48994504 1.10535835 52 51 55
0.95901726 -0.47906126 1.10586139 54 53 61
0.94243824 -0.32221702 1.37782896 74 74 81
0.94894473 -0.32642354 1.38558620 73 74 78
0.94273006 -0.30634711 1.37608224 73 73 78
0.94674397 -0.30139640 1.38063514 73 74 78
0.94267315 -0.29809971 1.37643158 72 72 76
0.96875596 -0.50079048 1.12606621 52 51 56
0.96653971 -0.48739086 1.09382454 48 48 52
0.96784224 -0.48711705 1.10985579 52 52 57
0.97371539 -0.49193389 1.12200129 52 51 56
0.96989131 -0.47342369 1.09869015 51 50 53
0.97367838 -0.47764623 1.10406274 52 51 54
0.98228107 -0.49132416 1.11709966 50 50 54
0.98560279 -0.49057824 1.12448090 52 52 57
1.25907117 -0.34578969 1.89091539 72 72 79
1.27873131 -0.36828414 1.89180434 73 73 77
1.27853433 -0.36151158 1.90776650 74 74 78
1.27391756 -0.35690606 1.89357477 74 73 78
1.27374182 -0.35527364 1.90848775 73 73 77
1.28886966 -0.40864465 1.93315514 75 75 81
1.29581186 -0.40920693 1.94717690 73 73 80
1.28373951 -0.38063917 1.89355266 73 72 79
1.28479004 -0.38201331 1.91135760 73 74 78
1.28576291 -0.38922356 1.93072699 72 74 77
1.29457399 -0.38675460 1.95038479 72 73 78
1.29984856 -0.38818976 1.96490383 74 74 80
1.28243551 -0.36974147 1.89223772 70 71 74
1.28498747 -0.37323672 1.91071904 71 72 76
1.28669877 -0.37236243 1.92292354 70 71 76
1.29412687 -0.37095656 1.94799329 70 72 77
1.28430521 -0.35818717 1.93131578 74 74 78
1.28830791 -0.35688257 1.94238353 69 68 74
1.30248642 -0.42309499 1.95357883 73 73 80
1.30261679 -0.38287452 1.97253092 70 73 78
1.30670685 -0.38127460 1.99087608 69 74 78
1.30370617 -0.37318625 1.97176490 68 69 75
1.31029770 -0.37144108 1.98798008 72 72 78
1.33525485 0.29721732 1.97206044 23 22 31
1.33768773 0.30210990 1.97061586 22 21 30
1.33890337 0.30089121 1.98504627 24 23 32
1.34723008 0.30704779 1.99382021 23 22 31
1.35741758 0.33075982 1.99968100 19 18 27
1.85056877 -0.83453065 1.97636104 45 46 49
1.85597980 -0.83354485 1.98213995 45 46 50
1.85580604 -0.80737320 1.97176490 46 46 49
1.85707700 -0.78771108 1.93683386 46 46 50
1.84806883 -0.78665847 1.95922494 44 45 49
1.85427463 -0.79488198 1.96490383 45 45 48
1.87034345 -0.84189415 1.99379957 45 46 49
1.87331686 -0.83230183 1.99146421 48 48 51
1.87313247 -0.80127448 1.95357883 45 45 49
1.86458343 -0.80576220 1.97492474 45 45 51
1.87020046 -0.81701353 1.98359311 46 46 50
1.86239815 -0.79332542 1.94238353 46 46 50
1.87334641 -0.78719425 1.96998488 45 46 48
1.87996161 -0.78215528 1.98213995 47 47 49
1.87312809 -0.77648421 1.96776813 46 47 49
1.89497650 -0.82428271 1.97636104 45 46 50
1.88622952 -0.82709616 1.99968100 47 47 51
1.88833984 -0.80939233 1.97062691 45 45 49
1.89815509 -0.80559605 1.98504627 45 45 49
1.88710320 -0.79579154 1.97348845 44 46 50
1.88853025 -0.79444321 1.98962315 44 46 49
1.90653914 -0.84534761 1.99381679 45 45 47
1.90719867 -0.82343826 1.99091047 45 45 49
1.90322137 -0.81052768 1.99576004 44 45 48
2.07834148 -0.43617006 1.95922494 44 44 52
2.09783959 -0.44570481 1.98407749 42 42 48
2.08996534 -0.42187917 1.94796503 46 46 50
2.09147340 -0.43072499 1.96919614 42 41 48
2.08996534 -0.41851228 1.94796503 47 47 49
2.10833745 -0.44892872 1.99791657 43 43 47
2.10734060 -0.42701386 1.97166948 44 44 48
2.11310726 -0.43274913 1.98431969 44 43 49
2.10204601 -0.41754508 1.95922494 45 45 49
2.10865980 -0.41511066 1.96776813 42 44 47
2.12363338 -0.43352881 1.99379957 44 44 49
