ply
format ascii 1.0
element vertex 293
property float x
property float y
property float z
property uchar red
property uchar green
property uchar blue
end_header
-0.32378795 0.49695465 1.18305913 251 251 251
-0.32402929 0.50158899 1.18306167 250 250 250
-0.31013757 0.49405658 1.17577462 251 251 251
-0.31623167 0.49704835 1.18125392 251 251 251
-0.30737330 0.50197209 1.17664328 249 249 249
-0.31138398 0.50598547 1.18237515 249 249 250
-0.30116618 0.52766259 1.18928578 251 251 251
-0.28956976 0.50561800 1.17378728 224 224 225
-0.29400453 0.51298904 1.18513141 245 245 245
-0.28722470 0.52702451 1.17638567 87 87 87
-0.29417958 0.52666347 1.18675166 202 202 203
-0.26243778 0.25066293 1.40961771 180 154 142
-0.26100385 0.27410727 1.39484153 174 149 137
-0.26442791 0.26922150 1.40914077 177 152 139
-0.26402515 0.26386955 1.42414248 177 152 139
-0.26279410 0.28556393 1.39580174 173 149 135
-0.26486784 0.28289421 1.40253619 174 150 136
-0.25221393 0.23888405 1.38628185 177 152 140
-0.25430884 0.24940427 1.39233198 174 150 136
-0.25344647 0.25147216 1.40641767 171 147 135
-0.24113807 0.27132450 1.35107481 159 136 129
-0.24566780 0.27008906 1.37440999 162 137 131
-0.25186576 0.27302028 1.38669973 167 143 132
-0.25724030 0.26192890 1.40060294 174 149 135
-0.24654597 0.28387029 1.35511529 160 139 126
-0.24854927 0.28347742 1.37266518 163 141 130
-0.25284170 0.28319928 1.38791844 166 144 131
-0.24029449 0.28250596 1.40060294 158 138 140
-0.23401330 0.27821009 1.35038751 163 146 141
-0.23876873 0.27076796 1.37782896 163 139 136
-0.23892302 0.27480425 1.38916054 167 148 146
-0.23541926 0.28340602 1.35850072 166 151 149
-0.23920542 0.28275791 1.36671746 161 140 132
-0.23700382 0.28213876 1.40118291 192 179 182
-0.20365624 0.23741344 1.07511761 172 148 134
-0.20804176 0.23338929 1.09163785 173 150 136
-0.20294768 0.24515890 1.07116855 170 145 133
-0.19122980 0.23690837 1.07562740 180 164 160
-0.18894395 0.23645655 1.08518052 184 173 173
-0.18911081 0.25516102 1.05274740 205 195 193
-0.19009564 0.24750154 1.07050567 189 178 175
-0.18608595 0.24033100 1.08463806 214 211 211
-0.17946325 0.23931454 1.06754625 206 206 207
-0.16375245 0.23260837 1.08996420 217 216 217
-0.17869622 0.24709471 1.07282523 213 213 214
-0.16821429 0.24323203 1.09227352 219 218 219
-0.14597748 0.21611505 1.07915958 222 216 216
-0.15014160 0.21847395 1.08521500 216 214 214
-0.14681063 0.22922149 1.07757131 219 218 220
-0.15329020 0.22714642 1.08582076 222 221 221
-0.15772375 0.24313956 1.09161609 228 228 230
-0.13734685 0.21822676 1.07730317 228 227 228
-0.13967619 0.22771240 1.07374692 227 227 228
-0.08458011 0.21703350 0.72995640 226 226 226
-0.08571621 0.22564197 0.73271152 225 224 223
-0.07987285 0.21930894 0.73048687 232 230 230
-0.07904975 0.22362978 0.73222426 225 224 225
-0.00028648 -0.04145212 0.63443330 181 181 185
-0.00131209 -0.02770957 0.62704527 184 184 187
-0.00226245 -0.01103677 0.62737460 186 186 190
-0.00028369 0.00238683 0.62825936 157 156 162
0.01881167 -0.12036148 0.73844427 142 144 157
0.01640176 -0.12234948 0.74510790 143 145 157
0.01886194 -0.10188237 0.71622281 138 138 149
0.01498663 -0.10926848 0.73158332 146 147 158
0.01376356 -0.11960687 0.74167952 147 147 158
0.01963211 -0.08010824 0.67857039 134 134 143
0.01884521 -0.08559418 0.69093468 136 135 146
0.01304484 -0.08912229 0.70832587 152 151 160
0.01436457 -0.09539023 0.72524674 145 145 156
0.01780939 -0.06217238 0.61581221 132 131 140
0.01577648 -0.06427851 0.62652746 137 137 145
0.01932364 -0.07741090 0.67806318 134 134 144
0.01798944 -0.07827336 0.68302017 135 135 144
0.00892295 -0.07843061 0.70350001 164 164 167
0.01776996 -0.04365443 0.57151443 120 119 131
0.01546169 -0.04393924 0.58712570 133 132 141
0.01585140 -0.05563952 0.61389658 136 136 146
0.00701949 -0.05116830 0.63249952 169 169 175
0.00731028 -0.05115440 0.64284515 171 171 176
0.01988385 -0.02131630 0.52919624 90 91 101
0.01867686 -0.03012922 0.55311385 104 105 117
0.01576079 -0.02934552 0.57114019 120 120 130
0.01448937 -0.03463126 0.58729103 131 130 140
0.00323823 -0.02801857 0.61730764 173 172 177
0.00238145 -0.02672599 0.62379226 174 173 178
0.01953289 -0.01015514 0.51985568 80 80 89
0.01948853 -0.01428987 0.52425507 84 83 96
0.01317303 -0.00891894 0.55473965 126 125 132
0.01204085 -0.01380585 0.57026423 134 134 141
0.00199320 -0.01074991 0.62968002 176 176 180
0.00134559 0.00130111 0.62840506 166 165 173
0.01800349 0.02610134 0.45214625 56 55 64
0.01307100 0.04496042 0.45188804 89 88 95
0.03479776 -0.14603666 0.88996775 140 143 158
0.03503043 -0.14289482 0.90553887 138 142 155
0.03779110 -0.14057304 0.92104870 135 139 151
0.02234720 -0.12091675 0.73716106 140 145 157
0.02141100 -0.12254297 0.74005657 141 144 157
0.03693998 -0.13098660 0.89101087 132 136 149
0.03831267 -0.13463345 0.90523567 133 136 151
0.03789407 -0.13935977 0.92355835 135 139 152
0.02179056 -0.10309934 0.71747761 138 138 150
0.02159710 -0.11258698 0.72575465 139 142 154
0.03952505 -0.11870676 0.88845587 123 130 141
0.02171696 -0.08031633 0.67051619 134 134 143
0.02001273 -0.09242170 0.69172639 136 136 147
0.02147215 -0.06251284 0.61213223 121 122 133
0.02167360 -0.07844851 0.67640547 131 131 140
0.02073848 -0.05705396 0.60786659 122 121 132
0.02309094 -0.02740750 0.51381532 78 79 94
0.02148695 -0.02992002 0.52808625 88 88 103
0.02038617 -0.03404809 0.54256535 98 99 112
0.02218294 -0.01103417 0.49863489 64 66 79
0.02139018 -0.01533752 0.51080412 75 74 89
0.02161653 0.01591907 0.45089037 44 43 55
0.03501480 0.19653924 0.55144220 223 223 222
0.03207626 0.20501007 0.55208034 238 235 233
0.04458132 -0.20058715 0.74248832 164 169 182
0.04731404 -0.18850073 0.70867541 157 163 181
0.04644467 -0.18827068 0.72919464 158 164 181
0.04653897 -0.18540944 0.74897298 156 163 180
0.04553095 -0.18728520 0.76434732 158 165 182
0.04893481 -0.17892347 0.71245036 151 159 179
0.04914145 -0.17884018 0.72861825 151 159 179
0.04822694 -0.17401153 0.74969689 149 157 179
0.04569189 -0.17546254 0.76492092 152 160 180
0.04456503 -0.14328562 0.87677907 131 137 155
0.04330805 -0.14215514 0.88469763 132 136 154
0.05140874 -0.12781400 0.87636417 110 116 138
0.04425229 -0.12934596 0.88466719 123 127 143
0.04987420 -0.11344000 0.87451390 101 107 129
0.04453789 -0.11644951 0.88541473 110 118 133
0.04198434 0.19422943 0.54934898 209 207 206
0.13971013 -0.30239657 1.35307753 110 132 163
0.13943182 -0.29595913 1.35038221 110 131 161
0.15383484 -0.30289784 1.31138264 105 127 157
0.14786032 -0.30240879 1.33182794 109 128 160
0.14027008 -0.30126053 1.35850072 111 133 162
0.15272843 -0.29235066 1.31222641 104 126 157
0.14788377 -0.29001471 1.33348685 105 127 158
0.14092366 -0.29188079 1.34236014 108 130 160
0.15386455 -0.27438824 1.31417229 103 125 157
0.15093359 -0.27692466 1.33183501 103 125 155
0.16000630 -0.30152008 1.30867147 105 127 159
0.16053356 -0.29994571 1.33181107 110 127 159
0.18466592 0.87452334 1.88303292 0 0 0
0.18984897 0.91519886 1.97061586 0 0 0
0.25093895 0.57433573 1.60760719 207 206 205
0.25175541 0.58974650 1.60818063 224 224 222
0.25236037 0.60188677 1.60910426 227 224 221
0.26564283 0.57465832 1.61371483 206 206 204
0.26836196 0.57938802 1.62175083 217 217 216
0.26657323 0.59026665 1.61403365 212 212 211
0.26836196 0.59340332 1.62175083 200 200 198
0.26703080 0.60262162 1.61368470 231 230 227
0.29210496 -0.18774955 0.61964518 61 69 96
0.29461845 -0.18422706 0.63184067 62 71 101
0.29501928 -0.17684158 0.63463639 64 75 107
0.29605318 -0.17403422 0.64214971 69 78 113
0.29844357 -0.12452308 0.52513888 57 62 86
0.29918413 -0.11703242 0.52527735 52 58 82
0.31964377 -0.14040075 0.53335315 46 51 74
0.31043848 -0.12106662 0.51714666 42 44 66
0.30790739 -0.12714762 0.52560129 49 53 76
0.31077961 -0.10760644 0.50852959 37 39 53
0.30425620 -0.11604251 0.52235647 46 50 71
0.32116487 -0.14147763 0.53744121 46 51 73
0.32919713 -0.14603685 0.55417446 48 51 74
0.33306229 -0.15145206 0.56284709 50 53 77
0.32070808 -0.13764325 0.53698854 48 49 70
0.32336328 -0.13897246 0.54308680 48 49 70
0.34943944 -0.24658742 0.67970460 58 64 88
0.34904265 -0.24943318 0.68179830 58 63 87
0.34747621 -0.23885189 0.67806284 59 66 89
0.35997850 -0.12078387 0.63354379 43 45 69
0.35725312 -0.11648046 0.61656097 40 41 61
0.35917242 -0.11653199 0.62833050 41 42 64
0.36096636 -0.25388011 0.68381935 56 62 86
0.36975157 -0.14080727 0.65539924 52 56 83
0.37679943 -0.14381075 0.67252935 52 57 84
0.37388212 -0.14373004 0.70291613 72 82 113
0.36108765 -0.12363044 0.63622352 42 46 70
0.36706535 -0.13018892 0.65007007 45 50 74
0.37460968 -0.13133225 0.66810922 46 50 75
0.37155651 -0.12923136 0.69331566 64 72 100
0.37302833 -0.13374218 0.70395216 68 77 108
0.36126915 -0.11444240 0.63008788 40 41 63
0.36679959 -0.11119802 0.65060319 40 43 65
0.37494215 -0.11217183 0.67044240 40 44 67
0.36746104 -0.11680956 0.68797804 58 65 89
0.38271521 -0.14355131 0.68715313 52 58 85
0.38984218 -0.14487978 0.70421802 53 58 86
0.38392588 -0.12859645 0.69040280 46 50 75
0.38842657 -0.13544928 0.70093533 48 54 81
0.38281732 -0.11217238 0.68993612 41 45 69
0.43451134 -0.24659477 0.45862545 64 73 95
0.43857511 -0.25111465 0.46111156 64 75 96
0.42933223 -0.23882651 0.45557331 58 67 91
0.44138149 -0.24843531 0.45950995 66 75 95
0.44137570 -0.25080757 0.46173168 66 75 97
0.47689890 -0.25510388 0.55182906 40 44 65
0.49908953 -0.28054479 0.56759077 41 47 67
0.49211971 -0.27110930 0.55682901 41 46 66
0.49076368 -0.26957847 0.56269661 40 45 63
0.48078409 -0.25819677 0.55885559 39 45 65
0.48133055 -0.25915970 0.56024116 39 43 64
0.50021046 -0.28193158 0.56774861 42 48 68
0.51933569 -0.16647029 0.51239127 45 50 73
0.52728548 -0.18336548 0.52321867 49 57 81
0.52366929 -0.17337063 0.51773273 48 53 76
0.52434356 -0.17809230 0.52122690 47 54 75
0.55302322 0.11535835 0.56697909 14 14 18
0.55509681 0.12396220 0.56655072 14 14 18
0.56064051 0.11326023 0.56965808 14 14 19
0.64787225 -0.14502335 0.53721634 40 46 71
0.65543023 -0.14736793 0.54491416 40 46 71
0.64902254 -0.13675891 0.53799403 38 42 67
0.65580912 -0.13352427 0.54451693 37 42 66
0.66950137 -0.16412025 0.55754626 45 50 74
0.67511056 -0.16243597 0.56343581 44 48 76
0.66722191 -0.15425783 0.55593235 42 47 73
0.67400178 -0.15256990 0.56448397 40 47 74
0.66233888 -0.13423629 0.55158147 38 43 68
0.68784109 -0.16349502 0.57572189 44 48 78
0.69548529 -0.16567084 0.58338368 44 48 78
0.68051827 -0.15179908 0.56917870 37 47 73
0.83420455 -0.12697779 1.19839541 17 16 25
0.83379875 -0.12405182 1.21435575 18 17 25
0.83596883 -0.12716899 1.22419350 18 17 26
0.82957055 -0.11793148 1.19769128 17 16 24
0.82901049 -0.11501885 1.21125994 17 16 24
0.82899612 -0.11445194 1.22697339 16 15 24
0.83635443 -0.11223669 1.24156010 16 15 24
0.85395896 -0.14161919 1.27423275 19 18 27
0.84324086 -0.12838339 1.21607686 17 16 25
0.84283002 -0.13507456 1.22806760 18 17 26
0.84426604 -0.12852272 1.24691784 18 17 26
0.85054361 -0.13299385 1.26547502 18 17 26
0.84036505 -0.11522678 1.25072300 16 15 24
0.91925228 -0.40144199 1.26708758 44 50 69
0.91925228 -0.39706187 1.26708758 43 50 70
0.91445969 -0.36476820 1.26908571 43 47 64
0.91812479 -0.36460137 1.28388608 42 45 62
0.91363448 -0.34275796 1.25535814 45 51 71
0.91344977 -0.35266482 1.27041134 43 47 65
0.91860408 -0.35726744 1.28145909 43 46 63
0.90786678 -0.33726716 1.24841964 46 52 71
0.92144233 -0.40253702 1.26708758 45 51 69
0.92623920 -0.39031093 1.27137614 45 51 69
0.93365004 -0.38702158 1.28795673 42 47 63
0.93675625 -0.38598326 1.30363810 41 44 61
0.92934068 -0.36904048 1.27387326 46 51 68
0.93091264 -0.36754437 1.28952008 42 46 64
0.93684694 -0.37637725 1.30313964 42 45 62
0.92885370 -0.35396564 1.27058824 46 52 71
0.92954372 -0.35648492 1.28663261 42 47 65
0.94400007 -0.40335878 1.29074845 46 52 71
0.94118875 -0.38459580 1.27904117 51 57 76
0.94623322 -0.38798677 1.29117618 48 54 72
0.94186484 -0.38408223 1.30792478 41 44 61
0.94725448 -0.38782410 1.32142663 41 44 61
0.94479326 -0.36493301 1.27495718 53 60 77
0.94725766 -0.37247512 1.28721908 50 56 74
0.94216952 -0.37846227 1.30489403 42 46 61
0.94591260 -0.35713484 1.26995630 53 60 80
1.25614071 -0.86902609 1.42714703 108 121 126
1.26297730 -0.87298909 1.43773621 103 117 122
1.27170100 -0.87569091 1.45253100 97 109 119
1.27886963 -0.87623444 1.46476579 91 98 113
1.28950393 -0.88512412 1.47112889 96 107 117
1.29184665 -0.88816088 1.48739054 87 97 105
1.28510598 -0.87780612 1.47140845 88 95 107
1.29881442 -0.87739195 1.48878312 75 81 93
1.31548464 -0.90188438 1.51993692 82 91 99
1.30416276 -0.88158926 1.49590304 76 82 93
1.31052613 -0.89084137 1.51076569 75 82 91
1.30234511 -0.87204299 1.49579365 63 70 81
1.31484258 -0.87693524 1.51315141 59 67 75
1.32445643 -0.90657972 1.53081475 78 87 94
1.33449265 -0.90742488 1.54898162 68 76 83
1.32173912 -0.88988106 1.52564240 63 71 78
1.33265729 -0.89557619 1.54348049 57 65 73
1.35755515 -0.92006320 1.58756876 55 59 72
1.34066916 -0.90044898 1.55837202 54 57 69
1.34443899 -0.90691904 1.56800850 54 58 70
1.34028161 -0.89838374 1.55479777 51 58 67
1.36118674 -0.92439294 1.59503961 53 56 69
1.36762261 -0.93153352 1.60258114 56 61 71
1.36074185 -0.91947258 1.59129536 52 56 68
1.41302252 0.00583446 1.98795259 12 12 16
1.42698717 0.00580044 1.97636104 12 12 16
1.43444548 0.00722118 1.99146078 12 12 16
