ply
format ascii 1.0
element vertex 1102
property float x
property float y
property float z
property uchar red
property uchar green
property uchar blue
end_header
0.47745645 -0.25596473 0.55610490 40 44 64
0.47763398 -0.25554547 0.55519396 41 44 65
0.47703084 -0.25471103 0.55338109 41 44 65
0.47720820 -0.25429586 0.55247909 42 45 66
0.47468135 -0.25244418 0.54845619 42 45 66
0.47685289 -0.25416952 0.55428606 39 44 65
0.47586545 -0.25313461 0.55202919 39 45 65
0.47527146 -0.25231275 0.55023688 41 44 65
0.34659430 -0.25640345 0.68267053 55 65 84
0.36184677 -0.25718042 0.68473923 59 64 87
0.34646106 -0.25599691 0.68473923 55 64 87
0.34659430 -0.25522351 0.68267053 56 65 89
0.34860313 -0.25496674 0.68198377 57 65 87
0.34943032 -0.25471050 0.68129832 60 66 85
0.35993612 -0.25548080 0.68335873 57 62 85
0.36148164 -0.25573859 0.68404830 57 62 85
0.34576255 -0.25429967 0.68335873 58 65 87
0.34589761 -0.25353292 0.68129832 58 65 87
0.34707519 -0.25353292 0.68129832 58 65 87
0.34790310 -0.25327837 0.68061429 59 65 87
0.34907949 -0.25327837 0.68061429 60 65 87
0.34990457 -0.25302434 0.67993164 60 65 88
0.35107979 -0.25302434 0.67993164 59 64 85
0.35767332 -0.25353292 0.68129832 56 61 84
0.35921189 -0.25378799 0.68198377 56 61 84
0.36075360 -0.25404358 0.68267053 56 61 84
0.34506688 -0.25260922 0.68198377 59 64 89
0.34589761 -0.25235537 0.68129832 59 64 89
0.34672672 -0.25210199 0.68061429 59 64 88
0.34755418 -0.25184911 0.67993164 59 64 88
0.34955397 -0.25159678 0.67925036 59 64 87
0.35072801 -0.25159678 0.67925036 57 63 85
0.35225499 -0.25184911 0.67993164 57 63 86
0.35378504 -0.25210199 0.68061429 58 65 87
0.35496143 -0.25210199 0.68061429 57 63 86
0.35685441 -0.25260922 0.68198377 56 61 84
0.35767332 -0.25235537 0.68129832 56 61 84
0.35957366 -0.25286362 0.68267053 56 61 86
0.36075360 -0.25286362 0.68267053 57 62 87
0.34541437 -0.25168368 0.68267053 59 64 89
0.34589761 -0.25117779 0.68129832 59 64 89
0.34672672 -0.25092560 0.68061429 60 63 89
0.34790310 -0.25092560 0.68061429 60 63 89
0.35107979 -0.25067392 0.67993164 56 62 85
0.35260865 -0.25092560 0.68061429 58 64 86
0.35414061 -0.25117779 0.68129832 59 64 87
0.35531819 -0.25117779 0.68129832 59 64 87
0.35757387 -0.25193739 0.68335873 58 63 86
0.35839370 -0.25168368 0.68267053 57 62 85
0.36029932 -0.25219163 0.68404830 56 62 87
0.34541437 -0.25050375 0.68267053 59 64 89
0.34624562 -0.25025174 0.68198377 59 64 89
0.34672672 -0.24974921 0.68061429 60 64 89
0.34790310 -0.24974921 0.68061429 59 64 89
0.34907949 -0.24974921 0.68061429 59 64 89
0.35107979 -0.24949871 0.67993164 57 62 85
0.35260865 -0.24974921 0.68061429 58 63 86
0.35449690 -0.25025174 0.68198377 59 64 87
0.35603383 -0.25050375 0.68267053 58 63 87
0.36066326 -0.25126284 0.68473923 56 61 86
0.34541437 -0.24932380 0.68267053 58 63 88
0.34589761 -0.24882264 0.68129832 59 64 89
0.34672672 -0.24857283 0.68061429 59 64 89
0.34790310 -0.24857283 0.68061429 59 64 88
0.35107979 -0.24832350 0.67993164 58 63 87
0.35296303 -0.24882264 0.68129832 59 64 89
0.35485390 -0.24932380 0.68267053 59 64 89
0.34506688 -0.24789421 0.68198377 58 63 88
0.34589761 -0.24764508 0.68129832 59 64 89
0.34637895 -0.24714831 0.67993164 59 64 89
0.34755418 -0.24714831 0.67993164 59 64 89
0.34955397 -0.24690065 0.67925036 59 64 89
0.35107979 -0.24714831 0.67993164 59 64 89
0.34589761 -0.24646752 0.68129832 59 64 88
0.34637895 -0.24597310 0.67993164 59 64 89
0.34755418 -0.24597310 0.67993164 58 63 88
0.34955397 -0.24572663 0.67925036 59 64 89
0.35072801 -0.24572663 0.67925036 60 65 90
0.34458143 -0.24603175 0.68335873 59 64 88
0.34541437 -0.24578398 0.68267053 59 64 87
0.34624562 -0.24553671 0.68198377 59 64 88
0.34672672 -0.24504367 0.68061429 59 64 89
0.34790310 -0.24504367 0.68061429 58 63 88
0.34955397 -0.24455260 0.67925036 60 65 90
0.35107979 -0.24479789 0.67993164 60 65 90
0.34340030 -0.24485062 0.68335873 59 64 87
0.34458143 -0.24485062 0.68335873 59 64 87
0.34576255 -0.24485062 0.68335873 59 64 87
0.34624562 -0.24435796 0.68198377 59 64 88
0.34672672 -0.24386728 0.68061429 59 65 89
0.34790310 -0.24386728 0.68061429 58 65 89
0.35107979 -0.24362268 0.67993164 58 65 89
0.34340030 -0.24366948 0.68335873 59 64 87
0.34458143 -0.24366948 0.68335873 58 65 87
0.34576255 -0.24366948 0.68335873 58 65 87
0.34624562 -0.24317920 0.68198377 58 65 89
0.34672672 -0.24269089 0.68061429 59 66 90
0.34755418 -0.24244747 0.67993164 58 65 89
0.34907949 -0.24269089 0.68061429 58 65 89
0.34955397 -0.24220453 0.67925036 58 66 90
0.35107979 -0.24244747 0.67993164 59 66 90
0.34541437 -0.24224415 0.68267053 59 66 89
0.34624562 -0.24200045 0.68198377 59 67 90
0.34637895 -0.24127227 0.67993164 58 67 91
0.34755418 -0.24127227 0.67993164 58 67 91
0.34872937 -0.24127227 0.67993164 57 66 90
0.34920406 -0.24078923 0.67857039 57 66 89
0.52574998 -0.18618301 0.52468407 52 57 82
0.52503139 -0.18560837 0.52306467 53 58 83
0.52674836 -0.18589525 0.52387315 53 58 83
0.52978754 -0.18632722 0.52509052 53 58 84
0.34603187 -0.23985648 0.67925036 60 67 91
0.34803122 -0.23961638 0.67857039 58 67 91
0.52729183 -0.18614057 0.52713209 51 56 81
0.52615720 -0.18541965 0.52509052 52 57 82
0.52665687 -0.18527614 0.52468407 52 57 82
0.52715570 -0.18513285 0.52427828 52 57 82
0.52724636 -0.18484692 0.52346861 53 58 82
0.52937746 -0.18527614 0.52468407 53 58 83
0.52864766 -0.18470429 0.52306467 53 58 84
0.52996069 -0.18484692 0.52346861 54 58 84
0.53045583 -0.18470429 0.52306467 54 59 86
0.34768319 -0.23820509 0.67789185 59 67 90
0.34815854 -0.23772962 0.67653877 59 66 88
0.52729183 -0.18522947 0.52713209 50 56 79
0.52615720 -0.18451208 0.52509052 51 57 80
0.52706480 -0.18451208 0.52509052 51 58 80
0.52715570 -0.18422668 0.52427828 52 57 80
0.52724636 -0.18394215 0.52346861 52 58 80
0.52937746 -0.18436927 0.52468407 52 59 81
0.52864766 -0.18380022 0.52306467 51 59 83
0.52955174 -0.18380022 0.52306467 52 60 84
0.53004682 -0.18365851 0.52266139 51 60 87
0.53054118 -0.18351701 0.52225876 50 61 89
0.52615720 -0.18360449 0.52509052 48 57 79
0.52624953 -0.18332049 0.52427828 48 57 78
0.52634156 -0.18303739 0.52346861 48 58 78
0.52562279 -0.18247375 0.52185667 50 60 79
0.52896804 -0.18332049 0.52427828 50 60 82
0.52783310 -0.18261433 0.52225876 49 60 84
0.52873582 -0.18261433 0.52225876 49 61 84
0.52963847 -0.18261433 0.52225876 49 61 84
0.53054118 -0.18261433 0.52225876 49 61 85
0.52534336 -0.18241432 0.52427828 49 56 78
0.52422237 -0.18171164 0.52225876 50 57 79
0.52472085 -0.18157177 0.52185667 49 58 80
0.52441168 -0.18115340 0.52065426 48 57 79
0.52733672 -0.18185176 0.52266139 45 55 79
0.52661598 -0.18129264 0.52105445 43 55 81
0.52711141 -0.18115340 0.52065426 47 59 85
0.52841717 -0.18129264 0.52105445 49 60 87
0.53013277 -0.18157177 0.52185667 49 60 88
0.52372319 -0.18094838 0.52266139 47 54 76
0.52341592 -0.18053080 0.52145529 48 56 79
0.52391416 -0.18039204 0.52105445 48 57 81
0.52360737 -0.17997703 0.51985568 43 52 76
0.52611977 -0.18053080 0.52145529 43 52 78
0.52621150 -0.18025349 0.52065426 45 54 82
0.52630299 -0.17997703 0.51985568 49 57 85
0.52291685 -0.17976779 0.52185667 45 52 74
0.52381885 -0.17976779 0.52185667 48 56 79
0.52351177 -0.17935358 0.52065426 49 58 82
0.52621150 -0.17935358 0.52065426 49 58 82
0.52211297 -0.17859083 0.52105445 45 53 72
0.52381885 -0.17886581 0.52185667 45 53 73
0.52351177 -0.17845367 0.52065426 46 53 75
0.52621150 -0.17845367 0.52065426 50 57 80
0.52111286 -0.17796382 0.52185667 44 50 70
0.52161330 -0.17782693 0.52145529 44 51 71
0.52251458 -0.17782693 0.52145529 45 51 71
0.52422237 -0.17810093 0.52225876 46 52 72
0.52391416 -0.17769024 0.52105445 47 53 73
0.52441168 -0.17755376 0.52065426 48 54 74
0.52693045 -0.17810093 0.52225876 50 55 77
0.52702105 -0.17782693 0.52145529 51 56 79
0.52670687 -0.17741750 0.52025467 51 56 79
0.52381885 -0.17706183 0.52185667 46 52 72
0.52351177 -0.17665385 0.52065426 47 52 73
0.52661598 -0.17678964 0.52105445 51 56 79
0.52670687 -0.17651828 0.52025467 52 57 80
0.52639413 -0.17611280 0.51905960 52 57 81
0.52230829 -0.17534991 0.51945734 46 51 74
0.52160734 -0.17481409 0.51787001 48 53 76
0.52549702 -0.17521565 0.51905960 52 57 81
0.52438653 -0.17454739 0.51707995 53 58 83
0.52141047 -0.17445207 0.51945734 41 46 69
0.52150905 -0.17418513 0.51866245 43 48 71
0.52041465 -0.17352131 0.51668584 45 50 74
0.52290189 -0.17405196 0.51826596 47 52 76
0.52459985 -0.17431849 0.51905960 49 54 79
0.52429265 -0.17391899 0.51787001 51 56 81
0.52318931 -0.17325720 0.51589942 52 57 82
0.52368248 -0.17312545 0.51550710 52 57 82
0.52818847 -0.17431849 0.51905960 52 57 82
0.52787304 -0.17391899 0.51787001 52 58 82
0.52755904 -0.17352131 0.51668584 53 59 82
0.52141047 -0.17355423 0.51945734 42 46 71
0.52150905 -0.17328866 0.51866245 43 48 73
0.52041465 -0.17262825 0.51668584 46 51 75
0.52210361 -0.17289181 0.51747471 48 54 76
0.52379769 -0.17315617 0.51826596 49 55 77
0.52309382 -0.17262825 0.51668584 50 56 77
0.52199751 -0.17197287 0.51472425 51 56 79
0.52859318 -0.17355423 0.51945734 51 56 79
0.52827662 -0.17315617 0.51826596 52 57 80
0.52796143 -0.17275994 0.51707995 52 57 81
0.52190840 -0.17252418 0.51905960 44 50 70
0.52120918 -0.17199740 0.51747471 46 52 73
0.52330202 -0.17239219 0.51866245 47 53 74
0.52419847 -0.17239219 0.51866245 48 53 75
0.52269542 -0.17160441 0.51629233 48 54 76
0.52120602 -0.17082380 0.51394379 48 53 76
0.52240551 -0.17149572 0.51866245 45 50 73
0.52429265 -0.17123370 0.51787001 47 52 75
0.52160150 -0.17006442 0.51433372 46 51 76
0.52429265 -0.17033860 0.51787001 46 51 74
0.52110785 -0.16841424 0.51472425 45 50 75
0.51992351 -0.16714384 0.51355445 45 50 74
0.51884586 -0.16651312 0.51161647 46 51 75
0.51923770 -0.16575392 0.51200289 45 51 71
0.92144233 -0.40363204 1.26708758 45 51 68
0.91925228 -0.40144199 1.26708758 44 50 69
0.92144233 -0.40144199 1.26708758 45 51 71
0.94706500 -0.41065291 1.29616034 46 52 72
0.91925228 -0.39925194 1.26708758 44 50 70
0.92144233 -0.39925194 1.26708758 45 51 71
0.92363238 -0.39925194 1.26708758 45 51 71
0.94525766 -0.40763319 1.29368675 46 52 72
0.94209999 -0.40531269 1.28632224 46 52 72
0.91925228 -0.39706188 1.26708758 44 50 71
0.92144233 -0.39706188 1.26708758 44 50 70
0.92536205 -0.39780542 1.26946032 45 51 71
0.94345719 -0.40462494 1.29122257 45 51 71
0.94031572 -0.40232596 1.28388608 48 54 74
0.91925228 -0.39487180 1.26708758 44 50 70
0.92144233 -0.39487180 1.26708758 43 51 70
0.92536205 -0.39561129 1.26946032 44 51 70
0.94166350 -0.40162817 1.28876781 46 52 71
0.94031572 -0.40010685 1.28388608 48 54 73
0.92097372 -0.39341712 1.26946032 44 50 68
0.92316788 -0.39341712 1.26946032 44 50 68
0.93059009 -0.39563981 1.27663243 45 51 69
0.94525766 -0.40092507 1.29368675 45 51 69
0.94568890 -0.40016142 1.29122257 48 54 72
0.93720973 -0.39563981 1.27663243 49 55 73
0.29237020 -0.19183935 0.62249023 56 66 93
0.92270160 -0.39195696 1.27184212 44 50 67
0.92316788 -0.39122295 1.26946032 44 50 68
0.93765336 -0.39641947 1.28632224 44 50 68
0.94887930 -0.40021658 1.29864335 46 52 70
0.94930536 -0.39945135 1.29616034 48 54 72
0.94253480 -0.39566866 1.28388608 49 55 73
0.29156700 -0.19023935 0.62078005 58 66 95
0.92270160 -0.38975868 1.27184212 44 50 68
0.92316788 -0.38902879 1.26946032 44 50 68
0.94122541 -0.39569786 1.29122257 45 51 68
0.94887930 -0.39797199 1.29864335 46 52 69
0.94930536 -0.39721105 1.29616034 49 55 72
0.94253480 -0.39344957 1.28388608 51 57 75
0.29183424 -0.18933977 0.62134910 58 66 94
0.93098348 -0.39197287 1.28632224 42 48 64
0.92443603 -0.38828889 1.27423275 44 50 66
0.92316788 -0.38683462 1.26946032 45 50 67
0.94122541 -0.39346609 1.29122257 46 51 68
0.94706500 -0.39497074 1.29616034 47 53 69
0.94749367 -0.39421698 1.29368675 50 56 72
0.94075304 -0.39049092 1.28145909 52 58 74
0.94118875 -0.38975415 1.27904117 51 58 74
0.29237020 -0.18861158 0.62249023 59 67 94
0.29210496 -0.18774955 0.61964518 61 69 96
0.93098348 -0.38974956 1.28632224 44 47 64
0.92270160 -0.38536212 1.27184212 46 49 66
0.92144233 -0.38392153 1.26708758 46 49 66
0.94122541 -0.39123431 1.29122257 45 50 67
0.94706500 -0.39273041 1.29616034 46 52 68
0.94568890 -0.39123431 1.29122257 50 56 72
0.93897808 -0.38754341 1.27904117 51 59 76
0.93765044 -0.38608649 1.27423275 51 58 76
0.94876987 -0.38974956 1.28632224 52 58 78
0.95280117 -0.39049053 1.28876781 54 60 80
0.29317787 -0.18805371 0.62420982 62 70 97
0.29263997 -0.18702045 0.62078005 62 70 98
0.93098348 -0.38752624 1.28632224 43 47 62
0.92270160 -0.38316384 1.27184212 43 47 64
0.92144233 -0.38173145 1.26708758 44 48 65
0.94122541 -0.38900253 1.29122257 43 48 65
0.94525766 -0.38974491 1.29368675 45 51 67
0.94568890 -0.38900253 1.29122257 49 55 72
0.93897808 -0.38533270 1.27904117 51 57 75
0.93941629 -0.38460702 1.27663243 51 57 76
0.94876987 -0.38752624 1.28632224 52 57 79
0.29398999 -0.18749276 0.62593889 62 70 100
0.29344612 -0.18645974 0.62249023 61 70 101
0.93098348 -0.38530293 1.28632224 43 47 62
0.92270160 -0.38096556 1.27184212 42 48 64
0.91972321 -0.37883329 1.26472354 42 48 64
0.93943596 -0.38603547 1.28876781 42 48 65
0.94525766 -0.38750887 1.29368675 44 50 68
0.94568890 -0.38677076 1.29122257 47 53 72
0.94075304 -0.38384622 1.28145909 49 55 75
0.94118875 -0.38312200 1.27904117 51 57 77
0.95057362 -0.38603547 1.28876781 52 58 78
0.67107362 -0.16739872 0.55885559 47 52 75
0.29426667 -0.18727548 0.62884218 63 70 101
0.29480663 -0.18692867 0.62767762 62 69 102
0.29479966 -0.18623890 0.62536150 60 70 104
0.94126272 -0.38823649 1.30363810 42 45 62
0.93098348 -0.38307965 1.28632224 42 46 63
0.92270160 -0.37876731 1.27184212 42 48 65
0.92144233 -0.37735134 1.26708758 42 48 65
0.94122541 -0.38453898 1.29122257 44 50 68
0.94525766 -0.38527283 1.29368675 45 51 69
0.94568890 -0.38453898 1.29122257 48 54 73
0.94075304 -0.38163131 1.28145909 50 56 76
0.94118875 -0.38091126 1.27904117 51 57 77
0.94876987 -0.38307965 1.28632224 52 58 78
0.67107362 -0.16643278 0.55885559 46 51 74
0.29318073 -0.18688202 0.63118422 65 69 98
0.29509598 -0.18740550 0.63295221 64 70 99
0.29508787 -0.18670818 0.63059705 64 70 101
0.29535356 -0.18618858 0.62884218 64 70 101
0.29561779 -0.18567187 0.62709701 61 70 103
0.93675625 -0.38598326 1.30363810 41 44 61
0.94126272 -0.38598326 1.30363810 42 45 62
0.93453008 -0.38230723 1.29122257 42 46 64
0.92617697 -0.37798735 1.27663243 42 48 66
0.92316788 -0.37586385 1.26946032 44 50 68
0.94302160 -0.38303682 1.29368675 45 51 69
0.94706500 -0.38376918 1.29616034 47 53 70
0.94749367 -0.38303682 1.29368675 48 54 72
0.94075304 -0.37941644 1.28145909 50 56 75
0.93941629 -0.37798735 1.27663243 51 57 76
0.94876987 -0.38085634 1.28632224 53 59 77
0.95099318 -0.38085634 1.28632224 54 60 78
0.67399722 -0.16642727 0.56209940 45 50 73
0.67107362 -0.16546685 0.55885559 45 50 73
0.29592490 -0.18683484 0.63473016 65 70 100
0.29563791 -0.18596423 0.63177246 64 71 100
0.29562780 -0.18527354 0.62942606 63 71 100
0.29589152 -0.18475890 0.62767762 61 72 102
0.94725448 -0.38896608 1.32142663 41 44 61
0.94219196 -0.38595667 1.31120276 41 44 61
0.94081873 -0.38446939 1.30614996 41 44 62
0.94307631 -0.38446939 1.30614996 42 45 63
0.93631351 -0.38080078 1.29368675 42 46 63
0.92792445 -0.37648982 1.27904117 44 47 65
0.92663842 -0.37507445 1.27423275 46 49 66
0.94482470 -0.38152888 1.29616034 45 51 67
0.94887930 -0.38225979 1.29864335 46 51 68
0.94930536 -0.38152888 1.29616034 48 54 71
0.94253480 -0.37791592 1.28388608 50 56 74
0.94475389 -0.37791592 1.28388608 52 58 76
0.95057362 -0.37935287 1.28876781 52 58 76
0.95280117 -0.37935287 1.28876781 53 59 77
0.95684779 -0.38007545 1.29122257 54 60 80
0.67052084 -0.16436541 0.55839527 45 50 75
0.29235992 -0.18556401 0.63413644 64 70 99
0.29620224 -0.18591183 0.63532507 64 72 101
0.29591370 -0.18504471 0.63236177 64 72 101
0.29562780 -0.18418564 0.62942606 64 72 101
0.94725448 -0.38668212 1.32142663 41 44 61
0.94219196 -0.38369039 1.31120276 41 44 61
0.94081873 -0.38221180 1.30614996 41 44 61
0.94307631 -0.38221180 1.30614996 42 45 62
0.93631351 -0.37856475 1.29368675 43 46 63
0.92792445 -0.37427911 1.27904117 44 47 64
0.92663842 -0.37287205 1.27423275 45 48 65
0.94482470 -0.37928858 1.29616034 47 50 67
0.94887930 -0.38001519 1.29864335 48 51 68
0.94930536 -0.37928858 1.29616034 48 53 71
0.94253480 -0.37569684 1.28388608 50 56 74
0.94654661 -0.37640974 1.28632224 51 57 75
0.95057362 -0.37712532 1.28876781 52 58 76
0.95280117 -0.37712532 1.28876781 53 59 77
0.66886795 -0.16299747 0.55701876 45 50 75
0.29318270 -0.18498710 0.63592106 61 68 97
0.29648012 -0.18498710 0.63592106 64 72 101
0.29618999 -0.18412347 0.63295221 63 73 101
0.29562780 -0.18309772 0.62942606 63 73 102
0.94357586 -0.38290533 1.31629479 42 45 62
0.94037306 -0.38068774 1.30867147 42 45 62
0.93900949 -0.37922356 1.30363810 42 45 61
0.94307631 -0.37995422 1.30614996 42 46 61
0.93453008 -0.37561190 1.29122257 43 46 62
0.92617697 -0.37136769 1.27663243 43 46 63
0.92489988 -0.36997420 1.27184212 44 47 64
0.94302160 -0.37632871 1.29368675 46 48 65
0.94706500 -0.37704828 1.29616034 48 50 68
0.94749367 -0.37632871 1.29368675 48 53 71
0.94253480 -0.37347773 1.28388608 50 56 74
0.94654661 -0.37418643 1.28632224 51 57 75
0.95057362 -0.37489781 1.28876781 52 58 76
0.94919205 -0.37347773 1.28388608 53 59 77
0.66722322 -0.16163626 0.55564904 46 51 76
0.29290786 -0.18440692 0.63771576 63 70 99
0.29345798 -0.18406062 0.63651818 61 69 98
0.29483500 -0.18423362 0.63711637 62 70 99
0.29593620 -0.18423362 0.63711637 61 71 101
0.29648012 -0.18388796 0.63592106 62 73 103
0.29618999 -0.18302947 0.63295221 64 72 103
0.29562780 -0.18200982 0.62942606 66 74 105
0.29671574 -0.18200982 0.62942606 65 74 105
0.93630356 -0.37769666 1.30614996 42 45 62
0.93675625 -0.37697032 1.30363810 42 45 62
0.93541175 -0.37552598 1.29864335 43 46 62
0.94126272 -0.37697032 1.30363810 43 46 62
0.93275338 -0.37267026 1.28876781 44 47 64
0.92443603 -0.36846724 1.27423275 44 47 64
0.92144233 -0.36640105 1.26708758 45 47 64
0.94122541 -0.37338012 1.29122257 46 48 64
0.94525766 -0.37409267 1.29368675 48 51 67
0.94568890 -0.37338012 1.29122257 49 54 72
0.93897808 -0.36985767 1.27904117 51 57 75
0.94118875 -0.36985767 1.27904117 52 58 76
0.94876987 -0.37196311 1.28632224 53 59 77
0.94382942 -0.36916113 1.27663243 54 60 78
0.95543981 -0.37196311 1.28632224 55 61 81
0.67176914 -0.16200377 0.56024116 45 50 76
0.66667676 -0.16054428 0.55519396 45 50 75
0.29290786 -0.18330468 0.63771576 63 71 100
0.29345798 -0.18296045 0.63651818 61 70 101
0.29483500 -0.18313241 0.63711637 61 71 104
0.29565832 -0.18296045 0.63651818 61 72 104
0.29620224 -0.18261752 0.63532507 61 73 105
0.29618999 -0.18193546 0.63295221 64 73 104
0.29645360 -0.18142727 0.63118422 64 75 105
0.29726776 -0.18125850 0.63059705 64 75 105
0.93270934 -0.37399787 1.30113602 42 45 62
0.93316710 -0.37328139 1.29864335 42 45 62
0.93184143 -0.37185666 1.29368675 42 45 62
0.93945605 -0.37399787 1.30113602 43 46 63
0.93098348 -0.36973983 1.28632224 44 47 64
0.92443603 -0.36626482 1.27423275 45 48 66
0.91972321 -0.36353150 1.26472354 46 50 66
0.93587750 -0.36903957 1.28388608 46 51 66
0.94345719 -0.37114835 1.29122257 47 52 68
0.94209999 -0.36973983 1.28632224 49 55 72
0.93544805 -0.36626482 1.27423275 50 56 74
0.93589127 -0.36557764 1.27184212 52 58 76
0.94518286 -0.36834192 1.28145909 53 59 77
0.94028783 -0.36557764 1.27184212 53 59 77
0.95363027 -0.36903957 1.28388608 55 61 79
0.95044905 -0.36695459 1.27663243 55 62 81
0.67865294 -0.16292048 0.56679922 44 48 78
0.67176914 -0.16103543 0.56024116 43 47 74
0.66613120 -0.15945408 0.55473965 44 49 74
0.29153138 -0.18203120 0.63711637 63 71 101
0.29263258 -0.18203120 0.63711637 63 71 102
0.29318270 -0.18168968 0.63592106 63 72 104
0.29428184 -0.18168968 0.63592106 62 72 105
0.29538098 -0.18168968 0.63592106 62 73 105
0.29564807 -0.18117979 0.63413644 63 73 106
0.29591370 -0.18067276 0.63236177 63 74 104
0.29645360 -0.18033631 0.63118422 64 75 105
0.29726776 -0.18016855 0.63059705 64 76 106
0.90731370 -0.36337936 1.27184212 42 45 62
0.92337120 -0.36891657 1.29122257 42 45 62
0.92914253 -0.37032735 1.29616034 42 45 62
0.92960542 -0.36962062 1.29368675 42 45 62
0.92829835 -0.36821520 1.28876781 42 45 64
0.93586349 -0.37032735 1.29616034 43 46 65
0.92922026 -0.36682045 1.28388608 42 48 66
0.92270160 -0.36337936 1.27184212 44 49 67
0.91972321 -0.36134553 1.26472354 45 50 68
0.93234593 -0.36543623 1.27904117 47 51 69
0.93987668 -0.36751652 1.28632224 48 52 70
0.94031572 -0.36682045 1.28388608 48 54 72
0.93544805 -0.36406240 1.27423275 50 56 74
0.93589127 -0.36337936 1.27184212 52 58 76
0.94162285 -0.36474803 1.27663243 52 58 76
0.94028783 -0.36337936 1.27184212 53 59 77
0.94961268 -0.36612704 1.28145909 54 60 78
0.95543981 -0.36751652 1.28632224 55 61 79
0.95044905 -0.36474803 1.27663243 55 62 80
0.67751998 -0.16167045 0.56585294 44 48 80
0.67121440 -0.15993494 0.55977857 45 49 77
0.66504276 -0.15823628 0.55383319 45 49 77
0.29153138 -0.18093000 0.63711637 62 73 101
0.29235780 -0.18076012 0.63651818 62 73 101
0.29290792 -0.18042129 0.63532507 62 73 103
0.29428184 -0.18059054 0.63592106 63 73 105
0.29510415 -0.18042129 0.63532507 62 74 106
0.29537177 -0.17991544 0.63354379 62 74 106
0.29591370 -0.17957978 0.63236177 62 75 104
0.29645360 -0.17924537 0.63118422 63 76 105
0.29726776 -0.17907862 0.63059705 62 78 107
0.29835770 -0.17907862 0.63059705 62 78 107
0.90561461 -0.36050472 1.26946032 42 45 62
0.91812479 -0.36460137 1.28388608 42 45 62
0.92560297 -0.36668479 1.29122257 42 45 62
0.92783475 -0.36668479 1.29122257 42 45 63
0.92653686 -0.36529320 1.28632224 42 45 64
0.93407750 -0.36738458 1.29368675 43 46 65
0.93098348 -0.36529320 1.28632224 43 47 66
0.92270160 -0.36118108 1.27184212 44 48 67
0.91801053 -0.35849074 1.26236844 45 50 68
0.93059009 -0.36254147 1.27663243 46 51 69
0.93809658 -0.36460137 1.28388608 46 52 70
0.94031572 -0.36460137 1.28388608 48 54 72
0.93544805 -0.36186001 1.27423275 50 56 74
0.93413866 -0.36050472 1.26946032 52 58 76
0.93985289 -0.36186001 1.27423275 52 58 76
0.94028783 -0.36118108 1.27184212 53 59 77
0.95141119 -0.36460137 1.28388608 54 60 78
0.95543981 -0.36529320 1.28632224 54 61 79
0.95044905 -0.36254147 1.27663243 54 62 79
0.94908094 -0.36118108 1.27184212 54 62 79
0.69548529 -0.16567084 0.58338368 44 48 78
0.69114053 -0.16439754 0.57889998 44 48 78
0.68454164 -0.16259250 0.57254380 44 48 79
0.67695493 -0.16055840 0.56538099 44 48 78
0.67121440 -0.15896741 0.55977857 44 49 75
0.29180562 -0.17999797 0.63771576 63 74 103
0.29263258 -0.17982879 0.63711637 63 74 104
0.29318270 -0.17949140 0.63592106 62 72 105
0.29455814 -0.17965995 0.63651818 63 73 106
0.29510415 -0.17932318 0.63532507 63 73 106
0.29537177 -0.17882042 0.63354379 64 74 107
0.29536265 -0.17815441 0.63118422 60 76 104
0.29645360 -0.17815441 0.63118422 61 77 106
0.29726776 -0.17798869 0.63059705 62 78 107
0.29835770 -0.17798869 0.63059705 62 78 107
0.90561461 -0.35831055 1.26946032 42 45 64
0.91466016 -0.36101478 1.27904117 42 45 62
0.92209023 -0.36306989 1.28632224 42 45 62
0.92431355 -0.36306989 1.28632224 42 45 63
0.92303389 -0.36169723 1.28145909 43 46 65
0.93407750 -0.36514854 1.29368675 42 46 65
0.93098348 -0.36306989 1.28632224 41 47 65
0.92270160 -0.35898280 1.27184212 41 47 65
0.91801053 -0.35630882 1.26236844 43 49 67
0.92884082 -0.35965759 1.27423275 45 51 69
0.93809658 -0.36238226 1.28388608 47 53 71
0.94031572 -0.36238226 1.28388608 49 55 73
0.93544805 -0.35965759 1.27423275 50 56 74
0.93413866 -0.35831055 1.26946032 50 56 74
0.93808955 -0.35898280 1.27184212 51 57 75
0.93852699 -0.35831055 1.26946032 52 59 77
0.94961268 -0.36169723 1.28145909 53 61 78
0.95363027 -0.36238226 1.28388608 53 61 78
0.94866252 -0.35965759 1.27423275 53 61 79
0.94730365 -0.35831055 1.26946032 54 62 80
0.67121440 -0.15799987 0.55977857 44 49 75
0.66449982 -0.15619415 0.55338109 44 49 74
0.65581977 -0.15393229 0.54536754 44 49 74
0.04582154 -0.19706337 0.70247859 163 169 184
0.29208040 -0.17906418 0.63831621 64 74 103
0.29290786 -0.17889573 0.63771576 63 74 104
0.29345798 -0.17855978 0.63651818 62 73 104
0.29455814 -0.17855978 0.63651818 62 73 103
0.29510415 -0.17822509 0.63532507 63 75 107
0.29509598 -0.17755944 0.63295221 64 76 108
0.29481363 -0.17673434 0.63001102 63 78 107
0.29590255 -0.17673434 0.63001102 64 77 108
0.29699150 -0.17673434 0.63001102 64 76 108
0.33492953 -0.15860397 0.56538099 53 55 81
0.90561461 -0.35611641 1.26946032 43 44 62
0.91293764 -0.35812837 1.27663243 42 45 62
0.92034388 -0.36016318 1.28388608 43 46 63
0.92081898 -0.35948235 1.28145909 42 46 64
0.92129230 -0.35880408 1.27904117 41 47 65
0.93229830 -0.36222124 1.29122257 41 47 65
0.93275338 -0.36153263 1.28876781 41 47 64
0.92270160 -0.35678455 1.27184212 42 48 64
0.91630417 -0.35346869 1.26002204 43 49 67
0.92536205 -0.35611641 1.26946032 45 51 69
0.93279660 -0.35812837 1.27663243 47 53 71
0.93676734 -0.35880408 1.27904117 47 53 71
0.93369299 -0.35678455 1.27184212 48 54 72
0.93065310 -0.35478762 1.26472354 48 54 73
0.93458265 -0.35545075 1.26708758 50 56 76
0.94824249 -0.35812837 1.27663243 53 61 78
0.94334292 -0.35545075 1.26708758 54 60 81
0.94201142 -0.35412693 1.26236844 55 61 83
0.66449982 -0.15523767 0.55338109 43 48 73
0.65581977 -0.15298967 0.54536754 44 49 74
0.64944762 -0.15128572 0.53929341 44 49 74
0.04502731 -0.19769298 0.70909190 164 170 186
0.04591671 -0.19625595 0.70393753 162 168 184
0.29263151 -0.17829667 0.63952059 64 76 105
0.29318368 -0.17796090 0.63831621 63 76 105
0.29373378 -0.17762639 0.63711637 62 74 106
0.29483500 -0.17762639 0.63711637 63 75 107
0.29538098 -0.17729314 0.63592106 65 75 109
0.29509598 -0.17646544 0.63295221 65 76 109
0.29481363 -0.17564543 0.63001102 66 77 109
0.33465043 -0.15749539 0.56490988 50 54 79
0.33395705 -0.15671183 0.56209940 52 55 80
0.90561461 -0.35392225 1.26946032 42 46 62
0.91293764 -0.35592180 1.27663243 43 46 63
0.91860408 -0.35726744 1.28145909 43 46 63
0.91908157 -0.35659334 1.27904117 42 47 64
0.91955727 -0.35592180 1.27663243 42 48 64
0.93052584 -0.35930508 1.28876781 43 47 65
0.93275338 -0.35930508 1.28876781 43 47 66
0.92270160 -0.35458627 1.27184212 45 49 68
0.91630417 -0.35129085 1.26002204 45 50 70
0.92363238 -0.35326070 1.26708758 46 52 71
0.92929643 -0.35458627 1.27184212 46 52 71
0.93324566 -0.35525277 1.27423275 46 52 71
0.93020254 -0.35326070 1.26708758 48 54 73
0.92892003 -0.35194501 1.26236844 48 55 75
0.66449982 -0.15428120 0.55338109 42 47 72
0.65581977 -0.15204705 0.54536754 42 47 72
0.64944762 -0.15035360 0.53929341 44 49 74
0.64873141 -0.14975791 0.53715676 43 48 73
0.04507446 -0.19667308 0.70983440 163 169 185
0.04601226 -0.19544517 0.70540255 162 168 184
0.04693844 -0.19423246 0.70102566 161 167 183
0.29346001 -0.17702432 0.63891786 64 76 108
0.29401010 -0.17669125 0.63771576 64 76 110
0.29511234 -0.17669125 0.63771576 64 76 110
0.29538098 -0.17619400 0.63592106 66 76 110
0.29482070 -0.17520784 0.63236177 66 76 110
0.29453990 -0.17439443 0.62942606 68 78 111
0.33409360 -0.15625857 0.56396991 50 54 77
0.33368036 -0.15561126 0.56163365 51 54 78
0.90561461 -0.35172808 1.26946032 42 47 65
0.91293764 -0.35371524 1.27663243 44 47 65
0.91687089 -0.35438263 1.27904117 44 47 66
0.91735071 -0.35371524 1.27663243 44 47 66
0.91782880 -0.35305038 1.27423275 43 47 65
0.92876017 -0.35639998 1.28632224 43 47 66
0.93275338 -0.35707757 1.28876781 43 48 67
0.92270160 -0.35238799 1.27184212 44 50 68
0.91630417 -0.34911302 1.26002204 45 51 69
0.92929643 -0.35238799 1.27184212 45 51 71
0.93149471 -0.35238799 1.27184212 47 53 73
0.93020254 -0.35107064 1.26708758 49 55 75
0.66449982 -0.15332474 0.55338109 42 46 74
0.65634781 -0.15122609 0.54580665 42 46 74
0.64944762 -0.14942148 0.53929341 42 47 72
0.64883125 -0.14906572 0.53800941 42 47 72
0.64821774 -0.14871164 0.53673148 42 47 72
0.04606019 -0.19442825 0.70613736 162 168 183
0.04698703 -0.19322062 0.70175141 161 167 183
0.29401422 -0.17625223 0.64012450 64 76 108
0.29456434 -0.17591999 0.63891786 65 76 110
0.29511234 -0.17558901 0.63771576 65 75 110
0.29538098 -0.17509486 0.63592106 65 75 108
0.33353862 -0.15502584 0.56303310 51 52 76
0.33312836 -0.15438472 0.56070459 50 53 75
0.90561461 -0.34953392 1.26946032 42 47 64
0.91293764 -0.35150871 1.27663243 42 48 64
0.91687089 -0.35217193 1.27904117 42 48 64
0.91562641 -0.35084796 1.27423275 42 48 64
0.91782880 -0.35084796 1.27423275 43 48 65
0.92700112 -0.35350591 1.28388608 43 48 66
0.93275338 -0.35485002 1.28876781 42 48 66
0.92270160 -0.35018972 1.27184212 44 50 68
0.91630417 -0.34693515 1.26002204 44 50 70
0.92019242 -0.34758121 1.26236844 44 50 70
0.92929643 -0.35018972 1.27184212 45 51 72
0.93149471 -0.35018972 1.27184212 47 52 74
0.93020254 -0.34888059 1.26708758 49 55 77
0.67122418 -0.15502584 0.56303310 42 47 75
0.67880845 -0.15632422 0.56774861 41 47 74
0.67414367 -0.15502584 0.56303310 41 47 74
0.66449982 -0.15236826 0.55338109 41 47 74
0.65634781 -0.15028270 0.54580665 41 47 74
0.64996469 -0.14860758 0.53972280 42 46 74
0.64934659 -0.14825347 0.53843671 41 45 73
0.64821774 -0.14778394 0.53673148 41 46 73
0.04615635 -0.19361110 0.70761150 161 168 183
0.04703572 -0.19220667 0.70247859 159 165 181
0.29512897 -0.17580989 0.64255148 66 76 109
0.29512063 -0.17514583 0.64012450 67 77 111
0.29566863 -0.17481568 0.63891786 65 75 109
0.29565832 -0.17415909 0.63651818 66 76 109
0.29509598 -0.17318341 0.63295221 68 78 112
0.29453990 -0.17221861 0.62942606 68 78 113
0.33298549 -0.15379721 0.56209940 51 53 78
0.33285305 -0.15328878 0.56024116 51 53 77
0.33354574 -0.15316221 0.55977857 50 52 76
0.91171026 -0.34799144 1.27184212 44 47 66
0.91049206 -0.34669054 1.26708758 44 47 67
0.93098348 -0.35195339 1.28632224 43 49 67
0.92270160 -0.34799144 1.27184212 44 50 68
0.91460419 -0.34411770 1.25768435 45 51 71
0.91338879 -0.34284553 1.25303483 45 51 71
0.92846709 -0.34604371 1.26472354 48 54 77
0.67122418 -0.15405269 0.56303310 42 48 75
0.67052656 -0.15366979 0.56163365 41 47 74
0.67541438 -0.15456620 0.56490988 41 47 74
0.67358416 -0.15392484 0.56256586 40 46 73
0.67121440 -0.15316221 0.55977857 40 46 73
0.66449982 -0.15141179 0.55338109 40 46 73
0.65634781 -0.14933932 0.54580665 40 46 73
0.65048259 -0.14779238 0.54015285 41 46 71
0.64821774 -0.14685625 0.53673148 41 46 71
0.04545523 -0.19462276 0.71583086 161 168 181
0.04625291 -0.19279054 0.70909190 161 168 181
0.04708451 -0.19119062 0.70320731 159 166 180
0.04815010 -0.19059747 0.70102566 158 164 180
0.29597059 -0.17519748 0.64438391 68 78 113
0.29623958 -0.17469929 0.64255148 69 79 113
0.29650703 -0.17420393 0.64072955 69 79 114
0.29593620 -0.17322157 0.63711637 68 78 113
0.29537177 -0.17225024 0.63354379 68 79 113
0.33507016 -0.15423243 0.56727350 53 55 81
0.33243421 -0.15257265 0.56116873 52 54 80
0.33230379 -0.15206911 0.55931669 51 53 79
0.33299577 -0.15194374 0.55885559 51 53 78
0.90541494 -0.34257945 1.26002204 43 47 67
0.92097372 -0.34514561 1.26946032 45 51 69
0.91291046 -0.34131065 1.25535524 45 51 71
0.67122418 -0.15307952 0.56303310 41 48 75
0.67052656 -0.15269905 0.56163365 40 47 74
0.67261183 -0.15295249 0.56256586 41 47 74
0.67358416 -0.15295249 0.56256586 41 47 74
0.67121440 -0.15219468 0.55977857 41 47 74
0.66449982 -0.15045531 0.55338109 41 47 74
0.65687668 -0.14851551 0.54624647 40 46 73
0.65100133 -0.14697587 0.54058361 41 46 71
0.64770496 -0.14581309 0.53630686 40 45 70
0.04458132 -0.20058715 0.74248832 164 169 182
0.04536774 -0.19841395 0.73444402 162 169 182
0.04579373 -0.19482560 0.72116154 160 166 182
0.04630135 -0.19176552 0.70983440 158 165 181
0.04718240 -0.19037014 0.70466930 156 164 181
0.04819995 -0.18958186 0.70175141 151 162 180
0.29625222 -0.17424935 0.64499700 72 78 114
0.29652062 -0.17375340 0.64316112 72 79 115
0.29678753 -0.17326024 0.64133573 76 84 120
0.29593620 -0.17212036 0.63711637 69 79 115
0.29537177 -0.17115521 0.63354379 69 80 115
0.33451030 -0.15299588 0.56632566 51 53 79
0.33215922 -0.15147731 0.56070459 51 53 78
0.33066684 -0.15035802 0.55656147 50 52 77
0.90786678 -0.33726716 1.24841964 46 52 71
0.67360789 -0.15286817 0.56585294 41 49 76
0.67178214 -0.15223281 0.56350112 40 48 75
0.67163950 -0.15198015 0.56256586 39 47 74
0.67597771 -0.15274067 0.56538099 40 47 74
0.67414367 -0.15210637 0.56303310 40 47 74
0.67121440 -0.15122715 0.55977857 40 47 73
0.66504276 -0.14962098 0.55383319 41 47 72
0.65740645 -0.14769039 0.54668695 40 47 71
0.65048259 -0.14592516 0.54015285 40 47 71
0.64566171 -0.14442907 0.53461504 39 46 70
0.04541695 -0.19735834 0.73524064 163 170 185
0.04594035 -0.19419892 0.72347051 158 164 183
0.04634988 -0.19073835 0.71057844 158 164 183
0.04733000 -0.18974389 0.70687366 155 163 182
0.04829995 -0.18875974 0.70320731 152 162 181
0.29680222 -0.17280570 0.64377195 69 78 116
0.29678753 -0.17215174 0.64133573 71 79 117
0.29593620 -0.17101917 0.63711637 70 79 117
0.33423108 -0.15189014 0.56585294 50 53 78
0.33188471 -0.15038380 0.56024116 50 52 77
0.32958445 -0.14890704 0.55473965 50 52 76
0.67529893 -0.15227145 0.56727350 41 50 76
0.67458588 -0.15189014 0.56585294 39 48 75
0.67387640 -0.15151073 0.56443948 38 47 74
0.65793705 -0.14686392 0.54712820 40 47 71
0.64996469 -0.14487611 0.53972280 40 47 71
0.64677799 -0.14395916 0.53630686 39 46 70
0.04541695 -0.19608754 0.73524064 163 170 183
0.04639852 -0.18970904 0.71132410 158 166 181
0.04737940 -0.18871890 0.70761150 156 164 181
0.04835010 -0.18773906 0.70393753 154 162 179
0.29650703 -0.17088158 0.64072955 70 79 116
0.33339620 -0.15053515 0.56443948 49 54 79
0.33161068 -0.14929208 0.55977857 49 53 78
0.32877731 -0.14758588 0.55338109 49 53 76
0.67529893 -0.15129097 0.56727350 40 50 76
0.67627943 -0.15129097 0.56727350 39 49 75
0.67612833 -0.15103818 0.56632566 37 47 74
0.68051827 -0.15179908 0.56917870 37 47 73
0.67751998 -0.15091211 0.56585294 37 46 73
0.67232478 -0.14953905 0.56070459 39 47 72
0.66777056 -0.14831232 0.55610490 40 47 71
0.65900081 -0.14615417 0.54801279 40 47 71
0.64524651 -0.14269353 0.53503698 40 45 70
0.64312571 -0.14202099 0.53251517 40 45 70
0.04541695 -0.19481674 0.73524064 162 169 182
0.04603862 -0.19210805 0.72501802 162 168 183
0.04639852 -0.18847957 0.71132410 160 167 183
0.04747852 -0.18788810 0.70909190 156 163 181
0.04845073 -0.18691054 0.70540255 155 161 179
0.33284193 -0.14931092 0.56350112 49 54 79
0.33106390 -0.14807999 0.55885559 49 54 79
0.32877731 -0.14662941 0.55338109 48 53 78
0.32150441 -0.14255637 0.53800941 46 51 74
0.67586452 -0.15043637 0.56774861 42 50 77
0.67684579 -0.15043637 0.56774861 40 48 75
0.65740645 -0.14485566 0.54668695 39 46 70
0.64944762 -0.14289661 0.53929341 39 46 70
0.64575619 -0.14188075 0.53545958 39 46 70
0.64363134 -0.14121149 0.53293383 39 46 70
0.04541695 -0.19354592 0.73524064 162 168 183
0.04608791 -0.19105926 0.72579426 160 166 183
0.04654504 -0.18784142 0.71357036 160 166 183
0.04752824 -0.18685795 0.70983440 156 162 182
0.04855177 -0.18607856 0.70687366 154 160 180
0.33256549 -0.14821374 0.56303310 49 54 79
0.32469764 -0.14344802 0.54492915 47 52 75
0.32124946 -0.14151415 0.53758276 46 51 74
0.31964377 -0.14040075 0.53335315 46 51 74
0.65634781 -0.14367902 0.54580665 41 46 71
0.64944762 -0.14196448 0.53929341 40 45 70
0.64729005 -0.14129007 0.53673148 40 45 70
0.64515293 -0.14062202 0.53419375 40 45 70
0.04541695 -0.19227512 0.73524064 162 168 185
0.04613730 -0.19000822 0.72657216 157 163 183
0.04674185 -0.18739711 0.71658754 158 164 184
0.04762798 -0.18602064 0.71132410 155 161 181
0.04865324 -0.18524311 0.70835096 154 160 180
0.33381033 -0.14822547 0.56679922 49 54 78
0.33201396 -0.14699641 0.56209940 49 54 77
0.33079121 -0.14602773 0.55839527 48 53 76
0.32877731 -0.14471646 0.55338109 48 53 76
0.32391649 -0.14216332 0.54361814 47 52 74
0.32074073 -0.14036237 0.53673148 47 51 73
0.31939247 -0.13936923 0.53293383 47 51 73
0.65529257 -0.14250617 0.54492915 41 46 71
0.64944762 -0.14103235 0.53929341 41 46 71
0.64831668 -0.14058499 0.53758276 40 45 70
0.64617127 -0.13991924 0.53503698 40 45 70
0.04613730 -0.18875240 0.72657216 158 164 182
0.04689055 -0.18675078 0.71886730 159 165 183
0.04767801 -0.18498528 0.71207124 155 161 181
0.04870413 -0.18421128 0.70909190 154 160 180
0.04951539 -0.18268256 0.70320731 153 159 179
0.33146426 -0.14578310 0.56116873 48 54 74
0.32850912 -0.14364272 0.55292970 48 50 71
0.32339782 -0.14099759 0.54274768 48 50 71
0.32023364 -0.13921422 0.53588289 48 50 70
0.31914160 -0.13833934 0.53251517 49 50 70
0.65476626 -0.14145058 0.54449141 40 45 70
0.64996469 -0.14021178 0.53972280 40 45 70
0.64934659 -0.13987766 0.53843671 40 45 70
0.64770496 -0.13932435 0.53630686 39 44 69
0.04618681 -0.18769775 0.72735178 159 165 182
0.04694033 -0.18570520 0.71963042 159 165 182
0.04767801 -0.18375452 0.71207124 155 161 181
0.04870413 -0.18298568 0.70909190 154 160 180
0.04951539 -0.18146712 0.70320731 153 159 179
0.33119011 -0.14469339 0.56070459 50 53 72
0.32997578 -0.14374223 0.55701876 49 50 70
0.32824141 -0.14257075 0.55247909 48 49 69
0.32313910 -0.13994744 0.54231346 49 49 69
0.32074073 -0.13850696 0.53673148 50 48 69
0.31939247 -0.13752697 0.53293383 50 48 69
0.65424079 -0.14039671 0.54405445 42 44 70
0.64996469 -0.13927890 0.53972280 42 43 69
0.64883125 -0.13883676 0.53800941 42 42 69
0.64719290 -0.13828799 0.53588289 42 42 69
0.04571444 -0.18969719 0.74005657 161 167 183
0.04623642 -0.18664084 0.72813302 158 165 182
0.04704020 -0.18485385 0.72116154 155 163 180
0.04772815 -0.18271570 0.71281999 155 161 181
0.04870413 -0.18176007 0.70909190 153 159 179
0.33119011 -0.14372425 0.56070459 49 52 72
0.32970485 -0.14266226 0.55656147 49 50 72
0.32744080 -0.14127043 0.55113161 48 49 72
0.32288080 -0.13889898 0.54187995 47 50 71
0.32099488 -0.13768829 0.53715676 47 50 71
0.31989548 -0.13682096 0.53377312 48 49 71
0.65319228 -0.13923287 0.54318255 40 44 69
0.64944762 -0.13823597 0.53929341 41 43 69
0.64883125 -0.13790685 0.53800941 41 43 69
0.64668173 -0.13725325 0.53545958 41 43 69
0.04601585 -0.18966037 0.74493611 157 165 180
0.04643593 -0.18618225 0.73127490 157 165 181
0.04714050 -0.18399887 0.72269917 154 162 179
0.04777839 -0.18167467 0.71357036 153 161 180
0.04875513 -0.18072350 0.70983440 152 160 179
0.33091640 -0.14263715 0.56024116 50 52 76
0.32916436 -0.14146799 0.55564904 49 50 73
0.32532486 -0.13941111 0.54757017 49 50 72
0.32210836 -0.13763233 0.54058361 48 49 71
0.32048699 -0.13654347 0.53630686 48 49 71
0.31964377 -0.13579145 0.53335315 48 49 71
0.65214717 -0.13807276 0.54231346 39 44 68
0.64944762 -0.13730386 0.53929341 39 44 67
0.64934659 -0.13708574 0.53843671 39 43 67
0.64770496 -0.13654347 0.53630686 38 43 66
0.04616805 -0.18899588 0.74740005 158 165 180
0.04653633 -0.18531811 0.73285604 157 164 180
0.04724123 -0.18314023 0.72424340 155 162 179
0.04792975 -0.18101294 0.71583086 153 161 180
0.04880624 -0.17968476 0.71057844 152 160 179
0.32108417 -0.13626333 0.53886473 48 49 71
0.31922424 -0.13508216 0.53419375 48 49 71
0.65266931 -0.13724521 0.54274768 39 44 67
0.64944762 -0.13637173 0.53929341 38 43 66
0.64986277 -0.13626333 0.53886473 38 43 66
0.64770496 -0.13561651 0.53630686 38 43 66
0.04476904 -0.19280587 0.76771444 162 168 182
0.04563088 -0.19086051 0.75996846 161 168 182
0.04668775 -0.18465030 0.73524064 158 164 181
0.04729175 -0.18208297 0.72501802 156 162 180
0.04818415 -0.18072991 0.71963042 153 161 178
0.30180714 -0.13259158 0.52795315 59 66 90
0.30366564 -0.13300592 0.52960300 58 64 89
0.30505767 -0.13321407 0.53043181 57 62 87
0.30645406 -0.13342287 0.53126317 56 61 86
0.30689129 -0.13321407 0.53043181 56 61 86
0.30708724 -0.13290209 0.52918959 55 59 85
0.31171924 -0.13331838 0.53084719 51 54 80
0.31263676 -0.13331838 0.53084719 51 53 77
0.31257519 -0.13290209 0.52918959 50 52 76
0.31275740 -0.13259158 0.52795315 49 50 72
0.31956002 -0.13468954 0.53630686 48 49 71
0.31847134 -0.13384244 0.53293383 48 49 71
0.31889108 -0.13363232 0.53209722 48 49 71
0.65476626 -0.13674505 0.54449141 38 43 68
0.64996469 -0.13554743 0.53972280 38 44 66
0.65037978 -0.13543960 0.53929341 38 44 64
0.64873141 -0.13490300 0.53715676 38 44 64
0.04481980 -0.19169603 0.76858485 161 168 181
0.04573342 -0.18997292 0.76167625 160 166 182
0.04642398 -0.18744557 0.75154305 158 164 182
0.04684016 -0.18397813 0.73764074 157 164 182
0.04744398 -0.18141191 0.72735178 154 162 181
0.04833809 -0.18005952 0.72192955 152 160 179
0.04906338 -0.17816217 0.71432227 151 159 179
0.30089459 -0.13167904 0.52795315 59 64 90
0.30133775 -0.13147426 0.52713209 58 63 90
0.30295560 -0.13178168 0.52836466 57 62 88
0.30410585 -0.13188447 0.52877676 56 61 86
0.30573526 -0.13219382 0.53001708 56 61 86
0.30593374 -0.13188447 0.52877676 56 61 86
0.30613133 -0.13157657 0.52754229 55 60 85
0.30728227 -0.13167904 0.52795315 54 59 84
0.30795494 -0.13157657 0.52754229 52 57 82
0.30934823 -0.13178168 0.52836466 52 57 82
0.31074589 -0.13198744 0.52918959 51 56 80
0.31117472 -0.13178168 0.52836466 51 54 75
0.31184489 -0.13167904 0.52795315 50 53 74
0.31227100 -0.13147426 0.52713209 49 50 72
0.31805030 -0.13313062 0.53377312 47 49 71
0.31772202 -0.13260855 0.53167987 47 49 70
0.31764445 -0.13219382 0.53001708 47 48 70
0.65581977 -0.13602245 0.54536754 39 44 69
0.65100133 -0.13482927 0.54058361 38 43 66
0.65037978 -0.13450748 0.53929341 37 42 65
0.64924586 -0.13408081 0.53758276 37 42 65
0.04507533 -0.19145292 0.77296674 161 167 183
0.04578486 -0.18886864 0.76253301 159 165 182
0.04647550 -0.18635318 0.75237721 158 164 181
0.04704493 -0.18350187 0.74086541 157 164 181
0.04769988 -0.18112645 0.73127490 155 162 179
0.04844127 -0.17919341 0.72347051 153 159 178
0.04953314 -0.17862150 0.72116154 152 159 178
0.29883680 -0.13066477 0.52754229 60 65 90
0.29928282 -0.13046171 0.52672249 59 65 89
0.30042663 -0.13056315 0.52713209 58 65 89
0.30086982 -0.13036042 0.52631354 58 64 89
0.30224887 -0.13056315 0.52713209 57 63 88
0.30339587 -0.13066477 0.52754229 57 62 87
0.30478206 -0.13086845 0.52836466 56 61 86
0.30521950 -0.13066477 0.52754229 55 60 85
0.30565560 -0.13046171 0.52672249 54 59 83
0.30656600 -0.13046171 0.52672249 53 58 82
0.30747640 -0.13046171 0.52672249 52 57 81
0.30862659 -0.13056315 0.52713209 53 56 80
0.31001985 -0.13076653 0.52795315 52 55 78
0.31044880 -0.13056315 0.52713209 50 53 74
0.31135991 -0.13056315 0.52713209 49 53 73
0.31202838 -0.13046171 0.52672249 47 51 72
0.31293878 -0.13046171 0.52672249 46 50 71
0.31680304 -0.13168958 0.53167987 43 48 69
0.31648090 -0.13117518 0.52960300 42 48 68
0.31591544 -0.13056315 0.52713209 42 48 68
0.65687668 -0.13529752 0.54624647 38 45 69
0.65308452 -0.13432337 0.54231346 37 43 67
0.65141624 -0.13378823 0.54015285 36 41 66
0.65027726 -0.13336316 0.53843671 35 40 65
0.04583642 -0.18776186 0.76339173 159 165 181
0.04647550 -0.18505275 0.75237721 158 164 180
0.04719968 -0.18282077 0.74330246 156 162 179
0.04785475 -0.18044646 0.73364919 155 161 179
0.04875346 -0.17908973 0.72813302 152 160 179
0.04990477 -0.17870583 0.72657216 151 158 178
0.29860443 -0.12965205 0.52713209 61 66 91
0.29905045 -0.12945072 0.52631354 60 65 90
0.30019322 -0.12955131 0.52672249 60 65 89
0.30063641 -0.12935030 0.52590525 59 65 87
0.30201399 -0.12955131 0.52672249 58 64 86
0.30315995 -0.12965205 0.52713209 57 63 84
0.30407107 -0.12965205 0.52713209 56 61 82
0.30474520 -0.12955131 0.52672249 55 61 81
0.30518135 -0.12935030 0.52590525 54 59 80
0.30632797 -0.12945072 0.52631354 54 57 81
0.30699930 -0.12935030 0.52590525 53 56 80
0.30814734 -0.12945072 0.52631354 53 55 79
0.30953768 -0.12965205 0.52713209 50 53 76
0.31020758 -0.12955131 0.52672249 46 52 72
0.31087643 -0.12945072 0.52631354 46 51 72
0.31154424 -0.12935030 0.52590525 45 51 72
0.31245321 -0.12935030 0.52590525 44 49 72
0.31384918 -0.12955131 0.52672249 44 49 72
0.31524947 -0.12975295 0.52754229 42 47 70
0.31535521 -0.12904996 0.52468407 42 47 66
0.65740645 -0.13446172 0.54668695 38 44 69
0.65570736 -0.13392171 0.54449141 37 43 67
0.65402186 -0.13338603 0.54231346 36 41 66
0.65183043 -0.13274883 0.53972280 35 40 65
0.04583642 -0.18644240 0.76339173 158 164 182
0.04652714 -0.18395650 0.75321317 156 163 182
0.04735545 -0.18213515 0.74575561 154 162 181
0.04912280 -0.17917842 0.73364919 151 159 181
0.05011964 -0.17821406 0.72970057 149 158 180
0.29837242 -0.12864092 0.52672249 61 66 90
0.29881844 -0.12844132 0.52590525 60 65 88
0.29996014 -0.12854104 0.52631354 60 65 86
0.30040336 -0.12834175 0.52549756 59 65 85
0.30177951 -0.12854104 0.52631354 58 64 84
0.30292439 -0.12864092 0.52672249 57 63 83
0.30383480 -0.12864092 0.52672249 55 61 81
0.30450860 -0.12854104 0.52631354 54 60 81
0.30494475 -0.12834175 0.52549756 54 58 81
0.30585304 -0.12834175 0.52549756 54 56 80
0.30676132 -0.12834175 0.52549756 54 56 80
0.30790830 -0.12844132 0.52590525 52 54 78
0.30929717 -0.12864092 0.52672249 48 51 75
0.30972627 -0.12844132 0.52590525 45 50 74
0.31063524 -0.12844132 0.52590525 44 49 74
0.31130272 -0.12834175 0.52549756 44 49 74
0.31221101 -0.12834175 0.52549756 44 49 73
0.31311929 -0.12834175 0.52549756 46 49 68
0.31451517 -0.12854104 0.52631354 44 47 67
0.31493583 -0.12834175 0.52549756 43 46 66
0.31511131 -0.12804396 0.52427828 43 46 66
0.31407425 -0.12725662 0.52105445 43 46 67
0.66341674 -0.13493142 0.55247909 39 44 69
0.65846848 -0.13373251 0.54757017 38 43 68
0.65676242 -0.13319458 0.54536754 37 42 67
0.65664846 -0.13298060 0.54449141 36 41 66
0.65339106 -0.13213156 0.54101503 35 40 65
0.04578486 -0.18491471 0.76253301 157 165 183
0.04652714 -0.18265463 0.75321317 155 163 181
0.04745987 -0.18124495 0.74740005 154 162 180
0.04811511 -0.17887832 0.73764074 152 160 181
0.29814076 -0.12763135 0.52631354 61 66 88
0.29858682 -0.12743346 0.52549756 60 66 87
0.29972744 -0.12753233 0.52590525 59 65 86
0.30017069 -0.12733476 0.52509052 58 64 84
0.30177951 -0.12763135 0.52631354 57 63 83
0.30268922 -0.12763135 0.52631354 55 61 82
0.30383480 -0.12773052 0.52672249 54 60 82
0.30427235 -0.12753233 0.52590525 53 58 81
0.30470857 -0.12733476 0.52509052 53 57 80
0.30561614 -0.12733476 0.52509052 52 56 80
0.30652371 -0.12733476 0.52509052 50 55 79
0.30766961 -0.12743346 0.52549756 48 53 78
0.30905706 -0.12763135 0.52631354 46 51 76
0.30972627 -0.12753233 0.52590525 45 50 75
0.31039444 -0.12743346 0.52549756 44 49 74
0.31106159 -0.12733476 0.52509052 44 49 72
0.31221101 -0.12743346 0.52549756 44 49 71
0.31287673 -0.12733476 0.52509052 44 47 69
0.31402758 -0.12743346 0.52549756 43 46 68
0.31444833 -0.12723620 0.52468407 43 46 67
0.31486779 -0.12703955 0.52387315 43 46 67
0.31431586 -0.12645321 0.52145529 43 46 67
0.66126102 -0.13354117 0.55068386 38 43 68
0.65793705 -0.13267891 0.54712820 38 43 68
0.65729123 -0.13235843 0.54580665 37 42 67
0.65770501 -0.13225195 0.54536754 36 41 66
0.65443569 -0.13140622 0.54187995 35 40 65
0.04573342 -0.18339044 0.76167625 157 165 182
0.04652714 -0.18135276 0.75321317 154 162 179
0.04745987 -0.17995313 0.74740005 154 162 179
0.04837832 -0.17857493 0.74167597 152 160 179
0.04960598 -0.17837977 0.74086541 149 158 179
0.29790947 -0.12662335 0.52590525 60 66 87
0.29812461 -0.12632933 0.52468407 60 65 87
0.29949510 -0.12652519 0.52549756 60 66 86
0.29993835 -0.12632933 0.52468407 57 63 83
0.30131164 -0.12652519 0.52549756 55 60 83
0.30245438 -0.12662335 0.52590525 54 59 82
0.30359891 -0.12672165 0.52631354 54 59 82
0.30403650 -0.12652519 0.52549756 53 58 81
0.30423725 -0.12623163 0.52427828 52 57 80
0.30490759 -0.12613407 0.52387315 51 56 79
0.30628645 -0.12632933 0.52468407 49 54 78
0.30743128 -0.12642719 0.52509052 47 52 77
0.30905706 -0.12672165 0.52631354 46 51 76
0.30948618 -0.12652519 0.52549756 45 50 75
0.30991396 -0.12632933 0.52468407 45 50 74
0.31082085 -0.12632933 0.52468407 44 49 72
0.31196916 -0.12642719 0.52509052 43 48 71
0.31287673 -0.12642719 0.52509052 43 46 70
0.31354144 -0.12632933 0.52468407 42 46 69
0.31396231 -0.12613407 0.52387315 43 46 67
0.31438190 -0.12593943 0.52306467 43 46 67
0.31431586 -0.12555192 0.52145529 43 46 67
0.65846848 -0.13183965 0.54757017 38 43 68
0.65782082 -0.13152094 0.54624647 37 41 66
0.65823460 -0.13141505 0.54580665 37 40 64
0.04573342 -0.18207395 0.76167625 155 163 182
0.04647550 -0.17985107 0.75237721 155 163 182
0.04745987 -0.17866132 0.74740005 153 161 180
0.04853764 -0.17787685 0.74411839 150 159 183
0.04976915 -0.17768180 0.74330246 148 157 181
0.05116610 -0.17807232 0.74493611 147 156 180
0.29767853 -0.12561691 0.52549756 58 65 89
0.29789403 -0.12532546 0.52427828 59 66 90
0.29926309 -0.12551960 0.52509052 60 66 89
