ply
format ascii 1.0
element vertex 1062
property float x
property float y
property float z
property uchar red
property uchar green
property uchar blue
end_header
0.07321605 0.24642453 0.72116154 156 157 157
0.07438339 0.24616265 0.72039515 153 154 154
0.07554825 0.24590133 0.71963042 150 149 149
0.07662938 0.24538036 0.71810579 146 145 145
0.07795314 0.24564056 0.71886730 144 143 144
0.07902804 0.24512069 0.71734589 140 139 141
0.08018307 0.24486157 0.71658754 135 134 137
0.08133565 0.24460301 0.71583086 135 134 138
0.08248580 0.24434499 0.71507579 135 135 139
0.08372175 0.24434499 0.71507579 135 135 138
0.08504742 0.24460301 0.71583086 137 138 140
0.08610283 0.24408752 0.71432227 139 138 145
0.08706225 0.24331833 0.71207124 138 138 145
0.08820036 0.24306302 0.71132410 138 138 145
0.08933609 0.24280822 0.71057844 138 138 147
0.09046943 0.24255398 0.70983440 137 137 146
0.09169632 0.24255398 0.70983440 136 136 145
0.09282602 0.24230026 0.70909190 136 135 148
0.09327111 0.24028948 0.70320731 130 130 142
0.09399900 0.23904958 0.69957876 125 125 137
0.09530652 0.23929654 0.70030147 129 129 142
0.09651694 0.23929654 0.70030147 128 127 140
0.09762650 0.23904958 0.69957876 128 127 140
0.39653608 0.43135765 1.26236844 171 172 172
0.38306624 0.41216913 1.20621324 172 173 173
0.38446698 0.41143703 1.20407081 172 173 173
0.38586277 0.41070753 1.20193589 172 172 172
0.38656938 0.40925628 1.19768882 173 173 173
0.38795406 0.40853450 1.19557643 173 173 174
0.39070961 0.40925628 1.19768882 170 170 171
0.39487270 0.41143703 1.20407081 161 161 163
0.39979428 0.41438112 1.21268666 159 159 161
0.40333337 0.41586903 1.21704102 157 158 160
0.40616611 0.41661701 1.21922994 147 149 151
0.40754047 0.41586903 1.21704102 138 142 143
0.40744951 0.41364115 1.21052110 136 140 141
0.41100970 0.41512376 1.21485996 137 140 142
0.41385114 0.41586903 1.21704102 138 139 141
0.41595471 0.41586903 1.21704102 140 141 142
0.41507745 0.41290385 1.20836341 144 145 145
0.41202489 0.40781522 1.19347155 149 152 151
0.41555092 0.40925628 1.19768882 144 148 147
0.41984636 0.41143703 1.20407081 146 150 149
0.42117938 0.41070753 1.20193589 147 150 149
0.42101738 0.40853450 1.19557643 145 145 145
0.85395896 0.43541175 1.27423275 153 154 152
0.85136044 0.43297020 1.26708758 149 150 149
0.84879094 0.43055585 1.26002204 138 139 139
0.85096878 0.43055585 1.26002204 138 139 139
0.85633004 0.43216240 1.26472354 133 133 137
0.85851598 0.43216240 1.26472354 126 126 131
0.85909915 0.43135765 1.26236844 128 127 133
0.86611974 0.43378100 1.26946032 134 132 139
0.86507392 0.43216240 1.26472354 137 137 142
0.86725986 0.43216240 1.26472354 140 140 142
0.86944586 0.43216240 1.26472354 141 141 143
0.86839157 0.43055585 1.26002204 139 139 140
0.87381780 0.43216240 1.26472354 139 139 139
0.87764114 0.43297020 1.26708758 136 136 136
0.88479269 0.43541175 1.27423275 141 141 141
0.88533092 0.43459484 1.27184212 150 149 149
0.88919747 0.43541175 1.27423275 154 153 151
1.12414026 0.44205925 1.29368675 137 138 138
1.11362481 0.43705481 1.27904117 136 137 138
1.10540724 0.43297020 1.26708758 132 133 135
1.09937763 0.42975706 1.25768435 127 128 130
1.08544099 0.42347175 1.23929036 111 115 118
0.96355712 0.36651748 1.07261372 169 172 168
0.95783329 0.36364058 1.06419444 171 171 168
0.94630259 0.35857439 1.04936814 171 171 168
0.94228178 0.35636777 1.04291058 172 172 169
0.94699818 0.35746768 1.04612935 172 171 169
0.94443399 0.35582036 1.04130852 164 163 161
0.63801837 0.21608120 0.63236177 164 165 161
0.63911134 0.21608120 0.63236177 159 159 155
0.63841772 0.21547818 0.63059705 148 147 143
0.64249605 0.21648510 0.63354379 142 141 137
0.64000225 0.21527793 0.63001102 147 147 143
0.64820433 0.21729742 0.63592106 149 149 145
0.64207560 0.21487853 0.62884218 151 151 146
0.64197147 0.21448061 0.62767762 156 155 150
0.64009291 0.21349221 0.62478513 158 158 152
0.63647991 0.21192960 0.62021214 162 163 154
-0.19535522 0.15762405 0.45896536 110 119 118
-0.19403644 0.15719834 0.45772576 112 121 120
-0.19246556 0.15656404 0.45587885 114 123 122
-0.19090731 0.15593486 0.45404679 114 122 122
-0.18999527 0.15583047 0.45374286 115 122 121
-0.18971896 0.15624881 0.45496097 115 120 121
-0.18893260 0.15624881 0.45496097 114 118 119
-0.18827260 0.15635374 0.45526651 115 119 116
-0.18811738 0.15688054 0.45680043 109 113 110
-0.18720171 0.15677491 0.45649281 98 103 100
-0.18628724 0.15666941 0.45618564 93 97 100
-0.18537402 0.15656404 0.45587885 92 95 104
-0.18409087 0.15614402 0.45465583 92 95 104
-0.18293695 0.15583047 0.45374286 93 96 105
-0.18190917 0.15562215 0.45313627 96 98 108
-0.18112597 0.15562215 0.45313627 106 108 117
0.06705504 0.24793476 0.72192955 172 172 172
0.06830284 0.24793476 0.72192955 173 173 173
0.06955063 0.24793476 0.72192955 171 171 171
0.07072312 0.24767099 0.72116154 165 166 166
0.07196958 0.24767099 0.72116154 161 162 162
0.07321605 0.24767099 0.72116154 157 158 158
0.07422563 0.24688306 0.71886730 150 151 151
0.07538819 0.24662153 0.71810579 147 147 147
0.07646737 0.24610014 0.71658754 144 144 144
0.07787057 0.24662153 0.71810579 141 140 140
0.07886114 0.24584027 0.71583086 139 138 138
0.08001390 0.24558094 0.71507579 133 132 133
0.08116423 0.24532217 0.71432227 133 133 135
0.08222559 0.24480624 0.71281999 136 136 139
0.08354550 0.24506393 0.71357036 136 136 141
0.08486818 0.24532217 0.71432227 140 140 148
0.08601219 0.24506393 0.71357036 142 143 149
0.08697090 0.24429248 0.71132410 143 144 149
0.08820036 0.24429248 0.71132410 149 151 156
0.08924254 0.24378087 0.70983440 149 150 157
0.09037480 0.24352588 0.70909190 147 149 155
0.09160040 0.24352588 0.70909190 145 149 155
0.09282602 0.24352588 0.70909190 146 147 153
0.09327111 0.24150491 0.70320731 139 142 147
0.09399900 0.24025875 0.69957876 134 138 143
0.09530652 0.24050696 0.70030147 134 136 145
0.09651694 0.24050696 0.70030147 129 131 140
0.09762650 0.24025875 0.69957876 126 130 138
0.38788325 0.42175856 1.22806489 172 173 175
0.38512206 0.41647717 1.21268666 172 173 173
0.38652664 0.41573346 1.21052110 172 173 173
0.38654813 0.41351816 1.20407081 172 172 172
0.38656938 0.41132638 1.19768882 173 173 173
0.38795406 0.41060093 1.19557643 173 173 173
0.40974736 0.42023599 1.22363150 135 138 138
0.41896340 0.42099589 1.22584414 140 141 142
0.41881016 0.41872433 1.21922994 141 141 140
0.41865855 0.41647717 1.21268666 145 146 145
0.42723954 0.41872433 1.21922994 147 148 148
0.22210161 0.18331553 0.53377312 137 137 139
0.22284873 0.18317130 0.53335315 142 142 144
0.22363673 0.18231067 0.53084719 148 149 151
0.22298272 0.18103479 0.52713209 145 149 149
0.84313297 0.42874905 1.24841964 132 132 132
0.85156381 0.43193087 1.25768435 127 127 131
0.85532451 0.43273371 1.26002204 125 124 131
0.85591143 0.43193087 1.25768435 126 125 132
0.86450082 0.43516025 1.26708758 133 132 139
0.86346298 0.43353954 1.26236844 136 134 141
0.86564487 0.43353954 1.26236844 131 130 137
0.86782676 0.43353954 1.26236844 132 131 137
0.86678046 0.43193087 1.25768435 128 128 131
0.87056941 0.43273371 1.26002204 130 130 132
0.87437248 0.43353954 1.26236844 135 135 136
0.87983119 0.43516025 1.26708758 142 142 142
0.88037574 0.43434837 1.26472354 156 156 155
0.88091820 0.43353954 1.26236844 156 156 154
1.11774099 0.44176608 1.28632224 149 150 150
1.10321712 0.43516025 1.26708758 143 144 144
1.09924328 0.43273371 1.26002204 131 132 132
1.08528304 0.42639327 1.24156010 129 130 130
1.07756126 0.42252401 1.23029375 117 119 122
0.96508420 0.36895519 1.07431352 165 169 164
0.95783329 0.36547995 1.06419444 167 168 166
0.94484001 0.35983112 1.04774630 167 167 166
0.94083434 0.35762018 1.04130852 167 167 165
0.94553906 0.35872224 1.04451752 168 168 166
0.94443399 0.35762018 1.04130852 162 162 160
0.94478250 0.35707167 1.03971136 160 160 158
0.63564658 0.21636686 0.63001102 142 143 144
0.63673550 0.21636686 0.63001102 143 143 143
0.63664109 0.21596543 0.62884218 142 142 142
0.63891333 0.21636686 0.63001102 140 140 139
0.63822281 0.21576528 0.62825936 141 141 140
0.64288360 0.21697178 0.63177246 141 141 140
0.64457631 0.21717419 0.63236177 142 142 140
0.64148051 0.21576528 0.62825936 145 144 142
0.64137757 0.21536608 0.62709701 148 147 145
0.63950354 0.21437453 0.62420982 150 150 146
-0.19548757 0.15852468 0.45927632 110 119 118
-0.19403644 0.15798947 0.45772576 109 118 117
-0.19272478 0.15756391 0.45649281 109 118 116
-0.19103527 0.15682468 0.45435110 111 117 117
-0.19012253 0.15671964 0.45404679 111 116 117
-0.19010171 0.15735200 0.45587885 110 111 113
-0.18931377 0.15735200 0.45587885 109 110 111
-0.18865268 0.15745789 0.45618564 106 107 106
-0.18837126 0.15788287 0.45741689 100 101 100
-0.18732785 0.15767010 0.45680043 94 96 96
-0.18653831 0.15767010 0.45680043 92 94 98
-0.18562368 0.15756391 0.45649281 91 94 100
-0.18433814 0.15714064 0.45526651 91 94 102
-0.18305948 0.15671964 0.45404679 94 97 105
-0.18203086 0.15650998 0.45343935 101 101 110
-0.18124712 0.15650998 0.45343935 108 108 117
0.06705504 0.24918255 0.72192955 178 178 178
0.06830284 0.24918255 0.72192955 174 174 174
0.06955063 0.24918255 0.72192955 172 172 172
0.07072312 0.24891746 0.72116154 168 168 168
0.07196958 0.24891746 0.72116154 162 162 162
0.07313824 0.24865294 0.72039515 159 159 159
0.07414700 0.24786273 0.71810579 154 154 154
0.07522881 0.24733870 0.71658754 147 147 147
0.07630605 0.24681689 0.71507579 141 141 141
0.07762388 0.24707752 0.71583086 137 137 137
0.07869494 0.24655682 0.71432227 134 134 134
0.07976149 0.24603829 0.71281999 122 122 123
0.08090846 0.24577984 0.71207124 133 134 139
0.08205304 0.24552195 0.71132410 139 140 148
0.08328250 0.24552195 0.71132410 143 144 153
0.08451197 0.24552195 0.71132410 147 149 157
0.08583149 0.24577984 0.71207124 156 158 162
0.08687973 0.24526459 0.71057844 154 157 160
0.08801565 0.24500777 0.70983440 155 162 164
0.08896308 0.24424052 0.70761150 159 160 163
0.08999824 0.24373168 0.70613736 162 164 166
0.09131385 0.24398583 0.70687366 161 164 166
0.09263223 0.24424052 0.70761150 160 161 163
0.09327111 0.24272035 0.70320731 155 158 160
0.09399900 0.24146792 0.69957876 148 154 156
0.09530652 0.24171737 0.70030147 138 144 147
0.09651694 0.24171737 0.70030147 135 140 144
0.09762650 0.24146792 0.69957876 120 125 132
0.38581225 0.41932333 1.21485996 172 173 175
0.38860846 0.42007613 1.21704102 172 173 175
0.38861892 0.41782573 1.21052110 173 173 173
0.38794020 0.41486242 1.20193589 171 171 171
0.21789657 0.18380395 0.53251517 146 147 142
0.21881698 0.18380395 0.53251517 137 138 138
0.21956491 0.18365967 0.53209722 135 136 137
0.22065780 0.18380395 0.53251517 135 136 137
0.22210161 0.18423812 0.53377312 132 133 136
0.22267354 0.18394844 0.53293383 132 133 137
0.22341903 0.18380395 0.53251517 138 142 143
0.22363673 0.18322819 0.53084719 140 143 144
0.22367845 0.18251358 0.52877676 142 146 147
0.22476773 0.18265606 0.52918959 145 149 150
0.83757830 0.42697522 1.23702896 133 132 133
0.85058147 0.43249983 1.25303483 127 126 130
0.84960634 0.43090683 1.24841964 126 125 130
0.85968018 0.43491155 1.26002204 131 130 137
0.86025906 0.43410465 1.25768435 134 133 140
0.86243284 0.43410465 1.25768435 131 130 137
0.86460662 0.43410465 1.25768435 124 123 130
0.86357605 0.43249983 1.25303483 116 115 120
0.86734509 0.43330076 1.25535524 117 117 119
0.87274724 0.43491155 1.26002204 130 130 132
0.87655437 0.43572143 1.26236844 142 142 143
0.87710297 0.43491155 1.26002204 154 154 154
0.87764949 0.43410465 1.25768435 151 151 150
1.10102713 0.43735030 1.26708758 153 154 152
1.09503007 0.43410465 1.25768435 144 145 144
1.08313715 0.42853922 1.24156010 133 134 134
1.07348645 0.42388117 1.22806489 129 130 130
1.06979501 0.42158994 1.22142673 122 125 126
1.06233549 0.41782573 1.21052110 110 117 120
1.05875587 0.41559932 1.20407081 113 119 123
1.05335319 0.41266739 1.19557643 118 125 129
1.03712821 0.40551546 1.17485583 125 134 137
0.96508420 0.37081206 1.07431352 161 165 160
0.95483536 0.36616966 1.06086361 162 164 162
0.94338191 0.36108398 1.04612935 162 162 162
0.93795276 0.35831916 1.03811920 161 161 161
0.94118840 0.35886872 1.03971136 160 160 159
0.94154137 0.35831916 1.03811920 160 160 158
0.94189328 0.35777128 1.03653193 159 160 158
0.63683027 0.21786071 0.63118422 126 127 129
0.63851571 0.21806376 0.63177246 133 134 135
0.63841772 0.21765806 0.63059705 139 139 139
0.64069968 0.21806376 0.63177246 138 138 138
0.64059758 0.21765806 0.63059705 139 139 139
0.64710516 0.21949570 0.63592106 137 137 137
0.64699042 0.21908465 0.63473016 134 134 134
0.64386743 0.21765806 0.63059705 134 134 133
0.64316249 0.21705233 0.62884218 137 137 136
-0.19416755 0.15888791 0.45803502 105 113 112
-0.19285464 0.15845963 0.45680043 105 112 111
-0.19116339 0.15771569 0.45465583 107 111 111
-0.19050533 0.15782154 0.45496097 107 108 110
-0.19035774 0.15835293 0.45649281 102 102 104
-0.18969648 0.15845963 0.45680043 98 99 100
-0.18903431 0.15856649 0.45710847 94 95 96
-0.18849845 0.15878062 0.45772576 91 92 94
-0.18758065 0.15867348 0.45741689 90 91 94
-0.18679005 0.15867348 0.45741689 88 90 95
-0.18587402 0.15856649 0.45710847 87 90 96
-0.18446203 0.15803367 0.45557249 90 93 101
-0.18305948 0.15750442 0.45404679 95 98 106
-0.18215269 0.15739900 0.45374286 103 102 115
0.06580725 0.25043035 0.72192955 177 178 178
0.06698371 0.25016394 0.72116154 179 179 179
0.07622564 0.24779145 0.71432227 138 138 138
0.07754200 0.24805284 0.71507579 134 134 136
0.07861210 0.24753062 0.71357036 129 130 133
0.07967771 0.24701060 0.71207124 124 127 130
0.08082356 0.24675141 0.71132410 137 140 147
0.08188120 0.24623466 0.70983440 144 147 155
0.08310808 0.24623466 0.70983440 154 157 165
0.08442338 0.24649276 0.71057844 152 157 163
0.08565155 0.24649276 0.71057844 160 165 169
0.08660738 0.24572006 0.70835096 159 164 168
0.08764853 0.24520761 0.70687366 161 167 169
0.08850117 0.24418910 0.70393753 167 168 170
0.08953193 0.24368300 0.70247859 168 169 171
0.09093457 0.24418910 0.70393753 168 169 171
0.09243924 0.24495219 0.70613736 167 168 170
0.09317446 0.24368300 0.70247859 165 167 168
0.09390210 0.24242690 0.69885755 159 165 165
0.09520817 0.24267708 0.69957876 155 161 163
0.09651694 0.24292779 0.70030147 146 151 153
0.09762650 0.24267708 0.69957876 138 139 143
0.21864523 0.18457936 0.53209722 133 134 134
0.21904910 0.18414573 0.53084719 133 134 134
0.22048460 0.18457936 0.53209722 133 134 134
0.22192687 0.18501502 0.53335315 131 132 132
0.22267354 0.18486957 0.53293383 128 129 131
0.22324365 0.18457936 0.53209722 139 141 142
0.22346173 0.18400164 0.53043181 141 144 143
0.22333005 0.18314181 0.52795315 140 143 142
0.22441736 0.18328457 0.52836466 140 144 143
0.83757830 0.42911330 1.23702896 154 155 155
0.84901214 0.43386364 1.25072300 148 149 149
0.84960634 0.43306464 1.24841964 140 141 141
0.85808522 0.43627846 1.25768435 136 135 140
0.86025906 0.43627846 1.25768435 133 132 139
0.86243284 0.43627846 1.25768435 122 121 129
0.86300552 0.43547055 1.25535524 110 109 118
0.86198276 0.43386364 1.25072300 111 110 118
0.86574185 0.43466562 1.25303483 110 109 117
0.87274724 0.43708938 1.26002204 123 123 130
0.87655437 0.43790334 1.26236844 133 133 136
0.87710297 0.43708938 1.26002204 143 143 145
1.08496535 0.43226856 1.24612474 127 127 125
1.07330823 0.42677695 1.23029375 123 123 122
1.06961107 0.42446586 1.22363150 123 123 123
1.06213999 0.42066923 1.21268666 124 126 126
1.05480123 0.41693988 1.20193589 117 126 126
1.05500817 0.41620195 1.19980860 117 126 127
1.05149865 0.41400370 1.19347155 119 128 129
1.04436815 0.41039109 1.18305731 122 131 132
0.95037353 0.36628363 1.05590630 157 157 156
0.94338191 0.36289212 1.04612935 157 157 158
0.93651861 0.35956284 1.03653193 158 158 158
0.93974710 0.36011347 1.03811920 156 156 156
0.94154137 0.36011347 1.03811920 156 157 157
0.93902165 0.35846660 1.03337169 159 160 160
0.93794817 0.35737705 1.03023076 160 164 162
0.63633180 0.21915573 0.63177246 123 127 128
0.63801837 0.21936016 0.63236177 129 133 134
0.63911134 0.21936016 0.63236177 132 136 137
0.63960773 0.21915573 0.63177246 132 136 137
0.64129734 0.21936016 0.63236177 128 132 133
0.64179164 0.21915573 0.63177246 123 126 126
0.64710516 0.22059484 0.63592106 117 120 119
0.64699042 0.22018173 0.63473016 111 114 113
0.64627212 0.21956497 0.63295221 110 112 111
-0.19429883 0.15978754 0.45834473 101 106 107
-0.19298469 0.15935656 0.45710847 98 103 104
-0.19142015 0.15871443 0.45526651 93 97 98
-0.19061446 0.15935656 0.45710847 89 93 94
-0.18969648 0.15924917 0.45680043 87 91 92
-0.18916187 0.15946409 0.45741689 84 85 88
-0.18849845 0.15957177 0.45772576 85 86 90
-0.18745416 0.15935656 0.45710847 87 88 92
-0.18666409 0.15935656 0.45710847 87 88 94
-0.18574876 0.15924917 0.45680043 89 89 96
-0.18446203 0.15882109 0.45557249 92 93 101
-0.18305948 0.15828919 0.45404679 97 97 106
-0.18215269 0.15818325 0.45374286 103 103 112
0.06469725 0.25221536 0.72347051 176 176 176
0.06580725 0.25167814 0.72192955 177 178 177
0.07746029 0.24902610 0.71432227 130 131 131
0.07861210 0.24876398 0.71357036 126 128 131
0.07959410 0.24798088 0.71132410 133 136 141
0.08073884 0.24772094 0.71057844 141 144 150
0.08179554 0.24720269 0.70909190 151 152 159
0.08293440 0.24694438 0.70835096 163 164 171
0.08415873 0.24694438 0.70835096 162 166 172
0.08547237 0.24720269 0.70909190 161 164 170
0.08633673 0.24617268 0.70613736 161 164 170
0.08728447 0.24540579 0.70393753 168 172 175
0.08822632 0.24464366 0.70175141 172 173 176
0.08925445 0.24413820 0.70030147 172 173 175
0.09055842 0.24439067 0.70102566 173 174 174
0.09196028 0.24489717 0.70247859 177 178 178
0.09380539 0.24338391 0.69813782 173 174 174
0.09520817 0.24388625 0.69957876 171 172 172
0.09651694 0.24413820 0.70030147 165 165 167
0.22192687 0.18593688 0.53335315 129 130 132
0.22249861 0.18564476 0.53251517 126 127 132
0.22306857 0.18535355 0.53167987 135 136 140
0.84744859 0.43522242 1.24841964 165 166 166
0.84804457 0.43442237 1.24612474 162 163 163
0.85968018 0.43926725 1.26002204 156 156 158
0.86025906 0.43845227 1.25768435 147 146 151
0.86243284 0.43845227 1.25768435 134 134 140
0.86460662 0.43845227 1.25768435 121 121 130
0.86198276 0.43602541 1.25072300 117 117 126
1.08496535 0.43442237 1.24612474 119 119 119
1.07136393 0.42812639 1.22806489 121 121 122
1.06576359 0.42504635 1.21922994 123 124 125
1.05835330 0.42125806 1.20836341 127 127 129
1.05293429 0.41827571 1.19980860 124 129 131
1.05500817 0.41827571 1.19980860 123 130 132
1.05149865 0.41606650 1.19347155 122 130 131
1.04436815 0.41243592 1.18305731 120 129 130
1.02670312 0.40466744 1.16077375 121 130 131
1.03402126 0.40675694 1.16676736 124 133 134
1.03603792 0.40675694 1.16676736 130 139 140
0.96355712 0.37393320 1.07261372 144 146 147
0.95633197 0.37041658 1.06252635 145 147 148
0.94484001 0.36526394 1.04774630 146 148 150
0.93795276 0.36190778 1.03811920 151 152 154
0.94553906 0.36413833 1.04451752 155 156 157
0.94443399 0.36301962 1.04130852 157 158 158
0.94189328 0.36135441 1.03653193 157 158 158
0.94368482 0.36135441 1.03653193 157 160 159
0.95603895 0.36470026 1.04612935 162 166 165
0.63633180 0.22024770 0.63177246 124 129 129
0.63861412 0.22065899 0.63295221 128 134 134
0.63970810 0.22065899 0.63295221 130 136 136
0.64020437 0.22045314 0.63236177 125 131 131
0.64189613 0.22065899 0.63295221 122 128 128
0.64239031 0.22045314 0.63236177 117 122 123
0.64649868 0.22148620 0.63532507 109 113 115
0.64759684 0.22148620 0.63532507 106 110 111
0.64808750 0.22127882 0.63473016 103 106 108
-0.19443029 0.16068840 0.45865482 96 97 101
-0.19324531 0.16036290 0.45772576 94 95 101
-0.19167762 0.15971585 0.45587885 93 94 98
-0.18982439 0.16014664 0.45710847 81 83 87
-0.18916187 0.16025469 0.45741689 80 81 87
-0.18849845 0.16036290 0.45772576 84 84 89
-0.18745416 0.16014664 0.45710847 85 87 91
-0.18653831 0.16003872 0.45680043 87 87 94
-0.18562368 0.15993094 0.45649281 89 89 97
-0.18446203 0.15960851 0.45557249 94 94 103
-0.18305948 0.15907398 0.45404679 96 96 105
-0.18227470 0.15907398 0.45404679 104 104 111
-0.18148991 0.15907398 0.45404679 111 111 119
0.06469725 0.25346580 0.72347051 169 166 166
0.06580725 0.25292593 0.72192955 175 172 171
0.06910904 0.25132006 0.71734589 174 170 168
0.07027455 0.25105441 0.71658754 172 167 168
0.07852944 0.24973445 0.71281999 126 127 129
0.07959410 0.24921034 0.71132410 136 137 139
0.08065430 0.24868843 0.70983440 144 144 150
0.08171007 0.24816871 0.70835096 155 156 160
0.08276144 0.24765116 0.70687366 158 159 161
0.08398321 0.24765116 0.70687366 161 165 168
0.08520499 0.24765116 0.70687366 163 166 169
0.08606777 0.24662249 0.70393753 168 170 173
0.08710357 0.24611135 0.70247859 171 173 176
0.09370888 0.24433894 0.69741958 175 176 175
0.09501206 0.24459058 0.69813782 180 180 178
0.09631793 0.24484274 0.69885755 173 173 171
0.22249861 0.18656516 0.53251517 129 129 134
0.84744859 0.43738022 1.24841964 176 177 175
0.84960634 0.43738022 1.24841964 173 173 171
0.86346298 0.44226715 1.26236844 160 161 161
0.86403584 0.44144508 1.26002204 148 149 150
0.86621374 0.44144508 1.26002204 133 133 139
0.86198276 0.43818718 1.25072300 124 124 131
1.09488750 0.44144508 1.26002204 135 135 135
1.08099115 0.43497702 1.24156010 128 128 128
1.06942654 0.42947099 1.22584414 126 127 127
1.06385016 0.42638680 1.21704102 129 130 132
1.05647016 0.42259333 1.20621324 130 131 133
1.05480123 0.42109478 1.20193589 130 133 135
1.05875587 0.42184272 1.20407081 130 134 136
1.05335319 0.41886675 1.19557643 130 134 136
1.04802620 0.41593251 1.18720114 127 135 136
1.04096293 0.41232198 1.17689562 127 136 137
1.05213022 0.41593251 1.18720114 129 138 139
1.04503131 0.41232198 1.17689562 130 139 140
0.96508420 0.37638265 1.07431352 137 144 147
0.95933932 0.37342367 1.06586766 135 142 144
0.94630259 0.36764312 1.04936814 136 142 145
0.94083434 0.36481944 1.04130852 139 145 147
0.94699818 0.36650842 1.04612935 144 151 152
0.94443399 0.36481944 1.04130852 149 158 157
0.94478250 0.36425990 1.03971136 154 162 161
0.94803363 0.36481944 1.04130852 159 165 163
0.95718509 0.36764312 1.04936814 161 167 164
0.95751661 0.36707491 1.04774630 163 169 166
0.95784712 0.36650842 1.04612935 168 171 166
0.63573933 0.22113357 0.63118422 129 132 133
0.63861412 0.22175300 0.63295221 130 134 135
0.63970810 0.22175300 0.63295221 132 136 137
0.63960773 0.22133966 0.63177246 125 132 132
0.64069968 0.22133966 0.63177246 120 128 127
0.64119405 0.22113357 0.63118422 115 123 123
0.64528918 0.22216788 0.63413644 109 114 115
0.64759684 0.22258431 0.63532507 108 112 114
0.64869493 0.22258431 0.63532507 109 113 115
0.64797115 0.22196025 0.63354379 112 116 119
-0.19324531 0.16115405 0.45772576 95 95 102
-0.19167762 0.16050379 0.45587885 101 102 106
-0.18982439 0.16093671 0.45710847 78 81 86
-0.18903431 0.16093671 0.45710847 76 79 85
-0.18837126 0.16104530 0.45741689 76 79 85
-0.18720171 0.16071996 0.45649281 82 85 91
-0.18641269 0.16071996 0.45649281 89 90 98
-0.18537402 0.16050379 0.45587885 90 93 99
-0.18421441 0.16018063 0.45496097 94 94 103
-0.18293695 0.15975177 0.45374286 96 97 106
-0.18215269 0.15975177 0.45374286 103 104 112
-0.18136844 0.15975177 0.45374286 107 108 117
0.06454901 0.25914130 0.73603892 151 147 148
0.06469725 0.25471628 0.72347051 152 148 149
0.06580725 0.25417373 0.72192955 153 151 149
0.06677061 0.25309560 0.71886730 165 164 160
0.06772584 0.25202656 0.71583086 166 165 160
0.06896309 0.25202656 0.71583086 167 164 158
0.07012630 0.25176069 0.71507579 166 161 158
0.07852944 0.25096649 0.71281999 129 130 132
0.07951067 0.25017729 0.71057844 135 136 138
0.08056994 0.24965391 0.70909190 141 141 143
0.08153967 0.24887294 0.70687366 151 151 153
0.08258920 0.24835499 0.70540255 156 157 159
0.08380843 0.24835499 0.70540255 164 165 169
0.09361257 0.24529202 0.69670284 177 176 174
0.09481677 0.24529202 0.69670284 180 179 177
0.22249861 0.18748558 0.53251517 135 136 139
0.86564487 0.44444904 1.26236844 153 154 152
0.86621374 0.44362295 1.26002204 141 142 143
0.86357605 0.44116291 1.25303483 131 132 134
1.08496535 0.43873003 1.24612474 140 140 140
1.07136393 0.43237162 1.22806489 136 136 136
1.06576359 0.42926103 1.21922994 134 137 136
1.06024325 0.42619488 1.21052110 132 135 135
1.05855501 0.42467818 1.20621324 132 135 136
1.06253040 0.42543519 1.20836341 133 137 138
1.05521429 0.42167693 1.19768882 135 139 140
1.05170989 0.41945368 1.19137406 134 140 141
1.05007815 0.41798449 1.18720114 132 141 140
1.05397606 0.41871777 1.18928397 131 140 139
1.04503131 0.41435614 1.17689562 132 141 140
0.97279251 0.38126060 1.08289433 145 153 155
0.96085006 0.37585691 1.06754625 148 157 159
0.94630259 0.36945686 1.04936814 151 158 161
0.94083434 0.36661926 1.04130852 152 160 163
0.94443399 0.36661926 1.04130852 154 163 162
0.94478250 0.36605695 1.03971136 157 166 164
0.94803363 0.36661926 1.04130852 161 170 166
0.95718509 0.36945686 1.04936814 166 174 166
0.95751661 0.36888584 1.04774630 166 174 167
0.95784712 0.36831656 1.04612935 168 174 166
0.63464838 0.22222452 0.63118422 136 137 137
0.63692540 0.22263913 0.63236177 132 134 134
0.63980889 0.22326393 0.63413644 125 129 130
0.64030600 0.22305527 0.63354379 126 130 131
0.64020437 0.22263913 0.63236177 126 131 131
0.64189613 0.22284700 0.63295221 123 129 129
0.64179164 0.22243163 0.63177246 117 124 123
0.64589334 0.22347298 0.63473016 111 117 117
0.64881295 0.22410248 0.63651818 108 113 114
0.64991313 0.22410248 0.63651818 109 114 114
0.65040261 0.22389226 0.63592106 113 118 120
-0.18982439 0.16172679 0.45710847 103 106 112
-0.18903431 0.16172679 0.45710847 109 112 117
-0.18837126 0.16183591 0.45741689 99 102 106
-0.18694992 0.16129175 0.45587885 100 104 106
-0.18591192 0.16107510 0.45526651 102 105 108
-0.18500078 0.16096699 0.45496097 94 98 99
-0.18384427 0.16064355 0.45404679 95 98 105
-0.18269238 0.16032140 0.45313627 93 97 103
-0.18203086 0.16042864 0.45343935 96 101 107
-0.18124712 0.16042864 0.45343935 101 107 113
-0.18034275 0.16032140 0.45313627 103 110 117
0.06462827 0.25569382 0.72269917 153 153 153
0.06573724 0.25514981 0.72116154 148 148 148
0.06669988 0.25406867 0.71810579 152 151 150
0.06772584 0.25326380 0.71583086 154 152 150
0.06889035 0.25299665 0.71507579 156 152 149
0.07005240 0.25273004 0.71432227 156 151 150
0.07951067 0.25140548 0.71057844 130 131 135
0.08048575 0.25061736 0.70835096 135 135 137
0.08145473 0.24983418 0.70613736 147 147 149
0.22214960 0.18811044 0.53167987 140 141 143
0.22574942 0.18577909 0.52509052 145 146 148
0.22613151 0.18534839 0.52387315 145 146 148
0.22651185 0.18491967 0.52266139 146 147 147
0.86403584 0.44580078 1.26002204 159 159 155
0.86621374 0.44580078 1.26002204 148 148 146
0.86198276 0.44251072 1.25072300 139 140 139
1.10932112 0.45167762 1.27663243 151 153 148
1.09503007 0.44497368 1.25768435 138 142 139
1.07721829 0.43686852 1.23477566 136 139 137
1.06961107 0.43292567 1.22363150 132 136 134
1.06787086 0.43136838 1.21922994 132 136 135
1.06997824 0.43136838 1.21922994 134 138 137
1.06824303 0.42982227 1.21485996 134 138 138
1.05708194 0.42449704 1.19980860 137 141 141
1.05170989 0.42151287 1.19137406 139 143 143
1.05192041 0.42077336 1.18928397 139 145 144
1.05582833 0.42151287 1.19137406 139 144 144
1.04141521 0.41494951 1.17282331 138 146 145
0.97747689 0.38497725 1.08810890 152 160 159
0.96085006 0.37770209 1.06754625 160 168 167
0.94630259 0.37127063 1.04936814 165 172 172
0.94083434 0.36841908 1.04130852 167 173 173
0.94588697 0.36898586 1.04291058 165 173 170
0.94478250 0.36785403 1.03971136 165 174 169
0.94949210 0.36898586 1.04291058 166 175 170
0.95718509 0.37127063 1.04936814 169 177 168
0.95751661 0.37069678 1.04774630 170 178 167
0.95932758 0.37069678 1.04774630 170 177 167
0.95965528 0.37012473 1.04612935 172 175 166
0.63702089 0.22415030 0.63354379 132 133 133
0.63871282 0.22435997 0.63413644 125 126 126
0.64100814 0.22478053 0.63532507 117 118 120
0.64210629 0.22478053 0.63532507 116 117 119
0.64200097 0.22435997 0.63413644 113 114 118
0.64309704 0.22435997 0.63413644 110 111 119
0.64359105 0.22415030 0.63354379 110 112 118
0.64771277 0.22520265 0.63651818 109 112 117
0.65125901 0.22605167 0.63891786 107 112 116
0.65236330 0.22605167 0.63891786 108 112 116
0.65162516 0.22541431 0.63711637 108 114 116
0.65089113 0.22478053 0.63532507 113 119 121
-0.18969648 0.16240734 0.45680043 132 136 136
-0.18877973 0.16229798 0.45649281 132 138 137
-0.18811738 0.16240734 0.45680043 128 133 131
-0.18657351 0.16175336 0.45496097 122 127 124
-0.18541382 0.16142833 0.45404679 112 124 120
-0.18462904 0.16142833 0.45404679 106 118 114
-0.18372121 0.16132028 0.45374286 103 110 110
-0.18257034 0.16099699 0.45283356 95 103 104
-0.18190917 0.16110462 0.45313627 95 103 107
-0.18124712 0.16121237 0.45343935 102 110 115
-0.18034275 0.16110462 0.45313627 103 111 117
0.06573724 0.25639626 0.72116154 139 138 140
0.06889035 0.25423259 0.71507579 143 139 141
0.07005240 0.25396469 0.71432227 146 142 142
0.08048575 0.25184169 0.70835096 137 138 142
0.18083371 0.23286232 0.65496796 145 145 145
0.18005216 0.23041348 0.64808017 139 143 144
0.18031041 0.22931732 0.64499700 138 143 143
0.18108065 0.22888176 0.64377195 133 139 139
0.21738428 0.18888126 0.53126317 161 161 158
0.21796089 0.18858568 0.53043181 158 158 155
0.21836510 0.18814403 0.52918959 155 156 156
0.22031167 0.18902941 0.53167987 152 153 152
0.22175241 0.18947524 0.53293383 148 149 149
0.22249861 0.18932639 0.53251517 141 142 142
0.22289374 0.18888126 0.53126317 138 139 140
0.22554065 0.18726690 0.52672249 147 148 150
0.22609970 0.18697634 0.52590525 150 151 153
0.22648157 0.18654218 0.52468407 151 152 154
0.22721258 0.18639791 0.52427828 152 153 154
0.86403584 0.44797862 1.26002204 162 162 158
0.86621374 0.44797862 1.26002204 156 156 152
0.86039531 0.44385359 1.24841964 148 148 144
1.11141419 0.45474055 1.27904117 155 156 149
1.09910834 0.44881284 1.26236844 138 142 141
1.08512449 0.44222477 1.24383819 136 140 139
1.07348645 0.43661684 1.22806489 133 137 136
1.07366407 0.43582731 1.22584414 132 136 135
1.07773173 0.43661684 1.22806489 135 139 138
1.07595599 0.43504062 1.22363150 138 142 141
1.06083703 0.42808613 1.20407081 141 145 144
1.05356157 0.42431778 1.19347155 145 149 147
1.04322016 0.41769931 1.17485583 146 150 148
0.95783329 0.37835556 1.06419444 163 168 167
0.94484001 0.37250772 1.04774630 165 170 170
0.93795276 0.36908498 1.03811920 163 169 167
0.93544942 0.36739710 1.03337169 164 170 168
0.94010168 0.36852065 1.03653193 166 172 169
0.93616748 0.36628041 1.03023076 169 175 171
0.94657958 0.36965108 1.03971136 168 175 171
0.95570564 0.37250772 1.04774630 169 176 169
0.95603895 0.37193286 1.04612935 170 177 169
0.95637125 0.37135980 1.04451752 171 177 169
0.95965528 0.37193286 1.04612935 171 177 167
0.63821381 0.22566713 0.63473016 131 132 134
0.63991004 0.22587863 0.63532507 121 122 124
0.64221191 0.22630282 0.63651818 119 120 122
0.64270860 0.22609052 0.63592106 116 117 119
0.64260215 0.22566713 0.63473016 114 115 119
0.64369923 0.22566713 0.63473016 113 113 123
0.64419311 0.22545603 0.63413644 111 111 121
0.64954245 0.22694209 0.63831621 108 108 119
0.65620685 0.22888176 0.64377195 105 107 116
0.65483207 0.22801562 0.64133573 105 107 116
0.65285230 0.22694209 0.63831621 104 106 112
0.65150172 0.22609052 0.63592106 106 110 113
-0.18799071 0.16308700 0.45649281 143 150 144
-0.18632340 0.16232184 0.45435110 137 143 137
-0.18516578 0.16199611 0.45343935 129 138 133
-0.18438205 0.16199611 0.45343935 119 127 123
-0.18347558 0.16188782 0.45313627 111 120 119
-0.18232675 0.16156383 0.45222938 104 112 113
-0.18178765 0.16177969 0.45283356 102 110 114
-0.18124712 0.16199611 0.45343935 105 113 118
-0.18034275 0.16188782 0.45313627 104 112 118
-0.17931981 0.16167168 0.45253128 107 115 121
0.07005240 0.25519934 0.71432227 141 139 142
0.18153529 0.23490222 0.65750909 165 167 160
0.18161482 0.23354308 0.65370476 162 166 158
0.18082657 0.23109178 0.64684337 157 162 153
0.21772553 0.19009748 0.53209722 168 168 165
0.21847373 0.18994838 0.53167987 162 163 159
0.21922076 0.18979952 0.53126317 159 160 158
0.22083127 0.19039637 0.53293383 157 158 156
0.22192687 0.19054617 0.53335315 151 152 152
0.22267354 0.19039637 0.53293383 144 145 145
0.22324365 0.19009748 0.53209722 141 142 142
0.22381200 0.18979952 0.53126317 137 138 139
0.22497988 0.18847018 0.52754229 145 146 148
0.22589169 0.18847018 0.52754229 155 156 158
0.22627524 0.18803120 0.52631354 160 161 163
0.22683270 0.18773967 0.52549756 156 157 159
0.22756457 0.18759425 0.52509052 153 154 156
0.22847216 0.18759425 0.52509052 153 154 155
0.86725986 0.45183617 1.26472354 166 166 163
0.86782676 0.45099476 1.26236844 162 163 159
0.86517531 0.44848922 1.25535524 159 159 154
0.86895424 0.44932130 1.25768435 153 153 148
1.11141419 0.45695129 1.27904117 158 159 151
1.09910834 0.45099476 1.26236844 143 144 142
1.08711922 0.44519150 1.24612474 136 138 138
1.07543468 0.43953571 1.23029375 135 136 136
1.07756126 0.43953571 1.23029375 134 135 135
1.08362091 0.44113696 1.23477566 136 138 138
1.07790160 0.43794608 1.22584414 139 142 141
1.07034278 0.43402183 1.21485996 142 146 145
1.06103361 0.42940459 1.20193589 146 150 149
1.06499934 0.43016729 1.20407081 148 152 150
1.06142461 0.42788726 1.19768882 151 155 152
0.95483536 0.37900499 1.06086361 163 166 166
0.94338191 0.37374103 1.04612935 162 165 165
0.93224227 0.36862129 1.03179884 162 166 165
0.95309728 0.37259105 1.04291058 170 174 170
0.95489991 0.37259105 1.04291058 170 175 170
0.64051032 0.22718966 0.63592106 127 128 128
0.64221191 0.22740299 0.63651818 126 127 130
0.64270860 0.22718966 0.63592106 123 124 128
0.64419311 0.22655208 0.63413644 114 114 124
0.65620685 0.22999448 0.64377195 106 106 117
0.65421313 0.22890754 0.64072955 105 105 116
0.65223813 0.22783084 0.63771576 104 105 113
0.65150172 0.22718966 0.63592106 104 105 109
-0.18644838 0.16321655 0.45465583 142 147 137
-0.18504201 0.16267103 0.45313627 137 142 139
-0.18425880 0.16267103 0.45313627 130 135 133
-0.18335302 0.16256237 0.45283356 121 125 128
-0.18208382 0.16212915 0.45162681 114 119 123
-0.18154511 0.16234547 0.45222938 106 114 118
-0.18124712 0.16277984 0.45343935 104 111 117
-0.18034275 0.16267103 0.45313627 106 112 118
-0.17943960 0.16256237 0.45283356 110 115 120
0.18188813 0.23649743 0.65878701 175 177 170
0.18231808 0.23558167 0.65623605 179 180 173
0.18274470 0.23467296 0.65370476 176 177 169
0.21864523 0.19101717 0.53209722 169 170 167
0.21939270 0.19086735 0.53167987 164 165 163
0.22083127 0.19131750 0.53293383 159 160 159
0.22210161 0.19161879 0.53377312 153 154 154
0.22284873 0.19146803 0.53335315 151 152 152
0.22359467 0.19131750 0.53293383 144 145 145
0.22416334 0.19101717 0.53209722 141 142 142
0.22490649 0.19086735 0.53167987 140 141 143
0.22547178 0.19056842 0.53084719 140 141 143
0.22585870 0.19012177 0.52960300 148 149 151
0.22642030 0.18982516 0.52877676 157 158 160
0.22662714 0.18923473 0.52713209 159 160 162
0.22700869 0.18879431 0.52590525 161 162 164
0.22791767 0.18879431 0.52590525 157 158 160
0.22882664 0.18879431 0.52590525 154 155 157
0.87270218 0.45572260 1.26946032 163 164 159
0.86839157 0.45233431 1.26002204 163 164 157
1.10932112 0.45829728 1.27663243 153 153 150
1.09910834 0.45317665 1.26236844 145 146 144
1.09113073 0.44899607 1.25072300 137 138 138
1.08329892 0.44489190 1.23929036 134 135 135
1.09142685 0.44734535 1.24612474 136 137 137
1.08957493 0.44570670 1.24156010 137 138 138
1.08378112 0.44246522 1.23253059 138 140 140
1.07807088 0.43927050 1.22363150 140 142 142
1.07630026 0.43769041 1.21922994 142 145 144
1.08035064 0.43847904 1.22142673 143 147 146
1.06897926 0.43301755 1.20621324 143 147 146
0.95783329 0.38203433 1.06419444 162 162 161
0.94338191 0.37554917 1.04612935 162 163 162
0.92380565 0.36705258 1.02246130 162 163 163
0.91453779 0.36267641 1.01027095 163 164 164
0.64359105 0.22743538 0.63354379 118 118 124
0.65297878 0.22958100 0.63952059 109 110 117
0.65162516 0.22871792 0.63711637 109 110 117
0.65150172 0.22828880 0.63592106 116 117 121
-0.18669881 0.16422266 0.45526651 148 152 146
-0.18516578 0.16356358 0.45343935 141 142 142
-0.18425880 0.16345423 0.45313627 133 134 135
-0.18335302 0.16334505 0.45283356 127 128 132
-0.18232675 0.16312711 0.45222938 121 124 127
-0.18136844 0.16367306 0.45374286 113 117 121
-0.18058418 0.16367306 0.45374286 113 117 121
-0.17955954 0.16345423 0.45313627 120 124 125
0.17934360 0.23879643 0.66200376 170 171 169
0.17996059 0.23809887 0.66006994 174 175 173
0.18092529 0.23786727 0.65942788 179 180 177
0.18188813 0.23763610 0.65878701 181 182 177
0.18249473 0.23694530 0.65687191 181 182 176
0.18327489 0.23648699 0.65560138 182 182 176
0.21864523 0.19193685 0.53209722 172 172 168
0.21956491 0.19193685 0.53209722 167 167 164
0.22100502 0.19238989 0.53335315 162 162 159
0.22210161 0.19254138 0.53377312 155 155 154
0.22284873 0.19238989 0.53335315 152 152 151
0.22359467 0.19223863 0.53293383 147 147 147
0.22416334 0.19193685 0.53209722 143 143 143
0.22508304 0.19193685 0.53209722 144 145 145
0.22582546 0.19178630 0.53167987 147 148 149
0.22638930 0.19148594 0.53084719 152 153 154
0.22712897 0.19133611 0.53043181 154 155 156
0.22715706 0.19059044 0.52836466 156 157 159
0.22753824 0.19014584 0.52713209 158 159 160
0.22844936 0.19014584 0.52713209 157 158 158
0.22918224 0.18999809 0.52672249 154 155 155
0.22991399 0.18985058 0.52631354 152 153 154
1.10515857 0.45877588 1.27184212 143 143 143
1.09910834 0.45535856 1.26236844 133 133 133
1.08912134 0.45032698 1.24841964 129 130 130
1.08329892 0.44703391 1.23929036 135 136 136
1.09545434 0.45115784 1.25072300 137 138 138
1.09157419 0.44867438 1.24383819 138 139 139
1.08378112 0.44459555 1.23253059 140 141 141
1.07807088 0.44138545 1.22363150 141 142 141
1.07630026 0.43979773 1.21922994 142 143 143
1.08035064 0.44059017 1.22142673 145 147 146
1.07088470 0.43587798 1.20836341 148 152 150
1.06161904 0.43126550 1.19557643 151 155 154
0.91415399 0.36496648 1.01177883 159 160 158
0.90110844 0.35907128 0.99543589 159 160 160
0.89234620 0.35490209 0.98387784 159 160 160
0.88125634 0.34982482 0.96980232 160 161 160
0.65174901 0.23025192 0.63831621 117 118 120
-0.18682428 0.16512045 0.45557249 137 140 139
-0.18516578 0.16434731 0.45343935 130 131 133
-0.18425880 0.16423745 0.45313627 126 127 130
-0.18335302 0.16412774 0.45283356 120 121 125
-0.18244846 0.16401817 0.45253128 116 119 123
-0.18203086 0.16434731 0.45343935 116 120 123
-0.18161155 0.16467777 0.45435110 117 121 124
-0.18082625 0.16467777 0.45435110 115 119 122
-0.17967965 0.16434731 0.45343935 124 125 127
0.17899400 0.23947293 0.66071332 174 175 175
0.17961080 0.23877476 0.65878701 178 179 177
0.18039884 0.23831157 0.65750909 179 180 178
0.18171154 0.23854294 0.65814739 181 182 180
0.18231808 0.23785017 0.65623605 182 182 179
0.18292108 0.23716141 0.65433574 182 182 178
0.18405205 0.23716141 0.65433574 179 179 174
0.22117904 0.19346395 0.53377312 166 166 162
0.22227664 0.19361641 0.53419375 159 159 155
0.22302420 0.19346395 0.53377312 150 150 147
0.22377059 0.19331174 0.53335315 147 147 146
0.22451580 0.19315977 0.53293383 145 145 144
0.22525984 0.19300804 0.53251517 145 146 146
0.22618026 0.19300804 0.53251517 149 150 150
0.22692241 0.19285654 0.53209722 154 155 155
0.22766340 0.19270527 0.53167987 154 155 155
0.22804578 0.19225292 0.53043181 154 155 155
0.22842638 0.19180268 0.52918959 154 155 155
0.22969966 0.19210260 0.53001708 154 155 155
0.23061575 0.19210260 0.53001708 153 154 154
0.23189446 0.19240347 0.53084719 153 154 154
0.23501779 0.19346395 0.53377312 153 154 154
0.23594037 0.19346395 0.53377312 153 154 154
1.10102713 0.45925090 1.26708758 143 143 143
1.09503007 0.45584270 1.25768435 139 138 138
1.08313715 0.44999859 1.24156010 132 132 132
1.07935250 0.44753957 1.23477566 135 135 135
1.09343684 0.45248476 1.24841964 138 138 138
1.09157419 0.45082426 1.24383819 139 140 140
1.08378112 0.44672588 1.23253059 141 142 142
1.08002043 0.44430241 1.22584414 143 144 143
1.07823956 0.44270131 1.22142673 144 145 144
1.08230078 0.44350040 1.22363150 144 145 144
1.07279706 0.43874863 1.21052110 147 151 146
1.06349480 0.43409756 1.19768882 152 156 151
0.90604019 0.36346039 1.00279856 160 161 157
0.89846975 0.35973531 0.99252099 159 159 157
0.88719553 0.35454434 0.97819889 157 158 156
0.87624210 0.34950104 0.96428424 156 157 154
0.86317468 0.34363529 0.94810051 157 157 153
-0.18669881 0.16579644 0.45526651 126 129 129
-0.18516578 0.16513105 0.45343935 121 124 125
-0.18425880 0.16502066 0.45313627 115 119 121
-0.18335302 0.16491042 0.45283356 112 116 119
-0.18257034 0.16491042 0.45283356 112 117 119
-0.18203086 0.16513105 0.45343935 116 120 122
-0.18173335 0.16557404 0.45465583 124 126 129
-0.18094753 0.16557404 0.45465583 124 126 128
-0.17979991 0.16524157 0.45374286 123 124 127
0.17864576 0.24014680 0.65942788 173 174 174
0.17926238 0.23944801 0.65750909 177 178 178
0.18004957 0.23898442 0.65623605 179 180 180
0.18135938 0.23921600 0.65687191 180 181 180
0.18196577 0.23852262 0.65496796 182 183 179
0.18204251 0.23714784 0.65119290 180 180 174
0.18264170 0.23646638 0.64932168 177 176 172
0.18429357 0.23714784 0.65119290 175 174 170
0.22245194 0.19469315 0.53461504 154 154 148
0.22319995 0.19453973 0.53419375 146 147 141
0.22394679 0.19438654 0.53377312 146 146 142
0.22469245 0.19423360 0.53335315 147 147 145
0.22727920 0.19408090 0.53293383 153 154 154
0.22802107 0.19392844 0.53251517 154 155 155
0.22858235 0.19362424 0.53167987 154 155 155
0.22932146 0.19347249 0.53126317 154 155 155
0.23042029 0.19362424 0.53167987 154 155 155
0.23152085 0.19377622 0.53209722 154 155 155
0.23391102 0.19423360 0.53335315 158 158 158
0.23538849 0.19469315 0.53461504 158 158 158
0.23631252 0.19469315 0.53461504 154 155 155
0.23723654 0.19469315 0.53461504 152 152 152
0.35911149 0.16458060 0.45192790 140 142 137
0.35941339 0.16436146 0.45132613 142 146 141
0.35995382 0.16425210 0.45102584 153 157 152
0.36001477 0.16392490 0.45012739 160 166 159
1.09678698 0.46058005 1.26472354 142 142 142
1.10102713 0.46144095 1.26708758 137 137 137
1.09300220 0.45716834 1.25535524 139 139 139
1.07918406 0.45049435 1.23702896 134 134 134
1.07543468 0.44804156 1.23029375 134 134 134
1.09343684 0.45464256 1.24841964 138 139 139
1.09358072 0.45380682 1.24612474 141 142 142
1.08575511 0.44967377 1.23477566 142 143 143
1.08002043 0.44642118 1.22584414 142 143 143
1.08018577 0.44561535 1.22363150 142 143 143
1.08425796 0.44642118 1.22584414 144 145 145
1.07471621 0.44162953 1.21268666 146 149 147
1.06537700 0.43693966 1.19980860 150 154 149
1.06556487 0.43616769 1.19768882 155 158 153
0.90604019 0.36519364 1.00279856 161 161 157
0.89846975 0.36145082 0.99252099 155 156 153
0.88847762 0.35674986 0.97961247 155 156 154
0.87375629 0.35017151 0.96154869 159 160 158
0.85956806 0.34383136 0.94413906 161 162 158
-0.18197747 0.16658333 0.45526651 122 125 126
-0.18131234 0.16669528 0.45557249 126 130 131
-0.17992035 0.16613702 0.45404679 123 125 130
0.17881972 0.24152151 0.66006994 172 174 176
0.17970164 0.23965468 0.65496796 178 179 180
0.18118382 0.24011867 0.65623605 178 178 178
0.18143985 0.23896202 0.65307498 174 174 173
0.18117233 0.23713441 0.64808017 173 173 169
0.18306260 0.23668186 0.64684337 173 173 169
0.22820033 0.19500203 0.53293383 155 155 155
0.22876178 0.19469590 0.53209722 155 156 157
0.22968146 0.19469590 0.53209722 153 154 154
0.23078230 0.19484885 0.53251517 154 155 156
0.23170272 0.19484885 0.53251517 155 156 156
0.23298916 0.19515546 0.53335315 156 157 157
0.23409520 0.19530912 0.53377312 157 158 158
0.23557426 0.19577157 0.53503698 157 157 157
0.23687294 0.19608110 0.53588289 157 157 157
0.23761132 0.19592622 0.53545958 158 158 158
0.23834856 0.19577157 0.53503698 161 162 162
0.35989261 0.16536173 0.45192790 147 151 147
0.36067373 0.16536173 0.45192790 154 158 155
0.36073336 0.16503166 0.45102584 161 165 159
1.09678698 0.46276602 1.26472354 130 130 130
1.10102713 0.46363100 1.26708758 121 121 121
1.09503007 0.46019033 1.25768435 133 133 133
1.08115697 0.45345995 1.23929036 135 135 135
1.07935250 0.45180801 1.23477566 133 133 133
1.09951150 0.45933813 1.25535524 139 139 139
1.09761608 0.45764315 1.25072300 142 142 142
1.08773649 0.45263246 1.23702896 143 143 143
1.08197689 0.44935250 1.22806489 142 143 143
1.08213913 0.44853994 1.22584414 140 141 141
1.08622217 0.44935250 1.22806489 143 144 144
1.07857513 0.44531882 1.21704102 145 148 148
1.06916165 0.44057298 1.20407081 147 153 153
1.06745076 0.43901342 1.19980860 149 155 155
1.06763494 0.43823779 1.19768882 151 157 156
0.90604019 0.36692691 1.00279856 160 161 158
0.89846975 0.36316630 0.99252099 159 160 157
0.88719553 0.35792580 0.97819889 161 162 160
0.87005395 0.35034263 0.95747435 167 168 166
0.85599154 0.34402579 0.94021058 168 169 163
0.17951891 0.24361122 0.66265088 170 173 173
0.17961080 0.24219073 0.65878701 174 176 177
0.18135938 0.24148670 0.65687191 172 172 173
0.18161482 0.24032234 0.65370476 171 171 171
0.18134569 0.23848255 0.64870036 168 168 169
0.18211837 0.23802701 0.64746118 168 168 167
0.18341263 0.23825456 0.64808017 168 168 167
0.22894149 0.19576927 0.53251517 159 160 161
0.22986189 0.19576927 0.53251517 153 154 156
0.23078230 0.19576927 0.53251517 155 156 158
0.23188487 0.19592316 0.53293383 157 158 160
0.23298916 0.19607732 0.53335315 158 159 161
0.23409520 0.19623171 0.53377312 159 160 160
0.23557426 0.19669634 0.53503698 163 163 163
0.23687294 0.19700733 0.53588289 166 167 166
0.23761132 0.19685172 0.53545958 166 167 167
0.23834856 0.19669634 0.53503698 167 168 168
0.36013269 0.16625369 0.45222938 149 152 151
0.36121401 0.16603215 0.45162681 160 164 160
1.10308897 0.46669340 1.26946032 106 105 105
1.09706545 0.46322355 1.26002204 115 114 115
1.08711922 0.45811448 1.24612474 129 129 129
1.08528304 0.45643640 1.24156010 132 132 132
1.10565400 0.46408617 1.26236844 136 136 136
1.10168135 0.46150792 1.25535524 138 138 138
1.09172082 0.45643640 1.24156010 140 140 140
1.08394063 0.45229450 1.23029375 141 141 141
1.08409953 0.45147511 1.22806489 141 141 141
1.08622217 0.45147511 1.22806489 142 143 143
1.08051503 0.44822711 1.21922994 143 145 144
1.06916165 0.44265413 1.20407081 142 146 145
1.06745076 0.44108719 1.19980860 144 148 147
0.91143328 0.37085456 1.00876760 158 161 160
0.90110844 0.36595342 0.99543589 158 161 159
0.89105290 0.36118010 0.98245192 158 159 157
0.87375629 0.35349542 0.96154869 159 160 158
0.85718042 0.34613094 0.94151646 162 164 158
0.17987056 0.24523599 0.66394889 166 166 166
0.17978553 0.24356610 0.65942788 167 167 168
0.18022403 0.24262205 0.65687191 166 166 168
0.18118382 0.24238718 0.65623605 167 167 169
0.18179013 0.24168529 0.65433574 166 166 169
0.18204251 0.24052444 0.65119290 165 165 169
0.18299225 0.24029362 0.65056801 165 166 168
0.18429357 0.24052444 0.65119290 164 165 166
0.18894067 0.24215275 0.65560138 168 169 170
0.22894149 0.19668967 0.53251517 155 156 156
0.22968146 0.19653529 0.53209722 154 155 156
0.23078230 0.19668967 0.53251517 153 154 155
0.23152085 0.19653529 0.53209722 159 160 161
0.23391102 0.19699918 0.53335315 163 163 163
0.23538849 0.19746526 0.53461504 167 167 165
0.23668584 0.19777721 0.53545958 169 169 167
0.23723654 0.19746526 0.53461504 171 172 170
0.23797290 0.19730966 0.53419375 172 173 170
1.10115898 0.46713796 1.26472354 125 119 125
1.09734178 0.46367767 1.25535524 130 129 131
1.10771680 0.46713796 1.26472354 132 131 133
1.10577679 0.46540138 1.26002204 134 133 134
1.09775245 0.46111593 1.24841964 134 134 134
1.08591139 0.45524719 1.23253059 135 135 135
1.08606708 0.45442095 1.23029375 137 137 137
1.08622217 0.45359772 1.22806489 138 138 138
1.08051503 0.45033443 1.21922994 141 141 141
1.06916165 0.44473526 1.20407081 141 141 141
1.06556487 0.44237801 1.19768882 142 143 143
0.91964436 0.37595487 1.01785564 153 154 152
0.90376264 0.36875692 0.99836797 154 155 152
0.89494401 0.36446282 0.98674214 154 156 150
0.87999743 0.35769421 0.96841693 155 157 151
0.18004690 0.24662513 0.66459984 159 159 160
0.17978553 0.24470587 0.65942788 160 160 161
0.18100859 0.24328591 0.65560138 161 161 165
0.18143985 0.24234839 0.65307498 163 163 167
0.18186779 0.24141808 0.65056801 161 161 167
0.18299225 0.24141808 0.65056801 161 161 165
0.18411671 0.24141808 0.65056801 163 163 166
0.18435654 0.24026516 0.64746118 165 166 168
0.18636562 0.24141808 0.65056801 168 169 171
