ply
format ascii 1.0
element vertex 1090
property float x
property float y
property float z
property uchar red
property uchar green
property uchar blue
end_header
0.01055668 -0.52822528 0.88118703 0 0 0
0.01074924 -0.52271921 0.99116169 93 110 118
0.01029689 -0.51000854 0.88398459 0 0 0
0.01245011 -0.50807449 0.95725118 91 109 121
0.00797876 -0.51572883 0.97414267 89 109 120
0.00983692 -0.51045841 0.99170939 95 108 119
0.01033877 -0.48981537 0.88754427 0 0 0
0.00430601 -0.48315669 0.90964848 64 83 92
0.00332742 -0.49419278 0.93245912 83 104 113
0.00769916 -0.49928048 0.94000506 81 101 102
0.00984195 -0.49012775 0.99219003 92 107 120
0.01006734 -0.47711924 0.89130340 5 7 7
0.00984217 -0.46955915 0.99221365 96 107 120
0.00984255 -0.44985952 0.99226161 95 106 120
0.00984134 -0.43008567 0.99214311 94 107 118
0.00983303 -0.40999676 0.99125037 94 107 118
0.00982595 -0.38999219 0.99048555 94 105 122
0.00989117 -0.37002331 0.98996014 92 105 121
0.00975311 -0.35026622 0.98970082 90 104 121
0.00981785 -0.32979549 0.98965528 90 102 122
0.00981685 -0.31009222 0.98955316 88 99 120
0.00981591 -0.29040071 0.98947654 88 98 120
0.00981449 -0.26984309 0.98934936 87 96 118
0.00981383 -0.25016571 0.98930088 85 94 117
0.00981261 -0.23047338 0.98917924 82 92 114
0.00981092 -0.20992265 0.98901833 80 90 111
0.00980883 -0.19022435 0.98881098 79 86 109
0.00980642 -0.17052911 0.98857447 76 82 107
0.00980385 -0.14998629 0.98831721 77 83 107
0.00979535 -0.13023188 0.98748069 54 55 66
0.00979264 -0.11057396 0.98722184 45 45 55
0.00978866 -0.09006292 0.98682881 43 43 52
0.00978271 -0.06955109 0.98620448 43 43 52
0.01017943 -0.04970176 0.98530705 51 50 59
0.01053555 -0.02584683 0.97701382 125 126 131
0.01059260 -0.03616751 0.98224533 98 100 111
0.01044140 -0.00972863 0.96827589 124 124 129
0.01031453 0.01271716 0.95651690 126 127 136
0.01036966 0.00282130 0.96163285 144 144 147
0.01021978 0.02979283 0.94773912 125 128 138
0.01009506 0.05208873 0.93618670 172 175 184
0.01015269 0.04181863 0.94152260 134 137 149
0.00999481 0.06998666 0.92688468 190 193 201
0.00987194 0.09128500 0.91549658 190 194 202
0.00992910 0.08148260 0.92079815 191 194 202
0.01048096 0.11929242 0.89986958 195 198 206
0.01037649 0.10920919 0.90553379 194 198 205
0.01040993 0.13004669 0.89376759 194 198 205
0.01023142 0.15668598 0.87844485 200 202 207
0.01029712 0.14698547 0.88408308 196 198 205
0.01014230 0.16959480 0.87079019 196 199 204
0.00996826 0.19407048 0.85587168 178 180 186
0.01004366 0.18361776 0.86232601 180 182 187
0.01000614 0.21020235 0.84589594 164 168 175
0.01042518 0.22997268 0.83327713 162 165 171
0.01049070 0.25550253 0.81670859 155 158 164
0.01003586 0.24548059 0.82321135 152 156 162
0.01009581 0.27012101 0.80692811 155 158 164
0.00992655 0.29028093 0.79341131 150 153 158
0.01001042 0.28031565 0.80010828 148 150 152
0.01039374 0.31522469 0.77709097 138 144 153
0.01028515 0.30504952 0.78348976 148 152 157
0.01027906 0.32966026 0.76851857 26 27 29
0.01026276 0.35453684 0.75796708 0 0 0
0.01006206 0.34453675 0.76188995 0 0 0
0.01006730 0.36970296 0.75266896 0 0 0
0.00996636 0.38981435 0.74511424 0 0 0
0.00995481 0.41053866 0.73708603 0 0 0
0.00990534 0.40152608 0.74054841 0 0 0
0.02988586 -0.58563687 0.87597450 0 0 0
0.02992696 -0.56976191 0.87717724 0 0 0
0.02983334 -0.54985749 0.87893769 0 0 0
0.03686892 -0.54043964 0.88003618 0 0 0
0.02317692 -0.53886373 0.87994663 0 0 0
0.03022433 -0.52961021 0.88137845 0 0 0
0.03033893 -0.52334488 0.99103980 94 112 115
0.03017416 -0.51025430 0.88441092 0 0 0
0.02673173 -0.50739707 0.95374456 91 111 119
0.02966845 -0.51404387 0.96710146 92 112 117
0.02955146 -0.51050015 0.99179158 95 109 120
0.03029527 -0.49021045 0.88840681 0 0 0
0.03327440 -0.48700693 0.91133610 41 49 51
0.02927853 -0.49481167 0.92856985 88 112 121
0.02957122 -0.49025541 0.99244860 94 109 120
0.02903697 -0.47868998 0.89207914 3 5 5
0.02448355 -0.47960141 0.90002608 77 97 98
0.02957392 -0.46971079 0.99253403 96 108 121
0.02957452 -0.44999145 0.99255251 95 108 120
0.02957188 -0.43022418 0.99246349 94 107 121
0.02978629 -0.40991737 0.99214223 95 106 121
0.02932625 -0.39006152 0.99170401 94 106 120
0.02953757 -0.36974714 0.99128745 92 105 122
0.02952932 -0.34994100 0.99099820 90 103 122
0.02952505 -0.33019635 0.99085771 91 102 123
0.02958523 -0.30965288 0.99067235 88 100 122
0.02944074 -0.28989672 0.99041218 86 100 121
0.02950526 -0.27007728 0.99020702 85 97 120
0.02956510 -0.24955670 0.99001487 84 96 117
0.02942184 -0.22983882 0.98979545 81 94 115
0.02948609 -0.21004153 0.98957809 82 90 112
0.02954423 -0.18953416 0.98932504 79 87 111
0.02939913 -0.16983136 0.98903765 77 84 108
0.02946144 -0.15005347 0.98875937 77 83 107
0.02962951 -0.12969521 0.98784947 53 55 67
0.02922348 -0.11005474 0.98751464 47 48 57
0.02941189 -0.09008738 0.98709843 45 45 54
0.02939572 -0.06957568 0.98655452 45 45 54
0.02974296 -0.05013166 0.98582660 52 52 61
0.03009752 -0.02493036 0.97672326 127 126 129
0.03011821 -0.03532263 0.98231226 102 105 115
0.03053035 -0.00973054 0.96846477 129 129 132
0.03005243 0.01346570 0.95628895 127 128 137
0.03050219 0.00359764 0.96141064 143 143 148
0.02988055 0.02979635 0.94785387 152 153 161
0.02972127 0.05236340 0.93611459 190 192 201
0.03010791 0.04198889 0.94150427 184 186 193
0.03002138 0.06998883 0.92691528 190 192 201
0.02965102 0.09128359 0.91548285 191 194 202
0.02982321 0.08148254 0.92079748 194 197 204
0.02992093 0.11928436 0.89980882 192 195 203
0.02992200 0.10893207 0.90563915 191 196 203
0.03049045 0.13003821 0.89370938 185 189 196
0.02996656 0.15667072 0.87835933 166 169 175
0.03015897 0.14697147 0.88399886 174 177 186
0.02975583 0.16961514 0.87062065 165 168 177
0.02993222 0.19402717 0.85568089 161 163 170
0.03015900 0.18358369 0.86216612 169 173 180
0.02972473 0.20992737 0.84583274 157 161 169
0.03029238 0.23010501 0.83296464 151 153 163
0.02998336 0.25509150 0.81678670 155 159 167
0.03022138 0.24502370 0.82327188 159 163 171
0.02990974 0.27023685 0.80667959 141 145 152
0.03001571 0.28993565 0.79336372 137 143 153
0.02383748 0.28028830 0.80003021 123 128 137
0.03038937 0.31519430 0.77684138 154 161 171
0.02977532 0.30486214 0.78329398 157 164 170
0.03019462 0.32955932 0.76828293 22 22 23
0.02979072 0.35399203 0.75800042 0 0 0
0.02994408 0.34396516 0.76190461 0 0 0
0.02994428 0.36979245 0.75247282 0 0 0
0.02992393 0.38975915 0.74500835 0 0 0
0.02973312 0.41034076 0.73706000 0 0 0
0.02953794 0.40146109 0.74047876 0 0 0
0.04957997 -0.58577194 0.87617658 0 0 0
0.04964854 -0.56989972 0.87738944 0 0 0
0.04957203 -0.55098624 0.87906156 0 0 0
0.05104787 -0.54111719 0.88012618 0 0 0
0.04989007 -0.52999876 0.88165542 0 0 0
0.05846282 -0.52053293 0.97368050 98 112 123
0.05008041 -0.52461339 0.99092963 96 111 118
0.05016384 -0.50990699 0.88494465 0 0 0
0.05786248 -0.50663880 0.94565864 84 97 108
0.05013282 -0.51060465 0.99199504 97 111 119
0.05032537 -0.48950478 0.88946118 0 0 0
0.04666418 -0.48995353 0.91574500 76 88 101
0.05309572 -0.49703549 0.92872284 80 101 106
0.05016833 -0.49038018 0.99270111 95 110 121
0.04369532 -0.47936167 0.89295681 5 6 7
0.05017670 -0.46986639 0.99286285 97 108 122
0.05017777 -0.45014228 0.99288528 95 110 122
0.05017429 -0.43037816 0.99281870 96 109 122
0.05015982 -0.40966860 0.99253327 94 107 122
0.05014238 -0.38980396 0.99218662 93 106 123
0.05012595 -0.36996032 0.99185954 92 107 123
0.05011528 -0.35017061 0.99164844 91 105 123
0.05010656 -0.33040276 0.99147706 92 103 123
0.05009406 -0.30976165 0.99123065 89 102 123
0.05007897 -0.28997194 0.99093272 89 100 123
0.05006473 -0.27019877 0.99065209 86 99 120
0.05005156 -0.24958586 0.99039119 86 97 119
0.05003916 -0.22984292 0.99014553 81 95 118
0.05002780 -0.21011422 0.98992028 82 91 114
0.05001258 -0.18952499 0.98961986 79 89 113
0.04999432 -0.16979276 0.98926141 79 87 109
0.04997801 -0.15008097 0.98894049 80 85 108
0.04993707 -0.12946323 0.98812669 53 56 67
0.04991934 -0.10978254 0.98777484 50 50 61
0.04989803 -0.09011060 0.98735302 47 48 57
0.04986965 -0.06959241 0.98679163 47 47 56
0.04983357 -0.04994313 0.98607778 53 53 62
0.04950072 -0.02505752 0.97691455 122 123 127
0.04964760 -0.03532619 0.98240571 111 111 121
0.05042399 -0.00957051 0.96852975 135 133 136
0.04998635 0.01354403 0.95639331 161 162 166
0.05025588 0.00365115 0.96154859 145 145 147
0.04968738 0.02990955 0.94789450 184 186 190
0.05007173 0.05274588 0.93599411 191 193 200
0.05001071 0.04262124 0.94129639 184 187 195
0.05004856 0.06999016 0.92693428 190 194 202
0.05021892 0.09127925 0.91543945 179 182 190
0.04971561 0.08148007 0.92076961 193 196 204
0.04935872 0.11927774 0.89975891 144 148 159
0.04967487 0.10906586 0.90552179 158 162 173
0.05035439 0.13019136 0.89356734 130 133 148
0.04969262 0.15663878 0.87818037 166 168 174
0.05001410 0.14694812 0.88385918 166 168 176
0.04985823 0.16962304 0.87036823 163 165 174
0.05013793 0.19352695 0.85582018 156 158 165
0.04995451 0.18305783 0.86226539 161 164 172
0.05551524 0.21878455 0.83996273 142 145 161
0.04988159 0.20974260 0.84578542 151 155 164
0.05000577 0.22986408 0.83288526 156 161 170
0.04973414 0.25502020 0.81655870 168 172 178
0.05013146 0.24496741 0.82308263 150 153 162
0.05006218 0.26987074 0.80663503 150 154 161
0.05006540 0.29027531 0.79282124 154 157 161
0.05001410 0.31454245 0.77706874 154 157 161
0.04972443 0.30479203 0.78306748 145 149 155
0.05010142 0.32947931 0.76809560 15 15 16
0.04996305 0.35398580 0.75784502 0 0 0
0.04969069 0.34391678 0.76179747 0 0 0
0.05016013 0.36982448 0.75224503 0 0 0
0.04992444 0.39022462 0.74466921 0 0 0
0.04999191 0.40984610 0.73711872 0 0 0
0.05022674 0.40090440 0.74058166 0 0 0
0.07003600 -0.58587033 0.87632381 0 0 0
0.06976851 -0.57019863 0.87754697 0 0 0
0.06943748 -0.55197624 0.87913486 0 0 0
0.06982535 -0.54202252 0.88020181 0 0 0
0.06971617 -0.53012048 0.88185811 0 0 0
0.07869631 -0.52247052 0.97415531 100 112 119
0.07003875 -0.52518105 0.99173980 99 112 121
0.06999189 -0.51002466 0.88534311 0 0 0
0.06843575 -0.50756944 0.94603441 96 111 121
0.07773379 -0.51692140 0.96225980 102 111 119
0.06995547 -0.50985500 0.99251997 98 112 120
0.07003873 -0.49029528 0.88998753 1 1 1
0.07561821 -0.48671978 0.90241273 36 48 47
0.07305982 -0.49725153 0.92415583 86 95 100
0.06972928 -0.49020427 0.99294193 98 110 123
0.06993128 -0.46999997 0.99314509 97 110 123
0.06993135 -0.45026041 0.99314571 97 109 124
0.06992225 -0.43046429 0.99301713 97 109 123
0.06989978 -0.40973671 0.99269831 95 109 123
0.06987653 -0.38987509 0.99236788 96 108 124
0.06985651 -0.37004345 0.99208254 95 107 123
0.06984198 -0.35025114 0.99187632 93 106 125
0.06982767 -0.33046819 0.99167341 93 105 125
0.06980940 -0.30981907 0.99141425 90 103 125
0.06978811 -0.29002438 0.99111205 90 101 124
0.06976848 -0.27024800 0.99083263 87 99 122
0.06975166 -0.24963678 0.99059339 87 97 120
0.06973497 -0.22989190 0.99035655 85 95 120
0.07037419 -0.20999433 0.99012724 83 93 116
0.07055078 -0.18955882 0.98979622 80 90 116
0.07052002 -0.16981092 0.98936635 81 89 112
0.07049247 -0.15008711 0.98898069 81 88 111
0.07044105 -0.12948031 0.98825797 56 57 69
0.07041639 -0.10979779 0.98791214 51 51 61
0.07038777 -0.09012488 0.98750990 49 50 59
0.07034595 -0.06960185 0.98692443 49 49 59
0.07029120 -0.04994749 0.98615991 54 54 65
0.06994026 -0.02523614 0.97696011 126 126 132
0.06968843 -0.03550883 0.98235738 105 107 117
0.07016351 -0.00968552 0.96868019 148 148 151
0.06983190 0.01354579 0.95651622 179 179 181
0.07020698 0.00365157 0.96165602 174 175 176
0.06989952 0.02986799 0.94803698 184 185 191
0.06994734 0.05288606 0.93594268 178 180 188
0.07035221 0.04262402 0.94135836 185 188 194
0.06995114 0.07008760 0.92682609 151 155 167
0.07013519 0.09136607 0.91524673 128 132 149
0.06960009 0.08146976 0.92065321 144 147 160
0.06956849 0.11926536 0.89966549 140 144 157
0.07001174 0.10905108 0.90539834 126 131 147
0.07008870 0.13004914 0.89355027 134 139 153
0.06980490 0.15666520 0.87801339 161 164 174
0.06986629 0.14693185 0.88376143 154 157 167
0.07009991 0.16934787 0.87037908 164 168 177
0.06993882 0.19326903 0.85582234 155 157 166
0.06981086 0.18289538 0.86221493 168 172 180
0.07094900 0.21929350 0.83946703 175 178 182
0.07016197 0.20949372 0.84574341 165 168 176
0.06987502 0.23029645 0.83245616 143 146 156
0.06981050 0.25510125 0.81647025 149 151 156
0.07004401 0.24495161 0.82302962 137 141 149
0.07005871 0.26996180 0.80633540 156 160 165
0.07002959 0.28997300 0.79286423 155 158 163
0.06975532 0.31449985 0.77709697 132 135 143
0.07001842 0.30475632 0.78297552 152 155 159
0.07001391 0.32947139 0.76807669 9 10 10
0.07025075 0.35384021 0.75782348 0 0 0
0.06977763 0.34398517 0.76176092 0 0 0
0.06998803 0.37013983 0.75196612 0 0 0
0.06993987 0.39006700 0.74460391 0 0 0
0.07012245 0.40994153 0.73702579 0 0 0
0.07006182 0.40087206 0.74052190 0 0 0
0.09049398 -0.58593725 0.87642392 0 0 0
0.09022970 -0.56988798 0.87767414 0 0 0
0.09002068 -0.55207947 0.87919821 0 0 0
0.08936541 -0.54207900 0.88022852 0 0 0
0.08953838 -0.53016453 0.88193170 0 0 0
0.08686065 -0.52257775 0.97122531 99 116 123
0.09003305 -0.52621075 0.99165050 98 114 122
0.08990159 -0.51011862 0.88550647 0 0 0
0.09501307 -0.50247730 0.92790660 46 51 55
0.09231064 -0.51721277 0.95817637 106 112 128
0.08965238 -0.50936906 0.99292805 99 113 122
0.09008610 -0.49176473 0.88983219 0 0 0
0.08683467 -0.49026616 0.90680580 48 55 62
0.08966492 -0.48970443 0.99307044 100 111 123
0.08968821 -0.47008591 0.99332670 99 112 122
0.08988398 -0.44975206 0.99332268 99 110 125
0.08946914 -0.42996201 0.99313941 99 110 124
0.08963951 -0.40977471 0.99279033 98 110 124
0.08961325 -0.38992620 0.99249830 96 110 125
0.08959274 -0.37011343 0.99227022 97 108 125
0.08957318 -0.35031383 0.99205376 97 108 124
0.08955298 -0.33052062 0.99183066 94 107 125
0.08952830 -0.30986375 0.99155724 92 106 125
0.08950272 -0.29007151 0.99127327 90 103 125
0.08947988 -0.27029910 0.99102009 88 101 123
0.08945838 -0.24968434 0.99078203 88 99 122
0.08943553 -0.22993204 0.99052937 86 96 122
0.09003998 -0.21036056 0.99027377 84 95 119
0.09023213 -0.18957469 0.98987868 82 93 116
0.09018840 -0.16981664 0.98939926 83 90 114
0.09015107 -0.15008855 0.98898997 81 90 113
0.09008948 -0.12948751 0.98831380 57 58 69
0.09005794 -0.10980398 0.98796802 52 52 63
0.09002389 -0.09013253 0.98759410 51 51 62
0.08996853 -0.06960638 0.98698670 51 52 61
0.08996752 -0.04987312 0.98606014 57 58 68
0.08991468 -0.02584973 0.97713597 135 135 138
0.09040190 -0.03617482 0.98243228 107 108 116
0.09003735 -0.00972614 0.96863175 164 165 167
0.08967516 0.01354646 0.95656276 174 175 177
0.09015404 0.00365164 0.96167060 174 174 176
0.09017218 0.02968823 0.94814549 158 160 167
0.09008186 0.05280039 0.93590463 127 132 146
0.08939269 0.04246309 0.94139543 141 145 154
0.09002216 0.06992892 0.92680028 129 134 148
0.08989115 0.09115968 0.91525065 127 133 150
0.09027655 0.08146051 0.92054862 128 131 147
0.08977699 0.11925661 0.89959952 129 132 147
0.09010971 0.10920095 0.90522281 135 139 153
0.08999177 0.13000947 0.89348362 122 126 144
0.09085267 0.15620757 0.87817720 160 163 170
0.08948928 0.14667184 0.88384750 158 160 169
0.09000441 0.16960595 0.87014852 157 158 166
0.09010269 0.19340665 0.85559557 154 158 167
0.08990786 0.18279896 0.86217656 158 159 165
0.09029163 0.21934802 0.83934248 127 128 140
0.08998100 0.20921144 0.84575610 158 160 168
0.09002121 0.23039987 0.83226398 140 144 153
0.09008735 0.25492501 0.81635827 128 132 143
0.08994297 0.24490749 0.82288138 129 134 145
0.08996534 0.26998622 0.80616638 141 146 153
0.09000275 0.29008298 0.79274069 147 150 155
0.08970718 0.31452796 0.77713159 154 160 167
0.09015393 0.30481389 0.78294641 140 144 147
0.08994137 0.32952263 0.76819539 7 7 7
0.09004044 0.35392343 0.75785415 0 0 0
0.09018749 0.34390245 0.76195423 0 0 0
0.08995625 0.37002709 0.75196519 0 0 0
0.09003492 0.39031990 0.74449141 0 0 0
0.08994593 0.40975621 0.73709518 0 0 0
0.08990119 0.40087301 0.74052366 0 0 0
0.11019143 -0.58596205 0.87646106 0 0 0
0.11034733 -0.57010257 0.87770170 0 0 0
0.11053533 -0.55207926 0.87919773 0 0 0
0.10989930 -0.54205538 0.88019016 0 0 0
0.10974360 -0.53033363 0.88188461 0 0 0
0.11268333 -0.52503050 0.96955478 101 120 117
0.11030886 -0.52802309 0.99221946 101 116 125
0.10980980 -0.51017311 0.88560153 0 0 0
0.10539320 -0.50694082 0.93465860 68 83 89
0.11286810 -0.51671955 0.95217723 94 110 113
0.11027163 -0.50948516 0.99315349 101 115 125
0.11019329 -0.49297301 0.89019612 1 1 1
0.10846891 -0.49429187 0.90893026 40 47 50
0.11027843 -0.48977528 0.99321459 104 115 123
0.11030712 -0.47015578 0.99347397 101 113 125
0.11030012 -0.44952281 0.99341208 99 112 124
0.11027347 -0.42967346 0.99317247 98 113 122
0.11023356 -0.40978405 0.99281308 100 112 124
0.11020587 -0.38995168 0.99256332 97 110 125
0.11018389 -0.37014885 0.99236517 95 110 127
0.11015836 -0.34948528 0.99213529 98 108 125
0.11013245 -0.32968709 0.99190182 94 108 127
0.11010156 -0.30988466 0.99162403 95 106 126
0.11006941 -0.29008950 0.99133481 94 105 125
0.11004205 -0.27031773 0.99108840 91 104 126
0.11001651 -0.24970360 0.99085842 91 101 124
0.10998689 -0.22994657 0.99059184 89 99 123
0.10995487 -0.21019582 0.99030383 85 97 118
0.10990994 -0.18957859 0.98989918 83 95 118
0.10985751 -0.16982136 0.98942678 83 92 117
0.10981160 -0.15009210 0.98901309 81 92 113
0.10973876 -0.12949310 0.98835670 57 59 71
0.10969875 -0.10980711 0.98799633 53 54 65
0.10965854 -0.09013621 0.98763413 54 53 64
0.10959064 -0.06960892 0.98702261 54 54 64
0.10954620 -0.05000418 0.98598009 61 62 71
0.11016045 -0.02584469 0.97694921 161 161 164
0.11026243 -0.03607761 0.98221586 148 149 154
0.10998169 -0.00973714 0.96858216 154 154 157
0.10971920 0.01364566 0.95643519 123 126 134
0.11009591 0.00365150 0.96163573 135 134 141
0.11009496 0.02973708 0.94796149 131 134 144
0.11007986 0.05193264 0.93619982 125 128 143
0.10997545 0.04186090 0.94151051 133 135 148
0.10991407 0.07008402 0.92662040 129 133 148
0.11002990 0.09140474 0.91509848 129 134 151
0.11016107 0.08145736 0.92051297 125 131 145
0.10998197 0.11924737 0.89952976 129 132 146
0.11001993 0.10906163 0.90525423 128 133 147
0.11000147 0.12999233 0.89339488 127 131 145
0.11082360 0.15628508 0.87798050 149 153 164
0.10978117 0.14628746 0.88392790 148 149 160
0.10977434 0.16988054 0.86988664 143 145 155
0.11004646 0.19313646 0.85563349 163 167 178
0.10987324 0.18282177 0.86208072 162 165 175
0.11020930 0.21928939 0.83901539 163 168 176
0.10995181 0.20924627 0.84550776 162 166 174
0.11003899 0.23032835 0.83202771 148 152 160
0.11012203 0.25484509 0.81610683 159 164 173
0.10983328 0.24485766 0.82271299 152 154 161
0.10461886 0.27998925 0.79917662 173 179 182
0.10993922 0.26980827 0.80602497 151 155 164
0.11009442 0.29019870 0.79248969 146 148 153
0.10954226 0.31482766 0.77714820 162 164 168
0.11034592 0.30505213 0.78293215 144 150 155
0.10992494 0.32971305 0.76835855 4 4 4
0.10963438 0.35446445 0.75786727 0 0 0
0.11050870 0.34450134 0.76199227 0 0 0
0.11001485 0.36996291 0.75211768 0 0 0
0.10999274 0.39006709 0.74471303 0 0 0
0.10981539 0.40990057 0.73706937 0 0 0
0.11098449 0.40111609 0.74053383 0 0 0
0.12988325 -0.58595457 0.87644988 0 0 0
0.13006558 -0.57008869 0.87768027 0 0 0
0.13049339 -0.55176027 0.87918052 0 0 0
0.12953740 -0.54180936 0.88015391 0 0 0
0.13018965 -0.53002945 0.88187660 0 0 0
0.12454206 -0.52025975 0.95768806 98 120 131
0.12956217 -0.52437991 0.96425364 95 123 126
0.13030023 -0.52944144 0.99257779 102 120 127
0.12970765 -0.51016801 0.88559300 0 0 0
0.13744312 -0.50278533 0.91677082 20 22 25
0.13277964 -0.50709805 0.92853932 98 113 123
0.12112218 -0.51979188 0.95682681 98 117 132
0.13004643 -0.50961887 0.99341278 104 117 127
0.13004626 -0.49452490 0.88989334 0 0 0
0.12796479 -0.49763648 0.90989365 32 36 40
0.13004376 -0.48986320 0.99339313 103 115 126
0.13006766 -0.47020480 0.99357723 103 115 127
0.13005178 -0.44954309 0.99345670 101 115 125
0.13001696 -0.42968141 0.99319084 98 114 125
0.12996941 -0.40979006 0.99282767 99 112 127
0.12993838 -0.38996239 0.99259065 98 111 126
0.12991208 -0.37015815 0.99239004 98 110 127
0.12988160 -0.34949302 0.99215734 98 109 126
0.12985094 -0.32969425 0.99192323 96 109 126
0.12981081 -0.30988242 0.99161681 96 107 127
0.12977127 -0.29008370 0.99131492 94 105 126
0.13003781 -0.27010379 0.99104270 93 104 127
0.13055863 -0.24968630 0.99078966 91 102 125
0.13052138 -0.22992679 0.99050656 90 100 122
0.13048607 -0.21018183 0.99023825 87 97 121
0.13043601 -0.18957063 0.98985787 87 95 119
0.13037847 -0.16982026 0.98942051 85 94 118
0.13032429 -0.15009154 0.98900956 83 92 116
0.13024157 -0.12949628 0.98838148 58 61 71
0.13019438 -0.10981011 0.98802335 54 55 65
0.13014531 -0.09013778 0.98765118 54 54 64
0.13006885 -0.06961216 0.98707047 55 55 66
0.12992422 -0.04993905 0.98597273 62 62 73
0.13029350 -0.02578003 0.97681592 121 123 127
0.12974519 -0.03625325 0.98217591 119 120 129
0.12999159 -0.00973032 0.96850571 126 126 132
0.12994974 0.01357720 0.95635461 123 125 134
0.13003206 0.00365123 0.96156802 128 130 138
0.13001040 0.02994118 0.94769548 125 129 140
0.12997534 0.05218154 0.93595316 130 134 146
0.13027463 0.04176975 0.94141286 126 130 143
0.12998123 0.06989696 0.92662468 135 138 151
0.13019865 0.09097013 0.91523678 123 127 145
0.12874773 0.08131275 0.92051309 135 139 153
0.13017657 0.11923161 0.89941087 108 110 130
0.12998509 0.10897025 0.90519952 129 133 146
0.13000336 0.12997125 0.89328052 122 127 144
0.13006776 0.15654999 0.87769573 161 164 174
0.12987341 0.14620555 0.88381832 166 170 178
0.12994340 0.17003501 0.86967047 150 152 161
0.13006852 0.19337032 0.85539491 165 167 174
0.12997160 0.18279791 0.86196816 156 159 166
0.12978572 0.21927799 0.83917726 147 150 156
0.12999456 0.20932843 0.84547227 148 151 158
0.13009049 0.23040296 0.83204028 138 141 150
0.13006192 0.25490427 0.81633043 141 145 153
0.12985189 0.24493422 0.82282289 132 135 144
0.12753844 0.27888767 0.79997904 180 183 187
0.13005500 0.26966544 0.80627780 159 162 168
0.12986515 0.28988919 0.79299312 142 145 150
0.12994925 0.31526184 0.77718121 134 136 142
0.13021816 0.30510174 0.78315682 155 160 164
0.12994292 0.32982332 0.76873411 2 2 2
0.12973432 0.35489398 0.75806564 0 0 0
0.13031495 0.34499335 0.76220599 0 0 0
0.12992147 0.36985204 0.75242929 0 0 0
0.13008813 0.39001769 0.74497036 0 0 0
0.13004397 0.41047648 0.73689671 0 0 0
0.12999985 0.40149481 0.74054208 0 0 0
0.14957227 -0.58593796 0.87642500 0 0 0
0.14977623 -0.57004984 0.87762032 0 0 0
0.15003556 -0.55128279 0.87913995 0 0 0
0.15020407 -0.54125579 0.88012671 0 0 0
0.15600441 -0.54152565 0.99227420 102 120 133
0.15037900 -0.53000488 0.88183207 0 0 0
0.15137826 -0.52271768 0.95461735 108 121 128
0.14753900 -0.53188443 0.97289580 106 118 132
0.14961782 -0.53054819 0.99304047 105 120 128
0.14970666 -0.51037463 0.88585898 0 0 0
0.15287870 -0.50302067 0.91431838 78 85 88
0.14228576 -0.51164001 0.93291628 44 50 55
0.15202513 -0.51686035 0.94206436 93 110 118
0.14982708 -0.50973790 0.99364425 107 117 126
0.14995268 -0.49595092 0.89073292 3 3 4
0.14981404 -0.48994519 0.99355903 105 117 127
0.14982189 -0.47022144 0.99361205 103 117 127
0.14979707 -0.44953900 0.99344766 103 116 126
0.14975600 -0.42967476 0.99317543 101 114 127
0.14970151 -0.40978436 0.99281390 100 113 127
0.14966589 -0.38995736 0.99257773 100 111 126
0.14963067 -0.37014118 0.99234446 99 110 129
0.14947478 -0.34960958 0.99211116 99 110 126
0.14968744 -0.32983086 0.99187226 96 109 126
0.14951321 -0.30986633 0.99156540 97 107 127
0.14946578 -0.29006505 0.99125099 95 106 126
0.14968974 -0.27047621 0.99095151 94 105 127
0.15023731 -0.24966104 0.99068958 92 103 124
0.15019733 -0.22990809 0.99042606 91 101 123
0.15015661 -0.21016475 0.99015777 87 98 123
0.15010302 -0.18956030 0.98980423 86 97 121
0.15004097 -0.16981587 0.98939500 84 96 119
0.14997675 -0.15008581 0.98897170 85 93 116
0.14988587 -0.12949496 0.98837206 58 59 72
0.14983626 -0.10981245 0.98804435 55 56 66
0.15000468 -0.08996739 0.98765421 54 54 63
0.15054504 -0.06961365 0.98709282 54 54 65
0.15038699 -0.04994314 0.98605548 61 62 71
0.15019300 -0.02577973 0.97682553 116 115 121
0.14979545 -0.03616555 0.98217711 110 109 116
0.14999839 -0.00974751 0.96844219 128 128 133
0.15007095 0.01353317 0.95623292 124 127 136
0.14995581 0.00365073 0.96143926 125 126 133
0.14998347 0.02983312 0.94760342 126 130 141
0.14992824 0.05210211 0.93584199 133 135 148
0.15005978 0.04180627 0.94124467 129 133 144
0.14997664 0.07001960 0.92640704 139 143 154
0.14995035 0.09044166 0.91536322 132 137 151
0.14996554 0.08067777 0.92069070 137 140 155
0.15183888 0.11893579 0.89937957 119 124 143
0.14990643 0.10880832 0.90511000 123 128 145
0.14999198 0.12995143 0.89311375 118 124 140
0.14976952 0.15652961 0.87758143 162 166 174
0.14996473 0.14617274 0.88369799 154 159 169
0.14999755 0.17015504 0.86946577 144 147 158
0.14995086 0.19313762 0.85546870 149 153 161
0.15006418 0.18277296 0.86185045 145 150 162
0.14973765 0.21929779 0.83915028 149 156 163
0.15008493 0.20923277 0.84550091 138 143 155
0.15008131 0.23041591 0.83198218 145 149 157
0.14997655 0.25498482 0.81630300 134 140 147
0.14992158 0.24489436 0.82273100 130 135 143
0.15001121 0.26987085 0.80626547 141 146 155
0.15000341 0.28951087 0.79330239 131 137 147
0.15007780 0.31540643 0.77743817 123 131 143
0.14995516 0.30493967 0.78345464 123 129 136
0.14998770 0.32995945 0.76914865 2 3 3
0.15013266 0.35541268 0.75828995 0 0 0
0.14995667 0.34556870 0.76243751 0 0 0
0.14997967 0.36975886 0.75280826 0 0 0
0.15000382 0.38988301 0.74527814 0 0 0
0.15002798 0.41043642 0.73700776 0 0 0
0.15009110 0.40160051 0.74068571 0 0 0
0.17001295 -0.58590490 0.87637556 0 0 0
0.16959686 -0.57010042 0.87754589 0 0 0
0.16977602 -0.55123919 0.87907052 0 0 0
0.16997263 -0.54123221 0.88008837 0 0 0
0.17115274 -0.54214969 0.99217990 107 125 128
0.17029346 -0.53005536 0.88175037 0 0 0
0.17141964 -0.53365420 0.97000065 108 122 129
0.17041276 -0.53027218 0.99350694 108 122 128
0.16983699 -0.51049224 0.88595806 0 0 0
0.16651147 -0.50385667 0.91106623 50 58 63
0.17482993 -0.51317018 0.92743092 84 102 109
0.17045416 -0.50979208 0.99374980 109 119 128
0.16962534 -0.49748438 0.89018825 0 0 0
0.16159470 -0.49737928 0.90123290 90 100 105
0.17043701 -0.48998976 0.99364923 106 118 126
0.17043167 -0.47022494 0.99361912 104 118 129
0.17039526 -0.44952084 0.99340743 104 117 128
0.17034688 -0.42965303 0.99312526 102 116 126
0.17028781 -0.40977064 0.99278072 102 113 128
0.17024664 -0.38994289 0.99254085 100 112 127
0.17020457 -0.37012294 0.99229560 98 111 127
0.17016732 -0.35032253 0.99207845 97 110 126
0.17012543 -0.33052188 0.99183416 98 109 126
0.17007105 -0.30985125 0.99151714 96 108 127
0.17001669 -0.29005016 0.99120014 96 107 125
0.16996516 -0.27026637 0.99089977 95 106 126
0.16991913 -0.24964646 0.99063173 91 105 126
0.16987427 -0.22989509 0.99036998 90 102 124
0.16982497 -0.21014883 0.99008265 88 99 122
0.16976669 -0.18954849 0.98974280 85 98 123
0.16969860 -0.16980738 0.98934559 87 96 120
0.16962190 -0.15007480 0.98889871 86 94 115
0.16952361 -0.12948871 0.98832544 58 60 72
0.16947461 -0.10981187 0.98803940 55 56 66
0.16961144 -0.09030322 0.98767274 53 54 64
0.17016379 -0.06961309 0.98708445 54 55 64
0.17007634 -0.04987510 0.98609175 61 62 73
0.16996476 -0.02586318 0.97686008 118 119 125
0.17017425 -0.03616716 0.98222101 110 110 117
0.16999941 -0.00972895 0.96834418 129 129 134
0.17034866 0.01308436 0.95632335 128 129 138
0.16919854 0.00329518 0.96151088 132 133 139
0.16994849 0.02976728 0.94746346 129 132 141
0.17003215 0.05198372 0.93571373 145 147 155
0.16983206 0.04184147 0.94104778 132 136 150
0.17008156 0.06993842 0.92625668 144 148 157
0.16995050 0.09052889 0.91509770 123 129 144
0.16982348 0.08066174 0.92050778 129 133 144
0.17060394 0.11846017 0.89945792 123 125 142
0.16999506 0.10832503 0.90515300 119 124 140
0.17002321 0.12992354 0.89292197 123 128 143
0.16985127 0.15658642 0.87742741 168 170 178
0.17005125 0.14612852 0.88358679 151 153 162
0.17005446 0.17011081 0.86939627 155 159 169
0.16996561 0.19329978 0.85530898 154 156 166
0.17001253 0.18279338 0.86174302 152 155 165
0.17003452 0.21928605 0.83910537 145 147 159
0.17006554 0.20927069 0.84541960 156 159 168
0.17002622 0.23033926 0.83198694 150 154 164
0.17017049 0.25478035 0.81630564 146 149 157
0.16970851 0.24469795 0.82272344 141 144 152
0.16999087 0.27001627 0.80627409 151 154 160
0.16999569 0.28964098 0.79319030 155 159 162
0.17004373 0.31547901 0.77759137 153 158 164
0.16994518 0.30502663 0.78350069 132 136 147
0.17000136 0.33010506 0.76947536 5 5 5
0.17005570 0.35612536 0.75835242 0 0 0
0.16992054 0.34627929 0.76253849 0 0 0
0.16999309 0.36991120 0.75307178 0 0 0
0.17000624 0.39000276 0.74544109 0 0 0
0.17002001 0.41045094 0.73710115 0 0 0
0.16995916 0.40165916 0.74079390 0 0 0
0.19044666 -0.58585795 0.87630537 0 0 0
0.19004717 -0.56987079 0.87748902 0 0 0
0.18959094 -0.55127731 0.87904676 0 0 0
0.18975630 -0.54125607 0.88012716 0 0 0
0.19347063 -0.54008801 0.97556424 110 127 131
0.19067535 -0.54409848 0.99204591 110 124 132
0.19009747 -0.53003184 0.88171051 0 0 0
0.19169684 -0.52172055 0.93799359 81 97 98
0.19272932 -0.52867334 0.95246946 107 120 121
0.19020590 -0.53039914 0.99374420 108 123 131
0.18997834 -0.51019839 0.88583865 0 0 0
0.19264882 -0.50742692 0.90927689 49 56 60
0.18207363 -0.51728924 0.93438268 110 124 129
0.19021891 -0.50982490 0.99381347 106 122 131
0.18771889 -0.49858467 0.88921554 4 4 4
0.19019617 -0.49001238 0.99369497 107 120 129
0.19017912 -0.47021894 0.99360615 106 118 130
0.18992756 -0.44994888 0.99335971 106 118 130
0.19028133 -0.43012049 0.99308102 103 116 130
0.19001317 -0.40975358 0.99273936 103 114 129
0.18996509 -0.38992226 0.99248828 103 113 126
0.18991789 -0.37010282 0.99224163 98 112 127
0.18987563 -0.35030215 0.99202082 98 111 128
0.18982961 -0.33050397 0.99178039 99 109 127
0.18976858 -0.30983390 0.99146156 97 108 129
0.19049210 -0.28996790 0.99114249 96 108 126
0.19050157 -0.27024408 0.99081786 96 106 126
0.19044879 -0.24962418 0.99054335 93 105 126
0.19040129 -0.22987795 0.99029625 91 103 125
0.19034575 -0.21013284 0.99000724 90 100 122
0.19028016 -0.18953377 0.98966601 88 99 122
0.19020315 -0.16979367 0.98926556 88 97 120
0.19011400 -0.15006014 0.98880195 86 95 117
0.19000934 -0.12947970 0.98825744 58 60 70
0.18995892 -0.10980692 0.98799521 56 57 67
0.18988945 -0.09013625 0.98763382 54 55 64
0.18977427 -0.06960962 0.98703456 54 54 65
0.18966580 -0.05001009 0.98609800 62 63 74
0.18984469 -0.02588094 0.97677401 121 122 126
0.19021166 -0.03607703 0.98215723 109 109 118
0.19005446 -0.00972747 0.96819474 127 127 133
0.19002276 0.01268434 0.95635183 134 135 141
0.18986842 0.00282117 0.96159209 139 140 145
0.18996973 0.02977128 0.94725252 134 137 144
0.19028294 0.05174347 0.93559577 145 148 155
0.18911584 0.04144178 0.94104475 131 135 146
0.19004831 0.06992285 0.92603570 142 144 155
0.19007675 0.09042047 0.91494399 122 126 144
0.19046459 0.08064391 0.92030431 138 140 154
0.19039949 0.11846547 0.89926207 123 127 145
0.18990104 0.10826168 0.90497697 133 137 151
0.19005075 0.12989903 0.89275288 122 126 143
0.19004424 0.15648301 0.87737352 154 155 163
0.19004788 0.14609592 0.88346790 147 152 162
0.18999737 0.17011802 0.86927088 151 155 165
0.19004514 0.19318761 0.85529274 152 155 164
0.19009426 0.18269720 0.86170611 146 149 158
0.19034964 0.21929851 0.83915306 149 151 159
0.18994652 0.20920140 0.84546489 150 153 161
0.18999913 0.23032867 0.83186902 160 163 171
0.19001023 0.25431465 0.81650048 152 155 161
0.19001275 0.24421315 0.82288347 145 148 154
0.18998267 0.26995720 0.80647117 138 141 149
0.18996294 0.28969625 0.79357428 146 151 155
0.19875450 0.28028033 0.80000746 126 133 137
0.18970912 0.31574986 0.77751472 151 155 161
0.19018566 0.30533210 0.78348518 150 155 162
0.19000559 0.33019220 0.76970168 6 6 7
0.18985869 0.35624350 0.75852501 0 0 0
0.18998113 0.34634755 0.76275822 0 0 0
0.19006215 0.36998883 0.75323936 0 0 0
0.19003003 0.39007581 0.74548920 0 0 0
0.18999752 0.41065649 0.73706391 0 0 0
0.18985174 0.40187131 0.74073999 0 0 0
0.21012078 -0.58581359 0.87623903 0 0 0
0.21040873 -0.56993215 0.87743927 0 0 0
0.20968727 -0.55176102 0.87905073 0 0 0
0.21043659 -0.54181770 0.88016744 0 0 0
0.20959195 -0.54265030 0.97411181 108 125 129
0.21050283 -0.54563672 0.99179070 110 126 131
0.20989114 -0.52998760 0.88163543 0 0 0
0.21384564 -0.52482208 0.93677888 90 103 110
0.20040814 -0.53331286 0.96032804 113 126 130
0.20997700 -0.53044722 0.99383368 109 125 131
0.20997710 -0.51009334 0.88558973 0 0 0
0.20529926 -0.50928323 0.90858310 51 61 65
0.21282717 -0.51882328 0.92417032 48 55 60
0.20995395 -0.50978008 0.99372587 109 123 132
0.20242235 -0.49984034 0.88898730 0 0 0
0.20993867 -0.48999165 0.99365296 108 121 130
0.20991490 -0.47018805 0.99354079 107 119 129
0.20986387 -0.45033021 0.99329920 106 118 130
0.20980326 -0.43046245 0.99301232 103 117 130
0.20972812 -0.40971947 0.99265671 102 115 129
0.20967379 -0.38988741 0.99239953 101 112 128
0.20962262 -0.37007133 0.99215727 101 111 127
0.20957740 -0.35027471 0.99194311 99 111 127
0.20952727 -0.33047913 0.99170587 98 110 127
0.20945899 -0.30980926 0.99138274 98 109 127
0.21016237 -0.29007848 0.99105690 96 108 128
0.21017771 -0.27022065 0.99073196 95 107 126
0.21011730 -0.24959997 0.99044721 92 105 127
0.21006724 -0.22985816 0.99021112 92 104 125
0.21001212 -0.21012083 0.98995100 90 101 123
0.20994331 -0.18952626 0.98962665 90 99 122
0.20985618 -0.16978519 0.98921624 88 98 122
0.21019739 -0.14982539 0.98872363 87 96 114
0.21049273 -0.12947101 0.98819129 58 60 70
0.21043851 -0.10980041 0.98793657 56 58 67
0.21036050 -0.09013043 0.98757039 56 57 66
0.21023537 -0.06960596 0.98698286 54 55 66
0.21003290 -0.04994193 0.98603277 63 64 75
0.20982757 -0.02589716 0.97662097 122 123 127
0.20986117 -0.03619101 0.98207044 108 108 119
0.21009274 -0.00972552 0.96799635 128 129 135
0.20998972 0.01266603 0.95611933 141 142 146
0.20976566 0.00282052 0.96137640 131 132 138
0.21003499 0.02974680 0.94700770 140 142 150
0.20994811 0.05121037 0.93562161 144 147 155
0.21020466 0.04098389 0.94102548 131 133 143
0.21005889 0.06992155 0.92577419 137 142 154
0.21022672 0.09023288 0.91480404 135 140 155
0.20712088 0.08062601 0.92010003 139 141 156
0.20976100 0.11838286 0.89910686 121 127 144
0.20999567 0.10820505 0.90480061 128 132 146
0.21006746 0.12987249 0.89257035 121 126 142
0.21041260 0.15610963 0.87738111 168 172 181
0.20968731 0.14584103 0.88341496 160 164 173
0.20996461 0.17004089 0.86910372 165 167 175
0.21006903 0.19258363 0.85548924 166 169 175
0.20972302 0.18220944 0.86182323 155 159 168
0.21024319 0.21926030 0.83890412 162 166 174
0.20995588 0.20924140 0.84528926 156 159 167
0.21001133 0.23029353 0.83176457 161 165 174
0.20997059 0.25428296 0.81647864 133 136 143
0.20999289 0.24416276 0.82276187 137 143 154
0.20994468 0.26998594 0.80643620 121 127 135
0.21013526 0.28994418 0.79353507 135 143 150
0.20359786 0.28028550 0.80002221 121 128 134
0.21003765 0.31605988 0.77747457 139 143 147
0.21009822 0.30561907 0.78348768 139 143 149
0.21003090 0.33026255 0.76981401 9 9 10
0.20991448 0.35627047 0.75858377 0 0 0
0.21001991 0.34636023 0.76285575 0 0 0
0.21002738 0.37000156 0.75323634 0 0 0
0.21000466 0.38991366 0.74543019 0 0 0
0.20999922 0.41046499 0.73703819 0 0 0
0.21026198 0.40160338 0.74069100 0 0 0
0.22977449 -0.58572480 0.87610627 0 0 0
0.23010481 -0.56988399 0.87736551 0 0 0
0.23034089 -0.55189156 0.87909841 0 0 0
0.22984238 -0.54208860 0.88018382 0 0 0
0.23515304 -0.54399071 0.96811240 110 124 132
0.23066479 -0.54767108 0.99239233 110 126 132
0.22970815 -0.53000355 0.88166175 0 0 0
0.23632697 -0.52004122 0.91926366 93 110 117
0.23473326 -0.52280377 0.92556506 102 121 125
0.22593404 -0.53432626 0.95129404 97 109 118
0.22735666 -0.53921957 0.96198213 109 124 135
0.23001144 -0.53049613 0.99373623 110 124 131
0.22986313 -0.51173107 0.88514496 0 0 0
0.23081337 -0.51600344 0.91212568 49 58 61
0.23053066 -0.50970466 0.99357900 111 123 130
0.23052518 -0.48994324 0.99355475 107 122 131
0.23048852 -0.47012008 0.99339701 107 119 131
0.23043473 -0.45026934 0.99316499 105 117 131
0.23037201 -0.43041132 0.99289450 104 117 130
0.23029320 -0.40967733 0.99255461 100 116 128
0.23023599 -0.38985143 0.99230799 100 113 127
0.23018020 -0.37003786 0.99206755 100 112 128
0.23013191 -0.35024522 0.99185960 97 111 127
0.23007674 -0.33045108 0.99162174 99 109 126
0.23000319 -0.30978487 0.99130468 97 109 127
0.22992534 -0.28998262 0.99096919 96 108 129
0.22984939 -0.27019607 0.99064186 94 108 127
0.22978589 -0.24957999 0.99036804 93 106 126
0.22973248 -0.22984111 0.99013777 91 103 125
0.22967758 -0.21011021 0.98990107 90 102 125
0.22960339 -0.18951758 0.98958118 90 100 123
0.22950197 -0.16977285 0.98914405 88 99 122
0.22979935 -0.15026227 0.98866490 86 95 115
0.23011784 -0.12946143 0.98811814 59 60 69
0.23005799 -0.10979203 0.98786136 56 59 68
0.22997457 -0.09012430 0.98750318 56 57 65
0.22991592 -0.06953103 0.98692098 55 57 65
0.23046669 -0.04993836 0.98595767 65 65 75
0.23009519 -0.02598978 0.97647503 120 120 128
0.22940184 -0.03633662 0.98197537 114 114 127
0.23012732 -0.00972377 0.96781715 119 120 129
0.23003549 0.01270761 0.95584583 139 140 143
0.22965457 0.00281989 0.96116275 135 136 140
0.23008925 0.02981021 0.94670812 148 148 157
0.23002057 0.05125254 0.93532209 151 154 160
0.22965722 0.04097225 0.94075823 143 145 154
0.23005239 0.06992011 0.92547643 145 149 160
0.22995510 0.08956005 0.91488233 129 133 149
0.23036566 0.11815743 0.89899164 121 126 139
0.22992339 0.10799375 0.90467329 129 135 147
0.23001585 0.12989458 0.89234042 137 142 153
0.22998242 0.15567754 0.87734112 163 166 175
0.22988458 0.14532275 0.88346116 159 162 171
0.23014439 0.17010197 0.86878032 160 163 171
0.22998819 0.19252493 0.85527900 155 159 167
0.22960250 0.18205960 0.86164835 156 159 165
0.22997537 0.21856656 0.83912927 167 169 175
0.22995853 0.20859950 0.84547267 157 160 168
0.23005399 0.23024033 0.83162977 162 166 172
0.22989379 0.25425979 0.81629281 144 146 150
0.22997492 0.24413178 0.82265759 166 168 172
0.22997636 0.26990318 0.80625677 136 139 142
0.23000337 0.28968000 0.79359574 146 150 155
0.23014252 0.31592463 0.77741601 136 144 150
0.22996507 0.30554946 0.78341786 143 147 153
0.23003552 0.33017412 0.76974568 15 16 16
0.23009041 0.35610349 0.75846104 0 0 0
0.22994303 0.34630165 0.76274453 0 0 0
0.23000040 0.36991532 0.75303356 0 0 0
0.22998978 0.38988412 0.74509988 0 0 0
0.23020038 0.40994854 0.73691819 0 0 0
0.22914310 0.40115327 0.74053500 0 0 0
0.24987480 -0.58566210 0.87585686 0 0 0
0.24978092 -0.56979754 0.87723292 0 0 0
0.25031139 -0.55201426 0.87909502 0 0 0
0.25037681 -0.54206003 0.88025950 0 0 0
0.24649937 -0.54822715 0.97207087 106 125 131
0.25047577 -0.54971463 0.99238336 112 126 132
0.24981903 -0.53017951 0.88199755 0 0 0
0.24302060 -0.52674106 0.92969686 79 95 96
0.25403904 -0.53723206 0.94675887 101 119 124
0.24969557 -0.53022317 0.99359710 111 126 131
0.24945250 -0.51372107 0.88557131 1 1 1
0.25206345 -0.51507872 0.90276810 71 87 91
0.25022230 -0.50958700 0.99335030 109 123 131
0.25023601 -0.48986916 0.99340451 109 122 130
0.25019612 -0.47004869 0.99324616 106 120 129
0.25014170 -0.45020810 0.99302998 104 118 129
0.25007804 -0.43036044 0.99277728 105 116 130
0.25000071 -0.40964239 0.99247003 101 115 129
0.24993880 -0.38981853 0.99222425 102 113 128
0.24988079 -0.37001037 0.99199384 99 112 128
0.24982438 -0.35021358 0.99176992 99 111 127
0.24976579 -0.33042295 0.99153736 99 110 126
0.25054224 -0.30975814 0.99121914 98 108 129
0.25045972 -0.28996019 0.99089256 97 108 128
0.25037893 -0.27017723 0.99057287 96 107 127
0.25031181 -0.24956469 0.99030727 95 105 126
0.25025601 -0.22982919 0.99008653 92 103 124
0.25019858 -0.21010130 0.98985930 90 103 125
0.25012189 -0.18951274 0.98955594 88 101 123
0.25001027 -0.16976779 0.98911442 88 99 121
0.24988665 -0.15003336 0.98862533 86 94 113
0.24974281 -0.12945344 0.98805641 59 61 70
0.24967059 -0.10978202 0.98777085 57 58 68
0.24957658 -0.09011478 0.98739886 55 57 65
0.24949841 -0.06966071 0.98682999 55 57 66
0.25018725 -0.04980550 0.98578760 66 67 77
0.24990677 -0.02663680 0.97658386 112 112 121
0.24993587 -0.03701048 0.98210485 114 117 130
0.25007460 -0.00965668 0.96756397 116 118 127
0.25025481 0.01252837 0.95571515 140 141 144
0.24887787 0.00266858 0.96103418 126 127 134
0.25000268 0.02980766 0.94645172 149 151 156
0.25027993 0.05094232 0.93518532 153 155 162
0.24860435 0.04081650 0.94057479 141 142 148
0.25002764 0.06983137 0.92521751 150 153 162
0.25000678 0.08964882 0.91452113 136 140 155
0.24975794 0.11761992 0.89898127 130 134 146
0.25006184 0.10750105 0.90463294 128 133 149
0.24993744 0.12980502 0.89210610 121 126 141
0.24995342 0.15575505 0.87703987 167 169 177
0.25005077 0.14535075 0.88319510 154 157 164
0.25006629 0.17064562 0.86820970 168 172 179
0.24999546 0.19238239 0.85508801 160 165 172
0.24989006 0.18263655 0.86102303 173 176 183
0.24976546 0.21852853 0.83898336 166 167 172
0.25001676 0.20847760 0.84530788 166 169 175
0.25005378 0.23025913 0.83148567 154 158 166
0.24997410 0.25423923 0.81621226 149 155 162
0.24998265 0.24413208 0.82265858 121 126 142
0.25959292 0.27889490 0.79999977 165 166 168
0.24993711 0.26982576 0.80597577 160 165 170
0.25002994 0.28962671 0.79327641 150 154 159
0.24999928 0.31532630 0.77734065 131 136 144
0.24996903 0.30497372 0.78348427 162 166 169
0.25000201 0.33005937 0.76942707 16 17 18
0.25032472 0.35556598 0.75817151 0 0 0
0.24982003 0.34572337 0.76252948 0 0 0
0.25018243 0.36998282 0.75252048 0 0 0
0.24986693 0.38989208 0.74457581 0 0 0
0.25018670 0.40925911 0.73666185 0 0 0
0.24806619 0.40050420 0.74030469 0 0 0
0.27020079 -0.58526837 0.87558264 0 0 0
0.26982549 -0.56986871 0.87704052 0 0 0
0.27240583 -0.56097954 0.99093129 110 127 134
0.26983864 -0.55248130 0.87902607 0 0 0
0.27099754 -0.54267874 0.88027614 0 0 0
0.26636823 -0.54342360 0.95475815 107 128 134
0.27276796 -0.55501734 0.97572583 105 127 132
0.26968100 -0.55012936 0.99197757 110 126 132
0.26989658 -0.52973528 0.88233558 0 0 0
0.27079357 -0.52479709 0.91235054 19 24 25
0.27093759 -0.53240354 0.92975507 89 111 114
0.26993211 -0.53012185 0.99322360 111 124 132
0.26922175 -0.51543402 0.88595271 1 1 1
0.27389060 -0.51945444 0.90169680 55 64 68
0.26991355 -0.50948604 0.99315413 109 123 132
0.26993783 -0.48978966 0.99324324 106 123 129
0.26989851 -0.46997868 0.99309835 107 119 128
0.26984737 -0.45015366 0.99290992 105 117 131
0.26977809 -0.43030739 0.99265493 105 116 129
0.26969964 -0.40959951 0.99236624 103 113 130
0.26963579 -0.38978197 0.99213125 100 112 130
0.26957425 -0.36997718 0.99190484 99 112 128
0.26951243 -0.35018093 0.99167742 100 110 126
0.26944911 -0.33039196 0.99144445 100 109 128
0.27022632 -0.30973714 0.99115216 96 109 127
0.27014381 -0.28994754 0.99084939 96 108 128
0.27006092 -0.27016968 0.99054522 94 107 128
0.26998871 -0.24955793 0.99028040 96 104 128
0.26992423 -0.22981933 0.99004397 93 103 125
0.26986150 -0.21009168 0.98981391 90 103 125
0.26992931 -0.18937461 0.98950099 91 102 124
0.27051060 -0.16975839 0.98905964 87 99 123
0.27037165 -0.15002225 0.98855188 86 93 112
0.27021303 -0.12944244 0.98797195 59 61 71
0.27012824 -0.10976996 0.98766201 57 59 68
0.27002591 -0.09010462 0.98728798 56 57 66
0.26987614 -0.06958875 0.98674026 57 57 67
0.26974852 -0.05004602 0.98574758 67 69 78
0.26988109 -0.02664808 0.97634048 108 111 121
0.27026096 -0.03700438 0.98194239 129 135 142
0.27000241 -0.00971897 0.96734537 116 119 126
0.27009446 0.01187256 0.95584591 139 139 144
0.26952407 0.00198988 0.96115774 121 122 129
0.26997106 0.02978842 0.94621193 143 145 150
0.26998762 0.05051170 0.93514159 157 159 167
0.27027560 0.04015481 0.94064606 132 133 145
0.27465752 0.07902074 0.91992597 160 165 173
0.26984759 0.06954147 0.92507073 152 154 163
0.27004223 0.08961108 0.91423045 142 146 160
0.26986858 0.11758111 0.89868473 126 129 142
0.27001712 0.10737261 0.90439388 127 132 144
0.27000524 0.12981713 0.89178660 118 124 139
0.27020159 0.15553627 0.87689654 170 172 179
0.27002927 0.14519996 0.88298786 147 149 159
0.27000446 0.17055954 0.86800148 157 160 169
0.27018497 0.19205386 0.85501835 167 169 175
0.26896680 0.18229473 0.86098930 164 166 173
0.26998040 0.21845837 0.83871401 171 173 178
0.27000242 0.20842585 0.84506391 158 160 166
0.26996253 0.23018002 0.83125889 161 166 172
0.27005082 0.25406615 0.81600536 154 157 164
0.26979518 0.24398883 0.82237103 163 168 175
0.27147260 0.27896795 0.79990453 132 133 138
0.26993693 0.26927151 0.80607684 148 152 159
0.27010685 0.28993518 0.79279754 138 143 147
0.27010398 0.31515441 0.77703896 134 140 145
0.26968168 0.30517581 0.78298455 153 156 159
0.26996589 0.32991010 0.76891767 26 26 27
0.27040043 0.35463176 0.75783021 0 0 0
0.26984344 0.34475326 0.76221583 0 0 0
0.26991912 0.37007082 0.75183776 0 0 0
0.27265319 0.39982578 0.73976980 0 0 0
0.26996831 0.38991477 0.74390026 0 0 0
0.26998854 0.40870120 0.73621756 0 0 0
0.26062367 0.40000494 0.74010128 0 0 0
0.29008225 -0.58519325 0.87531183 0 0 0
0.29017323 -0.56945155 0.87692459 0 0 0
0.29935470 -0.56136049 0.97443956 103 119 122
0.29112873 -0.56300813 0.99054652 110 127 134
0.28977521 -0.55269440 0.87896825 0 0 0
0.29020582 -0.54286773 0.88027424 0 0 0
0.29938234 -0.54338079 0.93760329 55 64 68
0.28798422 -0.55081171 0.95900571 106 120 127
0.29194417 -0.55461010 0.96658389 112 126 134
0.29015320 -0.54999927 0.99192323 112 125 133
0.29005875 -0.52961986 0.88281635 0 0 0
0.28613477 -0.52897253 0.91492362 45 54 58
0.28915103 -0.53700266 0.93076262 89 107 115
0.29045750 -0.52998429 0.99296536 109 124 131
0.28864945 -0.51786348 0.88606468 1 2 2
0.29039245 -0.50945667 0.99296862 106 122 129
0.29056096 -0.48978479 0.99307639 104 120 130
0.29045868 -0.46991750 0.99296922 107 119 130
0.29040909 -0.45010368 0.99279972 104 117 130
0.29033611 -0.43026194 0.99255015 102 115 129
0.29025537 -0.40956146 0.99227412 101 114 129
0.29018863 -0.38974844 0.99204592 100 113 128
0.29012260 -0.36994558 0.99182014 97 112 128
0.29005769 -0.35015292 0.99159813 98 111 126
0.28999056 -0.33036669 0.99136859 98 109 127
0.28990999 -0.30971866 0.99109311 96 110 126
0.28982597 -0.28993476 0.99080586 98 108 127
0.28974481 -0.27016500 0.99052823 95 106 127
0.28966717 -0.24955353 0.99026284 96 105 126
0.28959407 -0.22981217 0.99001306 92 104 126
0.28952625 -0.21008474 0.98978119 90 103 126
0.28956765 -0.18961673 0.98947000 90 101 124
0.29015164 -0.16974773 0.98899736 89 100 123
0.28999745 -0.15001014 0.98847181 85 91 111
0.28982558 -0.12943117 0.98788600 58 60 71
0.29051344 -0.10969416 0.98756598 56 59 68
0.29047507 -0.09009583 0.98719193 55 58 66
0.29031924 -0.06958323 0.98666217 56 58 66
0.29000551 -0.04992079 0.98559602 70 70 80
0.28993353 -0.02666655 0.97604135 111 113 125
0.29034593 -0.03693973 0.98166379 138 140 144
0.29004225 -0.00969837 0.96702574 115 120 129
0.29017134 0.01188285 0.95557319 138 139 145
0.28979713 0.00202245 0.96084604 116 117 128
0.29006420 0.02969362 0.94600732 143 145 152
0.29005687 0.05030579 0.93503020 152 154 163
0.28971366 0.04014484 0.94041234 145 147 152
0.28971174 0.07900690 0.91976478 165 172 180
0.28992330 0.06902441 0.92511592 154 156 163
0.29020712 0.09015128 0.91366111 141 145 157
0.29067811 0.11727776 0.89857741 127 132 144
0.28955023 0.10766897 0.90396785 134 138 152
0.29007081 0.12972607 0.89156331 130 136 147
0.28999849 0.15491152 0.87706685 163 166 173
0.29016283 0.14455791 0.88311801 152 155 164
0.29003118 0.17051512 0.86777774 167 170 178
0.29004835 0.19167372 0.85496592 160 163 170
0.28979612 0.18184617 0.86097736 160 162 168
0.29019816 0.21840007 0.83849018 168 171 175
0.28991454 0.20836470 0.84481569 160 164 170
0.28999179 0.23010128 0.83102177 162 167 172
0.28998711 0.25345450 0.81601888 155 160 165
0.28990341 0.24339855 0.82257765 153 155 158
0.28972716 0.27931156 0.79921456 140 140 141
0.29001346 0.26906882 0.80576346 160 162 165
0.28993661 0.29046866 0.79191296 160 165 168
0.28996437 0.31447703 0.77690646 156 161 165
0.28993075 0.30467384 0.78274861 151 154 159
0.29012960 0.32984136 0.76822257 36 37 38
0.29017297 0.35400959 0.75731939 0 0 0
0.28940416 0.34384709 0.76177467 0 0 0
0.28994764 0.37025453 0.75107646 0 0 0
0.29063703 0.39896402 0.73953748 0 0 0
0.28994354 0.38900055 0.74358823 0 0 0
0.29000986 0.40840642 0.73565517 0 0 0
