ply
format ascii 1.0
element vertex 817
property float x
property float y
property float z
property uchar red
property uchar green
property uchar blue
end_header
-0.52180130 -0.22112549 0.69921815 56 48 48
-0.52166924 -0.22380295 0.70066357 60 51 51
-0.52133911 -0.21623320 0.69746865 60 52 50
-0.51710386 -0.22101153 0.69885779 60 52 52
-0.51334264 -0.21065353 0.69468326 67 58 55
-0.51387641 -0.19929807 0.69003667 68 60 54
-0.39078214 -0.04383602 0.73072354 117 101 91
-0.39108730 -0.03632965 0.73318088 114 96 84
-0.38190514 0.33726633 1.47048128 87 95 110
-0.38229287 0.34128857 1.47688854 89 95 112
-0.36169027 -0.60362500 1.27783680 78 67 62
-0.36207278 -0.61109181 1.28423938 83 66 64
-0.37316853 0.33648474 1.47448523 100 105 122
-0.36829414 0.33699916 1.48047302 125 130 142
-0.36135852 0.35498214 1.43926084 100 104 116
-0.36803245 0.34770604 1.47568498 111 120 133
-0.37085535 0.35165877 1.48184240 106 113 129
-0.36411134 0.36098730 1.47048585 76 80 102
-0.37044829 0.36217399 1.48227235 79 84 103
-0.34838496 -0.62340140 1.29160111 82 70 62
-0.35395899 -0.60252172 1.27783680 78 65 60
-0.34996816 -0.61020004 1.29061288 83 68 64
-0.35758707 -0.59862689 1.27503264 79 68 62
-0.34554496 -0.59665831 1.29422619 79 67 63
-0.34691936 -0.59514050 1.30113602 75 66 61
-0.35981116 0.33799952 1.47367787 141 145 158
-0.34112182 0.35688878 1.41719687 114 126 139
-0.34949301 0.35623521 1.42963372 119 124 139
-0.35296569 0.35455660 1.44973812 97 101 126
-0.35799898 0.35190740 1.46625570 91 97 120
-0.35025891 0.36627575 1.42806527 109 114 130
-0.33654293 -0.62502701 1.29346530 84 68 65
-0.33550063 -0.60956488 1.29693658 85 67 65
-0.33510794 -0.59880267 1.29245466 83 68 64
-0.33820060 0.35883781 1.41522300 99 108 123
-0.33961865 0.36279872 1.42115688 113 120 135
-0.29236743 -0.42213395 1.33970726 139 127 122
-0.28028908 -0.40904828 1.29461434 142 127 121
-0.29008015 -0.41103903 1.32922626 141 128 115
-0.28008825 -0.39421697 1.29368675 142 129 111
-0.28035602 -0.37333016 1.29492354 143 131 120
-0.26340079 -0.42356837 1.27567618 142 130 115
-0.26956036 -0.43071101 1.29110568 140 128 115
-0.27544458 -0.43742402 1.30700342 138 126 113
-0.26772702 -0.40958961 1.26866895 141 128 120
-0.27955475 -0.41801560 1.29122257 141 125 115
-0.26405090 -0.38774571 1.25466344 142 130 117
-0.26980517 -0.38985557 1.26504766 142 129 115
-0.27955475 -0.38342310 1.29122257 141 129 113
-0.26093113 -0.36132592 1.23477566 139 130 120
-0.26621706 -0.36938488 1.25408317 141 131 118
-0.27095537 -0.36980235 1.26592198 143 131 119
-0.27928901 -0.37636861 1.28999519 140 131 119
-0.26116921 -0.35845038 1.23590231 142 131 119
-0.26260553 -0.35612589 1.24269915 145 131 120
-0.26844400 -0.35782439 1.26002204 145 131 126
-0.25925076 -0.40715805 1.25768435 143 129 109
-0.20096113 0.21660030 0.95882863 133 139 145
-0.20124577 0.21856672 0.96018672 124 129 136
-0.20153123 0.22053869 0.96154869 111 113 126
-0.20028104 0.23860283 0.98818052 142 150 156
-0.20086665 0.24101348 0.99106997 135 143 150
-0.18778344 0.14840068 0.45400663 102 112 122
-0.18104244 0.18870984 0.99984050 121 132 145
-0.18504562 0.18931846 1.00522428 121 130 140
-0.18843245 0.21484923 0.94961841 126 132 145
-0.18702868 0.22315147 0.94822108 125 130 146
-0.19487741 0.23454804 0.97484148 133 139 149
-0.19827094 0.23721963 0.98245192 137 145 151
-0.19648657 0.24240364 0.98626823 107 111 124
-0.16808137 0.17920505 0.99984050 99 100 118
-0.17031191 0.17973524 1.00279856 96 98 113
-0.16984986 0.19040420 0.99658208 127 133 144
-0.16693563 0.18563081 1.00386354 117 122 137
-0.17868744 0.21828927 0.93760973 92 97 120
-0.17930754 0.20197106 0.94086352 170 175 183
-0.16685091 0.20019455 0.99252099 158 158 165
-0.15678751 0.17815399 0.99397629 114 126 145
-0.14415438 0.18039836 0.97819889 153 158 160
-0.15469565 0.18904885 0.99447680 141 143 152
-0.15942000 0.19136387 1.00242826 131 135 147
-0.15678751 0.20048809 0.99397629 109 112 130
-0.10014808 0.12870148 0.52549756 105 110 122
-0.10022148 0.14856108 1.47688854 136 144 151
-0.10044031 0.15400195 1.48011315 118 125 136
-0.10177465 0.17595784 1.47475278 134 140 158
-0.10077143 0.16989714 1.48499268 123 127 146
-0.08270722 -0.28149301 0.60560273 91 105 118
-0.08556759 -0.27374297 0.60639525 93 106 116
-0.09111564 0.11437135 0.51455955 135 139 147
-0.09059716 0.12222404 0.51812558 132 138 151
-0.09626268 0.12539516 0.52197704 124 126 137
-0.09505704 0.14792180 1.47597120 133 140 152
-0.08658534 0.15493559 1.48795520 134 136 150
-0.08270120 0.14502367 1.50643373 122 120 147
-0.08129010 0.17562121 1.45783186 165 170 185
-0.08747348 0.17563251 1.47273552 124 128 143
-0.08987576 0.16804491 1.48702227 137 141 154
-0.07505828 -0.28167036 0.60342332 87 108 115
-0.07620945 -0.27730912 0.60254093 91 107 117
-0.07632354 0.15103278 1.49382033 126 127 147
-0.07766301 0.14534594 1.50978136 144 141 163
-0.07826541 0.17449544 1.44848680 189 194 206
-0.07657180 0.17174764 1.47095958 156 159 171
-0.07665456 0.16513446 1.48660902 124 129 143
-0.04122308 0.25698374 0.67830143 196 202 201
-0.04366075 0.25463133 0.68914371 196 202 203
-0.04261446 0.26054102 0.67993164 201 205 204
-0.04396606 0.26041058 0.68267053 199 203 204
-0.02505647 0.25707135 0.63336980 164 167 170
-0.03641702 0.25447956 0.67544551 195 200 199
-0.03808827 0.25267731 0.68675709 198 203 204
-0.02536449 0.26113836 0.63429391 170 171 173
-0.02111007 0.26570472 0.64348279 151 153 155
-0.00598047 0.13757810 0.49454778 187 191 195
-0.00575059 0.14380825 0.49012799 168 171 175
-0.00028031 0.19281002 0.62078043 173 178 181
-0.01112526 0.25868157 0.63575460 149 153 159
-0.01104395 0.26558078 0.63605706 120 123 125
-0.01554193 0.27109751 0.64268640 59 60 62
-0.01125466 0.28183991 0.65042731 0 0 0
0.00441717 0.13848339 0.49660423 169 172 176
0.00792291 0.13802322 0.50178201 175 178 183
0.01021858 0.14437739 0.49425904 156 159 166
0.00756973 0.14006300 0.50115224 171 173 174
0.01983239 0.19545988 0.50461408 162 167 172
0.00789787 0.19113299 0.61718790 153 155 163
0.00663180 0.18672026 0.62375229 147 149 156
0.03468557 0.13497030 0.45881052 147 147 149
0.03483211 0.13878963 0.46242700 134 137 146
0.03484126 0.14583014 0.45946328 156 158 162
0.03391295 0.14482882 0.46367858 154 157 164
0.03132267 0.19152812 0.50860933 150 154 159
0.03573380 0.18406816 0.52025467 148 149 152
0.02622282 0.20388885 0.50495628 164 171 176
0.04544281 -0.21131270 0.49175147 98 110 123
0.05237726 0.03482347 0.47328127 131 134 148
0.05488667 0.04301627 0.47401902 127 131 148
0.04049703 0.13943487 0.46177918 147 158 165
0.04030484 0.14433366 0.45958769 157 158 158
0.04067203 0.14254085 0.46150557 158 162 166
0.04849905 0.17944785 0.49748041 157 164 173
0.04647688 0.17935054 0.50365349 138 137 149
0.04815340 0.18224051 0.49982814 172 178 180
0.04385611 0.18354401 0.50854148 153 156 163
0.05751460 0.51780069 1.98795259 140 141 156
0.07969173 0.19687784 0.51378828 155 160 166
0.07245080 0.23269628 0.71734901 143 146 152
0.07310845 0.23461102 0.72229153 146 150 154
0.07809117 0.25808435 0.69909812 158 160 163
0.07853976 0.24882061 0.71539980 132 133 140
0.07221066 0.24677971 0.72440410 159 162 165
0.07706106 0.26411118 0.69778065 134 134 136
0.07404652 0.26462223 0.70248541 146 146 147
0.07324220 0.29030141 0.73817671 137 140 144
0.06942964 0.29464482 0.74757986 149 151 155
0.06918229 0.30454943 0.75122768 122 125 135
0.06548094 0.30963832 0.76167718 121 121 131
0.07621590 0.44752793 1.74714386 150 158 165
0.07649966 0.45575832 1.76536735 153 163 171
0.07319539 0.45386620 1.78392589 144 147 154
0.07812852 0.46350622 1.75619650 176 180 186
0.07860451 0.46428787 1.76689577 170 178 182
0.07560123 0.46959771 1.79232983 165 172 179
0.07417133 0.47710240 1.80771160 179 181 189
0.07187755 0.47635594 1.82884785 155 163 174
0.07259555 0.47313578 1.84711671 144 149 158
0.07541428 0.48360456 1.81255368 177 178 181
0.07523621 0.49032235 1.83380409 174 176 181
0.07259609 0.49229935 1.84713048 176 178 181
0.07026464 0.49194349 1.87005001 160 166 175
0.06906962 0.49238510 1.89041150 151 156 170
0.07770122 0.50714073 1.85470419 148 148 156
0.07419841 0.51021875 1.86748129 156 156 163
0.07040596 0.51250245 1.88828790 167 169 173
0.06942630 0.51787645 1.93683386 172 175 182
0.06757785 0.50963900 1.94797579 152 157 172
0.06829865 0.50938918 1.96872290 147 150 164
0.06469961 0.51574334 1.99772052 138 141 152
0.07359825 0.52012944 1.87262940 133 131 147
0.06960664 0.52503859 1.89621210 149 149 158
0.06864182 0.53188378 1.91494870 141 140 153
0.06942630 0.52791947 1.93683386 174 175 177
0.06853574 0.53402257 1.95922494 176 177 179
0.06732918 0.53620231 1.97348845 178 179 183
0.06619542 0.53577676 1.99091047 177 181 184
0.06833393 0.54260817 1.95359498 153 156 166
0.06557247 0.54603627 1.97206044 160 162 168
0.06257731 0.54913201 1.99297903 166 167 173
0.09696900 -0.12535764 0.67553931 85 97 119
0.09762536 -0.11565878 0.67387771 82 95 118
0.08445328 0.19847555 0.49992025 173 176 177
0.08402462 0.19659541 0.51101432 157 160 165
0.09618177 0.22919697 0.69888643 165 167 171
0.08867074 0.23243243 0.70907608 150 155 165
0.08399814 0.22789696 0.72169947 103 107 127
0.08495872 0.25552645 0.69585328 155 157 162
0.08832656 0.24473165 0.70832565 143 149 158
0.08066628 0.24509077 0.72090608 127 131 137
0.08256322 0.26385424 0.69494421 125 127 133
0.08686513 0.44447979 1.67587858 164 165 172
0.08535081 0.45021349 1.69473805 164 167 173
0.08423765 0.45299143 1.71078643 165 169 175
0.08218560 0.45451949 1.72669370 169 175 179
0.08067676 0.45468947 1.74565454 164 175 180
0.08162216 0.46507587 1.73377258 165 167 170
0.08116397 0.47261256 1.75619650 164 165 168
0.08288173 0.48571461 1.79336464 154 157 161
0.08450044 0.49399712 1.80909996 148 151 158
0.08128736 0.49803722 1.82720172 143 145 151
0.08585672 0.50135221 1.81254506 137 140 151
0.08136059 0.50481075 1.82884785 130 130 142
0.10281011 -0.12399986 0.67031173 86 98 121
0.10209855 -0.11497757 0.66887378 85 95 119
0.11155955 0.17669948 0.85067935 146 151 164
0.11222288 0.19014210 0.85402003 171 175 183
0.11823567 0.21921380 0.64512126 136 140 148
0.11912038 0.20832784 0.81330785 157 161 168
0.11950684 0.21934846 0.82569045 168 174 174
0.10848494 0.20138628 0.85476918 180 182 190
0.11336137 0.22401901 0.63942013 125 129 136
0.11617227 0.22339061 0.64297211 126 131 138
0.11926951 0.22840704 0.82709111 125 128 142
0.10007498 0.24572006 0.70835096 115 116 134
0.11924129 0.43393755 1.87781680 149 153 165
0.11770079 0.43562704 1.89224875 146 148 159
0.11696454 0.43288193 1.91136265 146 148 156
0.11563279 0.43837526 1.92582905 152 151 159
0.11778270 0.44412708 1.89357477 142 148 157
0.11465607 0.44952247 1.90956205 149 153 162
0.11412556 0.45065965 1.92860365 138 141 151
0.11237291 0.45067471 1.95023639 141 142 148
0.10913139 0.45494545 1.96871185 146 146 153
0.11465561 0.46107477 1.90955448 175 181 182
0.11241202 0.46765749 1.92767878 171 175 177
0.11337801 0.46384573 1.94424403 165 172 176
0.11134853 0.47003099 1.96776537 168 173 178
0.10921521 0.46866921 1.99087608 159 163 170
0.12868421 0.19932690 0.79424965 151 158 165
0.12122772 0.19083337 0.85426288 159 161 168
0.12312623 0.21622115 0.63670295 119 122 134
0.12089992 0.21748952 0.64262489 133 136 147
0.12896599 0.20286432 0.79600625 146 150 157
0.12519879 0.21093585 0.80929431 146 148 155
0.12049369 0.21854986 0.82268429 159 165 165
0.12243676 0.22225942 0.63738819 122 127 142
0.12055965 0.22273513 0.64145855 119 124 135
0.12581705 0.22488047 0.81741588 136 137 148
0.12265714 0.22793045 0.82316344 118 121 135
0.12958574 0.43039478 1.85554647 150 156 165
0.12483057 0.43277158 1.86439805 148 153 163
0.15471992 0.03601913 0.67238989 152 155 162
0.15461247 0.04690733 0.66916084 136 140 152
0.14855068 0.17950997 0.46272513 165 165 171
0.14884934 0.18964273 0.46636063 105 109 116
0.15996157 0.37972325 1.89885676 166 173 184
0.17305424 -0.03361272 0.45211260 55 58 66
0.17279730 0.01231424 0.61578616 144 145 149
0.16173043 0.03563018 0.67525075 150 153 160
0.16193448 0.04703924 0.66947413 154 157 165
0.17984973 0.17980050 0.69957876 168 175 181
0.17829325 0.17736819 0.70784041 153 156 163
0.17941800 0.18178015 0.69789940 165 172 178
0.17778708 0.18157987 0.70842549 158 162 172
0.17872691 0.23182345 0.64843611 151 154 159
0.17966905 0.24340867 0.65900064 161 170 173
0.17960708 0.24315875 0.66297632 167 176 177
0.17831501 0.27448171 0.67772810 135 138 140
0.17650760 0.27635116 0.68395882 164 166 167
0.17838862 0.28480745 0.67839127 27 27 27
0.17689355 0.29065895 0.68552264 12 12 12
0.17320378 0.37057939 1.93683386 165 172 182
0.17420235 0.37776107 1.94797310 165 171 184
0.16116570 0.39140478 1.91315063 171 176 186
0.17057683 0.39205857 1.93545434 173 178 188
0.17240004 0.39012622 1.94931395 174 180 189
0.17621293 0.40551080 1.93315514 176 177 183
0.17160528 0.40661121 1.94910071 174 177 183
0.18570360 0.17812004 0.69562188 149 151 162
0.18227215 0.17596119 0.70114788 137 140 152
0.19067793 0.18360013 0.67789185 148 147 160
0.18592152 0.18305925 0.68980469 156 158 164
0.18353880 0.23571867 0.65106227 168 171 173
0.18874247 0.24410223 0.65613196 164 168 175
0.18637150 0.24949964 0.66416148 156 163 170
0.18088246 0.27551973 0.67631392 122 123 131
0.18043356 0.28836001 0.67902370 0 0 0
0.19441551 0.35315272 1.91494870 133 135 151
0.19524106 0.35617021 1.93132362 136 139 150
0.19356301 0.36657779 1.91016393 149 149 155
0.19059972 0.37138966 1.93042043 157 157 165
0.18648420 0.36898420 1.94965886 164 167 174
0.18823338 0.38785036 1.93237281 163 164 170
0.18783569 0.39178626 1.94477560 166 168 175
0.18413779 0.40262212 1.94611530 179 179 186
0.21640572 0.17512618 0.53396756 149 152 157
0.21826967 0.17020462 0.54130465 140 141 148
0.21709129 0.18500450 0.53177579 152 155 157
0.20275342 0.35617113 1.93131578 142 143 163
0.21123511 0.35924158 1.94796503 154 155 173
0.20364464 0.36670348 1.91225159 149 148 155
0.20898644 0.36985148 1.92721372 145 145 153
0.21166655 0.36958244 1.94575181 143 143 153
0.20333272 0.38062239 1.93683386 150 150 159
0.20883215 0.39154688 1.95139617 159 161 167
0.21646811 0.39208197 1.96490383 157 157 162
0.20449598 0.40357142 1.94797579 159 160 167
0.22310582 0.17215017 0.53658334 160 164 167
0.22306472 0.16976931 0.54058412 150 151 156
0.22707996 0.19165430 0.53244081 148 151 157
0.23882385 0.19769604 0.54029644 152 156 160
0.23348468 0.20031334 0.53730325 149 150 154
0.23876038 0.20044433 0.54015285 166 167 171
0.25877679 0.12779585 0.45568061 165 170 175
0.24003112 0.19917469 0.53673148 169 173 176
0.27373414 -0.34780821 0.66736535 99 116 126
0.26229051 0.13006085 0.45562104 165 168 172
0.27055875 0.13620019 0.46484856 148 151 155
0.27363612 0.14117284 0.46753193 133 134 137
0.27160778 0.19769604 0.95064628 165 167 175
0.26178402 0.19865145 0.96018672 149 150 158
0.27285161 0.20267297 0.95566332 170 173 180
0.27086732 0.21191596 0.96883794 145 149 158
0.26407549 0.21144186 0.98103017 171 173 173
0.27389965 0.22509274 0.97405226 156 159 164
0.26707643 0.22875878 0.99173350 165 170 177
0.28311607 -0.34872224 0.66901120 100 115 127
0.28869484 0.13767575 0.59543959 142 148 159
0.29068154 0.14734646 0.59612995 165 171 175
0.28810906 0.14820552 0.60184385 162 168 175
0.28018400 0.19970769 0.94942838 167 171 178
0.28133890 0.20552319 0.95574293 172 175 183
0.28305213 0.21493427 0.96621536 162 168 177
0.28199579 0.22376644 0.97073083 141 145 153
0.29982802 0.29977676 0.72813636 155 159 161
0.29932360 0.30210824 0.72882882 163 166 166
0.29496545 0.36671339 1.93407482 166 167 177
0.29541880 0.37639768 1.95546087 156 154 166
0.29457539 0.38417606 1.95922494 133 135 146
0.29318221 0.39229618 1.97021733 126 127 142
0.28460233 0.39637777 1.98213995 121 123 130
0.29629785 0.40205410 1.97636104 124 123 142
0.28429160 0.40097618 1.98795259 133 136 144
0.30166031 0.15182619 0.59731018 153 156 161
0.31994623 0.18281804 0.49265397 169 170 172
0.30453084 0.27506281 0.71329993 157 160 162
0.30467728 0.27587755 0.72321682 154 158 161
0.30731966 0.28523798 0.71184441 166 170 171
0.30429422 0.29224352 0.73108579 157 164 168
0.30610561 0.29480120 0.74536528 153 161 166
0.30131980 0.30063405 0.73484796 154 159 162
0.30461492 0.30196734 0.74959929 141 149 155
0.30790755 0.30732771 0.76477188 142 147 154
0.30033019 0.35977241 1.91494870 179 180 184
0.30885519 0.36875131 1.88994113 144 146 156
0.30556749 0.37396895 1.90633612 146 146 152
0.30434754 0.37258895 1.92995194 164 164 168
0.30366237 0.37494856 1.94910071 171 171 176
0.30137253 0.37595013 1.96490383 168 167 174
0.31158461 0.38296472 1.90956457 116 114 135
0.30928020 0.38584851 1.92948687 126 126 136
0.30721942 0.38875084 1.95247222 144 145 152
0.30440504 0.39306535 1.96744619 137 137 149
0.31314194 0.40079609 1.95357883 158 161 175
0.30821998 0.40411776 1.97253644 152 155 168
0.30315965 0.40579919 1.98213995 139 142 156
0.33954744 0.10251690 0.55851035 150 152 160
0.33770515 0.10575027 0.57395699 172 176 179
0.33708549 0.10913405 0.58088416 180 183 186
0.33190416 0.17947488 0.49417154 138 140 144
0.33776794 0.17247949 0.79052707 163 168 174
0.33070493 0.18327545 0.49548182 135 138 144
0.33052280 0.18900066 0.50152515 157 159 161
0.33345446 0.37118825 1.87781680 151 156 164
0.33222166 0.37463500 1.89304290 137 143 157
0.32778039 0.37711049 1.90776650 125 127 142
0.33180127 0.38247034 1.89620471 133 139 151
0.32918879 0.38186252 1.90955448 127 130 151
0.32737190 0.49688894 1.83462268 152 159 166
0.33622032 0.49980396 1.85723794 154 162 168
0.33345446 0.49560499 1.87781680 127 130 149
0.33952162 0.49812168 1.89355266 147 153 163
0.33484659 0.49927449 1.90419054 132 138 149
0.33622032 0.50301403 1.85723794 157 162 167
0.33900927 0.50555477 1.87264371 149 156 161
0.33344227 0.50209448 1.89620471 120 123 142
0.35752282 0.05828083 0.78788118 141 145 151
0.35103351 0.07671091 0.77820740 142 148 158
0.35542793 0.06831310 0.78450193 149 153 159
0.34189274 0.09806240 0.56623374 168 175 179
0.34132112 0.10569127 0.57054903 156 160 164
0.34522455 0.17353058 0.79009096 157 164 169
0.34769043 0.18208539 0.79487878 164 171 176
0.34943493 0.18555562 0.80097602 170 175 182
0.35924090 0.20634584 0.47105102 143 151 154
0.34798123 0.49530129 1.83462268 171 175 179
0.34961812 0.49752916 1.84881735 170 173 179
0.35631923 0.49840127 1.87005001 169 171 178
0.35279702 0.49610672 1.89461939 168 173 177
0.35250092 0.49515109 1.90907236 156 160 166
0.34754805 0.50672039 1.87006425 165 169 173
0.35013531 0.50466282 1.89049548 162 167 172
0.35246225 0.50256666 1.91045856 173 180 182
0.35130277 0.52231318 1.90419054 154 158 161
0.36330436 0.05917686 0.78801851 150 159 160
0.36226561 0.06885383 0.78591344 146 149 156
0.36724988 0.19653445 0.47653824 136 140 143
0.36991957 0.19356946 0.48231518 127 129 132
0.36344271 0.20342022 0.47343283 153 162 161
0.36334386 0.49304986 1.83214009 169 173 178
0.36389497 0.49932992 1.86747062 167 170 176
0.36108738 0.49464084 1.88652972 176 180 183
0.36731485 0.50163966 1.85216355 173 175 180
0.37100897 0.50796333 1.87350351 164 167 172
0.36946397 0.50714029 1.88935068 167 168 174
0.37763268 0.52231318 1.90419054 165 166 174
0.37958008 0.53432035 1.94796503 169 173 176
0.39993170 0.14189833 0.47537997 169 175 173
0.39593551 0.37034157 1.13549721 174 178 179
0.39537105 0.37829591 1.15681541 170 174 179
0.39607403 0.37887986 1.16476262 168 173 179
0.39808575 0.38257373 1.16477180 171 175 179
0.39685324 0.38652784 1.18512559 159 166 172
0.38217707 0.51456687 1.87005001 119 120 135
0.38426819 0.52121216 1.88827813 113 114 130
0.38640192 0.52799031 1.90687251 124 127 143
0.38294700 0.53432035 1.94796503 174 174 181
0.39117597 0.54088157 1.95547163 141 145 157
0.39194529 0.54780259 1.97636104 148 151 162
0.38852373 0.54964063 1.98504627 157 161 171
0.40289630 0.13607422 0.47694598 158 163 164
0.40241910 0.13402374 0.48138099 136 139 145
0.40243541 0.14084647 0.47646576 165 171 168
0.40314725 0.37694546 1.15192021 177 181 182
0.40888171 0.39096860 1.16985273 168 170 174
0.40412974 0.39337347 1.19073147 165 171 177
0.40423723 0.39687032 1.20407456 162 167 172
0.41515976 0.40081280 1.17894232 147 151 153
0.41078420 0.40380153 1.19201697 149 152 158
0.41129391 0.40911397 1.21108377 147 151 158
0.41278614 0.41515104 1.22688398 144 148 155
0.40988395 0.42116284 1.23253334 149 152 156
0.41543834 0.42502722 1.24384242 144 146 152
0.41684217 0.44229900 1.25257759 124 125 131
0.43476849 0.19571518 0.46775769 138 141 144
0.43826535 0.20238017 0.46667894 142 146 146
0.42208862 0.39744599 1.18409145 168 170 170
0.42451878 0.40424078 1.19264443 159 162 164
0.42231329 0.42435688 1.23253471 139 139 147
0.42825651 0.43249983 1.25303483 137 137 146
0.42892285 0.43810809 1.26296163 126 126 135
0.42233825 0.44180196 1.25690798 106 105 117
0.42688922 0.44211013 1.26567094 113 113 120
0.45962487 0.13698746 0.45767299 149 157 157
0.45329096 0.13895302 0.46308169 139 145 145
0.45903442 0.14185393 0.45799255 157 168 166
0.45411503 0.14319631 0.46302347 147 151 151
0.44305923 0.20485956 0.46965188 144 148 149
0.47969538 -0.50382668 1.11129808 95 116 125
0.47621475 -0.48492223 1.11305976 97 112 126
0.47214825 -0.48592272 1.12115692 95 111 124
0.47995013 -0.47912067 1.09869015 98 114 124
0.47793990 -0.47358508 1.10656939 100 112 123
0.46133363 0.13851519 0.45706783 135 141 142
0.46143500 0.13921078 0.46209473 155 159 159
0.46206694 0.14167745 0.45725664 158 165 165
0.46052230 0.14104503 0.46153559 148 156 156
0.48274774 -0.50308622 1.11391953 96 112 124
0.48218513 -0.48135835 1.09514034 97 115 124
0.48181760 -0.49016930 1.10966045 98 111 127
0.48453898 -0.46872205 1.09194588 98 112 122
0.48124438 -0.47373492 1.10406982 99 113 123
0.48640563 -0.45480063 1.09046910 99 114 120
0.49126351 -0.45403073 1.10793266 98 113 121
0.49609980 -0.45451522 1.12233746 102 110 125
0.53243840 0.23918377 0.60539077 139 145 146
0.53366875 0.24675159 0.61494459 120 127 129
0.53632643 0.24944600 0.62400565 115 120 124
0.54426749 -0.34358074 0.63505550 107 123 131
0.55134870 -0.33405396 0.63102839 107 125 130
0.54384954 0.23635076 0.62525973 148 154 156
0.54518518 0.24462098 0.63263656 153 155 155
0.54711432 0.24472157 0.64153968 168 170 170
0.54555150 0.29108436 1.19980860 155 160 163
0.55298182 0.29399503 1.20661706 151 155 161
0.54472911 0.30906494 1.19769328 166 174 180
0.55591641 0.30814957 1.20822296 170 177 183
0.56093961 -0.33290839 0.63295221 103 120 125
0.57115861 0.12647954 0.57939492 144 146 146
0.57632059 0.12960695 0.58346466 145 148 148
0.56320790 0.29493487 1.21384819 153 156 163
0.57086293 0.29632912 1.22142673 149 150 159
0.56500607 0.31284455 1.21378436 170 174 179
0.57156664 0.30653295 1.22142673 164 167 172
0.56425542 0.32120898 1.21704102 171 172 179
0.56734437 0.32131091 1.22142673 172 175 180
0.58443212 0.13601372 0.59124636 131 139 141
0.59261759 0.14491688 0.59666004 152 161 163
0.59412986 0.14743955 0.60340576 142 150 152
0.61556763 0.17709471 0.51308700 149 155 155
0.61828255 0.17408339 0.62576107 147 155 156
0.61767585 0.18567237 0.51484520 146 155 155
0.61932635 0.18586659 0.52025467 140 151 151
0.61976260 0.18318841 0.62825936 156 165 166
0.61567479 0.22609013 0.73623711 163 171 171
0.61430003 0.22912995 0.74765456 150 159 159
0.63293234 0.07480128 0.64827209 127 135 140
0.63732793 0.08066043 0.64862312 115 124 130
0.62254786 0.17710178 0.62743250 138 146 150
0.62169251 0.19315303 0.51681666 146 154 156
0.62411660 0.19886462 0.52096258 134 137 141
0.62266585 0.18306627 0.62791088 152 160 160
0.62476156 0.20165566 0.52248679 138 142 142
0.63620756 0.20927933 0.63410589 159 166 166
0.63898546 0.20942809 0.64352535 144 153 155
0.62221466 0.22693786 0.73592760 172 177 176
0.62197245 0.23489597 0.75207906 143 150 152
0.62429005 0.23893620 0.76082134 121 129 131
0.64155567 0.07303184 0.64808017 131 139 145
0.64338603 0.21628426 0.63256058 145 151 151
0.64169600 0.21253415 0.64616194 144 153 154
0.64617899 0.22204238 0.63673201 122 128 134
0.65166223 0.22782048 0.64982152 130 136 140
0.65654712 0.23100160 0.66607917 152 158 158
0.67931656 -0.06853663 0.63924662 57 60 64
0.67849802 -0.06917091 0.64214822 59 60 66
0.66395999 0.23419791 0.65063689 113 121 125
0.66667727 0.24284145 0.65273676 118 126 130
0.68193107 -0.07008991 0.63909895 57 60 64
0.68175581 -0.06908479 0.64123001 57 60 65
0.71648506 0.17513324 0.60941542 155 160 161
0.71876418 0.18264034 0.61108149 151 158 159
0.73377197 0.09539836 0.61237000 145 152 155
0.73343336 0.10312198 0.61172731 148 157 159
0.72746353 0.17756462 0.61051208 155 162 164
0.72623961 0.18249540 0.61260600 149 154 156
0.79541570 0.42581713 1.19768882 159 160 159
0.79883405 0.42228713 1.20335917 161 172 171
0.81093627 0.41887712 1.22584414 161 165 165
0.80447768 0.42547806 1.21397448 157 166 166
0.80980694 0.42549974 1.22542207 153 162 163
0.83344399 -0.56615710 1.07438411 103 120 127
0.82916398 -0.55005838 1.07077683 101 120 127
0.82271776 -0.53197166 1.05837977 100 119 127
0.82540120 -0.53655450 1.06419966 100 120 127
0.82840604 0.24690389 1.13645780 153 156 155
0.83489880 0.25546926 1.15518036 170 172 172
0.83710748 0.25620097 1.16077375 169 170 169
0.83588725 0.26425456 1.15255079 159 162 166
0.83734594 0.26549976 1.16343073 171 173 176
0.82796971 0.42938194 1.23495593 161 171 170
0.83701803 0.43464255 1.24942376 166 175 174
0.83712721 0.44251224 1.25072724 169 173 174
0.84389277 -0.56747163 1.07740493 103 120 126
0.85316100 -0.57070288 1.08309114 104 120 125
0.84360142 0.19155219 1.26661825 108 123 130
0.85766848 0.19300807 1.28307708 118 130 136
0.84408512 0.25541736 1.15607849 156 160 159
0.85562617 0.25814775 1.16276479 135 141 141
0.85154107 0.26414378 1.13456690 163 169 169
0.85083912 0.26444536 1.15299573 160 168 170
0.85531100 0.26670343 1.16389550 155 164 165
0.84357649 0.33519676 0.92481834 157 166 165
0.85009629 0.34004256 0.93373531 157 163 163
0.84645154 0.43368754 1.25333560 150 157 157
0.85467389 0.43382317 1.26861095 138 144 146
0.85924488 0.43592337 1.28876781 151 157 157
0.85909915 0.44008523 1.26236844 159 166 166
0.86692978 -0.57601779 1.09337584 107 122 127
0.86834331 0.17658058 1.28905710 110 126 130
0.87188433 0.18983072 1.29340341 113 125 134
0.87348809 0.19535072 1.30113602 117 131 138
0.87714673 0.20576122 1.29822952 122 128 137
0.87760802 0.20738105 1.30489767 126 133 140
0.86708242 0.25882870 1.15460920 169 175 175
0.87251704 0.25605640 1.17197718 160 163 164
0.87899470 0.25770070 1.18617064 158 161 162
0.86808074 0.26393925 1.15451132 167 173 175
0.86500644 0.26835970 1.16712118 159 167 169
0.86157956 0.28137418 1.16811776 172 178 180
0.87360856 0.28355478 1.19140720 165 172 176
0.86539881 0.34567942 0.95145103 158 164 164
0.87832721 0.35144620 0.96657886 155 163 161
0.86481363 0.42775577 1.23929036 153 155 155
0.86943359 0.43434664 1.25569292 130 132 140
0.86989611 0.43269811 1.26736611 137 140 144
0.87004834 0.43377675 1.28864538 137 142 145
0.86754376 0.44459961 1.26762125 150 153 159
0.89029463 0.19752453 1.30417914 123 131 138
0.88603052 0.20806998 1.29864335 101 109 125
0.88520216 0.20700451 1.30419856 118 125 136
0.88429350 0.25998801 1.16877902 167 171 172
0.88585663 0.26660442 1.16362986 169 175 177
0.88181573 0.26203394 1.18720114 164 169 171
0.88181573 0.28152774 1.18720114 169 177 179
0.88430365 0.35480717 0.97427005 157 164 163
0.89497732 0.35703843 0.98791045 153 161 161
0.88740298 0.36188777 0.97749820 148 154 153
0.89701453 0.36417204 0.99060175 152 159 158
0.88367301 0.43378100 1.26946032 149 151 150
0.88453412 0.43402637 1.29864335 149 152 155
0.88663697 0.43728772 1.30614996 149 151 155
0.88147885 0.44255763 1.26946032 130 131 140
0.89700699 0.44011822 1.32142663 147 146 154
0.90366471 0.20101704 1.31120276 114 121 133
0.90643257 0.35946214 1.00131738 156 165 164
0.90216705 0.37170318 0.99470609 138 145 144
0.91125971 0.36623523 1.00728802 150 159 158
0.93806770 0.07696955 0.87705081 154 163 165
0.93838321 0.07324816 0.88867888 126 139 144
0.93770698 0.08144594 0.87753028 141 149 152
0.93953842 0.08034524 0.88209775 138 147 148
0.93011222 0.35617762 1.02764294 152 163 162
0.92127959 0.36264988 1.01836733 161 171 171
0.93092070 0.36609878 1.03073215 156 166 166
0.94089458 0.07724796 0.87809944 149 159 161
0.94221360 0.07451599 0.89042847 130 138 144
0.94181091 0.08160437 0.87923717 131 139 142
0.94278138 0.08158980 0.89128344 140 145 150
0.95525359 0.08827724 0.90611659 147 153 155
0.94295280 0.35702169 1.04615951 166 173 171
0.94864010 0.35221339 1.07527646 156 156 156
0.95658309 0.35718173 1.08814326 152 154 154
0.95970923 0.35664456 1.10226321 162 163 165
0.94010168 0.36135441 1.03653193 148 164 163
0.94369640 0.36617585 1.04728485 154 164 164
0.95733442 0.36896836 1.06364012 149 158 158
0.95764321 0.36038201 1.09339952 151 155 154
0.96388402 0.09321636 0.91360197 145 154 155
0.96151680 0.35709910 1.09780127 154 155 155
0.96184988 0.35916677 1.10857433 158 159 162
0.96479529 0.37410181 1.07310935 151 160 161
0.96652960 0.36600498 1.09565028 135 139 139
0.96979682 0.36929931 1.10733669 132 137 139
0.97654093 0.37316255 1.12233953 130 137 139
0.97696312 0.38289115 1.08753697 146 156 158
0.99302867 0.18855914 1.05372697 146 155 160
0.99670922 0.19419504 1.06984841 155 159 161
0.99622871 0.21186870 1.07362655 161 166 166
0.98190051 0.37800068 1.09514034 163 171 170
0.98285055 0.37897186 1.12326813 123 126 131
0.98508334 0.38112494 1.09869015 150 159 158
0.98812252 0.38433383 1.10951175 136 145 149
0.99009396 0.38606847 1.13027292 119 126 130
0.99670990 0.43462357 1.56316519 139 147 153
0.99779266 0.44296050 1.56557012 134 142 148
1.00382084 0.19061264 1.05837977 155 163 165
1.00422617 0.19417151 1.06855599 156 163 166
1.00484598 0.21000595 1.07405603 150 158 161
1.01210245 0.21748798 1.08289777 160 170 170
1.00700915 0.22145899 1.07944560 155 165 165
1.01407060 0.22176286 1.08550298 160 171 171
1.00523596 0.39540860 1.13008889 133 144 149
1.00980262 0.39731341 1.14790306 117 126 130
1.01235704 0.40844931 1.13443910 148 157 158
1.01559611 0.40586253 1.15048510 133 140 144
1.01791582 0.40284682 1.16276991 123 127 132
1.01620889 0.41920218 1.59880149 155 156 159
1.01861119 0.41742325 1.60258114 155 155 157
1.01429157 0.42286369 1.13740628 138 144 146
1.01803756 0.42421640 1.14315981 139 145 149
1.00181112 0.43076679 1.56847265 152 161 161
1.00981073 0.43400134 1.59073957 140 147 151
1.01176381 0.43785282 1.60639683 144 151 154
1.01397717 0.43923473 1.62175083 143 146 149
1.00633439 0.44163243 1.58760351 122 129 137
1.01714993 0.44238101 1.61788034 136 143 147
1.02315932 0.41457803 1.15302556 145 153 154
1.02682943 0.41244985 1.16910127 133 137 141
1.03596044 0.41452832 1.18513529 131 133 138
1.02499035 0.42349634 1.15264845 142 152 153
1.03209698 0.42534110 1.16611060 139 149 149
1.03528625 0.42126943 1.18202680 135 137 139
1.02352014 0.42811568 1.60943494 161 165 168
1.03471128 0.43230906 1.63086919 161 163 164
1.02565932 0.44345065 1.62694252 140 148 151
1.03050840 0.44597086 1.64138460 148 157 159
1.05234122 0.07158598 1.13048139 140 150 153
1.04936761 0.08835564 1.11863339 126 132 146
1.04912292 0.08628411 1.12574295 123 132 137
1.04401692 0.41857129 1.19281165 128 132 136
1.05417621 0.41916952 1.20836341 129 129 137
1.04073560 0.42322758 1.17894232 140 146 148
1.05076248 0.43135422 1.19395410 135 142 142
1.05249025 0.43375372 1.20444572 136 138 140
1.04550501 0.43530951 1.64937838 158 160 163
1.05318844 0.43276969 1.66149962 157 158 160
1.04601055 0.44095284 1.19663262 128 128 132
1.04265010 0.44386482 1.64937186 157 161 162
1.05809677 0.44320801 1.67380702 159 161 163
1.07172149 0.05651251 1.13931406 117 131 134
1.07066811 0.05719054 1.14210739 117 130 133
1.06715246 0.06567805 1.13550590 126 136 142
1.07126648 0.06092211 1.14288347 125 134 139
1.06342308 0.08185047 1.12669492 132 144 150
1.06844175 0.43639877 1.21270221 136 142 144
1.06979358 0.43614038 1.22675509 137 140 140
1.06216592 0.43705456 1.67795014 158 159 162
1.07419288 0.44295876 1.21922994 136 142 143
1.07309812 0.44682692 1.22809218 135 137 140
1.06973258 0.44564344 1.69685328 155 156 159
1.07622838 0.45032543 1.71185356 153 154 157
1.07871604 0.45706874 1.72053766 146 150 153
1.08199620 0.45118391 1.23074435 136 140 143
1.08596444 0.44236675 1.24727219 144 146 147
1.09842104 0.44588678 1.71185899 149 151 154
1.09030543 0.44823002 1.72744616 159 161 164
1.08972502 0.46202800 1.23929036 132 138 144
1.09172082 0.46502012 1.24156010 145 155 158
1.11013925 0.44744673 1.72932343 152 158 158
1.11017091 0.44689641 1.74665520 161 164 166
1.11001945 0.44949350 1.76075804 165 166 170
1.12739237 0.45266672 1.73596150 157 166 166
1.13195431 0.45112263 1.74941869 154 162 162
1.13117048 0.44895980 1.76766299 155 158 161
1.12691116 0.46397107 1.73522059 163 171 174
1.13591964 0.46643605 1.74444907 162 171 173
1.14470422 0.45547141 1.74865655 160 168 170
1.14897617 0.45368260 1.76920442 162 170 171
1.14797697 0.46950905 1.75468385 162 170 173
1.15362100 0.46989078 1.76305068 158 166 169
1.16840839 0.45784701 1.78864279 171 181 180
1.17374206 0.47061977 1.61402822 157 165 169
1.16173017 0.46897158 1.76534331 162 168 171
1.16474026 0.48125935 1.77691483 170 178 181
1.16778195 0.48752454 1.78863287 176 185 184
1.16467190 0.75538725 1.79336464 125 135 137
1.17086482 0.75830585 1.80771160 117 125 129
1.17165132 0.76697467 1.81437378 117 124 129
1.17718720 0.77805334 1.83214009 122 125 129
1.16616756 0.78541011 1.81255800 124 130 137
1.17717735 0.78614211 1.82885671 129 136 140
1.18870458 0.46959388 1.63404882 152 162 167
1.19520665 0.47518289 1.65172996 143 152 157
1.19533403 0.47532495 1.66680278 139 143 146
1.18650752 0.48027048 1.63741994 133 141 145
1.19132049 0.48232853 1.65541849 126 131 138
1.19677675 0.48158973 1.66149962 133 137 144
1.18192130 0.76593837 1.82967091 112 120 122
1.19110612 0.77625094 1.85049045 113 120 124
1.18037748 0.78651249 1.83710527 132 140 141
1.18681586 0.79079096 1.84712589 124 132 135
1.19996572 0.79524791 1.87262940 121 122 126
1.19666004 0.81242377 1.86747062 118 117 131
1.20956960 0.43530621 1.67124811 170 172 175
1.21598619 0.43232426 1.68211377 177 181 182
1.20907936 0.45218304 1.66901636 171 177 179
1.21606229 0.44856120 1.68491030 169 175 177
1.20768360 0.46757174 1.67130452 167 172 172
1.21100119 0.46946254 1.69071861 172 177 177
1.21527377 0.47052622 1.71132272 168 174 174
1.21848512 0.47788540 1.72053766 159 163 164
1.20383951 0.48256040 1.69262701 154 155 155
1.21225345 0.48234484 1.70826205 153 154 154
1.21848512 0.48085922 1.72053766 153 156 156
1.21129411 0.77906448 1.87262940 119 120 124
1.20431042 0.78518730 1.87435853 111 119 123
1.21165087 0.79138777 1.88917192 113 120 124
1.20328975 0.80799921 1.87781680 126 130 136
1.21006101 0.80628055 1.89094484 121 127 130
1.22215015 0.43383005 1.69367832 177 181 181
1.22891196 0.43553859 1.70611330 179 184 184
1.23790097 0.43829401 1.72272664 179 184 184
1.22260449 0.45161489 1.69263401 173 179 180
1.22739261 0.44883126 1.70994255 168 175 174
1.23311181 0.45010587 1.72296986 174 182 181
1.22083521 0.46308723 1.69897699 175 181 181
1.22509398 0.46487912 1.71315260 176 184 183
1.22858678 0.46585116 1.72398388 175 183 182
1.22294587 0.48085922 1.72053766 156 160 161
1.22654128 0.78504799 1.89620471 123 127 129
1.23204833 0.79170571 1.91494870 122 127 130
1.22147560 0.80839505 1.91135255 115 121 125
1.23590243 0.80347958 1.93131578 120 127 130
1.23794901 0.81815583 1.94238353 116 117 121
1.23599654 0.83304678 1.93407482 124 126 134
1.24557774 0.79547137 1.93132832 124 129 131
1.25147443 0.79615119 1.95206248 123 126 129
1.25743298 0.79232368 1.96999224 136 140 141
1.24707427 0.80822799 1.95246899 122 127 131
1.25375779 0.80847043 1.97010864 126 130 134
1.25986123 0.80064201 1.98213995 140 143 143
1.24509108 0.82512057 1.95358960 119 123 127
1.25251203 0.82726712 1.96981406 123 128 131
1.25986123 0.84517962 1.98213995 125 129 132
1.26956677 0.77555084 1.97061586 153 162 162
1.26609828 0.79283734 1.95922494 127 129 131
1.26882929 0.79143693 1.96948450 131 135 137
1.27385929 0.79268028 1.98796117 141 148 147
1.26456529 0.80150189 1.95499843 120 123 126
1.27437729 0.80217037 1.96490383 117 120 123
1.26914132 0.80136019 1.99674028 142 147 144
1.26382601 0.83981287 1.99379957 125 130 133
1.26498540 0.84786886 1.99381105 127 131 133
1.28691792 0.79119682 1.99576004 142 149 150
1.32411611 -0.28631672 1.73818421 81 87 98
1.32654975 -0.28449468 1.74715235 74 78 85
1.32934587 -0.27288277 1.74832770 59 62 67
1.34795562 -0.28017741 1.75619650 58 62 70
1.35348570 -0.28090513 1.76075804 57 62 70
1.34741881 -0.27311718 1.75417964 58 62 68
1.35165406 -0.26911424 1.76875882 59 62 68
1.35315147 -0.26353498 1.78746232 61 63 67
1.35791498 -0.25907210 1.78864527 63 64 68
1.36492956 -0.26805050 1.77645392 62 63 69
1.36932281 -0.26473733 1.78755046 63 64 68
1.36769557 -0.25771441 1.77924371 63 63 70
1.36696526 -0.25841215 1.78865063 63 64 68
1.38292277 -0.26561235 1.79099876 63 63 68
2.07553325 -0.56736425 1.99284801 80 97 111
2.07294554 -0.55812326 1.98650801 80 101 109
2.08718794 -0.60638761 1.99968100 92 99 114
2.08648242 -0.59129657 1.99837401 86 101 112
2.08944084 -0.56948320 1.99540673 81 101 112
2.09067795 -0.55550386 1.99250024 79 100 110
2.10421022 -0.56501714 1.99772052 77 102 110
2.10295653 -0.55758917 1.99379957 78 101 112
