ply
format ascii 1.0
element vertex 681
property float x
property float y
property float z
property uchar red
property uchar green
property uchar blue
end_header
-0.66383675 -0.50152184 1.06461275 182 184 184
-0.66055424 -0.48546032 1.05788403 193 197 195
-0.66419007 -0.49310350 1.06252882 192 194 194
-0.65349936 -0.50121705 1.06494216 185 185 184
-0.65133309 -0.48703387 1.05742495 191 193 191
-0.64809906 -0.49538139 1.06187370 191 191 189
-0.65049007 -0.47765929 1.05508714 193 195 194
-0.63771490 -0.49073673 1.05821557 195 195 194
-0.63857770 -0.49379662 1.06086361 194 194 192
-0.54260358 -0.06216227 0.91508304 211 211 210
-0.54008973 -0.06097513 0.92104870 213 214 214
-0.54299463 -0.05803060 0.91855516 213 213 213
-0.54187134 -0.05806738 0.92545006 208 209 208
-0.53137877 -0.08540238 0.91466298 185 188 192
-0.53051948 -0.07130872 0.91421546 209 210 210
-0.52709143 -0.06443657 0.92519822 216 216 216
-0.52605432 -0.06070280 0.94151646 198 198 196
-0.52902863 -0.05361145 0.93151408 209 212 212
-0.52532470 -0.05899353 0.94021058 202 203 202
-0.50632368 -0.54508105 1.27561892 217 218 215
-0.50581689 -0.54136021 1.28206584 212 212 210
-0.50336858 -0.52897546 1.27586434 218 218 217
-0.50705202 -0.53224440 1.28145909 216 215 213
-0.51912356 -0.07383289 0.91695596 216 219 219
-0.49613501 -0.54296057 1.27119497 220 220 220
-0.49379676 -0.52636559 1.27432264 217 217 217
-0.48982394 -0.51929029 1.27503566 214 215 215
-0.42020196 -0.02010772 0.57302779 207 211 212
-0.42169174 -0.01190032 0.57370713 205 206 207
-0.41831980 -0.02052840 0.57370696 204 209 210
-0.41653491 -0.01158402 0.57237758 204 206 206
-0.41442811 0.00068671 0.56917870 202 209 207
-0.35171603 0.07845090 1.99968100 128 124 124
-0.35215476 0.09136964 1.99674411 140 133 134
-0.34579506 0.11238461 1.97219177 152 149 150
-0.34573598 0.10484740 1.98913573 147 146 145
-0.34523272 0.12341211 1.97253092 155 152 153
-0.32004836 -0.80055690 1.69472957 89 73 70
-0.32443826 -0.80856011 1.70754337 93 75 69
-0.32240290 -0.79178186 1.69685682 87 73 67
-0.32487310 -0.79641618 1.70467595 88 71 63
-0.32004836 -0.77712327 1.69472957 81 62 60
-0.33566839 0.07660738 1.99674028 157 154 155
-0.33012476 0.09051985 1.99364137 142 137 138
-0.33075551 0.11353259 1.97394202 148 143 145
-0.32823879 0.10712274 1.98866069 147 143 143
-0.33087183 0.12364317 1.97374959 160 152 155
-0.32293603 0.12230031 1.98213995 152 143 144
-0.30622758 -0.80483715 1.67519486 99 78 74
-0.31618439 -0.80881459 1.68751456 99 80 74
-0.30599178 -0.79241915 1.67220704 96 74 69
-0.31116779 -0.78875287 1.68546962 93 74 69
-0.30785025 -0.77041817 1.67484450 86 72 65
-0.31537395 -0.77022907 1.68537291 81 66 61
-0.31293492 -0.74918253 1.67546835 80 58 56
-0.31845706 -0.75140323 1.68630335 82 57 55
-0.31629094 0.09158056 1.99205580 147 141 142
-0.31543341 0.11006102 1.98694300 149 141 142
-0.31857854 0.12877572 1.97636104 167 162 162
-0.31713806 0.12381416 1.98446500 148 143 145
-0.29461687 -0.78705137 1.67227119 96 74 67
-0.29731408 -0.78006047 1.68211377 93 74 68
-0.29040200 -0.77361929 1.67072415 92 72 65
-0.29731408 -0.77715307 1.68211377 88 72 67
-0.28580989 -0.01010803 0.49246811 209 212 211
-0.28527305 0.55560362 1.36672300 139 130 129
-0.28628422 0.57537093 1.37504096 141 135 129
-0.28572114 0.57425283 1.38294204 145 139 137
-0.28671574 0.58784166 1.37480044 141 136 131
-0.28518634 0.59029309 1.38157435 142 135 131
-0.28120640 0.60743809 1.35850072 0 0 0
-0.28284472 0.60769752 1.37504686 57 56 55
-0.28731462 0.60525775 1.38224522 135 129 129
-0.26962639 -0.78322425 1.66500447 90 72 67
-0.26992592 -0.77164562 1.65676355 93 70 64
-0.27711792 -0.77239660 1.66558417 97 72 65
-0.27053623 -0.02972558 0.65134529 185 181 180
-0.27925156 -0.00765861 0.49132841 208 209 208
-0.26085389 0.11890633 0.74616626 116 89 74
-0.26142660 0.12145281 0.74596094 114 88 73
-0.26101008 0.14310049 0.76167625 110 85 72
-0.26299515 0.29969934 0.83484215 101 77 60
-0.26478680 0.30917542 0.83628983 103 77 65
-0.27150573 0.31805384 0.84064001 101 76 69
-0.26768067 0.32051767 0.83897507 104 78 70
-0.27060041 0.32135606 0.84053579 105 79 73
-0.27240311 0.55786882 1.37132661 130 129 122
-0.27218848 0.57281288 1.37504181 143 140 135
-0.27304095 0.57248284 1.38113237 147 143 138
-0.27139806 0.58942876 1.37112772 139 135 133
-0.26338392 0.58533589 1.38089129 157 150 149
-0.27513331 0.60441059 1.35172987 0 0 0
-0.27396205 0.60493184 1.37188029 68 67 65
-0.27147028 0.60301733 1.38063514 154 153 147
-0.25268774 0.11754167 0.74330697 114 87 74
-0.25468543 0.12709978 0.74964632 112 86 72
-0.25818424 0.13904688 0.76110631 109 85 68
-0.25847059 0.14365990 0.76218023 111 84 71
-0.25648406 0.29840277 0.83525392 109 79 62
-0.25662441 0.30510094 0.83397512 102 79 67
-0.25254422 0.57680470 1.37503421 154 150 149
-0.25715238 0.57915419 1.38063514 156 152 151
-0.25277141 0.59304228 1.37411012 154 148 147
-0.25740702 0.59037782 1.38157435 152 146 144
-0.25068138 0.60085450 1.36489153 15 14 14
-0.25745430 0.60505924 1.38439580 107 102 101
-0.18401375 -0.14175334 0.48605441 206 206 206
-0.18268351 -0.13899918 0.48383774 206 206 206
-0.18381348 0.84809822 1.85723794 0 0 0
-0.18431847 0.84774572 1.86234021 0 0 0
-0.18482623 0.86245427 1.86747062 0 0 0
-0.19604737 0.88733605 1.94684873 0 0 0
-0.19672509 0.90053326 1.95357883 0 0 0
-0.17540029 -0.14150874 0.48378898 204 205 206
-0.17869021 -0.13562509 0.47952758 210 210 210
-0.17492158 -0.13783997 0.48223870 199 201 202
-0.16336918 0.77661337 1.71041079 0 0 0
-0.16364444 0.78681078 1.71329272 0 0 0
-0.17301901 0.81094491 1.77924371 0 0 0
-0.17347431 0.81307897 1.78392589 0 0 0
-0.17393203 0.82604459 1.78863287 0 0 0
-0.14563660 0.71694800 1.58201343 0 0 0
-0.14512837 0.73215908 1.57649267 0 0 0
-0.14573888 0.72703657 1.58312449 0 0 0
-0.15412599 0.75044124 1.64337659 0 0 0
-0.15468827 0.76315504 1.64937186 0 0 0
-0.12000347 -0.00447244 0.48804307 119 90 80
-0.12376240 0.65055697 1.42464429 0 0 0
-0.13068299 0.67225927 1.47496214 0 0 0
-0.13113938 0.68228179 1.48011315 0 0 0
-0.13791368 0.69455771 1.52678734 0 0 0
-0.13814717 0.70631093 1.52937222 0 0 0
-0.11450252 -0.01064079 0.48481980 119 91 78
-0.10037683 0.57325424 1.25535669 0 0 0
-0.10056295 0.58192343 1.25768435 0 0 0
-0.10570667 0.59203941 1.29404146 0 0 0
-0.11134407 0.61069172 1.33481021 0 0 0
-0.11726637 0.62773306 1.37727001 0 0 0
-0.11755290 0.63761893 1.38063514 0 0 0
-0.08441949 0.15581940 0.55350186 130 123 125
-0.08069120 0.15210308 0.56070477 158 150 148
-0.08405841 0.16183591 0.55420219 142 137 137
-0.08202662 0.51279298 1.12295791 0 0 0
-0.08225366 0.52102447 1.12606621 0 0 0
-0.08614992 0.52811360 1.15214412 0 0 0
-0.09055897 0.53748171 1.18374674 0 0 0
-0.09058534 0.54480432 1.18409145 0 0 0
-0.09527810 0.55510285 1.21791658 0 0 0
-0.09555270 0.56303614 1.22142673 0 0 0
-0.07747872 0.15686656 0.55631308 138 133 133
-0.07896867 0.15282937 0.56070483 156 151 149
-0.07740632 0.16241469 0.55579445 149 145 141
-0.06384354 0.45267799 0.99131250 0 0 0
-0.06721137 0.45971012 1.01632965 0 0 0
-0.06716111 0.46551288 1.01556967 0 0 0
-0.07048987 0.47344496 1.03875606 0 0 0
-0.07044665 0.48212621 1.03811920 0 0 0
-0.07066307 0.48090768 1.04130852 0 0 0
-0.07415258 0.48659729 1.06558969 0 0 0
-0.07801784 0.49671524 1.09396271 0 0 0
-0.07810195 0.50293243 1.09514221 0 0 0
-0.02015214 0.30786178 0.67546035 0 0 0
-0.02239115 0.31247235 0.69143944 0 0 0
-0.02510188 0.31758065 0.70970752 0 0 0
-0.02321815 0.32028124 0.69741958 0 0 0
-0.02535532 0.32376789 0.71219064 0 0 0
-0.02648741 0.32851640 0.72077835 0 0 0
-0.00070623 0.24316685 0.53453096 0 0 0
-0.00311968 0.25110440 0.55197934 0 0 0
-0.00536597 0.25820449 0.56824158 0 0 0
-0.00621535 0.26176508 0.57432244 0 0 0
-0.00852707 0.26904381 0.59097686 0 0 0
-0.01112388 0.27758494 0.61003460 0 0 0
-0.01199872 0.28203283 0.61645222 0 0 0
-0.01389295 0.28700162 0.62969307 0 0 0
-0.01649016 0.29536829 0.64860084 0 0 0
-0.01725996 0.30049554 0.65433574 0 0 0
-0.01867209 0.30279287 0.66433946 0 0 0
0.01039239 0.20625884 0.45426271 0 0 0
0.00829598 0.21314008 0.46941790 0 0 0
0.00645669 0.21917737 0.48271439 0 0 0
0.00501412 0.22445297 0.49318230 0 0 0
0.00241632 0.23289719 0.51195612 0 0 0
0.00066978 0.23817235 0.52454881 0 0 0
0.00066996 0.24004775 0.52468407 0 0 0
0.07087345 0.11165850 0.57090080 188 184 182
0.07512302 0.27551781 0.70439485 173 171 168
0.07629816 0.28195590 0.70424064 167 163 164
0.08854377 -0.18950059 0.45621761 24 22 26
0.08242484 0.27228414 0.70455451 175 173 170
0.08159892 0.28226448 0.70540284 165 159 160
0.17526467 -0.06461807 0.75378806 187 180 180
0.17494435 -0.05218512 0.74630808 189 186 186
0.18202419 -0.06289424 0.74432565 161 158 160
0.18437537 -0.05302706 0.73793380 173 168 168
0.18175439 -0.05400581 0.74067571 189 184 183
0.18466592 0.87452334 1.88303292 0 0 0
0.18984897 0.91519886 1.97061586 0 0 0
0.23634443 0.17402787 0.45918791 157 152 147
0.23467666 0.17777394 0.46195869 154 152 145
0.23001757 0.18606331 0.46456605 162 158 155
0.25853528 0.11259335 0.51835946 153 148 145
0.24471230 0.17433222 0.45895810 157 154 149
0.24190840 0.17752276 0.46087106 152 151 146
0.27620858 -0.28839230 0.52426379 199 201 203
0.26316433 0.11183104 0.51849700 153 149 147
0.28277655 -0.28995422 0.52320078 175 176 179
0.39832749 -0.04337762 0.45822121 186 192 193
0.41990161 -0.28043208 0.60472065 187 196 197
0.40958945 -0.26317839 0.45855963 191 193 193
0.41722105 -0.26538436 0.46160282 198 200 198
0.41869626 -0.27788811 0.60373494 194 200 201
0.41010832 -0.25722288 0.45825740 161 161 163
0.41733357 -0.25734263 0.46181229 157 158 163
0.40329965 -0.04428843 0.45898908 190 195 198
0.40485795 -0.04846101 0.46094258 195 199 201
0.40279530 -0.03994438 0.45943242 183 189 193
0.40255763 -0.03884509 0.46052456 180 184 186
0.42633830 -0.28605920 0.60859126 197 200 203
0.42168319 -0.26157375 0.46357719 195 200 198
0.42675159 -0.27762848 0.60649699 198 199 205
0.42199093 -0.25861573 0.46357696 192 196 195
0.44758705 -0.36461954 1.16809442 24 22 31
0.45356481 -0.36340895 1.18343997 24 23 32
0.45861121 -0.10126093 0.84843531 79 84 109
0.45811421 -0.08108652 0.81870997 74 80 100
0.45812408 -0.08756277 0.82862292 86 87 114
0.45802854 -0.09597180 0.84381435 82 88 114
0.45919468 -0.07939398 0.82319137 72 71 87
0.46737707 -0.36404235 1.19387171 24 23 33
0.47291515 -0.36274674 1.20407331 25 24 34
0.46555467 -0.35530155 1.19778551 25 24 34
0.47509769 -0.35660152 1.20504532 25 25 34
0.46338290 -0.10084544 0.83587158 80 85 110
0.46423907 -0.10461709 0.85155417 78 83 106
0.46840484 -0.11011044 0.86433960 72 76 99
0.46227588 -0.09450006 0.83122764 74 77 103
0.46148479 -0.09723867 0.84462580 77 84 109
0.49590388 0.17640118 0.45978611 165 169 172
0.49701278 0.17799541 0.46046192 166 172 173
0.49821167 0.18191909 0.46167556 164 168 171
0.51416070 0.17042796 0.47524588 162 166 167
0.51594964 0.16236061 0.48144501 168 172 173
0.50556242 0.18389497 0.46397819 165 169 169
0.52633681 -0.24604155 0.45243145 184 184 187
0.52071520 0.16685656 0.47941480 166 171 172
0.52178888 0.16477808 0.48100948 171 173 176
0.55328261 -0.00123901 0.79378989 129 121 122
0.55590818 0.00277757 0.79582358 109 100 99
0.55722439 0.00858966 0.80167731 107 83 82
0.57620312 -0.40469200 1.13494093 32 32 40
0.57531102 -0.40669969 1.14850907 32 31 40
0.57826273 -0.40309154 1.16576844 28 27 36
0.57154128 -0.39278504 1.13110099 31 30 39
0.57542090 -0.39677469 1.14704480 29 28 37
0.57928999 -0.38961565 1.16210337 29 28 37
0.57453550 -0.36518124 1.00943860 72 77 86
0.56941298 -0.34991757 0.99931459 106 108 118
0.57121169 -0.35533790 1.00274181 108 112 121
0.57794994 -0.12313751 0.95882863 98 96 99
0.57376596 -0.12348179 0.96499315 97 100 117
0.57543562 -0.11579846 0.96984195 89 95 122
0.56123443 -0.00119641 0.79193251 167 169 170
0.56383317 0.00242309 0.79518898 158 157 158
0.56744588 0.00652018 0.80274063 145 142 143
0.58040309 -0.40625231 1.13931406 33 32 40
0.58373840 -0.40874398 1.14742315 32 32 41
0.58327672 -0.40134315 1.17689908 26 25 33
0.58601780 -0.40561205 1.18849805 26 25 33
0.58152040 -0.39476367 1.15642059 27 27 36
0.58191721 -0.39211400 1.16820780 27 26 35
0.58411124 -0.39573630 1.18547515 25 24 32
0.58693968 -0.36929142 1.01645918 150 153 157
0.59238325 -0.37347443 1.02191202 154 156 158
0.58276510 -0.35849246 1.01027095 182 191 193
0.58651670 -0.12646071 0.95381594 101 81 81
0.58849939 -0.12572392 0.96727485 99 84 86
0.58916951 -0.11162718 0.95370869 101 84 87
0.58753995 -0.10910588 0.96900616 109 109 124
0.58454973 -0.10564116 0.98103017 89 91 121
0.58974843 -0.09720856 0.95646150 98 93 92
0.59174418 -0.09820115 0.96457224 100 98 115
0.59804673 0.06730246 0.87483107 111 88 74
0.59911953 0.06607949 0.88334848 112 88 72
0.61553741 -0.46504809 1.05802717 52 52 64
0.61658108 -0.46610499 1.06252635 50 50 59
0.61320959 -0.45307574 1.05357311 52 53 63
0.60347329 -0.37844334 1.02971284 188 192 191
0.60675103 0.05094097 0.87801052 110 82 77
0.61223330 0.05449364 0.88428273 111 83 76
0.60434947 0.06651014 0.87562090 114 87 74
0.60501608 0.06794006 0.88678727 112 87 72
0.63291649 -0.48415695 1.07350948 134 145 154
0.63784383 -0.46373304 1.05920601 198 200 199
0.63113905 -0.46993888 1.06687042 111 119 132
0.63609247 -0.45251171 1.05756128 187 190 191
0.63284777 -0.45677617 1.06482072 128 133 146
0.63813186 -0.43626619 1.04964354 193 195 195
0.63916036 -0.24778710 0.55057237 196 203 205
0.63540429 -0.15048691 1.11392638 63 65 84
0.63825816 -0.15362755 1.12712374 62 63 83
0.62152654 0.05635437 0.88845587 107 79 73
0.64273179 -0.48375178 1.07659264 181 191 201
0.64815289 -0.48986015 1.08462691 190 201 203
0.64760780 -0.46739453 1.05920601 194 195 197
0.64652969 -0.46705678 1.06570881 191 194 196
0.64183578 -0.44211816 1.05393980 194 198 198
0.64448228 -0.45429595 1.06527799 190 194 196
0.64131896 -0.43849170 1.04991047 192 193 194
0.64559448 -0.24533217 0.55041940 194 198 201
0.64906707 -0.23915857 0.55225450 190 198 201
0.65976477 -0.16087139 1.10405838 109 89 87
0.65111327 -0.16258993 1.13204006 83 85 101
0.65278834 -0.16814605 1.14961688 63 66 86
0.65601751 -0.17315532 1.16252190 58 61 79
0.64493805 -0.15171763 1.07303998 107 85 84
0.65296450 -0.15216708 1.09295502 105 86 90
0.65315787 -0.15282322 1.10952145 99 93 103
0.64992252 -0.15701574 1.12709332 78 81 98
0.65529151 0.19148791 0.55063340 163 169 174
0.67653044 -0.46421026 1.13288605 186 187 185
0.67766540 -0.46834541 1.14617636 166 170 175
0.67264150 -0.44913889 1.11233952 193 197 199
0.67502580 -0.45320269 1.12874208 189 193 193
0.67720157 -0.45899466 1.14315653 184 190 189
0.66779502 -0.18055507 1.15681374 104 107 123
0.66356224 -0.18117315 1.16077375 88 99 118
0.67010215 -0.18263547 1.19664007 58 60 76
0.67700514 -0.18655732 1.21140437 58 59 75
0.66286461 -0.16281845 1.11085683 108 87 86
0.66895584 -0.16578432 1.13172452 107 90 91
0.66807079 -0.17377384 1.15108691 99 98 108
0.66311457 -0.17718045 1.17420177 61 62 80
0.66534001 -0.17709515 1.18721750 60 61 81
0.66206070 -0.15723276 1.11435544 109 90 92
0.66472585 -0.15936714 1.12373960 105 93 94
0.66125226 0.18795761 0.55131234 158 160 167
0.68552197 -0.48183768 1.15720890 133 132 140
0.68423698 -0.48652353 1.16652371 73 73 88
0.68167324 -0.47615325 1.15240626 132 134 139
0.69583109 -0.20338154 1.24998494 55 59 75
0.69851959 -0.20646409 1.26002204 56 59 75
0.68862720 -0.18164899 1.16812932 111 92 85
0.68849978 -0.19110801 1.21097751 83 87 104
0.68867953 -0.19381693 1.22866430 62 63 81
0.69251943 -0.19713892 1.24919868 58 57 76
0.68318217 -0.17535883 1.15550047 107 91 86
0.68468491 -0.17726183 1.16143743 106 91 86
0.69230534 -0.12682190 0.71172837 188 194 193
0.69315322 -0.13383496 0.72162283 192 192 192
0.69473431 -0.11715877 0.70971262 187 192 194
0.69490726 -0.06913941 1.18340323 118 90 85
0.71812171 -0.22155995 1.29740185 59 59 76
0.71906304 -0.22332101 1.30113602 59 57 76
0.71805245 -0.20294102 1.21922994 111 88 87
0.71328053 -0.20140047 1.23433644 110 103 112
0.70621809 -0.20361068 1.25106665 74 75 95
0.70926756 -0.20990809 1.26798463 62 65 83
0.71400489 -0.21809106 1.28795262 61 60 78
0.71202239 -0.19584457 1.21184216 108 92 87
0.71185636 -0.19769095 1.22706721 107 98 103
0.71310822 -0.10229456 1.23254691 85 82 89
0.71923050 -0.10716537 1.24498147 81 80 86
0.70761793 -0.09082490 1.21349599 97 87 92
0.71263728 -0.08968625 1.22874659 110 91 88
0.71878000 -0.08445263 1.24326867 121 95 86
0.70246691 -0.07320824 1.19980860 122 94 90
0.70704600 -0.07192889 1.21039192 121 93 87
0.71238241 -0.07689779 1.22553381 121 94 88
0.71964598 -0.07804465 1.24383819 120 93 86
0.73024036 -0.22166542 1.29802260 87 88 107
0.73161768 -0.22472149 1.30751296 67 67 89
0.73609873 -0.23273504 1.33446772 57 58 75
0.73839636 -0.23662885 1.34878635 58 58 73
0.72353565 -0.20588523 1.23433976 111 91 89
0.72747492 -0.20808936 1.25206353 110 97 101
0.73004685 -0.21193049 1.27028547 108 104 115
0.73017045 -0.21748946 1.29078815 83 84 103
0.73255652 -0.21882319 1.30113602 62 62 87
0.72225005 -0.10582734 1.25458610 90 85 88
0.72990165 -0.11442642 1.26915314 77 77 91
0.73755604 -0.11628318 1.28632224 77 75 93
0.72243384 -0.08952577 1.25406994 120 95 88
0.72749792 -0.08825277 1.26687866 120 96 85
0.73766802 -0.09434599 1.29040746 123 96 91
0.72280109 -0.07862169 1.25303483 123 97 89
0.75843871 -0.26056656 1.39198089 58 57 72
0.74987488 -0.24159973 1.35477160 58 59 78
0.75126186 -0.24582553 1.36795700 58 57 74
0.75258115 -0.25031919 1.38467351 56 55 72
0.74744594 -0.22132190 1.27663243 119 96 95
0.75031800 -0.22270269 1.29494513 112 100 102
0.74991292 -0.22637451 1.30761036 109 106 114
0.75021347 -0.23262241 1.33184017 83 86 106
0.74918724 -0.23768959 1.34556364 70 72 93
0.74194607 -0.21579698 1.27226144 111 98 96
0.74482828 -0.21849768 1.29122818 107 104 107
0.74462074 -0.12188620 1.29864335 71 71 93
0.74136767 -0.11705859 1.29492354 78 76 92
0.74095666 -0.08916868 1.29616034 122 97 84
0.75461490 0.15817618 1.00701034 119 90 78
0.75650941 0.17519575 0.97880530 119 95 88
0.75569935 0.17512226 0.99313014 118 94 82
0.75480530 0.16857364 1.00356415 118 92 82
0.75439288 0.18371916 0.97937687 121 96 82
0.75360636 0.18539539 0.99076909 122 96 83
0.75495528 0.18735472 1.00298594 123 93 81
0.76659012 -0.28508124 1.41818380 57 55 74
0.77800087 -0.28588467 1.43274682 55 55 72
0.76626808 -0.26163992 1.39402757 59 58 74
0.77081363 -0.26751266 1.40769729 57 56 73
0.77513424 -0.27569838 1.42828721 56 57 71
0.76951592 -0.24144754 1.35227538 108 106 119
0.76971398 -0.24799851 1.37399742 86 86 108
0.77104508 -0.25488648 1.38723913 65 64 84
0.76186099 -0.22990726 1.31122518 115 97 99
0.76814277 -0.23572966 1.33444824 112 100 107
0.76786991 -0.23828738 1.34324793 109 109 120
0.76692200 0.15871837 1.00878399 117 94 86
0.76039016 0.16856320 0.97819889 116 92 91
0.76177013 0.17031073 0.99325346 121 95 87
0.76258077 0.16529099 1.00447987 121 96 88
0.76208293 0.18897992 0.98770386 117 95 81
0.76262248 0.19766492 1.01027322 119 93 86
0.78295851 -0.30175632 1.43926084 57 57 77
0.79170382 -0.30147162 1.44386071 57 57 80
0.78762115 -0.28899952 1.43701570 56 56 72
0.79075753 -0.29125941 1.44270749 55 54 73
0.78693181 -0.26163995 1.39771509 122 129 142
0.78967569 -0.26568080 1.41026357 93 98 112
0.79068673 -0.27463370 1.42680361 66 69 85
0.78389221 -0.24425469 1.35488164 115 96 99
0.78868245 -0.24851403 1.37411388 111 99 105
0.78946719 -0.25502339 1.38961065 111 109 120
0.79824102 -0.25975969 1.40060294 107 108 113
0.81381720 -0.30096769 1.46571380 87 86 109
0.80783492 -0.28185517 1.43926084 121 124 133
0.80920950 -0.28757779 1.44894696 93 95 109
0.81711715 -0.29399997 1.46255147 121 121 142
0.80910262 -0.26511265 1.41150499 111 102 102
0.80938888 -0.27454575 1.43029717 111 108 118
0.80322767 -0.25705293 1.39246802 116 98 97
0.80066186 -0.25975969 1.40060294 111 107 108
0.80967033 0.61730202 1.75619650 164 155 151
0.80264342 0.61991984 1.76075804 143 129 132
0.81602144 0.63476346 1.75208380 168 166 160
0.81399262 0.63380142 1.77105557 157 149 148
0.81628788 0.63424343 1.78392589 149 135 137
0.81877667 0.65170372 1.75619650 158 152 146
0.81684736 0.65075469 1.76670462 163 155 150
0.81371758 0.66485729 1.75619650 166 163 158
0.81760721 0.66529257 1.76811368 173 173 165
0.82512578 -0.30198735 1.47688854 117 115 138
0.83613030 -0.30312809 1.48662402 107 106 123
0.82524848 -0.28185517 1.43926084 116 98 103
0.82918109 -0.28615526 1.45159850 113 100 104
0.83119920 -0.29444208 1.46918604 110 106 113
0.83332300 -0.29753017 1.48011315 108 108 119
0.82318271 -0.27536924 1.43243840 110 99 98
0.83199018 -0.27996191 1.44232309 111 95 96
0.82410458 0.63697823 1.75076027 158 156 154
0.82141958 0.63403225 1.77614260 163 157 154
0.82245463 0.63424343 1.78392589 156 145 144
0.82306269 0.64891554 1.75101858 160 156 150
0.82290928 0.64924859 1.76602243 168 161 155
0.82404161 0.66400204 1.76469169 167 163 159
0.85667461 -0.34957996 1.59503961 62 64 81
0.84412855 -0.30512889 1.48738318 110 101 107
0.84885502 -0.31254002 1.50308609 109 104 112
0.84485246 -0.29347827 1.47049733 114 98 98
0.84760804 -0.26778119 1.45057011 115 92 87
0.85462630 -0.27656005 1.46836849 116 97 91
0.87590739 -0.36646546 1.63348383 61 64 85
0.87169458 -0.35545260 1.62824512 61 62 80
0.86402208 -0.28218067 1.48011315 115 97 92
0.86213970 -0.27901319 1.47688854 117 98 90
0.86885684 -0.00946294 0.93338227 175 177 179
0.87274516 0.33286859 1.81558214 165 160 160
0.87163860 0.33763954 1.82228994 152 147 143
0.86966624 0.34845682 1.81406845 158 151 150
0.87321344 0.34787600 1.82228994 164 157 154
0.86911667 0.37336548 1.41262269 129 99 85
0.87270395 0.37242538 1.42415006 129 100 84
0.87951690 0.36321491 1.83214009 163 156 153
0.88585579 -0.38001803 1.64937186 59 56 77
0.89315095 -0.38438927 1.66832364 60 58 78
0.89762622 -0.38174701 1.68211377 62 63 83
0.88324201 -0.37211449 1.64804395 61 61 83
0.88949764 -0.37706873 1.66149962 63 64 86
0.89762622 -0.37883961 1.68211377 62 63 83
0.88282121 -0.00962184 0.93677978 176 177 177
0.88688338 -0.00483346 0.94195294 171 172 172
0.89137124 0.33471615 1.82830209 159 153 153
0.89987785 0.35995743 1.43926084 125 99 82
0.88723401 0.34831541 1.83149591 152 144 142
0.89575894 0.34990610 1.84209740 158 149 146
0.89405947 0.37599651 1.43461462 126 96 81
0.89710000 0.37136291 1.44316179 127 95 81
0.88507566 0.36419922 1.83710527 169 162 160
0.89217507 0.37129116 1.84941824 158 150 149
0.89607286 0.38072956 1.43317509 126 96 84
0.89477515 0.38103080 1.85723794 182 176 174
0.89970505 0.38797179 1.86747062 172 165 161
0.90956151 -0.40025675 1.69897699 58 57 71
0.91414368 -0.40522450 1.70753610 57 56 72
0.91813034 -0.40236235 1.72053766 59 58 72
0.90233171 -0.39013932 1.68911556 58 58 74
0.91119236 -0.39637050 1.70753610 59 59 71
0.91111648 0.33373174 1.83256946 160 154 150
0.91285387 0.33711950 1.84281445 154 147 146
0.91338220 0.35924668 1.43926084 127 94 79
0.91737964 0.34719017 1.82556446 151 149 152
0.91059324 0.35065896 1.85000652 160 156 152
0.90995160 0.37098620 1.43800248 124 94 79
0.90996227 0.36925186 1.44288222 125 95 81
0.90859910 0.36981078 1.85596934 163 159 156
0.91177170 0.37323809 1.86264200 159 151 151
0.91335828 0.38360398 1.43697709 127 99 82
0.91052812 0.38388948 1.85554647 161 156 156
0.91089178 0.38887956 1.86773117 157 149 148
0.90964356 0.39852791 1.88303292 147 139 139
0.91426846 0.40591796 1.89091539 165 160 156
0.93200132 -0.42528552 1.73640604 53 51 66
0.93504932 -0.42985386 1.74565065 52 50 66
0.92520617 -0.41306253 1.73006805 55 54 69
0.93879428 -0.22141611 0.83381613 188 192 191
0.92000383 0.33879694 1.83710527 166 157 157
0.92034394 0.34626016 1.83462268 139 135 137
0.92367191 0.35092750 1.85083058 139 138 137
0.92620343 0.35793580 1.86234021 137 137 131
0.92226666 0.36742038 1.43926084 125 98 82
0.92873799 0.37196815 1.44726821 123 96 79
0.92045581 0.36177027 1.85723794 163 163 157
0.92591081 0.37112667 1.86661792 152 141 143
0.92817861 0.38354538 1.44848680 125 94 78
0.93870533 0.38180147 1.46097374 124 98 78
0.92045581 0.38103080 1.85723794 137 131 131
0.95868349 -0.46375807 1.77924371 49 48 64
0.95755947 -0.46156809 1.78863287 51 50 63
0.94261579 -0.44332830 1.75317895 51 50 65
0.95098540 -0.45037356 1.77063865 50 49 64
0.95671850 -0.45187716 1.78707214 52 50 65
0.94079256 -0.43688864 1.75165856 52 50 65
0.94203997 -0.42809680 1.76534331 52 50 64
0.95195621 -0.43568647 1.78392589 51 50 67
0.95045982 -0.22134720 0.83662852 192 198 199
0.95859888 -0.22548252 0.84001470 194 202 203
0.95154305 -0.21509664 0.83667977 188 193 197
0.95633684 0.31831938 1.23853656 117 91 77
0.95477819 0.32136914 1.23929036 117 93 77
0.95695209 0.33029215 1.24490805 118 93 77
0.95857486 0.34135847 1.24841964 112 93 79
0.94465263 0.37357111 1.46334377 120 96 78
0.95170780 0.38837945 1.47261926 126 98 77
0.96885520 -0.48266417 1.79812157 51 50 65
0.97219867 -0.48667170 1.81014124 49 49 63
0.97557807 -0.48915160 1.82228994 50 49 63
0.96305068 -0.47109905 1.79195262 49 49 65
0.96777344 -0.47898942 1.80771160 48 50 64
0.97768474 -0.46646202 1.83214009 50 49 63
0.96465927 -0.45244659 1.80773094 50 49 63
0.96927869 -0.44505605 1.82228994 52 50 67
0.96388443 -0.22216653 0.83845654 194 199 199
0.96493579 -0.22642611 0.84081698 195 200 200
0.96321992 -0.21763033 0.83853062 189 195 196
0.97119935 -0.21291257 0.84341457 192 198 199
0.96163263 0.32708117 1.23929036 117 91 74
0.96301690 0.33231874 1.24478871 116 91 75
0.97105582 0.34806515 1.25137960 115 91 76
0.97334681 0.35851667 1.26197882 120 90 73
0.97086106 0.37531789 1.23590639 117 91 80
0.97543920 0.36902199 1.25361406 116 88 77
0.97038148 0.36700036 1.26231276 119 88 74
0.96169430 0.38978955 1.47688854 131 103 80
0.98668486 -0.50265431 1.83710527 45 48 58
0.99264318 -0.50677985 1.85217273 45 48 58
0.98110864 -0.49587438 1.82967091 48 49 60
0.99380046 -0.48058873 1.86234021 50 49 62
0.98836982 -0.47476128 1.85216355 51 50 62
0.99881351 -0.46510863 1.87781680 51 49 64
0.98786759 -0.45680147 1.85723794 51 49 66
0.98552405 -0.21306601 0.85327321 188 193 194
0.99857505 0.20188562 0.94810607 177 178 178
0.98577118 0.35348460 1.25420168 117 88 79
0.99294582 0.35543607 1.26394439 120 88 79
0.98518037 0.36892881 1.25548463 114 91 75
0.99051475 0.36795952 1.26256211 114 89 79
1.00299370 -0.52064592 1.86747062 47 47 60
1.01899540 -0.52247727 1.90955448 46 49 59
1.00023830 -0.51599669 1.86234021 46 49 59
1.00951811 -0.50781151 1.89179448 48 48 61
1.01613307 -0.51771843 1.90419054 45 48 58
1.00205922 -0.48782822 1.87781680 49 48 62
1.00484264 -0.49569263 1.88303292 47 48 63
1.01570296 -0.48783045 1.90956962 49 49 60
1.00438313 -0.47423576 1.88828790 49 48 61
1.01525426 -0.47099587 1.91494870 50 49 66
1.00893011 0.19864617 0.95470395 169 169 169
1.01492963 0.19580342 0.96403522 172 173 176
1.00437115 0.20054314 0.95244842 165 165 167
1.01594158 0.61851845 1.52908111 117 95 69
1.01247869 0.63110668 1.53089977 127 96 82
1.01084518 0.63974863 1.54417276 128 97 83
1.01988947 0.64070821 1.53369200 131 95 82
1.01234541 0.64568599 1.54938206 127 98 82
1.01571019 0.65453243 1.56678363 125 99 81
1.03911150 -0.52101648 1.95357883 47 49 62
1.03020477 -0.50315994 1.93683386 48 47 62
1.03811618 -0.51377392 1.95170756 46 48 62
1.02726972 -0.49838832 1.93131578 48 47 59
1.03574347 -0.48894764 1.95359498 49 49 60
1.02393162 -0.47835958 1.93131578 51 49 63
1.02655654 0.18810761 0.97069003 173 175 179
1.03120129 0.19207729 1.27184959 177 182 184
1.03688320 0.19732532 1.28714983 175 186 185
1.03198969 0.20802890 1.25768435 172 178 182
1.03232291 0.20824414 1.26952891 176 181 184
1.03709070 0.20812294 1.28511035 175 180 183
1.02851963 0.61965430 1.54066324 116 95 74
1.03289872 0.63141445 1.54300381 121 94 76
1.03011617 0.64546008 1.54505950 127 94 80
1.02333093 0.65749854 1.56739879 124 98 81
1.04781342 -0.50318056 1.97636104 49 49 60
1.05396497 -0.51301348 1.98796403 47 47 58
1.04476738 -0.49831182 1.97061586 49 49 60
1.05411795 0.18757073 0.98926879 182 183 185
1.04473580 0.19625673 1.27562537 169 170 171
1.05166609 0.18926315 1.28449974 170 170 172
1.04274299 0.20239091 1.27445909 182 183 187
1.04510770 0.20436518 1.29223065 172 177 179
1.04050279 0.61965430 1.54066324 119 94 76
1.04444960 0.63301409 1.54821269 119 94 76
1.04342206 0.64502475 1.54829125 126 93 78
1.07062813 0.18845742 1.29051516 169 171 173
1.07507781 0.18609949 1.30197004 162 166 169
1.15486103 -0.30314216 1.55480599 155 148 151
1.15747714 -0.31938294 1.56196272 157 148 149
1.15487794 -0.28722085 1.55362268 164 163 164
1.16935081 -0.32436320 1.56776125 152 145 145
1.17646396 -0.32420465 1.59005904 155 146 147
1.16291004 -0.31693961 1.55658489 157 148 149
1.17182888 -0.31030410 1.57238930 156 149 151
1.17646611 -0.31000918 1.59006480 157 151 152
1.16289687 -0.28363296 1.55837202 175 175 175
1.16995382 -0.29204134 1.57283911 162 160 161
1.17554468 -0.28681459 1.58976446 159 160 160
1.17858830 -0.29220012 1.60543388 151 147 146
1.16824436 -0.27875650 1.57649267 162 167 172
1.17924941 -0.27993774 1.59880149 157 158 160
1.19124601 -0.32311094 1.57200380 170 169 170
1.19308815 -0.33170328 1.58533092 155 151 152
1.18765259 -0.32089582 1.61019444 158 153 152
1.19617641 -0.32039586 1.62175083 158 154 153
1.18893425 -0.30607895 1.55837202 191 191 191
1.19055227 -0.30962292 1.56682553 182 183 182
1.18943576 -0.30829876 1.58356771 163 161 162
1.18718173 -0.30534531 1.60893466 158 151 153
1.19462131 -0.30620469 1.62509504 160 153 154
1.19402811 -0.29916456 1.56919828 182 187 186
1.18355421 -0.29522591 1.59397738 156 154 155
1.18556394 -0.29576412 1.60972883 154 148 148
1.18204951 -0.27815880 1.60447997 156 157 159
1.20396769 -0.34188327 1.59129536 185 186 185
1.20263702 -0.33043417 1.57603544 170 171 173
1.20402765 -0.33321535 1.58218596 169 170 171
1.20192719 -0.30503696 1.62954772 157 149 149
1.39699703 -0.55070737 1.40350623 198 203 205
1.41125454 -0.56532916 1.41062577 197 202 203
1.41421854 -0.57307237 1.42115688 206 208 207
1.40652481 -0.55086028 1.39730425 194 201 202
1.40907674 -0.55025091 1.40760451 197 203 205
1.41448868 -0.54615722 1.42142830 195 198 200
1.41269312 -0.53761476 1.40934589 184 188 188
1.41829041 -0.53830141 1.42339608 184 185 188
1.42281580 -0.57307237 1.42115688 202 206 207
1.42790034 -0.54609285 1.41333819 199 205 205
1.42627503 -0.54541039 1.42915849 191 194 196
1.42471870 -0.53823298 1.41424572 191 195 194
1.42951699 -0.53737891 1.42339845 189 191 193
1.44561150 -0.54328257 1.42465903 197 202 203
1.44512892 -0.53905146 1.42864931 187 191 195
