ply
format ascii 1.0
element vertex 1050
property float x
property float y
property float z
property uchar red
property uchar green
property uchar blue
end_header
0.91007599 0.35027519 0.86339321 148 149 154
0.90994187 0.37126163 0.85751086 164 168 170
0.91107322 0.36145868 0.86032458 171 174 175
0.90990468 0.39029866 0.85185943 164 166 168
0.90361681 0.41985037 0.83253474 4 4 4
0.91017527 0.41025822 0.84444451 158 157 157
0.90993434 0.43756462 0.81876192 0 0 0
0.91027364 0.42661941 0.82604502 7 6 6
0.90995203 0.44981609 0.81268510 0 0 0
0.92981998 -0.74708230 1.11475275 193 201 200
0.93001759 -0.72998352 1.11208210 193 196 196
0.92995256 -0.70958046 1.10867964 194 197 198
0.93001685 -0.69034823 1.10546833 189 195 194
0.93001511 -0.67013139 1.10207030 191 198 198
0.92991800 -0.64901865 1.09857952 196 197 198
0.93028754 -0.65849352 1.10013882 193 197 197
0.92996614 -0.63003494 1.09528207 192 195 200
0.92995559 -0.60999609 1.09167871 196 198 198
0.92992071 -0.59026118 1.08805612 196 199 199
0.93002036 -0.57022495 1.08418532 199 204 204
0.93007434 -0.54423046 1.07918732 199 200 200
0.92999874 -0.55460507 1.08118819 200 202 204
0.93004853 -0.52989283 1.07642597 201 204 205
0.92994629 -0.50933769 1.07233837 200 203 205
0.92995964 -0.48991294 1.06833647 199 203 204
0.93007018 -0.47052902 1.06411480 195 195 196
0.92999705 -0.44597594 1.05833390 200 201 203
0.93003139 -0.45618418 1.06080696 192 195 195
0.93007654 -0.42973552 1.05432113 203 206 206
0.92995961 -0.40954708 1.04934860 203 209 209
0.92986614 -0.38972239 1.04467227 198 201 202
0.93033027 -0.36452871 1.03905327 188 191 194
0.92970708 -0.37431313 1.04116497 185 188 190
0.93003840 -0.34962470 1.03583764 189 189 190
0.93000529 -0.32947546 1.03140258 194 195 197
0.92997442 -0.31036684 1.02713601 192 197 198
0.92996030 -0.29040423 1.02268620 189 192 198
0.93001535 -0.26879288 1.01784101 189 192 193
0.92966008 -0.27912796 1.02015922 178 178 186
0.92986127 -0.25016315 1.01363561 175 177 181
0.93012396 -0.23069438 1.00916977 190 193 195
0.92998303 -0.21062796 1.00458006 190 193 195
0.92960662 -0.18568255 0.99892319 185 191 194
0.93029436 -0.19559487 1.00115797 194 198 199
0.92993919 -0.16998994 0.99530080 187 189 191
0.92998247 -0.14940298 0.99052192 188 192 193
0.92994864 -0.13002734 0.98588298 187 191 193
0.92934042 -0.10268338 0.97924119 185 191 195
0.93030656 -0.11306902 0.98179270 184 187 190
0.92996826 -0.08986289 0.97620709 184 189 189
0.92997479 -0.07011416 0.97149914 186 190 192
0.92994627 -0.04984224 0.96662936 184 184 185
0.92602211 -0.02095984 0.95973677 184 189 191
0.93044634 -0.03048206 0.96213469 183 187 188
0.92995710 -0.00959020 0.95730792 177 178 180
0.92997301 0.01019870 0.95273897 175 178 181
0.93003567 0.02977826 0.94826586 169 173 176
0.92999404 0.05009487 0.94369071 145 144 150
0.92942200 0.07319164 0.93858079 165 168 170
0.93128328 0.06383953 0.94071793 164 165 163
0.92995317 0.08995806 0.93464343 170 175 179
0.93001047 0.11038587 0.92972930 166 167 170
0.93001025 0.13057330 0.92475119 162 164 169
0.92955157 0.15492119 0.91854710 175 178 181
0.93071971 0.14512742 0.92113768 166 170 174
0.93012168 0.17023795 0.91458424 175 177 178
0.92997990 0.18971726 0.90945122 179 180 181
0.92995602 0.20967477 0.90401324 178 180 181
0.92960720 0.23214146 0.89766637 175 179 181
0.93182460 0.22222821 0.90064581 176 182 184
0.93003286 0.25029705 0.89254925 170 170 170
0.93002859 0.27012406 0.88688369 171 176 177
0.92920682 0.29681074 0.87929316 171 172 174
0.93041991 0.28725363 0.88209241 169 170 172
0.93007059 0.30981101 0.87567085 169 171 172
0.93001534 0.33030165 0.86986492 167 171 174
0.93007343 0.35049292 0.86395059 164 167 168
0.92990649 0.37231154 0.85774484 164 166 169
0.93034519 0.36238740 0.86053056 169 170 171
0.93007057 0.38999537 0.85246228 162 165 167
0.93008820 0.40990567 0.84473401 160 162 164
0.92932613 0.43809422 0.81904787 0 0 0
0.93023906 0.42687121 0.82731736 14 14 14
0.92992723 0.44993838 0.81305634 0 0 0
0.94998868 -0.74709529 1.11452380 197 203 203
0.94995123 -0.72991927 1.11181664 195 199 200
0.95002085 -0.70937799 1.10836460 191 196 196
0.94995353 -0.69015856 1.10519594 191 193 194
0.94998553 -0.66991261 1.10180114 192 196 197
0.94993029 -0.64992707 1.09854168 199 202 203
0.95009934 -0.62987221 1.09512372 197 200 200
0.94987631 -0.61000040 1.09158011 193 198 198
0.94994570 -0.58998423 1.08790188 192 194 195
0.95005224 -0.57018560 1.08411095 199 202 202
0.95005260 -0.54423816 1.07911645 199 199 201
0.94987736 -0.55460641 1.08113196 201 203 204
0.94998761 -0.52986844 1.07635926 201 205 205
0.95005146 -0.50928558 1.07222854 203 205 206
0.94994962 -0.48983155 1.06820059 202 204 205
0.95000876 -0.47040010 1.06397576 196 199 199
0.95027532 -0.44678405 1.05842650 196 196 197
0.94955713 -0.45692180 1.06087834 194 196 198
0.95021233 -0.42958172 1.05418794 204 207 209
0.94991378 -0.40955402 1.04926181 203 210 211
0.94984550 -0.38962507 1.04458649 196 197 198
0.94986104 -0.36508330 1.03915134 186 187 188
0.95016583 -0.37473104 1.04125789 190 190 191
0.95004650 -0.34965158 1.03583096 187 188 189
0.94994874 -0.32941583 1.03136548 186 187 189
0.94998124 -0.31023046 1.02704964 184 187 189
0.94997024 -0.29039677 1.02261003 193 198 201
0.94994645 -0.26883927 1.01781212 183 188 190
0.94985572 -0.27910376 1.02007081 194 199 202
0.95020970 -0.24946186 1.01352421 183 186 188
0.94992484 -0.23009687 1.00918410 183 185 186
0.94995883 -0.21075688 1.00493141 189 191 194
0.94966261 -0.18460740 0.99914696 190 193 193
0.95029831 -0.19450987 1.00138679 187 191 193
0.94997327 -0.17005915 0.99585517 186 191 192
0.94999537 -0.14961707 0.99121385 187 194 194
0.94995892 -0.13014005 0.98663598 186 187 188
0.94797028 -0.10100999 0.97964484 185 190 192
0.95028189 -0.11125296 0.98218203 182 187 190
0.95004354 -0.09007236 0.97716583 181 184 186
0.95007154 -0.07027057 0.97246868 184 188 189
0.94994599 -0.04974270 0.96753592 185 190 192
0.95004215 -0.02958361 0.96277393 183 185 186
0.94970664 -0.00861397 0.95790580 183 188 189
0.95288759 -0.01828490 0.96030216 183 185 187
0.94990875 0.01019472 0.95346951 175 180 182
0.95012076 0.02984261 0.94901332 169 173 174
0.94999906 0.05016841 0.94448770 166 167 168
0.94945763 0.07498298 0.93893286 165 169 171
0.95051324 0.06554150 0.94107842 164 168 170
0.94993488 0.09003844 0.93547565 170 173 173
0.95002929 0.11049313 0.93063151 171 173 175
0.94998614 0.13057636 0.92565546 171 172 174
0.94924000 0.15675811 0.91907450 175 178 181
0.95071055 0.14681757 0.92164349 177 182 184
0.95019839 0.17043665 0.91565135 176 180 181
0.95001879 0.18997825 0.91051050 179 181 181
0.94999146 0.20990105 0.90502812 171 172 173
0.94961064 0.23405535 0.89816721 172 174 177
0.95080802 0.22405619 0.90113173 175 176 178
0.94999434 0.25045279 0.89347417 173 175 176
0.95000629 0.27037121 0.88764258 168 173 174
0.94913139 0.29835477 0.87962446 170 174 178
0.95016136 0.28869155 0.88238412 168 170 170
0.95004688 0.31006692 0.87626201 163 166 169
0.95000004 0.33050630 0.87030427 163 168 170
0.94997404 0.35054978 0.86427842 165 168 170
0.94974589 0.37280556 0.85789159 164 165 167
0.95084750 0.36293423 0.86066683 159 160 163
0.94995530 0.39009007 0.85257507 162 165 167
0.94992946 0.40978434 0.84474209 158 161 165
0.94530262 0.43917363 0.81938601 0 0 0
0.95013059 0.42830842 0.82757450 16 16 17
0.95866058 0.42063885 0.84006867 153 152 158
0.94984470 0.45000537 0.81450407 0 0 0
0.95923521 0.44039519 0.82007772 0 0 0
0.95423384 0.46041753 0.81041169 0 0 0
0.96994540 -0.74688892 1.11437698 194 199 200
0.96966491 -0.73044689 1.11169812 196 200 201
0.97015341 -0.71009306 1.10825735 189 196 197
0.97005716 -0.69003627 1.10500141 188 192 193
0.96992734 -0.66992328 1.10165516 192 195 196
0.96995862 -0.64984326 1.09840125 191 194 195
0.96995437 -0.62995060 1.09502606 194 198 197
0.97001591 -0.60994084 1.09147369 154 152 156
0.96990877 -0.58999452 1.08784060 173 173 175
0.96999361 -0.57013935 1.08406004 197 199 200
0.97039761 -0.54446713 1.07907513 193 198 197
0.96978154 -0.55476475 1.08109476 196 196 197
0.97003690 -0.52974727 1.07619994 197 201 202
0.96996587 -0.51019565 1.07227537 192 196 196
0.97014551 -0.49068221 1.06822625 197 200 201
0.97001776 -0.47036598 1.06384182 195 200 200
0.97000559 -0.44692376 1.05841035 201 202 204
0.96978742 -0.45718068 1.06086020 204 204 205
0.97001636 -0.42963183 1.05414658 205 207 209
0.97002093 -0.40947246 1.04922042 205 212 212
0.96997316 -0.38963291 1.04458531 190 191 192
0.96997389 -0.36418502 1.03901927 186 186 188
0.97007285 -0.37394681 1.04113874 187 189 189
0.96999015 -0.34969840 1.03592660 187 189 190
0.96995631 -0.32953722 1.03152091 185 186 187
0.96998053 -0.31045893 1.02730555 196 198 199
0.97002141 -0.29050411 1.02283621 194 197 199
0.96991390 -0.26879661 1.01797650 190 194 195
0.97030019 -0.27900535 1.02024810 192 199 199
0.97000364 -0.24930871 1.01365452 184 188 191
0.96996994 -0.22999885 1.00945103 185 190 189
0.96995973 -0.21071648 1.00534091 190 193 194
0.96965503 -0.18267255 0.99926090 189 194 194
0.97031781 -0.19331452 1.00162826 188 192 192
0.96998626 -0.16938440 0.99631465 188 193 194
0.96989969 -0.14967703 0.99188668 193 196 197
0.97011034 -0.13020579 0.98734112 190 194 195
0.96995567 -0.10998379 0.98265919 184 190 191
0.96977362 -0.08970065 0.97790051 187 190 191
0.97458009 -0.09877623 0.98021237 186 191 190
0.97003341 -0.07038889 0.97332819 183 184 185
0.96996019 -0.04996519 0.96843022 187 191 193
0.97002602 -0.02967445 0.96356425 183 187 189
0.96978886 -0.00709780 0.95825557 178 182 186
0.97110973 -0.01692618 0.96063156 173 176 179
0.96998811 0.01020222 0.95417155 177 181 184
0.97012154 0.02990334 0.94964867 164 167 173
0.97001611 0.05009877 0.94517285 170 174 176
0.96905888 0.07651968 0.93924803 143 143 149
0.97042996 0.06706682 0.94141022 171 173 174
0.96998785 0.09015149 0.93621389 162 163 166
0.96991295 0.11043794 0.93151263 168 171 173
0.97026741 0.12994623 0.92671769 164 163 164
0.96756780 0.15850857 0.91948339 180 185 187
0.97027083 0.14816577 0.92220809 173 178 181
0.97029629 0.17031280 0.91656697 170 172 176
0.96995356 0.19008930 0.91128207 168 167 171
0.97000322 0.21005643 0.90571891 176 179 181
0.96967268 0.23531278 0.89844105 173 177 178
0.97041258 0.22524152 0.90143682 168 170 173
0.96995836 0.25061132 0.89397690 166 168 170
0.96997249 0.27047864 0.88812412 173 177 177
0.96831754 0.29912747 0.87984716 168 170 172
0.97009371 0.28948351 0.88262848 167 170 172
0.96997264 0.31012906 0.87668170 165 167 169
0.96990924 0.33009029 0.87080603 164 166 167
0.96991136 0.34982958 0.86486806 164 169 171
0.96950559 0.37336701 0.85809770 158 162 163
0.97098173 0.36321204 0.86094623 164 169 171
0.97007661 0.38994461 0.85296010 162 165 168
0.97004286 0.41004317 0.84523453 157 160 167
0.96955603 0.42954822 0.82819186 11 11 12
0.97196951 0.42131418 0.84040239 146 145 153
0.96940745 0.45153722 0.81623488 0 0 0
0.97281522 0.44195192 0.82106991 0 0 0
0.97168746 0.46102386 0.81253890 0 0 0
0.98995890 -0.74707592 1.11435793 194 200 202
0.98998590 -0.73072168 1.11165955 196 201 202
0.98993500 -0.71016380 1.10814895 195 201 200
0.98996243 -0.68998241 1.10485031 192 196 196
0.99765034 -0.66030178 1.09998349 193 197 198
0.98977788 -0.67000325 1.10155342 193 197 199
0.98993035 -0.64984721 1.09834048 194 197 198
0.99001511 -0.62982720 1.09499828 196 198 197
0.99012659 -0.60988678 1.09155581 182 185 185
0.99001536 -0.59006629 1.08784284 190 192 193
0.98998408 -0.57019001 1.08397189 196 197 199
0.99002919 -0.54522967 1.07905248 196 198 198
0.99003846 -0.55560682 1.08109919 202 203 203
0.99003974 -0.52975530 1.07602431 197 200 201
0.98998191 -0.51015919 1.07211964 199 203 204
0.98995822 -0.49070773 1.06809590 198 201 202
0.99005855 -0.47038620 1.06375440 193 195 196
0.99002481 -0.44693568 1.05843876 197 202 202
0.98962825 -0.45710368 1.06081450 193 194 198
0.99001823 -0.42966325 1.05420331 201 206 207
0.99008078 -0.40950799 1.04924843 204 208 208
0.99007396 -0.38965598 1.04464826 187 189 189
0.99007380 -0.36425126 1.03915128 186 186 186
0.98999745 -0.37399582 1.04127517 184 185 187
0.98992401 -0.34972187 1.03608352 186 189 190
0.98998839 -0.32956652 1.03176252 184 187 187
0.99009067 -0.30963394 1.02750441 186 186 187
0.98991022 -0.28975812 1.02312032 191 193 194
0.98975391 -0.26766332 1.01820297 191 196 197
0.99108275 -0.27784882 1.02049714 190 196 196
0.99001168 -0.24941827 1.01415923 185 189 191
0.99020012 -0.22948219 1.00984922 190 193 193
0.98998315 -0.20988547 1.00569156 188 190 192
0.98899566 -0.18141605 0.99957011 192 198 198
0.99002979 -0.19171478 1.00183117 187 190 191
0.99005203 -0.16936786 0.99695125 184 188 191
0.98996451 -0.14979087 0.99255080 182 184 185
0.99004261 -0.13031088 0.98803595 191 194 196
0.99007632 -0.11023059 0.98342364 186 191 192
0.98980019 -0.08809320 0.97821523 186 189 191
0.99106899 -0.09759323 0.98048215 189 192 195
0.98984764 -0.07030549 0.97396363 178 179 181
0.98990711 -0.04985293 0.96907775 191 195 198
0.99011012 -0.02962243 0.96418299 185 191 194
0.98989098 -0.00585001 0.95850014 183 187 190
0.99064828 -0.01576358 0.96090049 178 180 181
0.98994967 0.01030241 0.95471346 178 179 181
0.99001812 0.02988718 0.95024293 171 177 178
0.99000211 0.05015512 0.94583325 173 179 180
0.98856651 0.07798417 0.93962435 176 181 179
0.99029999 0.06857304 0.94176180 168 173 173
0.99002993 0.09018331 0.93687062 171 176 177
0.98997874 0.10993387 0.93227978 169 172 175
0.99009086 0.12933360 0.92754252 163 167 169
0.99000623 0.14942988 0.92256417 162 164 169
0.98992464 0.17009907 0.91727280 164 166 170
0.99824113 0.16013176 0.92004158 170 171 174
0.98998229 0.19025654 0.91180406 174 175 176
0.98995419 0.21025391 0.90614577 174 178 179
0.98929517 0.23587157 0.89869173 171 176 178
0.99036264 0.22595455 0.90163825 165 174 176
0.98996572 0.25027052 0.89451020 171 174 176
0.99010030 0.27028538 0.88863762 168 172 174
0.98998274 0.29023379 0.88289626 168 172 174
0.98975621 0.31054230 0.87709070 164 165 169
0.99596889 0.30073225 0.88009307 164 165 168
0.99003805 0.33002617 0.87141874 164 167 170
0.99001118 0.34964635 0.86566546 162 166 170
0.98947315 0.37427117 0.85861667 164 167 170
0.99047017 0.36444694 0.86139104 163 166 171
0.99001765 0.38983542 0.85373051 158 160 164
0.98981186 0.41009270 0.84600057 155 158 164
0.98972831 0.43036727 0.82992752 9 10 11
0.99139159 0.42149531 0.84109749 148 150 157
0.98882599 0.45430084 0.81776097 0 0 0
0.99119228 0.44480057 0.82219482 0 0 0
0.99165896 0.46182063 0.81576756 0 0 0
1.00993704 -0.74671885 1.11421569 197 201 200
1.00997571 -0.73064214 1.11157069 193 198 198
1.00998998 -0.71024926 1.10811128 191 197 197
1.00995846 -0.68989489 1.10477506 191 195 194
1.00994882 -0.66026292 1.09991876 191 196 197
1.01000106 -0.67081402 1.10159651 192 195 196
1.01000571 -0.64975481 1.09825143 194 197 197
1.01007937 -0.62984942 1.09500706 190 193 194
1.01001061 -0.61002522 1.09155408 191 194 195
1.01007973 -0.58999555 1.08777681 190 191 194
1.01001029 -0.57002353 1.08387686 197 200 202
1.01011557 -0.54504617 1.07896268 203 205 207
1.00996979 -0.55537811 1.08099455 199 206 206
1.01005895 -0.52956801 1.07592363 195 198 198
1.01006116 -0.51002529 1.07199732 201 204 205
1.00987937 -0.49066460 1.06798318 199 203 203
1.01003367 -0.47028098 1.06366907 197 198 199
1.01017429 -0.44694701 1.05846580 189 192 194
1.00975811 -0.45708599 1.06077347 193 197 198
1.01004208 -0.42975878 1.05429446 200 203 205
1.01006313 -0.40957657 1.04946756 197 201 202
1.00998298 -0.38978789 1.04497970 188 191 193
1.00949862 -0.36363480 1.03935309 183 187 188
1.01032237 -0.37330247 1.04144788 179 184 185
1.00999968 -0.34991630 1.03648402 183 187 187
1.00993215 -0.32971137 1.03219053 185 187 187
1.01009580 -0.30971177 1.02796018 184 187 187
1.00998278 -0.28982045 1.02365050 187 190 190
1.00990337 -0.26648809 1.01850691 187 192 194
1.01043489 -0.27678232 1.02079544 186 191 191
1.00993454 -0.24958750 1.01472997 188 193 195
1.00998649 -0.22930802 1.01031980 186 187 187
1.00999915 -0.20921323 1.00606149 183 187 189
1.00877697 -0.18024738 0.99983284 191 195 196
1.01017450 -0.18999245 1.00198044 189 193 194
1.00994425 -0.16953153 0.99750441 186 188 190
1.01006260 -0.14984107 0.99306492 189 192 193
1.00997093 -0.13033681 0.98853685 189 190 191
1.01012444 -0.11013335 0.98387563 184 186 188
1.00953116 -0.08722861 0.97853251 183 188 190
1.01099453 -0.09658363 0.98073585 187 191 193
1.01000591 -0.07043921 0.97455367 188 191 192
1.00990844 -0.04997113 0.96960863 183 185 188
1.01013505 -0.02963101 0.96467075 181 187 188
1.00993589 -0.00489172 0.95874530 176 181 183
1.01038765 -0.01483472 0.96112735 181 184 184
1.00995469 0.01022486 0.95518499 180 183 184
1.01003263 0.02989651 0.95072546 176 179 181
1.01001269 0.05021229 0.94631295 168 172 174
1.00754296 0.07910717 0.93984323 178 179 182
1.01022031 0.06972956 0.94198792 166 170 173
1.01006321 0.09024582 0.93730856 170 172 176
1.01010142 0.10994361 0.93264182 168 173 176
1.00997917 0.12941493 0.92790562 170 173 176
1.00996910 0.14945955 0.92293529 169 172 174
1.00995415 0.17081045 0.91744954 166 169 172
1.01038252 0.16016573 0.92023673 165 173 174
1.00995058 0.19024724 0.91217989 169 172 175
1.01000293 0.21023523 0.90654755 179 184 185
1.00944869 0.23610037 0.89907028 175 179 181
1.01021155 0.22680033 0.90179334 171 177 178
1.00995841 0.24939793 0.89524674 172 176 178
1.00981348 0.26988373 0.88935540 171 174 178
1.01008691 0.29029100 0.88359336 162 165 172
1.00963514 0.31131282 0.87770753 166 171 174
1.01191987 0.30186567 0.88044175 165 167 172
1.01001468 0.32982769 0.87246170 164 171 174
1.00996642 0.35005307 0.86665228 163 167 170
1.00871432 0.37667661 0.85907750 159 160 164
1.01052061 0.36694140 0.86186796 159 162 165
1.00992552 0.39017769 0.85493936 157 159 160
1.01015630 0.41016985 0.84738685 153 157 163
1.00918676 0.43082117 0.83161135 6 6 6
1.01010166 0.42229285 0.84195020 154 155 161
1.00175449 0.45549366 0.81868484 0 0 0
1.00496926 0.44548395 0.82346627 0 0 0
1.00144225 0.46143059 0.81779408 0 0 0
1.02999283 -0.74690604 1.11424117 198 203 203
1.02989970 -0.73061443 1.11152732 195 199 201
1.03007692 -0.71010826 1.10806234 186 193 192
1.02997862 -0.68992444 1.10475755 186 193 192
1.02991655 -0.66026665 1.09992498 192 193 195
1.03000386 -0.67077163 1.10159318 193 197 198
1.02989744 -0.64977830 1.09822324 193 196 197
1.03008086 -0.62993096 1.09496353 182 187 187
1.02996214 -0.60982825 1.09144927 181 184 185
1.02997025 -0.58993381 1.08772836 193 197 197
1.03005144 -0.57004246 1.08383818 193 199 199
1.02999181 -0.54504250 1.07888820 199 206 207
1.02991630 -0.55547096 1.08096929 194 198 200
1.03007195 -0.52956947 1.07585660 197 203 203
1.03003803 -0.51001955 1.07190629 199 203 203
1.02993045 -0.49055613 1.06789506 195 200 201
1.02999767 -0.47029772 1.06368862 199 201 200
1.03009842 -0.44691868 1.05851444 193 198 197
1.02999975 -0.45711860 1.06084912 194 197 196
1.02995347 -0.42981820 1.05452203 197 200 200
1.03004073 -0.40976666 1.04986901 192 197 198
1.02994380 -0.38988799 1.04542586 188 193 194
1.02924773 -0.36282289 1.03956350 188 194 196
1.03032286 -0.37249308 1.04165729 187 193 194
1.02997017 -0.34999705 1.03690027 184 190 190
1.02994102 -0.32985390 1.03266271 187 190 192
1.03011634 -0.30982340 1.02842778 187 193 195
1.03003819 -0.28993695 1.02414687 191 197 198
1.03010993 -0.26547708 1.01877532 185 188 190
1.03000401 -0.27574306 1.02102804 188 191 192
1.02993360 -0.24974988 1.01527429 192 198 199
1.03004534 -0.22938192 1.01083369 190 195 196
1.02998555 -0.20926342 1.00650448 185 189 190
1.03002095 -0.18934920 1.00223874 189 191 192
1.02983567 -0.16925768 0.99787214 182 184 188
1.03667121 -0.17856137 1.00006874 170 174 178
1.03008495 -0.14987650 0.99347947 185 189 190
1.03006717 -0.13047711 0.98898741 188 191 192
1.03018157 -0.11033870 0.98438950 188 193 193
1.02967848 -0.08609385 0.97874740 190 197 198
1.03055263 -0.09561650 0.98099298 186 190 192
1.03004166 -0.07045219 0.97497967 190 194 195
1.03000574 -0.05002690 0.96999903 186 190 191
1.03009129 -0.02976088 0.96504229 185 189 190
1.02976091 -0.00426894 0.95888267 184 188 191
1.03028594 -0.01423367 0.96130373 187 190 192
1.03007366 0.01022799 0.95547026 182 184 186
1.03010405 0.02995529 0.95097703 171 173 176
1.03000931 0.05026532 0.94652816 167 171 172
1.02999017 0.07029631 0.94212168 172 178 179
1.03002266 0.09029966 0.93754782 174 179 184
1.03007964 0.10993634 0.93285880 169 170 173
1.02990996 0.12947580 0.92812553 173 178 180
1.02998419 0.14947749 0.92323118 167 170 174
1.03002384 0.17157934 0.91760894 166 168 172
1.02998387 0.16100848 0.92032722 167 173 172
1.03001196 0.19038092 0.91258634 171 173 175
1.02998631 0.21034546 0.90704405 180 183 185
1.02858082 0.23728253 0.89936919 176 178 184
1.03032871 0.22789554 0.90212212 177 178 182
1.03000494 0.24964621 0.89599289 170 173 175
1.03003960 0.26956836 0.89034629 169 171 177
1.02990841 0.28993504 0.88461927 168 172 175
1.02936488 0.31339985 0.87823261 165 167 171
1.03118441 0.30383932 0.88090326 160 164 170
1.02988694 0.33012221 0.87370076 166 169 172
1.02987386 0.35006196 0.86817194 164 167 169
1.02350223 0.37903394 0.85965091 162 164 166
1.03041551 0.36943617 0.86283922 163 164 167
1.03001335 0.39045419 0.85659554 156 158 160
1.03600227 0.38057681 0.86028340 163 166 171
1.02966838 0.40993760 0.84890827 150 152 157
1.02311946 0.42570831 0.83704091 28 27 28
1.02619316 0.42253911 0.84233312 153 156 160
1.05008722 -0.74687839 1.11426813 198 204 203
1.05006923 -0.73066248 1.11153863 193 199 199
1.05000467 -0.71017766 1.10808436 187 191 192
1.05005317 -0.68989156 1.10476964 184 189 190
1.04988251 -0.66026923 1.09992927 180 181 184
1.04990506 -0.67083035 1.10162302 186 190 191
1.04993995 -0.64969029 1.09820873 185 190 191
1.05009918 -0.62968605 1.09487981 191 197 196
1.04990524 -0.60998432 1.09141062 190 194 195
1.04993667 -0.58997054 1.08768206 196 198 198
1.04998185 -0.57012416 1.08380700 193 200 200
1.04995623 -0.54512522 1.07891399 199 204 205
1.05008939 -0.55550626 1.08097075 196 200 202
1.05007354 -0.52958412 1.07586936 198 204 204
1.05006356 -0.51008976 1.07197362 197 203 203
1.05001649 -0.49063051 1.06796506 197 201 201
1.04991884 -0.47027163 1.06374461 194 200 200
1.04966247 -0.44647538 1.05854347 191 196 196
1.05073772 -0.45644550 1.06077553 194 196 198
1.04981158 -0.42987942 1.05477667 196 198 199
1.04995051 -0.40987711 1.05026091 197 203 204
1.04996787 -0.39008850 1.04585231 187 189 191
1.04993977 -0.36191098 1.03974034 187 189 191
1.05010857 -0.37148321 1.04179252 190 191 194
1.04997866 -0.35015457 1.03727851 184 187 190
1.04997406 -0.32997954 1.03305596 184 188 191
1.05008721 -0.30997833 1.02884505 187 191 192
1.05003935 -0.29008430 1.02458275 195 199 201
1.05010695 -0.26471601 1.01897661 176 179 181
1.05009896 -0.27504462 1.02126117 190 196 196
1.04991028 -0.24974759 1.01567326 188 192 193
1.05004376 -0.22951247 1.01128390 190 193 196
1.05003310 -0.20939501 1.00693456 191 194 195
1.05005031 -0.18935297 1.00262501 194 197 196
1.05010002 -0.16871841 0.99804724 189 192 193
1.04983900 -0.17859596 1.00026245 189 193 194
1.05016585 -0.15000883 0.99381655 180 182 183
1.05010157 -0.13044013 0.98932155 184 187 188
1.05008043 -0.11022199 0.98466689 191 196 197
1.04979254 -0.08578073 0.97888359 189 193 196
1.05040109 -0.09519455 0.98111444 188 192 195
1.04995102 -0.07040854 0.97519658 188 193 193
1.05002117 -0.04990078 0.97019420 189 192 193
1.05012476 -0.02967880 0.96522844 188 191 192
1.05018682 -0.00381667 0.95890587 183 191 193
1.04995206 -0.01373878 0.96134232 189 191 193
1.05004186 0.01022950 0.95560787 184 188 189
1.05000139 0.02990752 0.95108292 178 183 184
1.04991996 0.05021519 0.94656354 172 178 180
1.05002023 0.07037838 0.94218003 174 179 180
1.04991644 0.09022651 0.93774651 174 176 180
1.05009467 0.10993191 0.93310016 169 172 176
1.04998121 0.12947770 0.92842593 173 177 179
1.04989968 0.14955425 0.92351949 169 173 178
1.04956665 0.17185303 0.91794334 169 170 172
1.05106255 0.16151451 0.92056055 170 169 171
1.05019354 0.19025212 0.91318489 168 170 176
1.04999837 0.20981284 0.90794132 173 178 182
1.04577282 0.23871912 0.89977814 176 178 181
1.05020568 0.22907797 0.90269967 172 176 179
1.04991340 0.24983171 0.89685417 174 176 180
1.04991562 0.26988881 0.89130097 169 172 175
1.04996547 0.28970936 0.88595713 162 166 168
1.04882304 0.31639540 0.87891863 164 170 174
1.05074444 0.30623824 0.88170560 163 169 174
1.05013784 0.33008268 0.87535311 167 170 172
1.05013184 0.34988624 0.86984145 165 167 171
1.04964489 0.36957514 0.86419920 164 167 171
1.04553951 0.39112053 0.85734417 161 167 170
1.04791483 0.38170784 0.86055939 162 162 170
1.04228986 0.40416910 0.85210814 166 167 167
1.06994806 -0.74678101 1.11421559 194 202 201
1.07002422 -0.73060908 1.11151996 189 194 193
1.06993109 -0.71024528 1.10810387 183 188 189
1.07003147 -0.68998497 1.10482150 186 189 190
1.06985453 -0.66027547 1.09993966 188 189 190
1.06994661 -0.67081219 1.10165940 188 190 191
1.06997978 -0.64985007 1.09824216 188 192 192
1.07001832 -0.62990942 1.09487801 189 193 194
1.07007013 -0.60981897 1.09132526 187 193 194
1.07008216 -0.58996798 1.08771030 192 195 197
1.06997160 -0.57003014 1.08388947 193 199 201
1.07001477 -0.54514052 1.07901272 200 202 205
1.07000345 -0.55548501 1.08106677 194 198 201
1.06999120 -0.52972686 1.07599986 197 202 204
1.07006131 -0.51028025 1.07213068 198 203 204
1.07003802 -0.49070725 1.06805762 197 205 206
1.06996563 -0.47039822 1.06385815 191 196 197
1.07005724 -0.44601299 1.05858960 191 194 194
1.07007770 -0.45611788 1.06080179 195 197 199
1.06997008 -0.43001262 1.05506276 197 200 201
1.06999886 -0.41004057 1.05061456 199 204 205
1.07006459 -0.39024984 1.04624005 193 199 200
1.06540259 -0.36182487 1.03992336 188 188 189
1.07027618 -0.37113490 1.04202775 190 192 194
1.06999072 -0.35024965 1.03756034 181 182 184
1.06992170 -0.33007404 1.03335202 184 184 186
1.07012047 -0.31007606 1.02921769 184 185 186
1.06986627 -0.29017844 1.02491520 197 202 202
1.06986426 -0.26397446 1.01913742 176 181 183
1.07022882 -0.27424219 1.02139430 189 194 195
1.06991249 -0.24991049 1.01604339 184 187 189
1.06996059 -0.22953075 1.01154993 191 195 197
1.06995050 -0.20939438 1.00713300 192 195 196
1.07001403 -0.18948870 1.00275904 192 194 194
1.06999796 -0.16872813 0.99810360 184 188 189
1.06980409 -0.17860993 1.00034072 190 194 193
1.07003822 -0.14994083 0.99390626 188 191 192
1.07006791 -0.13045826 0.98945742 176 176 177
1.07002013 -0.11033254 0.98483105 187 190 192
1.07013764 -0.08513214 0.97882701 191 195 195
1.06997132 -0.09468714 0.98109034 190 195 198
1.07001887 -0.07051454 0.97526915 189 196 197
1.06996580 -0.04998274 0.97017956 190 193 195
1.07000410 -0.02970625 0.96517213 188 192 195
1.07003038 -0.00381648 0.95886538 189 192 194
1.07005355 -0.01381623 0.96129514 187 192 195
1.06987933 0.01022969 0.95562320 177 181 185
1.07000731 0.02989300 0.95115225 180 183 186
1.06995149 0.05018552 0.94658857 179 183 184
1.07009452 0.07029095 0.94218944 178 181 183
1.06998577 0.09024235 0.93779407 171 174 179
1.07004598 0.11004831 0.93324828 170 174 177
1.07003224 0.12954356 0.92868025 172 175 180
1.06992482 0.14964474 0.92389202 169 173 176
1.06970634 0.17251418 0.91833535 156 160 165
1.07074760 0.16275396 0.92074386 168 173 174
1.06992909 0.18982454 0.91400323 167 170 175
1.06996179 0.20999494 0.90885858 170 174 176
1.06996739 0.22986072 0.90364351 175 180 182
1.06942470 0.25173549 0.89761790 173 175 180
1.07302619 0.24222075 0.90052209 177 179 184
1.06997922 0.27027759 0.89256928 168 169 173
1.07007437 0.29017463 0.88714990 165 167 171
1.06721343 0.31821906 0.87960786 161 164 168
1.07035240 0.30879006 0.88224875 166 168 172
1.06741258 0.32888734 0.87654956 164 165 170
1.06371629 0.34830604 0.87076419 140 140 150
1.06096743 0.36281758 0.86644707 163 165 168
1.08986708 -0.74693215 1.11425574 199 202 204
1.09003577 -0.73071656 1.11158990 190 195 196
1.08995324 -0.71016708 1.10818270 185 189 190
1.08994178 -0.68998387 1.10488504 186 188 190
1.08984790 -0.66029434 1.09997110 188 192 193
1.08998194 -0.67088671 1.10171547 184 187 189
1.09001855 -0.64976124 1.09822817 180 183 185
1.09003908 -0.62964799 1.09479590 189 191 192
1.09018806 -0.60974887 1.09130752 187 191 193
1.09017577 -0.58995717 1.08777190 191 194 195
1.08997243 -0.57015927 1.08402380 191 195 196
1.08938364 -0.54474247 1.07907109 198 205 206
1.09041410 -0.55507568 1.08112401 195 199 201
1.08997264 -0.52972597 1.07615768 198 204 204
1.09000254 -0.51017047 1.07226476 201 206 208
1.09001453 -0.49071835 1.06817545 195 201 203
1.09002235 -0.47041596 1.06395555 193 195 196
1.08988878 -0.44618911 1.05877272 188 191 192
1.08990538 -0.45621424 1.06092668 196 197 198
1.09003944 -0.43010673 1.05525234 193 198 199
1.08992636 -0.41015352 1.05083895 197 203 203
1.09008362 -0.39037816 1.04653917 199 204 204
1.08786022 -0.36002408 1.03991365 177 185 183
1.09021841 -0.37022451 1.04214650 194 202 202
1.08991886 -0.34959692 1.03776448 187 190 191
1.08987954 -0.33013419 1.03372007 185 189 189
1.09010096 -0.31019346 1.02960717 187 190 190
1.08994879 -0.29024120 1.02521960 199 205 205
1.08966376 -0.26392448 1.01932261 186 189 192
1.09004599 -0.27414107 1.02160949 189 191 194
1.08994141 -0.25000908 1.01627097 183 184 184
1.09004146 -0.22964750 1.01169516 193 198 199
1.08990076 -0.20938235 1.00713757 193 198 199
1.09009778 -0.18938906 1.00266134 190 194 195
1.08996920 -0.16868528 0.99798188 186 189 191
1.08957827 -0.17859203 1.00024046 188 196 197
1.08989971 -0.14993840 0.99379334 189 193 194
1.08996403 -0.13056213 0.98934222 179 182 183
1.09002462 -0.11026939 0.98469485 182 185 186
1.09031278 -0.08583579 0.97890340 189 195 195
1.08974053 -0.09531472 0.98115905 188 193 194
1.09003621 -0.07042587 0.97518594 188 194 196
1.08994971 -0.04995882 0.97017500 189 194 196
1.08998417 -0.02972464 0.96520295 186 192 196
1.08977751 -0.00378850 0.95902266 185 190 191
1.09011825 -0.01375809 0.96139620 188 192 196
1.08992819 0.01023189 0.95582282 182 187 189
1.09006072 0.02997416 0.95135917 178 180 181
1.09004636 0.05022855 0.94681901 177 185 187
1.09001702 0.07035123 0.94233146 178 183 186
1.08980557 0.09059928 0.93783854 177 182 185
1.09632361 0.08074995 0.94005665 182 185 193
1.09002560 0.11003858 0.93344364 177 179 182
1.08993807 0.12952439 0.92897899 172 175 181
1.08987392 0.14963972 0.92442411 167 171 176
1.08936389 0.17414055 0.91876190 172 177 180
1.09071649 0.16437233 0.92109738 163 167 173
1.08992716 0.19002547 0.91507005 169 174 178
1.09014126 0.21021065 0.91019246 161 161 164
1.09007032 0.23027303 0.90498656 176 178 182
1.08969444 0.25435180 0.89815932 169 173 177
1.09087137 0.24439752 0.90111722 177 180 185
1.08779247 0.26979521 0.89354401 169 174 179
1.08447892 0.28895669 0.88812412 166 169 176
1.08161438 0.30464547 0.88373198 157 158 163
1.10990561 -0.74679680 1.11421484 193 197 198
1.11003312 -0.73069398 1.11161813 186 191 191
1.11002672 -0.71035962 1.10826861 184 185 188
1.10994827 -0.68993173 1.10492996 184 188 189
1.10507397 -0.66030415 1.09998745 181 188 187
1.11029464 -0.67032895 1.10165297 183 187 189
1.11006915 -0.64967944 1.09822665 184 192 192
1.11011007 -0.62981449 1.09483695 182 184 184
1.11002567 -0.60994564 1.09137390 182 186 188
1.11014388 -0.59013461 1.08783760 189 190 190
1.10996200 -0.57027987 1.08414194 186 191 191
1.11001643 -0.54429937 1.07915179 198 202 205
1.11015298 -0.55470450 1.08118128 195 198 199
1.11003244 -0.52980044 1.07630874 196 200 203
1.11014453 -0.50962919 1.07226416 191 195 197
1.10966927 -0.49029613 1.06821604 197 203 204
1.11010523 -0.47044346 1.06407482 194 197 198
1.10940908 -0.44571141 1.05879322 190 195 197
1.11050362 -0.45568663 1.06092872 176 177 182
1.11008918 -0.43015363 1.05540950 195 198 198
1.10992895 -0.41023439 1.05111165 198 204 204
1.11009505 -0.39046385 1.04681404 195 201 201
1.11001064 -0.36989320 1.04237930 196 202 203
1.10992386 -0.34941094 1.03806026 189 193 193
1.11855471 -0.35827109 1.04004258 191 199 198
1.10982515 -0.33030888 1.03408704 188 194 195
1.11009879 -0.31024261 1.02991553 188 192 194
1.11007356 -0.29027962 1.02546943 196 199 202
1.11039367 -0.26316468 1.01923951 184 185 187
1.10986825 -0.27343248 1.02159003 191 193 193
1.10998880 -0.24986308 1.01624309 187 191 190
1.11009052 -0.22947345 1.01153433 195 198 198
1.10994119 -0.20938513 1.00695267 188 193 194
1.11003620 -0.18933661 1.00238492 190 194 195
1.11008171 -0.16931654 0.99786646 186 190 191
1.10319933 -0.17855805 1.00005016 192 195 197
1.10999208 -0.14999495 0.99355984 184 189 192
1.10991158 -0.13044992 0.98908967 184 188 190
1.11005827 -0.11036812 0.98456427 179 181 182
1.11006084 -0.08598270 0.97892510 192 196 198
1.10996228 -0.09550719 0.98112914 185 192 194
1.11006005 -0.07050304 0.97527106 192 196 197
1.10994680 -0.04998678 0.97037449 188 195 197
1.11006107 -0.02969762 0.96548682 183 188 191
1.10997345 -0.00298841 0.95922419 179 185 190
1.10999011 -0.01302360 0.96158448 178 180 186
1.10993149 0.01021787 0.95615832 175 177 180
1.10996955 0.02988695 0.95170954 180 182 184
1.10986562 0.05027699 0.94712830 179 186 188
1.10997401 0.07037741 0.94268070 180 183 188
1.10960064 0.09161963 0.93802066 176 178 181
1.11234137 0.08150575 0.94034228 173 176 183
1.11001868 0.11006872 0.93398216 177 182 185
1.11002888 0.12970048 0.92964912 179 182 187
1.10997495 0.14983306 0.92523448 171 174 180
1.10936817 0.17645925 0.91927917 170 174 177
1.11037677 0.16666834 0.92153188 173 178 183
1.11012896 0.18965419 0.91630338 172 175 179
1.10891826 0.20918060 0.91147239 172 174 178
1.10536498 0.22925247 0.90597800 171 175 179
1.10093768 0.25105599 0.89908900 167 171 179
1.10230479 0.24413237 0.90139731 167 173 178
1.12994000 -0.74683010 1.11419632 194 201 202
1.12997227 -0.73063351 1.11158817 185 189 190
1.13011381 -0.71020643 1.10830182 185 189 189
1.12998631 -0.69014755 1.10504814 182 184 185
1.13003230 -0.66992565 1.10162771 183 187 189
1.13010362 -0.64983515 1.09825285 182 188 189
1.12998700 -0.62973837 1.09483020 182 188 189
1.12996825 -0.60974053 1.09136157 185 190 191
1.13011014 -0.58991821 1.08783103 183 188 188
1.13001111 -0.57011537 1.08416346 185 188 188
1.12996809 -0.54433936 1.07927420 192 197 199
1.13005754 -0.55465544 1.08128644 179 181 184
1.12995742 -0.52993957 1.07643172 197 203 204
1.12986740 -0.50932676 1.07227883 193 200 200
1.12988252 -0.48979904 1.06821264 193 199 200
1.13008228 -0.47048946 1.06418042 192 196 198
1.13001883 -0.44524933 1.05886399 189 193 194
1.13010725 -0.45535732 1.06101539 184 187 188
1.13013273 -0.43022080 1.05563700 189 195 195
1.12997184 -0.41030378 1.05133220 195 202 202
1.13016696 -0.39047170 1.04703563 197 201 202
1.13007333 -0.36997329 1.04260495 195 200 202
1.12999471 -0.34858874 1.03806847 186 191 192
1.13033784 -0.35830230 1.04013319 195 203 202
1.12993964 -0.33033767 1.03425110 184 190 191
1.13002855 -0.31031818 1.03002094 184 187 191
1.13001322 -0.29040656 1.02550037 190 194 196
1.13010657 -0.26398727 1.01926911 189 195 197
1.13008588 -0.27434388 1.02170254 191 193 194
1.13001221 -0.24998253 1.01605370 193 194 195
1.13003619 -0.22961112 1.01129535 196 198 199
1.12995724 -0.20934094 1.00667488 190 191 193
1.13000564 -0.18938999 1.00216834 187 189 189
1.12995064 -0.16952774 0.99772666 190 192 193
1.13003292 -0.14982024 0.99336969 180 183 186
1.12993690 -0.13039705 0.98899164 183 186 190
1.13003951 -0.11016837 0.98450790 187 189 192
1.13004444 -0.08595367 0.97900534 191 193 195
1.13001285 -0.09542233 0.98114404 192 198 200
1.12999226 -0.07048456 0.97543352 188 191 194
1.12995690 -0.05003603 0.97064227 185 191 195
1.12996361 -0.02969671 0.96585475 182 187 192
1.12915870 -0.00199894 0.95944991 177 184 185
1.13009319 -0.01180093 0.96174015 179 182 187
1.12983283 0.01024183 0.95673762 177 182 184
1.13000824 0.02987646 0.95237107 180 183 185
1.12994606 0.05028133 0.94781687 179 183 187
1.13009889 0.07047726 0.94331822 170 172 177
1.12977818 0.09319775 0.93832149 178 181 183
1.13085991 0.08294303 0.94066553 177 182 183
1.13001320 0.11020807 0.93459423 175 181 184
1.12987120 0.12953629 0.93025600 169 171 177
1.12760837 0.14934714 0.92588929 169 173 178
1.12356364 0.17737608 0.91939198 171 173 175
1.12501145 0.16709226 0.92181949 171 176 180
1.12195160 0.18666696 0.91708625 174 176 180
1.14989640 -0.74665876 1.11394060 192 198 199
1.14996629 -0.73061226 1.11143245 186 188 189
1.15010029 -0.71037378 1.10822154 183 185 186
1.15000008 -0.68998546 1.10498297 179 184 183
1.15002447 -0.66978261 1.10160117 181 185 186
1.15003548 -0.64969963 1.09822757 181 186 185
1.14999819 -0.62975296 1.09479211 182 186 186
1.15002339 -0.60990357 1.09133674 183 184 185
1.15004061 -0.59007471 1.08785810 182 185 187
1.15008719 -0.57035404 1.08428333 186 189 189
1.14988082 -0.54435899 1.07935605 188 191 193
1.15007615 -0.55472857 1.08137005 186 189 189
1.14991205 -0.52991863 1.07654889 194 197 200
1.14988597 -0.50932074 1.07235701 195 204 204
1.14987893 -0.48988213 1.06831086 196 203 204
1.14988327 -0.47059653 1.06430594 194 199 200
1.15009032 -0.44533348 1.05898358 193 197 197
1.15004978 -0.45544811 1.06114782 191 195 195
1.15006347 -0.43029973 1.05576745 183 188 190
1.14996611 -0.41032920 1.05141728 194 201 202
1.15007845 -0.39063585 1.04707787 196 200 202
1.15003429 -0.36993909 1.04250808 196 202 203
1.15012278 -0.34915572 1.03805006 186 190 190
1.14464276 -0.35827814 1.04006305 191 201 200
1.14993788 -0.33033125 1.03408258 186 192 194
1.14988897 -0.31015525 1.02981023 184 188 191
1.14999517 -0.29021623 1.02526708 188 192 195
1.15030682 -0.26386627 1.01902493 192 196 200
1.14988290 -0.27421074 1.02145270 192 197 197
1.14999755 -0.24977305 1.01576393 196 199 198
1.15006834 -0.22936260 1.01098236 196 198 199
1.14995744 -0.20926743 1.00645245 192 195 195
1.15235798 -0.18027035 0.99996023 190 194 197
1.14985802 -0.18996745 1.00212426 189 191 192
1.15009543 -0.16946272 0.99758097 185 187 190
1.15006778 -0.14992109 0.99324419 184 187 188
1.14997740 -0.13036596 0.98885057 177 179 182
1.14997690 -0.11031189 0.98449225 183 188 191
1.14957846 -0.08547588 0.97902782 178 181 186
1.15025090 -0.09495273 0.98108574 185 192 196
1.14990506 -0.07047267 0.97569249 183 189 192
1.14998359 -0.05000030 0.97113000 182 188 191
1.14999156 -0.02977874 0.96656449 183 188 191
1.14506590 -0.00050095 0.95980268 176 181 186
1.15026078 -0.01009982 0.96216178 181 185 189
1.14998943 0.01030960 0.95755907 178 184 188
1.15010910 0.03005158 0.95308194 183 185 188
1.15022981 0.04965573 0.94858483 179 181 186
1.14858432 0.06915835 0.94398409 183 185 190
1.14514272 0.09308458 0.93848871 176 181 183
1.14661397 0.08318177 0.94084055 184 184 187
1.14296927 0.10869872 0.93498775 171 174 175
1.14084303 0.12281789 0.93167806 174 179 184
1.17001135 -0.74654228 1.11369865 191 197 197
1.17014582 -0.73043844 1.11122945 181 186 187
1.17015779 -0.71008840 1.10804525 180 182 183
1.17016337 -0.68999262 1.10489885 179 184 184
1.17055966 -0.66024401 1.09988726 178 181 182
1.17004353 -0.67087425 1.10169532 183 184 184
1.16993214 -0.64975687 1.09812161 181 186 187
1.17011203 -0.62979974 1.09468733 186 188 189
1.17004227 -0.60985047 1.09124187 184 185 186
1.16992272 -0.59001087 1.08780610 182 184 186
1.17005781 -0.57034431 1.08426492 184 186 186
1.16999372 -0.54383153 1.07929503 188 191 192
1.17014595 -0.55408756 1.08124600 185 190 189
1.16997909 -0.52997583 1.07661225 184 186 189
1.16994943 -0.50930379 1.07239169 196 202 203
1.16997101 -0.48987634 1.06829820 197 204 204
1.16982413 -0.47044083 1.06418014 194 199 200
1.17019673 -0.44536645 1.05882867 190 196 196
1.16987251 -0.45537915 1.06098868 191 195 197
1.17002687 -0.43016290 1.05557282 196 200 200
1.16993228 -0.41032894 1.05124885 193 195 196
1.17005644 -0.39047117 1.04687673 194 198 200
1.17006256 -0.36984335 1.04232100 193 200 202
1.16984506 -0.34945464 1.03793608 187 189 191
1.16999591 -0.33024098 1.03387470 185 188 192
1.16991861 -0.31029453 1.02961349 182 187 188
1.17002114 -0.29025893 1.02506199 188 191 194
1.17007377 -0.26475491 1.01900710 188 195 196
1.16990429 -0.27499919 1.02142572 196 201 201
1.17002189 -0.24980608 1.01550464 190 194 194
1.17008853 -0.22935782 1.01065988 194 198 199
1.17001628 -0.20915095 1.00608218 189 193 194
1.17181946 -0.18086431 0.99972301 190 191 193
1.16960128 -0.19059945 1.00192781 182 187 188
1.16988617 -0.16944213 0.99722414 178 182 184
1.17005418 -0.14984140 0.99297797 180 184 187
1.16997856 -0.13051148 0.98884739 179 180 184
1.17010648 -0.11037625 0.98473195 174 179 183
1.16982302 -0.08438118 0.97926605 172 180 182
1.17023884 -0.09397078 0.98129008 177 181 183
1.16999305 -0.07052548 0.97626419 177 182 184
1.17004906 -0.05012169 0.97172534 181 185 189
1.17007074 -0.02973682 0.96715413 183 187 191
1.16990305 -0.00996636 0.96259851 183 185 187
1.16711687 0.00984072 0.95791433 181 183 186
1.16773052 0.00115826 0.96002396 174 177 180
1.16436173 0.02894420 0.95343152 183 186 187
1.16163651 0.04614175 0.94923390 177 180 181
1.18993274 -0.74614249 1.11326038 187 190 191
1.19008124 -0.73013939 1.11089909 179 184 185
1.18998350 -0.71001518 1.10771867 179 180 182
1.19007805 -0.68985737 1.10458685 175 178 178
1.19153097 -0.66093572 1.09973548 183 183 185
1.18977807 -0.67127207 1.10150374 182 185 186
1.19003932 -0.64949141 1.09787253 179 182 183
1.18999216 -0.62946980 1.09448616 182 184 185
1.19010056 -0.60963528 1.09106669 182 182 184
1.18988384 -0.58989506 1.08765664 183 186 186
1.18999265 -0.57013927 1.08409653 185 188 189
1.18989614 -0.54441245 1.07929010 188 189 191
1.19010306 -0.55459074 1.08121375 184 188 188
1.19003843 -0.52988948 1.07648890 186 190 193
1.18974656 -0.50967935 1.07236998 187 193 194
1.19033777 -0.49018107 1.06817995 194 202 204
1.18997663 -0.47041000 1.06396046 186 192 193
1.19002821 -0.44615169 1.05871951 193 198 197
1.19001212 -0.45621465 1.06087804 192 199 199
1.19008365 -0.43013453 1.05526300 193 195 196
1.18992633 -0.41013494 1.05091843 193 195 196
1.19000775 -0.39040240 1.04660593 193 196 197
1.19483015 -0.36003144 1.03993490 186 198 201
1.18981881 -0.37028395 1.04220173 192 197 201
1.18994911 -0.34938827 1.03771501 185 191 193
1.19004083 -0.33006644 1.03357247 182 187 190
1.18998008 -0.30995833 1.02914833 184 187 189
1.19003897 -0.29004679 1.02458276 186 191 193
1.19032363 -0.26531367 1.01868310 187 193 195
1.18955068 -0.27567645 1.02116809 192 198 198
1.18989620 -0.24966145 1.01502899 190 197 201
1.18992163 -0.22934907 1.01025917 186 192 196
1.18999421 -0.20923364 1.00576487 180 183 189
1.19001772 -0.18107926 0.99965424 184 187 189
1.18988766 -0.19098012 1.00180414 181 185 186
1.18988382 -0.16947568 0.99718320 181 187 190
1.18995934 -0.14986224 0.99311763 182 184 187
1.19003347 -0.13040822 0.98908450 176 180 182
1.19009110 -0.11021332 0.98491654 167 170 176
1.19034540 -0.08281976 0.97918429 179 186 189
1.19000448 -0.09296947 0.98138044 183 185 188
1.18858094 -0.07019994 0.97639716 179 181 185
1.18568981 -0.05082966 0.97194253 176 178 180
1.18295335 -0.03147100 0.96754376 179 180 185
1.18077769 -0.01716381 0.96390206 185 186 188
1.21007417 -0.74622243 1.11308519 149 150 159
1.21008612 -0.73014031 1.11068448 170 173 175
1.20979501 -0.70977576 1.10732965 179 181 181
1.21019378 -0.68964597 1.10412767 178 183 183
1.21173117 -0.66275895 1.09967896 179 182 181
1.20963575 -0.67215930 1.10130810 179 183 182
1.20996291 -0.65039392 1.09769287 181 185 184
1.20964278 -0.62998332 1.09432330 182 184 186
1.21035944 -0.61011954 1.09087775 183 183 184
1.20991943 -0.58970952 1.08732975 185 186 188
1.20991206 -0.56996124 1.08375683 187 189 190
1.21039867 -0.54496105 1.07908381 186 189 189
1.20962223 -0.55520533 1.08101649 188 189 189
1.21002137 -0.52974679 1.07614685 188 190 191
1.20990713 -0.51015027 1.07213933 196 197 198
1.21012232 -0.49059332 1.06793709 196 201 203
1.21003931 -0.47024783 1.06357458 194 197 198
1.21034946 -0.44692210 1.05846216 197 200 201
1.20926299 -0.45693055 1.06066296 201 202 203
1.21005886 -0.42989652 1.05477833 193 195 197
1.21000748 -0.40996326 1.05045765 191 194 196
1.21005284 -0.39015132 1.04616581 190 196 197
1.21362674 -0.36150652 1.03986933 183 190 196
1.20981209 -0.37096939 1.04201759 187 193 196
1.21002699 -0.35014835 1.03747022 184 190 193
1.20987452 -0.33002348 1.03307114 185 189 191
1.20996014 -0.30990815 1.02856634 187 190 193
1.20992420 -0.29001722 1.02412607 187 190 192
1.21042846 -0.26610992 1.01862973 188 194 197
1.20961149 -0.27635269 1.02097596 187 192 195
1.20994478 -0.24960407 1.01485203 190 196 200
1.20997371 -0.22918381 1.01013739 190 196 199
1.20992707 -0.20902203 1.00567247 180 184 189
1.20999862 -0.18109584 0.99974582 175 179 182
1.20999203 -0.19104905 1.00181870 176 180 184
1.21003532 -0.16936979 0.99736067 179 184 186
1.20897807 -0.15036256 0.99353899 181 184 188
1.20640257 -0.13109459 0.98933650 176 181 184
1.20376976 -0.11169229 0.98515810 171 173 178
1.20028416 -0.08857598 0.97982574 183 184 188
1.20155295 -0.09539025 0.98166974 183 185 189
1.22997037 -0.74567665 1.11194244 68 70 87
1.23052630 -0.73007569 1.10996202 93 93 112
1.23003604 -0.71043994 1.10694163 139 141 150
1.22995279 -0.69020683 1.10371334 170 173 176
1.23030119 -0.66372674 1.09945908 179 184 184
1.22983908 -0.67318195 1.10102300 177 182 182
1.22995694 -0.65017024 1.09725606 178 182 181
1.22991873 -0.63020466 1.09396934 180 182 182
1.23006408 -0.61031141 1.09053012 181 182 184
1.23001319 -0.58952480 1.08690965 180 181 185
1.22992432 -0.56979823 1.08333783 183 184 186
1.23021092 -0.54584255 1.07884433 184 189 189
1.22974295 -0.55610639 1.08078440 183 190 189
1.22997598 -0.52952904 1.07570464 183 185 188
1.22990419 -0.50996831 1.07171785 196 200 201
1.23005370 -0.49044516 1.06746945 196 201 201
1.23004460 -0.47003513 1.06300148 196 200 203
1.23037142 -0.44814414 1.05815223 193 196 199
1.22789648 -0.45803806 1.06038458 200 203 205
1.22998235 -0.42958462 1.05410969 192 198 199
1.22994142 -0.40969058 1.04980002 192 197 198
1.22996071 -0.39006569 1.04559671 186 189 192
1.23205777 -0.36237305 1.03967566 181 185 188
1.22967749 -0.37197443 1.04176560 185 186 190
1.22999177 -0.35013028 1.03707865 182 186 189
1.22990774 -0.32988739 1.03271770 183 186 187
1.23005517 -0.30977970 1.02832824 182 186 190
1.22991846 -0.28984040 1.02394070 177 183 186
1.22973932 -0.26615421 1.01862220 187 192 195
1.23045068 -0.27641450 1.02094119 188 193 197
1.23001826 -0.24961473 1.01483942 190 195 197
1.22923334 -0.22978240 1.01026376 188 191 195
1.22634083 -0.21009379 1.00586961 178 182 186
1.22309425 -0.18144975 0.99965530 185 190 197
1.22405724 -0.19213532 1.00186274 174 178 184
1.22147352 -0.17291129 0.99795198 177 182 185
1.24943223 -0.74454845 1.10884563 83 89 100
1.25013682 -0.73016350 1.10766261 67 72 83
1.25032086 -0.71022206 1.10555824 66 66 87
1.25016030 -0.69000684 1.10313427 101 98 116
1.25027012 -0.66468530 1.09937106 159 160 166
1.24989365 -0.67418873 1.10092588 140 140 148
1.24989920 -0.64994896 1.09694198 175 178 180
1.24998020 -0.63009964 1.09361823 178 180 182
1.25015036 -0.61007047 1.09005297 177 182 184
1.24994572 -0.59015644 1.08651772 181 183 185
1.25010337 -0.57044986 1.08290793 180 184 186
1.25025099 -0.54715674 1.07855446 185 189 190
1.24944024 -0.55749079 1.08051590 185 187 189
1.24965870 -0.52973860 1.07520576 186 188 190
1.25006634 -0.51020418 1.07116722 192 198 200
1.24998425 -0.49006581 1.06682231 195 199 201
1.24997835 -0.46971305 1.06236522 193 197 200
1.25018669 -0.44927860 1.05787963 193 199 200
1.24180881 -0.45862392 1.06009157 190 197 198
1.25010770 -0.42945095 1.05358604 191 193 196
1.25000908 -0.40952318 1.04928955 188 191 195
1.24991562 -0.38976128 1.04510095 180 182 183
1.25048183 -0.36290617 1.03951880 180 186 188
1.24975226 -0.37242974 1.04149122 182 186 190
1.24997784 -0.34999027 1.03687893 179 183 185
1.25000820 -0.32981532 1.03271800 182 185 187
1.24977373 -0.30995270 1.02836455 183 187 190
1.24769227 -0.29045865 1.02408842 183 188 188
1.24456944 -0.26662531 1.01872143 192 198 199
1.24546838 -0.27650796 1.02103285 189 194 196
1.24235589 -0.25199163 1.01537424 190 194 198
1.26916374 -0.74336121 1.10563454 77 82 111
1.27004631 -0.73007706 1.10465625 87 97 114
1.26994057 -0.71010230 1.10309502 83 90 104
1.27807156 -0.68262926 1.09981084 63 61 78
1.26983290 -0.69059631 1.10145977 65 65 83
1.27176712 -0.66835881 1.09897888 69 68 86
1.26560974 -0.67626041 1.10045452 68 67 87
1.27011029 -0.64979098 1.09656175 101 102 118
1.27012527 -0.62979665 1.09322721 144 144 153
