ply
format ascii 1.0
element vertex 1062
property float x
property float y
property float z
property uchar red
property uchar green
property uchar blue
end_header
-0.50437564 -0.18603361 1.86747062 162 108 115
-0.50577088 -0.17413417 1.87263656 167 111 121
-0.50674841 0.13880635 1.17243640 132 124 109
-0.50673561 0.15008514 1.17204528 126 120 108
-0.51717139 0.15271786 1.18285266 129 123 113
-0.50675970 0.16407438 1.17359301 106 111 116
-0.51510084 0.16439963 1.18191311 97 99 103
-0.50001711 0.17805521 1.66968429 133 125 119
-0.51430380 0.17766472 1.70753610 139 129 122
-0.50249243 0.18183687 1.67795014 140 128 123
-0.50878930 0.18705207 1.69897699 148 136 130
-0.51332470 0.18602269 1.70754337 143 133 127
-0.51821983 0.19091275 1.72053766 141 133 126
-0.50087500 0.35855588 1.23702896 93 116 117
-0.50179064 0.36135337 1.23929036 97 110 114
-0.50485563 0.36201519 1.24156010 92 108 111
-0.50361484 0.47669183 1.54770637 152 162 163
-0.50942942 0.47542955 1.56557564 106 119 123
-0.51570660 0.48419866 1.57649267 142 152 155
-0.51932985 0.48485655 1.58756876 128 138 141
-0.48343809 -0.19031726 1.83214545 163 107 116
-0.49344936 -0.19084781 1.85150349 163 106 115
-0.48430261 -0.17221659 1.83490151 160 108 119
-0.49402919 -0.17250708 1.85166713 166 118 128
-0.49977109 -0.16835503 1.86234021 165 125 132
-0.49152717 0.13655156 1.16569904 131 123 111
-0.49562732 0.14941455 1.16736824 133 125 114
-0.49759336 0.16387631 1.17327733 109 120 122
-0.48282233 0.33831988 1.21052504 112 129 132
-0.48310685 0.34960971 1.21704259 92 111 114
-0.49062270 0.35324257 1.22600025 97 115 118
-0.48334096 0.37352644 1.15589686 85 94 98
-0.48904460 0.37321266 1.16217021 93 103 106
-0.48226641 0.36092694 1.19874871 110 125 132
-0.48468128 0.36156606 1.21331762 95 112 121
-0.49420490 0.36243744 1.22630037 93 104 111
-0.48406734 0.38787111 1.15380986 86 92 97
-0.49048243 0.38192306 1.16176927 70 74 79
-0.48615689 0.47287268 1.51823928 150 157 159
-0.49236920 0.46906181 1.52938000 127 136 142
-0.49866015 0.46786833 1.54066324 95 106 111
-0.49042425 0.48104233 1.52335250 154 163 164
-0.46767399 -0.19125728 1.81400932 159 111 120
-0.47449088 -0.18903296 1.82573617 160 106 115
-0.46855788 -0.17678687 1.81467425 162 104 116
-0.47048117 -0.16943701 1.82775929 161 107 120
-0.46090822 -0.08436156 0.61548227 55 62 95
-0.46184962 -0.07295733 0.61804682 52 62 88
-0.46975811 -0.06380841 0.62801971 50 62 85
-0.46066877 -0.05589891 0.61837426 51 61 86
-0.46721977 -0.04743805 0.62974560 57 68 95
-0.46844102 -0.03825148 0.63212126 81 110 148
-0.47390282 0.35592479 1.13645625 107 121 126
-0.47867274 0.35703284 1.14315653 108 124 128
-0.46649853 0.35668952 1.19426419 103 114 122
-0.47322539 0.35393027 1.20781573 95 113 116
-0.46536245 0.37272365 1.13188585 87 99 105
-0.47267092 0.36931558 1.15006991 81 91 101
-0.47596761 0.36929006 1.16310118 82 90 105
-0.47537498 0.36060787 1.19495685 110 123 130
-0.47032077 0.36079857 1.21342146 104 115 118
-0.46922398 0.36036697 1.22142673 106 117 117
-0.46765084 0.38554355 1.13281486 100 109 113
-0.47693438 0.39006801 1.14554726 94 102 108
-0.45664924 -0.18891346 1.81255023 155 106 116
-0.45322507 -0.17258478 1.81497842 160 123 130
-0.45595166 -0.16945902 1.82228994 163 125 133
-0.44603621 -0.12314116 0.59884616 68 105 137
-0.44804380 -0.12469025 0.60043561 66 104 137
-0.44410167 -0.11072692 0.59657706 67 103 137
-0.44817545 -0.11603839 0.60079060 68 104 139
-0.44258306 -0.08986079 0.59559374 62 90 123
-0.45383422 -0.08711445 0.60851391 56 77 111
-0.44293921 -0.07629930 0.59895244 57 65 89
-0.44740252 -0.06790542 0.60750108 65 73 96
-0.45273931 -0.05601272 0.61709302 78 84 98
-0.45331436 -0.04834712 0.62396073 105 110 117
-0.45938307 -0.03949335 0.62942606 116 129 149
-0.44083783 0.35360652 1.10766637 115 132 136
-0.44621277 0.35517632 1.13931406 113 123 128
-0.44815292 0.35521848 1.14849913 107 116 121
-0.45452416 0.35470329 1.16914328 101 108 114
-0.45981595 0.35660347 1.18099630 97 105 110
-0.44254661 0.36815677 1.09824571 92 104 109
-0.44849818 0.36989888 1.10870787 92 105 111
-0.45482254 0.36515592 1.12710111 95 109 120
-0.45111262 0.36307431 1.15430013 115 133 136
-0.45487700 0.36475093 1.16143743 112 132 132
-0.45315821 0.38064724 1.11679351 91 104 108
-0.45637611 0.38350835 1.12233746 90 102 106
-0.42211625 -0.24693939 0.57640766 86 139 166
-0.42296898 -0.23408187 0.57796301 82 136 162
-0.42699760 -0.22626541 0.58413294 84 133 159
-0.42274856 -0.20593072 0.57719698 84 126 156
-0.42789286 -0.21400050 0.58421228 86 129 157
-0.42315335 -0.19164162 0.57513944 77 122 153
-0.42952919 -0.19885299 0.58163446 77 121 153
-0.42419781 -0.17022147 0.57488744 75 117 147
-0.43092336 -0.16532290 0.58215979 73 112 145
-0.42525869 -0.14842121 0.57577501 71 111 145
-0.43149420 -0.15147781 0.58188511 70 111 145
-0.42419042 -0.12949344 0.57542764 70 109 140
-0.43349508 -0.12516444 0.58458855 68 107 139
-0.42313430 -0.11389038 0.57768004 72 105 138
-0.43133389 -0.10896352 0.58525361 68 104 137
-0.42250687 -0.09935974 0.57889998 72 110 140
-0.43111794 -0.08732154 0.58835202 75 100 126
-0.43007536 -0.07694041 0.59154680 92 96 111
-0.43919744 -0.07259972 0.60177018 69 74 95
-0.43326093 0.35943723 1.09337682 89 100 113
-0.43797526 0.35701662 1.10047376 95 114 126
-0.43695608 0.34997140 1.13436558 112 115 122
-0.42774057 0.36138904 1.07944560 86 98 103
-0.43528361 0.36516814 1.09174242 90 102 107
-0.41555567 -0.24592155 0.57575495 92 141 165
-0.41418688 -0.23415935 0.57619371 105 141 159
-0.41700990 -0.22489996 0.58320347 132 145 153
-0.41324309 -0.20613940 0.57617547 119 137 148
-0.41750282 -0.21635290 0.58246029 130 146 156
-0.41541431 -0.19135346 0.57299722 93 129 153
-0.41117995 -0.16942820 0.56683205 89 123 148
-0.41248297 -0.15049931 0.56816173 87 119 146
-0.41650453 -0.13057379 0.57267155 86 115 142
-0.41710116 -0.11454061 0.57558151 99 121 143
-0.41995701 -0.08058684 0.58793741 131 131 130
-0.41937703 -0.07843257 0.58855048 131 130 128
-0.38076031 -0.27863985 1.51653659 139 92 104
-0.36059508 -0.28156587 1.47688854 136 123 124
-0.36458153 -0.28763985 1.48568569 136 119 120
-0.36686832 -0.27626416 1.49153002 136 110 115
-0.37484689 -0.27563419 1.51205065 140 105 114
-0.36145891 0.28534749 1.31193440 76 86 103
-0.36367717 0.28221264 1.32531315 80 90 96
-0.35153332 -0.30114767 1.49810901 128 118 119
-0.35255478 -0.28253548 1.47528321 131 121 120
-0.35341884 -0.29200376 1.48645371 131 120 119
-0.34671409 -0.27748979 1.47333199 130 121 120
-0.35184684 -0.27366779 1.48484824 131 121 121
-0.35032785 0.27707867 1.31489515 81 89 96
-0.34955404 0.27670983 1.32327156 81 89 96
-0.34408841 0.29511941 1.29651775 86 99 108
-0.34827475 0.28773818 1.30636791 102 110 119
-0.34941687 0.28122174 1.32336482 105 111 119
-0.34221048 0.30915633 1.27332641 98 105 112
-0.34734751 0.30344843 1.29100702 104 113 116
-0.34807673 0.32009175 1.28876781 100 108 115
-0.34173638 0.34301051 0.95702420 117 132 136
-0.34363633 0.35199773 0.96557010 104 121 127
-0.33688329 -0.27608208 1.46811467 129 120 119
-0.32719910 0.05978590 0.87132627 139 131 124
-0.33367175 0.07287535 0.85700613 137 129 116
-0.32888689 0.07004233 0.87205471 137 130 119
-0.32275512 0.07038488 0.88493917 138 131 121
-0.32278565 0.06843759 0.99970663 140 131 122
-0.32622066 0.07453363 1.00482970 138 130 121
-0.32209520 0.08034524 0.88209775 137 125 120
-0.33083311 0.27979663 1.30867147 128 136 139
-0.32209216 0.29697015 1.25690798 117 131 135
-0.32850548 0.29609778 1.26948708 94 110 118
-0.33212042 0.29045918 1.29124315 83 96 107
-0.33568021 0.28494884 1.30670596 118 128 133
-0.32279706 0.30389690 1.25602319 106 118 125
-0.33255435 0.30790770 1.26532421 100 109 116
-0.33598366 0.30030066 1.28511345 76 94 102
-0.32823707 0.33897612 0.95644478 102 115 120
-0.32764803 0.33622064 0.96902088 91 103 110
-0.33512913 0.33587118 0.98292722 88 98 110
-0.32834514 0.34422866 0.95605608 99 115 121
-0.32581661 0.35135012 0.96396792 103 116 121
-0.32150786 0.35721967 0.98675153 113 126 132
-0.32340106 0.36368828 0.99446617 117 133 136
-0.32161441 0.36772701 1.01275819 108 124 132
-0.32337913 0.37532270 1.02092147 109 121 132
-0.30250677 0.05855296 0.97632631 140 127 121
-0.30914176 0.05917762 0.98674214 139 127 119
-0.31351491 0.06605471 0.87855442 141 132 126
-0.31310146 0.07265025 0.88677089 138 131 120
-0.30271556 0.06284004 0.97483105 140 129 123
-0.31502490 0.06795194 0.99142673 140 130 121
-0.31121521 0.08106885 0.88584392 139 131 117
-0.31874758 0.08034537 0.99543589 144 132 125
-0.31594053 0.27966613 1.26708758 97 105 111
-0.30945786 0.29473074 1.23538036 108 117 125
-0.31589293 0.29434728 1.24712513 119 131 135
-0.31992456 0.28234439 1.27423275 95 103 110
-0.31058277 0.30136357 1.23703301 88 97 104
-0.31717626 0.30733135 1.24894842 101 110 115
-0.31671333 0.33778016 0.95805476 120 131 132
-0.31809358 0.33527277 0.96412425 92 108 111
-0.31825958 0.34397762 0.95718226 117 127 131
-0.31811688 0.34958295 0.96400522 113 124 129
-0.31609466 0.36879183 1.01661710 130 139 151
-0.31808540 0.36826438 1.02092147 99 105 123
-0.28967488 0.05767453 0.97074423 120 110 111
-0.29030161 0.06452495 0.96891006 116 108 106
-0.28539858 0.25497711 0.73483256 101 119 123
-0.29061549 0.25411054 0.74337624 88 101 110
-0.28426952 0.26190605 0.73665727 103 115 125
-0.28717249 0.26532360 0.74086672 102 112 126
-0.26687396 0.05659489 0.95747435 168 119 128
-0.27451075 0.05685160 0.96417710 144 122 128
-0.26725143 0.06081809 0.95882863 167 117 131
-0.27364328 0.06522528 0.96416741 140 116 125
-0.26776081 0.24783849 0.71390956 104 122 126
-0.27598888 0.25245327 0.72404085 111 127 132
-0.22047554 -0.28057614 0.55158001 98 143 161
-0.22157403 -0.27705222 0.55129482 95 142 163
-0.22030735 0.24732400 1.36671746 125 132 138
-0.21078742 -0.28314120 0.54715160 98 140 161
-0.21400329 -0.27605111 0.54854734 96 141 161
-0.20561692 0.15400744 0.61096219 115 124 128
-0.20439398 0.16541483 0.60950724 119 127 130
-0.20621190 0.21208188 1.31074321 107 109 117
-0.21270014 0.20727105 1.32661481 99 103 114
-0.20035578 0.23051599 1.29864335 104 112 118
-0.20505470 0.22814367 1.30841229 114 121 127
-0.21348466 0.23318426 1.33150390 126 131 135
-0.21819061 0.23782133 1.34636050 134 139 141
-0.20190852 0.24247770 1.30869344 96 96 117
-0.21007732 0.24331134 1.33181449 99 104 118
-0.21584314 0.24249444 1.34862812 126 131 137
-0.19763922 0.15629826 0.60711393 130 140 143
-0.19453366 0.17177795 0.60537193 103 113 118
-0.19145777 0.21463702 1.29045458 105 108 121
-0.19858687 0.20744296 1.30176154 119 120 127
-0.19023750 0.22550546 1.29562659 103 108 119
-0.19339999 0.23362256 1.30343447 128 133 140
-0.19925633 0.24087875 1.30614996 113 111 132
-0.17692759 0.22772705 1.29554665 155 158 166
-0.14848547 0.15734391 0.49790081 108 122 127
-0.15081007 0.15834963 0.67391559 116 128 132
-0.14827851 0.16866013 0.49170067 126 140 144
-0.14329720 0.16127037 0.50065887 102 112 121
-0.15083949 0.17141927 0.65282548 134 144 148
-0.14996055 0.16674849 0.67065363 114 125 131
-0.15774324 0.16809150 0.68313581 110 122 131
-0.14822086 0.18173924 0.49451695 184 197 194
-0.15303709 0.18834313 0.50334732 186 198 196
-0.13884471 0.16876415 0.48474569 177 186 186
-0.13798257 0.17098702 0.64870485 181 192 191
-0.10099119 0.09260475 0.49150641 111 117 125
-0.10093593 0.10893538 0.49180224 120 127 132
-0.08179570 -0.06335040 0.45961099 122 116 115
-0.08413370 -0.06135979 0.46082172 121 113 113
-0.08336394 -0.05492918 0.46221192 125 115 115
-0.09157685 0.09594797 0.48676964 111 119 126
-0.08245923 0.09928109 1.03128254 159 159 161
-0.09351198 0.10663253 0.48898079 121 127 134
-0.08287900 0.11013791 1.03276872 177 176 178
-0.08699507 0.11662378 1.04291058 186 187 188
-0.08272216 0.12661620 1.03352409 193 149 160
-0.08727540 0.12227904 1.04194934 188 166 172
-0.08057906 0.35150141 0.85917848 188 199 197
-0.08078384 0.35388348 0.86136192 189 198 197
-0.07793534 -0.06351407 0.45857306 120 113 113
-0.07975167 -0.05989810 0.46021169 126 117 119
-0.07276858 0.09692328 1.01321316 159 159 161
-0.07822032 0.09754825 1.02246130 159 159 161
-0.07346519 0.10799298 1.01776847 176 175 177
-0.07594258 0.11397387 1.02287891 181 176 180
-0.07810514 0.12458603 1.02673101 192 149 160
-0.06129188 0.33039145 0.81969994 170 179 178
-0.06631987 0.33184047 0.82510005 183 193 191
-0.06714396 0.34552951 0.83149119 161 170 170
-0.07760031 0.34775263 0.84929662 188 199 197
-0.04508766 0.31672668 0.81392810 151 159 163
-0.05233840 0.31704587 0.82527853 153 159 164
-0.04763084 0.32546401 0.81863306 159 167 169
-0.05293421 0.32876577 0.82636652 158 164 166
-0.05772925 0.32551251 0.84001470 172 180 179
-0.05236471 0.34603192 0.81907061 95 101 106
-0.05403560 0.34422785 0.82401969 118 123 129
-0.02096346 -0.09530881 0.49992025 116 108 109
-0.02323853 -0.09118030 0.50461875 119 110 111
-0.02738447 0.40211358 1.09809756 136 144 145
-0.02773879 0.41251567 1.10603119 142 153 154
-0.02787893 0.42829378 1.13118947 136 144 147
-0.02661670 0.43635152 1.14737106 137 146 149
-0.02410448 0.44763336 1.13740242 156 165 165
-0.02775505 0.44707748 1.15216018 149 158 158
-0.02777351 0.44877994 1.16430740 139 148 150
-0.03727589 0.45866627 1.18099630 135 139 143
-0.01825350 -0.09179163 0.50195676 118 110 110
-0.00076098 -0.08272702 0.57803673 125 122 121
-0.00227032 -0.08363649 0.58088435 127 121 122
-0.00040433 -0.07698576 0.57833643 127 124 125
-0.00227036 -0.07779041 0.58096780 128 124 127
-0.01111596 0.12947062 0.47199340 167 172 173
-0.00121555 0.12701468 0.48125439 168 176 175
-0.00026162 0.17795336 0.57939476 147 155 158
-0.00337532 0.17296343 0.59033036 145 150 153
-0.00691368 0.18065827 0.59153047 163 167 168
-0.01150068 0.39523535 1.09780184 146 155 158
-0.01096805 0.39421864 1.10166842 148 156 158
-0.01345605 0.40178867 1.09720963 149 157 160
-0.01432490 0.40856661 1.10631487 155 165 166
-0.00134769 0.40663865 1.13117152 150 158 159
-0.01031333 0.42977428 1.13520396 151 160 160
-0.01299455 0.43621333 1.14970747 150 158 159
-0.00850055 0.44268475 1.15353417 146 153 153
-0.01574153 0.44770437 1.16800173 143 152 153
-0.01892108 0.45395981 1.18202680 137 149 152
0.01815535 -0.10244589 0.45510839 120 110 110
0.01766916 -0.09766529 0.45555393 114 104 106
0.00405974 -0.08204064 0.57565037 123 121 122
0.00384620 -0.07524394 0.57587967 126 124 125
0.00868598 -0.04976863 0.75110963 141 129 138
0.00549656 -0.03929636 0.75029558 147 144 147
0.00061129 0.12717873 0.47873718 169 175 175
0.00390557 0.15841286 0.58223933 138 142 148
0.01710392 0.17888453 0.47585863 156 164 165
0.00370545 0.17356671 0.57480568 143 149 155
0.00211772 0.16750912 0.58624686 138 143 146
0.00929312 0.17168773 1.11049960 140 130 135
0.01715114 0.17558122 1.12252729 159 151 154
0.01777327 0.18571375 0.47579450 153 162 163
0.01436970 0.18430585 0.48290274 150 160 160
0.00916222 0.18116207 1.11863339 188 187 189
0.01524192 0.18353339 1.12558187 176 175 176
0.01384936 0.19723511 1.14932512 165 165 169
0.01494031 0.20429166 1.15425947 152 154 158
0.01152269 0.20923214 1.16176927 164 164 169
0.00144828 0.40718163 1.13423558 149 158 159
0.01862600 0.41770929 1.87781680 158 165 167
0.01862600 0.42095494 1.87781680 158 165 166
0.01713704 0.42974393 1.89268339 153 158 163
0.01274572 0.43328239 1.90888777 150 153 158
0.00690514 0.43587133 1.92950769 155 155 161
0.01553295 0.44776890 1.89686772 159 165 171
0.01471852 0.44909337 1.90711908 156 162 167
0.00829246 0.44399863 1.92858803 143 145 154
0.01880839 0.46276523 1.89620471 158 160 162
0.01568448 0.46237725 1.91494870 168 173 174
0.02283545 -0.10263897 0.45707268 116 106 108
0.03301181 -0.10739095 0.63051657 116 107 108
0.02291981 -0.09750676 0.45753121 109 98 102
0.02813210 -0.09979179 0.63236177 122 113 114
0.03774117 -0.04480989 0.65012785 144 144 146
0.03989167 -0.05431956 0.66438371 142 142 144
0.03889623 -0.03731110 0.63861760 147 147 151
0.03765893 -0.03884283 0.64265890 144 145 149
0.03362710 0.03843089 0.57343962 145 141 150
0.03397536 0.04490529 0.57129757 143 138 148
0.03457267 0.11021584 0.53749653 147 151 155
0.03743735 0.10637863 0.54104183 159 161 167
0.02121969 0.13960275 0.45072676 157 166 171
0.02086533 0.14061569 0.45147647 158 166 170
0.02421430 0.17911721 0.47261831 135 140 145
0.02978734 0.17275621 1.12868710 132 110 120
0.02377995 0.18397748 0.47251216 142 152 153
0.02903509 0.19569626 0.71590517 141 149 156
0.02615185 0.19786128 0.72184475 132 140 148
0.02715168 0.18466744 1.13158945 134 133 140
0.02398345 0.19525590 1.14668177 139 139 146
0.03449425 0.21043970 0.71775373 145 153 157
0.02997477 0.21058777 0.72599229 145 153 156
0.02144727 0.20311092 1.15549823 132 135 142
0.02881227 0.22079934 0.72413818 162 171 171
0.03927831 0.41378237 1.78392589 165 167 169
0.03669725 0.41483064 1.80868344 146 150 155
0.03391505 0.41435297 1.82721502 143 149 154
0.02172128 0.41645113 1.86490542 158 164 166
0.03804135 0.42833793 1.80910732 168 170 170
0.03396080 0.42755672 1.82967981 167 171 172
0.03122815 0.43127888 1.85521369 166 173 175
0.02581890 0.43245239 1.87463114 162 169 173
0.02193241 0.43351561 1.88303292 159 166 173
0.02737709 0.44391686 1.81254506 113 120 131
0.02444030 0.45066467 1.82720172 125 133 137
0.02955080 0.44691598 1.85091561 144 149 153
0.02651606 0.44921983 1.87263979 155 160 162
0.02195278 0.45020960 1.88478132 158 164 167
0.05977518 -0.18925420 0.56938495 93 115 133
0.05935109 -0.16588492 0.66871750 156 119 129
0.05914371 -0.16064331 0.78233567 113 100 100
0.05936029 -0.15931874 0.66809328 154 134 142
0.05963691 -0.15857380 0.78885949 114 99 99
0.04013624 -0.10575366 0.63206711 114 105 106
0.04375109 -0.04714794 0.65578542 146 146 148
0.04326818 -0.05545344 0.66468029 139 139 141
0.04053305 -0.03784461 0.63831621 146 146 150
0.04064788 -0.03905822 0.64012450 145 146 149
0.04060848 0.11066696 0.53715712 152 153 157
0.04093236 0.10757302 0.54144871 165 166 169
0.05653187 0.21227452 0.67802051 150 155 155
0.05737871 0.21624011 0.68253636 158 166 165
0.05745419 0.22756172 0.68803296 159 166 166
0.05798449 0.27252864 0.71350784 141 148 149
0.05931558 0.28043067 0.71886730 128 137 137
0.05776714 0.28347039 0.72222682 121 130 134
0.04127548 0.40467471 1.73818421 171 172 172
0.04236168 0.41840741 1.78392589 169 170 170
0.04225049 0.42345980 1.77924371 158 159 161
0.04269877 0.42484483 1.79812157 163 164 163
0.06752307 -0.19067895 0.57094211 119 127 134
0.07050025 -0.16774088 0.67542802 165 129 136
0.07598686 -0.17079270 0.68084230 139 110 117
0.06883371 -0.16380945 0.78655311 135 114 118
0.06087981 -0.15965104 0.66787374 173 147 157
0.07195555 -0.15107937 0.79120645 153 125 131
0.07645822 -0.15682673 0.80081758 183 135 146
0.07337801 -0.12972161 0.79241389 162 126 134
0.07144129 -0.11111241 0.78826047 153 127 133
0.07068408 -0.09837366 0.78718883 153 127 132
0.07312541 -0.06781645 0.79370629 165 138 145
0.07285225 -0.04989879 0.79443001 165 136 144
0.07451447 -0.03709345 0.79777148 173 143 151
0.07601332 -0.03216692 0.80282867 174 138 148
0.07987636 0.16192265 0.56538099 106 111 117
0.07381592 0.21301426 0.67350909 141 150 154
0.06637049 0.21348192 0.68407638 120 127 133
0.07357495 0.22589878 0.67757500 133 141 145
0.06460859 0.22584049 0.68505690 135 142 145
0.06217572 0.25920954 0.69527370 125 133 137
0.07095164 0.27020904 0.69885755 148 157 158
0.06493568 0.27317747 0.70692210 128 137 140
0.06251330 0.28168100 0.71520720 108 119 123
0.06118851 0.28475164 0.72141862 106 117 124
0.08094982 -0.16748103 0.67619257 150 135 132
0.08146796 -0.14722042 0.79343319 166 117 127
0.08263846 -0.15673409 0.80034459 164 120 128
0.08266495 -0.13047832 0.79409112 147 100 108
0.08423809 -0.10864922 0.79121758 131 93 99
0.08419631 -0.09098917 0.79010451 144 115 118
0.08495557 -0.07106374 0.79205591 147 118 121
0.08405209 -0.05079419 0.79584670 137 107 112
0.08346483 -0.03819074 0.79834313 150 117 121
0.08277366 -0.02914846 0.80425681 154 117 124
0.08159314 -0.01986646 0.80366579 154 113 126
0.09834685 0.01483451 0.53320622 139 120 111
0.09654395 0.01243260 0.94707089 150 114 119
0.09795082 0.02306134 0.53648229 140 122 111
0.09583186 0.02423143 0.93859919 149 115 121
0.09668344 0.03238040 0.94141299 154 117 124
0.09775708 0.04170346 0.93890840 147 119 116
0.09712432 0.04015480 0.94064587 149 118 118
0.08475190 0.15843838 0.55518329 134 136 137
0.08405878 0.15695960 0.57091593 136 140 141
0.08457715 0.15180420 0.58088464 147 152 154
0.08501253 0.17664695 0.47448763 91 102 109
0.08446815 0.16234595 0.55288310 117 123 129
0.08080513 0.16114413 0.56369824 119 124 128
0.09760601 0.17619510 0.81534748 163 167 170
0.09550674 0.17344142 0.82231105 159 161 166
0.08494959 0.18588987 0.47679032 108 117 120
0.08403135 0.19311314 0.48529514 108 116 122
0.09724396 0.18722004 0.77625611 165 171 173
0.09443969 0.19518362 0.78604898 157 163 166
0.09668344 0.18055604 0.81381218 165 168 175
0.08206233 0.21102651 0.65829588 147 154 156
0.08188918 0.21363990 0.66721567 143 151 153
0.09495787 0.20443900 0.78973184 150 157 160
0.09283709 0.21247290 0.80420043 134 136 142
0.08148855 0.22513314 0.65719420 171 176 177
0.08145838 0.22386450 0.66922478 145 154 157
0.09874678 0.68616545 1.98795259 170 174 173
0.11073460 -0.02281427 0.46922868 138 122 111
0.11545756 -0.02133445 0.58448506 144 131 120
0.11254600 -0.01813696 0.46767523 142 126 117
0.11669737 -0.01436852 0.58368811 141 125 117
0.10781284 -0.00181181 0.95076595 141 127 121
0.11667856 -0.00358353 0.97028127 142 127 122
0.10241066 0.01700459 0.52925075 141 123 113
0.10569321 0.01870065 0.93631878 143 123 118
0.10608813 0.00950116 0.94905269 142 120 116
0.11740546 0.00895571 0.97341179 141 121 117
0.10104359 0.02299417 0.53210540 138 121 111
0.10596804 0.02975434 0.93684623 143 125 120
0.10487570 0.03029151 0.94116824 145 125 122
0.10368022 0.04135608 0.93567342 146 126 120
0.10812113 0.09299545 0.93679726 141 123 119
0.10817778 0.09106991 0.94502645 141 121 117
0.10837270 0.10423360 0.93340489 138 118 113
0.11022801 0.10137909 0.94151863 142 126 117
0.11080316 0.15979092 0.57889998 163 167 166
0.10476816 0.15869989 0.82201950 130 132 137
0.10909607 0.16373498 0.57810874 134 139 144
0.10812321 0.16563767 0.58138332 138 145 148
0.11438892 0.17800445 0.76742888 132 135 140
0.10300144 0.17287310 0.81594962 159 163 166
0.10618105 0.16586012 0.82507261 142 146 151
0.10928754 0.19025652 0.77497684 144 148 152
0.10398518 0.19701957 0.78128343 153 157 160
0.10893872 0.20262250 0.77791097 127 130 138
0.10430865 0.20884436 0.78925093 115 120 129
0.10324437 0.21792369 0.80462196 114 121 126
0.12343499 -0.01659501 0.58493870 140 124 116
0.12182615 0.00540276 0.97707494 142 123 118
0.13330658 0.19467536 0.55484359 116 124 127
0.13208567 0.19305111 0.56024116 108 112 118
0.14098412 0.18986710 0.55424291 124 135 137
0.15615240 0.20745858 0.45345235 0 0 0
0.15843648 0.21317299 0.46594261 0 0 0
0.15968126 0.26550815 0.68061429 162 170 168
0.17019584 -0.06988718 0.54604184 144 131 120
0.17744998 -0.05640263 0.54512793 145 131 119
0.17288751 0.16846665 0.67377754 144 148 152
0.16545946 0.16723470 0.68911447 148 154 156
0.16308972 0.17151333 0.70030147 147 151 152
0.16034555 0.21794918 0.47638217 0 0 0
0.16288017 0.22429037 0.49024244 0 0 0
0.16665686 0.23373907 0.51089491 0 0 0
0.16895621 0.23949166 0.52346861 0 0 0
0.17076764 0.24402358 0.53337428 0 0 0
0.17394437 0.25197126 0.55074588 0 0 0
0.17662068 0.25866696 0.56538099 0 0 0
0.16560093 0.25373164 0.65805794 122 126 131
0.16436011 0.25770110 0.66446334 137 145 147
0.17801903 0.26216543 0.57302779 0 0 0
0.17945573 0.26575980 0.58088416 0 0 0
0.16551959 0.26528098 0.66894090 142 149 148
0.16059145 0.26781148 0.68198547 158 167 166
0.18148022 -0.05545677 0.54151698 145 132 119
0.18074948 0.17045516 0.65878701 157 166 168
0.18250727 0.17377460 0.66440207 162 169 171
0.18169150 0.27135335 0.59311029 0 0 0
0.18401232 0.27715969 0.60580146 0 0 0
0.18561931 0.28118014 0.61458915 0 0 0
0.18812548 0.28745018 0.62829387 0 0 0
0.19163749 0.29623668 0.64749897 0 0 0
0.19537099 0.30557729 0.66791523 0 0 0
0.19832122 0.31295830 0.68404830 0 0 0
0.21548157 -0.08391450 0.46674708 145 133 120
0.21584869 -0.06975827 0.45938034 144 132 119
0.21581546 -0.07381640 0.46262147 142 131 117
0.20947632 0.15842652 0.52105498 141 146 149
0.21205400 0.17309888 0.51666670 135 141 143
0.20674759 0.16852507 0.52133755 139 145 146
0.21532377 0.18169129 0.51809352 141 146 146
0.21163554 0.18292627 0.52357859 148 155 152
0.20037401 0.31809404 0.69527370 0 0 0
0.20359191 0.32614473 0.71287048 0 0 0
0.20695750 0.33456492 0.73127490 0 0 0
0.21052250 0.34348398 0.75076973 0 0 0
0.21426003 0.35283467 0.77120799 0 0 0
0.21687472 0.35937622 0.78550619 0 0 0
0.21958821 0.36616492 0.80034459 0 0 0
0.23861361 -0.28119759 0.69933836 140 130 116
0.23909883 -0.27968231 0.69957876 141 132 119
0.23898777 -0.27904877 0.70102644 140 131 119
0.22240616 0.37321502 0.81575429 0 0 0
0.22533478 0.38054195 0.83176911 0 0 0
0.22838068 0.38816231 0.84842533 0 0 0
0.23155107 0.39609411 0.86576223 0 0 0
0.23485371 0.40435684 0.88382250 0 0 0
0.23829709 0.41297162 0.90265226 0 0 0
0.25556454 -0.30032986 0.70835096 153 142 130
0.25574463 -0.28572142 0.58928448 145 138 124
0.24030800 -0.28089148 0.69957876 144 133 118
0.25345235 -0.28763448 0.70577190 145 135 121
0.25616428 -0.27703801 0.58446026 143 137 118
0.24030800 -0.27968231 0.69957876 143 133 120
0.24910390 -0.27555586 0.70602900 144 134 118
0.25137586 0.11877913 0.45127670 151 160 158
0.25326823 0.12459238 0.45341104 151 157 156
0.25192793 0.18980748 0.93138100 146 150 155
0.24630702 0.19304906 0.95197278 138 139 144
0.24475566 0.19511669 0.97076407 156 158 160
0.25368389 0.21104456 0.93749397 139 142 147
0.25314700 0.20884477 0.94763273 146 149 153
0.24502368 0.20647543 0.96802890 147 152 157
0.24189039 0.42196149 0.92230183 0 0 0
0.24564362 0.43135145 0.94282591 0 0 0
0.24956767 0.44116884 0.96428424 0 0 0
0.25367451 0.45144349 0.98674214 0 0 0
0.25797722 0.46220818 1.01027095 0 0 0
0.26046206 -0.28247295 0.70503744 142 134 122
0.26186334 -0.27702569 0.58356265 147 139 120
0.26476227 0.18627579 0.91723060 173 175 177
0.26534226 0.19265069 0.93137050 165 168 171
0.26462275 0.19772261 0.94309222 156 162 163
0.26608009 0.20664240 0.93411563 165 171 172
0.26493021 0.20665603 0.94594629 149 154 157
0.26249012 0.47349876 1.03494942 0 0 0
0.26722902 0.48535475 1.06086361 0 0 0
0.27221134 0.49781972 1.08810890 0 0 0
0.27745631 0.51094180 1.11679053 0 0 0
0.28824498 0.25547627 0.69635597 141 144 144
0.28785896 0.25615957 0.70438016 139 142 142
0.29170191 0.26072481 0.69718361 151 157 155
0.29216050 0.26715152 0.70967168 154 162 161
0.29435384 0.27580060 0.72551409 153 163 163
0.29026814 0.29207934 0.71848735 129 135 136
0.29259572 0.28874047 0.73132846 143 152 152
0.29034483 0.29029268 0.74086541 144 153 153
0.28298530 0.52477443 1.14702511 0 0 0
0.28882197 0.53937685 1.17894232 0 0 0
0.29499274 0.55481517 1.21268666 0 0 0
0.30152720 0.57116336 1.24841964 0 0 0
0.30845842 0.58850414 1.28632224 0 0 0
0.31582367 0.60693091 1.32659853 0 0 0
0.33373713 0.17770151 0.49820734 131 138 137
0.32972998 0.17876638 0.50187129 115 124 127
0.33608231 0.18019716 0.49955183 136 142 138
0.33133535 0.18298364 0.50385318 134 141 140
0.32366508 0.62654889 1.36947846 0 0 0
0.33203036 0.64747745 1.41522300 0 0 0
0.35651633 0.33686502 1.07858753 158 168 169
0.35814905 0.33929563 1.08636510 157 168 168
0.35987923 0.34282151 1.09161329 158 167 168
0.34097376 0.66985244 1.46412921 0 0 0
0.35055745 0.69382930 1.51653659 0 0 0
0.37781562 0.07955268 0.46633420 158 167 165
0.37644479 0.08366409 0.46596095 153 162 162
0.36232476 0.33739910 1.07830151 161 170 171
0.36803983 0.33927820 1.08232045 165 172 172
0.36692854 0.34571519 1.09328657 167 174 173
0.37191546 0.35373842 1.10648229 161 167 167
0.37418561 0.35858430 1.12327427 162 169 168
0.37597679 0.36246466 1.11086079 147 153 153
0.37601601 0.36639232 1.12759380 147 155 155
0.37758558 0.37233514 1.15015285 141 150 150
0.37985967 0.37632389 1.16620152 142 150 151
0.37225014 0.67976499 1.89355266 147 156 157
0.37314751 0.68489175 1.89144876 149 156 157
0.37428781 0.68919541 1.91063333 143 150 152
0.37330069 0.69484355 1.92858803 140 148 151
0.37693044 0.69727629 1.95172910 139 148 149
0.36085266 0.71958625 1.57283485 0 0 0
0.37299770 0.70333594 1.93131578 138 143 148
0.37392077 0.70131373 1.95357883 139 147 151
0.37706402 0.70678151 1.98795259 140 150 150
0.37194172 0.74732935 1.63347435 0 0 0
0.38282183 0.08804677 0.46442321 161 171 170
0.38188609 0.35805245 1.10839155 159 161 162
0.38239523 0.36431352 1.10877910 140 145 145
0.38314776 0.36818559 1.12296200 146 150 151
0.38108645 0.37603211 1.15144569 139 147 147
0.38057086 0.37846118 1.17282331 142 146 149
0.38603139 0.38394696 1.15878952 132 138 140
0.38787663 0.38816386 1.17375677 131 138 139
0.39046550 0.39473577 1.18806993 127 132 136
0.39469503 0.40349754 1.19411489 116 120 125
0.39442610 0.41180828 1.21128416 110 112 119
0.38243257 0.69028097 1.93683386 141 148 152
0.38742808 0.69504393 1.95359729 140 148 151
0.39175266 0.69403755 1.96967306 137 143 145
0.39156468 0.69350795 1.98602649 145 150 151
0.39022471 0.70130044 1.96775985 138 147 149
0.38620114 0.70403874 1.99968100 136 145 147
0.38392013 0.77729744 1.69897699 0 0 0
0.39689934 0.80976939 1.76995254 0 0 0
0.41929644 -0.29523280 1.27184212 150 134 125
0.40852261 0.13756396 0.45042646 138 144 143
0.40883113 0.13219742 0.49341447 145 155 153
0.41396195 0.12571387 0.50074834 132 140 140
0.41927245 0.12862409 0.53461537 161 170 164
0.40718229 0.63482833 1.89620471 135 143 147
0.40674935 0.63765249 1.90956962 137 146 149
0.40407649 0.63960522 1.92037344 137 145 149
0.41045974 0.64138782 1.89620471 131 135 143
0.41058892 0.64627978 1.90822107 128 132 139
0.40859851 0.65178738 1.93133317 135 144 146
0.40702911 0.65700769 1.94238353 144 151 153
0.41771506 0.67301342 1.90687251 122 124 131
0.41330116 0.66583128 1.95279070 141 145 149
0.41620661 0.67531179 1.96833768 143 145 148
0.41948420 0.68248117 1.91494870 127 134 142
0.41063131 0.69248704 1.97471956 140 143 144
0.41296194 0.69443700 1.98213995 141 142 143
0.41411570 0.70277603 1.97348845 121 125 133
0.41022116 0.70300192 1.98213995 127 132 137
0.41101027 0.84507275 1.84711671 0 0 0
0.42728788 -0.30181095 1.26946032 146 133 125
0.42952897 -0.28987040 1.27281058 148 134 123
0.42759805 -0.28325599 1.28738897 149 137 124
0.43801492 -0.27082590 0.75303513 145 137 123
0.43887249 -0.27655089 0.76082134 143 135 121
0.43160957 -0.27809417 1.27389763 148 133 122
0.43309584 -0.27589955 1.28940575 146 133 123
0.43215017 -0.27311175 1.30263727 146 133 121
0.43849519 -0.25645953 0.74674226 154 147 132
0.43220642 0.11700685 0.54558057 150 156 156
0.42020050 0.12977870 0.45042646 138 142 142
0.42611235 0.12786726 0.53688817 166 174 169
0.42741687 0.12533127 0.54648297 145 151 150
0.43625966 0.20126933 0.45012739 119 132 131
0.43702412 0.43693966 1.19980860 167 176 175
0.43752283 0.43953350 1.21268666 165 176 174
0.43837456 0.44143711 1.21217629 166 176 175
0.43935665 0.44561535 1.22363150 165 176 176
0.42093065 0.66517353 1.93683386 134 137 143
0.42207076 0.67469868 1.94986322 140 145 147
0.42023873 0.67820990 1.96490383 136 140 142
0.42228610 0.68954956 1.95156975 124 127 133
0.42023873 0.69009651 1.96490383 129 132 136
0.42023873 0.70198315 1.96490383 125 129 137
0.42640767 0.88359457 1.93131578 0 0 0
0.44378269 -0.26971390 0.75355248 148 141 124
0.44434975 -0.27690014 0.76141996 144 137 119
0.44180468 -0.25416574 0.74573786 152 145 131
0.44583786 0.17978685 0.59884441 147 158 158
0.44658221 0.17900945 0.60462335 138 145 145
0.44282048 0.19066926 0.59743104 160 168 166
0.44418127 0.18835984 0.60457438 151 160 159
0.45268288 0.19979694 0.62249023 165 174 169
0.45028957 0.20465500 0.61593953 129 141 140
0.45380739 0.20607838 0.62724398 143 152 151
0.44264781 0.44782662 1.21813548 164 171 170
0.44321382 0.45315613 1.22686459 159 167 166
0.44512816 0.45685317 1.24269915 161 170 170
0.44457415 0.46361972 1.23003128 154 159 159
0.44855097 0.46816070 1.25125376 152 158 159
0.45108486 0.47324740 1.26237192 146 152 153
0.45400831 0.49022222 1.31289681 120 130 132
0.45317182 0.49436329 1.32704389 131 139 139
0.45350936 0.50079089 1.33706474 131 138 139
0.46402218 0.05344332 0.50895425 120 135 141
0.46696010 0.06650117 0.45780992 103 124 126
0.46689496 0.06983497 0.46211289 118 135 137
0.46560385 0.06076286 0.50804172 108 131 135
0.46556364 0.24613145 0.87528172 165 173 171
0.47219197 0.24862586 0.89340318 152 161 160
0.47312423 0.25044141 0.90786542 140 146 149
0.47737236 0.25651796 0.92934209 138 144 145
0.47904533 0.25969762 0.94677633 125 130 131
0.46091819 0.47874942 1.29616034 155 164 164
0.47631433 0.47445841 1.34772962 149 155 157
0.47526438 0.46885963 1.36826495 145 150 150
0.47902611 0.47534944 1.38063514 160 168 166
0.46121252 0.48428538 1.29698801 142 149 150
0.46368633 0.48820707 1.31459747 143 151 151
0.46635577 0.48877781 1.33052896 147 155 156
0.47204898 0.48376997 1.34812204 151 159 161
0.47683778 0.48214242 1.36752544 156 165 163
0.46494118 0.50079567 1.33339231 114 119 122
0.46574616 0.50277424 1.34236014 124 128 131
0.49862248 0.17759010 0.83876766 149 150 148
0.49749566 0.17630722 0.84164621 158 161 160
0.49598800 0.18140320 0.83644572 127 127 132
0.48202550 0.24270357 0.90771187 117 124 128
0.48066248 0.25497453 0.93247917 136 142 144
0.48276233 0.25875494 0.94572437 133 139 141
0.48363815 0.47768433 1.35511258 155 163 163
0.48403349 0.47621826 1.37343106 159 167 165
0.48956962 0.47751625 1.38345916 156 162 161
0.48430675 0.48315109 1.37381209 157 165 163
0.48206414 0.48276714 1.38251356 162 171 167
0.50818272 0.17728685 0.83768003 130 136 140
0.50927000 0.17523441 0.84537110 143 148 150
0.51029704 0.18319535 0.84616814 125 129 136
0.51806868 0.24841331 0.61605822 110 120 122
0.51758013 0.24657085 0.62433301 127 133 134
0.51664340 0.54301053 1.39197505 163 172 171
0.51863536 0.54758671 1.40060294 163 170 170
0.53803056 -0.12610456 0.50903483 71 96 107
0.53845341 -0.11909239 0.50925458 72 95 108
0.52253036 0.17318303 0.85398399 155 161 163
0.52731427 0.17246972 0.86245781 143 151 152
0.52572750 0.19402077 0.87219757 163 169 168
0.53302530 0.19797503 0.88769480 168 172 170
0.53539938 0.20123051 0.89079088 169 175 173
0.53852940 0.23920222 0.64012450 162 171 164
0.52130038 0.24707909 0.61964518 84 96 101
0.53016431 0.24844609 0.63010393 109 117 119
0.53875067 0.24307463 0.64012450 122 128 128
0.53274260 0.55461357 1.41170945 165 172 171
0.52378997 0.55807891 1.42115688 163 170 170
0.53994870 0.56186396 1.41522300 161 167 167
0.53116344 0.56962750 1.43254003 155 164 163
0.53065554 0.57508254 1.44725671 155 164 165
0.53288131 0.58286353 1.43439229 152 161 160
0.53622191 0.58685038 1.45284517 153 162 161
0.53952813 0.59014696 1.46729839 154 160 160
0.54034060 -0.12650810 0.51188497 72 97 107
0.54277410 -0.11928926 0.51104122 73 94 105
0.54650549 0.23658199 0.63659862 138 149 148
0.54418269 0.23770515 0.64126602 147 157 154
0.54590908 0.24733129 0.63526942 123 132 131
0.54306929 0.24573282 0.64089417 112 119 119
0.54540366 0.56902636 1.39579781 161 168 169
0.54416976 0.56985509 1.40935328 158 167 166
0.54258725 0.57233512 1.42917020 155 163 163
0.54236416 0.57552477 1.44334817 154 163 162
0.54663688 0.58029079 1.39483917 161 167 168
0.54614115 0.58083037 1.41229609 156 163 164
0.54378993 0.58315756 1.42714793 149 158 158
0.54655258 0.58587350 1.44812396 148 158 157
0.54764179 0.59562067 1.46412921 150 160 159
0.59849221 -0.02042682 0.88845587 150 164 167
0.59858806 -0.01553084 0.88633048 146 156 157
0.61953390 -0.09505393 0.95142761 145 134 119
0.60457805 -0.02390899 0.88601904 142 152 155
0.61297920 -0.01451195 0.87895244 150 164 164
0.60717378 -0.01511689 0.88407325 145 158 160
0.60648946 0.29666872 0.67823231 98 106 109
0.61476584 0.29455648 0.69083969 135 146 145
0.63241105 -0.10509783 0.95389030 101 98 97
0.63383040 -0.10834052 0.96705696 139 131 117
0.63211132 -0.09520065 0.95450409 104 100 97
0.62974554 -0.09860412 0.96200397 141 130 115
0.62407151 0.29044792 0.69365851 154 162 159
0.64456520 -0.10259250 0.95399420 67 69 75
0.64400076 -0.09637192 0.95307777 67 67 75
0.67911616 0.23844132 0.67891037 116 127 123
0.66810474 0.45571080 1.01571514 123 129 128
0.67473604 0.45561118 1.02370206 145 154 153
0.68180430 0.22623311 0.67925036 124 126 124
0.68865983 0.23362518 0.69078027 109 121 121
0.68926374 0.24119486 0.69131343 121 132 132
0.68852590 0.43775467 1.01430253 154 162 162
0.69141361 0.43862553 1.02246362 153 160 161
0.69021487 0.44347343 1.01938617 155 165 166
0.69430899 0.45102226 1.03212469 139 148 148
0.69447593 0.45529798 1.04477709 133 144 144
0.69107976 0.46294891 1.03410173 111 122 122
0.69480696 0.46164019 1.04273311 129 137 138
0.70029813 0.23876924 0.69349566 92 104 108
0.70173252 0.24046733 0.69581126 92 105 109
0.70011036 0.45506656 1.04544003 137 150 149
0.73317086 0.05277614 0.75753585 126 142 145
0.73645798 0.05646616 0.76244024 124 138 144
0.73550248 0.06496350 0.75629381 151 162 163
0.73557590 0.06257545 0.76282948 141 152 155
0.75693375 -0.26897618 0.95882863 79 103 122
0.75837454 -0.26772285 0.96900693 82 102 120
0.74049562 0.05674251 0.75996846 96 110 113
0.74060085 0.05756062 0.76210463 102 115 124
0.74049562 0.06068314 0.75996846 154 165 171
0.74051414 0.06114793 0.76167671 134 144 152
0.76197136 -0.26419926 0.96947055 82 102 118
0.76815758 -0.26070106 0.98819868 85 101 111
0.76439066 -0.25818830 0.97521583 78 101 112
0.77019285 -0.25640369 0.98804124 79 103 113
0.79501945 -0.26278342 1.00652146 75 104 115
0.78431700 -0.25253993 0.99641899 77 102 116
0.79373308 -0.25698757 1.00449962 77 102 115
0.79497036 0.39975828 1.21922994 147 158 157
0.79004678 0.40992667 1.21813548 149 158 159
0.79677776 0.41036363 1.22326580 152 160 160
0.79613087 0.42509648 1.23344091 122 130 131
0.79714196 0.43457048 1.25213735 151 160 158
0.79617536 0.43640541 1.26119524 165 175 171
0.79692259 0.44306985 1.25721853 164 173 169
0.79835322 0.44512695 1.26119524 165 173 169
0.80373571 0.40792139 1.21843468 153 162 161
0.80870402 0.41162115 1.22585152 151 160 158
0.80975299 0.42305780 1.23580360 148 154 153
0.80634162 0.43354835 1.24729497 139 141 144
0.80396787 0.44325048 1.25690798 147 152 154
0.80414510 0.44253401 1.26002204 156 162 162
0.83232505 0.41526627 1.23347695 114 123 126
0.83676316 0.41836910 1.24536816 120 129 132
0.83391843 0.42275788 1.23303861 132 142 141
0.83251799 0.42676231 1.24843978 145 155 152
0.83728015 0.43790334 1.26236844 137 144 143
0.84032106 0.41979486 1.23477566 121 130 131
0.84324173 0.41872765 1.25075976 111 119 123
0.84672196 0.42320950 1.23478222 124 133 136
0.84874867 0.42904984 1.25035712 132 142 141
0.84593108 0.43418897 1.26266667 148 158 154
0.85363626 0.44309861 1.27149354 145 152 148
0.85721339 0.44934019 1.28572714 141 143 142
0.86347803 0.34853016 0.95477912 149 159 158
0.87373486 0.35468206 0.96704328 157 165 164
0.86427444 0.41974823 1.26355481 152 156 155
0.86163229 0.42935310 1.25651979 129 137 137
0.86629924 0.43210083 1.26333346 132 140 140
0.87929267 0.42701325 1.28876781 151 156 155
0.87330186 0.44714749 1.25768435 156 167 165
0.87195928 0.44762228 1.26889675 138 148 146
0.87017470 0.45384344 1.28786878 143 148 146
0.88212335 0.35961655 0.97819889 161 171 170
0.89151178 0.35762658 0.99146555 143 154 152
0.89950979 0.35427004 1.00131738 149 162 160
0.89531975 0.36622341 0.99772499 153 164 162
0.89285747 0.37279746 1.00840212 155 167 165
0.89765102 0.37377145 1.02246315 143 154 153
0.89532989 0.38013810 1.01027095 161 172 167
0.88209930 0.42834191 1.29616505 138 147 146
0.88773113 0.42886236 1.30113602 149 154 153
0.88369510 0.44752786 1.27423501 139 148 148
0.88041270 0.45659347 1.29368675 142 148 147
0.88209611 0.46082696 1.29616034 139 145 143
0.91051656 -0.76084179 1.75165856 148 141 128
0.91314286 -0.76190788 1.76996464 149 142 131
0.91736990 -0.76762730 1.78863287 150 143 129
0.91424307 -0.75862122 1.76764792 150 142 127
0.90751883 0.35831870 1.01178968 147 159 157
0.90830367 0.37369294 1.01273839 157 168 165
0.91122642 0.36993429 1.02592264 139 150 148
0.91071198 0.38447524 1.01546315 164 174 170
0.90578926 0.38108544 1.03417498 153 165 163
0.92818280 -0.76558904 1.77543725 145 136 121
0.93303758 -0.76592104 1.78706718 148 139 123
0.93715400 -0.75817108 1.80290389 149 141 127
0.93502814 -0.72675264 1.76075804 151 145 129
0.93357115 0.17332016 0.80700087 140 149 149
0.93531598 0.18280765 0.80350820 140 149 149
0.92987892 0.36415468 1.03812283 147 159 157
0.93463704 0.36982830 1.04763904 144 155 153
0.93434113 0.38097361 1.04612935 144 157 152
0.95167500 -0.76137123 1.74940121 150 144 128
0.95656023 -0.76528152 1.76305068 153 146 129
0.94819204 -0.76728605 1.78819169 155 146 131
0.95157878 -0.76563136 1.80666041 154 146 131
0.95610741 -0.76049489 1.82721502 151 143 131
0.95352013 -0.74769862 1.75279304 161 154 138
0.95233455 -0.74720489 1.77142619 160 152 138
0.94894439 -0.75308170 1.79015431 158 151 136
0.94529837 -0.75909263 1.81254506 151 142 130
0.94707931 -0.73223432 1.74986665 159 151 137
0.94635807 -0.73583769 1.77459083 156 148 135
0.94394979 -0.73728862 1.78627938 151 144 131
0.95866686 0.05955455 0.93890840 106 133 133
0.95866686 0.06198879 0.93890840 103 128 131
0.94276300 0.17038059 0.81051399 137 147 148
0.94264661 0.36879681 1.05788507 147 159 157
0.95071683 0.37125628 1.06906478 148 160 157
0.94124830 0.38179655 1.05590630 130 142 139
0.96748823 -0.78209543 1.86747062 148 140 125
0.97150999 -0.76926684 1.77458596 153 144 131
0.96905833 -0.76826465 1.78791539 157 149 134
0.96189710 -0.77235952 1.80450646 159 150 135
0.96544494 -0.76743381 1.84964013 151 143 132
0.97416495 -0.75581889 1.77831216 161 155 139
0.96517031 -0.75580917 1.78627938 161 154 138
0.96208340 -0.75817108 1.80290389 160 153 138
0.97111071 0.05517225 0.93601087 111 131 134
0.96851420 0.05579818 0.94146969 109 129 133
0.97510043 0.06654451 0.93683637 121 137 141
0.97201007 0.06705989 0.94313058 118 135 138
0.96543336 0.37433515 1.08725381 150 160 158
0.97457959 0.41143360 1.61531226 142 147 146
0.97660959 0.41741166 1.62955713 166 171 166
0.97983217 0.42296311 1.60258114 104 111 115
0.99031258 -0.78211182 1.89885676 149 140 128
0.99589968 -0.78156888 1.90956962 142 136 120
0.99772221 -0.79322135 1.92582905 144 136 122
0.98543070 -0.77273552 1.79812157 158 152 136
0.99492948 -0.76958810 1.80482697 159 153 137
0.99589181 -0.77661657 1.90955448 140 134 117
0.98161225 0.07501097 0.93603208 143 155 158
0.98349653 0.07287624 0.94326790 131 143 149
0.98599774 0.08076317 0.94021058 157 175 172
0.99516205 0.41795225 1.59754753 132 139 138
0.98699135 0.41506295 1.61383701 122 126 129
0.98851128 0.41141585 1.62907807 135 142 140
0.99096213 0.41231965 1.64537409 141 147 146
0.99385216 0.42745324 1.59692055 122 132 135
0.98969985 0.42419756 1.61004196 111 118 123
0.98832032 0.42410592 1.62825767 131 134 135
0.98653489 0.42185634 1.64138460 165 168 163
1.01547527 -0.80127448 1.95357883 144 136 123
1.00919032 -0.79897195 1.94796503 144 135 123
1.00532932 0.41263287 1.61275943 151 159 158
1.01149390 0.41254914 1.63060286 147 155 155
1.01027753 0.41005482 1.64939212 140 144 145
1.01114047 0.40936320 1.66559705 134 137 139
1.00077951 0.43714315 1.61402822 108 118 124
1.00584976 0.42272414 1.63741994 142 151 152
1.00639391 0.42185634 1.64138460 150 159 160
1.02136207 -0.80252337 1.96490383 141 135 119
1.02136207 -0.79912722 1.96490383 139 133 117
1.02057898 0.39916036 1.64138460 153 157 158
1.02401249 0.41215021 1.63479271 148 155 156
1.02939286 0.40886951 1.65073456 150 154 156
1.02957597 0.40792346 1.66558999 147 149 150
1.02448511 0.42163065 1.62954772 157 164 163
1.05872591 0.40605524 1.19557793 145 159 156
1.04225633 0.41448101 1.65440536 154 159 161
1.05174259 0.42301117 1.66831684 159 165 166
1.06300262 0.39442110 1.19742754 151 160 160
1.07153980 0.39381951 1.20910638 157 167 163
1.07505473 0.39716449 1.23125416 137 143 139
1.06280474 0.40304595 1.19768882 140 150 150
1.07023426 0.40614408 1.21072753 142 152 151
1.07652631 0.40459923 1.23100006 138 151 150
1.07801616 0.40328160 1.24308165 117 125 126
1.08158100 0.39657996 1.22522002 157 167 161
1.08316555 0.41116076 1.23202446 143 153 151
1.08650149 0.41188271 1.25155649 115 126 127
1.09071444 0.41597467 1.26203573 105 116 119
1.09537082 0.42179103 1.25211866 129 140 140
1.09706545 0.42402232 1.26002204 120 133 133
1.09962070 0.43272087 1.58756876 155 156 157
1.10391979 0.42576393 1.27041843 117 131 132
1.11388713 0.42989770 1.28571784 109 124 125
1.10935251 0.43234151 1.59629945 143 144 145
1.11545894 0.43480889 1.60543388 145 146 147
1.11807525 0.44167098 1.61019444 147 148 150
1.12490112 0.41089183 1.61500496 167 176 174
1.13785252 0.41600049 1.62955242 167 176 174
1.12324031 0.43449605 1.29781568 110 126 126
1.12964932 0.43784869 1.30783423 108 123 124
1.12812620 0.43677218 1.61109453 138 140 141
1.13434339 0.43193131 1.62956659 149 152 151
1.13436928 0.44358043 1.30806792 120 130 131
1.13787806 0.44578478 1.59503961 148 157 156
1.13165764 0.44825669 1.61079474 119 126 129
1.13707018 0.44522224 1.63348383 136 137 138
1.14809147 0.41602198 1.61326697 155 163 164
1.15083778 0.41666007 1.62900560 167 174 174
1.15672813 0.41702316 1.64471428 166 175 175
1.14723945 0.43022407 1.61427812 153 160 160
1.15186017 0.43237133 1.63129896 162 168 165
1.15346818 0.43008093 1.64719801 165 173 171
1.14373112 0.45065963 1.31885576 126 135 136
1.15103680 0.45189507 1.33392493 121 131 134
1.15864913 0.45585590 1.34770107 123 131 136
1.14332521 0.44407275 1.59880149 156 165 164
1.14427481 0.44552998 1.61267074 137 146 147
1.15463874 0.44689939 1.62720680 139 148 149
1.15093708 0.44065993 1.65340459 150 155 153
1.16534269 0.41961330 1.62175083 140 149 150
1.16408176 0.41560042 1.65259800 157 166 165
1.16662323 0.41553909 1.66149962 151 159 157
1.16757147 0.42992672 1.63112593 148 156 155
1.17661393 0.43320435 1.64138460 151 157 157
1.16640329 0.45909834 1.35038221 126 134 137
1.17106521 0.45664454 1.36396754 117 127 130
1.16671411 0.44618235 1.63348697 149 157 156
1.16874862 0.46376248 1.35377562 126 136 137
1.16871369 0.46513864 1.36122859 125 136 136
1.18812120 0.45176479 1.65743732 151 160 161
1.19103324 0.45861560 1.66149962 156 167 166
1.18294151 0.47080424 1.37504096 125 135 136
1.18993805 0.47376415 1.38736024 127 137 138
1.19520831 0.48002213 1.39771509 133 146 144
1.20302387 0.48680320 1.38723656 130 142 142
1.21183959 0.48644821 1.40936291 128 140 139
1.21541019 0.48567664 1.42614551 141 149 149
1.21849525 0.49015251 1.44539833 160 168 166
1.22352508 0.49600666 1.41227776 128 140 139
1.22814740 0.49577672 1.42717152 124 136 136
1.22704377 0.49617702 1.45124831 157 167 164
1.23456756 0.49369411 1.47049876 155 165 162
1.23752737 0.49808735 1.48011315 160 169 165
1.22986996 0.50421023 1.41818380 127 138 138
1.23451851 0.50411066 1.43068735 127 137 138
1.23523204 0.50335241 1.44747720 134 143 143
1.23729402 0.50659056 1.46771774 159 167 166
1.23752737 0.50704125 1.48011315 157 169 166
1.25268205 0.47889496 1.49206956 163 171 165
1.24248934 0.48423877 1.47688854 137 146 143
1.24665195 0.48817587 1.48712962 154 163 159
1.24351952 0.51458994 1.43622184 124 135 137
1.24643866 0.51081885 1.45030499 123 131 133
1.24852137 0.51170330 1.47022980 143 150 150
1.24569379 0.51022793 1.48969081 158 169 166
1.25972354 0.50285220 1.50978136 166 176 171
1.25441208 0.52207868 1.45082968 123 134 137
1.25959194 0.52054536 1.46412921 122 128 133
1.26333034 0.47906986 1.50475621 158 167 163
1.27991879 0.47743490 1.53716969 143 152 150
1.26153266 0.48289308 1.49644995 155 164 157
1.26520985 0.49053951 1.51401281 159 169 163
1.27672294 0.48976579 1.52921001 160 170 165
1.26035810 0.51742363 1.47688854 132 136 139
1.26055169 0.51855338 1.48011315 135 138 141
1.26546788 0.50828518 1.51823676 157 168 163
1.27709417 0.51077051 1.53457507 160 171 166
1.27774298 0.51964468 1.54417276 158 168 164
1.26756051 0.52867360 1.46985292 128 139 140
1.26449192 0.52296373 1.48173255 119 120 124
1.27408114 0.52642676 1.53370415 151 163 161
1.27617043 0.52512094 1.54066324 151 160 159
1.28257573 0.48540553 1.53716969 148 157 156
1.28493443 0.49033292 1.54725387 151 159 158
1.28665135 0.51088391 1.55009176 161 170 166
1.29615605 0.50711922 1.56316519 158 168 164
1.28314273 0.52894729 1.54489396 154 166 163
