ply
format ascii 1.0
element vertex 1043
property float x
property float y
property float z
property uchar red
property uchar green
property uchar blue
end_header
-0.42063379 -0.20203994 0.57497185 83 126 154
-0.41928437 -0.20186871 0.57448459 83 126 154
-0.41829142 -0.20186871 0.57448459 86 128 152
-0.41729847 -0.20186871 0.57448459 88 129 153
-0.41630551 -0.20186871 0.57448459 88 129 150
-0.41531256 -0.20186871 0.57448459 90 130 149
-0.41431960 -0.20186871 0.57448459 94 132 151
-0.41332668 -0.20186871 0.57448459 101 136 152
-0.41233373 -0.20186871 0.57448459 110 146 160
-0.41134077 -0.20186871 0.57448459 132 140 143
-0.41034782 -0.20186871 0.57448459 138 139 139
-0.40935487 -0.20186871 0.57448459 138 139 139
-0.40870827 -0.20203994 0.57497185 137 138 138
-0.40771449 -0.20203994 0.57497185 135 136 136
-0.40637600 -0.20186871 0.57448459 136 137 135
0.44034645 -0.26585388 0.75657570 146 137 125
0.43871632 -0.26408547 0.75154305 146 138 126
0.43758962 -0.26262963 0.74740005 149 142 128
0.43936586 -0.26291952 0.74822497 152 146 131
0.44163403 -0.26350120 0.74988037 153 147 131
0.44342065 -0.26379302 0.75071079 153 147 131
0.44275692 -0.26262963 0.74740005 152 146 130
0.44404873 -0.26262963 0.74740005 151 145 129
0.44436070 -0.26205179 0.74575561 151 143 130
0.44515994 -0.26176384 0.74493611 152 143 131
-0.43633536 -0.20611601 0.58947116 84 125 155
-0.43193612 -0.20451544 0.58489376 83 124 155
-0.42723891 -0.20276596 0.57989037 80 123 152
-0.42333952 -0.20138776 0.57594889 81 124 152
-0.42198551 -0.20121682 0.57545996 85 128 155
-0.42063379 -0.20104614 0.57497185 83 126 152
-0.41964000 -0.20104614 0.57497185 83 126 152
-0.41864622 -0.20104614 0.57497185 84 129 152
-0.41765240 -0.20104614 0.57497185 84 130 153
-0.41630551 -0.20087576 0.57448459 85 130 150
-0.41531256 -0.20087576 0.57448459 87 131 147
-0.41431960 -0.20087576 0.57448459 93 136 153
-0.41332668 -0.20087576 0.57448459 102 136 154
-0.41233373 -0.20087576 0.57448459 109 142 160
-0.41134077 -0.20087576 0.57448459 126 141 149
-0.41034782 -0.20087576 0.57448459 136 139 140
-0.40935487 -0.20087576 0.57448459 137 139 141
-0.40870827 -0.20104614 0.57497185 138 139 141
-0.40771449 -0.20104614 0.57497185 138 139 141
-0.40672070 -0.20104614 0.57497185 138 139 139
0.44182578 -0.26543495 0.75911742 150 142 129
0.43920323 -0.26307815 0.75237721 151 144 129
0.43758962 -0.26133782 0.74740005 152 146 130
0.43936586 -0.26162627 0.74822497 153 147 131
0.44163403 -0.26220509 0.74988037 153 147 131
0.44342065 -0.26249546 0.75071079 153 147 131
0.44275692 -0.26133782 0.74740005 152 146 130
0.44355968 -0.26105002 0.74657691 152 145 130
0.44436070 -0.26076281 0.74575561 151 145 129
-0.43557781 -0.20474108 0.58844781 83 121 155
-0.43193612 -0.20350450 0.58489376 85 123 157
-0.42723891 -0.20176366 0.57989037 84 124 157
-0.42298013 -0.20022218 0.57545996 80 125 155
-0.42198551 -0.20022218 0.57545996 83 128 157
-0.42063379 -0.20005235 0.57497185 77 122 148
-0.41964000 -0.20005235 0.57497185 80 124 150
-0.41864622 -0.20005235 0.57497185 83 127 151
-0.41765240 -0.20005235 0.57497185 85 129 151
-0.41630551 -0.19988282 0.57448459 86 130 150
-0.41531256 -0.19988282 0.57448459 87 129 144
-0.41431960 -0.19988282 0.57448459 84 127 142
-0.41332668 -0.19988282 0.57448459 99 131 148
-0.41233373 -0.19988282 0.57448459 110 138 156
-0.41134077 -0.19988282 0.57448459 121 142 153
-0.41034782 -0.19988282 0.57448459 134 140 139
-0.40935487 -0.19988282 0.57448459 134 140 139
-0.40870827 -0.20005235 0.57497185 135 139 140
-0.40771449 -0.20005235 0.57497185 136 140 141
-0.40637600 -0.19988282 0.57448459 136 140 140
0.43839809 -0.25975960 0.74657691 154 148 132
0.44114602 -0.26062068 0.74905175 154 148 132
0.44293013 -0.26090899 0.74988037 153 147 131
0.44275692 -0.26004601 0.74740005 153 147 131
0.44307172 -0.25947383 0.74575561 152 146 130
-0.43444645 -0.20319484 0.58691937 78 122 155
-0.43156376 -0.20231900 0.58438951 80 123 156
-0.42687374 -0.20058978 0.57939476 82 125 158
-0.42298013 -0.19922754 0.57545996 80 127 156
-0.42198551 -0.19922754 0.57545996 80 127 156
-0.42099085 -0.19922754 0.57545996 79 124 152
-0.41999623 -0.19922754 0.57545996 80 125 151
-0.41864622 -0.19905856 0.57497185 84 130 155
-0.41765240 -0.19905856 0.57497185 85 130 153
-0.41630551 -0.19888987 0.57448459 84 130 153
-0.41531256 -0.19888987 0.57448459 89 131 148
-0.41431960 -0.19888987 0.57448459 92 132 148
-0.41332668 -0.19888987 0.57448459 104 134 150
-0.41233373 -0.19888987 0.57448459 117 137 154
-0.41134077 -0.19888987 0.57448459 122 141 155
-0.41069585 -0.19905856 0.57497185 135 141 139
-0.40935487 -0.19888987 0.57448459 134 140 138
-0.40771449 -0.19905856 0.57497185 134 140 138
0.43791580 -0.25818485 0.74575561 157 151 136
0.44065911 -0.25903979 0.74822497 156 150 134
0.44195235 -0.25903979 0.74822497 155 149 133
0.44226930 -0.25846922 0.74657691 154 148 132
0.44209900 -0.25761804 0.74411839 152 146 130
-0.43369547 -0.20183091 0.58590478 76 125 158
-0.43119204 -0.20113555 0.58388615 79 125 157
-0.42650920 -0.19941790 0.57889998 79 125 157
-0.42333952 -0.19840133 0.57594889 79 126 156
-0.42198551 -0.19823290 0.57545996 80 127 156
-0.42099085 -0.19823290 0.57545996 81 126 156
-0.41999623 -0.19823290 0.57545996 85 126 155
-0.41900158 -0.19823290 0.57545996 87 128 157
-0.41800696 -0.19823290 0.57545996 88 129 156
-0.41665861 -0.19806477 0.57497185 88 128 155
-0.41531256 -0.19789691 0.57448459 98 128 152
-0.41431960 -0.19789691 0.57448459 106 130 151
-0.41367725 -0.19806477 0.57497185 110 134 153
-0.41233373 -0.19789691 0.57448459 123 139 152
-0.41168967 -0.19806477 0.57497185 125 141 155
-0.41069585 -0.19806477 0.57497185 134 142 144
0.44065911 -0.25774655 0.74822497 157 151 135
0.44195235 -0.25774655 0.74822497 156 150 134
0.44178274 -0.25689590 0.74575561 153 146 133
0.44161424 -0.25605083 0.74330246 151 145 130
-0.43332094 -0.20064481 0.58539885 73 122 155
-0.43045053 -0.19978218 0.58288205 79 120 153
-0.42578200 -0.19807900 0.57791293 82 121 155
-0.42298013 -0.19723827 0.57545996 82 123 156
-0.42198551 -0.19723827 0.57545996 83 125 155
-0.42099085 -0.19723827 0.57545996 83 126 156
-0.41999623 -0.19723827 0.57545996 84 126 156
-0.41900158 -0.19723827 0.57545996 86 127 158
-0.41800696 -0.19723827 0.57545996 89 129 158
-0.41665861 -0.19707097 0.57497185 91 131 159
-0.41531256 -0.19690396 0.57448459 94 128 155
-0.41431960 -0.19690396 0.57448459 101 124 150
-0.41332668 -0.19690396 0.57448459 110 133 158
-0.41233373 -0.19690396 0.57448459 124 137 153
0.43839809 -0.25588840 0.74657691 156 150 134
0.44017327 -0.25617054 0.74740005 156 150 134
0.44195235 -0.25645328 0.74822497 153 147 133
0.44178274 -0.25560692 0.74575561 152 145 132
0.44161424 -0.25476611 0.74330246 152 145 131
0.44289899 -0.25476611 0.74330246 154 147 132
-0.42860785 -0.19792379 0.58038688 75 122 154
-0.42469582 -0.19657739 0.57643867 76 122 154
-0.42298013 -0.19624363 0.57545996 78 122 155
-0.42198551 -0.19624363 0.57545996 83 123 156
-0.42099085 -0.19624363 0.57545996 84 124 157
-0.41999623 -0.19624363 0.57545996 85 125 156
-0.41900158 -0.19624363 0.57545996 86 126 157
-0.41800696 -0.19624363 0.57545996 87 127 158
-0.41630551 -0.19591102 0.57448459 88 128 159
-0.41566482 -0.19607718 0.57497185 90 126 156
-0.41467103 -0.19607718 0.57497185 99 117 139
-0.41332668 -0.19591102 0.57448459 117 135 158
-0.41198459 -0.19574513 0.57399815 133 145 157
0.06610020 -0.19541420 0.57302779 105 118 135
0.06697740 -0.19508439 0.57206064 125 129 143
0.06988471 -0.19491990 0.57157826 145 140 135
0.07081293 -0.19475569 0.57109678 143 138 133
0.07180002 -0.19475569 0.57109678 143 138 133
0.07284849 -0.19491990 0.57157826 144 137 132
0.07402366 -0.19541420 0.57302779 145 137 131
0.43839809 -0.25459802 0.74657691 153 147 131
0.44017327 -0.25487873 0.74740005 153 146 131
0.44146508 -0.25487873 0.74740005 152 145 132
0.44178274 -0.25431794 0.74575561 152 145 132
0.44161424 -0.25348136 0.74330246 152 144 131
0.44289899 -0.25348136 0.74330246 153 144 132
-0.42750978 -0.19641615 0.57889998 75 123 154
-0.42433497 -0.19541489 0.57594889 76 122 154
-0.42298013 -0.19524899 0.57545996 76 122 154
-0.42198551 -0.19524899 0.57545996 76 122 152
-0.42099085 -0.19524899 0.57545996 78 123 153
-0.41999623 -0.19524899 0.57545996 82 124 155
-0.41900158 -0.19524899 0.57545996 85 126 157
-0.41800696 -0.19524899 0.57545996 86 127 158
-0.41665861 -0.19508339 0.57497185 88 128 157
-0.41566482 -0.19508339 0.57497185 92 132 162
-0.41467103 -0.19508339 0.57497185 117 138 159
-0.41332668 -0.19491807 0.57448459 132 148 169
-0.41198459 -0.19475302 0.57399815 141 153 167
0.06411934 -0.19442376 0.57302779 97 118 136
0.06510977 -0.19442376 0.57302779 99 118 136
0.06610020 -0.19442376 0.57302779 101 118 132
0.06692093 -0.19393197 0.57157826 115 127 132
0.06796616 -0.19409563 0.57206064 139 139 141
0.06889679 -0.19393197 0.57157826 141 140 139
0.06982584 -0.19376859 0.57109678 143 138 133
0.07075332 -0.19360548 0.57061601 143 138 133
0.07180002 -0.19376859 0.57109678 143 137 132
0.07284849 -0.19393197 0.57157826 143 137 132
0.07396114 -0.19425955 0.57254380 145 137 133
0.07501409 -0.19442376 0.57302779 146 138 133
0.43936586 -0.25386679 0.74822497 152 144 130
0.44017327 -0.25358689 0.74740005 152 144 131
0.44195235 -0.25386679 0.74822497 152 143 131
0.44178274 -0.25302896 0.74575561 152 143 131
0.44161424 -0.25219661 0.74330246 152 143 131
0.44289899 -0.25219661 0.74330246 152 143 131
0.44369721 -0.25192040 0.74248832 154 144 131
-0.42678088 -0.19508238 0.57791293 77 122 154
-0.42397478 -0.19425435 0.57545996 78 124 156
-0.42262137 -0.19408959 0.57497185 78 124 156
-0.42162758 -0.19408959 0.57497185 77 123 153
-0.42099085 -0.19425435 0.57545996 76 123 152
-0.41999623 -0.19425435 0.57545996 78 124 153
-0.41900158 -0.19425435 0.57545996 82 126 156
-0.41800696 -0.19425435 0.57545996 84 128 158
-0.41665861 -0.19408959 0.57497185 89 130 157
-0.41566482 -0.19408959 0.57497185 94 134 161
-0.41467103 -0.19408959 0.57497185 117 139 155
-0.41332668 -0.19392511 0.57448459 139 147 153
-0.41198459 -0.19376092 0.57399815 144 152 157
0.05990442 -0.19261922 0.57061601 93 115 134
0.06089069 -0.19261922 0.57061601 92 115 134
0.06307559 -0.19326997 0.57254380 94 117 136
0.06406518 -0.19326997 0.57254380 96 117 137
0.06510977 -0.19343333 0.57302779 97 118 138
0.06610020 -0.19343333 0.57302779 100 119 135
0.06692093 -0.19294405 0.57157826 116 128 133
0.06790885 -0.19294405 0.57157826 136 137 138
0.06889679 -0.19294405 0.57157826 140 139 139
0.06982584 -0.19278149 0.57109678 142 138 134
0.07075332 -0.19261922 0.57061601 142 136 134
0.07180002 -0.19278149 0.57109678 142 136 134
0.07284849 -0.19294405 0.57157826 142 136 134
0.07396114 -0.19326997 0.57254380 142 137 132
0.07501409 -0.19343333 0.57302779 143 137 132
0.44017327 -0.25229508 0.74740005 152 143 131
0.44195235 -0.25257355 0.74822497 152 143 131
0.44178274 -0.25173998 0.74575561 152 143 131
0.44161424 -0.25091189 0.74330246 152 143 131
0.44289899 -0.25091189 0.74330246 152 143 131
-0.42641735 -0.19391818 0.57742065 79 120 152
-0.42361516 -0.19309580 0.57497185 81 124 155
-0.42226321 -0.19293216 0.57448459 81 124 154
-0.42127028 -0.19293216 0.57448459 80 124 154
-0.42063379 -0.19309580 0.57497185 79 124 154
-0.41964000 -0.19309580 0.57497185 79 124 154
-0.41864622 -0.19309580 0.57497185 81 126 154
-0.41765240 -0.19309580 0.57497185 82 127 155
-0.41595301 -0.19276880 0.57399815 90 132 159
-0.41496092 -0.19276880 0.57399815 98 138 165
-0.41396880 -0.19276880 0.57399815 114 143 163
-0.41262731 -0.19260572 0.57351255 138 146 152
-0.41128808 -0.19244291 0.57302779 142 150 156
0.05990442 -0.19163296 0.57061601 93 117 135
0.06083947 -0.19147179 0.57013613 88 112 131
0.06182491 -0.19147179 0.57013613 93 117 136
0.06302236 -0.19211811 0.57206064 93 117 136
0.06401112 -0.19211811 0.57206064 95 118 137
0.06505478 -0.19228037 0.57254380 98 119 137
0.06604438 -0.19228037 0.57254380 101 120 134
0.06692093 -0.19195612 0.57157826 118 128 135
0.06785165 -0.19179440 0.57109678 136 137 137
0.06883874 -0.19179440 0.57109678 141 139 138
0.06976706 -0.19163296 0.57061601 142 137 136
0.07075332 -0.19163296 0.57061601 142 136 134
0.07180002 -0.19179440 0.57109678 141 135 133
0.07284849 -0.19195612 0.57157826 141 136 131
0.07396114 -0.19228037 0.57254380 143 135 131
0.07495073 -0.19228037 0.57254380 143 135 131
0.44244069 -0.25155798 0.74905175 152 144 129
0.44226930 -0.25072682 0.74657691 152 144 129
0.44161424 -0.24962714 0.74330246 152 144 130
1.75515592 -0.60387254 1.79812157 79 103 119
1.76764119 -0.60709321 1.80771160 78 103 118
1.74746609 -0.59910512 1.78392589 78 103 117
-0.42605445 -0.19275598 0.57692921 80 120 151
-0.42325616 -0.19193922 0.57448459 82 124 155
-0.42154872 -0.19161445 0.57351255 80 123 153
-0.42055747 -0.19161445 0.57351255 77 120 150
-0.41992146 -0.19177669 0.57399815 79 124 152
-0.41928437 -0.19193922 0.57448459 81 126 154
-0.41829142 -0.19193922 0.57448459 82 127 154
-0.41694513 -0.19177669 0.57399815 82 127 153
-0.41524979 -0.19145247 0.57302779 85 128 154
-0.41390949 -0.19129077 0.57254380 95 135 160
-0.41326892 -0.19145247 0.57302779 108 145 168
-0.41158268 -0.19112934 0.57206064 138 147 154
0.05980374 -0.19032627 0.56965703 96 118 136
0.06078835 -0.19032627 0.56965703 87 111 128
0.06177295 -0.19032627 0.56965703 93 117 134
0.06296922 -0.19096819 0.57157826 93 117 134
0.06395715 -0.19096819 0.57157826 97 119 136
0.06499988 -0.19112934 0.57206064 99 119 135
0.06598864 -0.19112934 0.57206064 100 119 132
0.06686455 -0.19080731 0.57109678 120 130 137
0.06785165 -0.19080731 0.57109678 136 136 139
0.06878079 -0.19064669 0.57061601 140 139 140
0.06976706 -0.19064669 0.57061601 141 137 138
0.07075332 -0.19064669 0.57061601 142 136 137
0.07180002 -0.19080731 0.57109678 142 136 136
0.07278711 -0.19080731 0.57109678 141 134 132
0.07389873 -0.19112934 0.57206064 142 134 130
0.07488748 -0.19112934 0.57206064 142 134 130
0.44226930 -0.24943642 0.74657691 152 144 129
0.44161424 -0.24834241 0.74330246 152 144 129
1.76139224 -0.60396874 1.80771160 79 103 117
1.75051260 -0.59917533 1.79336464 80 103 116
1.76294005 -0.60236245 1.80290389 80 103 116
1.73831713 -0.59290123 1.77458596 80 103 115
1.72781503 -0.58828121 1.76075804 81 103 114
1.74445152 -0.59290123 1.77458596 81 103 114
-0.42605445 -0.19175880 0.57692921 81 120 153
-0.42289779 -0.19078459 0.57399815 83 125 156
-0.42083666 -0.19030118 0.57254380 80 126 155
-0.42020196 -0.19046204 0.57302779 73 119 148
-0.41956618 -0.19062318 0.57351255 79 126 152
-0.41892934 -0.19078459 0.57399815 81 128 153
-0.41793725 -0.19078459 0.57399815 81 126 150
-0.41694513 -0.19078459 0.57399815 82 126 150
-0.41454896 -0.19014059 0.57206064 86 130 153
-0.41356018 -0.19014059 0.57206064 93 134 154
-0.41291988 -0.19030118 0.57254380 104 145 165
-0.41088918 -0.18982022 0.57109678 132 147 157
0.05975353 -0.18918270 0.56917870 91 113 129
0.06073731 -0.18918270 0.56917870 91 115 133
0.06177295 -0.18934168 0.56965703 93 117 134
0.06286322 -0.18966043 0.57061601 93 117 135
0.06384948 -0.18966043 0.57061601 94 118 136
0.06489036 -0.18982022 0.57109678 95 117 134
0.06593300 -0.18998027 0.57157826 98 118 135
0.06680827 -0.18966043 0.57061601 114 128 137
0.06779453 -0.18966043 0.57061601 134 135 138
0.06878079 -0.18966043 0.57061601 139 138 140
0.06970838 -0.18950091 0.57013613 140 137 139
0.07069381 -0.18950091 0.57013613 142 136 138
0.07173958 -0.18966043 0.57061601 141 134 136
0.07272585 -0.18966043 0.57061601 141 132 133
0.07377421 -0.18982022 0.57109678 141 133 129
0.07476131 -0.18982022 0.57109678 141 133 128
1.74889433 -0.60084426 1.80771160 78 103 116
1.75201881 -0.60084426 1.80771160 79 104 115
1.76929760 -0.60568976 1.82228994 79 104 114
1.76296902 -0.60245079 1.81254506 79 104 114
1.76610184 -0.60245079 1.81254506 80 104 114
1.75982380 -0.59924626 1.80290389 80 104 113
1.76764119 -0.60084426 1.80771160 80 104 113
1.74746609 -0.59293842 1.78392589 79 105 112
1.74595487 -0.59138215 1.77924371 79 105 112
1.74903011 -0.59138215 1.77924371 79 105 112
1.71908450 -0.57922006 1.74265254 79 105 112
1.69165540 -0.56898129 1.71184814 79 105 113
-0.42641735 -0.19092412 0.57742065 79 120 156
-0.42289779 -0.18979247 0.57399815 83 124 159
-0.42048153 -0.18915182 0.57206064 75 122 151
-0.41984707 -0.18931158 0.57254380 73 120 149
-0.41956618 -0.18963191 0.57351255 77 125 152
-0.41892934 -0.18979247 0.57399815 80 127 154
-0.41758364 -0.18963191 0.57351255 81 127 152
-0.41659239 -0.18963191 0.57351255 82 126 148
-0.41419941 -0.18899234 0.57157826 86 130 152
-0.41321149 -0.18899234 0.57157826 94 136 154
-0.41257143 -0.18915182 0.57206064 102 144 161
-0.41088918 -0.18883312 0.57109678 124 146 156
0.05970340 -0.18804103 0.56870121 95 115 134
0.06068635 -0.18804103 0.56870121 93 115 135
0.06172109 -0.18819892 0.56917870 91 114 133
0.06281034 -0.18851548 0.57013613 92 116 135
0.06384948 -0.18867417 0.57061601 93 117 136
0.06489036 -0.18883312 0.57109678 94 116 136
0.06587745 -0.18883312 0.57109678 99 119 138
0.06680827 -0.18867417 0.57061601 113 128 137
0.06773751 -0.18851548 0.57013613 134 137 140
0.06872295 -0.18851548 0.57013613 138 138 140
0.06970838 -0.18851548 0.57013613 139 138 139
0.07069381 -0.18851548 0.57013613 140 135 134
0.07173958 -0.18867417 0.57061601 136 130 128
1.74576986 -0.59771979 1.80771160 77 102 113
1.75357044 -0.59931797 1.81254506 78 103 114
1.76141298 -0.60092467 1.81740439 79 104 114
1.77406669 -0.60416418 1.82720172 79 104 114
1.77244735 -0.60254008 1.82228994 79 104 113
1.77559698 -0.60254008 1.82228994 79 105 112
1.77397788 -0.60092467 1.81740439 79 105 112
1.77236748 -0.59931797 1.81254506 79 105 112
1.75671196 -0.59297597 1.79336464 79 105 112
1.76447964 -0.59454882 1.79812157 79 105 112
1.76758754 -0.59454882 1.79812157 79 105 112
1.77069545 -0.59454882 1.79812157 79 105 113
1.73694503 -0.58219457 1.76075804 79 105 114
-0.42678088 -0.19008800 0.57791293 75 120 154
-0.42289779 -0.18880036 0.57399815 79 123 157
-0.42012697 -0.18800440 0.57157826 74 121 151
-0.42020196 -0.18848118 0.57302779 73 120 149
-0.41921154 -0.18848118 0.57302779 75 123 150
-0.41857493 -0.18864064 0.57351255 76 126 152
-0.41687828 -0.18832199 0.57254380 77 127 153
-0.41588867 -0.18832199 0.57254380 80 128 150
-0.41385049 -0.18784602 0.57109678 82 130 151
-0.41251585 -0.18768790 0.57061601 92 134 153
-0.41222358 -0.18800440 0.57157826 101 140 159
-0.41054332 -0.18768790 0.57061601 117 145 158
0.05970340 -0.18705808 0.56870121 94 114 134
0.06068635 -0.18705808 0.56870121 93 114 134
0.06166931 -0.18705808 0.56870121 92 115 135
0.06281034 -0.18753006 0.57013613 92 116 135
0.06384948 -0.18768790 0.57061601 93 117 136
0.06483574 -0.18768790 0.57061601 97 117 137
0.06582201 -0.18768790 0.57061601 98 118 138
0.06675208 -0.18753006 0.57013613 110 124 133
0.06773751 -0.18753006 0.57013613 134 137 142
0.06872295 -0.18753006 0.57013613 139 139 142
0.06964980 -0.18737246 0.56965703 139 134 132
0.07167925 -0.18753006 0.57013613 137 128 127
1.76619458 -0.60263038 1.83214009 77 102 113
1.75043762 -0.59618509 1.81254506 77 102 112
1.76299822 -0.59939039 1.82228994 78 103 113
1.77090847 -0.60100603 1.82720172 79 105 112
1.77886140 -0.60263038 1.83214009 79 105 112
1.78202808 -0.60263038 1.83214009 79 105 112
1.78038299 -0.60100603 1.82720172 79 105 112
1.77874672 -0.59939039 1.82228994 79 105 112
1.77711916 -0.59778345 1.81740439 79 105 113
1.76605618 -0.59301388 1.80290389 79 104 115
1.77863324 -0.59618509 1.81254506 79 104 116
1.78176606 -0.59618509 1.81254506 79 104 116
1.78489888 -0.59618509 1.81254506 79 104 117
-0.42678088 -0.18908913 0.57791293 74 120 152
-0.42218283 -0.18749075 0.57302779 74 120 152
-0.41871479 -0.18638785 0.56965703 73 120 150
-0.41984707 -0.18733239 0.57254380 74 121 150
-0.41885746 -0.18733239 0.57254380 75 122 151
-0.41822109 -0.18749075 0.57302779 76 123 151
-0.41652647 -0.18717431 0.57206064 78 125 152
-0.41553771 -0.18717431 0.57206064 83 125 153
-0.41350213 -0.18670164 0.57061601 85 126 154
-0.41251585 -0.18670164 0.57061601 90 129 154
-0.41222358 -0.18701649 0.57157826 99 136 156
0.05965336 -0.18591915 0.56822449 92 116 135
0.06063548 -0.18591915 0.56822449 92 116 135
0.06478121 -0.18654461 0.57013613 98 117 137
0.06582201 -0.18670164 0.57061601 100 118 138
0.06675208 -0.18654461 0.57013613 112 122 134
1.76619458 -0.59946364 1.83214009 77 103 114
1.75984859 -0.59624070 1.82228994 78 104 114
1.76775026 -0.59784782 1.82720172 78 105 115
1.77090847 -0.59784782 1.82720172 78 105 114
1.77886140 -0.59946364 1.83214009 78 105 114
1.78202808 -0.59946364 1.83214009 78 105 114
1.78519487 -0.59946364 1.83214009 79 105 113
1.77874672 -0.59624070 1.82228994 79 105 114
1.77711916 -0.59464222 1.81740439 79 104 116
1.77076566 -0.59147078 1.80771160 79 104 118
1.77863324 -0.59305227 1.81254506 79 104 118
1.78654289 -0.59464222 1.81740439 79 104 118
1.78489888 -0.59305227 1.81254506 79 104 117
-0.42641735 -0.18793005 0.57742065 71 120 150
-0.42147028 -0.18618554 0.57206064 73 122 151
-0.41766185 -0.18493703 0.56822449 73 121 150
-0.41878596 -0.18587184 0.57109678 73 120 149
-0.41850400 -0.18618554 0.57206064 75 122 151
-0.41751525 -0.18618554 0.57206064 77 122 152
-0.41582465 -0.18587184 0.57109678 79 123 154
-0.41553771 -0.18618554 0.57206064 82 125 155
-0.41315433 -0.18555918 0.57013613 83 126 156
0.06053400 -0.18462750 0.56727350 94 116 136
0.06576665 -0.18555918 0.57013613 98 119 139
0.06669598 -0.18540326 0.56965703 110 117 136
1.77098107 -0.59791291 1.83710527 76 105 115
1.76459217 -0.59468967 1.82720172 77 105 116
1.77252805 -0.59629697 1.83214009 77 105 116
1.77569473 -0.59629697 1.83214009 78 105 116
1.78368223 -0.59791291 1.83710527 78 105 116
1.78202808 -0.59629697 1.83214009 78 105 116
1.78519487 -0.59629697 1.83214009 79 104 116
1.78354120 -0.59468967 1.82720172 79 105 116
1.77711916 -0.59150100 1.81740439 79 104 116
1.77076566 -0.58834630 1.80771160 79 104 116
1.77863324 -0.58991945 1.81254506 79 104 116
1.78176606 -0.58991945 1.81254506 79 104 116
1.78489888 -0.58991945 1.81254506 78 104 115
1.76444292 -0.58213687 1.78863287 78 104 115
-0.42641735 -0.18693201 0.57742065 72 118 152
-0.42111492 -0.18504062 0.57157826 73 120 152
-0.41731206 -0.18380083 0.56774861 74 121 153
-0.41808152 -0.18457375 0.57013613 72 117 149
-0.41815114 -0.18504062 0.57157826 75 120 151
-0.41716319 -0.18504062 0.57157826 78 120 151
-0.41547465 -0.18472911 0.57061601 82 122 153
-0.41588867 -0.18535320 0.57254380 85 125 155
-0.41350213 -0.18472911 0.57061601 86 126 155
0.06048339 -0.18349347 0.56679922 91 115 134
1.76936126 -0.59313023 1.83214009 75 105 113
1.78216136 -0.59635377 1.84209740 76 105 114
1.78534520 -0.59635377 1.84209740 78 105 116
1.78368223 -0.59473765 1.83710527 78 105 116
1.78685749 -0.59473765 1.83710527 78 105 115
1.79003274 -0.59473765 1.83710527 78 105 115
1.78836155 -0.59313023 1.83214009 78 105 115
1.78189635 -0.58994138 1.82228994 78 105 115
1.77076566 -0.58522183 1.80771160 78 105 114
1.78340161 -0.58835977 1.81740439 77 104 113
1.78654289 -0.58835977 1.81740439 77 104 113
1.78489888 -0.58678657 1.81254506 77 104 113
1.76911068 -0.58057719 1.79336464 77 104 113
-0.42641735 -0.18593399 0.57742065 74 118 153
-0.42076012 -0.18389764 0.57109678 75 117 152
-0.41696283 -0.18266653 0.56727350 76 119 154
-0.41737944 -0.18328002 0.56917870 76 118 152
-0.41779885 -0.18389764 0.57109678 77 118 152
-0.41716319 -0.18405271 0.57157826 79 119 152
-0.41477636 -0.18343404 0.56965703 81 120 152
-0.41553771 -0.18420802 0.57206064 82 121 152
-0.41315433 -0.18358831 0.57013613 83 118 149
0.06048339 -0.18251380 0.56679922 94 115 134
1.78701735 -0.59478611 1.84711671 76 106 112
1.79020989 -0.59478611 1.84711671 78 106 112
1.78852916 -0.59316987 1.84209740 78 106 112
1.79171300 -0.59316987 1.84209740 78 106 113
1.79489696 -0.59316987 1.84209740 78 105 113
1.79320800 -0.59156233 1.83710527 78 106 113
1.78189635 -0.58679169 1.82228994 78 106 113
1.77550030 -0.58365375 1.81254506 78 106 112
1.78819573 -0.58679169 1.82228994 77 105 111
1.79134536 -0.58679169 1.82228994 77 104 112
1.79449511 -0.58679169 1.82228994 77 103 113
1.77380335 -0.57900929 1.79812157 77 104 113
-0.42641735 -0.18493597 0.57742065 78 117 151
-0.42040595 -0.18275659 0.57061601 77 117 147
-0.41696283 -0.18168604 0.56727350 77 117 147
-0.41709608 -0.18260288 0.57013613 80 120 152
-0.41681176 -0.18291055 0.57109678 81 120 153
-0.41442811 -0.18229625 0.56917870 83 121 153
-0.41518736 -0.18306477 0.57157826 85 123 155
-0.41280717 -0.18244943 0.56965703 89 123 155
1.78063214 -0.59159350 1.84711671 76 106 109
1.77415633 -0.58838707 1.83710527 78 107 111
1.78701735 -0.59159350 1.84711671 79 107 112
1.78534520 -0.58998597 1.84209740 78 106 112
1.78852916 -0.58998597 1.84209740 78 106 112
1.79171300 -0.58998597 1.84209740 78 106 112
1.79003274 -0.58838707 1.83710527 78 105 113
1.78836155 -0.58679682 1.83214009 79 105 113
1.78669930 -0.58521515 1.82720172 78 105 113
1.78026044 -0.58207726 1.81740439 78 105 113
1.79301560 -0.58521515 1.82720172 77 104 113
1.79134536 -0.58364201 1.82228994 78 103 113
1.79449511 -0.58364201 1.82228994 78 103 113
-0.42605445 -0.18378140 0.57692921 79 119 150
-0.42040595 -0.18177032 0.57061601 79 119 147
-0.41661420 -0.18055446 0.56679922 79 119 146
-0.41563454 -0.18055446 0.56679922 81 121 149
-0.41646090 -0.18177032 0.57061601 83 123 153
-0.41408044 -0.18116036 0.56870121 84 122 152
-0.41448838 -0.18177032 0.57061601 85 123 153
-0.41211453 -0.18116036 0.56870121 86 121 152
-0.41356018 -0.18223050 0.57206064 87 118 150
-0.41257143 -0.18223050 0.57206064 91 121 150
1.78701735 -0.58840096 1.84711671 79 105 114
1.79020989 -0.58840096 1.84711671 78 105 114
1.79340255 -0.58840096 1.84711671 78 105 114
1.79171300 -0.58680201 1.84209740 79 105 114
1.79489696 -0.58680201 1.84209740 79 104 114
1.79320800 -0.58521175 1.83710527 78 105 114
1.78669930 -0.58205700 1.82720172 78 104 114
1.78504610 -0.58049232 1.82228994 78 103 113
1.79786170 -0.58363014 1.83214009 78 103 113
1.79617381 -0.58205700 1.82720172 77 102 112
1.79449511 -0.58049232 1.82228994 77 102 112
1.78326356 -0.57584840 1.80771160 78 103 113
-0.42569214 -0.18262880 0.57643867 79 119 150
-0.42005238 -0.18063201 0.57013613 79 119 149
-0.41661420 -0.17957480 0.56679922 77 117 146
-0.41459459 -0.17912549 0.56538099 75 115 144
-0.41506338 -0.18017741 0.56870121 81 123 152
-0.41142422 -0.17987560 0.56774861 86 123 150
-0.41118348 -0.18063201 0.57013613 86 120 148
1.79830253 -0.58680725 1.85216355 79 105 112
1.79659510 -0.58520836 1.84711671 79 105 114
1.79489696 -0.58361810 1.84209740 78 105 115
1.79320800 -0.58203650 1.83710527 79 104 115
1.78189635 -0.57734263 1.82228994 78 103 115
1.78504610 -0.57734263 1.82228994 78 103 114
1.80763268 -0.58361810 1.84209740 77 102 114
1.79617381 -0.57889885 1.82720172 77 102 113
1.79933202 -0.57889885 1.82720172 76 101 112
1.78326356 -0.57272393 1.80771160 76 101 113
-0.42569214 -0.18163247 0.57643867 76 120 150
-0.42005238 -0.17964658 0.57013613 76 121 150
-0.41626617 -0.17844594 0.56632566 74 124 152
-0.41390419 -0.17785160 0.56443948 72 122 150
-0.41327271 -0.17799982 0.56490988 71 120 147
-0.41367522 -0.17859514 0.56679922 72 120 147
-0.41235077 -0.17844594 0.56632566 77 121 147
-0.41137192 -0.17844594 0.56632566 82 122 147
-0.41073620 -0.17859514 0.56679922 86 125 150
-0.40975654 -0.17859514 0.56679922 91 126 145
-0.41014862 -0.17919445 0.56870121 90 125 145
1.80322933 -0.58520490 1.85723794 79 104 116
1.80150378 -0.58360595 1.85216355 79 104 116
1.79978764 -0.58201575 1.84711671 80 103 117
1.80298030 -0.58201575 1.84711671 80 103 117
1.78669930 -0.57574064 1.82720172 79 104 116
1.78985751 -0.57574064 1.82720172 78 103 115
1.81255805 -0.58201575 1.84711671 78 103 115
1.80590916 -0.57886118 1.83710527 77 101 113
1.79933202 -0.57574064 1.82720172 76 100 112
1.78326356 -0.56959939 1.80771160 76 100 113
-0.42569214 -0.18063614 0.57643867 74 120 149
-0.42005238 -0.17866114 0.57013613 73 120 149
-0.41626617 -0.17746708 0.56632566 72 122 150
-0.41355982 -0.17672887 0.56396991 72 122 150
-0.41258505 -0.17672887 0.56396991 71 122 149
-0.41298461 -0.17731895 0.56585294 71 123 148
-0.41200659 -0.17731895 0.56585294 73 122 147
-0.41068572 -0.17717107 0.56538099 78 121 147
-0.41039309 -0.17746708 0.56632566 82 125 150
-0.40907249 -0.17731895 0.56585294 90 127 146
-0.40980482 -0.17806211 0.56822449 93 128 145
-0.40848029 -0.17791298 0.56774861 100 130 145
-0.40647769 -0.17746708 0.56632566 109 134 146
1.81316447 -0.58520138 1.86747062 79 104 116
1.81140220 -0.58359367 1.86234021 79 101 116
1.80964959 -0.58199477 1.85723794 80 101 117
1.81285965 -0.58199477 1.85723794 81 102 118
1.79152822 -0.57413000 1.83214009 80 102 117
1.79955864 -0.57568592 1.83710527 80 102 117
1.81751037 -0.58040464 1.85216355 80 102 116
1.81081653 -0.57725030 1.84209740 79 101 113
1.79933202 -0.57258248 1.82720172 78 100 112
1.78803170 -0.56798959 1.81254506 78 101 112
-0.42569214 -0.17963982 0.57643867 76 119 149
-0.42005238 -0.17767571 0.57013613 76 119 149
-0.41626617 -0.17648824 0.56632566 73 120 149
-0.41355982 -0.17575410 0.56396991 72 121 149
-0.41292858 -0.17590043 0.56443948 72 121 149
-0.41298461 -0.17634092 0.56585294 72 122 150
-0.41166294 -0.17619385 0.56538099 73 123 150
-0.41102853 -0.17634092 0.56585294 75 123 150
-0.41039309 -0.17648824 0.56632566 76 124 150
-0.40975654 -0.17663580 0.56679922 83 125 150
-0.40980482 -0.17707998 0.56822449 90 128 151
-0.40848029 -0.17693168 0.56774861 97 132 152
-0.40647769 -0.17648824 0.56632566 111 136 148
1.80818331 -0.58037478 1.86234021 81 102 116
1.80150378 -0.57720333 1.85216355 79 99 114
1.80470514 -0.57720333 1.85216355 80 99 115
1.80298030 -0.57563055 1.84711671 82 102 116
1.78669930 -0.56942433 1.82720172 82 102 114
1.79469490 -0.57096332 1.83214009 82 102 113
1.80763268 -0.57406634 1.84209740 81 102 113
1.79617381 -0.56942433 1.82720172 80 102 113
1.78968406 -0.56637108 1.81740439 79 101 112
1.77852094 -0.56185216 1.80290389 79 102 112
-0.42533046 -0.17849171 0.57594889 77 119 150
-0.42005238 -0.17669028 0.57013613 77 119 149
-0.41626617 -0.17550939 0.56632566 78 119 150
-0.41355982 -0.17477931 0.56396991 79 119 150
-0.41361737 -0.17521663 0.56538099 79 119 150
-0.41332963 -0.17550939 0.56632566 79 119 150
-0.41200659 -0.17536288 0.56585294 79 119 150
-0.41137192 -0.17550939 0.56632566 78 121 149
-0.41073620 -0.17565614 0.56679922 77 122 150
-0.41009945 -0.17580312 0.56727350 78 122 149
-0.40980482 -0.17609785 0.56822449 84 124 151
-0.40848029 -0.17595036 0.56774861 94 133 160
-0.40681756 -0.17565614 0.56679922 111 138 154
1.79659510 -0.57243800 1.84711671 80 100 112
1.79489696 -0.57088244 1.84209740 81 102 113
1.79320800 -0.56933534 1.83710527 83 103 113
1.78189635 -0.56474394 1.82228994 82 103 112
1.78504610 -0.56474394 1.82228994 82 103 111
1.79786170 -0.56779659 1.83214009 81 102 111
1.78654289 -0.56322986 1.81740439 79 101 111
1.78489888 -0.56172389 1.81254506 79 101 111
-0.42533046 -0.17749622 0.57594889 78 118 149
-0.42005238 -0.17570484 0.57013613 79 119 150
-0.41626617 -0.17453054 0.56632566 79 119 150
-0.41355982 -0.17380454 0.56396991 79 119 150
-0.41361737 -0.17423941 0.56538099 79 119 150
-0.41298461 -0.17438486 0.56585294 79 119 150
-0.41166294 -0.17423941 0.56538099 79 119 150
-0.41102853 -0.17438486 0.56585294 78 119 150
-0.41039309 -0.17453054 0.56632566 77 120 150
-0.41009945 -0.17482264 0.56727350 79 121 150
-0.40946159 -0.17496906 0.56774861 77 117 144
-0.40848029 -0.17496906 0.56774861 91 131 158
-0.40681756 -0.17467646 0.56679922 110 139 155
-0.40549883 -0.17453054 0.56632566 119 143 155
1.80150378 -0.57080072 1.85216355 82 103 111
1.79978764 -0.56924540 1.84711671 83 104 112
1.79808092 -0.56769854 1.84209740 82 104 112
1.78189635 -0.56159425 1.82228994 80 102 110
1.78985751 -0.56310797 1.82720172 78 101 109
1.80273390 -0.56616002 1.83710527 78 101 109
1.78654289 -0.56008863 1.81740439 78 101 110
1.78489888 -0.55859107 1.81254506 79 101 111
-0.42569214 -0.17665084 0.57643867 77 117 148
-0.42005238 -0.17471941 0.57013613 78 118 149
-0.41626617 -0.17355169 0.56632566 78 118 149
-0.41321605 -0.17268610 0.56350112 79 119 150
-0.41361737 -0.17326219 0.56538099 79 119 150
-0.41298461 -0.17340682 0.56585294 79 119 150
-0.41166294 -0.17326219 0.56538099 79 119 150
-0.41102853 -0.17340682 0.56585294 79 119 150
-0.41039309 -0.17355169 0.56632566 78 118 149
-0.41009945 -0.17384216 0.56727350 80 120 151
-0.40946159 -0.17398775 0.56774861 82 124 143
-0.40813845 -0.17384216 0.56727350 90 132 149
-0.40681756 -0.17369680 0.56679922 106 139 150
-0.40549883 -0.17355169 0.56632566 120 143 147
-0.40485820 -0.17369680 0.56679922 125 145 148
1.80643952 -0.56915444 1.85723794 81 103 111
1.80470514 -0.56759942 1.85216355 80 104 111
1.80298030 -0.56605279 1.84711671 79 104 111
1.78669930 -0.55994982 1.82720172 77 103 110
1.79469490 -0.56146318 1.83214009 76 102 109
1.80763268 -0.56451464 1.84209740 77 101 110
1.79134536 -0.55844456 1.82228994 78 101 111
-0.42814475 -0.17625400 0.57840604 74 118 146
-0.42569214 -0.17565450 0.57643867 75 118 147
-0.42005238 -0.17373398 0.57013613 77 117 147
-0.41626617 -0.17257285 0.56632566 78 118 148
-0.41321605 -0.17171213 0.56350112 79 118 149
-0.41361737 -0.17228499 0.56538099 79 118 150
-0.41264015 -0.17228499 0.56538099 79 117 149
-0.41131988 -0.17214142 0.56490988 79 117 149
-0.41034350 -0.17214142 0.56490988 80 118 150
-0.40970853 -0.17228499 0.56538099 80 118 150
-0.40941423 -0.17257285 0.56632566 81 119 151
-0.40911895 -0.17286167 0.56727350 87 127 147
-0.40779722 -0.17271714 0.56679922 94 136 147
-0.40647769 -0.17257285 0.56632566 106 140 149
-0.40516037 -0.17242879 0.56585294 128 142 143
-0.40451998 -0.17257285 0.56632566 128 143 145
1.81140220 -0.56749916 1.86234021 78 104 112
1.81255805 -0.56286019 1.84711671 76 101 112
1.79134536 -0.55529487 1.82228994 77 102 113
-0.42741537 -0.17495573 0.57742065 74 117 145
-0.42533046 -0.17450978 0.57594889 75 118 146
-0.42005238 -0.17274854 0.57013613 74 118 146
-0.41626617 -0.17159399 0.56632566 75 118 147
-0.41321605 -0.17073816 0.56350112 77 118 148
-0.41361737 -0.17130777 0.56538099 78 117 149
-0.41229630 -0.17116500 0.56490988 77 116 147
-0.41097742 -0.17102249 0.56443948 75 113 145
-0.41034350 -0.17116500 0.56490988 81 119 151
-0.41005051 -0.17145076 0.56585294 83 121 151
-0.40975654 -0.17173746 0.56679922 85 123 153
-0.40911895 -0.17188118 0.56727350 99 127 149
-0.40813845 -0.17188118 0.56727350 117 132 144
-0.40647769 -0.17159399 0.56632566 118 136 147
-0.40549883 -0.17159399 0.56632566 133 139 145
-0.40485820 -0.17173746 0.56679922 135 140 145
-0.42741537 -0.17395769 0.57742065 73 118 146
-0.42496940 -0.17336701 0.57545996 73 118 146
-0.41969940 -0.17161876 0.56965703 74 118 146
-0.41591871 -0.17047273 0.56585294 75 118 146
-0.41321605 -0.16976421 0.56350112 75 118 147
-0.41361737 -0.17033055 0.56538099 75 117 148
-0.41195300 -0.17004691 0.56443948 75 116 147
-0.41097742 -0.17004691 0.56443948 79 116 147
-0.41034350 -0.17018861 0.56490988 83 120 151
-0.41005051 -0.17047273 0.56585294 82 118 149
-0.40941423 -0.17061515 0.56632566 83 118 149
-0.40877688 -0.17075780 0.56679922 97 127 155
-0.40779722 -0.17075780 0.56679922 123 132 144
-0.40647769 -0.17061515 0.56632566 129 138 150
-0.40516037 -0.17047273 0.56585294 134 139 144
-0.40485820 -0.17075780 0.56679922 136 140 142
-0.42569214 -0.17266552 0.57643867 73 118 146
-0.42005238 -0.17077768 0.57013613 73 118 147
-0.41626617 -0.16963629 0.56632566 73 119 148
-0.41321605 -0.16879024 0.56350112 73 119 148
-0.41361737 -0.16935334 0.56538099 73 117 149
-0.41229630 -0.16921221 0.56490988 73 117 149
-0.41097742 -0.16907132 0.56443948 79 118 150
-0.41034350 -0.16921221 0.56490988 84 119 152
-0.41005051 -0.16949470 0.56585294 85 119 152
-0.40975654 -0.16977814 0.56679922 85 117 149
-0.40911895 -0.16992021 0.56727350 93 125 157
-0.40813845 -0.16992021 0.56727350 118 132 146
-0.40681756 -0.16977814 0.56679922 131 140 150
-0.40516037 -0.16949470 0.56585294 136 141 147
-0.42924351 -0.17269716 0.57989037 71 117 144
-0.42569214 -0.17166919 0.57643867 71 118 145
-0.42040595 -0.16993517 0.57061601 72 119 147
-0.41661420 -0.16879848 0.56679922 72 118 150
-0.41390419 -0.16809572 0.56443948 72 118 150
-0.41430846 -0.16865745 0.56632566 75 118 152
-0.41298461 -0.16851667 0.56585294 75 118 152
-0.41200659 -0.16851667 0.56585294 78 116 151
-0.41137192 -0.16865745 0.56632566 83 116 151
-0.41073620 -0.16879848 0.56679922 86 119 154
-0.41009945 -0.16893972 0.56727350 91 120 152
-0.40946159 -0.16908121 0.56774861 96 124 156
-0.40848029 -0.16908121 0.56774861 115 130 149
-0.40681756 -0.16879848 0.56679922 131 139 149
-0.40549883 -0.16865745 0.56632566 137 143 150
-0.42887661 -0.17154811 0.57939476 73 119 146
-0.42569214 -0.17067286 0.57643867 72 119 146
-0.42076012 -0.16909122 0.57109678 73 120 147
-0.41696283 -0.16795924 0.56727350 73 117 150
-0.41494066 -0.16753864 0.56585294 73 117 150
-0.41465488 -0.16781880 0.56679922 75 117 151
-0.41367522 -0.16781880 0.56679922 77 117 152
-0.41235077 -0.16767861 0.56632566 78 116 152
-0.41171589 -0.16781880 0.56679922 82 114 151
-0.41107991 -0.16795924 0.56727350 85 117 154
-0.41044292 -0.16809991 0.56774861 92 119 153
-0.40980482 -0.16824082 0.56822449 98 125 156
-0.40848029 -0.16809991 0.56774861 113 129 151
-0.40715799 -0.16795924 0.56727350 134 134 143
-0.40583789 -0.16781880 0.56679922 140 141 149
-0.40519699 -0.16795924 0.56727350 137 138 139
-0.42887661 -0.17054668 0.57939476 74 119 146
-0.42569214 -0.16967654 0.57643867 74 119 146
-0.42076012 -0.16810414 0.57109678 74 120 147
-0.41696283 -0.16697875 0.56727350 76 120 149
-0.41528732 -0.16669975 0.56632566 77 119 149
-0.41465488 -0.16683914 0.56679922 76 118 149
-0.41367522 -0.16683914 0.56679922 77 116 150
-0.41269556 -0.16683914 0.56679922 77 116 150
-0.41240552 -0.16711859 0.56774861 81 115 150
-0.41142422 -0.16711859 0.56774861 84 117 152
-0.41113156 -0.16739900 0.56870121 90 119 152
-0.40980482 -0.16725868 0.56822449 99 122 154
-0.40882269 -0.16725868 0.56822449 110 129 155
-0.40715799 -0.16697875 0.56727350 135 136 142
-0.40617749 -0.16697875 0.56727350 137 138 144
-0.42569214 -0.16868021 0.57643867 76 119 146
-0.42111492 -0.16725795 0.57157826 76 118 145
-0.41731206 -0.16613729 0.56774861 77 118 147
-0.41528732 -0.16572091 0.56632566 78 118 149
-0.41465488 -0.16585948 0.56679922 78 118 149
-0.41367522 -0.16585948 0.56679922 78 118 149
-0.41269556 -0.16585948 0.56679922 78 118 149
-0.41240552 -0.16613729 0.56774861 81 117 150
-0.41142422 -0.16613729 0.56774861 83 118 151
-0.41113156 -0.16641605 0.56870121 88 119 151
-0.41014862 -0.16641605 0.56870121 97 121 150
-0.40882269 -0.16627656 0.56822449 105 129 157
-0.40715799 -0.16599827 0.56727350 127 134 141
-0.40617749 -0.16599827 0.56727350 132 136 139
-0.42997912 -0.16897707 0.58088416 72 115 143
-0.42569214 -0.16768388 0.57643867 73 117 145
-0.42147028 -0.16641033 0.57206064 73 118 146
-0.41766185 -0.16529442 0.56822449 74 118 147
-0.41563454 -0.16487980 0.56679922 76 118 149
-0.41465488 -0.16487980 0.56679922 75 118 148
-0.41332963 -0.16474205 0.56632566 77 118 149
-0.41269556 -0.16487980 0.56679922 78 118 149
-0.41240552 -0.16515599 0.56774861 80 118 147
-0.41142422 -0.16515599 0.56774861 83 119 146
-0.41078696 -0.16529442 0.56822449 87 121 148
-0.41014862 -0.16543309 0.56870121 95 120 143
-0.40848029 -0.16515599 0.56774861 104 129 153
-0.40681756 -0.16487980 0.56679922 122 133 142
-0.40583789 -0.16487980 0.56679922 131 133 135
-0.43071729 -0.16826142 0.58188140 73 113 144
-0.42605445 -0.16682942 0.57692921 75 115 146
-0.42254001 -0.16584143 0.57351255 75 115 146
-0.41801226 -0.16445014 0.56870121 77 117 148
-0.41633075 -0.16417468 0.56774861 77 117 148
-0.41465488 -0.16390014 0.56679922 77 117 148
-0.41367522 -0.16390014 0.56679922 77 117 147
-0.41304091 -0.16403729 0.56727350 77 117 147
-0.41275120 -0.16431229 0.56822449 79 118 145
-0.41176909 -0.16431229 0.56822449 84 119 141
-0.41113156 -0.16445014 0.56870121 87 123 145
-0.41014862 -0.16445014 0.56870121 98 125 147
-0.40848029 -0.16417468 0.56774861 106 131 152
-0.40715799 -0.16403729 0.56727350 120 134 146
-0.40583789 -0.16390014 0.56679922 134 135 136
-0.43108732 -0.16739939 0.58238131 75 115 149
-0.42605445 -0.16583224 0.57692921 80 119 153
-0.42289779 -0.16498974 0.57399815 78 116 149
-0.41871479 -0.16374192 0.56965703 78 116 149
-0.41667974 -0.16333017 0.56822449 78 116 148
-0.41402137 -0.16305681 0.56727350 78 116 148
-0.41373333 -0.16333017 0.56822449 78 116 148
-0.41309747 -0.16346718 0.56870121 78 116 147
-0.41211453 -0.16346718 0.56870121 81 115 141
-0.41147676 -0.16360444 0.56917870 86 120 144
-0.41014862 -0.16346718 0.56870121 93 123 145
-0.40882269 -0.16333017 0.56822449 100 127 147
-0.40715799 -0.16305681 0.56727350 111 132 147
-0.40617749 -0.16305681 0.56727350 134 135 135
-0.40553638 -0.16319337 0.56774861 134 135 135
-0.43145800 -0.16653585 0.58288205 67 104 141
-0.42641735 -0.16497546 0.57742065 71 108 145
-0.42361516 -0.16427583 0.57497185 75 112 147
-0.41871479 -0.16275731 0.56965703 77 114 149
-0.41667974 -0.16234803 0.56822449 78 116 149
-0.41500187 -0.16207632 0.56727350 78 116 148
-0.41367522 -0.16194080 0.56679922 78 116 148
-0.41373333 -0.16234803 0.56822449 79 116 147
-0.41344434 -0.16262066 0.56917870 79 116 147
-0.41246054 -0.16262066 0.56917870 80 115 142
-0.41147676 -0.16262066 0.56917870 83 117 142
-0.41049299 -0.16262066 0.56917870 87 121 146
-0.40882269 -0.16234803 0.56822449 94 127 151
-0.40749899 -0.16221206 0.56774861 104 135 158
-0.40617749 -0.16207632 0.56727350 130 136 139
-0.40553638 -0.16221206 0.56774861 133 136 136
-0.43145800 -0.16552839 0.58288205 74 112 149
-0.42678088 -0.16411723 0.57791293 75 114 150
-0.42397478 -0.16342065 0.57545996 77 115 149
-0.41906694 -0.16190876 0.57013613 78 115 148
-0.41633075 -0.16123076 0.56774861 78 116 148
-0.41500187 -0.16109583 0.56727350 78 116 148
-0.41367522 -0.16096114 0.56679922 78 116 148
-0.41338682 -0.16123076 0.56774861 79 115 147
-0.41309747 -0.16150127 0.56870121 80 115 148
-0.41211453 -0.16150127 0.56870121 82 117 147
-0.41078696 -0.16136590 0.56822449 84 118 145
-0.40980482 -0.16136590 0.56822449 87 120 147
-0.40848029 -0.16123076 0.56774861 95 124 150
-0.40715799 -0.16109583 0.56727350 105 135 161
-0.40583789 -0.16096114 0.56679922 126 137 145
-0.40519699 -0.16109583 0.56727350 134 138 139
-0.43145800 -0.16452093 0.58288205 75 113 145
-0.42750978 -0.16339695 0.57889998 77 115 147
-0.42469582 -0.16270225 0.57643867 78 116 148
-0.41941971 -0.16105878 0.57061601 78 116 148
-0.41465488 -0.15998147 0.56679922 78 116 147
-0.41332963 -0.15984783 0.56632566 77 115 146
-0.41309747 -0.16051832 0.56870121 78 115 145
-0.41211453 -0.16051832 0.56870121 81 116 146
-0.40980482 -0.16038378 0.56822449 86 119 146
-0.40848029 -0.16024944 0.56774861 104 124 151
-0.40681756 -0.15998147 0.56679922 113 132 159
-0.40583789 -0.15998147 0.56679922 125 137 151
-0.40519699 -0.16011535 0.56727350 135 139 140
-0.43108732 -0.16337299 0.58238131 75 114 146
-0.42750978 -0.16239637 0.57889998 76 114 146
-0.42469582 -0.16170591 0.57643867 78 116 148
-0.42012697 -0.16034245 0.57157826 77 117 148
-0.41500187 -0.15913486 0.56727350 77 117 148
-0.41332963 -0.15886897 0.56632566 76 116 146
-0.41379175 -0.15980349 0.56965703 77 116 145
-0.41280717 -0.15980349 0.56965703 79 117 146
-0.40980482 -0.15940164 0.56822449 90 119 147
-0.40848029 -0.15926814 0.56774861 101 125 148
-0.40715799 -0.15913486 0.56727350 114 134 153
-0.40617749 -0.15913486 0.56727350 125 138 153
-0.40553638 -0.15926814 0.56774861 136 137 139
0.75721568 -0.27205458 0.96980232 79 101 118
0.75672674 -0.27127841 0.96703541 80 103 120
0.75516635 -0.27012238 0.96291453 81 105 124
0.75575715 -0.26973924 0.96154869 80 104 123
0.75634629 -0.26935717 0.96018672 79 102 121
0.75693375 -0.26897618 0.95882863 79 103 122
0.76074302 -0.26973924 0.96154869 80 104 123
-0.43071729 -0.16222702 0.58188140 77 115 146
-0.42678088 -0.16112061 0.57791293 76 114 146
-0.42469582 -0.16070959 0.57643867 77 115 147
-0.41977304 -0.15922028 0.57109678 77 117 148
-0.41500187 -0.15815437 0.56727350 75 117 147
-0.41332963 -0.15789013 0.56632566 75 117 147
-0.41448838 -0.15908626 0.57061601 75 117 147
-0.41315433 -0.15895246 0.57013613 78 119 149
-0.41182256 -0.15881889 0.56965703 85 120 143
-0.41014862 -0.15855241 0.56870121 90 122 145
-0.40882269 -0.15841950 0.56822449 99 128 148
-0.40715799 -0.15815437 0.56727350 110 137 152
-0.40617749 -0.15815437 0.56727350 120 143 158
-0.40553638 -0.15828682 0.56774861 135 137 140
0.75770742 -0.27115420 0.97258514 79 103 120
0.75830054 -0.27076572 0.97119176 80 103 120
0.75780779 -0.26999211 0.96841693 81 103 121
0.75731784 -0.26922292 0.96565789 80 102 121
0.75790727 -0.26883993 0.96428424 81 102 122
0.75849503 -0.26845807 0.96291453 80 102 122
0.75908107 -0.26807728 0.96154869 80 103 122
-0.43034789 -0.16108301 0.58138239 78 112 144
-0.42641735 -0.15998535 0.57742065 79 114 146
-0.42397478 -0.15944210 0.57545996 79 114 146
-0.41906694 -0.15796703 0.57013613 77 115 147
-0.41667974 -0.15743738 0.56822449 77 117 148
-0.41500187 -0.15717389 0.56727350 75 116 147
-0.41298461 -0.15678030 0.56585294 72 115 145
-0.41379175 -0.15783428 0.56965703 74 117 147
-0.41280717 -0.15783428 0.56965703 76 119 149
-0.41182256 -0.15783428 0.56965703 81 121 142
-0.40980482 -0.15743738 0.56822449 88 126 140
-0.40882269 -0.15743738 0.56822449 100 135 146
-0.40715799 -0.15717389 0.56727350 120 146 150
-0.40617749 -0.15717389 0.56727350 121 147 152
-0.40553638 -0.15730552 0.56774861 133 140 142
0.75879610 -0.26986033 0.97398251 82 102 120
0.75938845 -0.26947317 0.97258514 82 102 120
0.75889188 -0.26870215 0.96980232 82 102 120
0.75839818 -0.26793551 0.96703541 82 101 121
0.76006961 -0.26793551 0.96703541 82 101 121
0.76065594 -0.26755384 0.96565789 82 102 120
0.76124066 -0.26717326 0.96428424 83 103 120
0.76399410 -0.26755384 0.96565789 84 105 120
-0.42605445 -0.15885201 0.57692921 79 114 143
-0.42361516 -0.15831308 0.57497185 80 115 144
-0.41871479 -0.15684968 0.56965703 79 115 146
-0.41633075 -0.15632422 0.56774861 77 114 146
-0.41465488 -0.15606281 0.56679922 75 113 145
-0.41264015 -0.15567233 0.56538099 72 115 145
-0.41304091 -0.15619341 0.56727350 71 114 144
-0.41344434 -0.15671799 0.56917870 72 116 145
-0.41211453 -0.15658651 0.56870121 79 123 152
-0.41113156 -0.15658651 0.56870121 89 128 151
-0.40946159 -0.15632422 0.56774861 98 129 143
-0.40848029 -0.15632422 0.56774861 106 138 151
-0.40681756 -0.15606281 0.56679922 127 145 147
-0.40583789 -0.15606281 0.56679922 130 146 147
-0.40485820 -0.15606281 0.56679922 134 143 142
0.75879610 -0.26817688 0.97398251 84 101 120
0.75938845 -0.26779214 0.97258514 84 101 120
0.75997913 -0.26740846 0.97119176 84 101 120
0.75948161 -0.26664445 0.96841693 83 100 119
0.76224434 -0.26702592 0.96980232 84 101 119
0.76282924 -0.26664445 0.96841693 84 102 117
0.76341254 -0.26626408 0.96703541 84 103 116
-0.42605445 -0.15785484 0.57692921 77 114 143
-0.42325616 -0.15718596 0.57448459 79 114 144
-0.41871479 -0.15586507 0.56965703 80 115 145
-0.41633075 -0.15534291 0.56774861 80 115 146
-0.41430846 -0.15495358 0.56632566 79 114 145
-0.41195300 -0.15443750 0.56443948 75 114 142
-0.41235077 -0.15495358 0.56632566 76 116 143
-0.41309747 -0.15560356 0.56870121 78 118 144
-0.41176909 -0.15547313 0.56822449 79 121 146
-0.41078696 -0.15547313 0.56822449 87 124 147
-0.40946159 -0.15534291 0.56774861 107 124 139
-0.40813845 -0.15521291 0.56727350 117 136 151
-0.40681756 -0.15508313 0.56679922 131 139 144
-0.40549883 -0.15495358 0.56632566 136 140 141
-0.40485820 -0.15508313 0.56679922 137 140 140
0.75879610 -0.26649344 0.97398251 84 101 118
0.75938845 -0.26611111 0.97258514 84 102 118
0.75997913 -0.26572984 0.97119176 84 102 118
0.76056814 -0.26534969 0.96980232 84 102 118
0.76224434 -0.26534969 0.96980232 84 102 118
0.76392061 -0.26534969 0.96980232 84 102 116
0.76450312 -0.26497063 0.96841693 83 101 115
-0.42569214 -0.15672427 0.57643867 75 114 144
-0.42289779 -0.15606076 0.57399815 77 114 144
-0.41836321 -0.15475042 0.56917870 79 114 145
-0.41633075 -0.15436161 0.56774861 81 114 146
-0.41396263 -0.15384620 0.56585294 81 114 146
-0.41126812 -0.15320678 0.56350112 79 116 145
-0.41097742 -0.15346190 0.56443948 78 117 145
-0.41275120 -0.15449099 0.56822449 80 118 145
-0.41176909 -0.15449099 0.56822449 84 119 146
