ply
format ascii 1.0
element vertex 1078
property float x
property float y
property float z
property uchar red
property uchar green
property uchar blue
end_header
0.16137771 0.06970167 0.59568703 119 103 103
0.16341248 0.07013307 0.59937388 115 94 95
0.16430318 0.07007112 0.59884441 110 85 86
0.16637330 0.07007112 0.59884441 125 98 100
0.16785319 0.07025731 0.60043561 123 97 98
0.16889100 0.07025731 0.60043561 118 102 106
0.16947846 0.07007112 0.59884441 157 143 148
0.17066427 0.07013307 0.59937388 162 151 157
0.17154856 0.07007112 0.59884441 173 173 175
0.17243129 0.07000927 0.59831583 173 173 175
0.17346543 0.07000927 0.59831583 174 174 176
0.17403875 0.06982439 0.59673578 174 174 176
-0.76719952 0.16665049 1.40350282 140 137 129
-0.76795357 0.16734342 1.40933859 140 137 132
-0.76871395 0.16804214 1.41522300 128 124 123
-0.76787096 0.16839369 1.41818380 122 117 117
-0.76541972 0.16839369 1.41818380 123 117 117
-0.76456803 0.16874672 1.42115688 121 112 113
-0.76051730 0.16839369 1.41818380 119 108 109
-0.76125121 0.16910122 1.42414248 126 114 117
-0.75403738 0.16804214 1.41522300 127 114 118
-0.74536693 0.16665049 1.40350282 121 108 112
-0.33605203 0.07899135 0.66525203 118 107 100
-0.33391911 0.07875948 0.66329926 115 105 98
0.16148333 0.07123202 0.59990430 108 100 96
0.16399248 0.07142164 0.60150117 107 83 87
0.16488582 0.07135832 0.60096794 110 82 87
0.16696326 0.07135832 0.60096794 111 85 86
0.16815107 0.07142164 0.60150117 112 88 89
0.16919070 0.07142164 0.60150117 120 107 109
0.16992879 0.07129511 0.60043561 162 151 153
0.17111817 0.07135832 0.60096794 162 156 158
0.17185219 0.07123202 0.59990430 172 172 173
0.17273621 0.07116904 0.59937388 173 173 174
0.17392597 0.07123202 0.59990430 173 173 174
0.17403875 0.07085580 0.59673578 174 174 176
-0.76879120 0.16942711 1.40641463 154 150 145
-0.76955348 0.17013305 1.41227472 146 143 138
-0.77032214 0.17084491 1.41818380 132 128 123
-0.76948076 0.17120308 1.42115688 126 121 118
-0.76541972 0.17084491 1.41818380 127 118 119
-0.76617426 0.17156275 1.42414248 128 119 120
-0.76371276 0.17156275 1.42414248 135 126 127
-0.76446325 0.17228663 1.43015158 137 128 128
-0.75878972 0.17156275 1.42414248 134 125 126
-0.74846613 0.16977935 1.40933859 127 117 119
-0.33998406 0.07998420 0.66394889 149 141 132
-0.33883649 0.07998420 0.66394889 149 141 131
-0.33768889 0.07998420 0.66394889 143 133 124
-0.33720186 0.08014119 0.66525203 138 128 122
-0.33572257 0.08006261 0.66459984 134 125 119
-0.33359268 0.07982782 0.66265088 125 116 107
0.16800199 0.07239705 0.60096794 117 103 101
0.16904072 0.07239705 0.60096794 133 120 121
0.16977842 0.07226891 0.59990430 161 149 151
0.17096660 0.07233292 0.60043561 161 155 157
0.17170024 0.07220501 0.59937388 169 167 167
0.17273621 0.07220501 0.59937388 172 171 171
0.17408001 0.07233292 0.60043561 173 172 172
0.17388567 0.07182398 0.59621096 173 172 177
-0.76719952 0.17150217 1.40350282 140 138 127
-0.76955348 0.17257406 1.41227472 140 136 126
-0.77032214 0.17329612 1.41818380 140 133 127
-0.76948076 0.17365943 1.42115688 138 130 124
-0.76702440 0.17365943 1.42115688 131 123 117
-0.76617426 0.17402425 1.42414248 126 118 112
-0.76371276 0.17402425 1.42414248 127 119 115
-0.76446325 0.17475854 1.43015158 132 123 120
-0.75878972 0.17402425 1.42414248 135 126 125
-0.74846613 0.17221527 1.40933859 132 124 123
-0.34031740 0.08121132 0.66459984 150 148 135
-0.33916867 0.08121132 0.66459984 145 142 129
-0.33735847 0.08105239 0.66329926 139 135 123
-0.33687127 0.08121132 0.66459984 138 131 121
-0.33539373 0.08113178 0.66394889 139 131 122
-0.33294177 0.08081517 0.66135788 134 126 116
-0.33050889 0.08050102 0.65878701 124 116 106
0.17066427 0.07324098 0.59937388 165 159 162
0.17139715 0.07311169 0.59831583 176 171 174
0.17258361 0.07317628 0.59884441 176 172 176
0.17361867 0.07317628 0.59884441 176 174 178
0.17327608 0.07259908 0.59412080 176 175 179
-0.77199447 0.17501506 1.41227472 134 132 119
-0.77277339 0.17574733 1.41818380 135 130 119
-0.77355880 0.17648578 1.42414248 133 125 117
-0.77272063 0.17685732 1.42714071 129 121 114
-0.76863575 0.17648578 1.42414248 122 114 108
-0.76617426 0.17648578 1.42414248 114 106 102
-0.76532054 0.17685732 1.42714071 113 105 102
-0.76446325 0.17723043 1.43015158 121 112 111
-0.76038718 0.17685732 1.42714071 129 120 119
-0.75002545 0.17501506 1.41227472 138 131 129
-0.34016916 0.08260298 0.66656029 148 141 128
-0.33868405 0.08252183 0.66590554 150 143 131
-0.33753309 0.08252183 0.66590554 147 140 128
-0.33605203 0.08244085 0.66525203 144 137 126
-0.33391911 0.08219885 0.66329926 152 144 133
-0.33115253 0.08179867 0.66006994 137 129 119
-0.32905045 0.08156042 0.65814739 130 117 107
0.17066427 0.07427695 0.59937388 162 157 161
0.17154856 0.07421133 0.59884441 172 168 173
0.17258361 0.07421133 0.59884441 178 174 179
0.17361867 0.07421133 0.59884441 178 174 179
0.17403875 0.07395002 0.59673578 177 174 179
-0.77199447 0.17745607 1.41227472 135 130 118
-0.77116007 0.17782654 1.41522300 144 138 128
-0.77193707 0.17857213 1.42115688 148 140 133
-0.77109730 0.17894728 1.42414248 141 133 126
-0.76702440 0.17857213 1.42115688 125 117 111
-0.76456803 0.17857213 1.42115688 112 103 99
-0.76371276 0.17894728 1.42414248 111 100 101
-0.76446325 0.17970234 1.43015158 117 107 108
-0.75878972 0.17894728 1.42414248 119 110 111
-0.74846613 0.17708713 1.40933859 129 120 119
-0.34165722 0.08383751 0.66721636 160 152 134
-0.34016916 0.08375508 0.66656029 160 153 136
-0.33801997 0.08350874 0.66459984 158 150 134
-0.33687127 0.08350874 0.66459984 149 142 126
-0.33539373 0.08342694 0.66394889 143 136 121
-0.33261728 0.08302038 0.66071332 150 141 125
-0.33050889 0.08277833 0.65878701 145 135 120
-0.32873130 0.08261776 0.65750909 134 123 110
0.16947846 0.07524639 0.59884441 156 151 152
0.17051351 0.07524639 0.59884441 160 159 161
0.17139715 0.07517997 0.59831583 169 168 171
0.17258361 0.07524639 0.59884441 176 174 179
0.17346543 0.07517997 0.59831583 176 175 179
0.17419209 0.07504750 0.59726155 176 175 179
-0.78013325 0.17952305 1.40933859 120 108 102
-0.77608383 0.17915060 1.40641463 124 114 108
-0.77365291 0.17915060 1.40641463 131 123 117
-0.77122205 0.17915060 1.40641463 136 129 121
-0.77522457 0.18064977 1.41818380 141 133 124
-0.77277339 0.18064977 1.41818380 145 138 130
-0.77193707 0.18102849 1.42115688 146 138 132
-0.77109730 0.18140881 1.42414248 141 133 128
-0.76702440 0.18102849 1.42115688 128 120 118
-0.76456803 0.18102849 1.42115688 111 102 101
-0.76371276 0.18140881 1.42414248 113 102 102
-0.76285386 0.18179071 1.42714071 126 115 115
-0.75878972 0.18140881 1.42414248 124 113 112
-0.74846613 0.17952305 1.40933859 132 121 118
-0.34165722 0.08499074 0.66721636 158 151 130
-0.33835170 0.08474052 0.66525203 157 149 128
-0.33687127 0.08465744 0.66459984 154 147 129
-0.33539373 0.08457453 0.66394889 147 139 124
-0.33229339 0.08408042 0.66006994 143 133 119
-0.32986775 0.08375421 0.65750909 141 129 116
0.16917954 0.07614691 0.59778821 152 148 152
0.17036301 0.07621411 0.59831583 159 158 162
0.17124601 0.07614691 0.59778821 169 168 173
0.17243129 0.07621411 0.59831583 174 174 178
0.17315976 0.07607982 0.59726155 173 173 178
0.17388567 0.07594599 0.59621096 174 173 179
-0.78256917 0.18195899 1.40933859 137 128 126
-0.78339058 0.18271872 1.41522300 135 127 123
-0.77931750 0.18233806 1.41227472 135 128 123
-0.77687651 0.18233806 1.41227472 137 132 125
-0.77443552 0.18233806 1.41227472 140 135 128
-0.77684981 0.18348485 1.42115688 142 136 129
-0.77439344 0.18348485 1.42115688 142 136 129
-0.77355880 0.18387032 1.42414248 142 134 128
-0.77272063 0.18425742 1.42714071 139 131 126
-0.77025396 0.18425742 1.42714071 133 126 121
-0.76617426 0.18387032 1.42414248 126 118 114
-0.76532054 0.18425742 1.42714071 126 117 115
-0.76446325 0.18464614 1.43015158 135 126 123
-0.76038718 0.18425742 1.42714071 132 121 117
-0.75159127 0.18271872 1.41522300 134 123 118
-0.34281045 0.08614397 0.66721636 153 145 128
-0.34165722 0.08614397 0.66721636 149 141 123
-0.34016916 0.08605926 0.66656029 147 137 123
-0.33835170 0.08589035 0.66525203 146 134 123
-0.33687127 0.08580615 0.66459984 142 130 119
-0.33539373 0.08572210 0.66394889 139 126 115
-0.33229339 0.08522130 0.66006994 138 123 114
-0.33018801 0.08497308 0.65814739 140 125 116
0.17036301 0.07724825 0.59831583 158 158 162
0.17124601 0.07718013 0.59778821 172 171 176
0.17258361 0.07731649 0.59884441 175 174 181
0.17331247 0.07718013 0.59778821 173 172 179
-0.78339058 0.18516482 1.41522300 139 130 129
-0.77687651 0.18477906 1.41227472 136 131 124
-0.77443552 0.18477906 1.41227472 138 133 126
-0.77684981 0.18594120 1.42115688 141 136 129
-0.77439344 0.18594120 1.42115688 141 136 129
-0.77355880 0.18633184 1.42414248 142 137 130
-0.77435088 0.18711804 1.43015158 138 134 127
-0.77187896 0.18711804 1.43015158 136 132 124
-0.76778728 0.18672411 1.42714071 135 132 122
-0.76855659 0.18751363 1.43317509 134 131 118
-0.76607949 0.18751363 1.43317509 139 134 122
-0.76360232 0.18751363 1.43317509 138 130 122
-0.75474262 0.18594120 1.42115688 134 125 118
-0.34281045 0.08729719 0.66721636 151 140 125
-0.34165722 0.08729719 0.66721636 145 132 118
-0.33983502 0.08712569 0.66590554 140 125 115
-0.33735847 0.08678469 0.66329926 139 123 116
-0.33588338 0.08669986 0.66265088 135 122 115
-0.33441114 0.08661519 0.66200376 132 122 115
-0.33100420 0.08602712 0.65750909 135 120 114
-0.32922909 0.08586055 0.65623605 140 123 118
-0.77282542 0.18683083 1.40933859 142 133 130
-0.77360618 0.18761092 1.41522300 143 135 129
-0.77116007 0.18761092 1.41522300 148 139 132
-0.77193707 0.18839756 1.42115688 151 140 134
-0.77272063 0.18919080 1.42714071 149 138 130
-0.77025396 0.18919080 1.42714071 147 136 126
-0.76617426 0.18879335 1.42414248 142 131 121
-0.76532054 0.18919080 1.42714071 137 126 118
-0.75474262 0.18839756 1.42115688 138 128 120
-0.34342682 0.08801727 0.66394889 139 131 114
-0.34281045 0.08845042 0.66721636 147 134 122
-0.33950153 0.08819003 0.66525203 148 135 129
-0.33375928 0.08758834 0.66071332 137 129 123
-0.33100420 0.08716356 0.65750909 125 114 108
-0.77605230 0.19005702 1.41522300 131 120 117
-0.77360618 0.19005702 1.41522300 140 127 121
-0.77277339 0.19045463 1.41818380 144 129 124
-0.77193707 0.19085391 1.42115688 143 127 119
-0.77272063 0.19165750 1.42714071 141 125 117
-0.77025396 0.19165750 1.42714071 141 125 117
-0.76456803 0.19085391 1.42115688 134 121 113
-0.76211166 0.19085391 1.42115688 125 117 109
-0.75474262 0.19085391 1.42115688 139 131 121
-0.34376350 0.08925227 0.66459984 143 136 120
-0.34396368 0.08960366 0.66721636 144 138 124
-0.34247336 0.08951555 0.66656029 146 138 128
-0.34098598 0.08942762 0.66590554 149 140 132
-0.33916867 0.08925227 0.66459984 152 142 135
-0.33702871 0.08899053 0.66265088 155 145 138
-0.33588338 0.08899053 0.66265088 154 146 139
-0.33441114 0.08890363 0.66200376 143 135 127
-0.33132556 0.08838575 0.65814739 134 127 113
-0.77038950 0.19170269 1.40933859 111 97 96
-0.76955348 0.19210207 1.41227472 114 102 97
-0.77032214 0.19290584 1.41818380 114 106 95
-0.77109730 0.19371638 1.42414248 116 109 98
-0.76863575 0.19371638 1.42414248 126 118 108
-0.76137567 0.19250312 1.41522300 134 127 117
-0.75474262 0.19331026 1.42115688 137 128 117
-0.34558985 0.09057858 0.66590554 139 134 119
-0.34309077 0.09022406 0.66329926 140 136 124
-0.34295103 0.09048969 0.66525203 142 137 128
-0.34213695 0.09057858 0.66590554 144 140 130
-0.34098598 0.09057858 0.66590554 146 143 133
-0.33883649 0.09031244 0.66394889 148 144 134
-0.33702871 0.09013587 0.66265088 145 141 131
-0.33555537 0.09004784 0.66200376 149 143 131
-0.33441114 0.09004784 0.66200376 146 139 126
-0.33164755 0.08961029 0.65878701 146 139 125
-0.32986775 0.08943646 0.65750909 138 131 118
-0.76319355 0.19293529 1.40060294 126 118 110
-0.76871395 0.19494922 1.41522300 131 124 112
-0.76702440 0.19576661 1.42115688 130 122 115
-0.34142041 0.09092569 0.66006994 136 134 122
-0.34127647 0.09119207 0.66200376 140 137 127
-0.34180120 0.09163953 0.66525203 143 140 130
-0.34065136 0.09163953 0.66525203 145 142 132
-0.33850494 0.09137052 0.66329926 148 145 134
-0.33669958 0.09119207 0.66200376 150 147 135
-0.33490124 0.09101430 0.66071332 154 149 136
-0.33408490 0.09110310 0.66135788 156 149 136
-0.33132556 0.09066085 0.65814739 155 147 139
-0.76161993 0.19495332 1.39771509 129 121 113
-0.76711249 0.19698408 1.41227472 130 122 114
-0.76948076 0.19822298 1.42115688 132 124 116
-0.76541972 0.19780828 1.41818380 133 125 119
-0.34142041 0.09206656 0.66006994 129 125 111
-0.34061119 0.09215629 0.66071332 137 133 123
-0.34113166 0.09260760 0.66394889 144 138 129
-0.33998406 0.09260760 0.66394889 146 137 129
-0.33817405 0.09242655 0.66265088 146 138 128
-0.33637109 0.09224620 0.66135788 144 136 126
-0.33457515 0.09206656 0.66006994 145 135 128
-0.33375928 0.09215629 0.66071332 144 134 130
-0.33100420 0.09170937 0.65750909 141 131 127
-0.34275541 0.09357189 0.66265088 122 110 92
-0.34194431 0.09366345 0.66329926 121 111 97
-0.34180120 0.09393919 0.66525203 125 113 101
-0.34065136 0.09393919 0.66525203 126 112 102
-0.33850494 0.09366345 0.66329926 119 106 99
-0.33669958 0.09348051 0.66200376 123 111 108
-0.33490124 0.09329829 0.66071332 124 113 110
-0.33408490 0.09338931 0.66135788 119 108 105
-0.34376350 0.09499580 0.66459984 112 97 85
-0.34295103 0.09508903 0.66525203 114 100 89
-0.34213695 0.09518243 0.66590554 121 103 97
-0.34132126 0.09527603 0.66656029 121 100 98
-0.33950153 0.09508903 0.66525203 115 97 94
-0.33768889 0.09490276 0.66394889 114 99 95
-0.33621201 0.09480990 0.66329926 112 96 93
-0.33506557 0.09480990 0.66329926 111 93 91
-0.33229339 0.09434832 0.66006994 117 103 99
-0.34295103 0.09623887 0.66525203 102 92 87
-0.33506557 0.09595636 0.66329926 121 101 99
1.12628973 0.19647060 1.29616034 25 25 29
1.10943830 0.19314685 1.27423275 24 24 28
1.13053429 0.19985732 1.30363810 26 24 31
1.12199903 0.19795392 1.29122257 26 24 31
1.10528314 0.19461761 1.26946032 26 24 30
1.12836432 0.20172262 1.30113602 26 25 29
1.11774099 0.19942598 1.28632224 26 25 29
1.10115898 0.19607741 1.26472354 26 25 30
1.10129023 0.19571227 1.26236844 27 25 30
1.08132219 0.19178374 1.23702896 26 25 29
1.12620270 0.20358078 1.29864335 26 25 29
1.11562407 0.20126736 1.28388608 26 25 29
1.10321712 0.19863397 1.26708758 26 25 29
1.10129023 0.19789417 1.26236844 26 25 29
1.08927310 0.19534774 1.24612474 26 25 29
1.12404931 0.20543183 1.29616034 26 25 29
1.11351514 0.20310180 1.28145909 26 25 29
1.10321712 0.20082402 1.26708758 26 25 29
1.10129023 0.20007607 1.26236844 26 25 29
1.09329247 0.19823036 1.25072300 26 25 29
1.09951150 0.19896454 1.25535524 26 25 29
1.12404931 0.20767215 1.29616034 26 25 29
1.11774099 0.20609589 1.28632224 26 25 29
1.10735679 0.20377585 1.27184212 26 25 28
1.10334492 0.20263532 1.26472354 25 24 26
1.09937763 0.20150748 1.25768435 25 24 26
1.10783601 0.20225798 1.26236844 25 24 26
1.12836432 0.21071826 1.30113602 26 25 28
1.12628973 0.20991245 1.29616034 26 25 28
1.11996424 0.20831919 1.28632224 25 24 28
1.10747731 0.20558842 1.26946032 25 24 26
1.12663424 0.20831919 1.28632224 25 24 26
1.12246776 0.20714003 1.27904117 25 24 26
-0.08949519 0.08128637 0.49662405 112 103 106
-0.08771418 0.08122686 0.49626049 106 100 100
-0.08685644 0.08122686 0.49626049 111 102 103
-0.08507866 0.08116744 0.49589747 111 99 101
1.13053429 0.21337672 1.30363810 27 24 27
1.12844729 0.21255918 1.29864335 26 24 27
1.12209344 0.21094276 1.28876781 26 24 27
1.10955513 0.20817241 1.27184212 26 24 26
1.11175334 0.20817241 1.27184212 25 24 26
1.13525093 0.21215276 1.29616034 25 24 26
-0.09154728 0.08244675 0.49844989 134 125 126
-0.09035356 0.08214474 0.49662405 143 134 133
-0.08949519 0.08214474 0.49662405 127 113 112
-0.08850714 0.08202456 0.49589747 121 106 104
-0.08771418 0.08208461 0.49626049 119 106 107
-0.08679290 0.08202456 0.49589747 118 107 109
-0.08593578 0.08202456 0.49589747 112 101 102
-0.08507866 0.08202456 0.49589747 113 101 99
-0.08403712 0.08184495 0.49481156 119 107 103
-0.08336443 0.08202456 0.49589747 115 102 97
1.13489926 0.21646249 1.30867147 27 25 29
1.13278747 0.21562995 1.30363810 27 24 29
1.12637627 0.21398392 1.29368675 27 24 29
1.10955513 0.21037069 1.27184212 27 24 28
-0.08850714 0.08288168 0.49589747 131 118 117
-0.08765002 0.08288168 0.49589747 124 113 113
-0.08679290 0.08288168 0.49589747 122 111 112
-0.08587296 0.08282109 0.49553499 115 104 105
-0.08507866 0.08288168 0.49589747 111 99 96
-0.08403712 0.08270019 0.49481156 110 94 93
-0.08336443 0.08288168 0.49589747 109 93 91
-0.08262820 0.08300312 0.49662405 108 94 90
1.13061321 0.21746498 1.30113602 27 25 28
1.12209344 0.21539782 1.28876781 27 24 28
1.10955513 0.21256897 1.27184212 26 24 27
-0.08758595 0.08367758 0.49553499 111 102 101
-0.08672945 0.08367758 0.49553499 108 98 98
-0.08587296 0.08367758 0.49553499 110 99 98
-0.08501647 0.08367758 0.49553499 110 98 94
-0.08403712 0.08355543 0.49481156 118 96 95
-0.08262820 0.08386149 0.49662405 92 77 75
1.12628973 0.21887368 1.29616034 27 25 27
1.11362481 0.21598290 1.27904117 27 24 27
1.10540724 0.21396437 1.26708758 26 23 26
0.65750933 0.09692713 0.57399815 28 27 34
-0.08758595 0.08453408 0.49553499 126 118 114
-0.08672945 0.08453408 0.49553499 124 113 110
-0.08587296 0.08453408 0.49553499 131 120 116
-0.08501647 0.08453408 0.49553499 134 123 114
-0.08403712 0.08441067 0.49481156 133 119 110
-0.08336443 0.08459592 0.49589747 125 111 102
1.12844729 0.22153759 1.29864335 26 25 27
1.11362481 0.21819362 1.27904117 25 24 26
1.10540724 0.21615443 1.26708758 25 24 26
0.65584332 0.09767113 0.57254380 31 30 37
-0.08844244 0.08539057 0.49553499 142 133 122
-0.08758595 0.08539057 0.49553499 149 142 130
-0.08672945 0.08539057 0.49553499 147 139 125
-0.08587296 0.08539057 0.49553499 155 146 131
-0.08495437 0.08532820 0.49517301 150 140 122
-0.08409850 0.08532820 0.49517301 143 134 115
-0.08342545 0.08551560 0.49626049 144 136 117
1.12414026 0.22292805 1.29368675 26 24 28
1.10528314 0.21875337 1.26946032 26 23 27
1.10129023 0.21753128 1.26236844 25 22 26
0.65584332 0.09866073 0.57254380 32 31 38
-0.08844244 0.08624706 0.49553499 136 122 111
-0.08758595 0.08624706 0.49553499 147 131 122
-0.08666610 0.08618406 0.49517301 150 134 122
-0.08581024 0.08618406 0.49517301 143 128 115
-0.08495437 0.08618406 0.49517301 146 130 114
-0.08403712 0.08612116 0.49481156 144 135 116
-0.08342545 0.08637334 0.49626049 145 138 118
1.10932112 0.22219582 1.27663243 25 23 27
1.10321712 0.22053455 1.26708758 24 22 26
1.10129023 0.21971318 1.26236844 24 22 26
1.09531343 0.21808869 1.25303483 25 22 27
1.11197734 0.22053455 1.26708758 27 23 28
0.65584332 0.09965032 0.57254380 31 30 37
0.66458744 0.10007293 0.57497185 91 99 100
-0.08949519 0.08729499 0.49662405 113 97 92
-0.08850714 0.08716727 0.49589747 121 105 99
-0.08758595 0.08710355 0.49553499 140 118 114
-0.08666610 0.08703993 0.49517301 137 117 111
-0.08581024 0.08703993 0.49517301 136 117 110
-0.08495437 0.08703993 0.49517301 138 119 110
-0.08403712 0.08697639 0.49481156 135 119 107
-0.08342545 0.08723108 0.49626049 136 124 111
1.10723591 0.22398056 1.27423275 25 24 28
1.10115898 0.22230907 1.26472354 23 22 26
1.09924328 0.22148265 1.26002204 24 23 27
1.09531343 0.22025445 1.25303483 26 24 28
1.10565400 0.22189508 1.26236844 28 24 29
1.10990286 0.22230907 1.26472354 28 24 29
0.65763092 0.10106672 0.57497185 29 27 34
0.65418577 0.10038556 0.57109678 31 30 37
0.65837860 0.10072499 0.57302779 33 32 39
0.66104537 0.10098107 0.57448459 32 32 37
0.66091812 0.10081021 0.57351255 40 41 45
0.66415697 0.10115252 0.57545996 58 60 64
0.66346198 0.10089556 0.57399815 93 101 102
0.66109544 0.10038556 0.57109678 110 120 120
-0.09368365 0.08886953 0.50065869 108 96 93
-0.09274980 0.08880395 0.50028920 90 78 74
-0.08949519 0.08815336 0.49662405 94 80 77
-0.08857193 0.08808883 0.49626049 110 97 92
-0.08758595 0.08796005 0.49553499 121 109 104
-0.08672945 0.08796005 0.49553499 135 124 116
-0.08587296 0.08796005 0.49553499 138 127 117
-0.08495437 0.08789580 0.49517301 126 115 106
-0.08415998 0.08796005 0.49553499 122 115 107
-0.08342545 0.08808883 0.49626049 119 114 107
-0.08256771 0.08808883 0.49626049 115 110 106
-0.08165019 0.08802439 0.49589747 109 106 99
-0.08079307 0.08802439 0.49589747 96 93 86
-0.07993595 0.08802439 0.49589747 82 79 72
-0.07902102 0.08796005 0.49553499 82 76 74
-0.07810744 0.08789580 0.49517301 81 74 73
1.10723591 0.22618298 1.27423275 25 24 28
1.10115898 0.22449504 1.26472354 25 24 28
1.09924328 0.22366048 1.26002204 25 24 28
1.09531343 0.22242023 1.25303483 25 24 28
1.10565400 0.22407699 1.26236844 26 25 29
1.10990286 0.22449504 1.26472354 26 25 29
0.65608066 0.10197402 0.57448459 28 26 33
0.65540731 0.10171542 0.57302779 28 26 33
0.65308535 0.10120214 0.57013613 29 28 35
0.65671325 0.10145813 0.57157826 32 31 38
0.65992689 0.10180148 0.57351255 33 33 38
0.66091812 0.10180148 0.57351255 41 42 46
0.66303128 0.10197402 0.57448459 60 61 65
0.66346198 0.10188767 0.57399815 94 103 105
0.66109544 0.10137266 0.57109678 113 125 125
0.66319996 0.10154375 0.57206064 122 134 134
0.66587448 0.10180148 0.57351255 128 140 138
-0.09347653 0.08953650 0.49955183 100 88 83
-0.09254491 0.08947057 0.49918398 88 76 71
-0.09148001 0.08927335 0.49808365 76 64 61
-0.09035356 0.08901174 0.49662405 81 60 63
-0.08942968 0.08894657 0.49626049 89 67 69
-0.08850714 0.08888151 0.49589747 101 79 79
-0.08758595 0.08881654 0.49553499 119 105 96
-0.08672945 0.08881654 0.49553499 133 120 112
-0.08587296 0.08881654 0.49553499 133 122 115
-0.08495437 0.08875166 0.49517301 122 111 109
-0.08409850 0.08875166 0.49517301 119 109 108
-0.08336443 0.08888151 0.49589747 116 106 106
-0.08250730 0.08888151 0.49589747 110 104 102
-0.08073401 0.08881654 0.49553499 94 88 84
-0.07981917 0.08875166 0.49517301 83 78 75
-0.07890566 0.08868688 0.49481156 82 73 73
-0.07799350 0.08862219 0.49445066 81 72 73
1.10515857 0.22795689 1.27184212 25 24 28
1.09910834 0.22625889 1.26236844 25 24 28
1.09720385 0.22541934 1.25768435 25 24 28
1.09329247 0.22417164 1.25072300 25 24 28
1.10359895 0.22583833 1.26002204 26 25 29
1.10181069 0.22458600 1.25303483 26 25 29
0.65287453 0.10261911 0.57254380 26 25 32
0.65497053 0.10279275 0.57351255 26 25 32
0.65374947 0.10244606 0.57157826 27 26 33
0.65253657 0.10210170 0.56965703 29 28 34
0.65187776 0.10184495 0.56822449 31 30 37
0.65560764 0.10227359 0.57061601 33 32 39
0.65770113 0.10244606 0.57157826 33 33 39
0.65924495 0.10253251 0.57206064 41 42 46
0.66190940 0.10279275 0.57351255 69 70 74
0.66234034 0.10270585 0.57302779 96 99 102
0.66053897 0.10227359 0.57061601 118 122 125
0.66208255 0.10235975 0.57109678 132 136 139
0.66418874 0.10253251 0.57206064 137 141 141
0.66182649 0.10201597 0.56917870 139 143 142
-0.09227311 0.09006806 0.49771795 83 73 68
-0.09127881 0.08993600 0.49698815 81 71 68
-0.09022138 0.08973863 0.49589747 89 68 66
-0.08936425 0.08973863 0.49589747 91 70 68
-0.08844244 0.08967303 0.49553499 97 74 73
-0.08752197 0.08960753 0.49517301 107 92 86
-0.08666610 0.08960753 0.49517301 118 106 101
-0.08587296 0.08967303 0.49553499 123 113 108
-0.08495437 0.08960753 0.49517301 116 106 105
-0.08409850 0.08960753 0.49517301 115 105 103
-0.08336443 0.08973863 0.49589747 113 102 99
-0.08250730 0.08973863 0.49589747 109 101 93
-0.08153090 0.08960753 0.49517301 101 92 87
-0.08067504 0.08960753 0.49517301 95 87 82
-0.07981917 0.08960753 0.49517301 89 82 77
-0.07890566 0.08954212 0.49481156 91 85 80
-0.07793665 0.08941159 0.49409026 91 85 79
1.10515857 0.23015517 1.27184212 25 25 27
1.09910834 0.22844079 1.26236844 25 25 27
1.09720385 0.22759314 1.25768435 25 24 28
1.09127903 0.22591658 1.24841964 25 24 28
1.10155141 0.22759314 1.25768435 26 25 29
1.10181069 0.22675176 1.25303483 26 25 29
0.65497053 0.10378402 0.57351255 26 26 30
0.65374947 0.10343398 0.57157826 28 28 32
0.65253657 0.10308631 0.56965703 30 30 34
0.65560764 0.10325985 0.57061601 34 33 40
0.65770113 0.10343398 0.57157826 39 39 46
0.65924495 0.10352127 0.57206064 49 49 56
0.66134989 0.10369629 0.57302779 70 70 78
0.66234034 0.10369629 0.57302779 96 98 103
0.66053897 0.10325985 0.57061601 119 123 126
0.66208255 0.10334685 0.57109678 131 135 138
0.66362870 0.10343398 0.57157826 137 141 141
0.66127127 0.10291334 0.56870121 140 144 143
-0.09114517 0.09066207 0.49626049 77 69 68
-0.09008957 0.09046339 0.49517301 84 72 65
-0.08929893 0.09052952 0.49553499 86 73 67
-0.08844244 0.09052952 0.49553499 106 94 89
-0.08745808 0.09039737 0.49481156 117 109 103
-0.08660284 0.09039737 0.49481156 110 105 97
-0.08587296 0.09052952 0.49553499 110 107 99
-0.08495437 0.09046339 0.49517301 105 101 90
-0.08415998 0.09052952 0.49553499 106 99 86
-0.08342545 0.09066207 0.49626049 98 90 75
-0.08250730 0.09059574 0.49589747 101 91 83
1.10308897 0.23191832 1.26946032 26 26 27
1.09910834 0.23062269 1.26236844 26 26 27
1.09517193 0.22934146 1.25535524 26 25 27
1.08927310 0.22765513 1.24612474 26 25 27
1.09545434 0.22849518 1.25072300 26 25 27
1.10168135 0.22934146 1.25535524 26 25 27
1.09775245 0.22807437 1.24841964 26 25 27
1.10807288 0.22976695 1.25768435 24 23 25
0.65386415 0.10459830 0.57254380 28 27 31
0.65319866 0.10433394 0.57109678 30 29 33
0.65770113 0.10442191 0.57157826 41 41 50
0.65924495 0.10451003 0.57206064 51 51 60
0.66134989 0.10468671 0.57302779 78 78 87
0.66234034 0.10468671 0.57302779 100 104 111
0.66109544 0.10433394 0.57109678 116 124 128
0.66264081 0.10442191 0.57157826 124 132 136
0.66418874 0.10451003 0.57206064 132 140 141
0.66182649 0.10398353 0.56917870 138 147 144
-0.09002381 0.09125260 0.49481156 83 73 70
-0.08923370 0.09131926 0.49517301 89 79 74
-0.08837783 0.09131926 0.49517301 99 89 82
-0.08745808 0.09125260 0.49481156 104 96 89
-0.08660284 0.09125260 0.49481156 106 98 91
-0.08587296 0.09138601 0.49553499 101 94 87
-0.08495437 0.09131926 0.49517301 97 88 82
-0.08415998 0.09138601 0.49553499 96 85 80
-0.08342545 0.09151982 0.49626049 91 79 73
-0.08250730 0.09145287 0.49589747 94 84 80
-0.08159050 0.09138601 0.49553499 86 75 72
1.09706545 0.23237187 1.26002204 27 25 26
1.09517193 0.23151124 1.25535524 26 25 27
1.08727443 0.22938728 1.24383819 26 25 27
1.09545434 0.23065695 1.25072300 26 25 27
1.09964490 0.23108330 1.25303483 26 25 27
1.09372401 0.22938728 1.24383819 26 25 27
0.65221161 0.10532103 0.57109678 28 27 34
0.65209997 0.10514387 0.57013613 30 29 36
0.65868908 0.10540984 0.57157826 67 67 76
0.66134989 0.10567715 0.57302779 82 82 91
0.66234034 0.10567715 0.57302779 99 102 109
0.66109544 0.10532103 0.57109678 123 131 135
0.66264081 0.10540984 0.57157826 125 133 137
0.66418874 0.10549879 0.57206064 128 137 139
0.66182649 0.10496731 0.56917870 133 142 141
-0.09101191 0.09224251 0.49553499 83 63 67
-0.09002381 0.09210785 0.49481156 81 70 70
-0.08923370 0.09217513 0.49517301 91 80 78
-0.08844244 0.09224251 0.49553499 97 87 84
-0.08745808 0.09210785 0.49481156 103 93 91
-0.08666610 0.09217513 0.49517301 103 90 90
-0.08587296 0.09224251 0.49553499 96 80 81
-0.08495437 0.09217513 0.49517301 98 85 83
-0.08415998 0.09224251 0.49553499 95 82 81
-0.08342545 0.09237756 0.49626049 90 77 77
-0.08256771 0.09237756 0.49626049 81 74 76
-0.08165019 0.09230998 0.49589747 81 73 76
1.09706545 0.23454972 1.26002204 28 24 27
1.09517193 0.23368102 1.25535524 28 24 27
1.08528304 0.23111309 1.24156010 28 24 27
1.09142685 0.23196277 1.24612474 28 24 27
0.65166259 0.10621864 0.57061601 27 26 34
0.65209997 0.10612931 0.57013613 28 27 36
0.65089566 0.10577347 0.56822449 32 31 40
0.65813416 0.10630813 0.57109678 63 63 72
0.66134989 0.10666758 0.57302779 80 80 89
0.66234034 0.10666758 0.57302779 96 98 105
0.66165286 0.10639776 0.57157826 120 128 130
0.66376013 0.10657749 0.57254380 129 138 139
0.66531163 0.10666758 0.57302779 132 141 141
-0.08989258 0.09282757 0.49409026 98 89 88
-0.08910353 0.09289528 0.49445066 107 98 96
-0.08831333 0.09296308 0.49481156 110 102 98
-0.08739429 0.09289528 0.49445066 106 95 95
-0.08647659 0.09282757 0.49409026 103 89 90
-0.08574760 0.09296308 0.49481156 102 84 86
-0.08489235 0.09296308 0.49481156 97 83 83
-0.08409850 0.09303100 0.49517301 92 81 80
1.09314764 0.23541485 1.25303483 29 23 27
1.08329892 0.23283260 1.23929036 29 23 27
1.08942425 0.23368703 1.24383819 29 23 27
0.65056735 0.10702473 0.56965703 28 26 33
0.65155196 0.10702473 0.56965703 28 27 34
0.65089566 0.10675560 0.56822449 31 30 37
0.65024263 0.10648782 0.56679922 33 32 40
0.65714705 0.10729522 0.57109678 39 38 47
0.65813416 0.10729522 0.57109678 66 66 75
0.66134989 0.10765801 0.57302779 91 91 100
0.66290069 0.10774910 0.57351255 111 111 120
0.66221124 0.10747631 0.57206064 123 126 129
0.66432118 0.10765801 0.57302779 133 137 138
0.66587448 0.10774910 0.57351255 139 143 144
-0.08812036 0.09361333 0.49373040 115 107 104
-0.08720347 0.09354521 0.49337107 110 101 100
-0.08483044 0.09374990 0.49445066 87 79 78
-0.16250621 0.19533603 1.03023076 117 109 100
-0.16048163 0.19503962 1.02866745 119 109 102
-0.15822348 0.19444948 1.02555501 120 110 104
-0.15550983 0.19327986 1.01938617 114 104 99
-0.15282863 0.19212423 1.01329124 108 98 92
0.65056735 0.10800934 0.56965703 28 27 33
0.65155196 0.10800934 0.56965703 29 28 35
0.65089566 0.10773773 0.56822449 32 31 38
0.65024263 0.10746749 0.56679922 37 36 44
0.65825617 0.10846508 0.57206064 47 46 55
0.65868908 0.10837362 0.57157826 62 63 71
0.66359365 0.10901706 0.57497185 82 85 93
0.66402423 0.10892467 0.57448459 112 115 123
0.66333073 0.10864845 0.57302779 127 133 135
-0.19396870 0.19651937 1.02710891 131 128 120
-0.19190267 0.19622208 1.02555501 117 108 102
-0.18927105 0.19533554 1.02092147 108 98 93
-0.18750647 0.19533554 1.02092147 114 105 99
-0.17371824 0.19771767 1.03337169 91 83 80
-0.17140955 0.19711670 1.03023076 97 90 86
-0.16962889 0.19711670 1.03023076 104 98 92
-0.16810369 0.19741674 1.03179884 110 104 96
-0.16606754 0.19711670 1.03023076 110 108 94
-0.16403757 0.19681759 1.02866745 112 107 93
-0.16250621 0.19711670 1.03023076 115 107 94
-0.16048163 0.19681759 1.02866745 118 110 100
-0.15846321 0.19651937 1.02710891 127 120 111
-0.15574403 0.19533554 1.02092147 119 113 104
-0.15328689 0.19445696 1.01632965 116 111 102
-0.15072872 0.19801953 1.03494942 130 113 107
-0.14736500 0.19592567 1.02400577 128 111 108
0.65056735 0.10899394 0.56965703 28 27 31
0.65155196 0.10899394 0.56965703 30 29 33
0.65992689 0.10973164 0.57351255 53 51 60
0.66091812 0.10973164 0.57351255 72 72 81
0.66528648 0.11029149 0.57643867 96 99 107
0.66458744 0.11001085 0.57497185 111 114 122
0.66445410 0.10982455 0.57399815 130 134 139
-0.19842117 0.19920011 1.03179884 149 144 132
-0.19633894 0.19889738 1.03023076 144 139 127
-0.19485439 0.19920011 1.03179884 133 128 115
-0.19248506 0.19859555 1.02866745 118 113 105
-0.18984286 0.19769558 1.02400577 112 107 100
-0.18807295 0.19769558 1.02400577 108 103 96
-0.17319022 0.19889738 1.03023076 115 107 103
-0.17114945 0.19859555 1.02866745 113 105 101
-0.16962889 0.19889738 1.03023076 118 109 103
-0.16810369 0.19920011 1.03179884 120 110 102
-0.16606754 0.19889738 1.03023076 122 114 101
-0.16403757 0.19859555 1.02866745 119 105 96
-0.16250621 0.19889738 1.03023076 121 103 97
-0.16048163 0.19859555 1.02866745 123 111 105
-0.15846321 0.19829465 1.02710891 142 135 128
-0.15574403 0.19710012 1.02092147 139 134 127
-0.15351705 0.19650821 1.01785564 133 130 121
-0.15321931 0.20072772 1.03971136 120 111 104
-0.15095919 0.20011388 1.03653193 127 110 105
-0.14736500 0.19769558 1.02400577 124 105 103
0.65100491 0.10988621 0.56917870 27 25 32
0.65992689 0.11072291 0.57351255 53 53 62
0.66091812 0.11072291 0.57351255 74 76 84
0.66472125 0.11119326 0.57594889 94 99 106
0.66458744 0.11100464 0.57497185 112 117 124
0.66445410 0.11081666 0.57399815 131 138 142
-0.20143092 0.20221463 1.03811920 140 126 115
-0.19902703 0.20159718 1.03494942 137 125 114
-0.19663778 0.20098349 1.03179884 134 123 111
-0.19515143 0.20128986 1.03337169 129 119 105
-0.19248506 0.20037353 1.02866745 115 108 100
-0.18955652 0.19916464 1.02246130 103 96 89
-0.18778929 0.19916464 1.02246130 101 97 90
-0.18602204 0.19916464 1.02246130 103 95 91
-0.18453313 0.19946548 1.02400577 97 88 86
-0.18248756 0.19916464 1.02246130 93 84 85
-0.17787990 0.19797024 1.01632965 94 90 89
-0.17240418 0.19976725 1.02555501 116 107 104
-0.17063160 0.19976725 1.02555501 114 104 101
-0.16860394 0.19946548 1.02400577 120 108 104
-0.16759351 0.20037353 1.02866745 120 106 100
-0.16556431 0.20006993 1.02710891 121 106 100
-0.16354124 0.19976725 1.02555501 115 96 93
-0.16201375 0.20006993 1.02710891 123 99 98
-0.15999606 0.19976725 1.02555501 127 110 107
-0.15822348 0.19976725 1.02555501 143 131 126
-0.15574403 0.19886468 1.02092147 155 147 139
-0.15351705 0.19826750 1.01785564 148 141 126
-0.15430637 0.20159718 1.03494942 138 131 119
-0.15321931 0.20252478 1.03971136 128 119 108
-0.15095919 0.20190543 1.03653193 132 109 103
-0.14758794 0.19976725 1.02555501 128 105 100
0.21522045 0.38053647 1.95357883 143 122 118
0.21796890 0.37944296 1.94796503 141 121 117
0.61349404 0.12857464 0.66006994 26 25 30
0.61225027 0.12807581 0.65750909 26 25 29
0.66091812 0.11171418 0.57351255 78 79 87
0.66458744 0.11199843 0.57497185 110 114 117
0.66445410 0.11180877 0.57399815 124 130 133
-0.19994280 0.20432183 1.03971136 119 107 100
-0.19784230 0.20400894 1.03811920 112 100 92
-0.19604799 0.20400894 1.03811920 106 95 84
-0.19307102 0.20276688 1.03179884 100 89 85
-0.19013007 0.20153984 1.02555501 91 80 79
-0.18835749 0.20153984 1.02555501 95 84 85
-0.18630305 0.20123540 1.02400577 97 87 88
-0.18481231 0.20153984 1.02555501 90 81 81
-0.18248756 0.20093188 1.02246130 99 88 90
-0.17787990 0.19972689 1.01632965 119 110 109
-0.17612326 0.19972689 1.01632965 121 111 110
-0.17338984 0.20062926 1.02092147 111 98 98
-0.17214376 0.20123540 1.02400577 107 92 92
-0.17037384 0.20123540 1.02400577 104 93 90
-0.16834962 0.20093188 1.02246130 105 91 89
-0.16733958 0.20184520 1.02710891 106 89 88
-0.16556431 0.20184520 1.02710891 113 91 92
-0.16354124 0.20153984 1.02555501 109 87 88
-0.16201375 0.20184520 1.02710891 117 97 97
-0.15975438 0.20123540 1.02400577 128 112 107
-0.15822348 0.20153984 1.02555501 136 124 113
-0.15574403 0.20062926 1.02092147 135 125 110
-0.15351705 0.20002678 1.01785564 136 130 111
-0.15454231 0.20369700 1.03653193 133 127 114
-0.15321931 0.20432183 1.03971136 127 119 108
-0.15095919 0.20369700 1.03653193 130 109 103
-0.14781156 0.20184520 1.02710891 125 103 99
0.19496083 0.38391307 1.95357883 151 133 117
0.19720083 0.38171300 1.94238353 146 126 114
0.19884878 0.37845975 1.92582905 139 116 108
0.21002804 0.38062239 1.93683386 141 119 107
0.21398710 0.38171300 1.94238353 129 107 102
0.21734434 0.38171300 1.94238353 132 106 105
0.21820073 0.37738764 1.92037344 127 100 100
0.61414719 0.13009554 0.66200376 26 24 31
0.61469108 0.12996861 0.66135788 26 24 31
0.61284471 0.12933770 0.65814739 26 24 31
0.66458744 0.11299223 0.57497185 119 120 122
0.66445410 0.11280087 0.57399815 129 131 133
-0.20055801 0.20675310 1.04291058 110 100 95
-0.19845010 0.20643552 1.04130852 106 95 90
-0.19634868 0.20611890 1.03971136 96 87 84
-0.19366054 0.20517483 1.03494942 93 84 84
-0.19099693 0.20423938 1.03023076 91 82 83
-0.18921626 0.20423938 1.03023076 83 74 75
-0.18715116 0.20392947 1.02866745 87 78 81
-0.18537320 0.20392947 1.02866745 99 90 92
-0.18303972 0.20331243 1.02555501 121 109 111
-0.18044814 0.20239384 1.02092147 123 107 108
-0.17841488 0.20208950 1.01938617 123 107 107
-0.17638770 0.20178606 1.01785564 121 105 104
-0.17515442 0.20239384 1.02092147 113 97 95
-0.17365135 0.20269912 1.02246130 109 93 91
-0.17240418 0.20331243 1.02555501 108 91 90
-0.17063160 0.20331243 1.02555501 101 84 83
-0.16885900 0.20331243 1.02555501 101 84 83
-0.16784821 0.20423938 1.03023076 100 83 82
-0.16581555 0.20392947 1.02866745 100 82 84
-0.16403757 0.20392947 1.02866745 107 90 91
-0.16225961 0.20392947 1.02866745 111 96 94
-0.15999606 0.20331243 1.02555501 117 103 96
-0.15846321 0.20362048 1.02710891 121 108 100
-0.15597893 0.20269912 1.02246130 115 103 95
-0.15421170 0.20269912 1.02246130 97 92 85
-0.15501638 0.20611890 1.03971136 106 101 94
-0.15345468 0.20643552 1.04130852 116 110 103
-0.15142226 0.20611890 1.03971136 125 104 103
-0.14826083 0.20423938 1.03023076 118 96 95
0.19496083 0.38728967 1.95357883 146 122 121
0.19720083 0.38507023 1.94238353 143 116 116
0.19998506 0.38397005 1.93683386 133 105 105
0.20217742 0.38178840 1.92582905 125 99 94
0.20727259 0.38507023 1.94238353 128 104 100
0.21123511 0.38617676 1.94796503 128 106 101
0.21460199 0.38617676 1.94796503 124 101 100
0.21796890 0.38617676 1.94796503 127 99 100
0.21944404 0.38287613 1.93131578 129 99 100
0.14755102 0.12654381 0.63831621 144 136 128
0.61235315 0.13085639 0.66006994 26 24 31
0.61289728 0.13072911 0.65942788 26 24 30
0.66501719 0.11388942 0.57448459 132 133 133
-0.19845010 0.20823532 1.04130852 106 94 89
-0.19604799 0.20759755 1.03811920 96 88 86
-0.19336534 0.20664817 1.03337169 97 90 90
-0.19041815 0.20539576 1.02710891 99 93 93
-0.18864287 0.20539576 1.02710891 98 89 90
-0.18658489 0.20508502 1.02555501 105 96 98
-0.18509233 0.20539576 1.02710891 111 101 103
-0.18276322 0.20477523 1.02400577 120 104 104
-0.18044814 0.20415843 1.02092147 124 109 107
-0.17841488 0.20385143 1.01938617 119 103 101
-0.17665295 0.20385143 1.01938617 105 88 85
-0.17515442 0.20415843 1.02092147 102 85 82
-0.17365135 0.20446636 1.02246130 101 85 81
-0.17214376 0.20477523 1.02400577 99 82 79
-0.17037384 0.20477523 1.02400577 92 69 68
-0.16860394 0.20477523 1.02400577 96 74 74
-0.16759351 0.20570743 1.02866745 90 71 71
-0.16581555 0.20570743 1.02866745 98 81 79
-0.16378903 0.20539576 1.02710891 106 89 87
-0.16225961 0.20570743 1.02866745 108 93 91
-0.15999606 0.20508502 1.02555501 111 94 93
-0.15846321 0.20539576 1.02710891 118 102 100
0.19269486 0.39293101 1.96490383 145 123 116
0.19552431 0.39179537 1.95922494 129 102 100
0.19776750 0.38954368 1.94796503 134 107 105
0.20055808 0.38842750 1.94238353 129 102 102
0.20275342 0.38621423 1.93131578 124 104 100
0.20846725 0.39066628 1.95357883 127 108 105
0.21184385 0.39066628 1.95357883 131 114 110
0.21522045 0.39066628 1.95357883 126 110 107
0.21859705 0.39066628 1.95357883 123 102 100
0.22070161 0.38842750 1.94238353 116 93 91
0.14575084 0.12898307 0.64499700 137 125 120
0.14630882 0.12849402 0.64255148 147 138 129
0.14644773 0.12764707 0.63831621 145 138 126
0.14782941 0.12788792 0.63952059 148 141 130
0.14921631 0.12812968 0.64072955 149 142 132
0.60938632 0.13135774 0.65687191 26 25 30
0.61052167 0.13135774 0.65687191 26 25 29
0.61047393 0.13110368 0.65560138 26 25 29
0.60866386 0.13047276 0.65244645 26 25 29
0.60803592 0.13009712 0.65056801 26 25 29
-0.19634868 0.20971301 1.03971136 95 86 85
-0.19366054 0.20875248 1.03494942 96 86 86
-0.19099693 0.20780073 1.03023076 98 88 88
-0.18892913 0.20748541 1.02866745 101 92 92
-0.18686759 0.20717102 1.02710891 106 100 98
-0.18537320 0.20748541 1.02866745 111 105 101
-0.18303972 0.20685761 1.02555501 123 108 106
-0.18072031 0.20623361 1.02246130 120 105 103
-0.17868358 0.20592301 1.02092147 112 97 95
-0.17691900 0.20592301 1.02092147 98 84 81
-0.17541860 0.20623361 1.02246130 92 81 77
-0.17365135 0.20623361 1.02246130 90 79 76
-0.17214376 0.20654513 1.02400577 85 72 69
-0.17037384 0.20654513 1.02400577 93 70 65
-0.16860394 0.20654513 1.02400577 101 78 74
-0.16733958 0.20717102 1.02710891 90 66 63
-0.16556431 0.20717102 1.02710891 109 90 85
-0.16378903 0.20717102 1.02710891 111 94 89
-0.16201375 0.20717102 1.02710891 114 99 95
-0.15975438 0.20654513 1.02400577 106 85 88
-0.15846321 0.20717102 1.02710891 116 97 98
-0.15621455 0.20654513 1.02400577 116 97 98
0.17756610 0.39291057 1.94796503 165 145 143
0.18145442 0.39404288 1.95357883 161 141 137
0.18590251 0.39632720 1.96490383 160 140 134
0.18929869 0.39632720 1.96490383 159 140 131
0.19213794 0.39518175 1.95922494 159 137 125
0.19552431 0.39518175 1.95922494 147 123 111
0.19776750 0.39291057 1.94796503 130 105 95
0.20055808 0.39178476 1.94238353 126 100 94
0.20333272 0.39066538 1.93683386 130 109 104
0.20846725 0.39404288 1.95357883 130 111 104
0.21245611 0.39518175 1.95922494 135 117 110
0.21584247 0.39518175 1.95922494 132 117 107
0.21922883 0.39518175 1.95922494 129 113 102
0.22197366 0.39404288 1.95357883 126 109 99
0.14477377 0.13022178 0.64561129 117 102 98
0.14588965 0.13022178 0.64561129 141 127 117
0.14644764 0.12972759 0.64316112 140 129 118
0.14672405 0.12899329 0.63952059 143 137 124
0.14810885 0.12923713 0.64072955 147 143 129
0.15519361 0.12960462 0.64255148 144 130 119
0.15556693 0.12899329 0.63952059 144 129 118
0.60766214 0.13236484 0.65623605 28 25 30
0.60820764 0.13223682 0.65560138 27 24 29
0.60934079 0.13223682 0.65560138 27 25 29
0.60988408 0.13210906 0.65496796 27 24 29
0.60866386 0.13160045 0.65244645 26 24 29
0.60979158 0.13160045 0.65244645 26 24 28
-0.19425368 0.21118616 1.03811920 99 88 88
-0.19187172 0.21054131 1.03494942 101 90 90
-0.18921626 0.20958140 1.03023076 98 89 89
-0.18686759 0.20894630 1.02710891 99 93 91
-0.18537320 0.20926337 1.02866745 101 95 93
-0.18303972 0.20863020 1.02555501 95 86 86
-0.18072031 0.20800084 1.02246130 95 85 86
-0.17868358 0.20768759 1.02092147 95 84 85
-0.17691900 0.20768759 1.02092147 88 77 79
-0.17515442 0.20768759 1.02092147 80 74 72
-0.17338984 0.20768759 1.02092147 81 75 73
-0.17188412 0.20800084 1.02246130 96 90 88
-0.17011687 0.20800084 1.02246130 124 114 104
-0.16834962 0.20800084 1.02246130 140 129 119
-0.16733958 0.20894630 1.02710891 129 119 107
-0.16556431 0.20894630 1.02710891 119 112 96
-0.16354124 0.20863020 1.02555501 125 115 104
-0.16176866 0.20863020 1.02555501 125 110 104
-0.15951343 0.20800084 1.02246130 107 88 90
-0.15822348 0.20863020 1.02555501 121 102 104
-0.15597893 0.20800084 1.02246130 126 105 108
0.17419921 0.39627746 1.94796503 164 147 144
0.17756610 0.39627746 1.94796503 166 145 143
0.18145442 0.39741948 1.95357883 167 144 141
0.18536521 0.39856809 1.95922494 165 144 139
0.18929869 0.39972335 1.96490383 161 141 133
0.19269486 0.39972335 1.96490383 159 139 127
0.19552431 0.39856809 1.95922494 161 137 124
0.19833744 0.39741948 1.95357883 136 111 97
0.20113440 0.39627746 1.94796503 128 103 91
0.20450130 0.39627746 1.94796503 127 105 94
0.20967574 0.39972335 1.96490383 134 114 103
0.21369132 0.40088534 1.97061586 138 120 108
0.21709737 0.40088534 1.97061586 139 121 107
0.22114629 0.40205410 1.97636104 143 125 108
0.22390947 0.40088534 1.97061586 144 127 108
0.13709313 0.13146287 0.64622670 128 105 95
0.13794707 0.13121271 0.64499700 114 89 78
0.14477377 0.13133767 0.64561129 105 93 91
0.14575084 0.13121271 0.64499700 121 110 107
0.14630882 0.13071522 0.64255148 131 121 117
0.14672405 0.13009864 0.63952059 139 135 126
0.14796901 0.13022149 0.64012450 143 140 130
0.14935748 0.13046789 0.64133573 147 143 134
0.15004013 0.13009864 0.63952059 146 141 132
0.15446156 0.13009864 0.63952059 138 121 109
0.15527396 0.12985364 0.63831621 139 120 109
0.60938632 0.13362844 0.65687191 28 24 29
0.61052167 0.13362844 0.65687191 28 24 29
0.61047393 0.13336998 0.65560138 28 24 29
0.60983771 0.13298415 0.65370476 27 23 28
0.61155736 0.13311251 0.65433574 27 23 28
0.58210903 0.10306768 0.50664562 47 46 54
0.58298475 0.10306768 0.50664562 70 70 74
-0.19455163 0.21330711 1.03971136 96 91 89
-0.19245939 0.21298046 1.03811920 97 93 90
-0.18921626 0.21136206 1.03023076 100 95 92
-0.18686759 0.21072158 1.02710891 98 93 90
-0.18509233 0.21072158 1.02710891 96 90 87
-0.18276322 0.21008496 1.02400577 95 85 86
-0.18072031 0.20976809 1.02246130 92 81 82
-0.17868358 0.20945217 1.02092147 90 80 80
-0.17691900 0.20945217 1.02092147 89 80 81
-0.17515442 0.20945217 1.02092147 90 85 83
-0.17312910 0.20913720 1.01938617 88 84 81
-0.17162526 0.20945217 1.02092147 107 103 100
-0.16986068 0.20945217 1.02092147 134 127 117
-0.16809610 0.20945217 1.02092147 148 140 129
-0.16708642 0.21040279 1.02555501 150 141 130
-0.16531383 0.21040279 1.02555501 142 134 122
-0.16304791 0.20976809 1.02246130 135 124 114
-0.16152430 0.21008496 1.02400577 130 116 107
-0.15927319 0.20945217 1.02092147 114 96 98
-0.15774618 0.20976809 1.02246130 114 95 96
-0.15550983 0.20913720 1.01938617 116 95 96
-0.15169489 0.20634457 1.00577426 109 92 92
0.17370006 0.39849925 1.94238353 160 142 139
0.17756610 0.39964437 1.94796503 160 140 138
0.18093300 0.39964437 1.94796503 160 140 134
0.18536521 0.40195444 1.95922494 160 141 133
0.18875158 0.40195444 1.95922494 160 141 132
0.19213794 0.40195444 1.95922494 159 141 129
0.19496083 0.40079609 1.95357883 164 142 130
0.19833744 0.40079609 1.95357883 130 105 94
0.20171404 0.40079609 1.95357883 128 103 98
0.20450130 0.39964437 1.94796503 120 98 88
0.21028528 0.40429139 1.97061586 131 112 100
0.21431433 0.40547010 1.97636104 137 121 108
0.21773031 0.40547010 1.97636104 140 121 103
0.22179292 0.40665567 1.98213995 140 122 103
0.22456227 0.40547010 1.97636104 141 123 104
0.13696256 0.13245356 0.64561129 125 100 98
0.13768506 0.13207620 0.64377195 110 88 85
0.13853464 0.13182582 0.64255148 101 87 84
0.13991047 0.13207620 0.64377195 96 85 82
0.14213589 0.13207620 0.64377195 95 87 85
0.14379482 0.13257983 0.64622670 99 90 89
0.14463602 0.13232754 0.64499700 93 84 83
0.14561230 0.13220175 0.64438391 102 93 93
0.14617027 0.13170099 0.64194304 116 107 108
0.14658576 0.13108034 0.63891786 133 127 127
0.14782941 0.13120399 0.63952059 136 132 131
0.14907540 0.13132790 0.64012450 137 134 132
0.14989872 0.13108034 0.63891786 131 128 120
0.15431599 0.13108034 0.63891786 131 112 103
0.15512788 0.13083372 0.63771576 131 108 100
0.60879642 0.13463335 0.65623605 28 24 29
0.60993063 0.13463335 0.65623605 28 24 29
0.61047393 0.13450314 0.65560138 28 24 29
0.60983771 0.13411403 0.65370476 28 24 29
0.61096764 0.13411403 0.65370476 27 24 29
0.58166808 0.10402112 0.50702459 39 38 47
0.58167428 0.10386575 0.50626725 51 50 58
0.58254933 0.10386575 0.50626725 72 72 75
-0.16644989 0.12669189 0.61236840 89 82 80
-0.16539146 0.12669189 0.61236840 81 73 72
-0.16374138 0.12623575 0.61016369 79 72 70
-0.16148679 0.12612224 0.60961497 81 77 71
-0.19695283 0.21576603 1.04291058 95 89 87
-0.19485047 0.21543460 1.04130852 94 90 87
-0.19275457 0.21510418 1.03971136 99 95 92
-0.18950425 0.21346715 1.03179884 102 93 92
-0.18686759 0.21249685 1.02710891 99 89 88
-0.18509233 0.21249685 1.02710891 97 87 86
-0.18276322 0.21185488 1.02400577 95 84 86
-0.18044814 0.21121675 1.02092147 86 75 75
-0.17868358 0.21121675 1.02092147 84 73 73
-0.17691900 0.21121675 1.02092147 83 74 75
-0.17489102 0.21089913 1.01938617 83 76 76
-0.17235157 0.20995198 1.01480818 92 86 86
-0.17136717 0.21089913 1.01938617 113 106 105
-0.16986068 0.21121675 1.02092147 146 136 127
-0.16809610 0.21121675 1.02092147 149 138 128
-0.16708642 0.21217537 1.02555501 144 133 123
-0.16506411 0.21185488 1.02400577 137 122 116
-0.16280235 0.21121675 1.02092147 132 116 111
-0.16128066 0.21153533 1.02246130 116 99 96
-0.15927319 0.21121675 1.02092147 105 88 88
0.17370006 0.40185651 1.94238353 153 141 134
0.17705731 0.40185651 1.94238353 156 140 135
0.18041457 0.40185651 1.94238353 156 139 132
0.18483102 0.40417269 1.95357883 154 137 128
0.18820763 0.40417269 1.95357883 158 139 130
0.19158423 0.40417269 1.95357883 158 139 130
0.19440061 0.40301126 1.94796503 156 136 131
0.19833744 0.40417269 1.95357883 125 103 103
0.20171404 0.40417269 1.95357883 115 99 97
0.20509064 0.40417269 1.95357883 103 95 82
0.21089835 0.40888608 1.97636104 112 106 90
0.21431433 0.40888608 1.97636104 127 123 101
0.21773031 0.40888608 1.97636104 128 115 91
0.22179292 0.41008165 1.98213995 128 114 90
0.22456227 0.40888608 1.97636104 124 106 83
0.13670217 0.13331552 0.64438391 97 76 79
0.13742404 0.13293642 0.64255148 89 73 74
0.13827251 0.13268489 0.64133573 89 78 78
0.13977773 0.13306254 0.64316112 85 76 76
0.14075583 0.13293642 0.64255148 87 78 77
0.14200103 0.13306254 0.64316112 88 78 78
0.14379482 0.13369678 0.64622670 89 80 80
0.14463602 0.13344236 0.64499700 92 82 82
0.14547402 0.13318890 0.64377195 104 94 95
0.14603199 0.13268489 0.64133573 117 106 108
0.14658576 0.13218465 0.63891786 130 121 122
0.14769009 0.13218465 0.63891786 138 130 128
0.14893477 0.13230936 0.63952059 135 128 125
0.14989872 0.13218465 0.63891786 132 126 119
0.15100303 0.13218465 0.63891786 130 122 116
