ply
format ascii 1.0
element vertex 1063
property float x
property float y
property float z
property uchar red
property uchar green
property uchar blue
end_header
0.07984545 0.23026374 0.71357036 138 138 141
0.08082356 0.22953889 0.71132410 137 138 141
0.08205304 0.22953889 0.71132410 139 140 142
0.08328250 0.22953889 0.71132410 148 149 148
0.08451197 0.22953889 0.71132410 155 156 156
0.08565155 0.22929828 0.71057844 162 163 163
0.08624689 0.22762805 0.70540255 170 170 170
0.08719393 0.22691967 0.70320731 172 172 172
0.08850117 0.22715530 0.70393753 174 174 174
0.08981113 0.22739144 0.70466930 177 176 176
0.09112382 0.22762805 0.70540255 177 177 176
0.09263223 0.22834088 0.70761150 179 178 177
0.09336796 0.22715530 0.70393753 181 180 179
0.09429093 0.22644985 0.70175141 182 181 176
0.09550384 0.22644985 0.70175141 183 180 175
0.09661674 0.22621568 0.70102566 185 181 175
0.40106016 0.38648510 1.19768882 164 165 165
0.40171078 0.38512424 1.19347155 167 168 168
0.40235686 0.38377291 1.18928397 168 168 168
0.39812624 0.37780753 1.17079771 170 169 167
0.39672393 0.37457287 1.16077375 174 173 171
0.39873022 0.37457287 1.16077375 174 173 171
0.40073654 0.37457287 1.16077375 175 172 167
0.40136829 0.37329447 1.15681207 176 171 165
0.40336773 0.37329447 1.15681207 178 171 165
0.40467662 0.37265852 1.15484130 174 166 161
0.21625346 0.17347388 0.53758276 141 142 143
0.21649589 0.17292534 0.53588289 159 160 160
0.21707891 0.17265238 0.53503698 169 170 170
0.21783175 0.17251621 0.53461504 180 182 175
0.21892844 0.17265238 0.53503698 180 181 174
0.21967982 0.17251621 0.53461504 178 179 170
0.22258112 0.17333642 0.53715676 179 177 167
0.22368680 0.17347388 0.53758276 181 178 170
0.22443798 0.17333642 0.53715676 184 181 174
0.22536641 0.17333642 0.53715676 176 176 167
0.22575818 0.17292534 0.53588289 175 175 166
0.44732422 0.19479124 0.60364366 164 164 161
0.44638011 0.19392779 0.60096794 166 166 163
0.44702256 0.19375603 0.60043561 170 171 166
0.44766384 0.19358456 0.59990430 174 175 164
0.44790795 0.19324255 0.59884441 175 176 165
0.44657600 0.19222368 0.59568703 175 177 166
0.44603780 0.19155040 0.59360057 176 177 167
0.44589245 0.19104852 0.59204525 177 178 168
0.44535992 0.19038343 0.58998418 183 183 174
0.44521722 0.18988764 0.58844781 183 183 174
0.44546092 0.18955854 0.58742791 178 178 171
0.44493401 0.18890376 0.58539885 177 176 170
0.63171726 0.20520690 0.63592106 157 159 152
0.63400590 0.20559263 0.63711637 157 159 152
0.63272840 0.20482261 0.63473016 157 158 151
0.63382548 0.20482261 0.63473016 155 156 149
0.63255346 0.20405836 0.63236177 155 155 149
0.62953568 0.20273453 0.62825936 156 156 150
0.62945485 0.20235944 0.62709701 155 155 149
0.63320464 0.20217241 0.62651742 158 158 152
0.63428748 0.20217241 0.62651742 155 155 148
0.63654697 0.20254682 0.62767762 147 147 140
0.63763189 0.20254682 0.62767762 142 142 133
0.63812590 0.20235944 0.62709701 147 147 138
0.63980168 0.20254682 0.62767762 155 154 145
0.64029366 0.20235944 0.62709701 157 155 147
0.64078480 0.20217241 0.62651742 159 157 149
0.64009291 0.20161341 0.62478513 161 158 150
0.63764668 0.20050463 0.62134910 163 159 149
0.06634846 0.23174103 0.71432227 170 162 158
0.06765439 0.23198548 0.71507579 171 163 159
0.06889035 0.23198548 0.71507579 171 167 160
0.07049812 0.23321553 0.71886730 159 153 147
0.07204623 0.23420899 0.72192955 152 145 140
0.07329403 0.23420899 0.72192955 145 141 140
0.07454182 0.23420899 0.72192955 143 139 139
0.07554825 0.23346309 0.71963042 138 134 134
0.07630605 0.23198548 0.71507579 136 133 134
0.07746029 0.23174103 0.71432227 137 136 136
0.07869494 0.23174103 0.71432227 140 139 139
0.07976149 0.23125367 0.71281999 140 139 139
0.08082356 0.23076835 0.71132410 144 144 144
0.08196703 0.23052646 0.71057844 148 148 148
0.08319520 0.23052646 0.71057844 154 155 153
0.08433498 0.23028506 0.70983440 161 161 161
0.08547237 0.23004419 0.70909190 167 167 167
0.08606777 0.22837201 0.70393753 173 173 173
0.08701340 0.22766277 0.70175141 174 174 174
0.08831774 0.22789869 0.70247859 177 177 177
0.08962480 0.22813511 0.70320731 177 177 177
0.09084024 0.22813511 0.70320731 176 176 176
0.09234305 0.22884728 0.70540255 178 178 178
0.09317446 0.22789869 0.70247859 178 178 178
0.09419341 0.22742735 0.70102566 179 178 176
0.09530652 0.22719240 0.70030147 180 178 175
0.09651694 0.22719240 0.70030147 179 176 170
0.40030128 0.38582850 1.18928397 170 170 169
0.40095001 0.38447943 1.18512559 174 174 172
0.39743981 0.37917629 1.16877902 174 173 171
0.39672393 0.37657917 1.16077375 174 173 171
0.39873022 0.37657917 1.16077375 174 173 171
0.40073654 0.37657917 1.16077375 175 173 171
0.40136829 0.37529391 1.15681207 177 173 170
0.40268058 0.37465459 1.15484130 181 176 170
0.40398839 0.37401742 1.15287733 179 173 167
0.21581347 0.17330357 0.53419375 171 172 168
0.21656612 0.17316712 0.53377312 175 176 173
0.21731758 0.17303087 0.53335315 177 178 170
0.21841128 0.17316712 0.53377312 175 177 168
0.21933387 0.17316712 0.53377312 177 174 165
0.44772291 0.19600913 0.60418171 175 175 171
0.44677621 0.19513953 0.60150117 174 175 167
0.44702256 0.19479384 0.60043561 174 175 167
0.44766384 0.19462146 0.59990430 177 177 167
0.44790795 0.19427760 0.59884441 178 179 167
0.44696876 0.19342326 0.59621096 177 179 165
0.44642872 0.19274516 0.59412080 175 177 163
0.44628221 0.19223972 0.59256279 174 176 162
0.44613647 0.19173691 0.59101295 175 175 165
0.44676849 0.19156989 0.59049815 175 175 166
0.44739941 0.19140317 0.58998418 176 176 168
0.44647625 0.19057387 0.58742791 176 176 169
0.44671735 0.19024415 0.58641165 177 177 170
0.63112521 0.20611268 0.63532507 157 159 152
0.63213652 0.20572707 0.63413644 158 159 152
0.63441950 0.20611268 0.63532507 158 159 152
0.63196391 0.20496015 0.63177246 158 158 152
0.62953568 0.20382042 0.62825936 159 158 154
0.63320464 0.20325531 0.62651742 155 154 150
0.63311720 0.20288029 0.62536150 152 151 147
0.63654697 0.20363170 0.62767762 151 150 146
0.63763189 0.20363170 0.62767762 146 146 140
0.63753617 0.20325531 0.62651742 144 145 137
0.64029366 0.20344333 0.62709701 152 152 143
0.64068341 0.20288029 0.62536150 158 156 148
0.63706273 0.20139399 0.62078005 162 158 150
0.06559767 0.23470692 0.71963042 170 167 165
0.06662930 0.23396182 0.71734589 174 172 168
0.06794106 0.23420966 0.71810579 173 174 165
0.06918225 0.23420966 0.71810579 174 173 166
0.07064795 0.23495634 0.72039515 169 167 162
0.07212304 0.23570780 0.72269917 165 162 160
0.07337216 0.23570780 0.72269917 155 154 153
0.07462129 0.23570780 0.72269917 145 144 144
0.07562853 0.23495634 0.72039515 131 130 132
0.07638662 0.23346771 0.71583086 133 132 134
0.07754200 0.23322144 0.71507579 133 132 134
0.07877795 0.23322144 0.71507579 134 133 135
0.07976149 0.23248573 0.71281999 136 135 137
0.08082356 0.23199782 0.71132410 140 139 140
0.08196703 0.23175463 0.71057844 147 147 147
0.08310808 0.23151197 0.70983440 157 157 155
0.08424676 0.23126979 0.70909190 166 166 164
0.08529393 0.23078698 0.70761150 173 173 171
0.08606777 0.22958870 0.70393753 175 175 173
0.08701340 0.22887570 0.70175141 178 178 178
0.08831774 0.22911288 0.70247859 178 178 178
0.08962480 0.22935054 0.70320731 178 178 178
0.09074610 0.22911288 0.70247859 178 178 178
0.09224706 0.22982736 0.70466930 175 175 174
0.09317446 0.22911288 0.70247859 176 175 173
0.09419341 0.22863901 0.70102566 177 176 172
0.09530652 0.22840281 0.70030147 176 174 169
0.39003173 0.38185477 1.17079771 163 164 166
0.39685324 0.38652784 1.18512559 167 168 168
0.39960021 0.38720477 1.18720114 168 169 169
0.40025029 0.38585326 1.18305731 172 172 170
0.39743981 0.38119641 1.16877902 174 174 172
0.39740440 0.37923485 1.16276479 173 173 171
0.39873022 0.37858549 1.16077375 174 173 171
0.40142390 0.37923485 1.16276479 178 177 174
0.40205437 0.37793833 1.15878952 178 175 171
0.40336773 0.37729338 1.15681207 183 179 173
0.40536720 0.37729338 1.15681207 187 182 175
0.40736663 0.37729338 1.15681207 183 183 174
0.40936610 0.37729338 1.15681207 183 182 173
0.21363015 0.17395273 0.53335315 153 154 147
0.21438333 0.17381598 0.53293383 164 165 158
0.21547388 0.17395273 0.53335315 174 175 167
0.21622561 0.17381598 0.53293383 177 178 169
0.21697617 0.17367944 0.53251517 179 180 171
0.44852242 0.19740529 0.60526055 176 177 170
0.44717297 0.19635339 0.60203540 178 178 168
0.44741884 0.19600525 0.60096794 180 181 170
0.44845757 0.19600525 0.60096794 181 181 171
0.44830400 0.19548534 0.59937388 181 181 170
0.44775638 0.19479641 0.59726155 180 180 169
0.44721264 0.19411232 0.59516406 173 174 162
0.44667268 0.19343300 0.59308124 174 175 162
0.44652578 0.19292663 0.59152865 174 174 164
0.44793907 0.19309513 0.59204525 174 174 165
0.44857061 0.19292663 0.59152865 174 174 165
0.44880974 0.19259052 0.59049815 175 175 166
0.44826847 0.19192180 0.58844781 175 175 167
0.63095605 0.20643690 0.63295221 156 158 151
0.63323259 0.20682313 0.63413644 156 157 150
0.63078821 0.20566876 0.63059705 157 158 151
0.63145381 0.20377320 0.62478513 151 150 145
0.62905508 0.20265254 0.62134910 143 142 138
0.63595814 0.20452721 0.62709701 140 139 135
0.63635987 0.20396118 0.62536150 139 140 133
0.63744074 0.20396118 0.62536150 141 142 135
0.06691252 0.23620149 0.72039515 179 180 174
0.06823017 0.23645277 0.72116154 178 179 170
0.06940281 0.23620149 0.72039515 177 177 169
0.07079843 0.23670459 0.72192955 175 176 168
0.07220001 0.23720983 0.72347051 173 173 167
0.07345047 0.23720983 0.72347051 164 164 163
0.07470093 0.23720983 0.72347051 152 152 151
0.07570899 0.23645277 0.72116154 140 140 140
0.07646737 0.23495306 0.71658754 136 136 139
0.07754200 0.23445739 0.71507579 129 129 133
0.07877795 0.23445739 0.71507579 130 130 134
0.07984545 0.23396379 0.71357036 132 132 134
0.08082356 0.23322728 0.71132410 137 137 139
0.08205304 0.23322728 0.71132410 147 147 149
0.08319520 0.23298281 0.71057844 156 156 158
0.08433498 0.23273885 0.70983440 167 168 168
0.08538306 0.23225246 0.70835096 173 174 174
0.08606777 0.23080540 0.70393753 176 176 174
0.08710357 0.23032705 0.70247859 181 181 179
0.08840936 0.23056598 0.70320731 180 180 178
0.08962480 0.23056598 0.70320731 179 179 177
0.09084024 0.23056598 0.70320731 178 178 176
0.09234305 0.23128575 0.70540255 178 178 176
0.09317446 0.23032705 0.70247859 178 175 173
0.09419341 0.22985068 0.70102566 178 174 171
0.09530652 0.22961323 0.70030147 173 169 166
0.09641733 0.22937627 0.69957876 170 166 163
0.39206314 0.38587779 1.17689562 162 163 164
0.39754823 0.38925675 1.18720114 165 166 166
0.39960021 0.38925675 1.18720114 168 169 169
0.40095001 0.38857624 1.18512559 172 172 170
0.39812624 0.38387841 1.17079771 174 174 172
0.39808723 0.38189965 1.16476262 176 176 174
0.39941415 0.38124460 1.16276479 177 176 172
0.40142390 0.38124460 1.16276479 182 181 177
0.40205437 0.37994120 1.15878952 182 182 175
0.40336773 0.37929285 1.15681207 184 183 175
0.40536720 0.37929285 1.15681207 185 183 175
0.40736663 0.37929285 1.15681207 184 182 174
0.40936610 0.37929285 1.15681207 184 182 174
0.41277435 0.38059178 1.16077375 184 181 173
0.21254107 0.17473711 0.53293383 151 151 144
0.21346220 0.17473711 0.53293383 156 156 149
0.21404679 0.17446280 0.53209722 165 166 157
0.21530448 0.17473711 0.53293383 173 173 164
0.21605575 0.17459984 0.53251517 175 175 166
0.21680585 0.17446280 0.53209722 177 176 167
0.45013002 0.19916272 0.60742998 179 180 169
0.44916752 0.19827440 0.60472065 186 184 174
0.44861197 0.19756943 0.60257053 186 184 173
0.44885549 0.19721882 0.60150117 183 181 170
0.44870073 0.19669522 0.59990430 180 178 167
0.44815123 0.19600141 0.59778821 178 177 166
0.44799927 0.19548427 0.59621096 173 173 164
0.44667268 0.19445810 0.59308124 170 170 161
0.44896236 0.19411843 0.59204525 174 173 169
0.44920105 0.19377995 0.59101295 173 172 167
0.63332140 0.20830891 0.63532507 160 161 153
0.63382548 0.20811386 0.63473016 161 162 154
0.63078821 0.20675869 0.63059705 161 162 153
0.63261992 0.20523140 0.62593889 148 148 141
0.63253373 0.20485309 0.62478513 144 143 138
0.63822281 0.20599222 0.62825936 144 143 139
0.63635987 0.20504206 0.62536150 140 140 136
0.06947665 0.23769924 0.72116154 179 179 170
0.07079843 0.23795238 0.72192955 176 177 168
0.07220001 0.23846029 0.72347051 174 175 168
0.07337216 0.23820606 0.72269917 176 175 171
0.07462129 0.23820606 0.72269917 166 165 162
0.07562853 0.23744664 0.72039515 156 155 153
0.07646737 0.23619163 0.71658754 141 141 141
0.07754200 0.23569334 0.71507579 123 123 124
0.07877795 0.23569334 0.71507579 126 126 130
0.07984545 0.23519714 0.71357036 130 130 132
0.08090846 0.23470303 0.71207124 134 135 138
0.08205304 0.23445675 0.71132410 142 143 146
0.08328250 0.23445675 0.71132410 150 154 155
0.08442338 0.23421098 0.71057844 161 163 165
0.08547237 0.23372100 0.70909190 169 170 171
0.08624689 0.23250498 0.70540255 174 174 173
0.08719393 0.23178141 0.70320731 180 180 179
0.08840936 0.23178141 0.70320731 179 179 178
0.08971787 0.23202211 0.70393753 178 178 178
0.09093457 0.23202211 0.70393753 180 179 177
0.09224706 0.23226328 0.70466930 179 178 176
0.09317446 0.23154123 0.70247859 178 173 171
0.09419341 0.23106234 0.70102566 175 171 168
0.09530652 0.23082364 0.70030147 171 167 164
0.39344427 0.39130872 1.18720114 154 155 158
0.39619011 0.39199522 1.18928397 160 161 161
0.39964795 0.39337549 1.19347155 165 166 165
0.40171078 0.39337549 1.19347155 170 171 169
0.40235686 0.39199522 1.18928397 173 173 171
0.40089580 0.38858658 1.17894232 176 176 173
0.39945996 0.38523671 1.16877902 181 181 177
0.40148008 0.38523671 1.16877902 182 182 176
0.40280575 0.38457364 1.16676736 182 182 175
0.40274283 0.38259810 1.16077375 184 184 177
0.40474913 0.38259810 1.16077375 185 185 177
0.40606013 0.38194406 1.15878952 183 183 176
0.40806299 0.38194406 1.15878952 183 183 174
0.41006589 0.38194406 1.15878952 183 183 174
0.41348237 0.38325435 1.16276479 181 180 171
0.41549212 0.38325435 1.16276479 180 177 169
0.21178643 0.17579645 0.53335315 142 142 137
0.21237412 0.17552026 0.53251517 144 144 138
0.21329452 0.17552026 0.53251517 151 151 144
0.21404679 0.17538248 0.53209722 156 156 149
0.21513534 0.17552026 0.53251517 165 165 158
0.21605575 0.17552026 0.53251517 166 166 157
0.21680585 0.17538248 0.53209722 166 166 157
0.45134330 0.20075227 0.60906726 181 181 170
0.45117989 0.20021261 0.60742998 183 181 171
0.45021272 0.19931962 0.60472065 185 182 172
0.44965345 0.19861092 0.60257053 185 182 172
0.44949630 0.19808270 0.60096794 182 179 169
0.44894302 0.19738276 0.59884441 180 177 167
0.44839364 0.19668774 0.59673578 178 176 166
0.44667268 0.19548319 0.59308124 175 174 164
0.44935483 0.19531231 0.59256279 170 170 161
0.44959301 0.19497146 0.59152865 166 165 159
0.63332140 0.20940702 0.63532507 161 162 155
0.63323259 0.20901524 0.63413644 167 168 159
0.63020194 0.20765547 0.63001102 172 173 164
0.62895274 0.20688638 0.62767762 174 175 165
0.63320464 0.20650396 0.62651742 160 161 152
0.63370180 0.20631328 0.62593889 165 165 156
0.06955063 0.23920017 0.72192955 177 175 168
0.07079843 0.23920017 0.72192955 175 175 168
0.07212304 0.23945519 0.72269917 175 175 168
0.07329403 0.23920017 0.72192955 174 173 168
0.07454182 0.23920017 0.72192955 173 172 168
0.07554825 0.23843840 0.71963042 163 162 160
0.07638662 0.23717947 0.71583086 147 147 147
0.07746029 0.23667963 0.71432227 136 136 137
0.07869494 0.23667963 0.71432227 129 130 133
0.07984545 0.23643050 0.71357036 127 128 133
0.08082356 0.23568621 0.71132410 133 135 140
0.08205304 0.23568621 0.71132410 136 139 145
0.08328250 0.23568621 0.71132410 147 151 154
0.08451197 0.23568621 0.71132410 158 161 163
0.08556186 0.23519263 0.70983440 167 168 170
0.08642676 0.23421164 0.70687366 170 171 172
0.08728447 0.23323880 0.70393753 175 176 177
0.08840936 0.23299685 0.70320731 177 177 177
0.08981113 0.23348126 0.70466930 178 178 178
0.09102909 0.23348126 0.70466930 180 178 177
0.09224706 0.23348126 0.70466930 179 174 172
0.09317446 0.23275541 0.70247859 177 171 169
0.09409611 0.23203406 0.70030147 177 171 169
0.09530652 0.23203406 0.70030147 173 167 165
0.40681010 0.40252504 1.21485996 163 164 164
0.40672323 0.40037248 1.20836341 170 171 171
0.40377361 0.39543831 1.19347155 175 176 174
0.40299842 0.39267302 1.18512559 179 179 177
0.40293351 0.39062428 1.17894232 183 182 178
0.40497121 0.39062428 1.17894232 182 181 177
0.40419713 0.38792568 1.17079771 180 180 175
0.40343365 0.38526410 1.16276479 181 180 176
0.40544337 0.38526410 1.16276479 182 181 176
0.40675545 0.38460439 1.16077375 183 180 174
0.40876174 0.38460439 1.16077375 184 182 175
0.41076803 0.38460439 1.16077375 182 180 173
0.41490570 0.38659030 1.16676736 181 178 170
0.41620600 0.38592607 1.16476262 179 176 168
0.21195321 0.17685746 0.53377312 140 139 132
0.21254107 0.17657937 0.53293383 141 139 132
0.21329452 0.17644066 0.53251517 143 142 135
0.21404679 0.17630216 0.53209722 151 148 143
0.21513534 0.17644066 0.53251517 153 150 145
0.21605575 0.17644066 0.53251517 155 154 148
0.21697617 0.17644066 0.53251517 159 158 152
0.21806787 0.17657937 0.53293383 161 157 154
0.21881698 0.17644066 0.53251517 161 159 155
0.91636288 0.44389123 1.33970726 165 161 152
0.45117989 0.20126252 0.60742998 181 181 170
0.45061469 0.20054372 0.60526055 181 181 170
0.44965345 0.19965242 0.60257053 183 183 172
0.44949630 0.19912142 0.60096794 184 182 172
0.44894302 0.19841781 0.59884441 183 180 170
0.44918448 0.19806787 0.59778821 181 178 168
0.63391554 0.21070260 0.63592106 166 166 164
0.63205004 0.20971893 0.63295221 171 172 164
0.62961680 0.20855057 0.62942606 177 178 169
0.62837094 0.20777887 0.62709701 181 182 173
0.62945485 0.20777887 0.62709701 181 182 172
0.62937427 0.20739517 0.62593889 178 179 169
0.63045615 0.20739517 0.62593889 175 176 166
0.63320464 0.20758684 0.62651742 170 171 160
0.63311720 0.20720384 0.62536150 174 172 162
0.07094955 0.24096119 0.72347051 178 174 169
0.07220001 0.24096119 0.72347051 176 173 167
0.07337216 0.24070431 0.72269917 175 173 167
0.07454182 0.24044797 0.72192955 176 174 168
0.07554825 0.23968221 0.71963042 164 163 161
0.07638662 0.23841673 0.71583086 148 148 149
0.07754200 0.23816524 0.71507579 137 136 138
0.07877795 0.23816524 0.71507579 129 130 132
0.07984545 0.23766384 0.71357036 125 125 132
0.08082356 0.23691568 0.71132410 136 136 143
0.08205304 0.23691568 0.71132410 137 137 144
0.08328250 0.23691568 0.71132410 145 147 151
0.08451197 0.23691568 0.71132410 155 157 160
0.08565155 0.23666735 0.71057844 164 165 167
0.08651698 0.23567916 0.70761150 168 169 171
0.08737520 0.23469922 0.70466930 169 170 172
0.08840936 0.23421229 0.70320731 172 173 175
0.08981113 0.23469922 0.70466930 174 174 174
0.09102909 0.23469922 0.70466930 176 173 172
0.09234305 0.23494343 0.70540255 176 170 169
0.09317446 0.23396958 0.70247859 177 170 169
0.09419341 0.23348567 0.70102566 174 168 165
0.09530652 0.23324446 0.70030147 173 167 163
0.09651694 0.23324446 0.70030147 166 163 160
0.40195143 0.40608031 1.21922994 142 143 150
0.39974499 0.40174493 1.20621324 149 151 157
0.40689796 0.40681198 1.22142673 156 157 156
0.40900910 0.40681198 1.22142673 162 163 162
0.40964404 0.40535125 1.21704102 165 166 165
0.40520036 0.39890572 1.19768882 171 172 170
0.40441245 0.39610639 1.18928397 175 175 173
0.40575618 0.39541268 1.18720114 178 177 175
0.40852359 0.39610639 1.18928397 179 177 175
0.40700892 0.39266199 1.17894232 179 178 174
0.40552038 0.38927698 1.16877902 181 177 174
0.40683907 0.38860697 1.16676736 179 175 172
0.40885574 0.38860697 1.16676736 175 174 170
0.41016641 0.38793924 1.16476262 177 175 171
0.41217962 0.38793924 1.16476262 181 177 174
0.41705921 0.39062396 1.17282331 177 176 168
0.21254107 0.17750050 0.53293383 146 142 135
0.21329452 0.17736107 0.53251517 146 142 134
0.21404679 0.17722185 0.53209722 148 143 138
0.21513534 0.17736107 0.53251517 147 142 138
0.21605575 0.17736107 0.53251517 146 140 138
0.21714674 0.17750050 0.53293383 154 148 146
0.21823944 0.17764015 0.53335315 154 149 148
0.21898900 0.17750050 0.53293383 151 146 145
0.89729601 0.44709039 1.34236014 157 148 148
0.90941614 0.44620681 1.33970726 146 143 141
0.90635806 0.44357690 1.33181107 151 149 145
0.90687829 0.44270715 1.32919967 155 154 148
0.91275513 0.44445008 1.33443272 159 158 151
0.63451076 0.21200061 0.63651818 168 169 164
0.63146049 0.21061628 0.63236177 171 172 164
0.62903273 0.20944402 0.62884218 175 176 167
0.62837094 0.20886277 0.62709701 179 180 171
0.62887305 0.20866972 0.62651742 178 179 170
0.62879366 0.20828474 0.62536150 176 177 168
0.63320464 0.20866972 0.62651742 175 176 166
0.07094955 0.24221165 0.72347051 178 174 171
0.07220001 0.24221165 0.72347051 176 172 168
0.07337216 0.24195345 0.72269917 175 172 168
0.07454182 0.24169576 0.72192955 172 168 165
0.07554825 0.24092604 0.71963042 161 158 156
0.07638662 0.23965399 0.71583086 152 149 150
0.07754200 0.23940119 0.71507579 142 139 141
0.07877795 0.23940119 0.71507579 134 130 133
0.07992958 0.23914891 0.71432227 123 123 126
0.08090846 0.23839530 0.71207124 130 131 133
0.08205304 0.23814514 0.71132410 133 134 138
0.08336998 0.23839530 0.71207124 142 143 147
0.08451197 0.23814514 0.71132410 148 149 153
0.08574143 0.23814514 0.71132410 158 159 161
0.08669797 0.23739783 0.70909190 166 167 168
0.08755723 0.23640868 0.70613736 169 169 170
0.08859317 0.23591718 0.70466930 167 168 167
0.08999824 0.23640868 0.70613736 168 168 166
0.09121874 0.23640868 0.70613736 170 168 166
0.09243924 0.23640868 0.70613736 161 156 156
0.09327111 0.23542772 0.70320731 172 163 164
0.09419341 0.23469734 0.70102566 170 161 162
0.09540508 0.23469734 0.70102566 169 160 161
0.09661674 0.23469734 0.70102566 167 158 157
0.09782841 0.23469734 0.70102566 157 150 150
0.39836898 0.40454960 1.20836341 142 142 149
0.39691994 0.40097585 1.19768882 147 148 154
0.40398633 0.40599701 1.21268666 151 152 154
0.40827346 0.40818763 1.21922994 159 159 160
0.40890992 0.40672460 1.21485996 161 162 161
0.40520036 0.40097585 1.19768882 163 163 161
0.40512317 0.39886174 1.19137406 167 167 165
0.40646800 0.39816198 1.18928397 171 169 167
0.40852359 0.39816198 1.18928397 173 171 169
0.40771800 0.39538732 1.18099630 175 171 168
0.40622073 0.39197293 1.17079771 174 170 168
0.40895069 0.39265108 1.17282331 177 173 172
0.41026801 0.39197293 1.17079771 177 173 172
0.41087240 0.39062363 1.16676736 177 173 172
0.41360092 0.39129710 1.16877902 177 173 172
0.41996554 0.39538732 1.18099630 177 176 170
0.21254107 0.17842165 0.53293383 146 145 136
0.21329452 0.17828149 0.53251517 146 144 136
0.21404679 0.17814155 0.53209722 150 147 139
0.21513534 0.17828149 0.53251517 151 145 139
0.21588616 0.17814155 0.53209722 151 144 140
0.89320713 0.44852239 1.33970726 154 151 149
0.89729601 0.44941056 1.34236014 151 144 146
0.89606738 0.44763774 1.33706474 148 142 143
0.88960516 0.44326627 1.32400751 143 140 141
0.88842320 0.44154149 1.31885576 141 138 138
0.90122288 0.44675654 1.33443272 140 138 138
0.90531141 0.44763774 1.33706474 142 141 141
0.90405613 0.44587883 1.33181107 147 147 146
0.89754134 0.44154149 1.31885576 151 151 149
0.89633322 0.43983009 1.31374383 152 152 149
0.90210044 0.44154149 1.31885576 156 157 150
0.90087461 0.43983009 1.31374383 164 165 158
0.63087195 0.21151195 0.63177246 170 171 163
0.62844980 0.21033581 0.62825936 172 173 164
0.62779021 0.20975262 0.62651742 174 175 166
0.62887305 0.20975262 0.62651742 174 175 166
0.06977355 0.24372223 0.72424340 178 176 172
0.07102535 0.24372223 0.72424340 179 175 172
0.07227714 0.24372223 0.72424340 171 170 164
0.07345047 0.24346212 0.72347051 172 171 166
0.07470093 0.24346212 0.72347051 164 163 159
0.07578962 0.24294357 0.72192955 157 156 154
0.07662938 0.24165680 0.71810579 149 147 147
0.07778817 0.24140106 0.71734589 142 139 140
0.07919565 0.24191305 0.71886730 129 128 130
0.08018307 0.24114588 0.71658754 117 117 120
0.08107880 0.24013053 0.71357036 128 128 131
0.08213922 0.23962606 0.71207124 132 133 137
0.08345765 0.23987803 0.71281999 138 138 141
0.08468970 0.23987803 0.71281999 145 145 146
0.08574143 0.23937461 0.71132410 153 153 151
0.08678876 0.23887330 0.70983440 159 159 157
0.08783171 0.23837410 0.70835096 169 168 166
0.08887031 0.23787697 0.70687366 165 165 161
0.09018613 0.23812526 0.70761150 160 159 157
0.09140918 0.23812526 0.70761150 155 154 152
0.09253563 0.23787697 0.70687366 147 145 147
0.09327111 0.23664317 0.70320731 154 147 151
0.09429093 0.23615322 0.70175141 157 150 154
0.09550384 0.23615322 0.70175141 154 145 150
0.09671676 0.23615322 0.70175141 148 139 142
0.09792969 0.23615322 0.70175141 146 139 141
0.38933387 0.40162677 1.19347155 155 151 152
0.39277971 0.40304595 1.19768882 151 151 155
0.39695382 0.40519363 1.20407081 144 144 148
0.39691994 0.40304595 1.19768882 148 148 151
0.40040490 0.40447518 1.20193589 148 148 150
0.40608236 0.40809304 1.21268666 148 148 150
0.40672323 0.40663818 1.20836341 149 149 149
0.40520036 0.40304595 1.19768882 152 152 151
0.40512317 0.40092093 1.19137406 156 156 155
0.40718237 0.40092093 1.19137406 161 159 159
0.40924156 0.40092093 1.19137406 166 164 163
0.40771800 0.39742857 1.18099630 168 166 165
0.40552038 0.39331725 1.16877902 168 165 164
0.40754050 0.39331725 1.16877902 170 166 165
0.40885574 0.39264029 1.16676736 168 166 164
0.41016641 0.39196566 1.16476262 171 169 167
0.41288903 0.39264029 1.16676736 173 169 168
0.41996554 0.39742857 1.18099630 171 168 164
0.21270829 0.17948388 0.53335315 152 149 141
0.21329452 0.17920189 0.53251517 153 153 144
0.21404679 0.17906123 0.53209722 156 156 147
0.21513534 0.17920189 0.53251517 152 149 141
0.89089155 0.45083797 1.33970726 158 157 153
0.89144540 0.44994873 1.33706474 158 156 153
0.89552271 0.45083797 1.33970726 153 149 149
0.89606738 0.44994873 1.33706474 147 142 143
0.88960516 0.44555470 1.32400751 141 139 139
0.88669813 0.44295925 1.31629479 138 137 137
0.89593190 0.44642663 1.32659853 138 137 137
0.90175420 0.44818076 1.33181107 140 139 139
0.89875895 0.44555470 1.32400751 143 143 142
0.89233321 0.44124568 1.31120276 145 145 143
0.89115208 0.43954530 1.30614996 146 146 144
0.89513439 0.44039384 1.30867147 154 155 147
0.89566725 0.43954530 1.30614996 162 163 154
0.89965826 0.44039384 1.30867147 164 165 156
0.06866848 0.24549860 0.72579426 178 174 171
0.06977355 0.24497403 0.72424340 177 173 169
0.07110132 0.24523602 0.72501802 174 169 164
0.07235445 0.24523602 0.72501802 169 168 162
0.07345047 0.24471258 0.72347051 165 164 158
0.07470093 0.24471258 0.72347051 160 159 155
0.07587042 0.24445169 0.72269917 151 151 149
0.07687368 0.24367236 0.72039515 142 142 142
0.07803590 0.24341369 0.71963042 138 138 140
0.07944840 0.24393159 0.72116154 134 134 136
0.08052354 0.24341369 0.71963042 130 129 133
0.08133565 0.24212851 0.71583086 129 128 133
0.08231214 0.24136388 0.71357036 131 131 134
0.08354550 0.24136388 0.71357036 136 135 138
0.08477885 0.24136388 0.71357036 141 141 143
0.08583149 0.24085681 0.71207124 145 144 145
0.08687973 0.24035187 0.71057844 147 146 145
0.08792359 0.23984905 0.70909190 147 146 143
0.08905604 0.23959842 0.70835096 151 150 147
0.09028036 0.23959842 0.70835096 144 144 144
0.09150469 0.23959842 0.70835096 138 138 139
0.09263223 0.23934832 0.70761150 132 132 136
0.09336796 0.23810560 0.70393753 132 131 137
0.09438863 0.23761211 0.70247859 135 133 140
0.09570199 0.23785859 0.70320731 140 135 143
0.09691742 0.23785859 0.70320731 140 135 140
0.09803116 0.23761211 0.70247859 135 132 136
0.09904008 0.23712067 0.70102566 134 134 138
0.39836898 0.40872672 1.20836341 148 148 148
0.39832744 0.40655264 1.20193589 146 146 146
0.40398633 0.41018906 1.21268666 149 149 149
0.40681010 0.41092417 1.21485996 146 146 146
0.40744951 0.40945658 1.21052110 145 145 145
0.40591753 0.40583307 1.19980860 143 143 144
0.40512317 0.40298012 1.19137406 148 148 150
0.40789923 0.40368959 1.19347155 157 158 159
0.40996206 0.40368959 1.19347155 160 160 162
0.40700892 0.39877510 1.17894232 163 160 159
0.40412682 0.39397883 1.16476262 164 161 160
0.40614003 0.39397883 1.16476262 165 161 160
0.40815324 0.39397883 1.16476262 162 158 157
0.40946287 0.39330307 1.16276479 161 157 156
0.41217962 0.39397883 1.16476262 162 158 157
0.41705921 0.39670536 1.17282331 166 162 160
0.41692236 0.39465696 1.16676736 168 165 160
0.21270829 0.18040574 0.53335315 163 160 152
0.21346220 0.18026391 0.53293383 165 165 155
0.21404679 0.17998092 0.53209722 160 161 150
0.21513534 0.18012230 0.53251517 158 155 147
0.21605575 0.18012230 0.53251517 153 150 142
0.88913435 0.45225975 1.33706474 162 162 158
0.88794267 0.45048270 1.33181107 156 156 152
0.89375639 0.45225975 1.33706474 153 152 149
0.89430350 0.45136946 1.33443272 149 147 145
0.88787103 0.44697016 1.32142663 145 143 142
0.88497972 0.44437149 1.31374383 140 139 138
0.88897324 0.44523436 1.31629479 137 136 136
0.89472300 0.44697016 1.32142663 137 136 136
0.89179182 0.44437149 1.31374383 140 139 139
0.88889450 0.44180286 1.30614996 140 140 140
0.88773113 0.44010690 1.30113602 143 143 143
0.88998008 0.44010690 1.30113602 150 151 145
0.89222896 0.44010690 1.30113602 156 158 149
0.89619803 0.44095325 1.30363810 158 160 151
0.89672679 0.44010690 1.30113602 158 159 150
0.89897573 0.44010690 1.30113602 160 161 152
0.06741401 0.24675307 0.72579426 173 170 164
0.06859504 0.24648917 0.72501802 173 170 164
0.06969909 0.24596304 0.72347051 174 170 164
0.07102535 0.24622582 0.72424340 172 167 160
0.07220001 0.24596304 0.72347051 171 164 161
0.07337216 0.24570082 0.72269917 163 157 154
0.07462129 0.24570082 0.72269917 160 155 153
0.07578962 0.24543916 0.72192955 155 153 152
0.07679208 0.24465750 0.71963042 150 148 148
0.07803590 0.24465750 0.71963042 144 145 145
0.07944840 0.24517806 0.72116154 139 139 140
0.08052354 0.24465750 0.71963042 134 135 136
0.08133565 0.24336575 0.71583086 131 132 132
0.08231214 0.24259724 0.71357036 132 132 133
0.08354550 0.24259724 0.71357036 135 135 136
0.08486818 0.24285287 0.71432227 137 136 138
0.08592175 0.24234213 0.71281999 134 130 135
0.08697090 0.24183355 0.71132410 134 131 137
0.08810791 0.24158005 0.71057844 132 130 138
0.08924254 0.24132709 0.70983440 130 130 134
0.09037480 0.24107465 0.70909190 129 129 133
0.09150469 0.24082275 0.70835096 137 137 141
0.09263223 0.24057136 0.70761150 135 135 142
0.09336796 0.23932229 0.70393753 131 131 138
0.09438863 0.23882629 0.70247859 129 128 135
0.09580136 0.23932229 0.70393753 131 129 136
0.09701806 0.23932229 0.70393753 132 128 134
0.09813286 0.23907404 0.70320731 133 129 134
0.09914260 0.23857906 0.70175141 134 130 135
0.39979428 0.41228509 1.21268666 160 159 159
0.39903495 0.40935591 1.20407081 154 154 152
0.40616611 0.41450965 1.21922994 151 151 150
0.40827346 0.41450965 1.21922994 146 146 146
0.40744951 0.41154888 1.21052110 145 145 145
0.40520036 0.40718618 1.19768882 145 145 145
0.40512317 0.40503931 1.19137406 145 146 148
0.40789923 0.40575242 1.19347155 152 153 155
0.40996206 0.40575242 1.19347155 155 155 157
0.40700892 0.40081280 1.17894232 158 157 157
0.40412682 0.39599204 1.16476262 157 156 155
0.40683907 0.39667362 1.16676736 159 155 154
0.40885574 0.39667362 1.16676736 154 150 149
0.40946287 0.39531282 1.16276479 155 151 150
0.41288903 0.39667362 1.16676736 158 154 153
0.41705921 0.39873248 1.17282331 160 156 155
0.41692236 0.39667362 1.16676736 164 160 157
0.21287578 0.18147036 0.53377312 173 171 161
0.21346220 0.18118504 0.53293383 176 174 164
0.21404679 0.18090060 0.53209722 176 173 163
0.21496648 0.18090060 0.53209722 171 168 160
0.21588616 0.18090060 0.53209722 160 157 149
0.21875578 0.18175660 0.53461504 151 145 139
0.21950671 0.18161337 0.53419375 149 144 139
0.22249861 0.18104272 0.53251517 155 156 156
0.22306857 0.18075871 0.53167987 159 160 160
0.22293840 0.17991208 0.52918959 159 158 157
0.88905317 0.45101246 1.32659853 147 147 141
0.88442302 0.44750947 1.31629479 146 145 141
0.88326794 0.44577828 1.31120276 144 143 140
0.88553429 0.44577828 1.31120276 140 139 136
0.88952112 0.44664219 1.31374383 136 135 135
0.88834858 0.44491771 1.30867147 135 134 134
0.88548225 0.44235581 1.30113602 137 137 137
0.88264871 0.43982324 1.29368675 140 140 140
0.88657671 0.44066420 1.29616034 147 147 143
0.88881701 0.44066420 1.29616034 153 154 145
0.89276433 0.44150838 1.29864335 155 156 147
0.89500892 0.44150838 1.29864335 154 152 144
0.89553791 0.44066420 1.29616034 150 149 140
0.90295774 0.44320649 1.30363810 150 147 140
0.90521097 0.44320649 1.30363810 151 148 140
0.90921271 0.44406044 1.30614996 152 146 140
0.06594771 0.24721350 0.72347051 172 172 169
0.06726997 0.24747762 0.72424340 170 167 164
0.06852176 0.24747762 0.72424340 173 171 164
0.06962478 0.24694994 0.72269917 171 168 161
0.07094955 0.24721350 0.72347051 171 167 159
0.07212304 0.24694994 0.72269917 169 161 159
0.07329403 0.24668695 0.72192955 164 155 154
0.07454182 0.24668695 0.72192955 159 151 151
0.07570899 0.24642453 0.72116154 153 149 148
0.07662938 0.24538036 0.71810579 150 147 146
0.07787057 0.24538036 0.71810579 143 144 143
0.07936397 0.24616265 0.72039515 139 140 139
0.08043815 0.24564056 0.71886730 135 136 135
0.08124985 0.24434499 0.71507579 134 134 134
0.08222559 0.24357419 0.71281999 135 135 135
0.08345765 0.24357419 0.71281999 135 135 135
0.08486818 0.24408752 0.71432227 137 136 136
0.08592175 0.24357419 0.71281999 142 137 147
0.08697090 0.24306302 0.71132410 140 137 146
0.08820036 0.24306302 0.71132410 138 136 145
0.08924254 0.24255398 0.70983440 139 138 147
0.09037480 0.24230026 0.70909190 139 139 147
0.09160040 0.24230026 0.70909190 140 140 148
0.09263223 0.24179442 0.70761150 134 133 139
0.09336796 0.24053900 0.70393753 132 131 138
0.09448655 0.24028948 0.70320731 131 130 138
0.09580136 0.24053900 0.70393753 131 130 137
0.09701806 0.24053900 0.70393753 130 128 136
0.09813286 0.24028948 0.70320731 130 128 135
0.09924535 0.24004047 0.70247859 130 129 134
0.40267569 0.41736767 1.22142673 162 160 159
0.41251919 0.40425664 1.18305731 151 147 146
0.41384175 0.40355235 1.18099630 150 146 145
0.41515976 0.40285054 1.17894232 152 146 146
0.41865364 0.40425664 1.18305731 156 150 150
0.41908634 0.40075961 1.17282331 162 156 154
0.21346220 0.18210617 0.53293383 179 177 168
0.21404679 0.18182029 0.53209722 177 174 164
0.21496648 0.18182029 0.53209722 164 158 151
0.21588616 0.18182029 0.53209722 161 154 147
0.21714674 0.18210617 0.53293383 151 143 137
0.21858341 0.18253668 0.53419375 153 145 139
0.21933387 0.18239295 0.53377312 149 141 135
0.22008316 0.18224946 0.53335315 147 140 136
0.22117904 0.18239295 0.53377312 150 145 143
0.22192687 0.18224946 0.53335315 149 147 146
0.22267354 0.18210617 0.53293383 150 149 147
0.22306857 0.18167768 0.53167987 154 154 153
0.22328702 0.18110950 0.53001708 153 153 152
0.22315624 0.18026385 0.52754229 154 152 151
0.88437939 0.44631803 1.30614996 136 135 135
0.88323337 0.44460469 1.30113602 128 128 128
0.88041270 0.44205925 1.29368675 131 131 131
0.87762415 0.43954280 1.28632224 139 139 139
0.87984747 0.43954280 1.28632224 146 145 144
0.88374770 0.44037843 1.28876781 156 155 150
0.88766283 0.44121724 1.29122257 155 154 149
0.88989460 0.44121724 1.29122257 148 146 139
0.89212638 0.44121724 1.29122257 143 140 133
0.89949811 0.44375297 1.29864335 144 141 135
0.90001857 0.44290450 1.29616034 150 147 141
0.90225887 0.44290450 1.29616034 157 153 146
0.90449917 0.44290450 1.29616034 161 154 149
0.99121237 0.38670960 1.13170588 120 120 120
0.98821908 0.38478246 1.12606621 114 114 114
0.98852336 0.38414437 1.12419879 109 109 109
0.99211174 0.38478246 1.12606621 108 110 109
0.95633197 0.36307061 1.06252635 171 173 162
0.06587740 0.24819908 0.72269917 174 174 170
0.06719817 0.24846396 0.72347051 175 174 170
0.06844863 0.24846396 0.72347051 175 174 168
0.06955063 0.24793476 0.72192955 173 172 165
0.07079843 0.24793476 0.72192955 172 168 162
0.07204623 0.24793476 0.72192955 168 162 158
0.07321605 0.24767099 0.72116154 161 155 151
0.07446253 0.24767099 0.72116154 155 151 150
0.07554825 0.24714515 0.71963042 151 147 146
0.07646737 0.24610014 0.71658754 147 144 143
0.07762388 0.24584027 0.71583086 140 141 139
0.07911175 0.24662153 0.71810579 138 138 136
0.08018307 0.24610014 0.71658754 134 134 133
0.08107880 0.24506393 0.71357036 137 137 137
0.08205304 0.24429248 0.71132410 136 136 136
0.08328250 0.24429248 0.71132410 134 134 135
0.08468970 0.24480624 0.71281999 141 140 141
0.08583149 0.24454910 0.71207124 142 139 144
0.08697090 0.24429248 0.71132410 147 146 151
0.08810791 0.24403641 0.71057844 149 149 155
0.08924254 0.24378087 0.70983440 149 149 155
0.09046943 0.24378087 0.70983440 147 148 152
0.09160040 0.24352588 0.70909190 148 149 152
0.09263223 0.24301746 0.70761150 149 150 153
0.09346502 0.24200700 0.70466930 140 141 145
0.09448655 0.24150491 0.70320731 136 137 142
0.09580136 0.24175569 0.70393753 135 136 143
0.09711891 0.24200700 0.70466930 131 131 138
0.09813286 0.24150491 0.70320731 130 129 136
0.09924535 0.24125464 0.70247859 129 128 135
0.41263476 0.40843987 1.18928397 153 147 145
0.41541913 0.40915769 1.19137406 156 150 148
0.41674593 0.40843987 1.18928397 156 150 148
0.41880152 0.40843987 1.18928397 157 148 147
0.42159674 0.40915769 1.19137406 155 146 145
0.21363015 0.18317130 0.53335315 177 176 167
0.21421494 0.18288353 0.53251517 177 174 164
0.21496648 0.18273997 0.53209722 168 164 154
0.21588616 0.18273997 0.53209722 163 158 149
0.21714674 0.18302731 0.53293383 157 150 142
0.21858341 0.18346000 0.53419375 153 145 138
0.21933387 0.18331553 0.53377312 149 141 135
0.22008316 0.18317130 0.53335315 144 137 131
0.22117904 0.18331553 0.53377312 143 138 133
0.22210161 0.18331553 0.53377312 145 143 138
0.22267354 0.18302731 0.53293383 147 146 142
0.22306857 0.18259665 0.53167987 149 148 144
0.22363673 0.18231067 0.53084719 152 151 148
0.22385307 0.18174140 0.52918959 154 153 151
0.87929672 0.44599757 1.29864335 136 134 134
0.87483758 0.44260594 1.28876781 128 128 128
0.87209123 0.44009590 1.28145909 126 126 127
0.86937582 0.43761417 1.27423275 135 135 136
0.86994302 0.43679312 1.27184212 138 138 138
0.87542617 0.43843830 1.27663243 141 140 138
0.87763274 0.43843830 1.27663243 139 138 135
0.87653780 0.43679312 1.27184212 137 134 130
0.88371009 0.43926552 1.27904117 136 132 128
0.89435816 0.44344902 1.29122257 141 138 132
0.89149565 0.44092941 1.28388608 153 150 143
0.89034224 0.43926552 1.27904117 165 162 155
0.89087206 0.43843830 1.27663243 161 160 146
0.69874346 0.29619685 0.86245781 157 156 154
0.69934440 0.29582050 0.86136192 169 169 163
0.68935651 0.28671274 0.83484215 175 175 166
0.68741316 0.28530726 0.83074981 175 175 166
0.99620169 0.39062202 1.13740242 122 122 121
0.99151319 0.38801789 1.12981975 116 116 116
0.99346596 0.38801789 1.12981975 110 110 110
0.99541879 0.38801789 1.12981975 122 124 123
0.99737155 0.38801789 1.12981975 131 134 134
0.99435264 0.38608745 1.12419879 139 142 140
0.95633197 0.36490712 1.06252635 170 170 161
0.94338191 0.35927582 1.04612935 169 169 160
0.06580725 0.24918255 0.72192955 178 178 174
0.06712653 0.24944820 0.72269917 178 177 173
0.06837565 0.24944820 0.72269917 177 175 170
0.06955063 0.24918255 0.72192955 176 173 167
0.07072312 0.24891746 0.72116154 177 169 163
0.07196958 0.24891746 0.72116154 170 164 158
0.07321605 0.24891746 0.72116154 162 157 152
0.07438339 0.24865294 0.72039515 155 153 147
0.07538819 0.24786273 0.71810579 149 148 143
0.07630605 0.24681689 0.71507579 142 142 138
0.07754200 0.24681689 0.71507579 137 138 136
0.07886114 0.24707752 0.71583086 132 132 130
0.07992958 0.24655682 0.71432227 124 124 123
0.08090846 0.24577984 0.71207124 137 137 139
0.08196703 0.24526459 0.71057844 141 141 143
0.08319520 0.24526459 0.71057844 144 144 146
0.08451197 0.24552195 0.71132410 157 158 161
0.08574143 0.24552195 0.71132410 155 156 160
0.08687973 0.24526459 0.71057844 155 155 159
0.08810791 0.24526459 0.71057844 159 160 164
0.08924254 0.24500777 0.70983440 160 161 163
0.09037480 0.24475148 0.70909190 158 159 161
0.09150469 0.24449573 0.70835096 158 161 161
0.09263223 0.24424052 0.70761150 160 163 163
0.09346502 0.24322496 0.70466930 152 156 156
0.09448655 0.24272035 0.70320731 146 150 151
0.09580136 0.24297239 0.70393753 142 146 148
0.09701806 0.24297239 0.70393753 135 139 141
0.09813286 0.24272035 0.70320731 127 130 132
0.09934829 0.24272035 0.70320731 128 129 133
0.17919560 0.22262837 0.64499700 141 136 131
0.21396685 0.18438330 0.53419375 178 178 168
0.21421494 0.18380395 0.53251517 174 171 163
0.21496648 0.18365967 0.53209722 169 166 155
0.21588616 0.18365967 0.53209722 167 163 149
0.21731758 0.18409316 0.53335315 162 158 144
0.21841128 0.18423812 0.53377312 150 144 131
0.21933387 0.18423812 0.53377312 146 139 132
0.22008316 0.18409316 0.53335315 140 134 128
0.22117904 0.18423812 0.53377312 131 131 128
0.22210161 0.18423812 0.53377312 133 133 130
0.22267354 0.18394844 0.53293383 139 139 137
0.22324365 0.18365967 0.53209722 145 145 142
0.22381200 0.18337180 0.53126317 147 147 143
0.22437854 0.18308483 0.53043181 151 151 149
0.86888093 0.43735030 1.26708758 126 125 128
0.87107098 0.43735030 1.26708758 127 126 128
0.87000871 0.43572143 1.26236844 125 124 123
0.87381780 0.43653435 1.26472354 125 124 121
0.88425237 0.44064486 1.27663243 138 136 133
0.88313264 0.43899140 1.27184212 147 146 138
0.88037574 0.43653435 1.26472354 159 157 149
0.88256168 0.43653435 1.26472354 156 156 144
0.70171660 0.29959336 0.86797929 144 144 142
0.70052594 0.29844695 0.86465794 154 154 152
0.70112616 0.29806677 0.86355650 166 166 161
0.69817179 0.29618028 0.85809094 175 176 167
0.69217569 0.28994104 0.84001470 173 174 165
0.69105858 0.28886718 0.83690351 170 170 163
0.69165123 0.28851098 0.83587158 168 169 162
0.69139093 0.28780124 0.83381528 170 170 163
1.00804114 0.39725366 1.15091991 122 122 121
0.99984521 0.39324775 1.13931406 115 115 116
1.00013351 0.39258793 1.13740242 114 114 115
1.00378358 0.39324775 1.13931406 123 124 125
1.00575280 0.39324775 1.13931406 134 135 135
0.99932438 0.38997069 1.12981975 141 142 142
0.95483536 0.36616966 1.06086361 168 168 159
0.94192833 0.36052760 1.04451752 167 167 158
0.93508881 0.35722506 1.03494942 164 164 155
0.06462827 0.25069731 0.72269917 185 184 177
0.06580725 0.25043035 0.72192955 184 181 175
0.06837565 0.25069731 0.72269917 181 178 172
0.06947665 0.25016394 0.72116154 178 175 169
0.07072312 0.25016394 0.72116154 176 171 164
0.07196958 0.25016394 0.72116154 169 166 158
0.07313824 0.24989808 0.72039515 161 159 152
0.07430443 0.24963279 0.71963042 155 155 149
0.07530841 0.24884032 0.71734589 148 149 145
0.07630605 0.24805284 0.71507579 138 139 137
0.07746029 0.24779145 0.71432227 133 134 134
0.07869494 0.24779145 0.71432227 132 132 132
0.07984545 0.24753062 0.71357036 126 125 125
0.08082356 0.24675141 0.71132410 141 140 142
0.08188120 0.24623466 0.70983440 149 149 151
0.08310808 0.24623466 0.70983440 153 153 155
0.08442338 0.24649276 0.71057844 164 165 167
0.08565155 0.24649276 0.71057844 164 165 167
0.08678876 0.24623466 0.70983440 164 165 168
0.08801565 0.24623466 0.70983440 163 164 167
0.08905604 0.24572006 0.70835096 169 170 170
0.09028036 0.24572006 0.70835096 169 170 169
0.09140918 0.24546356 0.70761150 167 169 167
0.09263223 0.24546356 0.70761150 166 170 167
0.09346502 0.24444292 0.70466930 164 168 166
0.09448655 0.24393578 0.70320731 159 163 162
0.09580136 0.24418910 0.70393753 154 158 157
0.09711891 0.24444292 0.70466930 144 147 146
0.09823477 0.24418910 0.70393753 132 132 134
0.09955484 0.24444292 0.70466930 123 122 129
0.17902525 0.22353050 0.64438391 131 125 123
0.17844279 0.22142570 0.63831621 142 134 128
0.21421494 0.18472435 0.53251517 178 175 167
0.21605575 0.18472435 0.53251517 168 163 153
0.21714674 0.18486957 0.53293383 161 156 146
0.21841128 0.18516071 0.53377312 148 144 132
0.21916130 0.18501502 0.53335315 141 136 130
0.21991014 0.18486957 0.53293383 137 133 127
0.22083127 0.18486957 0.53293383 134 133 133
0.22192687 0.18501502 0.53335315 135 134 134
0.22267354 0.18486957 0.53293383 133 132 132
0.22306857 0.18443458 0.53167987 140 139 139
0.22381200 0.18429004 0.53126317 144 144 144
0.22437854 0.18400164 0.53043181 145 145 145
0.22547178 0.18414573 0.53084719 150 150 150
0.86346298 0.43790334 1.26236844 135 135 137
0.86725986 0.43872032 1.26472354 132 132 134
0.86944586 0.43872032 1.26472354 128 127 129
0.86839157 0.43708938 1.26002204 122 121 122
0.87219059 0.43790334 1.26236844 111 111 111
0.88093436 0.44118968 1.27184212 130 130 129
0.88147885 0.44036347 1.26946032 141 140 137
0.88037574 0.43872032 1.26472354 151 151 146
0.88091820 0.43790334 1.26236844 155 154 146
0.70171660 0.30109358 0.86797929 141 141 141
0.70052594 0.29994145 0.86465794 150 151 150
0.70202041 0.29994145 0.86465794 160 161 158
0.69905668 0.29804069 0.85917848 171 172 164
0.69965494 0.29766342 0.85809094 171 172 164
0.70202672 0.29804069 0.85917848 170 171 162
0.70351171 0.29804069 0.85917848 171 172 163
0.70232630 0.29691175 0.85592407 176 177 168
0.69851393 0.29467931 0.84948850 172 172 166
0.69389540 0.29211688 0.84210169 168 169 163
0.69191283 0.29067254 0.83793801 166 167 161
0.69336110 0.29067254 0.83793801 167 167 163
1.03136456 0.41255105 1.18928397 147 146 146
1.01174819 0.39992192 1.15287733 119 119 121
1.01030433 0.39856628 1.14896917 119 119 121
1.01427615 0.39856628 1.14896917 131 132 134
1.00603127 0.39455384 1.13740242 136 137 139
1.00294888 0.39257780 1.13170588 140 141 141
0.95334345 0.36742827 1.05920601 159 159 153
0.94047922 0.36177552 1.04291058 159 159 152
0.92941296 0.35683474 1.02866745 159 159 151
0.92140365 0.35308424 1.01785564 161 161 152
0.92316294 0.35308424 1.01785564 162 162 153
0.06830284 0.25167814 0.72192955 185 180 174
0.06940281 0.25114322 0.72039515 180 176 168
0.07057296 0.25087661 0.71963042 177 172 165
0.07181678 0.25087661 0.71963042 171 167 160
0.07298313 0.25061059 0.71886730 163 161 154
0.07414700 0.25034511 0.71810579 154 154 149
0.07514937 0.24955203 0.71583086 148 148 144
0.07622564 0.24902610 0.71432227 140 140 137
0.07737875 0.24876398 0.71357036 132 132 132
0.07852944 0.24850239 0.71281999 133 132 133
0.07967771 0.24824136 0.71207124 138 138 139
0.08073884 0.24772094 0.71057844 151 150 152
0.08179554 0.24720269 0.70909190 154 154 155
0.08302115 0.24720269 0.70909190 160 160 160
0.08433498 0.24746154 0.70983440 165 165 165
0.08556186 0.24746154 0.70983440 166 167 167
0.08660738 0.24694438 0.70835096 167 168 168
0.08783171 0.24694438 0.70835096 169 170 170
0.08887031 0.24642938 0.70687366 171 174 172
0.09009209 0.24642938 0.70687366 172 175 172
0.09131385 0.24642938 0.70687366 175 176 174
0.09253563 0.24642938 0.70687366 175 176 174
0.09336796 0.24540579 0.70393753 174 175 173
0.09448655 0.24515122 0.70320731 172 172 169
0.09580136 0.24540579 0.70393753 167 168 161
0.09711891 0.24566089 0.70466930 163 163 156
0.09823477 0.24540579 0.70393753 154 153 149
0.09965844 0.24591652 0.70540255 139 138 142
0.17876111 0.22571707 0.64746118 118 114 111
0.17919560 0.22485802 0.64499700 123 120 116
0.17861098 0.22273871 0.63891786 127 122 117
0.21714674 0.18579070 0.53293383 158 153 146
0.21823944 0.18593688 0.53335315 149 144 138
0.21881698 0.18564476 0.53251517 138 134 131
0.21973740 0.18564476 0.53251517 134 130 128
0.22065780 0.18564476 0.53251517 131 129 128
0.22192687 0.18593688 0.53335315 133 131 130
0.22249861 0.18564476 0.53251517 135 134 134
0.22306857 0.18535355 0.53167987 137 136 136
0.22363673 0.18506326 0.53084719 139 138 138
0.86659998 0.44505796 1.27663243 166 167 161
0.86554646 0.44338796 1.27184212 164 165 160
0.86450082 0.44173041 1.26708758 155 156 155
0.86507392 0.44090629 1.26472354 145 146 147
0.86888093 0.44173041 1.26708758 136 137 138
0.87270218 0.44255763 1.26946032 125 126 126
0.87000871 0.44008523 1.26236844 119 120 120
0.88425237 0.44505796 1.27663243 116 117 117
0.88313264 0.44338796 1.27184212 132 132 131
0.88202131 0.44173041 1.26708758 143 143 141
0.70081925 0.30220687 0.86686939 134 135 136
0.69963354 0.30105194 0.86355650 142 143 143
0.70023412 0.30066893 0.86245781 149 150 150
0.69905668 0.29952571 0.85917848 158 158 156
0.69965494 0.29914656 0.85809094 158 158 155
0.70291758 0.29990581 0.86026883 158 159 154
0.70351171 0.29952571 0.85917848 161 162 155
0.70232630 0.29839113 0.85592407 165 166 159
0.70114982 0.29726511 0.85269415 161 162 156
0.69823223 0.29540721 0.84736478 161 161 157
0.69448817 0.29320815 0.84105688 164 164 160
0.69507951 0.29284483 0.84001470 166 166 162
1.03475511 0.41680032 1.19557643 149 149 147
