ply
format ascii 1.0
element vertex 1086
property float x
property float y
property float z
property uchar red
property uchar green
property uchar blue
end_header
-0.54995412 0.14982276 0.86519620 54 51 56
-0.54998789 0.17138153 0.85661315 39 36 42
-0.55009283 0.16096566 0.86072711 45 40 46
-0.55002136 0.19033656 0.84913899 32 30 35
-0.54982236 0.21625331 0.83856888 27 24 31
-0.54997181 0.20637937 0.84268760 27 25 32
-0.55001350 0.22988729 0.83273904 26 24 29
-0.54947283 0.25889027 0.81984700 22 21 30
-0.54996550 0.24890014 0.82434252 24 23 29
-0.55003169 0.26994960 0.81475149 21 20 27
-0.54997102 0.29045145 0.80512911 20 20 25
-0.55010411 0.31077040 0.79533977 21 20 27
-0.54800571 0.30106362 0.80011926 21 20 26
-0.54997318 0.33034523 0.78585486 24 23 31
-0.55012082 0.35175465 0.77590913 25 24 33
-0.54916978 0.34179499 0.78055684 25 24 33
-0.54999195 0.37021120 0.76714844 25 24 34
-0.55017958 0.39278532 0.75667576 25 23 34
-0.54958195 0.38274934 0.76126811 24 23 33
-0.54998237 0.41019283 0.74837755 16 15 21
-0.55003781 0.42103046 0.74221328 0 0 0
-0.53005682 -0.54430275 0.81303755 0 0 0
-0.52993742 -0.52998573 0.81501697 0 0 0
-0.53036715 -0.51053505 0.81812828 0 0 0
-0.52321097 -0.50157824 0.82021833 0 0 0
-0.52620155 -0.50382080 0.89572583 48 39 40
-0.52932628 -0.51286257 0.91573869 49 42 44
-0.53032531 -0.50739251 0.92095456 51 42 45
-0.53715269 -0.49894981 0.81985941 0 0 0
-0.52982203 -0.48983239 0.82244892 0 0 0
-0.52459884 -0.48377750 0.85322081 37 33 36
-0.53036282 -0.49003704 0.86534276 40 36 38
-0.52989508 -0.48997878 0.92260296 52 45 46
-0.52918109 -0.47639892 0.82582441 0 0 0
-0.53559444 -0.47973527 0.84031367 20 17 19
-0.53021691 -0.46964103 0.92326255 56 48 50
-0.53012065 -0.45012976 0.92376231 61 52 52
-0.52984142 -0.43009047 0.92399920 65 56 57
-0.52989656 -0.41017028 0.92409538 67 57 58
-0.52988901 -0.39019940 0.92408210 72 61 63
-0.52992365 -0.37025833 0.92414250 78 68 68
-0.53002128 -0.35035647 0.92431280 84 71 72
-0.53013597 -0.32965899 0.92451286 94 80 77
-0.53020802 -0.30972691 0.92463855 98 88 81
-0.53009047 -0.28964196 0.92477545 103 89 83
-0.52957250 -0.26985619 0.92492440 104 90 86
-0.52967621 -0.24992181 0.92510551 107 93 89
-0.52979480 -0.22998622 0.92531270 108 94 90
-0.52991705 -0.21004294 0.92552622 109 96 91
-0.53002115 -0.19008429 0.92570802 111 96 92
-0.53008387 -0.17010436 0.92581760 112 99 94
-0.53011105 -0.15010960 0.92586514 114 97 93
-0.53015523 -0.13011688 0.92594232 116 98 93
-0.53021054 -0.11012314 0.92603900 114 97 93
-0.53021808 -0.09011744 0.92605224 115 98 95
-0.53015201 -0.07010113 0.92593658 114 99 96
-0.53012845 -0.05009365 0.92589541 114 98 94
-0.53006106 -0.03008612 0.92577760 111 96 92
-0.52977675 -0.00048003 0.91972679 120 101 97
-0.52991848 -0.01093025 0.92345845 112 93 90
-0.53004783 0.00982384 0.91572595 131 117 108
-0.52998834 0.02931849 0.90847263 144 132 122
-0.52995374 0.04944229 0.90305179 106 97 99
-0.53007313 0.07229998 0.89668405 115 117 121
-0.52941778 0.06175394 0.90061398 108 108 112
-0.52997612 0.09020385 0.88960203 105 110 120
-0.52989717 0.11723572 0.87874383 112 119 133
-0.53001435 0.10709134 0.88279757 117 121 133
-0.53002541 0.13015839 0.87343936 113 116 125
-0.52993221 0.14989480 0.86536479 68 65 70
-0.53004698 0.17123708 0.85665417 42 39 45
-0.53004632 0.16097711 0.86078835 48 43 48
-0.52998280 0.19028789 0.84902100 36 32 38
-0.52981080 0.21619634 0.83845009 27 25 32
-0.52998444 0.20634759 0.84255786 30 27 34
-0.53000498 0.22982276 0.83268023 26 23 31
-0.52965460 0.25890018 0.81987839 24 24 29
-0.52996045 0.24896122 0.82429686 25 23 30
-0.52995237 0.26999446 0.81481802 22 21 28
-0.53004576 0.29044254 0.80537084 21 20 26
-0.52998520 0.31106846 0.79556826 21 20 27
-0.52959572 0.30107589 0.80038184 22 21 25
-0.53000404 0.32992966 0.78650215 22 21 30
-0.53006496 0.35192309 0.77635616 25 24 34
-0.52985885 0.34179684 0.78101613 24 23 32
-0.52993725 0.37000909 0.76786914 26 25 35
-0.53027467 0.39367498 0.75705134 25 23 35
-0.52952908 0.38362242 0.76157377 26 24 35
-0.52992190 0.41029460 0.74864293 11 10 15
-0.52976880 0.42123439 0.74257279 0 0 0
-0.50957668 -0.54472996 0.81425286 0 0 0
-0.51017654 -0.52990349 0.81627216 0 0 0
-0.51092705 -0.51375144 0.81885711 0 0 0
-0.50829774 -0.50423375 0.82083889 0 0 0
-0.50836320 -0.50927326 0.91397958 48 40 45
-0.51027715 -0.50583221 0.92115141 50 42 46
-0.51007558 -0.48984552 0.82410098 0 0 0
-0.51388603 -0.48433440 0.85651933 21 20 20
-0.50313026 -0.49109235 0.87522676 41 35 39
-0.51225959 -0.49776383 0.88665828 39 34 40
-0.51010058 -0.49022079 0.92283736 53 44 46
-0.50970563 -0.47520578 0.82787088 0 0 0
-0.50396549 -0.47913873 0.84696138 0 0 0
-0.50983955 -0.46959195 0.92350848 55 47 49
-0.50989996 -0.45007278 0.92403869 61 52 52
-0.51002789 -0.43021675 0.92427047 64 55 56
-0.51008824 -0.41029657 0.92437994 67 57 59
-0.51007639 -0.39031615 0.92435851 72 61 63
-0.50990376 -0.36985427 0.92439861 80 68 68
-0.51039727 -0.34998134 0.92458016 83 72 71
-0.51031588 -0.32975865 0.92479239 91 79 77
-0.51038803 -0.30982224 0.92492314 100 86 83
-0.51028833 -0.29002534 0.92505666 102 89 83
-0.50974194 -0.26993694 0.92520110 104 90 86
-0.50983430 -0.24999291 0.92536873 107 93 89
-0.50996073 -0.23005713 0.92559826 107 94 90
-0.51008855 -0.21011193 0.92583030 111 97 90
-0.51019664 -0.19014967 0.92602655 113 96 91
-0.51026437 -0.17016533 0.92614956 115 98 91
-0.51022582 -0.15010473 0.92620984 115 98 93
-0.50954927 -0.13016780 0.92630482 115 99 95
-0.50961607 -0.11016912 0.92642636 114 99 95
-0.50964194 -0.09015845 0.92647347 117 99 95
-0.50961002 -0.07018578 0.92630270 117 102 94
-0.51030001 -0.05011093 0.92621424 117 100 96
-0.51019405 -0.03009437 0.92602156 112 97 92
-0.50985383 -0.00047999 0.91963316 126 103 99
-0.50992026 -0.01080119 0.92333530 116 95 92
-0.50997298 0.00981253 0.91568287 135 115 111
-0.50996099 0.02934811 0.90850236 146 133 125
-0.50994340 0.04946734 0.90333549 100 96 96
-0.51004669 0.07238898 0.89684985 107 110 117
-0.50977351 0.06176614 0.90079221 103 105 109
-0.51000411 0.09030592 0.88980514 109 116 124
-0.50991618 0.11729582 0.87897939 103 108 124
-0.51001005 0.10714225 0.88302660 127 133 143
-0.50998512 0.13017790 0.87375812 129 134 142
-0.50997095 0.14989133 0.86568882 95 93 99
-0.51003979 0.17200895 0.85644225 44 40 46
-0.51014966 0.16166952 0.86070960 52 47 54
-0.50999751 0.19032420 0.84895825 36 33 39
-0.50995970 0.21620745 0.83835615 29 26 33
-0.51003542 0.20632900 0.84248136 32 28 35
-0.51000914 0.22983647 0.83260433 27 24 31
-0.50982745 0.25890641 0.81989812 25 23 30
-0.50999980 0.24888261 0.82430605 25 23 30
-0.50993157 0.27000523 0.81486483 24 22 28
-0.51003480 0.28995522 0.80574086 22 21 27
-0.51015987 0.31132967 0.79571289 22 21 28
-0.50911732 0.30087039 0.80068870 23 21 28
-0.51006719 0.33005897 0.78683637 23 22 29
-0.50996776 0.35255845 0.77655937 25 24 32
-0.50977403 0.34250198 0.78116952 24 22 31
-0.51002844 0.37010405 0.76841896 26 25 34
-0.51019425 0.39417252 0.75759353 26 24 36
-0.50960155 0.38456083 0.76183667 26 25 35
-0.50999977 0.40995768 0.74908461 6 6 9
-0.50923975 0.42131346 0.74295249 0 0 0
-0.48989735 -0.54524718 0.81563397 0 0 0
-0.48987403 -0.53000948 0.81768085 0 0 0
-0.49313305 -0.51744244 0.81943218 0 0 0
-0.48920273 -0.50805448 0.82153561 0 0 0
-0.49161173 -0.50100172 0.89934683 44 40 41
-0.49117509 -0.50734597 0.91500441 46 41 42
-0.49014867 -0.50468729 0.92132156 50 42 44
-0.48994914 -0.49010889 0.82559070 0 0 0
-0.49272842 -0.48882807 0.87242131 26 24 26
-0.48434746 -0.49598566 0.89311355 47 41 43
-0.49026192 -0.49032567 0.92314953 53 44 45
-0.48985453 -0.47463475 0.82970989 0 0 0
-0.49069346 -0.47567628 0.84514890 20 17 19
-0.49006016 -0.47008594 0.92378377 55 47 48
-0.49006793 -0.45019395 0.92428740 61 51 52
-0.49019384 -0.43033519 0.92452494 64 55 56
-0.49007894 -0.40985883 0.92462549 67 57 58
-0.49039570 -0.38989132 0.92457971 72 61 61
-0.49023691 -0.36964493 0.92460605 79 67 67
-0.48992782 -0.34955275 0.92480702 83 72 71
-0.48965957 -0.32984161 0.92502504 90 77 76
-0.48972523 -0.30989791 0.92514908 99 85 82
-0.48979569 -0.28995157 0.92528222 102 87 83
-0.48986952 -0.27000130 0.92542170 104 90 86
-0.48995872 -0.25005272 0.92559017 106 92 88
-0.49008293 -0.23011340 0.92582481 110 94 89
-0.49021535 -0.21016744 0.92607501 113 95 90
-0.49033196 -0.19020483 0.92629542 114 96 92
-0.49041140 -0.17021967 0.92644558 114 97 93
-0.49038801 -0.15027233 0.92651861 114 98 95
-0.48970837 -0.13021349 0.92663033 116 99 95
-0.48977601 -0.11020859 0.92675832 116 99 95
-0.48981721 -0.09019370 0.92683631 118 101 97
-0.48978884 -0.07009435 0.92664678 116 100 95
-0.49044888 -0.05012737 0.92651651 117 99 95
-0.49030723 -0.03010201 0.92624884 112 98 94
-0.48994625 -0.00047995 0.91956064 125 107 99
-0.48993682 -0.01092894 0.92331085 115 97 91
-0.48990127 0.00980212 0.91564504 135 119 109
-0.48998361 0.02939610 0.90850773 147 135 124
-0.48985327 0.04950099 0.90360444 92 88 89
-0.49007735 0.07239514 0.89706006 104 107 114
-0.48991410 0.06182070 0.90099054 107 107 114
-0.48997779 0.09034969 0.89006066 116 118 127
-0.49009416 0.11800918 0.87901400 126 127 137
-0.48997333 0.10786135 0.88303377 133 137 143
-0.48999803 0.13027328 0.87406905 129 133 141
-0.49002644 0.14999362 0.86602881 109 109 115
-0.49011771 0.17212995 0.85665704 50 46 52
-0.48960959 0.16189684 0.86099049 70 68 73
-0.49001259 0.19033707 0.84908140 39 36 42
-0.49005648 0.21619362 0.83840518 31 28 35
-0.49000372 0.20635260 0.84253080 33 30 37
-0.48998342 0.22982396 0.83265895 27 25 32
-0.49356669 0.25892538 0.81995819 26 23 29
-0.48990040 0.24917147 0.82426096 26 23 31
-0.48999297 0.26999279 0.81500318 24 22 29
-0.48999292 0.28999668 0.80593063 24 22 29
-0.49002752 0.31180248 0.79580643 24 22 30
-0.49007582 0.30132438 0.80073032 24 22 30
-0.49004113 0.33021719 0.78717476 25 23 30
-0.49018114 0.35312394 0.77678267 24 23 31
-0.48948261 0.34310150 0.78136780 24 23 31
-0.49001558 0.36985435 0.76914690 25 24 32
-0.49024055 0.39519285 0.75795570 26 26 34
-0.48968739 0.38497412 0.76235369 26 25 34
-0.48998443 0.40973035 0.74949526 2 1 2
-0.49006335 0.42121534 0.74367283 0 0 0
-0.46997873 -0.54565153 0.81712668 0 0 0
-0.47079890 -0.53145658 0.81885251 0 0 0
-0.46615253 -0.52252453 0.82038566 0 0 0
-0.46999326 -0.51010697 0.82249119 0 0 0
-0.47258730 -0.50511032 0.91572235 45 43 41
-0.47098119 -0.50377957 0.92184845 49 42 44
-0.46998013 -0.49015888 0.82724447 0 0 0
-0.47007739 -0.48755943 0.87657583 31 28 29
-0.47348896 -0.49272531 0.88758847 40 36 36
-0.46214580 -0.49899448 0.90558156 44 44 42
-0.46982284 -0.49041747 0.92351997 51 44 45
-0.46971099 -0.47392390 0.83168755 0 0 0
-0.46988971 -0.47599766 0.85182030 19 16 17
-0.46999606 -0.47006081 0.92408652 55 46 48
-0.47008433 -0.45015550 0.92447840 59 50 50
-0.47042535 -0.43031258 0.92472312 63 55 55
-0.47037081 -0.40969396 0.92482281 66 57 57
-0.47033934 -0.38968694 0.92476089 69 61 60
-0.47034941 -0.36971476 0.92478076 76 66 65
-0.47007143 -0.35000510 0.92498865 82 72 70
-0.46977159 -0.32990991 0.92521666 90 78 76
-0.46983979 -0.30996557 0.92535104 98 85 81
-0.46991287 -0.29001825 0.92549500 102 88 84
-0.46998250 -0.27006268 0.92563216 102 89 84
-0.47006446 -0.25010772 0.92579364 106 93 89
-0.47018129 -0.23016284 0.92602370 110 94 90
-0.47018013 -0.21010264 0.92628088 110 95 90
-0.46963371 -0.19025139 0.92652230 111 95 91
-0.46972789 -0.17026786 0.92670828 115 97 94
-0.46978324 -0.15026391 0.92681765 115 98 95
-0.46984604 -0.13025723 0.92694152 115 98 95
-0.46991100 -0.11024562 0.92706965 116 99 95
-0.46995093 -0.09022408 0.92714844 116 98 95
-0.46986167 -0.07017972 0.92697236 114 99 94
-0.46978733 -0.05014418 0.92682571 116 98 96
-0.46977155 -0.03021570 0.92654837 113 96 92
-0.47011715 -0.00047999 0.91963618 128 109 99
-0.46993514 -0.01073969 0.92340511 114 96 91
-0.47001400 0.00979212 0.91569732 136 120 108
-0.46997368 0.02935191 0.90860752 149 135 125
-0.46999637 0.04956368 0.90387832 87 83 86
-0.47006837 0.07310066 0.89698331 100 103 111
-0.46987847 0.06256093 0.90089365 100 101 108
-0.46998282 0.09031300 0.89031843 109 113 123
-0.47001586 0.11808509 0.87930267 127 132 141
-0.46993836 0.10796694 0.88330014 136 139 148
-0.47000131 0.13021734 0.87445373 138 142 150
-0.46996561 0.15004675 0.86640213 127 127 132
-0.47003010 0.17282558 0.85678300 61 58 64
-0.47000485 0.16253847 0.86118338 103 103 112
-0.47000483 0.19037045 0.84935965 44 40 46
-0.47038757 0.21644912 0.83847184 33 30 35
-0.46971991 0.20663628 0.84263298 35 33 40
-0.47002558 0.22990135 0.83281377 28 26 34
-0.47004809 0.24959783 0.82431307 26 24 31
-0.47000375 0.27015228 0.81522254 25 23 31
-0.47000793 0.29014034 0.80620355 25 23 30
-0.47023523 0.31172975 0.79627719 25 24 31
-0.46929003 0.30173121 0.80095814 25 23 31
-0.46991404 0.32988053 0.78785259 26 24 31
-0.47028083 0.35387212 0.77700915 25 24 32
-0.46949881 0.34383484 0.78160834 26 24 32
-0.46998132 0.37007601 0.76967218 26 24 32
-0.47027245 0.39613647 0.75802998 18 17 23
-0.46971704 0.38607098 0.76259900 26 25 33
-0.47001059 0.40987968 0.74991063 0 0 0
-0.47006339 0.42153111 0.74423037 0 0 0
-0.44984469 -0.54625015 0.81854481 0 0 0
-0.45380710 -0.53584857 0.81954475 0 0 0
-0.44862533 -0.52731098 0.82092017 0 0 0
-0.44982405 -0.50979403 0.82390632 0 0 0
-0.45560131 -0.50324641 0.91761154 53 42 44
-0.45060906 -0.50284958 0.92262981 52 42 43
-0.45017747 -0.48990996 0.82884251 0 0 0
-0.45672105 -0.48317826 0.87276781 46 43 44
-0.44572666 -0.49050601 0.89157935 50 42 40
-0.45307338 -0.49686464 0.90353577 50 42 45
-0.45001307 -0.49077182 0.92378007 51 43 45
-0.44972285 -0.47297294 0.83389111 0 0 0
-0.45033582 -0.47280070 0.85032547 12 11 11
-0.44666131 -0.47915166 0.86594580 32 30 27
-0.45017092 -0.47020711 0.92437365 54 46 47
-0.45000012 -0.44939005 0.92468533 59 50 52
-0.44963405 -0.42971632 0.92491237 63 54 56
-0.44967235 -0.40976850 0.92499111 67 57 58
-0.44964026 -0.38975616 0.92492511 73 59 59
-0.44965343 -0.36978325 0.92495211 77 64 65
-0.44975779 -0.34988060 0.92516684 85 69 71
-0.44986663 -0.32997202 0.92539078 90 76 75
-0.44993713 -0.31002743 0.92553581 98 84 80
-0.45001197 -0.29007927 0.92568980 102 88 85
-0.45007544 -0.27011755 0.92582027 102 88 84
-0.45015875 -0.25016120 0.92599163 105 92 87
-0.45026543 -0.23020942 0.92621107 108 93 90
-0.45026783 -0.21035863 0.92645266 111 95 90
-0.44970834 -0.19029036 0.92671249 112 96 92
-0.44981523 -0.17030906 0.92693286 111 97 92
-0.44988448 -0.15030574 0.92707559 117 97 95
-0.44993532 -0.13029080 0.92718031 116 98 94
-0.44999016 -0.11027225 0.92729326 115 99 95
-0.45002277 -0.09024470 0.92736035 116 98 97
-0.44993721 -0.07019574 0.92718403 115 99 95
-0.44986771 -0.05015582 0.92704081 115 98 97
-0.44988472 -0.03000951 0.92678223 114 97 94
-0.45035418 -0.00048010 0.91985303 128 109 105
-0.45003091 -0.01096089 0.92370987 114 95 91
-0.45005449 0.00983511 0.91586453 136 120 111
-0.45000106 0.02941388 0.90875284 151 136 129
-0.45018612 0.04956866 0.90415884 85 81 82
-0.45002138 0.07320987 0.89715318 106 108 115
-0.45010808 0.06260362 0.90105985 110 110 116
-0.45003827 0.09035452 0.89054784 111 116 124
-0.45025696 0.11884501 0.87929983 126 127 141
-0.44994851 0.10873775 0.88327819 145 149 155
-0.44992415 0.13038277 0.87472465 136 140 149
-0.44999570 0.15013013 0.86676499 141 144 151
-0.45007514 0.17348447 0.85704556 82 82 92
-0.44988333 0.16325354 0.86139029 114 116 129
-0.45005624 0.19052540 0.84973332 50 47 54
-0.44998248 0.21698986 0.83856390 34 32 38
-0.45004751 0.20714469 0.84275919 40 37 43
-0.45008069 0.22994595 0.83312504 30 28 35
-0.45002094 0.24974008 0.82463699 26 25 32
-0.45031291 0.27014024 0.81564912 25 24 31
-0.44546283 0.26039062 0.82010938 26 24 31
-0.44985581 0.28991814 0.80679361 25 24 31
-0.45018298 0.31236301 0.79656244 26 24 32
-0.44953648 0.30245940 0.80114547 26 24 31
-0.44997830 0.33004587 0.78842469 27 25 32
-0.45036037 0.35466919 0.77734380 26 25 33
-0.44957368 0.34468669 0.78191997 27 25 33
-0.44993652 0.37036637 0.77026697 26 25 33
-0.44998715 0.39631292 0.75750343 3 3 4
-0.45000281 0.38665623 0.76302375 25 24 33
-0.45010473 0.40997520 0.75040706 0 0 0
-0.44938559 0.42174464 0.74500140 0 0 0
-0.43209939 -0.54876434 0.81940961 0 0 0
-0.42715383 -0.54360587 0.82042628 0 0 0
-0.42986579 -0.53003711 0.82184749 0 0 0
-0.43012408 -0.51009880 0.82512626 0 0 0
-0.43119555 -0.50050651 0.91743731 51 42 40
-0.43254061 -0.50177785 0.92236375 52 42 40
-0.42989277 -0.49004481 0.83026412 0 0 0
-0.43534898 -0.48407684 0.87988502 48 36 34
-0.42647701 -0.48408461 0.88295462 48 38 38
-0.42422854 -0.49889681 0.91497174 51 39 40
-0.42999148 -0.49061565 0.92380279 51 43 43
-0.43008829 -0.47224835 0.83563319 0 0 0
-0.42792426 -0.46813873 0.84715249 16 13 14
-0.43027456 -0.47028839 0.92453407 54 45 47
-0.43014266 -0.44987781 0.92487929 57 49 50
-0.42974313 -0.42980837 0.92511037 62 54 55
-0.42976257 -0.40983988 0.92515210 66 57 56
-0.42972109 -0.38981417 0.92506270 71 59 61
-0.42972918 -0.36983444 0.92508015 75 65 66
-0.42983115 -0.34993080 0.92529959 83 70 70
-0.42993564 -0.33001972 0.92552446 88 76 75
-0.43000117 -0.31007088 0.92566557 97 84 79
-0.43008317 -0.29012696 0.92584217 101 86 83
-0.43015121 -0.27016672 0.92598875 101 88 85
-0.43022789 -0.25020502 0.92615378 108 93 86
-0.43031972 -0.23024434 0.92635141 110 93 92
-0.42968939 -0.21022831 0.92659533 112 96 93
-0.42975732 -0.19032170 0.92686523 112 96 91
-0.42986685 -0.17034000 0.92710146 114 97 93
-0.42993568 -0.15033402 0.92724990 116 97 96
-0.42997997 -0.13031400 0.92734540 114 98 95
-0.43002654 -0.11029039 0.92744578 116 98 94
-0.43005486 -0.09025896 0.92750687 118 98 95
-0.42997292 -0.07020679 0.92733016 116 98 94
-0.42990797 -0.05016389 0.92719015 117 99 96
-0.42980422 -0.03012507 0.92696650 113 96 92
-0.43929506 -0.00048018 0.91999888 130 108 107
-0.42996778 -0.01006376 0.92360592 116 95 92
-0.42998091 0.00982720 0.91610312 137 121 114
-0.43002887 0.02941896 0.90893079 151 137 131
-0.43018768 0.04964966 0.90443602 89 84 88
-0.43002317 0.07319487 0.89733684 105 108 114
-0.43014090 0.06266004 0.90121241 101 103 110
-0.43000197 0.09033036 0.89075622 116 120 128
-0.43022661 0.11885035 0.87954758 145 147 151
-0.43001237 0.10867567 0.88352057 144 147 153
-0.42996594 0.13032257 0.87502637 142 145 152
-0.43003369 0.15014777 0.86709807 138 141 151
-0.43010327 0.17413172 0.85726003 110 115 126
-0.42969444 0.16382439 0.86156671 125 131 142
-0.43006861 0.19061461 0.85019648 78 76 85
-0.43060248 0.21749968 0.83874594 37 33 41
-0.42983721 0.20774819 0.84293823 44 39 47
-0.43005969 0.23007050 0.83347757 32 30 38
-0.42999159 0.24978550 0.82503519 28 27 34
-0.43015365 0.27056475 0.81597680 27 25 32
-0.42881965 0.26070619 0.82035927 28 26 32
-0.42997489 0.28978670 0.80741847 26 24 31
-0.43026364 0.31314498 0.79686422 26 25 33
-0.42967108 0.30315458 0.80143426 27 25 32
-0.43016621 0.33007228 0.78915143 28 26 34
-0.43039215 0.35525206 0.77794693 28 27 34
-0.42941202 0.34553878 0.78236912 28 26 34
-0.43017624 0.36987530 0.77137723 27 26 34
-0.42964200 0.39551836 0.75764774 0 0 0
-0.43004726 0.38588926 0.76402024 23 22 29
-0.42996349 0.40985526 0.75106077 0 0 0
-0.43010850 0.42183252 0.74584721 0 0 0
-0.41725354 -0.55235214 0.81982849 0 0 0
-0.40942306 -0.54660577 0.82108510 0 0 0
-0.41004097 -0.52983178 0.82309455 0 0 0
-0.40995155 -0.50981488 0.82641125 0 0 0
-0.41895240 -0.50017830 0.92072237 48 42 44
-0.41010608 -0.48987889 0.83132075 0 0 0
-0.41688154 -0.48142448 0.87782177 20 17 16
-0.40836362 -0.48546540 0.89082432 50 42 44
-0.41201582 -0.49454675 0.90890926 48 40 42
-0.41000717 -0.49056195 0.92359624 50 43 45
-0.40983356 -0.47149791 0.83665454 0 0 0
-0.40978561 -0.46404294 0.84276843 6 5 5
-0.40706907 -0.47540791 0.86822075 24 20 19
-0.40999929 -0.47011477 0.92458373 52 44 46
-0.40970170 -0.44973542 0.92498764 56 47 49
-0.40982103 -0.42987654 0.92525724 61 53 54
-0.40984825 -0.40991377 0.92531884 65 56 56
-0.40980809 -0.38988392 0.92522826 70 58 60
-0.40981031 -0.36989564 0.92523315 74 63 65
-0.40989946 -0.34998185 0.92543440 80 70 69
-0.40999654 -0.33006574 0.92565369 89 75 74
-0.41006451 -0.31011832 0.92580723 97 81 79
-0.41015050 -0.29017682 0.92600138 102 85 82
-0.41021331 -0.27021179 0.92614310 100 87 83
-0.41028270 -0.25024449 0.92629980 106 91 88
-0.41037499 -0.23028331 0.92650828 109 92 90
-0.40974984 -0.21038297 0.92675529 111 94 90
-0.40980883 -0.19035732 0.92703863 112 95 92
-0.40990854 -0.17036989 0.92726411 115 97 94
-0.40996610 -0.15035744 0.92739424 115 98 94
-0.41000568 -0.13033345 0.92748375 116 98 95
-0.41005428 -0.11030795 0.92759373 117 98 95
-0.41007831 -0.09027275 0.92764814 117 99 95
-0.41000623 -0.07021850 0.92748513 118 99 96
-0.40994742 -0.05017260 0.92735208 119 98 97
-0.40986643 -0.03013155 0.92716895 115 96 93
-0.41000429 -0.01007653 0.92387322 114 96 92
-0.41003031 0.00977802 0.91635732 137 122 114
-0.40993371 0.02932266 0.90915756 152 138 130
-0.41013993 0.04950347 0.90467014 85 81 86
-0.41013523 0.07335311 0.89740191 108 110 120
-0.40979827 0.06276446 0.90130129 98 97 106
-0.40994479 0.09039934 0.89090004 119 121 132
-0.41131522 0.11937321 0.87956784 141 142 148
-0.40989777 0.10931660 0.88348553 136 139 146
-0.41009422 0.13043619 0.87524003 139 142 148
-0.40999390 0.15022402 0.86737604 136 140 148
-0.40992763 0.17441829 0.85747316 114 120 136
-0.40998719 0.16413171 0.86174221 129 135 144
-0.41006694 0.19007055 0.85085768 113 118 126
-0.41060636 0.21797730 0.83900901 46 45 52
-0.40981695 0.20756459 0.84347528 69 68 78
-0.41002761 0.23014925 0.83386234 37 34 42
-0.40998243 0.24994129 0.82537266 31 29 36
-0.41005088 0.27111078 0.81625039 29 27 34
-0.40989576 0.26125937 0.82053589 29 28 36
-0.41001361 0.29005686 0.80791840 29 26 34
-0.41028462 0.31405995 0.79717102 29 27 35
-0.40958101 0.30409382 0.80169802 28 26 35
-0.41001946 0.33003593 0.78997043 30 28 37
-0.41044262 0.35643307 0.77835962 29 28 35
-0.40978449 0.34635148 0.78287684 30 28 37
-0.41004705 0.37010383 0.77237088 28 27 36
-0.40996308 0.39526973 0.75796024 0 0 0
-0.41007870 0.38536305 0.76452729 16 15 20
-0.40996760 0.41017150 0.75167688 0 0 0
-0.41012087 0.42230172 0.74673106 0 0 0
-0.39006106 -0.54732463 0.82205986 0 0 0
-0.38979312 -0.53005042 0.82419967 0 0 0
-0.39015292 -0.51000692 0.82743764 0 0 0
-0.39005697 -0.49010272 0.83203910 0 0 0
-0.39287216 -0.48568336 0.89435725 44 36 37
-0.38908432 -0.49483966 0.91600040 46 42 41
-0.39020239 -0.48928333 0.92340599 48 40 42
-0.39013460 -0.47170602 0.83719343 0 0 0
-0.38874449 -0.46376576 0.84473045 3 2 2
-0.39188730 -0.47384476 0.86948150 30 28 28
-0.38071271 -0.47929266 0.88368547 35 31 30
-0.39002346 -0.47047102 0.92451146 48 42 44
-0.38972359 -0.44974256 0.92500232 53 43 47
-0.38985333 -0.42990121 0.92531044 57 48 49
-0.38990025 -0.40995938 0.92542216 60 51 50
-0.38987824 -0.38994370 0.92537012 64 54 55
-0.38987651 -0.36994876 0.92536592 69 59 60
-0.38996011 -0.35003097 0.92556441 75 65 65
-0.39005815 -0.33011686 0.92579711 81 71 69
-0.39013637 -0.31017710 0.92598290 89 77 76
-0.39021666 -0.29023079 0.92617341 96 82 79
-0.39027130 -0.27025845 0.92630307 93 82 79
-0.39027555 -0.25022938 0.92647060 100 87 83
-0.38963909 -0.23033189 0.92670370 101 88 85
-0.38973831 -0.21036366 0.92693963 104 90 86
-0.38977753 -0.19031973 0.92717838 107 91 86
-0.38998333 -0.17033507 0.92738599 110 93 91
-0.38998066 -0.15037713 0.92751578 111 96 92
-0.39002273 -0.13035202 0.92761592 111 95 92
-0.39006517 -0.11032259 0.92771668 115 96 93
-0.39008994 -0.09028509 0.92777547 117 96 94
-0.39003336 -0.07023028 0.92764117 115 97 94
-0.38997857 -0.05018126 0.92751083 117 96 94
-0.38991473 -0.03013743 0.92735933 112 94 91
-0.39003283 -0.01010897 0.92414945 115 94 92
-0.39028112 0.01018774 0.91639399 140 121 115
-0.38445527 0.00111003 0.92004732 133 114 105
-0.38994846 0.02933758 0.90934250 153 138 131
-0.39003826 0.04952554 0.90491414 84 80 85
-0.39010828 0.07394176 0.89729491 106 108 117
-0.38980998 0.06338988 0.90117773 101 102 109
-0.38992613 0.09038691 0.89104480 114 117 128
-0.38963246 0.11965652 0.87967746 148 149 154
-0.39007482 0.10946863 0.88360534 138 139 146
-0.39003743 0.13041755 0.87547321 140 143 151
-0.39007880 0.15027494 0.86762181 137 140 148
-0.39028274 0.17471825 0.85757798 120 126 139
-0.38961909 0.16445714 0.86184245 120 127 139
-0.38997265 0.19006464 0.85115026 125 131 143
-0.38981474 0.21857406 0.83915705 109 108 121
-0.39003728 0.20806686 0.84362100 125 127 138
-0.39006396 0.23029022 0.83419785 69 68 79
-0.38999711 0.25002475 0.82573229 40 38 47
-0.39010626 0.27180860 0.81639644 35 33 41
-0.38931739 0.26191889 0.82068039 36 34 41
-0.39000260 0.29025462 0.80840387 34 31 39
-0.39029310 0.31487837 0.79750383 33 31 40
-0.38961898 0.30494033 0.80198400 33 31 40
-0.38997647 0.33027262 0.79062732 35 33 41
-0.39021530 0.35751594 0.77872846 33 32 40
-0.38995802 0.34741254 0.78320663 34 33 41
-0.39000664 0.37044872 0.77324958 33 32 41
-0.39024116 0.39592680 0.75816704 0 0 0
-0.38987299 0.38570750 0.76371781 6 6 8
-0.39008372 0.41012029 0.75252895 0 0 0
-0.38972546 0.42238766 0.74784850 0 0 0
-0.36979601 -0.54763939 0.82303980 0 0 0
-0.37011274 -0.52964161 0.82523595 0 0 0
-0.36982320 -0.50988152 0.82844934 0 0 0
-0.37008964 -0.49009844 0.83285904 0 0 0
-0.36886475 -0.48900152 0.90907130 45 40 41
-0.37011514 -0.48772133 0.92334025 49 41 43
-0.37024600 -0.47272009 0.83776191 0 0 0
-0.36950765 -0.46262471 0.84180782 0 0 0
-0.36979033 -0.47328873 0.87365868 33 27 29
-0.36467364 -0.47599975 0.88182610 43 41 35
-0.37027164 -0.47018744 0.92433668 51 43 45
-0.36706972 -0.45971202 0.84354863 1 0 0
-0.37001280 -0.44944007 0.92480417 55 46 48
-0.36982090 -0.42985331 0.92520766 59 51 51
-0.36988953 -0.40994046 0.92537966 63 54 56
-0.36988716 -0.38994527 0.92537401 66 56 58
-0.36990121 -0.36996610 0.92540941 72 61 63
-0.36998195 -0.35004876 0.92561137 80 68 68
-0.37007287 -0.33013169 0.92583882 86 72 72
-0.37015761 -0.31019982 0.92605084 93 79 79
-0.37023686 -0.29025452 0.92624910 98 82 80
-0.37029620 -0.27028604 0.92639774 98 84 83
-0.37030681 -0.25037397 0.92656734 99 86 84
-0.36965190 -0.23035319 0.92678942 103 87 84
-0.36974721 -0.21038375 0.92702823 105 88 87
-0.36984286 -0.18960311 0.92726816 106 88 86
-0.36992126 -0.16960535 0.92746466 108 89 88
-0.36995955 -0.15038438 0.92756053 108 89 90
-0.37000042 -0.13035864 0.92766285 106 89 87
-0.37003193 -0.11032564 0.92774175 108 89 88
-0.37004812 -0.09028568 0.92778232 108 89 88
-0.37002132 -0.07023579 0.92771524 108 89 86
-0.36997470 -0.05018604 0.92759865 107 89 87
-0.36993178 -0.03014145 0.92749109 100 83 81
-0.37002211 -0.01000339 0.92430307 112 93 90
-0.37003910 0.01062093 0.91637958 140 122 115
-0.37018757 0.00111016 0.92015771 132 112 107
-0.37006696 0.02941836 0.90947877 152 137 129
-0.36998705 0.04951932 0.90516605 83 80 86
-0.37007115 0.07397563 0.89738119 104 107 116
-0.36975511 0.06334951 0.90129550 103 104 111
-0.37000396 0.09042304 0.89113007 116 120 129
-0.36992475 0.11967533 0.87981570 146 148 153
-0.37004049 0.10950198 0.88372966 138 139 146
-0.36994444 0.13043679 0.87562681 133 136 143
-0.37006437 0.15028356 0.86779080 145 147 155
-0.37009910 0.17520604 0.85753296 119 126 141
-0.37001644 0.16493339 0.86179978 116 122 137
-0.36997266 0.19007870 0.85131616 112 120 136
-0.37007460 0.21862958 0.83937015 141 143 149
-0.36993489 0.20814396 0.84380141 142 146 152
-0.37002690 0.23030956 0.83444326 119 122 133
-0.36996619 0.25015022 0.82600032 83 85 99
-0.36998151 0.27200751 0.81667768 58 58 68
-0.36999485 0.26206821 0.82092606 73 71 83
-0.37018764 0.29009650 0.80890353 50 50 59
-0.37049878 0.31505465 0.79795162 50 49 57
-0.36951154 0.30527399 0.80232852 50 49 58
-0.36986782 0.32999754 0.79131844 54 54 63
-0.37033642 0.35796437 0.77911059 56 56 65
-0.37002101 0.34825938 0.78343544 57 57 65
-0.36984620 0.37034351 0.77381350 51 51 59
-0.37049716 0.39629892 0.75858669 0 0 0
-0.36998393 0.38628008 0.76311459 0 0 0
-0.36990630 0.40994033 0.75340625 0 0 0
-0.36991630 0.42273613 0.74870189 0 0 0
-0.34999762 -0.54801006 0.82395749 0 0 0
-0.34995750 -0.53024907 0.82608933 0 0 0
-0.34999877 -0.51004063 0.82933568 0 0 0
-0.35004167 -0.48969570 0.83382139 0 0 0
-0.35377227 -0.48632705 0.90678045 47 39 41
-0.35022835 -0.48680843 0.92315824 50 41 42
-0.35022686 -0.47364898 0.83826433 0 0 0
-0.34957059 -0.46370705 0.84221774 1 1 1
-0.35256581 -0.46803867 0.86708107 31 28 27
-0.34642535 -0.47703999 0.88863308 48 39 41
-0.35023426 -0.47009803 0.92416011 52 43 45
-0.34792439 -0.45903950 0.84476984 1 1 1
-0.34999163 -0.44976043 0.92461374 54 47 46
-0.34978995 -0.42980220 0.92509788 61 51 52
-0.34987454 -0.40991470 0.92532169 66 55 57
-0.34989568 -0.38994676 0.92537781 70 58 58
-0.34992725 -0.36998684 0.92546147 75 63 64
-0.35001080 -0.35007567 0.92568256 82 70 69
-0.35009706 -0.33015734 0.92591071 88 75 74
-0.35016836 -0.31021607 0.92609914 98 84 81
-0.35024077 -0.29026749 0.92629062 104 88 87
-0.35030812 -0.27030670 0.92646874 105 90 86
-0.35037347 -0.25033684 0.92664159 107 91 89
-0.34964863 -0.23036655 0.92684295 110 92 88
-0.34973182 -0.21039173 0.92706353 112 94 92
-0.34982592 -0.18961233 0.92731303 114 95 92
-0.34989694 -0.16961201 0.92750116 114 96 93
-0.34993276 -0.15039020 0.92759613 118 95 97
-0.34996017 -0.13035955 0.92766871 115 97 94
-0.34998130 -0.11032362 0.92772474 117 98 95
-0.34999434 -0.09028344 0.92775931 118 96 94
-0.34997918 -0.07023605 0.92771930 118 96 95
-0.34994652 -0.05018779 0.92763296 116 96 93
-0.34994092 -0.03014550 0.92761861 100 82 79
-0.34997577 -0.01013055 0.92431584 110 93 90
-0.34997177 0.01057660 0.91645677 140 124 116
-0.35031648 0.00111019 0.92018123 131 115 109
-0.35009947 0.02943141 0.90959034 151 136 129
-0.34992151 0.04957826 0.90539644 75 73 79
-0.35011892 0.07391968 0.89752056 109 111 119
-0.34986534 0.06338208 0.90141341 111 111 118
-0.35001730 0.09034356 0.89124508 120 122 133
-0.35172784 0.11969277 0.87994396 154 157 160
-0.34990324 0.10971060 0.88377794 134 136 144
-0.34994885 0.13047765 0.87576436 139 141 148
-0.35002725 0.15027938 0.86792736 139 142 150
-0.35013893 0.17519181 0.85766606 114 121 139
-0.34996138 0.16487066 0.86196559 124 130 145
-0.34995307 0.19015126 0.85143487 120 127 143
-0.35034063 0.21934909 0.83924339 151 153 159
-0.34998882 0.20885867 0.84365544 145 149 158
-0.34998552 0.23033247 0.83457719 121 126 138
-0.34993598 0.25014456 0.82612770 106 113 129
-0.34999004 0.27201385 0.81678807 92 96 112
-0.35017159 0.26209892 0.82102229 115 120 135
-0.35001905 0.28977373 0.80919511 84 88 100
-0.35000037 0.31542884 0.79798562 79 81 91
-0.35001517 0.30542363 0.80243436 74 78 91
-0.34998380 0.33000357 0.79152628 85 89 99
-0.34996398 0.35796215 0.77947183 103 107 114
-0.34996482 0.34839881 0.78366795 100 102 110
-0.34997497 0.37047892 0.77342675 73 74 83
-0.35030703 0.39688754 0.75890931 0 0 0
-0.34988399 0.38717984 0.76300597 0 0 0
-0.35003976 0.41010501 0.75397965 0 0 0
-0.34990051 0.42307903 0.74933950 0 0 0
-0.32995079 -0.54815347 0.82491011 0 0 0
-0.33008026 -0.52984029 0.82703824 0 0 0
-0.32998946 -0.50998821 0.83021108 0 0 0
-0.33000585 -0.49014685 0.83450708 0 0 0
-0.33016446 -0.48949541 0.91834751 48 38 41
-0.33000671 -0.48558330 0.92308972 50 39 42
-0.33042535 -0.47537258 0.83852109 0 0 0
-0.32969539 -0.46551069 0.84177169 0 0 0
-0.32355136 -0.46782355 0.87367429 44 34 36
-0.33416399 -0.47526699 0.88696204 50 39 40
-0.33016300 -0.46994845 0.92386685 51 42 44
-0.32913440 -0.45811250 0.84535678 2 2 2
-0.33005735 -0.44928725 0.92447501 53 44 46
-0.32976496 -0.42975256 0.92499116 57 49 50
-0.32985654 -0.40988214 0.92524842 63 53 54
-0.32988931 -0.38993099 0.92534050 68 57 57
-0.32992971 -0.36998379 0.92545396 74 61 62
-0.33001985 -0.35008489 0.92570704 81 67 69
-0.33010523 -0.33017016 0.92594661 87 75 72
-0.33017431 -0.31022988 0.92614048 98 82 80
-0.33024011 -0.29027830 0.92632499 104 86 85
-0.33030006 -0.27031379 0.92649302 106 89 86
-0.33036280 -0.25034420 0.92666903 108 90 87
-0.32953084 -0.23023561 0.92689019 109 93 89
-0.32982463 -0.21027860 0.92711515 111 94 91
-0.32981484 -0.18962600 0.92738022 113 95 93
-0.32988626 -0.16962666 0.92758118 114 95 96
-0.32991904 -0.15040274 0.92767331 116 96 95
-0.32993636 -0.13036704 0.92772195 116 95 94
-0.32995840 -0.11033067 0.92778399 114 97 93
-0.32997099 -0.09028924 0.92781932 117 95 93
-0.32996714 -0.07024274 0.92780860 117 96 93
-0.32994879 -0.05019444 0.92775714 115 95 93
-0.32996470 -0.03015139 0.92780208 101 81 80
-0.32997994 -0.01003135 0.92419726 112 94 91
-0.33003134 0.01063396 0.91643498 142 125 116
-0.32961565 0.00111010 0.92011143 133 118 108
-0.32997892 0.02941405 0.90964548 151 136 130
-0.32983411 0.04959830 0.90560278 83 81 87
-0.33000808 0.07324577 0.89792449 104 106 115
-0.32997481 0.06341552 0.90154286 111 110 116
-0.33003079 0.08970950 0.89161178 129 131 139
-0.32998275 0.11028153 0.88367464 131 133 142
-0.32994037 0.13056202 0.87586461 134 136 148
-0.33003452 0.15040426 0.86800268 124 127 140
-0.33022801 0.17475024 0.85798071 113 118 135
-0.32999940 0.16502514 0.86202806 136 140 150
-0.32991213 0.18962083 0.85179769 122 128 142
-0.33160544 0.21886825 0.83958812 131 134 147
-0.32999436 0.20883558 0.84382118 132 138 147
-0.32992147 0.22983213 0.83492236 136 141 150
-0.32995964 0.25022795 0.82613025 99 110 128
-0.32999650 0.27201742 0.81675269 96 104 121
-0.33030088 0.26209583 0.82101263 107 119 135
-0.32995315 0.28984925 0.80914227 100 107 122
-0.32999498 0.31542278 0.79796986 91 100 118
-0.33009482 0.30539040 0.80241024 84 92 110
-0.32997001 0.32995615 0.79147598 97 104 117
-0.33018515 0.35796033 0.77940114 114 126 135
-0.33000106 0.34835281 0.78359304 112 119 131
-0.33001689 0.37033723 0.77298522 66 70 73
-0.33049807 0.39756075 0.75910735 0 0 0
-0.32987755 0.38778066 0.76311204 0 0 0
-0.32999091 0.40981048 0.75459292 0 0 0
-0.33004134 0.42290689 0.74999730 0 0 0
-0.30990647 -0.54865747 0.82584541 0 0 0
-0.31009983 -0.52983888 0.82797143 0 0 0
-0.30982279 -0.51005380 0.83109530 0 0 0
-0.31015796 -0.49027762 0.83523547 0 0 0
-0.31298699 -0.48589850 0.91332281 45 38 42
-0.31008911 -0.48473900 0.92287632 47 39 42
-0.31049275 -0.47666253 0.83883511 0 0 0
-0.30977540 -0.46620671 0.84229888 0 0 0
-0.30921178 -0.46367561 0.86732629 39 30 33
-0.30484081 -0.47643936 0.89409214 47 41 45
-0.30229974 -0.47944099 0.90265286 45 37 42
-0.31010005 -0.46979261 0.92356206 50 41 43
-0.30954998 -0.45700504 0.84634201 1 1 1
-0.31021362 -0.44979916 0.92434430 52 43 44
-0.30962519 -0.42995320 0.92496687 56 47 48
-0.30987522 -0.40989399 0.92527533 62 52 53
-0.30991441 -0.38995284 0.92539245 66 55 55
-0.30995798 -0.37001116 0.92552256 74 58 59
-0.31005240 -0.35012171 0.92580453 79 64 67
-0.31013644 -0.33020903 0.92605559 86 73 71
-0.31020112 -0.31026612 0.92624870 96 80 78
-0.31026592 -0.29031508 0.92644232 104 85 84
-0.31031970 -0.27034585 0.92660286 106 88 87
-0.31005689 -0.25017620 0.92678386 106 89 87
-0.30965911 -0.22960998 0.92702275 106 92 88
-0.30973781 -0.20963472 0.92725841 111 91 89
-0.30982127 -0.18965214 0.92750819 111 93 91
-0.30989176 -0.16965188 0.92771914 113 93 92
-0.30982071 -0.14974035 0.92782280 113 93 92
-0.31005612 -0.12971890 0.92787723 114 93 91
-0.30997139 -0.11035134 0.92795789 114 95 91
-0.30998161 -0.09030573 0.92798861 115 95 94
-0.30998483 -0.07025706 0.92799822 117 95 92
-0.30997956 -0.05020658 0.92798273 115 95 93
-0.31000749 -0.03015999 0.92806645 96 79 79
-0.30998559 -0.01012951 0.92416695 113 93 91
-0.31007784 0.01059900 0.91642465 141 125 116
-0.30970878 0.00111000 0.92002952 135 115 111
-0.30981001 0.02945454 0.90971938 149 133 126
-0.30987827 0.04967739 0.90585567 88 87 92
-0.31030462 0.07369364 0.89790045 122 122 130
-0.30963875 0.06395295 0.90149994 121 120 125
-0.30998562 0.08968575 0.89175232 140 141 148
-0.30995164 0.11031236 0.88378915 125 128 140
-0.31002514 0.13049602 0.87599704 131 135 147
-0.30997256 0.15027416 0.86815189 127 132 144
-0.30996240 0.17448558 0.85819122 106 113 131
-0.31002680 0.16486808 0.86220136 119 125 141
-0.31001149 0.18946383 0.85198004 107 115 131
-0.31027085 0.21873567 0.83977509 114 123 136
-0.30998655 0.20885649 0.84395199 113 120 136
-0.30996545 0.22975275 0.83505036 118 126 140
-0.30999629 0.25017711 0.82623573 105 115 131
-0.30995425 0.27205710 0.81671210 101 109 128
-0.31020991 0.26208293 0.82107566 112 121 134
-0.31003424 0.29035415 0.80887091 97 104 120
-0.30987851 0.31484482 0.79804133 95 102 121
-0.31018739 0.30543212 0.80226183 100 109 126
-0.30999364 0.32987115 0.79132139 103 112 128
-0.31011892 0.35784474 0.77921614 112 124 138
-0.30998969 0.34822052 0.78339943 104 113 124
-0.31009129 0.36974961 0.77274503 46 50 55
-0.31076261 0.39817665 0.75930705 0 0 0
-0.30979186 0.38803884 0.76339035 0 0 0
-0.30998079 0.40999174 0.75501673 0 0 0
-0.30992029 0.42307824 0.75049687 0 0 0
-0.28970118 -0.54909924 0.82684343 0 0 0
-0.29003837 -0.52992545 0.82898234 0 0 0
-0.29023393 -0.50978718 0.83210117 0 0 0
-0.28990672 -0.48975133 0.83618631 0 0 0
-0.28657729 -0.48426892 0.91471910 47 37 42
-0.29026963 -0.48407673 0.92257082 46 38 40
-0.29077840 -0.47735218 0.83926814 0 0 0
-0.28981253 -0.46736941 0.84234697 0 0 0
-0.29679625 -0.46265724 0.86612493 18 16 17
-0.29039030 -0.47673052 0.89726272 42 38 40
-0.29299804 -0.47862958 0.90210750 46 37 43
-0.29010033 -0.46971826 0.92341677 48 39 42
-0.28952653 -0.45661788 0.84704434 1 1 1
-0.28935439 -0.45921937 0.86177689 36 33 35
-0.29007858 -0.44999795 0.92424093 51 42 44
-0.28978153 -0.43053080 0.92494665 54 45 46
-0.28989856 -0.40991393 0.92532047 60 50 51
-0.28994606 -0.38998647 0.92547236 63 53 54
-0.28999267 -0.37005064 0.92562126 69 55 56
-0.29008075 -0.35015872 0.92590246 76 62 62
-0.29016663 -0.33025216 0.92617669 83 70 70
-0.29023359 -0.31031361 0.92639058 91 76 75
-0.29029778 -0.29036304 0.92659547 99 84 81
-0.29015409 -0.26988389 0.92676047 103 84 84
-0.29030357 -0.25013033 0.92694193 105 85 85
-0.28968509 -0.22965320 0.92719751 107 89 85
-0.28976499 -0.20967880 0.92745333 108 91 88
-0.28983959 -0.18968977 0.92769209 109 91 88
-0.28990410 -0.16968468 0.92789855 111 91 89
-0.28993827 -0.14965493 0.92800791 112 92 90
-0.28996269 -0.12961609 0.92808614 113 91 90
-0.28999242 -0.11037790 0.92818142 111 93 91
-0.29000414 -0.09032816 0.92821900 113 93 92
-0.29000510 -0.07027397 0.92822200 114 93 92
-0.29001018 -0.05022035 0.92823835 113 92 91
-0.29003561 -0.03016838 0.92831962 97 79 79
-0.29001468 -0.01003079 0.92410165 113 93 91
-0.29021580 0.01018795 0.91660202 141 125 115
-0.28426076 0.00110999 0.92001418 136 118 111
-0.28989996 0.02932771 0.90989965 144 128 123
-0.29006586 0.04972592 0.90622331 96 96 102
-0.29007552 0.07404033 0.89792696 122 123 131
-0.29012869 0.06424667 0.90157444 131 132 135
-0.28999262 0.08969937 0.89188813 137 138 145
-0.28995971 0.11028043 0.88389893 129 130 142
-0.29003928 0.13044469 0.87609166 131 135 146
-0.28995639 0.15038488 0.86818878 124 129 142
-0.29022058 0.17482410 0.85819195 119 127 144
-0.28972535 0.16522824 0.86215736 128 135 149
-0.28997941 0.18956508 0.85207883 109 116 134
-0.28999492 0.21876972 0.83990582 134 140 153
-0.28997303 0.20889806 0.84407382 100 107 126
-0.28996640 0.22978592 0.83512413 129 136 149
-0.28996657 0.25019247 0.82625464 100 107 126
-0.29008535 0.27242419 0.81654289 105 113 127
-0.28951883 0.26256618 0.82091867 85 95 114
-0.29002249 0.29036160 0.80878121 117 126 140
-0.28994766 0.31526423 0.79762862 108 118 133
-0.29004788 0.30530958 0.80215616 119 126 140
-0.29006236 0.33034735 0.79085854 96 105 120
-0.28988838 0.35780991 0.77914026 134 141 155
-0.29000185 0.34817723 0.78321280 116 126 142
-0.28999012 0.36950763 0.77249083 35 37 39
-0.29113543 0.39891752 0.75951412 0 0 0
-0.28987387 0.38859171 0.76360054 0 0 0
-0.28999683 0.41029374 0.75544245 0 0 0
-0.29001460 0.42345549 0.75096800 0 0 0
-0.27011254 -0.54921112 0.82791597 0 0 0
-0.26992280 -0.52992585 0.83010766 0 0 0
-0.27001212 -0.51000892 0.83315839 0 0 0
-0.27013058 -0.49002558 0.83707231 0 0 0
-0.26985821 -0.48356172 0.92241847 45 37 38
-0.27176851 -0.47863621 0.83965983 0 0 0
-0.26974374 -0.46895224 0.84270236 0 0 0
-0.27155524 -0.46421529 0.87398714 33 26 34
-0.26874839 -0.46820202 0.88408027 44 36 39
-0.27015993 -0.46973626 0.92345203 47 38 41
-0.26989162 -0.45584401 0.84740126 1 1 1
-0.27012366 -0.45031414 0.92419008 49 41 42
-0.26980057 -0.43053503 0.92495599 52 43 45
-0.26992196 -0.40993694 0.92537255 56 48 49
-0.26997716 -0.39002416 0.92556194 60 51 52
-0.27003256 -0.37010293 0.92575218 67 55 56
-0.27011565 -0.35020964 0.92603709 74 59 60
-0.27019819 -0.33030323 0.92632003 79 67 68
-0.27007479 -0.30995262 0.92655611 89 73 74
-0.27052177 -0.29003347 0.92677071 97 81 78
-0.26993773 -0.26944275 0.92696094 97 81 80
-0.26963785 -0.24967198 0.92714655 102 82 82
-0.26971070 -0.22970261 0.92739706 103 85 84
-0.26978937 -0.20972721 0.92766758 104 87 84
-0.26986182 -0.18973571 0.92791682 107 87 86
-0.26991749 -0.16972304 0.92810819 109 88 87
-0.26994984 -0.14968901 0.92821937 109 90 89
-0.26997724 -0.12964784 0.92831370 111 90 88
-0.27000685 -0.11040572 0.92841548 111 89 87
-0.27002422 -0.09035309 0.92847531 110 91 89
-0.27001906 -0.07029183 0.92845746 111 91 86
-0.27003050 -0.05023424 0.92849690 111 90 89
-0.27004328 -0.03017590 0.92854048 95 78 77
-0.26999337 -0.01009017 0.92416154 112 93 90
-0.27001450 0.01055574 0.91657018 142 125 117
-0.26996001 0.00111003 0.92005101 132 114 109
-0.27008341 0.02937577 0.91017461 134 120 117
-0.27011146 0.04961435 0.90661566 98 97 102
-0.27015897 0.07406715 0.89804312 121 121 131
-0.27004466 0.06420840 0.90174865 133 134 138
-0.26993453 0.08975607 0.89199166 135 135 143
-0.27002206 0.11030165 0.88400235 127 128 140
-0.27000283 0.13054578 0.87614046 115 121 137
-0.26999271 0.15037275 0.86827934 132 135 150
-0.26996941 0.17524214 0.85820375 111 118 137
-0.26999229 0.16565197 0.86209571 115 121 138
-0.26995653 0.18956483 0.85227197 111 118 137
-0.27622808 0.21878881 0.83997909 97 101 126
-0.26983068 0.20942348 0.84398976 115 120 135
-0.27002531 0.22987049 0.83522907 119 124 135
-0.26994027 0.25019509 0.82629548 111 117 132
-0.26992052 0.27203034 0.81665213 113 119 135
-0.27021746 0.26216123 0.82101567 116 125 137
-0.27000820 0.29030047 0.80869034 105 113 130
-0.26991132 0.31524710 0.79747908 113 124 140
-0.26999095 0.30524865 0.80204432 101 113 130
-0.26999077 0.33033380 0.79069419 120 128 145
-0.26870849 0.35779790 0.77900230 180 188 194
-0.27020225 0.34803303 0.78309651 173 181 188
-0.27014890 0.36950401 0.77217259 14 15 15
-0.27649654 0.39932399 0.75973642 0 0 0
-0.26983194 0.38937766 0.76369717 0 0 0
-0.26999568 0.40999316 0.75612309 0 0 0
-0.26980192 0.42361596 0.75157849 0 0 0
-0.25007382 -0.54959317 0.82906427 0 0 0
-0.24978833 -0.53010642 0.83126002 0 0 0
-0.25025413 -0.50978868 0.83428682 0 0 0
-0.25038685 -0.49050729 0.83795665 0 0 0
-0.24411008 -0.48129919 0.84027809 0 0 0
-0.24428566 -0.48252744 0.91621995 42 36 38
-0.25092575 -0.48288435 0.92210037 44 36 37
-0.24984766 -0.47027121 0.84334112 0 0 0
-0.24520063 -0.46573662 0.87971407 23 18 18
-0.25520489 -0.46595798 0.88013220 36 31 32
-0.24162026 -0.47819619 0.90620708 40 35 38
-0.25020124 -0.46972260 0.92342531 45 37 40
-0.25031768 -0.45563979 0.84844954 0 0 0
-0.24986541 -0.44998421 0.92420323 48 40 42
-0.24982533 -0.43055016 0.92498879 51 42 43
-0.24995070 -0.40997251 0.92545298 54 45 47
-0.25000956 -0.39007004 0.92567094 59 49 50
-0.25006851 -0.37015769 0.92588930 64 52 53
-0.25015050 -0.35026857 0.92619295 69 57 56
-0.25023026 -0.33036326 0.92648858 77 62 63
-0.25030380 -0.30963666 0.92676102 85 69 70
-0.25036750 -0.28968774 0.92699706 90 75 72
-0.25000394 -0.26992333 0.92718935 91 76 75
-0.24967030 -0.24973563 0.92738293 96 76 76
-0.24973709 -0.22976057 0.92763100 98 79 79
-0.24981166 -0.20978155 0.92790807 100 83 80
-0.24988189 -0.18978727 0.92816901 103 83 82
-0.24993636 -0.16977118 0.92837137 106 84 83
-0.24996334 -0.14972971 0.92847162 105 85 82
-0.24998982 -0.12968363 0.92856995 106 85 83
-0.24991595 -0.10975992 0.92868262 106 86 83
-0.25014582 -0.08971927 0.92874103 108 86 86
-0.25002725 -0.07031085 0.92870882 108 86 86
-0.25004005 -0.05024825 0.92875645 106 86 84
-0.25002569 -0.03018155 0.92870245 94 74 73
-0.24998835 -0.01007115 0.92421928 112 90 89
-0.25002522 0.01062512 0.91665967 142 124 118
-0.25009434 0.00111009 0.92009637 131 111 108
-0.25006360 0.02944830 0.91062841 131 116 115
-0.25000133 0.04961041 0.90691299 104 104 109
-0.25023109 0.07409218 0.89813671 125 125 134
-0.24982068 0.06421808 0.90188508 123 122 126
-0.24992825 0.08975358 0.89213049 133 134 142
-0.25008529 0.11032530 0.88412544 121 124 137
-0.24996612 0.13057856 0.87622564 122 128 142
-0.25002805 0.15038775 0.86838958 129 133 148
-0.24999671 0.17542436 0.85828894 113 121 137
-0.25000837 0.16571000 0.86221485 107 112 131
-0.24995798 0.18958536 0.85239721 119 126 142
-0.24997960 0.20958367 0.84402223 110 117 134
-0.25006181 0.22986964 0.83530957 119 126 140
-0.25001028 0.25025128 0.82634405 104 111 130
-0.25004047 0.27200216 0.81663838 134 141 153
-0.24967151 0.26213904 0.82104476 128 136 149
-0.25001083 0.29024167 0.80865385 115 122 139
-0.24991500 0.31519893 0.79746322 151 158 168
-0.24996068 0.30521434 0.80200107 118 127 142
-0.24998083 0.33026093 0.79059983 180 187 193
-0.25034548 0.35768152 0.77847759 103 107 110
-0.24987563 0.34767111 0.78310747 188 195 200
-0.25000843 0.36973479 0.77174821 0 0 0
-0.25000302 0.38976298 0.76391761 0 0 0
-0.25012327 0.41003222 0.75664102 0 0 0
-0.24602482 0.40031443 0.76012067 0 0 0
-0.25006833 0.42349540 0.75222773 0 0 0
-0.23005654 -0.54997870 0.83020553 0 0 0
-0.22985005 -0.52987860 0.83239178 0 0 0
-0.23006498 -0.51004975 0.83526299 0 0 0
-0.23044677 -0.49245319 0.83846139 0 0 0
-0.22904806 -0.48229616 0.84066495 0 0 0
-0.23513436 -0.48097605 0.91447036 44 35 37
-0.22995219 -0.48186776 0.92222743 44 35 38
-0.22990540 -0.46974231 0.84447560 0 0 0
-0.23021193 -0.46253388 0.87473520 16 13 14
-0.23194997 -0.46969180 0.89009081 40 35 36
-0.22693596 -0.47895964 0.91021314 42 34 37
-0.23024973 -0.46972118 0.92342256 45 35 38
-0.22995962 -0.45562602 0.84955907 0 0 0
-0.22550408 -0.45814672 0.86537778 0 0 0
-0.22979644 -0.44976637 0.92429923 47 38 41
-0.23002089 -0.43002547 0.92512317 50 40 43
-0.22998359 -0.41002159 0.92556381 52 43 45
-0.23004051 -0.39012146 0.92579300 57 46 48
-0.23009442 -0.37020592 0.92600990 59 48 49
-0.23006578 -0.35018010 0.92633622 66 53 53
-0.23036421 -0.33030576 0.92667757 72 58 58
-0.23033503 -0.30970941 0.92697887 79 65 65
-0.22978720 -0.28962243 0.92724069 87 69 69
-0.22964656 -0.26978685 0.92743425 88 71 70
-0.22969420 -0.24980123 0.92762664 88 71 72
-0.22976054 -0.22982586 0.92789480 91 74 74
-0.22983200 -0.20984382 0.92818345 95 75 76
-0.22989835 -0.18984498 0.92845138 97 78 77
-0.22995294 -0.16982613 0.92867218 99 79 79
-0.22998137 -0.14978059 0.92878707 100 80 79
-0.23000202 -0.12972561 0.92887034 102 80 79
-0.23002037 -0.10966580 0.92894413 103 81 80
-0.23003025 -0.08959980 0.92898366 104 81 81
-0.23002018 -0.07032853 0.92894310 103 83 81
-0.23003782 -0.05026223 0.92901442 103 82 81
-0.23000328 -0.03018748 0.92887431 91 72 72
-0.22996476 -0.00993401 0.92420995 111 90 88
-0.22995261 0.01073924 0.91669620 143 124 120
-0.23022068 0.00111011 0.92011710 130 108 107
-0.23009215 0.02960810 0.91108346 125 110 109
-0.22997661 0.04965743 0.90710631 107 106 110
-0.23018044 0.07404884 0.89823902 108 109 123
-0.22970213 0.06417447 0.90198297 127 126 131
-0.22991035 0.08978800 0.89222518 130 131 141
-0.23013945 0.11034722 0.88423417 126 129 141
-0.23010631 0.13106854 0.87614952 122 127 143
-0.22779642 0.12122584 0.88003217 118 122 142
-0.22995705 0.15041656 0.86848918 121 125 142
-0.22997811 0.17528675 0.85842209 102 109 129
-0.23010236 0.16580507 0.86227214 112 119 137
-0.22998885 0.18965091 0.85243278 109 117 137
-0.22999840 0.20961950 0.84402319 114 120 136
-0.22998352 0.22983159 0.83532527 100 107 126
-0.23006672 0.25022318 0.82638873 124 131 146
-0.23022003 0.27249187 0.81654312 112 119 134
-0.22908093 0.26265513 0.82092125 110 118 137
-0.22996008 0.29038589 0.80862605 131 139 152
-0.23000139 0.31525584 0.79742008 188 195 199
-0.23002833 0.30529647 0.80193222 178 184 190
-0.23000688 0.33027246 0.79060137 184 190 196
-0.22933412 0.35726625 0.77775533 5 6 6
-0.23021973 0.34762798 0.78323571 185 192 198
-0.23003991 0.36984180 0.77186678 0 0 0
-0.22997461 0.39001372 0.76424484 0 0 0
