ply
format ascii 1.0
element vertex 1109
property float x
property float y
property float z
property uchar red
property uchar green
property uchar blue
end_header
1.01377404 -0.11012531 0.96294210 55 59 59
1.00390747 -0.09031500 0.95804576 55 58 60
1.01292194 -0.08952411 0.96270904 56 58 61
1.00381772 -0.06964781 0.95802332 55 58 60
1.01298754 -0.06956077 0.96277137 55 57 59
1.00421160 -0.04936546 0.95836760 54 57 59
1.01338335 -0.04961140 0.96314753 55 58 59
1.00422929 -0.03115443 0.95864823 52 56 57
1.01304182 -0.02892648 0.96327395 53 57 57
1.00249081 -0.01000441 0.95834055 53 56 58
1.01340869 -0.00947881 0.96404222 52 55 57
1.00182390 0.01020314 0.95833909 51 55 57
1.01239877 0.01004708 0.96384690 51 55 58
1.00187822 0.03015960 0.95877743 49 52 56
1.01132863 0.03064927 0.96372560 49 53 56
1.00156727 0.04097259 0.95980281 48 52 54
1.01025727 0.04797602 0.96867960 47 51 54
1.00977739 0.05654317 0.98940716 58 61 63
1.01178717 0.05998753 1.00024673 60 63 64
1.00960773 0.06360436 1.01111742 64 66 68
1.00954558 0.07149450 1.03140381 73 73 72
1.01029556 0.07804181 1.04521217 74 74 72
1.00973589 0.08333492 1.05501353 78 78 79
1.00983901 0.09287660 1.07027905 81 83 81
1.01008019 0.10866942 1.09038992 86 88 87
1.00970414 0.11939235 1.10172590 90 93 94
1.00993315 0.13004984 1.11108910 94 96 95
1.01048266 0.14066378 1.11946517 98 99 96
1.00998339 0.15139824 1.12675926 101 103 101
1.01011209 0.16735969 1.13646678 107 108 104
1.01006467 0.17698870 1.14159096 112 113 111
1.00995269 0.18984754 1.14769720 113 115 114
1.00986984 0.20925569 1.15592682 117 119 115
1.01103383 0.21995216 1.16005972 120 123 118
1.01004349 0.23075127 1.16380455 122 124 118
1.00989939 0.25017519 1.16998388 126 128 122
1.01002029 0.26961123 1.17547617 126 128 121
1.00999266 0.28369561 1.17904053 128 129 123
1.01020576 0.29450801 1.18157001 125 127 121
1.00988460 0.31084226 1.18514287 125 127 122
1.01009162 0.33022141 1.18896891 128 129 121
1.00996633 0.34971782 1.19246650 129 130 124
1.00998764 0.36928690 1.19561248 129 129 124
1.00987475 0.38937141 1.19857834 130 131 124
1.01474841 0.39968218 1.20001994 130 131 123
1.01002451 0.41074912 1.20141978 129 130 122
1.00995343 0.43029238 1.20381020 130 130 124
1.00994119 0.44986773 1.20600809 130 131 124
1.01000524 0.46915302 1.20799128 130 131 123
1.01007258 0.48949177 1.20991467 130 131 124
1.00996568 0.51038541 1.21170103 131 133 126
1.01000910 0.52997541 1.21316426 136 138 131
1.01002220 0.54921578 1.21441430 141 144 137
1.00991154 0.57003291 1.21569163 112 115 112
1.01002262 0.59036917 1.21734649 0 0 0
1.01010706 0.61015099 1.21834068 0 0 0
1.00989295 0.62944302 1.21919821 0 0 0
1.00976951 0.64478639 1.21978350 0 0 0
1.01010034 0.65555611 1.22017611 0 0 0
1.01006969 0.67029776 1.22068513 0 0 0
1.01021574 0.68765892 1.22125411 0 0 0
1.03099744 -0.66550591 0.99365188 39 39 42
1.03020694 -0.65025821 0.99279006 40 40 42
1.03015385 -0.62999517 0.99214212 41 41 43
1.03020029 -0.61000226 0.99065830 42 43 45
1.02999818 -0.58998117 0.98852954 42 42 45
1.02982788 -0.56989869 0.98671213 43 44 47
1.03008153 -0.55001355 0.98540496 43 44 46
1.03055500 -0.53003573 0.98437516 44 45 47
1.02134571 -0.50844253 0.97956772 45 46 48
1.03086187 -0.51020233 0.98319405 45 46 48
1.02338576 -0.48899968 0.97884015 45 46 48
1.03302356 -0.49038389 0.98242917 45 46 48
1.02530303 -0.46952719 0.97806358 45 46 48
1.03511502 -0.47028931 0.98182093 45 46 49
1.02624364 -0.44955644 0.97724207 47 47 50
1.03655831 -0.45081111 0.98147259 48 48 50
1.02650338 -0.43035990 0.97679687 49 49 50
1.03628659 -0.42990261 0.98092352 49 50 50
1.02692733 -0.40993593 0.97682200 48 49 51
1.03625606 -0.40993612 0.98085972 47 48 50
1.02704487 -0.39014168 0.97693370 49 49 51
1.03642796 -0.39004740 0.98098755 49 50 51
1.02744378 -0.36952420 0.97698173 50 51 52
1.03635111 -0.37186506 0.98082306 48 50 51
1.02740256 -0.34985458 0.97641488 49 50 51
1.03781106 -0.34938857 0.98096281 49 50 52
1.02852244 -0.33006433 0.97598224 51 51 52
1.03852673 -0.33101837 0.98060314 50 50 52
1.02881113 -0.31004902 0.97545963 52 53 55
1.02944021 -0.29007342 0.97517382 53 54 55
1.03984276 -0.28599742 0.98024599 52 53 54
1.03013057 -0.26975418 0.97521857 52 53 54
1.03965417 -0.27747541 0.98006821 51 55 55
1.02995287 -0.25003433 0.97489681 53 53 55
1.02947131 -0.22999722 0.97446362 53 54 55
1.02945430 -0.21037608 0.97397295 52 53 55
1.03035983 -0.18996581 0.97364345 54 56 59
1.02992720 -0.17011549 0.97252971 54 57 58
1.02971088 -0.14974318 0.97159363 55 57 59
1.03073625 -0.13030078 0.97180753 55 58 59
1.03028035 -0.10960495 0.97155073 55 59 60
1.02925879 -0.09017487 0.97110659 54 59 61
1.02949209 -0.07017457 0.97127086 54 57 58
1.02998474 -0.05005384 0.97173563 55 59 59
1.03038637 -0.03004248 0.97217059 54 58 59
1.02993923 -0.00974997 0.97248861 52 56 57
1.03061863 0.01069794 0.97328297 52 55 57
1.02975938 0.03014525 0.97332051 49 53 55
1.02930571 0.04773628 0.97546749 46 49 52
1.03026190 0.05752029 0.99098804 57 59 62
1.02999794 0.06408211 1.01092204 62 65 67
1.03002084 0.07150240 1.02999114 69 71 71
1.03046374 0.07791518 1.04404084 72 73 72
1.02984263 0.08326521 1.05413015 75 76 75
1.02989692 0.09276058 1.06956454 80 81 79
1.03829264 0.10023442 1.07996452 89 91 92
1.02990556 0.10887180 1.09043568 87 89 87
1.02971461 0.11939425 1.10174337 87 91 90
1.03002755 0.12998826 1.11108069 91 96 94
1.02994950 0.14067990 1.11959349 92 100 98
1.02990734 0.15127677 1.12680722 99 101 100
1.03007768 0.16729788 1.13659263 107 107 104
1.02997883 0.17702011 1.14179360 108 109 107
1.02997827 0.18988239 1.14790752 113 114 109
1.03001191 0.20922170 1.15610922 115 117 112
1.02922438 0.21998311 1.16022298 119 121 114
1.02997012 0.23066320 1.16393321 121 123 116
1.03001203 0.25012998 1.17009171 125 127 120
1.03021139 0.26968618 1.17560148 125 127 122
1.02994949 0.28377548 1.17915544 128 129 122
1.03004059 0.29457264 1.18168360 128 129 121
1.02989056 0.31076802 1.18522273 127 128 123
1.02992581 0.33032528 1.18908604 128 129 120
1.02997969 0.34982150 1.19257634 129 129 122
1.03004853 0.36934075 1.19571052 128 129 125
1.03010887 0.38884968 1.19858605 129 130 124
1.03035228 0.39970072 1.20007559 129 130 123
1.03003886 0.41029512 1.20142638 130 131 124
1.03000137 0.42983497 1.20380954 129 130 123
1.02990715 0.44940517 1.20600373 129 129 123
1.02999205 0.46924466 1.20804233 129 130 123
1.02996588 0.49008090 1.21001048 131 132 124
1.03002493 0.51032987 1.21174640 132 133 129
1.02999681 0.52980237 1.21321813 137 140 132
1.03002262 0.54945615 1.21451058 140 143 137
1.03000717 0.56975466 1.21569269 132 135 132
1.02996773 0.59086794 1.21735957 0 0 0
1.03004989 0.60989537 1.21836989 0 0 0
1.02996241 0.62947377 1.21925773 0 0 0
1.02970251 0.64399666 1.21982372 0 0 0
1.03017407 0.65460149 1.22022166 0 0 0
1.03019248 0.67034927 1.22077890 0 0 0
1.02962146 0.68755225 1.22135303 0 0 0
1.04467087 -0.66724531 0.99843641 39 39 42
1.05475282 -0.66867301 1.00200187 39 39 42
1.04573981 -0.64940148 0.99826018 41 41 43
1.05526620 -0.65087433 1.00169893 40 41 42
1.04631123 -0.62931691 0.99772026 40 41 43
1.05635385 -0.63072081 1.00136939 40 41 44
1.04850942 -0.60948788 0.99695270 42 43 44
1.05817325 -0.61145807 1.00066135 42 43 45
1.04990245 -0.59004693 0.99577363 42 43 45
1.04965990 -0.57019085 0.99422363 43 43 45
1.04993676 -0.54983905 0.99296804 44 44 46
1.04996117 -0.52959136 0.99176974 44 45 47
1.04984111 -0.51002242 0.99049348 45 45 47
1.04975557 -0.49035856 0.98917474 45 46 47
1.05004122 -0.47007612 0.98815152 46 47 49
1.04996368 -0.45006782 0.98737825 47 48 49
1.04947858 -0.42993503 0.98689891 48 48 49
1.04938733 -0.41002073 0.98683619 48 49 51
1.04945384 -0.39027740 0.98688707 48 50 51
1.04903443 -0.37026292 0.98653843 49 50 51
1.04995349 -0.35014798 0.98662571 49 50 52
1.05056238 -0.32995387 0.98631402 49 51 53
1.04961033 -0.31008691 0.98544321 51 52 54
1.04989159 -0.29048081 0.98520211 51 53 54
1.05000855 -0.26986331 0.98503572 53 55 56
1.04961500 -0.24999445 0.98461164 52 54 54
1.05037925 -0.22978895 0.98478238 53 54 55
1.04063214 -0.20788116 0.97939434 54 55 57
1.05108093 -0.21031727 0.98460378 54 55 58
1.04253353 -0.18591103 0.97959034 55 58 60
1.05098809 -0.19053415 0.98396497 54 58 59
1.04208620 -0.16877664 0.97870204 54 56 57
1.05277938 -0.17021181 0.98413592 55 57 58
1.04281113 -0.15139390 0.97848879 55 57 59
1.05255529 -0.15009195 0.98341324 54 57 58
1.04398420 -0.12856771 0.97872736 55 58 59
1.05287146 -0.13098216 0.98328214 54 58 59
1.04419320 -0.10962598 0.97876464 54 59 60
1.05356037 -0.11016317 0.98355992 54 59 60
1.04445032 -0.08974920 0.97897117 54 59 61
1.05372499 -0.08977779 0.98371361 54 58 60
1.04384141 -0.07164349 0.97864361 55 57 58
1.05308278 -0.06906948 0.98339799 56 58 59
1.04289906 -0.05039445 0.97834490 54 58 58
1.05203421 -0.05022696 0.98299545 54 58 58
1.04315964 -0.02939861 0.97871124 54 60 60
1.05265199 -0.03026069 0.98350367 53 59 59
1.04218886 -0.01116678 0.97863010 54 57 59
1.05286568 -0.00934473 0.98400815 54 57 58
1.04201784 0.01049117 0.97910578 52 55 57
1.05173541 0.01009165 0.98400202 52 55 57
1.04154848 0.02995772 0.97945973 51 56 56
1.05095762 0.03039503 0.98418276 49 54 54
1.04076769 0.04181465 0.97952191 50 55 56
1.05014121 0.05132144 0.98777708 50 53 55
1.04973658 0.06402821 1.00933182 60 62 64
1.05041641 0.07149115 1.02880155 65 67 68
1.05004949 0.07792167 1.04307677 71 72 72
1.04986476 0.08319160 1.05319686 73 77 76
1.04992088 0.09276852 1.06902729 79 81 78
1.05015892 0.10020902 1.07969087 84 85 84
1.04992533 0.10987633 1.09122546 86 88 87
1.05028722 0.11935174 1.10135117 88 93 93
1.05010693 0.12980952 1.11074466 90 95 95
1.05020570 0.14067156 1.11952712 93 99 100
1.04992704 0.15127805 1.12680955 100 101 99
1.05009998 0.16737612 1.13668787 108 107 104
1.04978376 0.17703195 1.14186994 108 109 105
1.04991839 0.18990049 1.14801647 111 113 108
1.05012263 0.20924733 1.15625066 116 117 112
1.05004690 0.22971301 1.16374608 121 123 116
1.05002998 0.25023392 1.17025748 126 127 123
1.05008699 0.26966813 1.17572494 126 128 122
1.04938651 0.28303221 1.17908825 125 125 121
1.05015405 0.29379285 1.18160408 127 129 120
1.05012986 0.31072166 1.18531268 129 129 125
1.04988233 0.33027820 1.18917207 127 128 120
1.04999213 0.34977447 1.19265992 128 128 122
1.04997933 0.36929182 1.19578454 129 130 122
1.05008630 0.38880020 1.19865303 128 129 121
1.05012270 0.39972553 1.20015010 128 130 121
1.05005598 0.41064503 1.20153392 129 130 124
1.04992914 0.43025853 1.20391135 129 130 124
1.04997765 0.44969762 1.20607939 130 131 123
1.04998337 0.46905792 1.20806272 129 131 123
1.04998765 0.48954201 1.21000493 131 132 127
1.05006707 0.51059823 1.21181066 134 135 131
1.04995018 0.53002635 1.21328081 135 137 132
1.05003080 0.54928244 1.21456159 140 142 136
1.05000517 0.56998460 1.21575792 142 146 142
1.04994513 0.59033881 1.21728277 8 8 8
1.05006723 0.61026969 1.21842801 0 0 0
1.05003615 0.62950587 1.21931988 0 0 0
1.04943718 0.64287564 1.21984862 0 0 0
1.05015174 0.65362195 1.22026366 0 0 0
1.05031644 0.67039961 1.22087054 0 0 0
1.04976521 0.68761064 1.22145675 0 0 0
1.07483889 -0.68118426 1.01027064 40 40 43
1.07004927 -0.66969216 1.00781268 40 40 42
1.07049776 -0.65005660 1.00749489 39 40 42
1.06976908 -0.63044818 1.00642856 40 41 43
1.07001655 -0.61044909 1.00515763 42 43 44
1.06043181 -0.58711772 0.99965501 43 44 46
1.07055916 -0.59024044 1.00396050 43 43 45
1.06204462 -0.56832322 0.99911320 43 44 46
1.07194052 -0.56999611 1.00327730 43 44 46
1.06393352 -0.54883451 0.99859461 44 45 47
1.07367893 -0.55023801 1.00266459 44 45 47
1.06477100 -0.52998477 0.99790961 44 45 47
1.07468434 -0.53062543 1.00201340 45 45 47
1.06627119 -0.50968899 0.99732078 44 45 47
1.07648033 -0.51026382 1.00160607 45 45 47
1.06747436 -0.48952886 0.99666881 46 47 48
1.07743013 -0.48945637 1.00089942 46 47 48
1.06865043 -0.47014605 0.99634165 46 47 48
1.07874407 -0.47014002 1.00074775 46 47 48
1.06853846 -0.44971399 0.99574212 47 49 49
1.07820104 -0.45168951 1.00011045 46 48 50
1.06949250 -0.43004037 0.99601764 47 48 49
1.06938011 -0.40994818 0.99595889 49 50 51
1.06946831 -0.38982880 0.99594944 49 51 52
1.06924242 -0.37002173 0.99583173 48 50 52
1.06931716 -0.35037723 0.99556348 49 51 53
1.07039095 -0.32943746 0.99565972 51 52 54
1.07990281 -0.33067835 1.00008559 52 53 55
1.07053531 -0.30994189 0.99543172 51 52 54
1.06985818 -0.28991226 0.99470944 51 52 54
1.06912319 -0.27001294 0.99411885 54 56 57
1.06879908 -0.24999690 0.99376017 54 55 55
1.06956745 -0.23058887 0.99397705 55 56 57
1.07081199 -0.21001667 0.99410332 53 55 57
1.06974604 -0.19005284 0.99309078 53 57 58
1.07004761 -0.17033991 0.99262230 55 57 58
1.07033893 -0.14978839 0.99217832 55 58 60
1.07013592 -0.12994638 0.99182658 55 59 60
1.07020065 -0.10993763 0.99184061 54 59 61
1.07004738 -0.09010907 0.99184770 54 58 59
1.07027341 -0.06995487 0.99195351 56 59 59
1.07079376 -0.04980866 0.99233209 54 57 58
1.07039763 -0.03036525 0.99229443 53 58 59
1.06978308 -0.00994924 0.99229658 54 57 58
1.06962768 0.01026053 0.99282187 52 56 58
1.07047396 0.02967060 0.99367580 48 52 52
1.06985349 0.05050872 0.99504505 48 52 54
1.07735654 0.05911611 1.00012875 40 40 48
1.07061051 0.06486262 1.01125254 58 60 62
1.07066394 0.07312496 1.03151039 66 66 68
1.06804656 0.07831244 1.04320738 70 71 72
1.07026665 0.08378777 1.05357178 71 75 75
1.06948810 0.09338867 1.06939602 76 80 79
1.07012908 0.10015688 1.07912901 81 82 80
1.07000275 0.10973308 1.09067087 84 86 85
1.06991798 0.11931191 1.10098362 86 91 90
1.07001712 0.13019254 1.11073105 91 94 94
1.07022011 0.14063173 1.11921015 95 99 100
1.06992114 0.15131292 1.12660011 98 100 98
1.06995797 0.16742845 1.13660459 106 106 103
1.07011718 0.17702199 1.14180538 109 109 105
1.07007219 0.18982802 1.14796559 110 111 107
1.07014299 0.20925433 1.15628922 116 117 112
1.07001646 0.22963701 1.16377657 120 121 117
1.07011090 0.25022809 1.17033808 122 124 118
1.06992987 0.26964125 1.17580840 126 128 121
1.07008373 0.28258725 1.17907196 126 127 121
1.06993897 0.29345166 1.18161319 126 128 121
1.07002013 0.31082109 1.18542538 129 129 123
1.07007426 0.33025667 1.18926323 128 129 121
1.06988099 0.34987722 1.19276579 127 129 121
1.07004539 0.36939529 1.19588754 128 130 119
1.07007008 0.38894962 1.19874529 127 129 121
1.06988657 0.39974700 1.20021454 128 129 122
1.07006963 0.41059072 1.20158520 127 129 122
1.06997101 0.43004875 1.20393188 128 130 124
1.07004653 0.44973593 1.20611987 130 131 123
1.06996362 0.46942534 1.20813659 129 131 122
1.06998436 0.48999915 1.21008029 129 130 124
1.07012697 0.51020835 1.21181318 132 133 127
1.07002913 0.52993838 1.21331366 136 137 134
1.07000326 0.54950559 1.21461978 140 142 138
1.07002403 0.56980435 1.21579900 142 146 142
1.06986106 0.59082179 1.21726327 25 25 25
1.07001272 0.60988106 1.21844169 0 0 0
1.07010885 0.62953620 1.21937859 0 0 0
1.06958929 0.64237196 1.21989552 0 0 0
1.07010767 0.65298457 1.22031194 0 0 0
1.06998576 0.67019456 1.22094399 0 0 0
1.06990166 0.68766220 1.22154832 0 0 0
1.09145796 -0.68329344 1.01667957 40 40 42
1.09971183 -0.68814017 1.02006328 38 39 43
1.08954389 -0.66996756 1.01531033 40 40 42
1.09011748 -0.64967372 1.01505895 39 40 42
1.09009710 -0.63014859 1.01423609 40 41 43
1.08999355 -0.60955480 1.01294048 41 42 44
1.08998106 -0.58969438 1.01170892 42 43 44
1.08981416 -0.57040093 1.01047646 43 44 46
1.09009473 -0.55015757 1.00938046 44 45 46
1.08977038 -0.52983405 1.00820557 45 45 47
1.09029028 -0.51044090 1.00744567 45 46 47
1.08961831 -0.48991773 1.00613471 46 46 48
1.09058665 -0.46997251 1.00594749 46 47 49
1.08996786 -0.44985402 1.00536475 47 48 50
1.08973056 -0.42991424 1.00513414 48 49 50
1.08945992 -0.41006086 1.00498924 48 48 50
1.08972448 -0.38993780 1.00510604 49 50 52
1.08955289 -0.36996957 1.00504074 48 50 52
1.08915947 -0.35008933 1.00458363 50 53 55
1.08951744 -0.33042542 1.00449721 51 52 53
1.09020071 -0.30964670 1.00457452 51 52 54
1.09056739 -0.28999435 1.00433950 51 53 54
1.08129627 -0.27009555 0.99977576 54 56 57
1.09147303 -0.26998660 1.00444897 54 56 57
1.08089671 -0.25013001 0.99940632 54 56 55
1.09150846 -0.24995098 1.00431490 53 55 55
1.08056183 -0.23019464 0.99909669 55 56 57
1.09083396 -0.22992163 1.00386075 55 57 58
1.08266951 -0.20736924 0.99967586 54 56 58
1.09130673 -0.21054575 1.00374310 53 56 57
1.08222233 -0.18960269 0.99903543 53 57 58
1.09221478 -0.18962142 1.00371745 53 57 58
1.08252586 -0.16925235 0.99855627 54 57 58
1.09327533 -0.17026902 1.00364755 55 58 59
1.08403049 -0.14922111 0.99873078 54 58 59
1.09289825 -0.15075843 1.00293848 52 57 58
1.08435847 -0.12997387 0.99861665 55 59 60
1.09335328 -0.12993177 1.00286281 55 59 61
1.08443356 -0.11013124 0.99868581 55 59 62
1.09323372 -0.11002869 1.00284529 54 58 61
1.08471810 -0.08985073 0.99891329 56 58 60
1.09354156 -0.08981133 1.00308091 56 58 60
1.08463664 -0.07003213 0.99890739 55 58 59
1.09362228 -0.06987804 1.00315496 55 58 59
1.08408299 -0.05144810 0.99876060 54 57 59
1.09259881 -0.04929188 1.00279310 55 57 59
1.08298280 -0.02866357 0.99838919 54 58 59
1.09236467 -0.02998836 1.00279484 54 58 59
1.08229432 -0.01000950 0.99830477 54 57 59
1.09287997 -0.01005935 1.00326794 54 57 58
1.08240670 0.00835787 0.99886379 51 56 57
1.09268318 0.01028577 1.00369837 50 56 57
1.08258711 0.02970646 0.99937217 49 53 53
1.09265855 0.02998232 1.00402737 49 54 55
1.08172087 0.04710857 0.99948364 50 55 57
1.09082155 0.05055238 1.00385270 48 53 55
1.08979979 0.06459428 1.01172122 52 53 57
1.09033156 0.07352408 1.03158959 65 65 68
1.08948252 0.07879057 1.04318980 70 70 73
1.08998969 0.08415320 1.05354450 73 75 76
1.09031133 0.09365204 1.06937834 75 80 79
1.09006506 0.10010347 1.07855359 80 81 80
1.08998787 0.10953328 1.08999218 85 87 86
1.08950942 0.11926928 1.10059022 87 90 85
1.08989568 0.12978817 1.11004393 91 93 90
1.09018824 0.14058743 1.11885756 91 95 91
1.08995642 0.15122604 1.12626168 96 98 96
1.08985054 0.16730323 1.13629756 104 104 103
1.09030772 0.17698911 1.14159353 106 108 107
1.09008887 0.18987023 1.14783225 112 113 107
1.09004294 0.20923803 1.15619871 115 116 113
1.09848315 0.21999801 1.16030157 115 116 114
1.08978880 0.22981189 1.16378434 119 120 115
1.09019660 0.25012387 1.17027617 123 125 119
1.09000549 0.26968468 1.17579655 123 127 120
1.09009849 0.28265723 1.17907065 125 125 121
1.09006785 0.29348176 1.18161517 126 128 122
1.08982488 0.31089496 1.18544075 127 128 122
1.09007199 0.33038521 1.18930349 128 129 123
1.08996238 0.34988762 1.19280174 128 130 120
1.09007400 0.36933526 1.19592536 127 129 121
1.09002184 0.38889026 1.19878437 127 128 121
1.08963917 0.39976356 1.20026428 129 129 123
1.09007050 0.41053147 1.20162082 126 128 120
1.09001002 0.43008891 1.20397833 126 128 122
1.09011893 0.44952380 1.20613345 129 130 122
1.09007331 0.46896187 1.20812457 130 131 123
1.08999597 0.48970671 1.21008907 130 131 126
1.09004693 0.51068264 1.21189212 131 133 127
1.09010689 0.52984941 1.21334411 136 137 133
1.08999596 0.54932230 1.21464964 140 142 137
1.09002512 0.57003398 1.21586332 141 145 142
1.08982190 0.59028575 1.21717249 46 47 47
1.09002441 0.61035497 1.21850224 0 0 0
1.09006854 0.62946693 1.21942792 0 0 0
1.08955652 0.64140911 1.21991521 0 0 0
1.08993960 0.65218167 1.22034412 0 0 0
1.09006142 0.67073909 1.22103657 0 0 0
1.09002830 0.68770562 1.22162546 0 0 0
1.11038727 -0.68593987 1.02391233 40 40 42
1.10110300 -0.66852103 1.01971885 40 40 43
1.11161238 -0.67009967 1.02387796 40 40 43
1.10122533 -0.64942686 1.01932989 40 41 43
1.11153986 -0.65043658 1.02336407 40 41 44
1.10269205 -0.62813761 1.01901542 40 41 43
1.11219415 -0.63019111 1.02281991 41 41 43
1.10410753 -0.61002808 1.01851509 42 42 44
1.11390711 -0.61060352 1.02243340 43 43 45
1.10489776 -0.58995885 1.01772774 42 43 44
1.11538195 -0.59004106 1.02197097 42 43 45
1.10684605 -0.56918587 1.01735235 44 44 46
1.11652474 -0.57066821 1.02138791 44 44 46
1.10794428 -0.54969379 1.01672391 45 45 47
1.11772447 -0.55139259 1.02084109 44 45 46
1.10871742 -0.53012285 1.01612606 44 45 47
1.11926282 -0.52713518 1.02043591 44 45 47
1.10989850 -0.50984334 1.01572657 45 46 47
1.11906496 -0.51886389 1.02002597 46 47 47
1.10975798 -0.49001143 1.01488118 45 46 46
1.11081775 -0.47019540 1.01488822 47 48 50
1.11032357 -0.45013719 1.01445994 46 48 50
1.11005169 -0.43000298 1.01420023 48 49 50
1.10994174 -0.41013120 1.01414672 49 49 51
1.11020447 -0.38999613 1.01429400 50 51 53
1.10995742 -0.36982103 1.01416103 49 51 53
1.10951058 -0.34993393 1.01371768 51 52 54
1.10926670 -0.32995894 1.01342470 50 51 53
1.10908691 -0.31021982 1.01318347 52 53 55
1.11048465 -0.28945908 1.01342905 52 54 55
1.11077571 -0.26995680 1.01328458 54 56 57
1.11052155 -0.25003605 1.01302956 54 56 56
1.11008576 -0.22997120 1.01266639 54 56 56
1.10943056 -0.20983268 1.01198745 52 56 57
1.10948873 -0.19015042 1.01161033 53 57 58
1.11079787 -0.16985303 1.01168623 56 59 60
1.10982249 -0.15003692 1.01076343 53 57 59
1.10898442 -0.13003322 1.01012788 54 58 60
1.10940931 -0.11008446 1.01031781 54 57 59
1.10908428 -0.09003286 1.01022935 55 58 60
1.10947929 -0.07007327 1.01039189 53 58 59
1.10920950 -0.05002065 1.01033091 54 57 59
1.10965952 -0.03022328 1.01064977 54 57 59
1.11004650 -0.01013737 1.01100237 54 56 57
1.11095375 0.00996679 1.01182886 51 56 57
1.10979347 0.02980051 1.01171883 51 55 56
1.10925829 0.05019480 1.01187779 49 53 56
1.10954561 0.06495027 1.01559060 47 48 54
1.11000976 0.07333198 1.03052479 62 63 66
1.11005124 0.07871482 1.04218687 66 66 71
1.11001259 0.08403705 1.05258845 72 72 75
1.11014116 0.09366966 1.06882652 74 77 78
1.11003857 0.10005550 1.07803679 79 80 80
1.10979119 0.10963749 1.08971463 82 85 84
1.10998993 0.11922152 1.10014946 86 91 84
1.11020875 0.12979116 1.10971695 91 94 90
1.11090752 0.14073779 1.11865360 91 95 92
1.10987622 0.15127312 1.12599535 96 97 96
1.11001854 0.16727791 1.13601450 104 105 103
1.11010042 0.17694640 1.14131830 107 108 107
1.10991107 0.18982883 1.14757948 111 112 107
1.11004577 0.20917672 1.15597984 114 115 112
1.10939786 0.21997518 1.16018116 117 117 114
1.10997885 0.23075669 1.16394802 118 119 112
1.11017461 0.25019049 1.17016164 122 124 117
1.11000638 0.26966149 1.17569507 122 125 120
1.11057969 0.28291558 1.17905063 123 124 118
1.10990007 0.29369177 1.18160221 127 129 122
1.10991879 0.31080574 1.18536650 127 129 122
1.10989181 0.33034638 1.18924866 127 127 123
1.11008623 0.34980224 1.19275067 128 130 119
1.10991520 0.36940490 1.19591801 128 129 122
1.11003775 0.38890958 1.19877001 128 129 120
1.11037187 0.39975895 1.20025042 129 130 121
1.11014268 0.41075342 1.20164170 128 129 123
1.11000662 0.43036221 1.20400571 127 128 122
1.11003282 0.44992636 1.20617305 128 129 123
1.11002345 0.46936738 1.20816818 128 130 123
1.10997499 0.48990306 1.21011471 129 130 123
1.11009564 0.51021118 1.21187216 131 133 127
1.11004224 0.53006220 1.21338143 136 136 133
1.10995537 0.54953735 1.21468991 142 144 138
1.11002422 0.56984204 1.21587948 142 145 142
1.10973115 0.59076615 1.21714844 58 59 58
1.10996469 0.60988296 1.21849927 0 0 0
1.11011732 0.62969164 1.21948043 0 0 0
1.10820111 0.64071746 1.21993656 0 0 0
1.11018987 0.65133105 1.22036673 0 0 0
1.10985072 0.67033958 1.22108530 0 0 0
1.11014407 0.68774077 1.22168790 0 0 0
1.13029970 -0.68825966 1.03175356 39 39 42
1.13035369 -0.66997623 1.03118500 39 40 42
1.12985556 -0.64971430 1.03042829 40 41 44
1.13010655 -0.63037313 1.02983210 42 42 44
1.12986914 -0.60967473 1.02877884 42 43 45
1.13024988 -0.59021288 1.02803058 43 44 46
1.12994395 -0.56991863 1.02682060 45 45 46
1.12996696 -0.55004768 1.02587899 45 46 47
1.13016210 -0.53000537 1.02514432 44 45 46
1.12993342 -0.50997431 1.02429030 45 46 47
1.12041911 -0.49400193 1.01965387 45 46 47
1.13037137 -0.49002910 1.02387485 45 46 47
1.12252837 -0.46153960 1.01996905 45 49 50
1.13129124 -0.46999445 1.02391771 46 47 49
1.12239544 -0.45002763 1.01984826 48 49 50
1.13257501 -0.44987627 1.02429532 47 48 49
1.12200063 -0.43048606 1.01948952 49 50 52
1.13225155 -0.42990045 1.02397470 50 51 53
1.12210790 -0.41026044 1.01958699 50 51 53
1.13239742 -0.41030755 1.02410671 50 51 53
1.12211242 -0.38999604 1.01959109 50 51 53
1.13235061 -0.39012922 1.02409176 49 51 52
1.12210178 -0.37060794 1.01958143 51 52 54
1.13241361 -0.36993916 1.02409274 51 52 53
1.12163095 -0.35019512 1.01915361 50 52 54
1.13196107 -0.34999030 1.02371203 51 52 54
1.12125487 -0.32982678 1.01881190 51 52 54
1.13157865 -0.33007723 1.02339467 52 53 55
1.12195100 -0.30829366 1.01894390 52 54 55
1.13195065 -0.31059241 1.02339533 52 55 55
1.12228280 -0.29136578 1.01876763 54 56 57
1.13227592 -0.28989729 1.02318103 53 55 57
1.12303613 -0.26996029 1.01883033 52 56 57
1.13166479 -0.26987527 1.02266427 52 56 57
1.12341297 -0.24870014 1.01882950 54 55 56
1.13214170 -0.25000667 1.02270419 54 55 56
1.12393052 -0.22992813 1.01887705 54 57 57
1.13444732 -0.23027575 1.02350902 55 58 57
1.12319137 -0.20995189 1.01817230 52 56 57
1.13353806 -0.21000958 1.02274199 53 57 58
1.12390760 -0.18974959 1.01807292 53 56 57
1.13396150 -0.19019288 1.02250992 53 57 58
1.12489189 -0.16965812 1.01805694 56 59 60
1.13418958 -0.16998170 1.02215863 55 58 59
1.12550141 -0.15007357 1.01787311 54 58 60
1.13593768 -0.15014528 1.02247105 55 59 61
1.12510559 -0.13006567 1.01746973 53 57 61
1.13519711 -0.12978251 1.02189660 54 58 62
1.12474655 -0.10984980 1.01723720 54 58 59
1.13519252 -0.11003626 1.02184571 54 59 59
1.12486763 -0.09020556 1.01729998 54 58 60
1.13521828 -0.09029451 1.02182215 53 58 60
1.12465669 -0.06997154 1.01710923 54 58 60
1.13476079 -0.06999620 1.02150256 55 59 61
1.12469274 -0.04975606 1.01714187 54 56 59
1.13477790 -0.04996797 1.02147256 54 57 60
1.12495845 -0.03042457 1.01738217 54 57 58
1.13499024 -0.03055278 1.02166372 53 57 58
1.12513327 -0.01020350 1.01754032 53 57 58
1.13508450 -0.01024586 1.02174859 54 57 59
1.12571611 0.00951738 1.01817022 51 56 57
1.13549812 0.01052314 1.02230241 51 55 57
1.12348839 0.03052473 1.01759799 51 54 56
1.13488894 0.02950684 1.02236668 51 55 56
1.12374954 0.04998476 1.01798299 49 54 56
1.13425397 0.04950276 1.02230144 48 53 55
1.12331496 0.06384637 1.01890520 44 44 51
1.13013293 0.07065426 1.02756498 53 56 60
1.13056123 0.07863793 1.04116878 63 65 69
1.12986786 0.08395190 1.05175949 69 71 73
1.13035626 0.09415369 1.06904713 76 77 79
1.12535656 0.10000921 1.07753799 79 80 81
1.12979502 0.11064874 1.09034437 82 83 83
1.12995667 0.12984520 1.10950624 89 93 90
1.13004256 0.14158145 1.11906624 92 97 95
1.13002877 0.15239937 1.12650687 97 99 99
1.13039454 0.16801149 1.13614520 106 107 105
1.12912486 0.17755720 1.14138750 109 110 109
1.13004237 0.18978784 1.14733513 109 110 107
1.13010072 0.21003368 1.15607809 113 113 110
1.12127661 0.21994512 1.16002262 116 116 111
1.13009519 0.23078222 1.16374142 117 118 111
1.13020027 0.25014633 1.16995505 119 122 116
1.12991110 0.26961605 1.17549704 122 125 120
1.13001409 0.28367835 1.17907737 124 126 119
1.13008255 0.29441508 1.18161408 128 129 121
1.13004334 0.31067065 1.18520278 126 128 121
1.12986843 0.33028493 1.18911228 127 128 119
1.13002061 0.34976900 1.19263890 128 129 121
1.12993238 0.36937717 1.19582874 126 127 122
1.13000685 0.38891262 1.19870639 128 129 121
1.13002709 0.39974027 1.20019433 129 130 121
1.13005045 0.41045907 1.20155320 129 129 122
1.13007832 0.42989642 1.20390701 128 129 123
1.13003618 0.44943466 1.20608287 127 127 123
1.13006774 0.46912877 1.20811467 128 129 121
1.13003689 0.48991664 1.21009826 130 131 123
1.12996439 0.51071213 1.21189825 131 132 127
1.13008333 0.52977748 1.21335013 135 136 133
1.13001800 0.54942977 1.21467853 140 143 138
1.12995844 0.57003618 1.21586819 140 145 141
1.12985668 0.59027798 1.21699775 77 78 78
1.12991642 0.61037506 1.21849796 0 0 0
1.13005266 0.62942037 1.21947891 0 0 0
1.12965072 0.64037311 1.21995008 0 0 0
1.13005982 0.65115276 1.22039188 0 0 0
1.12991552 0.67071692 1.22114263 0 0 0
1.13024546 0.68776590 1.22173256 0 0 0
1.14835889 -0.70115671 1.03935832 39 39 43
1.15643639 -0.70189382 1.04235888 40 40 43
1.14612736 -0.69011635 1.03791119 39 39 42
1.15552701 -0.69057072 1.04138205 40 40 43
1.14671313 -0.66945901 1.03745220 39 40 43
1.15676215 -0.67004439 1.04126239 40 41 43
1.14677706 -0.65028284 1.03698539 40 41 43
1.15742127 -0.65011520 1.04104621 41 41 43
1.14846593 -0.62980400 1.03695838 42 42 44
1.15782097 -0.63095013 1.04059732 43 43 45
1.14893188 -0.61009341 1.03633351 43 43 45
1.15945225 -0.61017767 1.04044718 44 44 46
1.14986652 -0.58990218 1.03588128 44 44 46
1.15041315 -0.57016599 1.03515678 44 45 46
1.14951634 -0.55006201 1.03393069 45 46 47
1.15035644 -0.52997486 1.03359429 44 45 46
1.15003755 -0.50972474 1.03278099 46 47 48
1.14899175 -0.48980388 1.03185411 46 47 48
1.14982388 -0.46994742 1.03191041 46 47 49
1.15135480 -0.44990165 1.03237375 47 48 49
1.15107998 -0.42991024 1.03217417 49 50 52
1.15129588 -0.41002976 1.03232078 49 50 52
1.15141194 -0.39010890 1.03237778 50 52 53
1.15111287 -0.36999700 1.03219249 52 53 54
1.15100858 -0.34999690 1.03202734 51 52 54
1.15050999 -0.32999668 1.03167555 52 53 55
1.15020950 -0.30996122 1.03133475 52 54 54
1.14958614 -0.28990912 1.03079955 52 54 55
1.14907550 -0.27003772 1.03032968 54 56 57
1.14894355 -0.25051201 1.03006224 53 55 56
1.15085310 -0.22955178 1.03061068 54 57 57
1.15066011 -0.20989432 1.03014252 54 58 59
1.14962805 -0.18985016 1.02924232 53 57 58
1.14945351 -0.16981569 1.02868193 55 58 59
1.15102987 -0.14992015 1.02889335 55 58 61
1.15060213 -0.13014192 1.02845157 54 58 61
1.15048480 -0.11013526 1.02835945 53 59 59
1.15000598 -0.08984742 1.02808172 53 58 60
1.14985162 -0.06982194 1.02784026 55 60 62
1.14972588 -0.05027393 1.02772789 54 58 60
1.14979156 -0.02984786 1.02778676 53 57 59
1.14977542 -0.00941836 1.02777244 53 57 58
1.15036395 0.01012881 1.02829867 52 56 57
1.15102861 0.02969522 1.02889283 51 55 56
1.15013587 0.05029498 1.02861669 48 52 55
1.14995627 0.06938215 1.03069608 49 51 55
1.15023386 0.07856798 1.04024270 59 63 66
1.14967771 0.08396545 1.05093875 66 69 72
1.14991202 0.09456674 1.06924149 73 75 76
1.15872772 0.10210434 1.07999933 77 77 77
1.14982535 0.11060988 1.08997055 81 83 82
1.14973321 0.12980501 1.10916018 89 92 92
1.15010894 0.14155156 1.11882998 92 95 94
1.15003295 0.15216711 1.12617852 97 98 98
1.15000801 0.16837389 1.13611432 103 104 101
1.15003083 0.17798001 1.14132503 106 107 105
1.14993103 0.18974200 1.14705626 108 109 106
1.14988354 0.21027513 1.15596333 113 114 108
1.15010663 0.23066788 1.16349917 117 117 110
1.15021756 0.25010183 1.16974707 120 122 115
1.15002755 0.26956895 1.17529155 121 125 119
1.14995494 0.28371614 1.17890882 125 126 119
1.14998657 0.29455269 1.18147182 125 126 121
1.15001769 0.31067332 1.18503882 126 127 119
1.14992879 0.33016729 1.18894125 126 127 119
1.14990975 0.34984754 1.19250557 127 128 119
1.15001234 0.36926079 1.19568040 126 128 120
1.14990988 0.38882274 1.19857611 128 129 122
1.14962465 0.39970218 1.20007998 129 129 124
1.15002211 0.41052322 1.20145611 128 129 123
1.15010112 0.43008644 1.20383589 129 130 123
1.14998742 0.44967755 1.20602554 127 128 123
1.15006492 0.46912417 1.20804192 127 128 120
1.15006113 0.48964277 1.21001554 128 131 123
1.15005294 0.51020986 1.21179852 130 131 128
1.14994445 0.53011013 1.21332498 134 135 130
1.15015636 0.54922435 1.21461579 140 142 138
1.14997716 0.56990185 1.21580343 139 143 140
1.14980641 0.59045704 1.21686741 86 88 86
1.15000560 0.60986323 1.21840557 0 0 0
1.15003859 0.62976618 1.21947948 0 0 0
1.14968391 0.64037404 1.21995186 0 0 0
1.15010975 0.65115910 1.22040371 0 0 0
1.14976637 0.67055813 1.22115916 0 0 0
1.15032919 0.68777962 1.22175693 0 0 0
1.17092241 -0.70386232 1.04762050 40 40 42
1.17009314 -0.68995834 1.04672055 39 40 43
1.16996703 -0.67022313 1.04618470 40 41 43
1.16972846 -0.65000083 1.04565955 41 41 43
1.17027031 -0.62998008 1.04521949 43 43 45
1.17025964 -0.61005778 1.04455680 43 43 45
1.16038456 -0.58276681 1.03967126 44 44 46
1.17029247 -0.59003474 1.04381544 43 44 46
1.16180685 -0.56715593 1.03960391 44 45 48
1.17129991 -0.57055573 1.04341398 44 45 47
1.16201598 -0.54845819 1.03895579 44 45 46
1.17213676 -0.54980419 1.04294424 44 45 46
1.16324795 -0.52994987 1.03884928 44 46 48
1.17320213 -0.53036388 1.04270855 45 46 50
1.16397465 -0.50906614 1.03849525 46 47 49
1.17337774 -0.51045863 1.04219187 46 47 49
1.16397986 -0.48976529 1.03806849 46 47 49
1.17436267 -0.48908174 1.04216102 46 47 49
1.16358765 -0.47010857 1.03766872 46 48 49
1.17487986 -0.46978172 1.04216577 47 48 50
1.16539159 -0.44995923 1.03823964 47 49 51
1.17500113 -0.44987197 1.04209810 48 49 51
1.16558836 -0.42919895 1.03830283 48 49 51
1.17524898 -0.43050669 1.04218620 48 49 51
1.16556205 -0.40875106 1.03831024 49 50 52
1.17508290 -0.41060978 1.04213177 49 50 52
1.16524084 -0.39060796 1.03819339 49 50 52
1.17484966 -0.38957199 1.04202496 50 51 53
1.16616369 -0.36978952 1.03851858 52 53 55
1.17571808 -0.37042096 1.04229373 52 53 55
1.16619013 -0.35020665 1.03839192 51 52 54
1.17584010 -0.35001429 1.04221970 51 53 54
1.16591326 -0.33011867 1.03819239 51 53 54
1.17571256 -0.33016337 1.04210666 50 52 53
1.16541415 -0.30994867 1.03774800 51 53 53
1.17521832 -0.31021998 1.04166856 51 54 55
1.16591867 -0.28912370 1.03770496 53 55 56
1.17550755 -0.29138642 1.04157060 53 55 56
1.16603344 -0.26997496 1.03749980 53 56 57
1.17587239 -0.27055404 1.04145137 53 56 57
1.16535556 -0.24990797 1.03694975 53 56 57
1.17567839 -0.24983774 1.04108007 54 56 58
1.16711091 -0.23027824 1.03738858 53 56 56
1.17753188 -0.23081772 1.04152584 52 55 56
1.16779266 -0.20971998 1.03721497 54 58 60
1.17724275 -0.21087833 1.04099188 54 58 60
1.16789962 -0.19013180 1.03676724 53 57 57
1.17751910 -0.18938234 1.04052103 54 57 58
1.16868961 -0.17016944 1.03653335 55 58 59
1.17927426 -0.16889841 1.04064143 55 58 60
1.16969256 -0.14932051 1.03647625 54 58 60
1.17890053 -0.15335803 1.04015308 53 58 58
1.17017099 -0.12968406 1.03645555 55 59 61
1.17021416 -0.10981600 1.03643470 53 59 59
1.17001507 -0.09009581 1.03625836 53 57 58
1.16949592 -0.07036277 1.03579863 55 59 60
1.16933436 -0.05049830 1.03559642 55 59 60
1.16895671 -0.02992946 1.03537718 53 58 59
1.17037894 -0.00937442 1.03584891 52 56 57
1.17001044 0.00982339 1.03586301 53 58 58
1.16990896 0.02990526 1.03616500 52 55 57
1.16987547 0.04960365 1.03613541 51 54 57
1.16953460 0.06884800 1.03640462 46 49 51
1.17029463 0.07842340 1.04049258 53 56 58
1.16969692 0.08388835 1.05047315 62 65 68
1.17020589 0.09454912 1.06872062 72 74 76
1.16975630 0.10208942 1.07984146 77 77 78
1.17002379 0.11164978 1.09109263 79 83 80
1.16977949 0.12968945 1.10889189 87 90 91
1.17012277 0.14151632 1.11855149 92 94 94
1.17000031 0.15221497 1.12600811 95 97 95
1.17000726 0.16822681 1.13585706 103 105 100
1.17004925 0.17789876 1.14110521 103 104 100
1.16999817 0.18970954 1.14686064 108 109 105
1.17004835 0.21000512 1.15566245 110 112 108
1.17002059 0.23062921 1.16330405 116 117 111
1.17023998 0.25006000 1.16955149 121 122 119
1.17002756 0.26949814 1.17508200 121 124 118
1.17037246 0.28407821 1.17881326 123 125 119
1.16949427 0.29475130 1.18135048 122 125 120
1.16998834 0.31072613 1.18488710 125 127 119
1.16987176 0.33017463 1.18879930 127 129 120
1.17002917 0.34972825 1.19233818 124 126 118
1.16996308 0.36936633 1.19556251 126 129 121
1.17012326 0.38968675 1.19856920 127 128 122
1.16199979 0.39967794 1.20000720 129 129 124
1.17010102 0.41065770 1.20136161 127 128 123
1.17000007 0.43017566 1.20374750 128 129 121
1.16993323 0.44966761 1.20593662 128 129 122
1.17014061 0.46948777 1.20799798 126 128 120
1.16987435 0.49016162 1.20999242 127 129 123
1.16999104 0.51053320 1.21175903 131 132 126
1.17005547 0.52965559 1.21323096 134 136 130
1.17001348 0.54954547 1.21456532 139 142 135
1.17007817 0.56967494 1.21570908 139 142 139
1.16987007 0.59040089 1.21671248 95 97 96
1.16990376 0.61027619 1.21834435 0 0 0
1.17004425 0.62939035 1.21942057 0 0 0
1.16969253 0.64036148 1.21992792 0 0 0
1.17013440 0.65115114 1.22038876 0 0 0
1.16981304 0.67055544 1.22115426 0 0 0
1.17010495 0.68762087 1.22175077 0 0 0
1.19034546 -0.70637286 1.05452117 39 40 42
1.19041796 -0.68957763 1.05392597 39 40 42
1.19022537 -0.66995864 1.05341518 40 40 42
1.18964567 -0.64991748 1.05281687 41 41 43
1.19026085 -0.62962009 1.05240853 43 43 45
1.19024791 -0.60981874 1.05178378 44 44 46
1.18973660 -0.59012097 1.05088682 44 45 47
1.19040756 -0.56961063 1.05036534 45 45 47
1.18994724 -0.55016925 1.04952788 44 45 47
1.19003096 -0.52952686 1.04891752 46 48 51
1.19001923 -0.50988141 1.04839957 46 47 50
1.19011726 -0.49034459 1.04815605 46 47 49
1.19080616 -0.47010925 1.04825440 48 49 51
1.19058488 -0.45009548 1.04805962 48 50 52
1.19053407 -0.43002565 1.04805059 50 51 53
1.19059312 -0.40994419 1.04806686 50 51 53
1.19055100 -0.39000381 1.04802976 50 51 53
1.19034617 -0.37001459 1.04784945 51 52 54
1.19004714 -0.34988918 1.04764557 51 53 54
1.18999010 -0.32977048 1.04753601 52 54 55
1.18959520 -0.30975116 1.04718828 51 54 55
1.18910767 -0.28990243 1.04682041 51 54 55
1.18990280 -0.26965774 1.04685474 54 56 57
1.18994256 -0.25012650 1.04656879 55 57 59
1.19045156 -0.23010476 1.04641143 52 56 58
1.18970078 -0.21020450 1.04569023 54 57 59
1.18991380 -0.19001805 1.04520895 54 57 58
1.19041172 -0.17054980 1.04489078 55 58 60
1.18993713 -0.15036149 1.04431145 53 59 59
1.18954898 -0.13046344 1.04397081 54 59 59
1.18949281 -0.11044099 1.04386242 53 57 58
1.19029725 -0.08987689 1.04400346 54 58 59
1.18050188 -0.06255730 1.03997999 54 58 59
1.19028033 -0.07018481 1.04369484 54 58 59
1.18032502 -0.04996744 1.03982419 55 59 60
1.19098034 -0.04957121 1.04373716 54 59 60
1.18011002 -0.02929368 1.03963478 52 57 58
1.19093114 -0.02940549 1.04360113 52 57 58
1.18000384 -0.01851020 1.03954124 53 59 59
1.19064282 -0.00956171 1.04334851 52 56 58
1.18023273 0.01473311 1.03974289 52 56 57
1.19070693 0.01027692 1.04340488 53 57 58
1.18049599 0.02192613 1.03997481 52 56 57
1.18988707 0.03032830 1.04334877 51 54 56
1.18051189 0.05248452 1.03998882 50 54 56
1.18980192 0.04987325 1.04327419 50 53 56
1.18036433 0.06865377 1.03985882 48 52 53
1.19015508 0.06999047 1.04340378 46 49 52
1.18947994 0.08409921 1.05118177 59 61 64
1.19024997 0.09458392 1.06864963 71 72 73
1.19002972 0.10206732 1.07960766 75 75 77
1.18999075 0.11159345 1.09097075 79 82 82
1.18994072 0.12987494 1.10909352 86 91 90
1.19046573 0.14152139 1.11859159 91 95 94
1.18989248 0.15218145 1.12593980 96 98 96
1.18991896 0.16820606 1.13572168 104 106 100
1.19008852 0.17782187 1.14091315 104 105 101
1.19007172 0.18967947 1.14667805 108 109 105
1.19006274 0.21012433 1.15556459 112 113 110
1.18999518 0.23060359 1.16317482 116 118 113
1.19008029 0.25010165 1.16942402 120 122 118
1.19006203 0.26948570 1.17492851 123 124 120
1.18974920 0.28458694 1.17878954 126 127 121
1.18988890 0.29545953 1.18136397 124 128 122
1.19007636 0.31058586 1.18470318 125 126 119
1.18981733 0.33018392 1.18866452 125 126 120
1.19004559 0.34966273 1.19219577 124 125 119
1.18991673 0.36915129 1.19540141 125 126 123
1.19003094 0.38983703 1.19846683 126 129 122
1.18994009 0.41034283 1.20121283 125 126 122
1.18988627 0.42986083 1.20360605 126 128 120
1.18998686 0.44940716 1.20581594 128 130 121
1.18998229 0.47001631 1.20797256 126 128 119
1.19002121 0.49058727 1.20995999 125 128 121
1.19005714 0.51037664 1.21168015 130 132 128
1.18989692 0.53013485 1.21320519 135 138 133
1.19002438 0.54911095 1.21447102 139 141 136
1.18994631 0.57000116 1.21564945 139 140 137
1.19009577 0.58998868 1.21656808 101 101 99
1.18993380 0.60981372 1.21820541 0 0 0
1.18999267 0.62971676 1.21938364 0 0 0
1.19022422 0.64136091 1.21992907 0 0 0
1.19006256 0.65209204 1.22039550 0 0 0
1.18983409 0.67053839 1.22112320 0 0 0
1.19010043 0.68792691 1.22173000 0 0 0
1.20364740 -0.70690363 1.05898754 39 40 43
1.21381127 -0.70932370 1.06235100 39 40 43
1.20425127 -0.68976730 1.05858408 40 40 43
1.21375818 -0.69049096 1.06170344 40 41 44
1.20507667 -0.66984762 1.05845553 41 41 43
1.21525443 -0.66952760 1.06177887 42 43 45
1.20566374 -0.64955489 1.05823749 42 42 44
1.21580379 -0.65033154 1.06161725 42 42 44
1.20612359 -0.62984734 1.05781781 43 43 45
1.21615064 -0.63054876 1.06117269 44 44 46
1.20752544 -0.60936938 1.05771112 44 45 47
1.21699088 -0.60991461 1.06090214 44 44 46
1.20809254 -0.58965257 1.05717260 44 44 47
1.21819684 -0.59184171 1.06064039 44 44 47
1.20955713 -0.56999587 1.05703905 44 45 47
1.21804210 -0.57774746 1.06013763 43 45 47
1.21004280 -0.54970708 1.05659481 45 46 48
1.21982650 -0.55573728 1.06009595 44 45 48
1.20981990 -0.53035516 1.05597589 45 47 49
1.21009229 -0.51009546 1.05565682 46 47 50
1.20984011 -0.49016890 1.05536314 47 48 50
1.20965654 -0.47019201 1.05521526 48 50 51
1.20939025 -0.45003033 1.05498297 49 51 53
1.20942397 -0.42998416 1.05501241 49 51 53
1.20939288 -0.40991522 1.05498530 48 51 53
1.20940098 -0.38985977 1.05499233 50 51 53
1.20923649 -0.36991005 1.05486094 51 54 54
1.20955345 -0.34964011 1.05488261 51 54 55
1.21048409 -0.32986174 1.05513974 51 54 56
1.21011837 -0.30984723 1.05484181 52 54 56
1.20971809 -0.28996616 1.05451388 53 55 56
1.21037550 -0.27032171 1.05449380 55 57 58
1.21007180 -0.25000247 1.05404942 53 56 58
1.20955082 -0.22983608 1.05345149 53 57 59
1.21005265 -0.20988921 1.05317705 54 57 58
1.21035897 -0.18992146 1.05273619 53 58 58
1.20962671 -0.16950525 1.05193405 54 59 59
1.21028245 -0.14962103 1.05179486 53 57 59
1.20982510 -0.12957447 1.05139753 54 58 59
1.20948537 -0.10955365 1.05110245 53 58 58
1.21007123 -0.08988174 1.05106375 55 59 61
1.20985642 -0.06955505 1.05063778 52 58 59
1.21088056 -0.04958386 1.05073700 54 59 60
1.21058810 -0.02959948 1.05048324 53 58 58
1.21026190 -0.00962456 1.05020019 53 57 58
1.21009728 0.01034191 1.05005748 52 56 57
1.21028213 0.03031069 1.05021811 51 54 56
1.21007122 0.05026856 1.05003513 50 54 56
1.20977406 0.07021550 1.04977732 50 54 56
1.20918818 0.08428813 1.05324855 51 51 55
1.20963598 0.09458484 1.06867464 70 71 73
1.21063861 0.10207430 1.07968152 74 76 76
1.21003959 0.11164286 1.09112888 78 79 80
1.21020492 0.12970852 1.10905324 87 90 89
1.20993748 0.14153750 1.11871892 89 92 94
1.20987112 0.15223966 1.12610542 93 96 97
1.20991337 0.16827733 1.13582995 98 100 97
1.21034064 0.17787806 1.14097239 100 103 102
1.20986688 0.18967544 1.14665472 108 109 107
1.21000817 0.21015545 1.15546423 111 112 109
1.20995680 0.23057628 1.16303737 116 118 112
1.20980610 0.24992519 1.16923995 119 121 113
1.21012064 0.26935787 1.17476936 120 123 116
1.20979983 0.28460223 1.17868074 123 125 119
1.20998045 0.29542940 1.18124367 122 125 119
1.21009281 0.31065315 1.18460686 123 125 120
1.20990625 0.33010368 1.18854258 124 127 120
1.20997437 0.34965835 1.19210014 122 124 119
1.21002305 0.36921911 1.19531682 123 124 121
1.20991645 0.38986173 1.19837753 126 127 122
1.21798542 0.40174695 1.19999194 129 129 125
1.20972980 0.41061396 1.20115829 123 125 121
1.21002505 0.43000380 1.20353838 122 125 119
1.21005597 0.44960286 1.20576240 127 128 122
1.21006237 0.47027130 1.20793177 124 126 120
1.20993433 0.49096535 1.20993270 126 129 122
1.21013553 0.51022675 1.21161638 129 130 124
1.21002140 0.52963883 1.21312442 134 137 134
1.20989103 0.54954117 1.21444505 139 141 138
1.21007717 0.56952185 1.21556490 138 141 136
1.20995896 0.59045205 1.21650957 97 98 99
1.21000576 0.60990807 1.21805831 2 2 3
1.21008300 0.62940302 1.21930372 0 0 0
1.20971043 0.64139222 1.21988308 0 0 0
1.21018076 0.65218882 1.22035736 0 0 0
1.20984818 0.67051804 1.22108614 0 0 0
1.21015937 0.68758236 1.22168234 0 0 0
1.23604616 -0.72124915 1.06969099 40 40 42
1.23010814 -0.70994194 1.06742284 40 40 43
1.22909520 -0.68988963 1.06656512 40 41 44
1.23060482 -0.66970406 1.06668214 43 43 45
1.23068954 -0.65001236 1.06637080 41 42 44
1.22993873 -0.63002388 1.06559081 44 44 46
1.22949071 -0.61021898 1.06493462 44 44 47
1.23039882 -0.59000910 1.06452442 45 45 48
1.22950932 -0.56994027 1.06366942 44 45 47
1.23008483 -0.54992277 1.06335463 45 47 50
1.22134663 -0.52353843 1.05982506 45 46 48
1.23111642 -0.53037384 1.06326610 45 47 49
1.22100742 -0.50965857 1.05953071 46 47 50
1.23151182 -0.51002746 1.06312209 46 48 50
1.22070361 -0.48939211 1.05926709 46 48 50
1.23141840 -0.49002658 1.06296801 47 49 51
1.22057175 -0.47011731 1.05915266 49 51 52
1.23129287 -0.46992973 1.06287193 48 50 51
1.22139429 -0.44869700 1.05930532 49 52 53
1.23174346 -0.45026546 1.06287175 48 52 53
1.22113528 -0.43176134 1.05921772 49 51 53
1.23141822 -0.42954448 1.06275956 49 51 54
1.22147327 -0.41068416 1.05931671 48 51 53
1.23205373 -0.40985579 1.06298271 48 51 53
1.22078370 -0.38919262 1.05909200 51 52 54
1.23114995 -0.39032649 1.06268584 51 52 55
1.22176803 -0.37043121 1.05939586 50 53 52
1.23263699 -0.37008714 1.06318176 49 53 52
1.22187880 -0.35143548 1.05936658 51 54 54
1.23237235 -0.35001469 1.06301216 52 55 56
1.22301170 -0.33023634 1.05968058 50 53 55
1.23221229 -0.32992875 1.06284475 51 54 56
1.22267910 -0.31000501 1.05939240 52 54 56
1.23186051 -0.31001563 1.06257061 53 54 57
1.22231880 -0.28977768 1.05908022 54 57 58
1.23149137 -0.29010860 1.06228152 53 56 57
1.22325683 -0.26922071 1.05913726 55 57 58
1.23296248 -0.26983008 1.06253161 54 56 57
1.22288291 -0.24901204 1.05867235 53 57 58
1.23343656 -0.25027522 1.06234644 54 56 58
1.22360573 -0.22977707 1.05850678 53 57 58
1.23410044 -0.23003110 1.06212864 54 58 59
1.22537967 -0.20920520 1.05861526 54 56 58
1.23429536 -0.21022129 1.06168791 54 56 58
1.22557183 -0.18961438 1.05813349 52 58 59
1.23595516 -0.18992778 1.06167248 53 59 60
1.22575480 -0.16998167 1.05767368 53 57 59
1.23620182 -0.17032255 1.06121964 54 57 59
1.22732804 -0.15026974 1.05778597 53 56 58
1.23621010 -0.15041184 1.06074851 54 56 58
1.22810557 -0.13035806 1.05775480 53 57 58
1.23803099 -0.12914022 1.06101026 54 57 58
1.22760871 -0.11020269 1.05732694 53 57 58
1.23792710 -0.11055334 1.06069010 53 56 59
1.22846805 -0.09009654 1.05727886 53 57 58
1.23873346 -0.09037920 1.06059601 53 58 57
1.22855774 -0.06958781 1.05689658 51 58 58
1.23819246 -0.07568000 1.06013281 53 58 59
1.23014770 -0.04988662 1.05715193 53 58 59
1.22981765 -0.02977939 1.05686826 52 57 59
1.23995130 -0.02254025 1.06006996 52 58 61
1.23070086 -0.00946688 1.05696661 52 56 58
1.23989610 -0.01795882 1.06002277 53 58 59
1.23057715 0.01040731 1.05673473 52 56 58
1.23051716 0.03049699 1.05668342 53 57 58
1.23027072 0.05057691 1.05647179 51 55 57
1.23009081 0.07053697 1.05637906 52 56 58
1.22939533 0.08419813 1.05750053 41 42 46
1.23000750 0.09443752 1.06889869 65 66 68
1.23005358 0.10205941 1.07952406 71 74 75
1.23003479 0.11161231 1.09115159 77 79 79
1.22998155 0.12971658 1.10929425 85 89 87
1.22959580 0.14157456 1.11901191 88 93 91
1.22997578 0.15218209 1.12629917 91 97 96
1.23003420 0.16821585 1.13597497 100 101 100
1.23022436 0.17790159 1.14112337 102 104 104
1.22990803 0.18959822 1.14671432 105 107 104
1.23000515 0.21005210 1.15544506 111 112 108
1.22990936 0.23049658 1.16297779 113 117 112
1.22983594 0.24998374 1.16919519 116 118 113
1.22999599 0.26950910 1.17472846 120 123 116
1.22986002 0.28457711 1.17857657 119 123 119
1.23009138 0.29544862 1.18115386 120 123 119
1.23001734 0.31067806 1.18452460 122 124 121
1.23000316 0.33019915 1.18846727 125 127 119
1.22991260 0.34965759 1.19201674 125 127 119
1.23014460 0.36912083 1.19522700 124 125 122
1.22993719 0.38974997 1.19829599 126 126 123
1.23039167 0.40173448 1.19995469 126 127 121
1.23012500 0.41161227 1.20122656 124 126 120
1.23007349 0.43008353 1.20348971 121 127 119
1.23002412 0.44950521 1.20569368 123 125 120
1.23005250 0.47009329 1.20786487 124 127 120
1.22998999 0.49072004 1.20986571 127 128 124
1.23010770 0.51056597 1.21161517 128 131 122
1.22989960 0.53008380 1.21313207 134 137 130
1.23006942 0.54905885 1.21439835 133 138 132
1.22997895 0.57005044 1.21556020 134 137 132
1.23003839 0.58993096 1.21644345 98 98 99
1.23001683 0.60993188 1.21796084 5 5 6
1.23002987 0.62957390 1.21925202 0 0 0
1.23006337 0.64237136 1.21987841 0 0 0
1.23008192 0.65312264 1.22035397 0 0 0
1.22985622 0.67049504 1.22104426 0 0 0
1.23013971 0.68788090 1.22164830 0 0 0
1.25174281 -0.72285341 1.07427381 41 41 43
1.24961083 -0.70984114 1.07305902 40 41 43
1.25025267 -0.69000572 1.07282471 41 42 44
1.25048408 -0.67030197 1.07263554 43 43 45
1.25057613 -0.64995650 1.07236059 43 44 47
1.24985932 -0.63005395 1.07165950 43 46 47
1.24963182 -0.61011974 1.07108971 44 45 47
