ply
format ascii 1.0
element vertex 914
property float x
property float y
property float z
property uchar red
property uchar green
property uchar blue
end_header
-0.38312757 0.33947548 1.48011315 78 83 108
-0.38225424 0.34361108 1.48416519 88 95 121
-0.38252577 0.36928363 1.51315141 97 104 123
-0.36752128 -0.38809812 1.67286033 90 69 71
-0.37290642 -0.39192289 1.68211377 92 70 71
-0.36605832 -0.37395272 1.66681265 89 69 68
-0.36474475 0.33597282 1.47597120 129 133 147
-0.37382465 0.33783216 1.48076091 98 102 124
-0.36407180 0.34969614 1.47620054 103 109 132
-0.37160436 0.34902671 1.48444238 106 112 135
-0.36361255 0.36217664 1.47050054 83 94 116
-0.37379171 0.36495788 1.49317038 84 91 112
-0.35632567 -0.38474654 1.65608978 91 69 72
-0.34408636 -0.38072908 1.69050336 85 68 68
-0.34312621 -0.38604081 1.70753610 86 68 69
-0.35474259 -0.37490329 1.65681538 89 68 70
-0.35307573 -0.36902465 1.66501173 90 70 68
-0.34579966 -0.37128320 1.69313163 87 68 70
-0.34327157 -0.36650832 1.70826566 88 68 69
-0.34152707 -0.36107351 1.72932720 88 69 70
-0.34504575 -0.36026770 1.74714386 86 71 69
-0.34338042 -0.35981578 1.71618187 87 69 71
-0.34027195 -0.35842019 1.73818421 92 68 69
-0.34474083 -0.35544506 1.74941286 85 69 70
-0.35733922 0.33811459 1.47048585 130 138 149
-0.34100305 0.35676195 1.41670340 111 120 135
-0.34680525 0.35639156 1.43051012 115 123 144
-0.35231957 0.35591177 1.44811898 98 108 134
-0.35775759 0.34966853 1.46927083 93 98 122
-0.34772503 0.36665243 1.43033295 108 112 134
-0.33163474 -0.38737931 1.67629290 85 67 66
-0.33330732 -0.38301205 1.68770219 84 67 68
-0.33132088 -0.38161382 1.70753610 86 64 69
-0.32558016 -0.36050069 1.67795014 86 65 67
-0.33213810 -0.37119625 1.69262620 86 66 69
-0.33660160 -0.36186825 1.71185899 92 66 69
-0.33056232 -0.35961056 1.67380702 86 68 67
-0.32493486 -0.35659325 1.68968332 90 66 67
-0.33133253 -0.35800765 1.70755788 92 67 68
-0.33441643 -0.35836364 1.72346373 92 65 65
-0.32090771 -0.30478620 0.62997137 59 51 50
-0.32041572 -0.29593492 0.62904089 63 55 54
-0.33595932 0.35603845 1.40994291 104 113 129
-0.33261403 0.36053124 1.41227472 90 95 116
-0.33626134 0.36510183 1.42329126 97 101 122
-0.31300572 -0.34463459 1.65743732 89 66 65
-0.31899212 -0.35526958 1.67381722 89 65 67
-0.31628579 -0.30465374 0.62861315 59 51 51
-0.31143069 -0.29350005 0.62896026 62 54 55
-0.30259171 -0.22652981 0.55571989 78 65 67
-0.29247711 -0.22631067 0.55597568 76 64 64
-0.29080016 -0.06246932 0.79592984 120 97 95
-0.29113421 -0.06666768 0.80186015 118 96 90
-0.28970964 -0.05657155 0.79423140 115 96 94
-0.28437342 0.27634746 1.01709718 120 125 137
-0.28822529 0.27838203 1.02349408 104 110 127
-0.26464675 -0.22674875 0.78600268 107 87 87
-0.26430551 -0.21583287 0.78642482 106 88 86
-0.26057300 -0.10064072 0.76814964 117 98 94
-0.26082337 -0.09137373 0.76798470 116 97 91
-0.26057411 -0.07867244 0.77407074 117 95 92
-0.26436950 0.06897381 0.51224780 129 131 145
-0.26965809 0.23992039 0.97961247 106 105 121
-0.27292889 0.23961225 0.98530793 116 119 132
-0.26485178 0.24109110 0.97749415 121 129 142
-0.26723861 0.24676378 0.98969704 117 123 138
-0.26547220 0.25627304 1.01020394 101 106 127
-0.26626167 0.26751519 0.99281505 108 113 133
-0.26830026 0.26706245 1.00870094 98 105 125
-0.26426570 0.26150729 1.02092147 96 102 126
-0.24807317 -0.30285945 1.17712691 85 66 66
-0.25287948 -0.30274519 1.18374916 88 64 67
-0.24335453 -0.28340814 1.15632275 87 67 70
-0.24501448 -0.29468283 1.17092096 86 66 67
-0.25080673 -0.29685739 1.18202680 89 65 68
-0.25856394 -0.22581200 0.78471343 107 88 89
-0.25681339 -0.21472820 0.78442664 106 87 87
-0.25545233 -0.10288020 0.76735088 112 93 90
-0.25546826 -0.09022794 0.76886341 114 94 91
-0.25608619 -0.07394068 0.76709063 116 94 94
-0.24371695 0.05919044 0.51683560 127 132 138
-0.25056070 0.06450586 0.51277859 142 144 150
-0.25949901 0.23992039 0.97961247 130 137 153
-0.25780582 0.24330674 0.97961247 121 131 147
-0.25819845 0.24823759 0.99254544 114 120 136
-0.25673421 0.25614159 1.01095014 97 100 127
-0.25907162 0.26495168 0.98962567 116 125 139
-0.25742855 0.26345124 1.01482403 96 108 128
-0.22464443 -0.28165366 1.13582007 85 65 68
-0.23070482 -0.28955140 1.15036765 83 65 66
-0.23814623 -0.29353068 1.16343186 84 67 67
-0.22281127 -0.27554448 1.12819356 87 66 68
-0.23849441 0.05911684 0.51590122 123 125 138
-0.23711717 0.06468931 0.51440299 134 138 144
-0.21958996 -0.28226361 1.13170588 83 65 69
-0.21664556 -0.26536004 1.10933180 85 64 67
-0.21825569 -0.27666447 1.12482945 85 65 67
-0.20240977 0.22926495 0.81177200 112 120 141
-0.18147313 0.11917447 0.74988449 111 113 133
-0.18434476 0.12576536 0.75280037 121 126 139
-0.18568165 0.15363175 0.45595829 90 97 115
-0.18466070 0.16366161 0.45582472 100 110 122
-0.19418994 0.22699941 0.81411952 127 135 152
-0.19162791 0.23285712 0.82148886 130 135 153
-0.16114106 0.08861777 1.03865073 119 120 139
-0.16133627 0.08589177 1.04184254 97 100 122
-0.17062537 0.11592447 0.74502126 120 125 141
-0.16388363 0.12866519 0.73924953 146 150 163
-0.17152565 0.12663544 0.74523709 116 122 140
-0.15934660 0.09209940 1.03574666 107 111 127
-0.14799938 0.09179684 1.04601056 105 108 129
-0.15638114 0.11471124 0.73863036 103 107 128
-0.15877095 0.11429434 0.74162502 108 111 132
-0.14426449 0.10385898 1.04896705 106 108 127
-0.13641688 0.09612210 1.04785361 103 104 127
-0.13656110 0.10304846 1.04880874 103 106 124
-0.10080583 0.12878176 0.52656075 110 116 137
-0.11109567 0.16985178 0.83836071 164 166 181
-0.11195792 0.17554565 0.84271495 180 183 193
-0.10918723 0.18596741 0.83862938 193 196 204
-0.10834811 0.18493495 0.84497612 193 196 204
-0.09146759 0.11356417 0.51492194 123 127 144
-0.09187696 0.12244075 0.51909621 126 130 145
-0.09228635 0.12593001 0.52182036 142 146 162
-0.09923128 0.17836596 0.84105688 190 193 201
-0.04211318 -0.42829807 1.55277404 108 90 93
-0.04467879 -0.42294705 1.56557012 109 90 91
-0.04181593 -0.40881339 1.54834809 109 87 90
-0.04390091 -0.41657308 1.56196272 110 92 89
-0.04316257 -0.39260142 1.53577862 111 91 94
-0.02517687 -0.44122079 1.57283485 138 128 122
-0.02261589 -0.44568786 1.58386809 140 129 123
-0.03665256 -0.43221401 1.55642392 113 95 98
-0.02999726 -0.43134481 1.57034024 127 110 110
-0.02396032 -0.43241572 1.58238609 146 130 126
-0.03360115 -0.40795974 1.55055297 120 99 103
-0.02555761 -0.41500773 1.56623961 136 123 124
-0.03616850 -0.39169568 1.53456143 121 98 102
-0.03112787 -0.39003699 1.54770231 128 107 109
-0.03491675 -0.37862934 1.52335250 121 96 99
-0.02869041 -0.37670323 1.54241800 128 112 113
-0.02085402 0.26731765 0.64524746 144 147 154
-0.01464253 -0.46005037 1.61019444 147 135 130
-0.01973983 -0.44122079 1.57283485 143 133 128
-0.01748305 -0.44688783 1.58759193 144 132 126
-0.01597553 -0.45702945 1.60447997 147 133 129
-0.01886215 -0.42738081 1.57527339 148 134 130
-0.01616131 -0.43246066 1.58413427 149 134 130
-0.01886256 -0.40774503 1.55658901 144 132 134
-0.01830553 -0.41642645 1.56648025 144 133 132
-0.00061105 -0.38585187 0.87245681 143 133 127
-0.00192420 -0.38586601 0.88267653 142 132 127
-0.01942435 -0.39939338 1.54769826 147 135 137
-0.00039366 -0.37038036 0.87180769 145 133 129
-0.00193319 -0.37061620 0.88679741 145 133 129
-0.00039426 -0.35058057 0.87313998 144 134 129
-0.00193396 -0.35390218 0.88714990 143 133 128
-0.00039453 -0.33506148 0.87373881 145 135 130
-0.00193680 -0.24155669 0.88845587 149 135 132
-0.00354680 -0.24202505 0.90748572 147 133 129
-0.00521777 -0.24447309 0.92566063 148 134 130
-0.00698297 -0.24220529 0.94810051 149 135 133
-0.00879890 -0.24467553 0.96758802 148 134 134
-0.00039395 -0.22664863 0.87244767 149 133 132
-0.00193974 -0.22961741 0.88980217 149 134 131
-0.00354484 -0.23014253 0.90698267 148 134 133
-0.00522783 -0.22971567 0.92744633 148 134 134
-0.00698297 -0.23401172 0.94810051 147 132 133
-0.00879137 -0.23611082 0.96675991 147 131 133
-0.01061677 -0.23535695 0.98103017 146 133 133
-0.00039409 -0.20938162 0.87276910 149 134 133
-0.00194032 -0.20968551 0.89007171 148 134 133
-0.00354462 -0.21051746 0.90692704 148 135 134
-0.00558136 -0.20932878 0.92847230 148 134 133
-0.00694609 -0.21142994 0.94309293 147 134 132
-0.00039523 -0.19034491 0.87527296 149 134 132
-0.00173684 -0.19103025 0.89010208 148 134 131
-0.00354810 -0.19190891 0.90781897 149 133 131
-0.00520389 -0.19469660 0.92319935 149 134 131
-0.00039378 -0.17831828 0.87207387 149 133 133
-0.00193427 -0.17836234 0.88729298 146 134 131
-0.00853416 -0.06537373 0.93847551 145 131 129
-0.00946322 -0.06121075 0.94951960 143 128 126
-0.01039120 -0.06356614 0.96018672 143 131 128
-0.00038503 -0.04023799 0.85269415 147 132 128
-0.00190928 -0.04208767 0.87583074 142 128 124
-0.00306789 -0.04793195 0.88955496 146 132 130
-0.00511738 -0.04990547 0.90785165 145 131 130
-0.00680842 -0.05161684 0.92440103 145 131 131
-0.00874448 -0.05316618 0.94337934 145 131 131
-0.00038481 -0.02990697 0.85220057 147 130 129
-0.00262494 -0.03022964 0.87151677 147 130 129
-0.00038455 -0.01001363 0.85162361 146 130 129
-0.00246188 -0.01436865 0.86483542 145 131 129
-0.00592493 0.13792561 0.49482130 186 189 197
-0.00583417 0.14332491 0.49255451 164 165 175
-0.00027980 0.19245777 0.61964518 172 174 182
-0.00028098 0.19133106 0.62226639 171 172 179
-0.00706287 0.25909559 0.63224833 165 170 178
-0.01249178 0.26669945 0.63555109 92 95 100
-0.01762312 0.26992171 0.64276082 79 81 86
0.00109845 -0.38258359 0.86026883 146 134 128
0.00394220 -0.36316560 0.83279179 144 133 128
0.00171525 -0.36871016 0.85227335 144 133 129
0.00109845 -0.37960976 0.86026883 144 134 129
0.00540520 -0.35158932 0.81501030 144 134 129
0.00392698 -0.35029924 0.82957787 145 133 129
0.00203815 -0.35056513 0.84884987 145 134 129
0.00110209 -0.34506400 0.86311924 144 134 130
0.00392772 -0.33960354 0.82973424 145 134 129
0.00279652 -0.32968447 0.85284771 146 135 130
0.00109885 -0.33087351 0.86058114 145 134 130
0.00396411 -0.30222334 0.83742076 146 136 132
0.00265163 -0.31056911 0.84798360 147 135 132
0.00450070 -0.28893191 0.83040797 149 135 131
0.00240563 -0.29067473 0.84133186 149 135 132
0.00527788 -0.27146910 0.81674033 148 136 131
0.00419328 -0.27650382 0.82590110 149 136 131
0.00252919 -0.27899501 0.84157929 152 137 133
0.00106961 -0.02577545 0.83767939 146 129 129
0.00107259 -0.03383207 0.84001470 147 131 132
0.00320900 0.13820726 0.49623308 172 174 184
0.00461927 0.13817361 0.50058490 179 179 189
0.00913376 0.14332102 0.49394567 157 161 171
0.01043027 0.17960568 0.61964518 143 143 152
0.00834931 0.17984985 0.62420982 151 151 162
0.01542974 0.19447575 0.49307530 147 154 169
0.01904736 0.19639645 0.50665772 156 160 174
0.00797723 0.18987065 0.61687316 148 151 166
0.00550338 0.18587074 0.62312328 147 149 160
0.01635456 0.20209552 0.48966906 139 146 158
0.03525224 0.13800670 0.46228306 139 141 154
0.03610443 0.14530186 0.45929972 146 150 158
0.03370412 0.14403995 0.46293201 151 154 165
0.03038640 0.19205689 0.50823358 149 153 163
0.02579537 0.20409819 0.50558167 161 166 178
0.03933996 0.21843057 0.77579806 122 124 149
0.03916962 0.23006107 0.77698705 146 151 170
0.03779147 0.23858662 0.78120813 145 151 171
0.03870379 0.24130519 0.77584664 168 172 186
0.03632393 0.24071791 0.78596392 141 146 170
0.04138276 0.13883609 0.45979555 146 153 170
0.04061345 0.13875214 0.46083753 147 154 170
0.04073777 0.14266806 0.45909080 156 156 168
0.04089204 0.14074349 0.46083759 148 154 170
0.04456080 0.18823200 0.51086008 156 160 170
0.04583692 0.20095746 0.51590321 160 165 171
0.04259037 0.21875656 0.77238683 145 148 168
0.04395158 0.22961123 0.77265320 152 156 171
0.04152489 0.24112732 0.77084326 174 177 191
0.05734643 0.51628667 1.98213995 138 139 157
0.05595637 0.53397655 1.99382538 153 154 171
0.05376326 0.54210931 1.97636104 170 173 183
0.05522598 0.54606978 1.99205235 166 170 181
0.07786874 0.19585144 0.51212217 142 147 159
0.07343436 0.23386165 0.71692397 141 142 155
0.07442863 0.23541928 0.72200763 142 145 156
0.07408744 0.24821551 0.71619681 144 147 157
0.07124178 0.24554154 0.72228328 159 161 170
0.07575174 0.42353523 1.67038834 141 145 163
0.07579142 0.43221477 1.68736511 153 154 171
0.07301242 0.43885812 1.70753610 146 147 167
0.07852491 0.44648920 1.71186552 163 167 182
0.07578317 0.45319673 1.72591090 167 171 184
0.07168621 0.44601804 1.74714386 145 143 161
0.07281217 0.45609078 1.77458596 138 139 160
0.07992166 0.46238971 1.72931588 171 171 179
0.07874050 0.47325525 1.76995254 176 176 187
0.07368026 0.46928997 1.79574311 161 165 181
0.07220208 0.47850958 1.83710527 154 160 178
0.07299334 0.47733337 1.85723794 143 144 164
0.07084316 0.47720566 1.97636104 119 125 145
0.07378643 0.47321314 1.98650801 122 125 148
0.07583691 0.48243532 1.81012833 174 176 189
0.07368786 0.48578401 1.83462268 168 172 186
0.07279444 0.48402295 1.85217732 160 163 180
0.07192558 0.49388555 1.87136111 162 167 182
0.06998840 0.49383839 1.89181411 151 156 173
0.06825619 0.49927449 1.90419054 145 151 167
0.07215548 0.49355999 1.92037344 143 144 162
0.07255115 0.48062167 1.97636104 153 160 172
0.07413753 0.49187278 1.99146764 167 169 173
0.07521449 0.51042770 1.87264369 156 156 168
0.07124737 0.51191762 1.89620471 163 163 177
0.07087346 0.51269230 1.90821350 169 170 183
0.07236047 0.51826262 1.92582905 172 177 186
0.06833608 0.51137710 1.95358691 149 153 171
0.06903717 0.50891420 1.97348845 141 143 162
0.06715358 0.51158190 1.99381679 140 140 157
0.07420532 0.52339005 1.88830753 134 135 154
0.07504948 0.53368598 1.90955448 120 123 144
0.07547469 0.53505012 1.92037344 129 130 150
0.06987648 0.53301394 1.94939271 167 167 177
0.06692603 0.53266989 1.97177153 169 175 185
0.06203320 0.53560470 1.98601504 170 175 186
0.07319220 0.54610452 1.94796503 119 121 139
0.06765013 0.54846017 1.97189993 147 150 163
0.06206476 0.54903335 1.98698954 160 164 175
0.08431177 0.19764133 0.49781781 163 166 174
0.08467344 0.19616579 0.50973889 148 153 163
0.08432895 0.20034004 0.49918425 152 156 163
0.08658337 0.20156618 0.50452144 153 155 163
0.09421507 0.23262329 0.69804277 150 155 168
0.08722769 0.23285448 0.70937078 151 157 171
0.08376444 0.22974936 0.72502671 105 109 134
0.09568396 0.24271339 0.69840392 150 156 167
0.08606194 0.24466340 0.71110114 137 143 159
0.08302003 0.24387083 0.72098169 122 128 143
0.08480458 0.43136812 1.66716909 166 170 181
0.08210127 0.43668535 1.68211377 164 169 183
0.08675713 0.44465768 1.67381212 161 162 171
0.08326174 0.44703902 1.69106315 164 166 177
0.08298838 0.45733672 1.71041803 163 165 174
0.09475502 0.44646186 1.97636104 165 169 180
0.08525273 0.45384735 1.99379957 137 136 151
0.08270021 0.46569201 1.72492677 156 156 163
0.08074560 0.47017640 1.74714386 165 165 172
0.08201385 0.48062861 1.77458596 157 156 164
0.08598141 0.49191397 1.79336464 141 143 156
0.08250368 0.49168844 1.80772018 150 149 161
0.08106884 0.49354872 1.82228994 160 160 168
0.08204793 0.48974898 1.99968100 171 176 182
0.08388045 0.50254920 1.81497473 131 131 146
0.08206198 0.50757214 1.84461394 133 132 149
0.08020471 0.51126769 1.87574184 150 149 162
0.08285058 0.52049047 1.86234021 124 123 146
0.08165115 0.53534514 1.90956962 125 125 147
0.08258100 0.54644412 1.93131578 118 125 143
0.11843527 0.43532460 1.89093012 143 144 159
0.11465561 0.43302043 1.90955448 153 158 166
0.11696558 0.44879579 1.89356111 147 148 163
0.11597284 0.44787928 1.90956659 143 142 160
0.11552360 0.44571558 1.92401052 136 135 154
0.11212070 0.44932685 1.95171833 144 144 159
0.10911535 0.45519446 1.97348845 147 146 161
0.10435755 0.45623979 1.99674028 165 168 173
0.11262411 0.46966732 1.93131578 174 177 185
0.11375869 0.46596453 1.95077193 167 170 180
0.11098093 0.46524974 1.97636104 153 153 169
0.10912989 0.47089584 1.98943582 163 164 177
0.11183493 0.48062167 1.97636104 176 179 187
0.13683311 0.20944640 0.45436417 0 0 0
0.13858867 0.21522751 0.46690545 0 0 0
0.12198033 0.43699335 1.87005001 153 152 169
0.15655874 0.03432632 0.67356090 140 140 149
0.15692661 0.04869672 0.67664714 130 130 144
0.15826080 0.06135440 0.67789251 134 136 152
0.14837295 0.17929622 0.46217405 162 164 171
0.14973294 0.18877458 0.46583048 110 114 126
0.14005612 0.22005990 0.47738862 0 0 0
0.14200467 0.22647650 0.49130854 0 0 0
0.14490850 0.23603888 0.51205275 0 0 0
0.14760542 0.24491991 0.53131888 0 0 0
0.15051324 0.25449545 0.55209168 0 0 0
0.15310995 0.26304647 0.57064191 0 0 0
0.15590019 0.27223478 0.59057462 0 0 0
0.15887803 0.28204092 0.61184764 0 0 0
0.16142210 0.03504461 0.67510239 141 140 148
0.16360838 0.05006329 0.67714178 139 140 152
0.16005416 0.06051309 0.67721462 124 127 142
0.17872568 0.17845367 0.71399131 157 158 169
0.17853503 0.18274261 0.71450101 151 153 168
0.17844751 0.18587162 0.72077835 164 168 177
0.17838840 0.27363997 0.67925086 138 140 147
0.17671616 0.27490673 0.68474869 158 160 166
0.16142546 0.29042968 0.63004583 0 0 0
0.16343254 0.29703903 0.64438391 0 0 0
0.17813367 0.28295974 0.67920529 44 45 47
0.17694185 0.28970817 0.68532948 20 20 22
0.16482563 0.30162650 0.65433574 0 0 0
0.16700371 0.30879898 0.66989547 0 0 0
0.17238670 0.30848269 0.69141409 0 0 0
0.17085661 0.32148668 0.69741958 0 0 0
0.17249052 0.32686719 0.70909190 0 0 0
0.17505409 0.33530909 0.72740537 0 0 0
0.17867506 0.34723304 0.75327268 0 0 0
0.16041090 0.38901798 1.90419054 171 173 189
0.17295705 0.39846371 1.93407482 174 174 188
0.17211347 0.39219894 1.95241228 170 174 188
0.17832521 0.38802233 1.96871185 176 182 194
0.17032003 0.40584999 1.92950769 174 177 187
0.17431884 0.40626051 1.94923049 171 172 184
0.18868437 0.17929148 0.69760907 153 151 172
0.18352928 0.17851774 0.70407155 133 134 156
0.18890128 0.18180217 0.67993164 143 141 156
0.18661520 0.18299863 0.69462189 158 159 170
0.18209914 0.18188551 0.70363885 162 167 177
0.18088663 0.27398563 0.67865088 118 122 133
0.18236873 0.27407897 0.68061429 115 120 134
0.18033342 0.28689865 0.67864687 12 11 14
0.18112846 0.29006099 0.68164104 0 0 0
0.18155541 0.35671809 0.77384913 0 0 0
0.18357076 0.36335471 0.78824633 0 0 0
0.18674884 0.37382019 0.81094968 0 0 0
0.19276059 0.36639208 1.91494870 147 147 156
0.18969976 0.37044106 1.93133001 157 158 166
0.18767034 0.37312011 1.94798926 165 165 174
0.18590251 0.36406350 1.96490383 168 168 177
0.18747742 0.36999475 1.99383398 168 168 178
0.19009337 0.38483381 0.83484215 0 0 0
0.19244237 0.39256915 0.85162294 0 0 0
0.18370795 0.38626771 1.90687251 165 167 176
0.18392432 0.38918463 1.93225110 171 173 182
0.18953033 0.38811901 1.95096552 154 155 167
0.19269487 0.39021407 1.96490383 153 154 168
0.19488776 0.40062186 0.86909211 0 0 0
0.19743556 0.40901184 0.88729298 0 0 0
0.18119371 0.40190367 1.95077193 178 178 188
0.21639661 0.17519274 0.53220497 149 151 161
0.21711011 0.18432807 0.53059247 149 150 157
0.20766255 0.37317303 1.95038940 141 141 149
0.20669684 0.39050845 1.97349318 144 143 157
0.21419562 0.39136072 1.98795946 141 141 150
0.20009236 0.41776076 0.90627253 0 0 0
0.20748237 0.40205410 1.97636104 174 177 186
0.21792840 0.40215552 1.99379957 156 157 163
0.20286532 0.42689213 0.92608178 0 0 0
0.20576219 0.43643165 0.94677633 0 0 0
0.20879149 0.44640723 0.96841693 0 0 0
0.21196252 0.45684949 0.99106997 0 0 0
0.21528545 0.46779200 1.01480818 0 0 0
0.21877147 0.47927156 1.03971136 0 0 0
0.22355625 0.17232592 0.53406815 156 159 169
0.22351141 0.16683435 0.54015285 165 170 175
0.22486509 0.18837689 0.53048367 141 145 156
0.23852202 0.29664698 0.77175208 166 170 178
0.22179292 0.38609987 1.98213995 125 124 137
0.22243290 0.49132869 1.06586766 0 0 0
0.22628330 0.50400817 1.09337389 0 0 0
0.23033768 0.51735938 1.12233746 0 0 0
0.23461272 0.53143716 1.15287733 0 0 0
0.23912692 0.54630256 1.18512559 0 0 0
0.25488999 0.07599691 0.45507810 158 162 171
0.25171751 0.08141811 0.45369097 159 165 173
0.25005321 0.11573136 0.47746714 147 151 164
0.25160787 0.11067480 0.48227660 160 165 173
0.25717875 0.12568772 0.45138954 155 160 172
0.24989843 0.12101473 0.47727591 168 171 179
0.24497620 0.12143275 0.48022946 155 159 169
0.25201897 0.28441388 0.75848507 108 111 129
0.24656441 0.28953857 0.76598102 146 149 158
0.25375194 0.47774682 1.29647425 148 153 164
0.25548750 0.49056946 1.30824179 133 136 151
0.25317420 0.49656127 1.32271707 119 121 140
0.25523815 0.50265406 1.31374713 109 114 137
0.25390420 0.50330555 1.32873788 102 104 128
0.24390092 0.56202346 1.21922994 0 0 0
0.24895784 0.57867604 1.25535524 0 0 0
0.25432357 0.59634554 1.29368675 0 0 0
0.26025629 0.12667554 0.45185333 151 153 167
0.26892503 0.19834204 0.94900271 153 158 173
0.27207668 0.20383443 0.95461130 162 168 179
0.27051823 0.21189105 0.97082233 138 141 157
0.26701606 0.21678885 0.98564286 143 143 156
0.27454026 0.22451110 0.97841456 155 156 167
0.27044757 0.22824629 0.99057296 161 165 176
0.26687341 0.23184235 1.00578211 158 163 180
0.26128951 0.47792234 1.30615318 150 153 163
0.26413816 0.49110847 1.31375536 143 145 159
0.27174315 0.49343356 1.32672627 145 150 162
0.27415507 0.50277857 1.33132787 143 146 159
0.27781314 0.50625449 1.34236014 144 147 161
0.26002732 0.61512804 1.33443272 0 0 0
0.26610202 0.63513219 1.37782896 0 0 0
0.27258509 0.65648121 1.42414248 0 0 0
0.27951920 0.67931533 1.47367787 0 0 0
0.28168300 0.20481595 0.95311470 170 174 183
0.28341833 0.21496042 0.96941626 157 159 174
0.28494846 0.22343039 0.97598729 148 152 165
0.28225723 0.23109712 0.98530793 140 143 158
0.29961234 0.26420498 0.70540255 145 145 150
0.28134035 0.49501760 1.33706999 159 167 174
0.28289385 0.50693849 1.34664072 154 159 168
0.28995286 0.51219410 1.36122859 163 167 174
0.28695303 0.70379514 1.52678347 0 0 0
0.29494268 0.73010528 1.58385944 0 0 0
0.30445981 0.27426610 0.71043274 157 159 166
0.30416297 0.27550945 0.72349184 150 155 163
0.30778234 0.28650668 0.71079807 162 166 173
0.30630320 0.29049901 0.73122350 159 165 176
0.30521751 0.29677786 0.74342958 150 155 168
0.30456189 0.30141463 0.73764224 145 152 162
0.30566695 0.30280410 0.75046814 140 146 158
0.30751758 0.30722580 0.76386452 141 148 160
0.30355287 0.75845885 1.64536858 0 0 0
0.31285885 0.78910369 1.71184814 0 0 0
0.33710890 -0.20420535 1.09425712 94 103 130
0.33360812 -0.19238135 1.09367773 106 111 129
0.33778316 0.11307731 0.48867577 153 157 167
0.33632559 0.15991782 0.77296674 168 176 181
0.33621519 0.17962874 0.49378087 147 151 154
0.33564078 0.16169892 0.77509297 139 145 157
0.33609712 0.17279085 0.79302041 165 166 177
0.33443439 0.17301517 0.80183633 173 176 185
0.33342352 0.18374741 0.49696165 133 138 144
0.33218391 0.18804052 0.50149473 145 149 154
0.32294849 0.82232910 1.78392589 0 0 0
0.33392513 0.85847539 1.86234021 0 0 0
0.34638623 -0.20544938 1.09543922 93 103 131
0.34519144 -0.19404819 1.09450363 90 103 132
0.34592994 -0.17754286 1.08927703 95 103 130
0.35478615 0.05649793 0.78747077 137 138 146
0.35475556 0.07452350 0.77796910 131 135 145
0.35364249 0.06647716 0.78476549 144 146 153
0.35818433 0.08111037 0.77473506 120 125 143
0.34529644 0.11376809 0.48885320 160 164 172
0.34457092 0.16565844 0.77594673 161 164 174
0.34605035 0.17394959 0.78990815 156 160 171
0.35122399 0.19985551 0.45132934 139 145 160
0.34838586 0.18324782 0.79401521 165 169 179
0.34984047 0.18853713 0.80148116 157 161 171
0.35011139 0.20268701 0.45418971 128 137 147
0.35757062 0.20493113 0.46803289 140 150 154
0.34591109 0.89794552 1.94796503 0 0 0
0.36209922 0.05774860 0.78806450 144 144 153
0.36053565 0.07380807 0.77867484 137 139 149
0.36280261 0.06564365 0.78601279 144 145 154
0.36119747 0.08127856 0.77473354 144 151 163
0.36224529 0.16696190 0.45085946 151 162 167
0.36765286 0.19755498 0.47747670 131 137 144
0.36363836 0.20284279 0.47364041 151 160 164
0.39004767 0.37034157 1.13549721 167 174 182
0.39212816 0.37584989 1.15150004 164 172 180
0.39604574 0.38194406 1.15878952 170 175 182
0.39304984 0.38192306 1.16176927 163 171 179
0.39828634 0.40543480 1.19557643 143 147 164
0.41680874 0.09888419 0.67947745 120 123 138
0.41405133 0.10792911 0.67683558 125 131 143
0.41789813 0.10081402 0.68061429 108 112 126
0.41064569 0.39281364 1.17137171 163 167 174
0.40525682 0.39718103 1.18976382 162 167 177
0.40861206 0.40398142 1.19281578 145 147 163
0.41226375 0.41061891 1.20623624 141 145 160
0.42283497 0.10660446 0.67895973 129 137 144
0.42554465 0.10551956 0.68061429 131 135 146
0.43599519 0.19604760 0.46888347 139 143 149
0.43854590 0.20955769 0.45208466 150 157 161
0.43896820 0.20099639 0.46665381 153 158 159
0.42069846 0.39812219 1.18305731 162 163 171
0.42265776 0.40609519 1.19244126 149 151 158
0.43040054 0.41872433 1.21922994 146 146 155
0.42695376 0.41947880 1.22142673 144 146 156
0.43275735 0.42972497 1.23357683 140 139 147
0.43093923 0.43516614 1.24671216 136 137 144
0.45725977 -0.28393446 0.46302135 107 126 133
0.45738176 -0.27768093 0.46272509 111 125 133
0.45913680 0.13681350 0.45712370 146 150 156
0.45209489 0.13851978 0.46432196 140 143 149
0.45875467 0.14331379 0.45827464 156 162 167
0.45463357 0.14339488 0.46367047 145 150 155
0.45177093 0.15534842 0.79751980 163 167 180
0.45206061 0.15842650 0.80684832 167 170 179
0.45471224 0.16751312 0.81069146 166 170 178
0.45582948 0.17308337 0.82753895 161 163 170
0.45914890 0.18226354 0.82886307 156 160 167
0.44209837 0.21401119 0.45648626 150 156 162
0.44695677 0.21095559 0.46809373 150 155 160
0.46042577 -0.28379633 0.46316757 105 121 129
0.46205611 -0.27616981 0.46340281 106 126 132
0.46120146 0.13866380 0.45747979 135 138 146
0.46023745 0.13908716 0.46062885 152 155 162
0.46237312 0.14201264 0.45779474 161 166 171
0.46022790 0.14057364 0.46115105 141 145 151
0.46175865 0.15780322 0.80654174 151 154 164
0.46468018 0.17068112 0.80887172 153 156 165
0.46697834 0.17932039 0.82102390 177 182 187
0.46669437 0.18144719 0.81887734 177 180 186
0.47002329 0.18379637 0.82705968 173 177 185
0.47874680 0.18540442 0.84001470 180 182 190
0.49637286 -0.04042403 0.47924539 60 63 71
0.49677287 -0.04126347 0.48204914 57 60 68
0.49636874 -0.03836826 0.47943248 57 59 67
0.49332002 -0.03663930 0.48128287 57 61 68
0.49364567 0.06838407 0.48422539 112 121 131
0.48105448 0.19097537 0.83897507 169 174 183
0.48585822 0.19574759 0.84863819 172 178 184
0.49029016 0.19879627 0.86026883 172 179 185
0.48991289 0.20189438 0.85701104 176 180 186
0.49139460 0.20199482 0.86378069 173 177 184
0.50210765 -0.04230215 0.48387144 59 62 70
0.50062937 -0.03922351 0.47975361 61 61 68
0.50212983 -0.03874370 0.48066077 58 61 68
0.50057087 0.07136897 0.48559604 99 106 120
0.52638384 0.23851066 0.59902338 136 137 145
0.52880746 0.23870818 0.60257101 136 139 147
0.53510812 0.24274876 0.61277848 135 138 145
0.53821811 0.25103146 0.62743813 112 117 129
0.54818973 0.23870206 0.63150135 138 146 155
0.54008478 0.24364337 0.61907929 133 138 145
0.54577469 0.24712396 0.63189099 133 136 143
0.55120008 0.24758295 0.64348938 161 167 168
0.57849398 0.13173591 0.58539927 146 149 151
0.58972421 0.13616605 0.59263648 145 152 156
0.59108922 0.14353880 0.59452659 151 160 164
0.59337974 0.14549471 0.60257053 158 162 165
0.63568565 -0.56179825 0.94892221 97 116 130
0.63554760 -0.54792425 0.93738312 97 116 129
0.63306834 -0.54935530 0.94528401 95 116 128
0.63454753 -0.53687507 0.93812920 104 115 134
0.63392862 -0.53628582 0.94474483 99 113 129
0.62729878 0.17786911 0.63642824 141 146 153
0.62851254 0.18444801 0.63564574 141 148 156
0.64015746 -0.56100482 0.94545585 101 118 132
0.64089671 -0.55940747 0.94414088 100 114 128
0.65776475 0.31803951 0.84315188 133 133 141
0.65030505 0.33184093 0.83658382 117 130 136
0.65361381 0.32854006 0.84449967 126 133 140
0.67582308 -0.18292693 0.67443383 79 101 118
0.67641829 -0.17664033 0.67077644 84 98 116
0.66118605 0.31797797 0.84163906 148 149 155
0.66231704 0.32003430 0.83897507 167 170 174
0.66250682 0.32082844 0.84105688 172 175 180
0.68150858 -0.17394229 0.66734913 83 98 117
0.73504295 0.09550772 0.61282917 142 148 154
0.73358033 0.10264749 0.61179302 144 152 156
0.74218312 0.09777621 0.61468228 149 158 163
0.74224752 0.10059465 0.61458915 153 161 165
0.75069218 0.29406741 0.79413023 152 154 159
0.75489445 0.29764917 0.80689129 153 157 162
0.75278282 0.30194233 0.79618730 135 138 143
0.75585296 0.30280838 0.80725103 137 139 144
0.76186019 0.29993057 0.81969994 158 163 168
0.76274911 0.29941991 0.82218811 160 163 169
0.76186019 0.30370867 0.81969994 145 149 155
0.76235795 0.30334096 0.82375594 154 158 164
0.81182906 0.42504635 1.21922994 161 169 175
0.81453754 0.42408857 1.22560949 155 162 169
0.82880553 0.24679962 1.13269174 151 153 161
0.83248044 0.25491825 1.14722592 164 167 175
0.83417329 0.27763018 1.13361108 169 174 176
0.83643287 0.26353988 1.15367448 160 163 171
0.83922154 0.28392625 1.14315653 165 169 172
0.82838078 0.42518044 1.22876427 152 156 165
0.83850038 0.42639327 1.24156010 137 140 148
0.84595209 0.25118431 1.13803963 158 161 165
0.85019663 0.25176153 1.15071220 150 152 158
0.85030008 0.26774287 1.15560349 155 162 169
0.85537861 0.27252808 1.16329778 155 165 170
0.84479848 0.28299651 1.15143421 170 173 176
0.85748994 0.28067335 1.17079771 165 171 178
0.85468310 0.42697522 1.23702896 110 118 123
0.85352782 0.43339208 1.25001166 133 135 147
0.85803461 0.43518017 1.26080418 137 140 147
0.85591143 0.44062608 1.25768435 170 175 179
0.86575308 0.25860854 1.15583421 169 172 178
0.86650919 0.26299921 1.15655467 162 170 175
0.86233007 0.26670215 1.16232460 157 165 171
0.86442411 0.27952269 1.18305731 148 159 164
0.86733392 0.34834404 0.95312402 154 160 165
0.87721690 0.35522059 0.96474733 152 155 161
0.86445333 0.43113454 1.25535909 131 135 143
0.86801350 0.43034540 1.26495942 138 145 148
0.87706837 0.43317045 1.28389066 141 148 151
0.86025906 0.44062608 1.25768435 159 159 169
0.86484036 0.44294706 1.26119524 145 146 156
0.87650394 0.44121724 1.29122257 128 128 137
0.87930089 0.44491771 1.30867147 138 140 148
0.88515707 0.35534915 0.97484031 154 160 166
0.89335084 0.35507654 0.98436145 153 160 166
0.88675504 0.36654694 0.97469528 149 155 158
0.89725988 0.36461138 0.99075648 154 158 163
0.88147885 0.43378100 1.26946032 137 141 144
0.88545495 0.43506742 1.29616269 143 149 153
0.89267021 0.43576685 1.30837825 150 154 159
0.88732754 0.44341370 1.31344591 132 137 145
0.89353396 0.44889351 1.33265735 141 145 152
0.89615683 0.44905020 1.34381385 144 150 160
0.91835994 0.29283267 0.97538394 152 155 160
0.91726172 0.30934080 0.97961247 135 143 147
0.90154930 0.35867379 0.99592386 154 161 166
0.90950668 0.35826063 1.00279856 165 173 177
0.90194882 0.36848403 0.99763604 146 152 155
0.91126471 0.36469727 1.00819395 152 159 163
0.90034878 0.43158370 1.31629479 169 173 176
0.90866232 0.43666924 1.33181449 168 171 174
0.91716951 0.43955055 1.34769750 174 178 181
0.90492822 0.44498290 1.33406561 139 144 150
0.91346563 0.44373798 1.34773173 157 163 168
0.92509298 0.29756600 0.97616835 148 152 155
0.92606940 0.29787755 0.98409344 158 162 165
0.92738667 0.30520801 0.97820111 133 137 142
0.92747876 0.30675516 0.98810020 139 143 150
0.92720091 0.30754125 1.00131738 126 128 143
0.93621057 0.32027900 0.99252099 128 138 143
0.93366704 0.36442964 1.03283583 151 161 167
0.93174922 0.43631509 1.05755353 156 164 168
0.93647261 0.45476754 1.05618424 131 142 151
0.93892341 0.45296637 1.06319568 128 139 146
0.93778199 0.46079662 1.05920601 133 140 151
0.93796700 0.46132287 1.06252635 126 134 145
0.94298548 0.35886872 1.03971136 154 162 166
0.94504266 0.35860028 1.04568524 158 167 170
0.94250411 0.36227874 1.03918064 146 157 164
0.94566687 0.36737438 1.04816633 151 160 166
0.94180331 0.44957111 1.05755743 136 147 153
0.94635061 0.45137484 1.07102590 132 141 147
0.94840580 0.45602275 1.08431254 122 130 135
0.94357595 0.46335203 1.07292155 115 126 134
0.95165481 0.46780803 1.09142825 111 118 125
0.95806193 0.47822563 1.10585940 116 121 127
0.96541227 0.37300926 1.07261503 150 160 165
0.96816194 0.48471642 1.11863339 120 125 129
0.98618382 0.37797117 1.09780127 157 166 171
0.98618382 0.38555640 1.09780127 155 164 170
0.99062134 0.38537060 1.10407303 146 156 162
1.00886202 0.39568947 1.12608240 141 151 158
1.03976130 0.04575394 1.68629813 117 127 144
1.02788964 0.40489606 1.15142912 140 150 158
1.03193706 0.40867315 1.17005293 122 129 140
1.03823364 0.41652554 1.18305731 128 135 148
1.05974591 0.01520527 1.69261646 120 126 133
1.05818748 0.01393568 1.71618187 114 121 131
1.05825913 0.03319273 1.71509844 141 143 146
1.05074126 0.04378236 1.69205164 112 120 131
1.05466865 0.04206629 1.70570055 118 124 130
1.05756246 0.34968192 0.93611739 144 153 156
1.05814444 0.34903866 0.94332156 148 156 158
1.05951512 0.36065128 0.93696222 119 129 138
1.04344237 0.41292238 1.17282331 129 137 143
1.04728802 0.41651447 1.18977928 125 132 143
1.05532823 0.42272860 1.19648492 133 139 149
1.05553243 0.42429959 1.20514584 127 133 144
1.06526488 0.01819033 1.69791514 116 124 130
1.06472740 0.01610556 1.71042529 122 126 135
1.06425101 0.01894181 1.72200070 123 126 134
1.06519830 0.03239409 1.69897699 126 128 133
1.06748784 0.03029922 1.70958322 130 133 137
1.06445872 0.02455702 1.72372977 125 128 136
1.06239861 0.04017459 1.69685328 140 142 148
1.06760514 0.04042777 1.70754701 131 135 139
1.06005514 0.33957484 0.93245095 164 173 176
1.06251902 0.34882785 0.93604280 152 160 164
1.06583652 0.35444820 0.94734071 144 152 155
1.06252778 0.36302322 0.93890840 134 143 150
1.06486837 0.36306743 0.94628083 126 135 143
1.06349480 0.42581713 1.19768882 146 151 158
1.07017242 0.43289007 1.20966442 139 146 155
1.07489045 0.43528609 1.22833232 130 135 144
1.07512703 0.44684950 1.21079455 140 148 155
1.07715954 0.44932990 1.23253968 130 133 140
1.08488405 0.01986824 1.71618187 124 132 140
1.08310428 0.02936034 1.71618187 114 119 126
1.08078353 0.43909508 1.22511733 134 141 152
1.08727443 0.42717567 1.24383819 125 130 140
1.08431924 0.44972650 1.22876605 136 143 150
1.08995472 0.45202844 1.24635177 133 137 144
1.09706545 0.45451215 1.26002204 140 141 147
1.09009322 0.46220118 1.23405449 145 153 158
1.09286350 0.46132636 1.24900815 127 130 139
1.09971547 0.46184415 1.71618187 159 163 175
1.10751224 0.43707986 1.26950043 130 136 145
1.11152768 0.44064486 1.27663243 136 139 148
1.10714459 0.45240429 1.72933849 160 166 172
1.11663040 0.44927487 1.74414965 146 149 156
1.10283267 0.46433263 1.25419936 131 138 144
1.10783982 0.46736266 1.26237279 127 133 140
1.11968958 0.46746171 1.74265254 160 166 176
1.13293648 0.44375297 1.29864335 126 133 146
1.13286209 0.44685361 1.30113602 138 145 152
1.12676535 0.45425912 1.75231348 149 153 161
1.13269788 0.45431380 1.76767200 150 154 159
1.12705512 0.47337896 1.55319096 139 142 149
1.13570776 0.47265168 1.56981488 121 124 136
1.12840706 0.46651578 1.74916204 159 166 174
1.13315797 0.48138916 1.29122257 124 139 143
1.13426888 0.48117658 1.76534331 159 164 171
1.14162707 0.44804460 1.31120276 130 137 149
1.14747137 0.45645156 1.77260887 156 162 169
1.14846274 0.47021696 1.58882957 121 125 139
1.15572286 0.46866700 1.60258114 128 131 147
1.14664681 0.46921880 1.75258012 160 168 177
1.15163807 0.46925519 1.77051614 157 163 172
1.15122411 0.48384250 1.77738061 169 174 181
1.14053369 0.74883789 1.75619650 134 146 151
1.16265329 0.45746347 1.78392589 169 176 183
1.16266894 0.46894336 1.59880149 142 147 159
1.17208209 0.46850222 1.61252019 154 159 172
1.17563629 0.47345010 1.62695503 137 141 157
1.16359478 0.46811912 1.77518032 160 167 176
1.16933928 0.47371503 1.78706801 153 160 172
1.17036837 0.48590208 1.79022678 172 177 184
1.16364137 0.75435754 1.79337303 120 128 135
1.17275078 0.75496012 1.80869377 111 118 126
1.16311276 0.76414651 1.79574311 129 139 146
1.17086894 0.76764961 1.81186564 119 127 137
1.17716503 0.77019295 1.82474583 119 128 136
1.18848407 0.27851013 1.05181363 152 164 167
1.19382898 0.27830138 1.06141786 147 157 162
1.19407926 0.28478015 1.05642865 159 168 171
1.19622928 0.28760211 1.06273620 154 162 168
1.19075274 0.47178003 1.63741994 150 157 172
1.19661815 0.47351941 1.65053804 146 150 166
1.19566279 0.47488992 1.66970171 141 141 152
1.19385064 0.48327702 1.65743732 129 130 147
1.19780048 0.48181298 1.66558862 131 130 149
1.18985403 0.75905311 1.83214009 119 127 134
1.18565889 0.76571379 1.83545021 114 122 134
1.19260077 0.77353902 1.85015583 111 118 131
1.18195331 0.78227434 1.83462268 122 131 142
1.19249800 0.79298583 1.85596934 123 131 143
1.19827855 0.78822148 1.86748481 104 110 125
1.20525901 0.28445694 1.05786533 150 158 161
1.21076955 0.28981550 1.06486319 148 156 161
1.21562955 0.29130565 1.08246392 150 160 165
1.21993339 0.30125895 1.08462691 151 159 162
1.20427748 0.47161939 1.65340130 153 157 170
1.20599828 0.47366698 1.66938746 150 151 161
1.20797740 0.47545369 1.68631305 149 150 156
1.21819067 0.47783415 1.70971388 164 165 172
1.21978450 0.75620115 1.88827813 132 136 144
1.20615339 0.76624101 1.85723794 121 127 132
1.20476162 0.77333585 1.86920444 117 124 135
1.20320237 0.78391951 1.87262940 111 118 131
1.20936761 0.78993502 1.88934476 113 120 132
1.22489592 0.29049364 1.06961490 142 149 155
1.23316901 0.30540628 1.09110384 153 160 164
1.23937678 0.30985896 1.10361394 160 167 171
1.23999536 0.45574799 1.73818421 166 174 178
1.22530564 0.47054421 1.69414091 173 175 180
1.23169599 0.47316027 1.70960396 173 176 181
1.23466865 0.47502714 1.72801157 174 178 183
1.23715901 0.47800383 1.74265254 169 174 179
1.22769094 0.48032358 1.72931588 163 166 172
1.22482812 0.76158631 1.89355266 132 135 143
1.22348106 0.78232104 1.90419054 123 128 139
1.23405564 0.79786837 1.92582905 119 125 136
1.23794901 0.81815583 1.94238353 112 119 132
1.24586423 0.31000500 1.09540728 151 158 161
1.24636780 0.31459545 1.10889868 160 166 171
1.25291909 0.32826417 1.11481013 158 167 172
1.25719113 0.33069659 1.12085335 159 167 172
1.24491293 0.34495818 1.11272607 154 162 168
1.25615093 0.34222395 1.12373498 155 165 170
1.24712360 0.43848071 1.72932720 170 179 180
1.24203765 0.44861151 1.71473730 163 167 173
1.24635166 0.44962545 1.73018379 168 173 177
1.25018063 0.45201104 1.74592744 169 176 179
1.24331003 0.46600595 1.70969212 169 171 178
1.24833071 0.46531257 1.73031378 173 177 184
1.24982670 0.46880310 1.74891124 174 179 186
1.25305587 0.47003596 1.76075804 174 179 184
1.24780273 0.77899396 1.93683386 132 135 143
1.25137806 0.77786881 1.94238353 132 135 143
1.25330349 0.78159869 1.93499450 128 129 138
1.25497401 0.78683788 1.94796503 127 130 138
1.24416399 0.80859568 1.94685519 119 125 136
1.25821316 0.81642342 1.97061586 119 126 136
1.24508417 0.82624805 1.95357883 116 119 136
1.25618815 0.82563561 1.97636104 122 130 138
1.25986123 0.83318871 1.98213995 119 126 139
1.26452281 0.31498880 1.12982855 159 166 171
1.26204896 0.33003905 1.11863339 161 171 176
1.26523232 0.33026988 1.12905463 159 167 173
1.27642687 0.32505395 1.14187352 158 165 171
1.26703417 0.45875230 1.73818421 172 176 180
1.26402986 0.46175662 1.73818421 171 176 181
1.27667805 0.46352997 1.74864876 172 177 181
1.26805061 0.79582625 1.97444598 127 130 138
1.27200651 0.79494900 1.98504627 135 139 146
1.26623240 0.80679631 1.97206044 119 122 132
1.27026765 0.80778999 1.98472716 120 125 132
1.26585042 0.82361412 1.98796403 122 128 137
1.26355588 0.84078610 1.98795259 120 123 139
1.28089821 0.80415440 1.99091047 125 128 137
1.53658855 0.63901782 1.60258114 140 150 157
1.54661787 0.63177985 1.61595428 127 134 145
1.55495731 0.63603226 1.62564615 128 135 143
1.54618295 0.65041562 1.60908609 144 153 158
1.55325471 0.65190619 1.62529317 140 148 158
1.55210493 0.66941699 1.61294590 157 163 166
1.55806041 0.66344254 1.63086915 144 149 156
1.55125761 0.68147111 1.61788034 166 170 173
1.55496883 0.68029833 1.62175083 167 173 175
1.57348108 0.25974366 1.90955448 152 159 161
1.57546663 0.24618182 1.95922494 117 127 139
1.57833517 0.24180112 1.96490383 124 131 142
1.56906116 0.26230526 1.90419054 135 144 147
1.56150222 0.64158893 1.63741994 124 132 143
1.56528306 0.64597940 1.64138460 128 137 146
1.56492448 0.67093730 1.61276245 157 162 167
1.56931623 0.67350834 1.62938892 154 159 165
1.56872912 0.67193367 1.64782474 141 145 153
1.57282281 0.68215438 1.63741994 164 167 173
1.57738951 0.68178990 1.64738977 155 158 164
1.59871221 0.21972597 1.96490383 115 122 137
1.59157230 0.23611020 1.95198873 110 116 129
1.58917290 0.23057161 1.97063243 119 126 137
1.59646258 0.22850532 1.98213995 118 123 135
1.59408581 0.24802649 1.95315694 124 131 139
1.59166922 0.24897178 1.96980775 116 123 133
1.59903204 0.25762606 1.98213995 105 111 118
1.58532870 0.26474805 1.93407482 138 144 150
1.59282414 0.26729730 1.95021378 113 118 127
1.59171654 0.26788522 1.97098736 107 113 126
1.59517616 0.28133020 1.95640188 122 128 132
1.59933287 0.28466649 1.96775985 128 131 135
1.58124328 0.67734104 1.63151103 155 160 166
1.59365308 0.67718637 1.64138460 163 172 173
1.58697355 0.68121099 1.63741994 156 159 167
1.58897368 0.68072939 1.64538797 153 158 163
1.60931003 0.21822742 1.98213995 123 130 141
1.60429251 0.22867765 1.97176490 113 120 133
1.61113058 0.23006133 1.99037230 115 122 133
1.60383433 0.25158764 1.95734290 127 132 141
1.60362722 0.25263982 1.97445150 119 126 132
1.60595433 0.25113330 1.98505199 115 122 129
1.60454190 0.26598473 1.95546087 132 139 143
1.60830983 0.26490204 1.97254197 125 132 138
1.60995274 0.27099350 1.98971527 110 117 130
1.60335958 0.28167361 1.97061586 142 150 155
1.60931003 0.28332081 1.98213995 150 158 163
1.62009537 0.22707121 1.99968100 115 118 130
1.62038982 0.25783125 1.97061586 165 168 176
1.62038982 0.26123729 1.97061586 156 156 161
