ply
format ascii 1.0
element vertex 1060
property float x
property float y
property float z
property uchar red
property uchar green
property uchar blue
end_header
0.01259600 0.14075388 0.49445066 128 133 146
0.03857120 0.22104648 0.77650839 141 142 170
0.03982210 0.22054122 0.77473354 144 146 170
0.04106729 0.22003828 0.77296674 152 156 176
0.04240330 0.22003828 0.77296674 160 165 182
0.04363980 0.21953763 0.77120799 164 168 179
1.20581031 0.47884262 1.68211377 137 137 146
1.20572579 0.47765735 1.67795014 138 138 147
1.20564175 0.47647795 1.67380702 140 141 154
1.20259607 0.47413653 1.66558194 142 144 157
1.20252025 0.47297445 1.66149962 146 148 162
1.19951212 0.47066724 1.65339470 150 152 166
1.20530963 0.47181803 1.65743732 153 155 168
1.20522761 0.47066724 1.65339470 156 160 171
0.62365103 0.18187895 0.63891786 126 132 139
0.62416708 0.18170770 0.63831621 118 124 131
0.62527037 0.18170770 0.63831621 115 121 128
0.62637365 0.18170770 0.63831621 111 117 125
0.62747693 0.18170770 0.63831621 104 108 120
0.62858021 0.18170770 0.63831621 108 112 124
0.62909108 0.18153676 0.63771576 114 119 132
0.62841982 0.18102586 0.63592106 123 130 143
0.62892896 0.18085621 0.63532507 125 132 145
0.63002706 0.18085621 0.63532507 128 135 148
0.63290465 0.18136615 0.63711637 130 138 150
0.63281637 0.18102586 0.63592106 132 139 152
0.63332140 0.18085621 0.63532507 132 140 152
1.27786112 0.32541919 1.14315653 158 166 172
1.26701725 0.32215956 1.13170588 160 167 172
1.25018907 0.31739074 1.11495364 162 168 173
1.23385191 0.31276107 1.09869015 164 170 175
1.23965907 0.31326878 1.10047376 168 174 176
1.24156117 0.31326878 1.10047376 168 174 176
1.24144793 0.31276107 1.09869015 167 172 175
1.24133503 0.31225497 1.09691238 167 173 175
1.24524593 0.31276107 1.09869015 165 171 174
1.24714494 0.31276107 1.09869015 159 166 170
1.24702287 0.31225497 1.09691238 154 161 166
1.24891877 0.31225497 1.09691238 149 154 159
1.24879396 0.31175053 1.09514034 144 147 153
1.25068688 0.31175053 1.09514034 140 143 149
1.25257969 0.31175053 1.09514034 140 145 151
-0.20672080 0.23419210 0.81772238 102 103 134
-0.20383216 0.23250929 0.81184649 105 106 137
-0.20218682 0.23223117 0.81087542 106 117 140
-0.20102575 0.23250929 0.81184649 109 126 146
-0.20058341 0.23362847 0.81575429 109 133 150
-0.19869524 0.23306753 0.81379575 111 130 147
-0.01299514 0.14109394 0.49265397 198 200 208
-0.01217016 0.14140223 0.49373040 198 200 208
-0.01131679 0.14140223 0.49373040 197 200 208
-0.01044820 0.14119655 0.49301225 196 201 208
-0.00958909 0.14109394 0.49265397 196 201 208
-0.00874393 0.14119655 0.49301225 196 201 208
-0.00789180 0.14119655 0.49301225 195 200 206
-0.00704993 0.14140223 0.49373040 178 183 188
-0.00618754 0.14119655 0.49301225 169 172 178
-0.00532766 0.14099146 0.49229619 137 139 148
-0.00447676 0.14099146 0.49229619 136 135 148
-0.00363114 0.14119655 0.49301225 138 136 151
-0.00277901 0.14119655 0.49301225 148 147 162
-0.00192408 0.14099146 0.49229619 164 164 175
-0.00107319 0.14099146 0.49229619 167 167 178
-0.00022213 0.14088915 0.49193892 169 169 180
0.00062906 0.14109394 0.49265397 171 171 180
0.00148380 0.14140223 0.49373040 174 175 184
0.00233039 0.14099146 0.49229619 173 176 184
0.00317667 0.14078699 0.49158219 173 176 184
0.00404098 0.14129931 0.49337107 169 171 182
0.01091862 0.14202286 0.49589747 134 137 152
0.01174995 0.14171186 0.49481156 132 139 152
0.01260520 0.14171186 0.49481156 128 135 148
0.01427400 0.14129931 0.49337107 108 111 124
0.03857120 0.22238861 0.77650839 149 154 176
0.03982210 0.22188029 0.77473354 155 161 180
0.04102052 0.22112216 0.77208638 164 171 184
0.04235501 0.22112216 0.77208638 167 175 184
0.04354073 0.22036919 0.76945728 166 173 179
0.04476904 0.21987005 0.76771444 165 173 181
0.04620062 0.22036919 0.76945728 161 168 177
1.19985569 0.47937101 1.67380702 136 134 150
1.20274878 0.47937101 1.67380702 133 132 147
1.20267224 0.47819027 1.66968429 136 136 154
1.19964850 0.47584620 1.66149962 139 140 158
1.19958019 0.47468278 1.65743732 141 144 161
1.19659364 0.47237289 1.64937186 144 150 166
1.19944441 0.47237289 1.64937186 149 155 170
1.20229518 0.47237289 1.64937186 152 158 171
0.62306380 0.18281098 0.63831621 118 127 130
0.62357992 0.18263900 0.63771576 113 121 126
0.62527037 0.18281098 0.63831621 110 118 124
0.62637365 0.18281098 0.63831621 109 117 124
0.62747693 0.18281098 0.63831621 108 116 127
0.62858021 0.18281098 0.63831621 114 121 134
0.62909108 0.18263900 0.63771576 120 128 140
0.62841982 0.18212500 0.63592106 124 133 145
0.62892896 0.18195431 0.63532507 129 138 150
0.63002706 0.18195431 0.63532507 132 141 153
0.63290465 0.18246734 0.63711637 132 141 153
0.63281637 0.18212500 0.63592106 132 140 153
0.63213652 0.18161389 0.63413644 133 141 153
0.62794584 0.18009764 0.62884218 134 141 154
1.27570975 0.32684386 1.14123201 156 163 170
1.26701725 0.32411560 1.13170588 158 164 170
1.25431514 0.32037172 1.11863339 158 165 169
1.24167478 0.31568334 1.10226321 159 164 167
-0.20358835 0.23363270 0.81087542 113 121 146
-0.20126678 0.23419297 0.81281996 110 131 149
-0.20058341 0.23503843 0.81575429 115 139 155
-0.01297628 0.14173943 0.49193892 196 198 207
-0.01216131 0.14215207 0.49337107 197 199 207
-0.01131679 0.14225560 0.49373040 196 199 207
-0.01044060 0.14194545 0.49265397 197 200 208
-0.00958909 0.14194545 0.49265397 197 200 208
-0.00874393 0.14204869 0.49301225 197 200 207
-0.00789180 0.14204869 0.49301225 186 190 193
-0.00704993 0.14225560 0.49373040 176 179 184
-0.00618754 0.14204869 0.49301225 159 159 168
-0.00532766 0.14184237 0.49229619 131 129 143
-0.00447676 0.14184237 0.49229619 133 131 146
-0.00363114 0.14204869 0.49301225 140 138 154
-0.00277699 0.14194545 0.49265397 147 146 162
-0.00192269 0.14173943 0.49193892 161 162 174
-0.00107163 0.14163664 0.49158219 166 169 179
-0.00022213 0.14173943 0.49193892 167 170 178
0.00062860 0.14184237 0.49229619 170 173 181
0.00148272 0.14215207 0.49337107 170 173 181
0.00233039 0.14184237 0.49229619 172 175 183
0.00317667 0.14163664 0.49158219 171 174 182
0.00729729 0.18051472 0.62651742 156 156 167
0.00834931 0.17984985 0.62420982 151 151 162
0.01091862 0.14287998 0.49589747 135 137 152
0.01175854 0.14267124 0.49517301 133 137 151
0.01261440 0.14267124 0.49517301 128 131 145
0.01347027 0.14267124 0.49517301 136 138 153
0.01429481 0.14235929 0.49409026 136 140 150
0.03857120 0.22373074 0.77650839 151 161 178
0.03982210 0.22321935 0.77473354 160 166 182
0.04106729 0.22271030 0.77296674 166 173 187
0.04235501 0.22245665 0.77208638 167 174 187
0.04359021 0.22195107 0.77033162 165 172 183
0.04481980 0.22144778 0.76858485 165 173 182
0.04614823 0.22144778 0.76858485 162 170 178
0.04736926 0.22094676 0.76684600 160 166 175
1.19978631 0.48107621 1.66968429 132 130 149
1.19971728 0.47989419 1.66558194 136 136 154
1.19671535 0.47754753 1.65743732 143 144 162
1.19084537 0.47407022 1.64536858 148 150 167
1.18792260 0.47178003 1.63741994 149 155 171
1.19363594 0.47292235 1.64138460 153 159 175
1.19358289 0.47178003 1.63741994 151 160 173
0.62637365 0.18391426 0.63831621 129 137 142
0.62747693 0.18391426 0.63831621 133 142 150
0.62858021 0.18391426 0.63831621 136 146 155
0.62909108 0.18374124 0.63771576 138 149 158
0.62841982 0.18322414 0.63592106 136 147 157
0.62834007 0.18288103 0.63473016 137 148 158
0.62943715 0.18288103 0.63473016 139 149 160
0.63231039 0.18339619 0.63651818 140 149 159
0.63222331 0.18305242 0.63532507 139 148 159
0.63154572 0.18253919 0.63354379 139 148 158
0.62852889 0.18135278 0.62942606 140 147 159
1.27142894 0.32771298 1.13740242 155 161 170
1.26701725 0.32607168 1.13170588 155 161 169
1.25638843 0.32283792 1.12048233 156 162 167
1.23786449 0.31758851 1.10226321 157 163 168
1.24776149 0.31914532 1.10766637 159 165 170
1.24763739 0.31862471 1.10585940 159 165 170
-0.01214363 0.14279696 0.49265397 192 195 203
-0.01130855 0.14300482 0.49337107 194 197 205
-0.01044060 0.14279696 0.49265397 196 199 207
-0.00958909 0.14279696 0.49265397 195 199 206
-0.00874393 0.14290081 0.49301225 190 195 197
-0.00789180 0.14290081 0.49301225 182 184 188
-0.00704993 0.14310896 0.49373040 167 169 174
-0.00618754 0.14290081 0.49301225 151 150 159
-0.00532379 0.14258970 0.49193892 136 133 147
-0.00447676 0.14269325 0.49229619 137 135 149
-0.00363114 0.14290081 0.49301225 144 142 156
-0.00277901 0.14290081 0.49301225 147 147 159
-0.00192269 0.14258970 0.49193892 160 162 172
-0.00107241 0.14258970 0.49193892 166 169 179
-0.00022213 0.14258970 0.49193892 168 170 179
0.00062860 0.14269325 0.49229619 170 172 180
0.00148165 0.14290081 0.49301225 170 172 181
0.00233039 0.14269325 0.49229619 170 173 181
0.00623747 0.18227145 0.62884218 161 161 170
0.00729729 0.18159762 0.62651742 157 157 166
0.00835701 0.18109550 0.62478513 152 152 161
0.00941953 0.18076229 0.62363553 144 144 153
0.01043027 0.17960568 0.61964518 143 143 152
0.01432614 0.14352711 0.49517301 149 157 164
0.03861543 0.22533098 0.77739888 156 165 180
0.03986766 0.22481535 0.77561998 166 172 187
0.04116116 0.22455841 0.77473354 165 171 184
0.04245171 0.22430207 0.77384913 166 173 186
0.04368950 0.22379114 0.77208638 163 171 180
0.04487067 0.22302908 0.76945728 165 171 182
0.04620062 0.22302908 0.76945728 164 169 180
0.04736926 0.22227219 0.76684600 163 168 179
0.03411185 0.13384783 0.46177918 160 161 169
1.19683838 0.48277301 1.66558194 129 128 146
1.19677675 0.48158973 1.66149962 134 133 152
1.17941356 0.47346655 1.63347435 138 139 157
1.17095053 0.46894658 1.61788034 142 144 161
1.17374694 0.46894658 1.61788034 149 155 168
1.17935801 0.47006845 1.62175083 155 162 175
1.17933965 0.46894658 1.61788034 159 167 177
0.62637365 0.18501753 0.63831621 139 146 150
0.62747693 0.18501753 0.63831621 143 150 155
0.62858021 0.18501753 0.63831621 147 155 160
0.62849987 0.18466975 0.63711637 147 155 161
0.62783086 0.18415053 0.63532507 147 156 161
0.62775230 0.18380600 0.63413644 147 157 162
0.62884837 0.18380600 0.63413644 149 159 165
0.63171726 0.18432328 0.63592106 147 156 163
0.63222331 0.18415053 0.63532507 148 156 165
0.63154572 0.18363422 0.63354379 151 159 168
0.62911302 0.18261024 0.63001102 151 159 169
1.27142894 0.32967889 1.13740242 155 163 171
1.26913595 0.32857630 1.13359845 156 164 171
1.26055551 0.32585177 1.12419879 155 164 170
1.24596834 0.32158530 1.10947931 155 163 169
1.25404334 0.32317206 1.11495364 155 163 169
1.25803959 0.32370448 1.11679053 155 164 170
-0.01129212 0.14364848 0.49265397 195 198 207
-0.01043302 0.14354415 0.49229619 194 197 205
-0.00958213 0.14354415 0.49229619 194 198 205
-0.00874393 0.14375295 0.49301225 189 193 196
-0.00789755 0.14385757 0.49337107 175 177 180
-0.00704993 0.14396234 0.49373040 160 160 165
-0.00618754 0.14375295 0.49301225 141 141 146
-0.00532379 0.14343998 0.49193892 138 136 145
-0.00447676 0.14354415 0.49229619 139 137 146
-0.00363114 0.14375295 0.49301225 144 143 152
-0.00278104 0.14385757 0.49337107 154 153 162
-0.00192269 0.14343998 0.49193892 163 163 172
-0.00107319 0.14354415 0.49229619 166 166 176
-0.00022229 0.14354415 0.49229619 166 166 176
0.00062860 0.14354415 0.49229619 164 166 174
0.00148165 0.14375295 0.49301225 165 167 175
0.00513627 0.18284950 0.62709701 159 161 171
0.00622591 0.18301879 0.62767762 158 158 167
0.00729055 0.18251182 0.62593889 155 155 164
0.00834931 0.18200764 0.62420982 147 148 156
0.00941953 0.18184020 0.62363553 144 144 153
0.01043027 0.18067668 0.61964518 143 144 152
0.01148029 0.18034698 0.61851448 139 140 150
0.01262362 0.14448853 0.49553499 145 150 164
0.01348998 0.14459422 0.49589747 152 159 168
0.01432614 0.14438298 0.49517301 158 168 171
0.03991333 0.22641501 0.77650839 161 168 179
0.04116116 0.22589749 0.77473354 160 167 178
0.04245171 0.22563961 0.77384913 165 172 185
0.04368950 0.22512563 0.77208638 164 171 182
0.04492166 0.22461398 0.77033162 163 168 180
0.04620062 0.22435902 0.76945728 162 164 177
0.03411185 0.13464598 0.46177918 151 155 162
0.03483880 0.13437138 0.46083742 151 156 163
1.19385064 0.48327702 1.65743732 129 130 147
1.15710783 0.46728203 1.60258114 133 134 151
1.15441954 0.46508306 1.59503961 140 141 158
1.15990555 0.46617994 1.59880149 149 152 166
1.16541755 0.46728203 1.60258114 158 162 176
1.17095578 0.46838933 1.60637879 165 170 181
0.62578440 0.18594572 0.63771576 143 146 150
0.62629747 0.18577096 0.63711637 147 151 155
0.62798887 0.18594572 0.63771576 152 156 161
0.62849987 0.18577096 0.63711637 152 156 162
0.62724298 0.18507518 0.63473016 153 158 163
0.62658006 0.18455677 0.63295221 155 160 167
0.62708855 0.18438460 0.63236177 158 164 171
0.63112521 0.18524864 0.63532507 157 161 168
0.63163131 0.18507518 0.63473016 156 159 167
0.63154572 0.18472925 0.63354379 160 164 172
0.63028455 0.18404125 0.63118422 160 164 175
0.62961680 0.18352860 0.62942606 156 160 172
1.26929915 0.33108929 1.13549721 157 165 171
1.26913595 0.33053562 1.13359845 158 166 172
1.26264942 0.32833937 1.12606621 156 166 171
1.25624859 0.32617211 1.11863339 155 165 170
1.26444173 0.32779485 1.12419879 154 164 169
1.26428807 0.32725215 1.12233746 154 164 169
-0.00958909 0.14449999 0.49265397 190 193 201
-0.00874393 0.14460507 0.49301225 179 180 184
-0.00789755 0.14471032 0.49337107 165 165 172
-0.00705506 0.14492127 0.49409026 146 146 154
-0.00618754 0.14460507 0.49301225 124 123 133
-0.00531993 0.14418563 0.49158219 118 116 128
-0.00447352 0.14429025 0.49193892 132 130 142
-0.00363114 0.14460507 0.49301225 136 134 146
-0.00278104 0.14471032 0.49337107 146 144 153
-0.00192269 0.14429025 0.49193892 150 149 158
-0.00107241 0.14429025 0.49193892 158 157 166
-0.00022229 0.14439505 0.49229619 156 156 165
0.00062814 0.14429025 0.49193892 156 158 166
0.00512678 0.18359371 0.62593889 154 158 168
0.00622016 0.18393338 0.62709701 150 153 163
0.00727711 0.18325529 0.62478513 147 150 158
0.00832631 0.18258217 0.62249023 143 146 154
0.00938500 0.18224746 0.62134910 143 146 154
0.01042074 0.18158172 0.61907929 138 142 152
0.01148029 0.18141603 0.61851448 137 143 154
0.01260520 0.14513282 0.49481156 153 160 174
0.01347027 0.14523885 0.49517301 164 172 178
0.01430524 0.14502697 0.49445066 167 175 179
0.01515986 0.14502697 0.49445066 167 174 179
0.03861543 0.22801833 0.77739888 152 159 174
0.03991333 0.22775714 0.77650839 153 159 174
0.04120826 0.22749655 0.77561998 153 159 174
0.04250022 0.22723655 0.77473354 159 165 181
0.04373932 0.22671834 0.77296674 153 159 175
0.04497277 0.22620247 0.77120799 157 161 177
0.04625312 0.22594543 0.77033162 160 162 177
0.04742290 0.22517778 0.76771444 163 164 177
0.03411185 0.13544413 0.46177918 149 154 160
0.03481513 0.13507608 0.46052435 146 152 158
1.16813731 0.47681531 1.62563992 120 125 140
1.15433788 0.47005197 1.60258114 123 128 143
1.15166259 0.46783996 1.59503961 123 127 141
1.14901233 0.46564865 1.58756876 130 134 148
1.15717638 0.46783996 1.59503961 137 141 154
1.16266894 0.46894336 1.59880149 142 147 159
0.62519628 0.18687215 0.63711637 146 147 151
0.62629747 0.18687215 0.63711637 153 154 159
0.62739867 0.18687215 0.63711637 154 157 163
0.62790972 0.18669669 0.63651818 156 159 165
0.62724298 0.18617226 0.63473016 157 160 166
0.62658006 0.18565078 0.63295221 159 162 168
0.62708855 0.18547760 0.63236177 160 163 169
0.63053423 0.18617226 0.63473016 158 161 168
0.63163131 0.18617226 0.63473016 154 157 165
0.63095605 0.18565078 0.63295221 158 161 169
0.63087195 0.18530473 0.63177246 159 161 172
0.63078821 0.18495998 0.63059705 156 158 171
0.45961723 0.13407417 0.45710847 142 148 160
0.45916882 0.13371350 0.45587885 143 149 161
1.26717663 0.33249494 1.13359845 160 168 174
1.26701725 0.33193988 1.13170588 160 168 174
1.26055551 0.32973793 1.12419879 159 168 173
1.25832510 0.32864791 1.12048233 158 167 172
1.26444173 0.32973793 1.12419879 157 166 171
1.26219833 0.32864791 1.12048233 156 166 171
1.25996983 0.32756504 1.11679053 158 168 173
-0.00959607 0.14545721 0.49301225 183 186 192
-0.00875030 0.14556307 0.49337107 172 173 180
-0.00790330 0.14566909 0.49373040 159 159 170
-0.00705506 0.14577526 0.49409026 134 135 148
-0.00618754 0.14545721 0.49301225 110 108 129
-0.00531608 0.14493018 0.49122596 103 99 123
-0.00447027 0.14503528 0.49158219 129 124 147
-0.00277699 0.14535150 0.49265397 145 143 156
-0.00191990 0.14493018 0.49122596 153 152 163
-0.00107163 0.14503528 0.49158219 152 152 161
-0.00022197 0.14503528 0.49158219 150 151 160
0.00404490 0.18467559 0.62593889 150 154 163
0.00512205 0.18450522 0.62536150 150 154 163
0.00620867 0.18467559 0.62593889 143 146 155
0.00726373 0.18399601 0.62363553 142 145 155
0.00830343 0.18315354 0.62078005 142 145 155
0.00936782 0.18298596 0.62021214 142 145 155
0.01042074 0.18265174 0.61907929 136 140 156
0.01148029 0.18248509 0.61851448 141 145 162
0.01253790 0.18231875 0.61795062 139 145 163
0.01255936 0.14545721 0.49301225 158 164 175
0.01342125 0.14556307 0.49337107 161 168 175
0.01427400 0.14556307 0.49337107 168 175 181
0.01510477 0.14535150 0.49265397 171 177 184
0.03861543 0.22936200 0.77739888 148 152 173
0.03991333 0.22909927 0.77650839 144 149 168
0.04120826 0.22883715 0.77561998 143 149 167
0.04245171 0.22831468 0.77384913 143 149 168
0.04368950 0.22779460 0.77208638 144 148 167
0.04492166 0.22727689 0.77033162 145 149 167
0.04620062 0.22701891 0.76945728 147 149 168
0.04742290 0.22650471 0.76771444 158 158 170
0.03340472 0.13661452 0.46304089 155 161 166
0.03413510 0.13633515 0.46209395 148 152 158
0.03486250 0.13605691 0.46115091 142 145 151
0.03573249 0.13633515 0.46209395 134 134 143
1.14895916 0.46949217 1.59129536 116 123 137
1.14632773 0.46729827 1.58385944 120 126 141
1.15175641 0.46839264 1.58756876 125 132 145
0.45025012 0.13755409 0.46622548 158 161 167
0.45198852 0.13783850 0.46718940 154 157 163
0.45310831 0.13793355 0.46751162 150 152 159
0.45297915 0.13764876 0.46654636 147 147 155
0.45316178 0.13745956 0.46590504 141 141 150
0.45241240 0.13698880 0.46430948 136 137 144
0.62468213 0.18815020 0.63771576 134 136 142
0.62519628 0.18797337 0.63711637 143 145 150
0.62629747 0.18797337 0.63711637 156 158 163
0.62739867 0.18797337 0.63711637 157 161 166
0.62849987 0.18797337 0.63711637 158 163 169
0.62783086 0.18744485 0.63532507 160 165 170
0.62716562 0.18691930 0.63354379 160 165 170
0.62767404 0.18674478 0.63295221 163 168 173
0.63053423 0.18726934 0.63473016 164 169 174
0.63163131 0.18726934 0.63473016 160 165 170
0.63154572 0.18691930 0.63354379 162 167 172
0.63146049 0.18657058 0.63236177 161 165 172
0.45882714 0.13486424 0.45710847 146 149 159
0.45868933 0.13459197 0.45618564 147 151 161
0.45824432 0.13423064 0.45496097 142 147 157
1.26717663 0.33445427 1.13359845 162 170 176
1.26490545 0.33333942 1.12981975 162 170 176
1.26055551 0.33168104 1.12419879 162 170 176
1.25832510 0.33058456 1.12048233 161 169 175
1.26444173 0.33168104 1.12419879 162 170 176
1.26219833 0.33058456 1.12048233 161 170 175
1.26204896 0.33003905 1.11863339 161 171 176
-0.00874393 0.14630935 0.49301225 168 171 179
-0.00789180 0.14630935 0.49301225 150 153 165
-0.00704479 0.14641583 0.49337107 128 131 146
-0.00617855 0.14609684 0.49229619 129 128 154
-0.00530838 0.14556827 0.49051508 131 129 153
-0.00446380 0.14567368 0.49087027 144 142 164
-0.00276894 0.14577924 0.49122596 159 159 170
-0.00191851 0.14567368 0.49087027 158 158 168
-0.00107008 0.14567368 0.49087027 156 157 165
-0.00022181 0.14577924 0.49122596 148 151 160
0.00511262 0.18524434 0.62420982 142 144 156
0.00619722 0.18541506 0.62478513 138 138 151
0.00724373 0.18456453 0.62191910 142 141 155
0.00828825 0.18388970 0.61964518 143 142 156
0.00935071 0.18372178 0.61907929 144 143 157
0.01040174 0.18338682 0.61795062 151 154 175
0.01145937 0.18321981 0.61738783 143 147 168
0.01337259 0.14588495 0.49158219 166 169 180
0.01424291 0.14609684 0.49229619 167 170 180
0.01506099 0.14577924 0.49122596 169 172 183
0.03861543 0.23070566 0.77739888 138 143 168
0.03991333 0.23044141 0.77650839 131 137 158
0.04120826 0.23017773 0.77561998 129 135 155
0.04250022 0.22991468 0.77473354 131 135 156
0.04368950 0.22912909 0.77208638 130 133 153
0.04492166 0.22860834 0.77033162 135 138 158
0.04625312 0.22860834 0.77033162 135 138 159
0.04742290 0.22783165 0.76771444 144 145 160
0.04886051 0.22834885 0.76945728 150 151 165
0.03267134 0.13769701 0.46399167 152 155 165
0.03340472 0.13741486 0.46304089 148 151 159
0.03413510 0.13713384 0.46209395 141 142 151
0.03488623 0.13694714 0.46146482 135 135 144
0.03573249 0.13713384 0.46209395 129 129 139
0.03650629 0.13704042 0.46177918 130 130 141
1.14890575 0.47335374 1.59503961 118 121 136
1.14626837 0.47113663 1.58756876 113 116 132
1.14365566 0.46894020 1.58016741 114 118 133
0.44606963 0.13732105 0.46272480 152 155 162
0.44870710 0.13788578 0.46462771 154 154 162
0.45105594 0.13835993 0.46622548 150 150 157
0.45217279 0.13845515 0.46654636 145 145 152
0.45204583 0.13816988 0.46558505 140 140 148
0.45191941 0.13788578 0.46462771 139 139 146
0.45210272 0.13769701 0.46399167 135 136 144
0.45166811 0.13732105 0.46272480 130 133 141
0.45154321 0.13704042 0.46177918 122 125 133
0.62790972 0.18889703 0.63651818 157 165 171
0.62783086 0.18854296 0.63532507 158 166 172
0.62716562 0.18801434 0.63354379 161 169 175
0.62826067 0.18801434 0.63354379 164 172 178
0.63053423 0.18836643 0.63473016 167 175 180
0.63163131 0.18836643 0.63473016 166 174 180
0.63154572 0.18801434 0.63354379 164 171 177
0.45882714 0.13565432 0.45710847 149 153 159
0.45868933 0.13538045 0.45618564 150 155 161
0.45855206 0.13510768 0.45526651 145 150 156
1.26506114 0.33585200 1.13170588 162 171 177
1.26490545 0.33529225 1.12981975 163 171 177
1.25638843 0.33252123 1.12048233 163 171 177
1.25211620 0.33088049 1.11495364 162 170 176
1.26026177 0.33252123 1.12048233 162 170 176
1.25597048 0.33088049 1.11495364 160 169 173
1.25583208 0.33033717 1.11312294 160 170 172
-0.00787462 0.14684109 0.49193892 143 147 159
-0.00702435 0.14684109 0.49193892 147 150 165
-0.00616512 0.14662828 0.49122596 153 154 172
-0.00530071 0.14620450 0.48980623 156 157 174
-0.00445734 0.14631021 0.49016041 162 164 178
-0.00276294 0.14631021 0.49016041 168 170 177
-0.00191435 0.14620450 0.48980623 167 169 176
-0.00106853 0.14631021 0.49016041 164 167 175
0.00510792 0.18615182 0.62363553 129 131 146
0.00618582 0.18615182 0.62363553 129 128 145
0.00723709 0.18546931 0.62134910 127 129 145
0.00828069 0.18479180 0.61907929 138 141 157
0.00934218 0.18462320 0.61851448 142 145 160
0.01039227 0.18428691 0.61738783 154 158 178
0.01333391 0.14631021 0.49016041 167 170 183
0.01423257 0.14684109 0.49193892 166 169 182
0.01502832 0.14631021 0.49016041 165 169 181
0.01588701 0.14641608 0.49051508 167 171 183
0.03731455 0.23231575 0.77829146 131 133 157
0.03861543 0.23204933 0.77739888 134 137 159
0.03991333 0.23178352 0.77650839 135 138 159
0.04120826 0.23151833 0.77561998 134 138 159
0.04250022 0.23125374 0.77473354 134 137 158
0.04373932 0.23072636 0.77296674 134 137 156
0.04497277 0.23020139 0.77120799 133 136 154
0.04630574 0.23020139 0.77120799 134 137 154
0.04747667 0.22941840 0.76858485 140 144 158
0.03267134 0.13849899 0.46399167 146 148 163
0.03340472 0.13821518 0.46304089 140 141 153
0.03413510 0.13793252 0.46209395 137 137 148
0.03491000 0.13783857 0.46177918 132 131 143
0.03575686 0.13802662 0.46240917 129 128 141
0.03650629 0.13783857 0.46177918 129 128 142
0.03735533 0.13802662 0.46240917 131 131 146
0.03815457 0.13802662 0.46240917 137 137 156
0.03898039 0.13812083 0.46272480 151 157 174
0.04041444 0.13755746 0.46083742 147 154 169
1.14359021 0.47277343 1.58385944 115 116 133
1.13834870 0.46948266 1.57283485 114 115 133
0.44606963 0.13812083 0.46272480 141 144 151
0.44870710 0.13868885 0.46462771 143 143 150
0.45105594 0.13916576 0.46622548 143 142 149
0.45186180 0.13916576 0.46622548 141 140 147
0.45173556 0.13887922 0.46526551 138 139 146
0.45160988 0.13859385 0.46430948 138 140 147
0.45210272 0.13849899 0.46399167 139 141 147
0.45166811 0.13812083 0.46272480 135 138 145
0.45154321 0.13783857 0.46177918 129 132 139
0.45264971 0.13793252 0.46209395 128 131 138
0.45531061 0.13849899 0.46399167 134 140 147
0.45548907 0.13830966 0.46335739 145 150 157
0.45628995 0.13830966 0.46335739 153 159 166
0.62724298 0.18946351 0.63473016 158 166 172
0.62658006 0.18893279 0.63295221 160 168 174
0.45896554 0.13672096 0.45803502 164 168 172
0.45882714 0.13644439 0.45710847 159 163 167
0.45899820 0.13626063 0.45649281 153 158 162
0.45947781 0.13616893 0.45618564 146 151 155
0.46088660 0.13635243 0.45680043 141 145 150
1.26295269 0.33724505 1.12981975 161 170 175
1.26280081 0.33668390 1.12793982 162 171 176
1.25018907 0.33280760 1.11495364 162 172 177
-0.00785752 0.14737053 0.49087027 153 156 166
-0.00701417 0.14747733 0.49122596 162 164 175
-0.00615620 0.14726390 0.49051508 170 171 184
-0.00529306 0.14683889 0.48909944 173 175 184
-0.00191297 0.14694491 0.48945260 175 176 181
-0.00106699 0.14694491 0.48945260 172 173 180
0.00187248 0.18705763 0.62306237 155 160 167
0.00294669 0.18688586 0.62249023 148 152 164
0.00401892 0.18671441 0.62191910 133 137 150
0.00510322 0.18705763 0.62306237 126 130 144
0.00617446 0.18688586 0.62249023 130 135 155
0.00723047 0.18637244 0.62078005 126 131 152
0.00828069 0.18586183 0.61907929 135 141 163
0.00934218 0.18569225 0.61851448 144 154 173
0.01038281 0.18518536 0.61682606 151 160 178
0.01141778 0.18468122 0.61514688 160 167 184
0.01430524 0.14844544 0.49445066 167 171 182
0.01512676 0.14812133 0.49337107 165 169 178
0.01593312 0.14769137 0.49193892 164 169 178
0.01677123 0.14758426 0.49158219 162 166 174
0.03735744 0.23392954 0.77918601 135 136 160
0.03865976 0.23366097 0.77829146 140 141 161
0.03991333 0.23312566 0.77650839 141 142 162
0.04125546 0.23312566 0.77650839 137 138 158
0.04254885 0.23285893 0.77561998 136 139 158
0.04378925 0.23232728 0.77384913 135 137 157
0.04502399 0.23179807 0.77208638 133 136 155
0.04635848 0.23179807 0.77208638 135 139 157
0.04753056 0.23100874 0.76945728 137 141 157
0.03110998 0.13949192 0.46462771 142 146 160
0.03184757 0.13920568 0.46367431 141 144 158
0.03264900 0.13920568 0.46367431 141 143 158
0.03338192 0.13892062 0.46272480 133 134 149
0.03413510 0.13873123 0.46209395 131 133 147
0.03491000 0.13863672 0.46177918 128 130 145
0.03573249 0.13873123 0.46209395 129 131 145
0.03650629 0.13863672 0.46177918 131 132 149
0.03732987 0.13873123 0.46209395 132 133 151
0.03812856 0.13873123 0.46209395 136 142 158
0.03892725 0.13873123 0.46209395 147 154 171
0.03972594 0.13873123 0.46209395 144 151 168
0.04041444 0.13835397 0.46083742 147 155 170
0.04109920 0.13797878 0.45958769 145 151 168
1.14352441 0.47662461 1.58756876 103 102 118
1.14092445 0.47440258 1.58016741 108 108 124
1.13309073 0.47002012 1.56557012 113 114 130
1.13842583 0.47110811 1.56919408 118 120 136
0.92198038 0.29452780 0.98103017 160 162 166
0.91835994 0.29283267 0.97538394 152 155 160
0.44648892 0.13930096 0.46399167 136 139 145
0.44759727 0.13939637 0.46430948 129 132 138
0.45118102 0.14026099 0.46718940 127 129 135
0.45198852 0.14026099 0.46718940 131 130 137
0.45279604 0.14026099 0.46718940 135 135 142
0.45266762 0.13997160 0.46622548 143 146 151
0.45285055 0.13977933 0.46558505 148 152 156
0.45272246 0.13949192 0.46462771 149 153 157
0.45228556 0.13911054 0.46335739 141 144 149
0.45215923 0.13882585 0.46240917 136 139 145
0.45357728 0.13901551 0.46304089 133 137 143
0.45562246 0.13939637 0.46430948 128 136 142
0.45580062 0.13920568 0.46367431 136 144 150
0.45628995 0.13911054 0.46335739 145 153 159
0.62716562 0.19020440 0.63354379 152 160 166
0.46018058 0.13835397 0.46083742 164 168 175
0.46003887 0.13807239 0.45989949 166 169 176
0.45896554 0.13751264 0.45803502 165 168 173
0.45913675 0.13732706 0.45741689 158 162 166
0.45930752 0.13714199 0.45680043 149 153 157
0.45978722 0.13704963 0.45649281 142 145 149
0.46088660 0.13714199 0.45680043 136 140 144
1.26085126 0.33863345 1.12793982 160 168 174
1.26070321 0.33807093 1.12606621 161 169 175
1.24201798 0.33254689 1.10766637 163 171 177
0.00079704 0.18848102 0.62420982 175 176 180
0.00187077 0.18796179 0.62249023 171 172 176
0.00294129 0.18761721 0.62134910 159 162 170
0.00401156 0.18744540 0.62078005 146 149 159
0.00509386 0.18778935 0.62191910 132 136 148
0.00616314 0.18761721 0.62134910 132 138 158
0.00722385 0.18727390 0.62021214 125 132 152
0.00827313 0.18676130 0.61851448 139 147 166
0.00932517 0.18642111 0.61738783 147 160 176
0.01036395 0.18591316 0.61570555 161 168 184
0.01138678 0.18524016 0.61347675 170 175 191
0.01241342 0.18473862 0.61181575 174 178 192
0.01431568 0.14940904 0.49481156 167 171 181
0.01514881 0.14919125 0.49409026 166 169 179
0.03870420 0.23527631 0.77918601 142 145 164
0.03991333 0.23446779 0.77650839 145 147 167
0.04125546 0.23446779 0.77650839 142 144 164
0.04254885 0.23419952 0.77561998 142 144 164
0.04378925 0.23366483 0.77384913 138 142 161
0.04507533 0.23339839 0.77296674 138 143 162
0.04635848 0.23313256 0.77208638 142 148 166
0.03041113 0.14077742 0.46622548 147 153 165
0.03106740 0.14010294 0.46399167 144 148 160
0.03180406 0.13981584 0.46304089 141 145 157
0.03262668 0.13991140 0.46335739 138 142 154
0.03335915 0.13962509 0.46240917 136 138 151
0.03411185 0.13943487 0.46177918 133 135 148
0.03491000 0.13943487 0.46177918 132 134 148
0.03573249 0.13952991 0.46209395 133 135 150
0.03650629 0.13943487 0.46177918 133 135 150
0.03732987 0.13952991 0.46209395 133 135 150
0.03810259 0.13943487 0.46177918 135 141 158
0.03892725 0.13952991 0.46209395 144 150 168
0.03972594 0.13952991 0.46209395 145 152 169
0.04044193 0.13924517 0.46115091 147 155 170
0.04112709 0.13886729 0.45989949 147 154 172
1.14085257 0.47824857 1.58385944 115 118 126
1.13827121 0.47602415 1.57649267 117 120 128
1.13047993 0.47163683 1.56196272 125 128 138
1.13057458 0.47055262 1.55837202 128 131 142
1.13066888 0.46947336 1.55479777 126 131 142
0.92863691 0.30057326 0.99543589 139 145 148
0.92899328 0.30013254 0.99397629 145 150 154
0.93207794 0.30057326 0.99543589 153 157 160
0.92970288 0.29925495 0.99106997 160 164 167
0.92331660 0.29665273 0.98245192 163 167 170
0.92234123 0.29579535 0.97961247 158 163 166
0.92004579 0.29451853 0.97538394 149 155 157
0.44833010 0.14068067 0.46590504 147 150 151
0.45068413 0.14116578 0.46751162 144 148 149
0.45211580 0.14136076 0.46815735 142 145 146
0.45261240 0.14126320 0.46783426 141 141 143
0.45310831 0.14116578 0.46751162 139 139 142
0.45329112 0.14097133 0.46686766 149 150 153
0.45316178 0.14068067 0.46590504 161 165 167
0.45334393 0.14048757 0.46526551 161 165 167
0.45259491 0.14000711 0.46367431 151 155 158
0.45246789 0.13972040 0.46272480 141 145 149
0.45388731 0.13991140 0.46335739 135 139 143
0.45562246 0.14019890 0.46430948 123 129 137
0.45580062 0.14000711 0.46367431 123 130 139
0.45628995 0.13991140 0.46335739 134 142 150
0.62783086 0.19183728 0.63532507 137 147 155
0.62775230 0.19147837 0.63413644 139 149 156
0.46018058 0.13915050 0.46083742 149 152 160
0.45972699 0.13877314 0.45958769 146 149 156
0.45927584 0.13839783 0.45834473 142 145 151
0.45913675 0.13811767 0.45741689 138 141 147
0.45961723 0.13802454 0.45710847 133 136 143
0.46009704 0.13793153 0.45680043 130 133 140
0.46119738 0.13802454 0.45710847 133 136 143
0.46198744 0.13802454 0.45710847 133 137 144
1.25875688 0.34001726 1.12606621 156 165 171
1.25652862 0.33889136 1.12233746 159 167 173
-0.00028212 0.18973462 0.62478513 174 175 180
0.00079704 0.18955991 0.62420982 173 174 179
0.00187077 0.18903771 0.62249023 171 171 177
0.00294129 0.18869117 0.62134910 164 167 174
0.00401156 0.18851838 0.62078005 151 155 164
0.00509854 0.18903771 0.62249023 139 144 153
0.00616880 0.18886428 0.62191910 133 140 153
0.00723047 0.18851838 0.62078005 131 137 153
0.00827313 0.18783036 0.61851448 147 153 170
0.00933367 0.18765913 0.61795062 161 167 182
0.01038281 0.18731762 0.61682606 170 175 185
0.01432614 0.15037404 0.49517301 167 170 181
0.03748671 0.23744182 0.78188217 144 150 170
0.03870420 0.23662306 0.77918601 145 151 169
0.03995910 0.23608035 0.77739888 146 151 167
0.04130277 0.23608035 0.77739888 150 154 169
0.04259759 0.23580992 0.77650839 152 155 169
0.04383929 0.23527093 0.77473354 151 156 168
0.04507533 0.23473440 0.77296674 153 158 168
0.04641134 0.23473440 0.77296674 151 159 168
0.03039023 0.14148596 0.46590504 149 157 165
0.03104615 0.14080852 0.46367431 146 153 161
0.03178236 0.14052019 0.46272480 142 149 158
0.03260439 0.14061616 0.46304089 139 143 155
0.03335915 0.14042433 0.46240917 137 141 153
0.03411185 0.14023301 0.46177918 135 140 152
0.03491000 0.14023301 0.46177918 136 141 154
0.03573249 0.14032860 0.46209395 134 138 152
0.03650629 0.14023301 0.46177918 133 137 151
0.03732987 0.14032860 0.46209395 133 137 151
0.03812856 0.14032860 0.46209395 133 138 153
0.03895381 0.14042433 0.46240917 141 145 163
0.03972594 0.14032860 0.46209395 147 151 170
0.04044193 0.14004222 0.46115091 147 154 171
0.04118297 0.13985194 0.46052435 149 155 173
0.04192198 0.13966219 0.45989949 148 155 172
1.13563013 0.47763821 1.57283485 143 148 154
1.12788117 0.47324613 1.55837202 136 141 148
1.12540042 0.47108024 1.55123997 134 139 146
1.12550604 0.47000471 1.54769826 133 138 145
0.92555726 0.30185053 0.99397629 142 150 154
0.92863691 0.30229378 0.99543589 145 152 157
0.92899328 0.30185053 0.99397629 149 156 160
0.93207794 0.30229378 0.99543589 155 162 166
0.92970288 0.30096793 0.99106997 164 169 172
0.92734855 0.29965365 0.98674214 164 168 171
0.92635727 0.29878384 0.98387784 160 164 167
0.92671281 0.29835081 0.98245192 155 159 162
0.92706728 0.29791906 0.98103017 149 154 156
0.92474812 0.29663122 0.97678941 146 151 154
0.92377424 0.29577884 0.97398251 147 151 155
0.44802219 0.14138879 0.46558505 154 155 158
0.45037353 0.14187600 0.46718940 155 156 158
0.45211580 0.14216994 0.46815735 156 157 159
0.45261240 0.14207181 0.46783426 154 154 156
0.45310831 0.14197384 0.46751162 151 151 153
0.45297915 0.14168070 0.46654636 152 153 155
0.45253974 0.14129174 0.46526551 159 161 163
0.45303297 0.14119484 0.46494639 161 163 164
0.45259491 0.14080852 0.46367431 154 156 159
0.45246789 0.14052019 0.46272480 141 144 147
0.45388731 0.14071228 0.46335739 137 139 143
0.45562246 0.14100142 0.46430948 124 130 137
0.45580062 0.14080852 0.46367431 115 124 134
0.45628995 0.14071228 0.46335739 122 130 141
0.45677859 0.14061616 0.46304089 121 131 141
0.45903924 0.14032860 0.46209395 137 145 151
0.46049362 0.14004222 0.46115091 145 148 154
0.46035120 0.13975701 0.46021169 143 146 153
0.45927584 0.13919003 0.45834473 134 137 143
0.45944676 0.13900207 0.45772576 130 133 139
0.46023792 0.13900207 0.45772576 127 130 137
0.46071798 0.13890828 0.45741689 125 129 137
0.46182019 0.13900207 0.45772576 128 132 140
0.46229917 0.13890828 0.45741689 129 132 142
1.25666940 0.34139645 1.12419879 153 164 169
1.25031841 0.33914673 1.11679053 157 167 172
-0.00028160 0.19046342 0.62363553 168 170 178
0.00079557 0.19028836 0.62306237 171 173 181
0.00186563 0.18959135 0.62078005 169 169 178
0.00293591 0.18941788 0.62021214 158 161 169
0.00400423 0.18924475 0.61964518 156 159 168
0.00508453 0.18959135 0.62078005 143 148 157
0.00615750 0.18959135 0.62078005 132 138 152
0.00722385 0.18941788 0.62021214 135 139 155
0.00827313 0.18889940 0.61851448 151 154 172
0.00934218 0.18889940 0.61851448 166 170 181
0.01039227 0.18855533 0.61738783 169 173 184
0.01433661 0.15134045 0.49553499 164 166 178
0.03638710 0.24045731 0.78733081 141 146 170
0.03752999 0.23906900 0.78278506 146 152 172
0.03874874 0.23824367 0.78008264 150 157 171
0.04000498 0.23769660 0.77829146 150 157 169
0.04130277 0.23742402 0.77739888 153 160 171
0.04259759 0.23715205 0.77650839 153 160 171
0.04383929 0.23661000 0.77473354 156 162 172
0.04512678 0.23633990 0.77384913 160 165 174
0.04646432 0.23633990 0.77384913 161 166 173
0.03045302 0.14258523 0.46686766 155 159 168
0.03108868 0.14180394 0.46430948 150 153 162
0.03178236 0.14131996 0.46272480 147 150 159
0.03262668 0.14151315 0.46335739 145 149 158
0.03338192 0.14131996 0.46272480 141 146 159
0.03413510 0.14112730 0.46209395 139 145 157
0.03493379 0.14112730 0.46209395 140 147 158
0.03575686 0.14122356 0.46240917 135 139 151
0.03650629 0.14103116 0.46177918 133 136 150
0.03732987 0.14112730 0.46209395 133 136 150
0.03812856 0.14112730 0.46209395 130 131 149
0.03895381 0.14122356 0.46240917 137 138 157
0.03972594 0.14112730 0.46209395 140 142 161
0.04044193 0.14083928 0.46115091 147 153 171
0.04118297 0.14064793 0.46052435 149 155 171
0.04197894 0.14064793 0.46052435 150 156 171
0.22551014 0.16483578 0.53972280 167 171 173
0.22626287 0.16470465 0.53929341 163 164 167
1.12788117 0.47593966 1.55837202 149 152 156
1.12540042 0.47376144 1.55123997 140 143 149
1.12550604 0.47267979 1.54769826 135 139 145
0.92619544 0.30490980 0.99836797 130 134 144
0.92113799 0.30268091 0.99106997 139 143 149
0.92555726 0.30356854 0.99397629 147 151 158
0.92727530 0.30356854 0.99397629 150 154 159
0.92899328 0.30356854 0.99397629 152 155 161
0.93207794 0.30401433 0.99543589 155 159 164
0.92970288 0.30268091 0.99106997 162 167 171
0.92870039 0.30179846 0.98818052 165 171 173
0.92905408 0.30135918 0.98674214 163 169 171
0.93211639 0.30179846 0.98818052 157 161 164
0.93246508 0.30135918 0.98674214 153 157 160
0.92742079 0.29918173 0.97961247 151 155 158
0.92510343 0.29789028 0.97538394 151 155 158
0.44894722 0.14248709 0.46654636 153 154 156
0.45068413 0.14278190 0.46751162 158 159 161
0.45180377 0.14288044 0.46783426 161 162 164
0.45261240 0.14288044 0.46783426 161 161 163
0.45310831 0.14278190 0.46751162 159 159 161
0.45297915 0.14248709 0.46654636 157 157 159
0.45253974 0.14209591 0.46526551 159 160 163
0.45303297 0.14199845 0.46494639 154 155 159
0.45259491 0.14160995 0.46367431 145 146 150
0.45246789 0.14131996 0.46272480 131 132 136
0.45357728 0.14141649 0.46304089 133 134 138
0.45499918 0.14160995 0.46367431 133 137 142
0.45548907 0.14151315 0.46335739 126 137 145
0.45628995 0.14151315 0.46335739 129 140 148
0.45646679 0.14131996 0.46272480 129 140 149
0.45855314 0.14122356 0.46240917 132 141 152
0.45872656 0.14103116 0.46177918 137 144 155
0.45952469 0.14103116 0.46177918 137 144 154
0.46000949 0.14093515 0.46146482 138 144 150
0.46018058 0.14074354 0.46083742 141 145 151
0.45972699 0.14036186 0.45958769 145 150 155
0.45927584 0.13998225 0.45834473 145 149 154
0.45944676 0.13979322 0.45772576 143 147 152
0.46023792 0.13979322 0.45772576 141 145 151
0.46071798 0.13969888 0.45741689 138 142 149
0.46182019 0.13979322 0.45772576 135 139 147
0.46229917 0.13969888 0.45741689 133 137 147
0.46277753 0.13960469 0.45710847 131 135 147
1.25458872 0.34277111 1.12233746 156 167 172
1.25031841 0.34107700 1.11679053 158 167 173
-0.00028082 0.19101416 0.62191910 170 170 179
0.00079266 0.19066431 0.62078005 169 169 178
0.00186222 0.19031575 0.61964518 165 165 174
0.00293054 0.19014195 0.61907929 158 160 169
0.00399692 0.18996845 0.61851448 154 156 166
0.00507060 0.19014195 0.61907929 142 146 157
0.00614624 0.19031575 0.61964518 133 135 154
0.00721725 0.19031575 0.61964518 133 135 156
0.00826559 0.18979529 0.61795062 138 138 161
0.00933367 0.18979529 0.61795062 157 158 176
0.01038281 0.18944989 0.61682606 162 165 180
0.01142815 0.18910575 0.61570555 165 169 183
0.01243587 0.18825084 0.61292207 168 172 185
0.03626075 0.24097851 0.78459704 141 146 171
0.03740043 0.23959197 0.78008264 141 146 171
0.03865976 0.23904182 0.77829146 148 154 170
0.03995910 0.23876770 0.77739888 153 159 174
0.04130277 0.23876770 0.77739888 154 161 175
0.04254885 0.23822132 0.77561998 157 162 174
0.04383929 0.23794906 0.77473354 161 166 178
0.04507533 0.23740642 0.77296674 165 169 181
0.03047401 0.14349099 0.46718940 165 166 175
0.03110998 0.14270420 0.46462771 159 160 168
0.03180406 0.14221682 0.46304089 156 156 165
0.03264900 0.14241138 0.46367431 152 153 163
0.03340472 0.14221682 0.46304089 144 148 160
0.03415839 0.14202280 0.46240917 142 147 159
0.03493379 0.14192599 0.46209395 142 147 159
0.03575686 0.14202280 0.46240917 135 139 151
0.03650629 0.14182931 0.46177918 126 130 143
0.03730444 0.14182931 0.46177918 129 131 146
0.03810259 0.14182931 0.46177918 129 130 148
0.03892725 0.14192599 0.46209395 135 136 154
0.03969888 0.14182931 0.46177918 140 141 159
0.04041444 0.14154007 0.46083742 151 152 167
0.04112709 0.14125198 0.45989949 152 154 168
0.04192198 0.14125198 0.45989949 155 157 171
0.22475623 0.16590074 0.54015285 172 176 178
0.22568983 0.16590074 0.54015285 165 169 171
1.12788117 0.47863317 1.55837202 155 156 160
1.12540042 0.47644264 1.55123997 152 153 157
1.12550604 0.47535485 1.54769826 145 146 150
0.92720091 0.30754125 1.00131738 126 128 143
0.92619544 0.30663538 0.99836797 127 128 143
0.92248666 0.30483958 0.99252099 137 136 149
0.92555726 0.30528656 0.99397629 145 145 157
0.92727530 0.30528656 0.99397629 149 149 160
0.92763311 0.30483958 0.99252099 150 150 158
0.93071127 0.30528656 0.99397629 155 155 164
0.92834568 0.30394953 0.98962313 158 160 166
0.92734855 0.30306467 0.98674214 157 160 166
0.92905408 0.30306467 0.98674214 152 155 161
0.93347710 0.30394953 0.98962313 147 150 154
0.93246508 0.30306467 0.98674214 146 150 153
0.92742079 0.30087489 0.97961247 149 153 156
0.92510343 0.29957616 0.97538394 146 150 153
0.92946398 0.30044073 0.97819889 145 149 152
0.92847514 0.29957616 0.97538394 144 147 150
0.92882460 0.29914573 0.97398251 142 143 147
0.44925642 0.14339218 0.46686766 143 145 147
0.45068413 0.14358994 0.46751162 150 152 153
0.45180377 0.14368905 0.46783426 157 158 160
0.45261240 0.14368905 0.46783426 159 160 162
0.45310831 0.14358994 0.46751162 161 162 164
0.45266762 0.14319493 0.46622548 165 166 168
0.45191941 0.14270420 0.46462771 164 165 169
0.45241240 0.14260645 0.46430948 156 157 161
0.45228556 0.14231403 0.46335739 140 141 145
0.45215923 0.14202280 0.46240917 129 129 135
0.45326766 0.14211975 0.46272480 133 133 140
0.45468819 0.14231403 0.46335739 143 145 151
0.45517793 0.14221682 0.46304089 150 157 163
0.45566702 0.14211975 0.46272480 150 159 164
0.45615542 0.14202280 0.46240917 147 157 162
0.45664316 0.14192599 0.46209395 141 153 158
0.45744187 0.14192599 0.46209395 138 150 155
0.45824057 0.14192599 0.46209395 140 150 156
0.45841429 0.14173277 0.46146482 144 152 159
0.45889950 0.14163634 0.46115091 144 152 158
0.45969656 0.14163634 0.46115091 144 150 156
0.45955575 0.14134789 0.46021169 146 151 156
0.45941553 0.14106059 0.45927632 150 155 160
0.45896554 0.14067934 0.45803502 151 156 161
0.45913675 0.14048949 0.45741689 153 158 163
0.45992735 0.14048949 0.45741689 156 161 166
0.46071798 0.14048949 0.45741689 154 158 164
0.46182019 0.14058435 0.45772576 149 152 158
0.46229917 0.14048949 0.45741689 140 143 150
0.46277753 0.14039476 0.45710847 133 136 147
1.25458872 0.34471098 1.12233746 155 166 171
1.24826205 0.34244314 1.11495364 155 166 172
-0.00028031 0.19173728 0.62078005 169 171 180
0.00079121 0.19138676 0.61964518 166 167 176
0.00185882 0.19103751 0.61851448 164 164 173
0.00292787 0.19103751 0.61851448 159 159 169
0.00399328 0.19086337 0.61795062 151 151 163
0.00506597 0.19103751 0.61851448 135 137 150
0.00613503 0.19103751 0.61851448 125 125 150
0.00720408 0.19103751 0.61851448 128 128 153
0.00825806 0.19068953 0.61738783 130 130 155
0.00933367 0.19086337 0.61795062 148 151 170
0.01038281 0.19051602 0.61682606 151 157 172
0.01140743 0.18982512 0.61458915 155 162 175
0.01241342 0.18896851 0.61181575 155 162 173
0.03731455 0.24038704 0.77829146 154 160 176
0.03861543 0.24011137 0.77739888 155 161 176
0.03991333 0.23983632 0.77650839 158 164 180
0.04125546 0.23983632 0.77650839 157 163 179
0.04250022 0.23928812 0.77473354 161 168 181
0.04373932 0.23874243 0.77296674 166 172 185
0.04497277 0.23819922 0.77120799 170 174 186
0.02897884 0.14489765 0.46912929 175 178 187
0.02970746 0.14449766 0.46783426 172 175 183
0.03045302 0.14419912 0.46686766 169 169 178
0.03108868 0.14340898 0.46430948 165 165 174
0.03178236 0.14291953 0.46272480 161 161 170
0.03262668 0.14311491 0.46335739 152 157 166
0.03338192 0.14291953 0.46272480 152 156 167
0.03415839 0.14282204 0.46240917 150 154 166
0.03491000 0.14262746 0.46177918 143 147 159
0.03573249 0.14272468 0.46209395 138 140 154
0.03650629 0.14262746 0.46177918 136 138 152
0.03727904 0.14253037 0.46146482 131 133 148
0.03807665 0.14253037 0.46146482 131 132 150
0.03890074 0.14262746 0.46177918 137 138 155
0.03964487 0.14243340 0.46115091 141 143 159
0.04033219 0.14204688 0.45989949 150 149 163
0.04109920 0.14195058 0.45958769 158 157 170
0.22235747 0.16643649 0.53886473 171 171 178
0.22551014 0.16670153 0.53972280 169 172 176
0.22626287 0.16656891 0.53929341 159 162 166
0.92583334 0.30881581 0.99984050 147 150 160
0.92483336 0.30790752 0.99689978 133 135 146
0.92420214 0.30655506 0.99252099 135 135 151
0.92456394 0.30610690 0.99106997 140 140 155
0.92627692 0.30610690 0.99106997 140 140 153
0.92798990 0.30610690 0.99106997 147 147 159
0.92834568 0.30566001 0.98962313 150 151 161
0.92734855 0.30477017 0.98674214 147 150 157
0.92635727 0.30388549 0.98387784 138 141 148
0.93211639 0.30521443 0.98818052 136 138 143
0.93246508 0.30477017 0.98674214 138 139 143
0.92742079 0.30256808 0.97961247 143 144 148
0.92643642 0.30169612 0.97678941 140 143 147
0.92946398 0.30213147 0.97819889 138 142 145
0.92981303 0.30169612 0.97678941 138 142 145
0.93016100 0.30126202 0.97538394 139 140 144
0.45006335 0.14419912 0.46686766 142 146 147
0.45149219 0.14439800 0.46751162 148 152 153
0.45198852 0.14429849 0.46718940 152 156 157
0.45217279 0.14409988 0.46654636 153 157 158
0.45142573 0.14360569 0.46494639 157 161 162
0.45099208 0.14321280 0.46367431 157 159 163
0.45179349 0.14321280 0.46367431 153 153 160
0.45197663 0.14301716 0.46304089 139 140 147
0.45215923 0.14282204 0.46240917 134 135 143
0.45295846 0.14282204 0.46240917 138 139 147
0.45437759 0.14301716 0.46304089 154 156 164
0.45486721 0.14291953 0.46272480 160 164 171
0.45566702 0.14291953 0.46272480 163 168 175
0.45615542 0.14282204 0.46240917 163 168 175
0.45664316 0.14272468 0.46209395 159 168 173
0.45744187 0.14272468 0.46209395 156 166 171
0.45824057 0.14272468 0.46209395 151 160 166
0.45841429 0.14253037 0.46146482 142 151 157
0.45921189 0.14253037 0.46146482 151 159 165
0.45969656 0.14243340 0.46115091 155 163 169
0.45955575 0.14214332 0.46021169 155 162 166
0.45941553 0.14185441 0.45927632 157 164 169
0.45896554 0.14147101 0.45803502 158 165 169
0.45913675 0.14128010 0.45741689 159 165 170
0.46023792 0.14137550 0.45772576 162 168 173
0.46102905 0.14137550 0.45772576 167 172 177
0.46213225 0.14147101 0.45803502 168 171 177
0.46292391 0.14147101 0.45803502 159 163 169
0.46308979 0.14128010 0.45741689 152 155 162
1.25044823 0.34550679 1.11863339 153 160 167
1.24416935 0.34324116 1.11129808 153 160 169
-0.00027980 0.19245777 0.61964518 172 174 182
0.00079049 0.19228201 0.61907929 170 171 178
0.00185712 0.19193144 0.61795062 166 166 173
0.00292254 0.19175664 0.61738783 159 159 168
0.00398601 0.19158216 0.61682606 154 154 164
0.00505675 0.19175664 0.61738783 141 141 152
0.00612385 0.19175664 0.61738783 128 131 152
0.00719751 0.19193144 0.61795062 123 126 148
0.00823556 0.19123414 0.61570555 127 130 153
0.00931668 0.19158216 0.61682606 134 140 158
0.01037338 0.19140799 0.61626530 141 148 165
0.01138678 0.19054189 0.61347675 145 152 169
0.01239106 0.18968360 0.61071336 145 152 166
0.03727176 0.24145503 0.77739888 166 170 184
0.03857120 0.24117845 0.77650839 168 174 187
0.03986766 0.24090251 0.77561998 169 176 188
0.04120826 0.24090251 0.77561998 166 173 186
0.04240330 0.24007843 0.77296674 168 174 190
0.04368950 0.23980500 0.77208638 169 174 189
0.02822659 0.14601165 0.47010529 175 177 190
0.02895880 0.14560774 0.46880487 175 177 189
0.02966651 0.14510599 0.46718940 176 179 189
0.03036936 0.14460769 0.46558505 175 178 186
0.03102493 0.14391579 0.46335739 170 174 181
0.03176067 0.14362128 0.46240917 163 168 175
0.03260439 0.14381748 0.46304089 157 162 170
0.03333641 0.14352338 0.46209395 152 156 165
0.03411185 0.14342561 0.46177918 151 155 164
0.03488623 0.14332797 0.46146482 144 147 158
0.03570814 0.14342561 0.46177918 142 144 155
0.03645662 0.14323047 0.46115091 141 143 155
0.03722836 0.14313310 0.46083742 135 137 152
0.03805075 0.14323047 0.46115091 136 137 153
0.03882140 0.14313310 0.46083742 140 141 157
0.03959101 0.14303586 0.46052435 153 155 169
