ply
format ascii 1.0
element vertex 1054
property float x
property float y
property float z
property uchar red
property uchar green
property uchar blue
end_header
-0.15553811 0.17076406 0.65560138 123 124 128
-0.15470420 0.17109500 0.65687191 122 123 126
-0.15356885 0.17109500 0.65687191 122 123 126
-0.15258135 0.17126095 0.65750909 125 126 129
-0.15144490 0.17126095 0.65750909 132 132 136
-0.14877501 0.17344798 0.66590554 144 148 147
-0.14719029 0.17293833 0.66394889 139 145 144
-0.14561485 0.17243168 0.66200376 140 141 143
-0.14475335 0.17276911 0.66329926 144 145 147
-0.14402968 0.17327777 0.66525203 145 146 148
-0.14259996 0.17293833 0.66394889 149 149 150
-0.14131397 0.17276911 0.66329926 163 163 164
-0.14030479 0.17293833 0.66394889 174 174 175
-0.13915721 0.17293833 0.66394889 188 187 186
-0.01261914 0.12460835 0.47839934 205 200 193
-0.01178395 0.12452048 0.47806194 205 200 193
-0.01096539 0.12460835 0.47839934 198 194 186
-0.00932480 0.12478448 0.47907552 176 175 173
-0.00849676 0.12478448 0.47907552 151 150 150
-0.00766330 0.12469635 0.47873718 145 144 146
-0.00683584 0.12469635 0.47873718 148 148 150
-0.00600414 0.12460835 0.47839934 152 150 152
-0.00518092 0.12469635 0.47873718 158 157 158
0.04127548 0.45274368 1.73818421 184 176 172
0.04416654 0.45158577 1.73373878 185 175 172
0.04692315 0.44928762 1.72491562 177 168 164
0.04854574 0.43705454 1.67795014 175 166 163
0.05069308 0.43065864 1.65339470 171 162 160
0.05290565 0.42546996 1.63347435 155 148 149
0.05493474 0.41940627 1.61019444 161 154 154
0.05758106 0.41841242 1.60637879 154 148 147
0.06021486 0.41742325 1.60258114 156 150 150
0.09933173 0.20579259 0.79008371 171 165 165
0.09976710 0.20389150 0.78278506 164 156 157
0.10591283 0.20531400 0.78824633 128 126 133
0.10665516 0.20412721 0.78368998 127 125 133
0.10738896 0.20295407 0.77918601 120 118 127
0.28389671 0.45158577 1.73373878 141 140 140
0.29811740 0.45043376 1.72931588 168 166 163
0.29731411 0.44476080 1.70753610 172 171 167
0.29288790 0.43383300 1.66558194 177 177 172
0.29360259 0.43065864 1.65339470 178 177 172
0.29288852 0.42546996 1.63347435 177 177 171
0.30908373 0.42444721 1.62954772 167 162 158
0.17050153 0.17159382 0.65878701 150 144 144
0.17130724 0.17126095 0.65750909 142 138 139
0.17194337 0.17076406 0.65560138 138 134 135
0.17324406 0.17092937 0.65623605 123 119 120
0.17437832 0.17092937 0.65623605 131 126 128
0.17534283 0.17076406 0.65560138 143 137 139
0.17647597 0.17076406 0.65560138 151 148 142
0.17743753 0.17059907 0.65496796 165 165 158
0.17839722 0.17043440 0.65433574 166 168 161
0.17952819 0.17043440 0.65433574 173 174 172
0.18065916 0.17043440 0.65433574 176 176 174
0.18196577 0.17059907 0.65496796 178 177 175
0.18345232 0.17092937 0.65623605 177 176 174
0.18458657 0.17092937 0.65623605 178 178 174
0.18572082 0.17092937 0.65623605 183 183 174
0.18685508 0.17092937 0.65623605 184 184 175
0.98550111 0.42342934 1.62563992 132 132 129
0.96970743 0.41545892 1.59503961 122 121 120
0.96339703 0.41158518 1.58016741 124 123 123
0.97293192 0.41448367 1.59129536 118 118 118
0.96660626 0.41062799 1.57649267 134 134 134
0.98581147 0.41643876 1.59880149 150 150 148
0.97933584 0.41254681 1.58385944 152 152 148
0.97298014 0.40872693 1.56919408 153 153 147
0.97119606 0.40684339 1.56196272 156 155 146
0.97389579 0.40684339 1.56196272 157 157 148
0.98111677 0.40872693 1.56919408 159 158 148
0.98840499 0.41062799 1.57649267 163 162 153
0.99576128 0.41254681 1.58385944 166 166 157
1.14534318 0.42856807 1.64536858 172 172 164
1.14818704 0.42856807 1.64536858 174 174 166
1.14547038 0.42649767 1.63741994 174 174 167
1.15668225 0.42961079 1.64937186 176 176 168
1.15391791 0.42753035 1.64138460 178 176 168
1.15675497 0.42753035 1.64138460 176 173 165
1.15679097 0.42649767 1.63741994 180 177 169
1.14578319 0.42140821 1.61788034 184 181 173
1.14584482 0.42040485 1.61402822 185 182 174
1.15137589 0.42140821 1.61788034 181 178 170
1.14868927 0.41940627 1.61019444 173 171 162
1.14602804 0.41742325 1.60258114 162 163 154
1.14608860 0.41643876 1.59880149 153 154 146
0.42589897 0.14763381 0.56679922 159 160 155
0.42581058 0.14726442 0.56538099 169 171 162
0.42536870 0.14677475 0.56350112 167 169 160
0.42874220 0.14726442 0.56538099 162 164 153
0.40017441 0.12702881 0.48769197 147 147 145
0.40072906 0.12693748 0.48734137 146 147 142
0.40099484 0.12675524 0.48664168 149 150 142
0.40154767 0.12666430 0.48629257 154 155 148
0.40181172 0.12648283 0.48559588 161 162 154
0.40293968 0.12657350 0.48594397 167 168 159
0.40494069 0.12693748 0.48734137 171 172 163
0.40578303 0.12693748 0.48734137 172 173 164
0.40721086 0.12712026 0.48804307 173 174 165
-0.21476686 0.16187771 0.61738783 129 130 129
-0.21292406 0.16129012 0.61514688 130 131 129
-0.21128565 0.16085224 0.61347675 130 131 130
-0.21003523 0.16070680 0.61292207 134 135 134
-0.20878707 0.16056162 0.61236840 135 136 136
-0.20829311 0.16099793 0.61403245 135 135 135
-0.20723180 0.16099793 0.61403245 135 135 135
-0.20673227 0.16143662 0.61570555 135 135 135
-0.20510919 0.16099793 0.61403245 136 136 136
-0.20331126 0.16041671 0.61181575 142 141 140
-0.19728988 0.15813321 0.60310662 159 150 151
-0.15719631 0.17123480 0.65307498 131 134 135
-0.15621802 0.17139992 0.65370476 133 136 139
-0.15538783 0.17173113 0.65496796 133 136 139
-0.15440497 0.17189722 0.65560138 133 134 136
-0.15342018 0.17206362 0.65623605 131 132 135
-0.15228593 0.17206362 0.65623605 133 134 137
-0.15115169 0.17206362 0.65623605 135 136 137
-0.15001743 0.17206362 0.65623605 136 137 138
-0.14862901 0.17442760 0.66525203 139 142 142
-0.14719029 0.17408592 0.66394889 136 140 141
-0.14561485 0.17357589 0.66200376 144 144 146
-0.14475335 0.17391558 0.66329926 149 149 150
-0.14388847 0.17425659 0.66459984 156 156 157
-0.14246044 0.17391558 0.66329926 168 167 165
-0.14117584 0.17374557 0.66265088 177 176 175
-0.14030479 0.17408592 0.66394889 187 187 185
-0.13902105 0.17391558 0.66329926 199 198 196
-0.01261024 0.12534676 0.47806194 203 200 192
-0.01177564 0.12525843 0.47772506 201 200 192
-0.01094993 0.12525843 0.47772506 188 188 181
-0.01012422 0.12525843 0.47772506 183 182 180
-0.00930507 0.12534676 0.47806194 174 173 173
-0.00848476 0.12543523 0.47839934 164 163 164
-0.00764710 0.12525843 0.47772506 165 164 166
-0.00682620 0.12534676 0.47806194 163 163 164
-0.00599568 0.12525843 0.47772506 163 164 163
-0.00517361 0.12534676 0.47806194 166 167 166
-0.00435346 0.12552381 0.47873718 175 176 174
-0.00021740 0.12623702 0.48145726 182 179 177
0.03846844 0.45809722 1.74714386 182 174 172
0.04127548 0.45574799 1.73818421 182 174 171
0.04416654 0.45458239 1.73373878 179 171 169
0.04704285 0.45342276 1.72931588 168 162 159
0.04903120 0.44435430 1.69472957 160 155 153
0.05094157 0.43564147 1.66149962 151 147 148
0.05316185 0.43036735 1.64138460 151 144 147
0.05519696 0.42420459 1.61788034 150 143 145
0.05771783 0.42218935 1.61019444 154 148 149
0.10603613 0.20691702 0.78916395 125 124 133
0.10690233 0.20595796 0.78550619 119 118 127
0.10751253 0.20453593 0.78008264 116 115 124
0.10886084 0.20453593 0.78008264 118 117 126
0.29811740 0.45342276 1.72931588 165 162 160
0.29656708 0.44658723 1.70324588 166 163 160
0.29288790 0.43671185 1.66558194 170 169 162
0.29360259 0.43351638 1.65339470 176 174 168
0.29359600 0.42932782 1.63741994 177 175 168
0.31132889 0.43036735 1.64138460 160 154 153
0.20876174 0.23857948 0.90992194 137 136 136
0.21005252 0.23825967 0.90870219 138 137 137
0.21077551 0.23730537 0.90506256 152 151 151
0.17437832 0.17206362 0.65623605 125 120 122
0.17551257 0.17206362 0.65623605 147 143 145
0.17664681 0.17206362 0.65623605 157 159 152
0.17760913 0.17189722 0.65560138 173 175 168
0.17856959 0.17173113 0.65496796 174 176 169
0.17952819 0.17156537 0.65433574 174 175 172
0.18083371 0.17173113 0.65496796 180 181 178
0.18214175 0.17189722 0.65560138 185 184 182
0.18345232 0.17206362 0.65623605 187 186 181
0.18476543 0.17223035 0.65687191 186 185 180
0.18590079 0.17223035 0.65687191 188 184 177
0.18685508 0.17206362 0.65623605 188 184 176
0.99988800 0.43246159 1.64937186 128 127 124
0.97660106 0.42118892 1.60637879 123 122 122
0.97018152 0.41723409 1.59129536 119 119 120
0.98581147 0.41920218 1.59880149 133 133 134
0.97705299 0.41431636 1.58016741 135 135 135
0.96849632 0.40954313 1.56196272 140 140 140
0.96674103 0.40766451 1.55479777 147 146 145
0.96720999 0.40673164 1.55123997 147 146 144
0.96989119 0.40673164 1.55123997 144 144 134
0.97929525 0.40954313 1.56196272 161 161 151
0.97973752 0.40860164 1.55837202 165 165 156
1.14527905 0.43246159 1.64937186 169 169 160
1.15093017 0.43351638 1.65339470 172 172 163
1.15378797 0.43351638 1.65339470 174 174 165
1.15103090 0.43141195 1.64536858 174 174 166
1.15950346 0.43351638 1.65339470 176 176 168
1.15391791 0.43036735 1.64138460 179 179 170
1.15675497 0.43036735 1.64138460 175 175 166
1.15679097 0.42932782 1.63741994 177 175 166
1.14852428 0.42521942 1.62175083 181 178 170
1.14857960 0.42420459 1.61788034 183 180 172
1.15413046 0.42521942 1.62175083 180 175 168
1.14868927 0.42218935 1.61019444 174 170 162
1.14874375 0.42118892 1.60637879 163 164 155
1.14879799 0.42019320 1.60258114 159 160 151
0.42510146 0.14799477 0.56443948 164 165 158
0.42466268 0.14750350 0.56256586 159 160 153
0.42669734 0.14787164 0.56396991 165 167 157
0.42802823 0.14799477 0.56443948 164 165 154
0.39986664 0.12750483 0.48629257 146 147 141
0.40041992 0.12741342 0.48594397 143 145 136
0.40097240 0.12732215 0.48559588 144 146 137
0.40152410 0.12723100 0.48524827 154 156 145
0.40236279 0.12723100 0.48524827 165 168 154
0.40377957 0.12741342 0.48594397 172 175 161
0.40461949 0.12741342 0.48594397 171 173 161
0.40545940 0.12741342 0.48594397 171 172 162
0.40571764 0.12723100 0.48524827 171 173 163
0.40626556 0.12714000 0.48490116 172 173 164
-0.20946705 0.16132858 0.61126405 129 130 130
-0.20841053 0.16132858 0.61126405 131 132 132
-0.20772864 0.16162005 0.61236840 136 136 136
-0.20704427 0.16191258 0.61347675 137 137 136
-0.20617050 0.16205923 0.61403245 140 140 139
-0.20473830 0.16176619 0.61292207 142 142 141
-0.20294493 0.16118324 0.61071336 154 150 149
-0.20080394 0.16031666 0.60742998 159 154 153
-0.20011267 0.16060449 0.60852051 159 153 151
-0.19693945 0.15889290 0.60203540 155 149 147
-0.19642222 0.15931736 0.60364366 145 139 137
-0.15659288 0.17170192 0.65056801 148 152 153
-0.15576740 0.17203212 0.65181905 154 158 159
-0.15478961 0.17219768 0.65244645 160 164 164
-0.15395828 0.17252980 0.65370476 163 164 163
-0.15312372 0.17286319 0.65496796 160 161 160
-0.15184495 0.17269634 0.65433574 157 157 156
-0.15085961 0.17286319 0.65496796 149 149 148
-0.14958301 0.17269634 0.65433574 141 142 141
-0.15004520 0.17454965 0.66135788 135 136 136
-0.14890209 0.17454965 0.66135788 135 136 136
-0.14804786 0.17489091 0.66265088 133 133 135
-0.14675906 0.17472012 0.66200376 122 123 127
-0.14518948 0.17420974 0.66006994 126 125 130
-0.14432968 0.17454965 0.66135788 139 138 142
-0.14346650 0.17489091 0.66265088 159 159 159
-0.14204347 0.17454965 0.66135788 175 175 173
-0.14048918 0.17404027 0.65942788 185 185 183
-0.13975726 0.17454965 0.66135788 193 193 191
-0.01344601 0.12626210 0.47839934 201 201 192
-0.01260135 0.12608415 0.47772506 201 201 192
-0.01175907 0.12590669 0.47705266 196 195 189
-0.01093452 0.12590669 0.47705266 188 188 183
-0.01010997 0.12590669 0.47705266 183 183 181
-0.00929197 0.12599535 0.47738862 178 177 175
-0.00847280 0.12608415 0.47772506 171 170 169
-0.00764171 0.12599535 0.47738862 181 181 180
-0.00681658 0.12599535 0.47738862 177 178 176
-0.00598724 0.12590669 0.47705266 177 178 175
-0.00516633 0.12599535 0.47738862 178 178 174
-0.00435039 0.12626210 0.47839934 175 176 172
-0.00352601 0.12635127 0.47873718 176 175 172
-0.00270619 0.12670921 0.48009336 179 177 174
-0.00188306 0.12715949 0.48179945 180 178 175
-0.00104807 0.12688893 0.48077434 183 179 178
-0.00021663 0.12661953 0.47975361 184 180 179
0.00061258 0.12661953 0.47975361 185 181 180
0.03276665 0.46592030 1.76534331 179 174 173
0.03563232 0.46350622 1.75619650 179 171 170
0.03836955 0.45993161 1.74265254 179 171 169
0.04116992 0.45757902 1.73373878 175 167 164
0.04416654 0.45757902 1.73373878 167 163 160
0.04704285 0.45641175 1.72931588 153 151 150
0.04952646 0.45180151 1.71184814 146 145 145
0.05131892 0.44176149 1.67380702 140 139 141
0.05342054 0.43531242 1.64937186 142 138 141
0.05546169 0.42904893 1.62563992 147 144 146
0.10591283 0.20803884 0.78824633 127 126 133
0.10715065 0.20779721 0.78733081 116 115 123
0.08378633 0.15098177 0.57206064 157 154 153
0.08456101 0.15060051 0.57061601 167 163 161
0.29512841 0.45641175 1.72931588 144 144 144
0.29811740 0.45641175 1.72931588 146 145 145
0.29881948 0.45294532 1.71618187 150 148 148
0.29506281 0.44285494 1.67795014 154 148 148
0.29504183 0.43851325 1.66149962 164 156 157
0.20904233 0.24047500 0.91114497 138 137 136
0.21033446 0.24015221 0.90992194 130 129 128
0.21133983 0.23950924 0.90748572 139 139 139
0.17664681 0.17319787 0.65623605 166 168 160
0.17760913 0.17303036 0.65560138 172 173 165
0.17856959 0.17286319 0.65496796 174 176 167
0.17970164 0.17286319 0.65496796 175 177 171
0.18100859 0.17303036 0.65560138 176 177 172
0.18214175 0.17303036 0.65560138 177 177 174
0.18345232 0.17319787 0.65623605 181 181 173
0.18494464 0.17353386 0.65750909 182 182 173
0.18626176 0.17370233 0.65814739 181 180 171
0.18703614 0.17336570 0.65687191 180 178 169
1.01180816 0.44176149 1.67380702 142 139 130
1.00724006 0.43851325 1.66149962 139 136 131
0.98125154 0.42598429 1.61402822 133 130 130
0.98170388 0.42497244 1.61019444 128 127 126
0.98683095 0.42598429 1.61402822 122 122 123
0.98814195 0.42296311 1.60258114 119 119 122
0.97705299 0.41704756 1.58016741 118 118 120
0.96849632 0.41224286 1.56196272 119 119 122
0.96452880 0.40941280 1.55123997 131 130 132
0.96720999 0.40941280 1.55123997 139 138 140
0.96767682 0.40847808 1.54769826 145 145 143
0.97257239 0.40941280 1.55123997 159 159 156
1.14527905 0.43531242 1.64937186 168 168 158
1.15093017 0.43637416 1.65339470 173 173 164
1.15378797 0.43637416 1.65339470 175 175 166
1.15103090 0.43425584 1.64536858 178 178 167
1.15668225 0.43531242 1.64937186 179 179 168
1.15113068 0.43215796 1.63741994 179 179 170
1.15396082 0.43215796 1.63741994 176 176 167
1.15400350 0.43111664 1.63347435 173 171 163
1.14305508 0.42598429 1.61402822 174 171 163
1.14312315 0.42497244 1.61019444 178 175 167
1.15137589 0.42700097 1.61788034 176 173 165
1.14868927 0.42497244 1.61019444 174 171 163
1.14602804 0.42296311 1.60258114 172 169 161
1.14608860 0.42196557 1.59880149 168 165 157
0.42439473 0.14872269 0.56350112 148 147 143
0.42431056 0.14835274 0.56209940 143 143 138
0.39900795 0.12806971 0.48524827 145 146 137
0.39984667 0.12806971 0.48524827 141 143 134
0.40039876 0.12797812 0.48490116 137 139 130
0.40123686 0.12797812 0.48490116 143 145 136
0.40207499 0.12797812 0.48490116 161 163 152
0.40320152 0.12806971 0.48524827 170 172 161
0.40404022 0.12806971 0.48524827 168 170 160
0.40487894 0.12806971 0.48524827 166 167 157
0.40513763 0.12788664 0.48455456 166 167 158
0.40597516 0.12788664 0.48455456 168 170 160
-0.20735401 0.16238511 0.61126405 135 134 132
-0.20667021 0.16267848 0.61236840 135 135 133
-0.20542620 0.16253166 0.61181575 139 139 137
-0.20436874 0.16253166 0.61181575 141 140 138
-0.20276226 0.16209278 0.61016369 157 151 149
-0.20008679 0.16079025 0.60526055 157 152 149
-0.19693945 0.15993346 0.60203540 164 158 156
-0.19607303 0.16007563 0.60257053 149 143 141
-0.15419598 0.17266068 0.64994425 167 169 169
-0.15336670 0.17299239 0.65119290 172 173 171
-0.15282840 0.17365967 0.65370476 172 173 168
-0.15155238 0.17349237 0.65307498 170 171 163
-0.15056865 0.17365967 0.65370476 151 152 145
-0.14943877 0.17365967 0.65370476 146 147 142
-0.14931682 0.17483988 0.65814739 135 137 133
-0.14832327 0.17500980 0.65878701 129 130 132
-0.14633036 0.17535062 0.66006994 118 114 124
-0.14490730 0.17500980 0.65878701 131 126 136
-0.14390849 0.17518003 0.65942788 146 143 149
-0.14304702 0.17552152 0.66071332 169 169 169
-0.14176685 0.17535062 0.66006994 182 182 180
-0.14021638 0.17483988 0.65814739 197 198 195
-0.13934942 0.17518003 0.65942788 198 200 194
-0.01343653 0.12699935 0.47806194 202 200 193
-0.01259248 0.12682047 0.47738862 201 201 192
-0.01174254 0.12655312 0.47638217 195 194 189
-0.01091148 0.12646425 0.47604764 189 188 184
-0.01009576 0.12655312 0.47638217 183 183 181
-0.00927238 0.12655312 0.47638217 185 185 183
-0.00846088 0.12673123 0.47705266 183 184 181
-0.00762560 0.12655312 0.47638217 179 181 176
-0.00679744 0.12646425 0.47604764 180 181 176
-0.00596625 0.12628688 0.47537997 182 183 178
-0.00515544 0.12655312 0.47638217 182 182 177
-0.00435039 0.12708898 0.47839934 179 178 174
-0.00352601 0.12717873 0.47873718 182 179 176
-0.00270619 0.12753901 0.48009336 182 178 176
-0.00188172 0.12790133 0.48145726 182 178 176
-0.00104807 0.12771991 0.48077434 183 179 178
-0.00021648 0.12735862 0.47941431 186 182 181
0.00061258 0.12744875 0.47975361 185 181 180
0.03268154 0.46775347 1.76075804 176 168 167
0.03563232 0.46654165 1.75619650 175 166 163
0.03836955 0.46294364 1.74265254 173 166 161
0.04116992 0.46057567 1.73373878 165 160 153
0.04416654 0.46057567 1.73373878 153 152 150
0.04704285 0.45940071 1.72931588 143 142 143
0.04965185 0.45591161 1.71618187 131 130 132
0.05170190 0.44797283 1.68629813 130 129 131
0.05355084 0.43923190 1.65339470 134 130 133
0.05613477 0.43709973 1.64536858 142 139 141
0.08357475 0.15158677 0.57061601 151 146 148
0.08441889 0.15133201 0.56965703 164 158 160
0.08533179 0.15120494 0.56917870 154 148 150
0.29801345 0.45021272 1.69472957 133 127 129
0.29649523 0.44355932 1.66968429 132 120 122
0.20887120 0.24368753 0.91730964 153 155 146
0.21017230 0.24335822 0.91607004 142 144 136
0.21090063 0.24237561 0.91237128 117 118 113
0.21162313 0.24140091 0.90870219 124 124 126
0.17681798 0.17450105 0.65687191 169 169 167
0.17778106 0.17433213 0.65623605 170 170 167
0.17874229 0.17416352 0.65560138 172 174 167
0.17987543 0.17416352 0.65560138 171 173 167
0.18100859 0.17416352 0.65560138 169 170 166
0.18231808 0.17433213 0.65623605 173 174 170
0.18363008 0.17450105 0.65687191 174 175 169
0.18512420 0.17483988 0.65814739 176 177 170
0.25342759 0.11957841 0.45012739 170 168 161
0.99307382 0.43393996 1.63347435 147 143 141
0.99830270 0.43498811 1.63741994 131 127 125
0.99631971 0.43289682 1.62954772 125 124 124
0.99757528 0.42979732 1.61788034 109 109 113
0.97073305 0.41590089 1.56557012 119 120 123
0.96896344 0.41398868 1.55837202 123 123 126
0.97840458 0.41686362 1.56919408 130 130 132
0.97885096 0.41590089 1.56557012 143 142 142
0.98611170 0.41783082 1.57283485 155 154 152
1.14527905 0.43816322 1.64937186 164 164 153
1.15093017 0.43923190 1.65339470 167 167 156
1.15378797 0.43923190 1.65339470 166 166 156
1.15103090 0.43709973 1.64536858 178 178 167
1.15108097 0.43604136 1.64138460 179 179 168
1.14559639 0.43289682 1.62954772 177 177 167
1.15118027 0.43393996 1.63347435 176 176 166
1.14846873 0.43185872 1.62563992 175 174 164
1.14034009 0.42775553 1.61019444 171 168 160
1.14312315 0.42775553 1.61019444 175 172 164
1.15137589 0.42979732 1.61788034 175 172 164
1.14868927 0.42775553 1.61019444 174 171 163
1.14602804 0.42573306 1.60258114 170 167 159
1.14608860 0.42472896 1.59880149 164 161 153
0.42333901 0.14932428 0.56209940 134 132 132
0.39900795 0.12890844 0.48524827 142 143 134
0.39956066 0.12881622 0.48490116 138 139 130
0.40039876 0.12881622 0.48490116 132 134 125
0.40123686 0.12881622 0.48490116 131 133 124
0.40207499 0.12881622 0.48490116 151 153 143
0.40320152 0.12890844 0.48524827 157 159 148
0.40404022 0.12890844 0.48524827 155 157 146
0.40487894 0.12890844 0.48524827 152 153 144
0.40542743 0.12881622 0.48490116 159 160 151
0.40626556 0.12881622 0.48490116 163 164 156
-0.20629749 0.16344163 0.61126405 129 128 126
-0.20505607 0.16329437 0.61071336 132 131 129
-0.20400050 0.16329437 0.61071336 142 140 138
-0.20221622 0.16270804 0.60852051 155 149 147
-0.19902059 0.16097404 0.60203540 153 147 144
-0.19780436 0.16083120 0.60150117 156 151 146
-0.19659027 0.16068862 0.60096794 150 149 145
-0.19555156 0.16068862 0.60096794 145 145 142
-0.15404829 0.17361759 0.64932168 166 166 164
-0.15321951 0.17395082 0.65056801 168 169 162
-0.15268117 0.17462116 0.65307498 169 170 161
-0.15140651 0.17445309 0.65244645 171 172 163
-0.15042359 0.17462116 0.65307498 160 161 152
-0.14915112 0.17445309 0.65244645 150 152 144
-0.14135394 0.17597744 0.65814739 191 189 188
-0.01414313 0.12675299 0.47405025 204 201 194
-0.01339873 0.12746608 0.47671717 204 201 193
-0.01256593 0.12737650 0.47638217 202 202 193
-0.01170962 0.12701945 0.47504684 193 193 184
-0.01087331 0.12684168 0.47438198 190 190 181
-0.01006746 0.12701945 0.47504684 185 185 178
-0.00924638 0.12701945 0.47504684 186 185 181
-0.00843121 0.12710853 0.47537997 186 186 181
-0.00760956 0.12710853 0.47537997 185 185 180
-0.00677365 0.12684168 0.47438198 184 184 177
-0.00595372 0.12684168 0.47438198 183 183 176
-0.00514820 0.12719773 0.47571358 182 182 175
-0.00435039 0.12791586 0.47839934 181 181 175
-0.00352850 0.12809666 0.47907552 183 183 176
-0.00270619 0.12836881 0.48009336 183 183 176
-0.00188172 0.12873350 0.48145726 185 182 176
-0.00104733 0.12845980 0.48043361 184 180 177
-0.00021648 0.12818724 0.47941431 182 177 174
0.00061302 0.12836881 0.48009336 179 173 171
0.03836955 0.46595567 1.74265254 158 156 148
0.04116992 0.46357229 1.73373878 153 151 143
0.04416654 0.46357229 1.73373878 139 138 136
0.04704285 0.46238971 1.72931588 139 137 136
0.04965185 0.45887789 1.71618187 136 133 133
0.05183083 0.45201188 1.69050336 133 131 133
0.05355084 0.44208968 1.65339470 134 132 134
0.08350446 0.15244471 0.57013613 141 140 142
0.08434801 0.15218872 0.56917870 148 142 146
0.20700559 0.24494158 0.91607004 167 168 160
0.20915422 0.24560536 0.91855264 158 160 151
0.21045668 0.24527302 0.91730964 153 155 146
0.21146987 0.24461101 0.91483378 134 136 127
0.21219201 0.24362469 0.91114497 110 110 112
0.17778106 0.17546637 0.65623605 161 161 161
0.17874229 0.17529668 0.65560138 161 161 159
0.18004957 0.17546637 0.65623605 163 163 162
0.18118382 0.17546637 0.65623605 166 167 165
0.18231808 0.17546637 0.65623605 169 170 166
0.24753223 0.12051646 0.45072597 174 175 164
0.24831128 0.12051646 0.45072597 170 171 162
0.24875952 0.12035642 0.45012739 166 167 158
0.25281745 0.12043639 0.45042646 161 160 155
0.25376460 0.12051646 0.45072597 164 163 158
0.25420558 0.12035642 0.45012739 166 165 161
0.25610173 0.12051646 0.45072597 159 159 154
0.25653961 0.12035642 0.45012739 168 167 162
0.97026789 0.41957584 1.56919408 118 118 120
0.96405369 0.41572651 1.55479777 117 118 119
0.96452880 0.41477519 1.55123997 127 127 128
0.97165698 0.41668221 1.55837202 142 142 143
0.97885096 0.41860685 1.56557012 152 152 151
0.98840499 0.42152736 1.57649267 157 157 155
1.14527905 0.44101402 1.64937186 154 155 141
1.15093017 0.44208968 1.65339470 155 155 144
1.15378797 0.44208968 1.65339470 158 158 147
1.15103090 0.43994361 1.64536858 163 163 152
1.15108097 0.43887836 1.64138460 169 169 158
1.14284921 0.43466848 1.62563992 172 172 161
1.15118027 0.43676329 1.63347435 174 174 163
1.15122950 0.43571338 1.62954772 178 178 168
1.14034009 0.43053862 1.61019444 178 177 168
1.14584482 0.43156371 1.61402822 174 172 164
1.15137589 0.43259370 1.61788034 172 169 161
1.14868927 0.43053862 1.61019444 171 168 160
1.14602804 0.42850298 1.60258114 168 165 157
0.39958000 0.12993316 0.48594397 139 137 129
0.40013307 0.12984009 0.48559588 132 132 123
0.40068537 0.12974715 0.48524827 127 128 119
0.40123686 0.12965433 0.48490116 130 131 122
0.40207499 0.12965433 0.48490116 145 147 138
0.40349033 0.12984009 0.48559588 153 155 146
0.40404022 0.12974715 0.48524827 154 156 147
0.40487894 0.12974715 0.48524827 155 157 148
0.40542743 0.12965433 0.48490116 157 159 150
0.64013493 0.17411792 0.65119290 155 155 152
-0.20059562 0.16244741 0.60364366 153 147 145
-0.19641615 0.16158409 0.60043561 135 134 133
-0.19537835 0.16158409 0.60043561 134 134 132
-0.19468541 0.16187085 0.60150117 131 131 131
-0.15042359 0.17574994 0.65307498 159 160 153
-0.14915112 0.17558080 0.65244645 153 154 149
-0.01578185 0.12757234 0.47405025 205 201 198
-0.01496249 0.12757234 0.47405025 206 203 197
-0.01413325 0.12748319 0.47371897 205 202 195
-0.01335179 0.12784053 0.47504684 204 201 193
-0.01253949 0.12793018 0.47537997 201 201 192
-0.01169324 0.12766162 0.47438198 195 191 184
-0.01086570 0.12757234 0.47405025 190 186 179
-0.01004634 0.12757234 0.47405025 185 182 175
-0.00922699 0.12757234 0.47405025 190 185 180
-0.00841940 0.12775101 0.47471419 188 182 178
-0.00760423 0.12784053 0.47504684 187 182 178
-0.00677365 0.12766162 0.47438198 186 181 176
-0.00596206 0.12784053 0.47504684 186 181 176
-0.00516269 0.12838033 0.47705266 184 179 174
-0.00435346 0.12883365 0.47873718 183 180 174
-0.00352850 0.12892470 0.47907552 181 178 172
-0.00270428 0.12910718 0.47975361 178 175 168
-0.00187772 0.12929018 0.48043361 178 175 169
-0.00104585 0.12910718 0.47975361 172 169 165
-0.00021632 0.12892470 0.47907552 172 168 165
0.00061258 0.12910718 0.47975361 171 165 163
0.00144384 0.12929018 0.48043361 171 167 164
0.04127548 0.46776524 1.73818421 144 139 132
0.04427979 0.46776524 1.73818421 134 133 129
0.04716317 0.46656892 1.73373878 135 134 131
0.04977787 0.46301636 1.72053766 137 136 134
0.05183083 0.45493376 1.69050336 136 135 138
0.05342054 0.44386482 1.64937186 126 126 128
0.08343428 0.15330121 0.56965703 136 137 138
0.08434801 0.15317249 0.56917870 135 132 135
0.08518874 0.15291572 0.56822449 145 141 144
0.20542224 0.24652493 0.91607004 168 168 162
0.20700559 0.24652493 0.91607004 170 169 163
0.20887120 0.24685852 0.91730964 166 166 157
0.21045668 0.24685852 0.91730964 159 159 150
0.21146987 0.24619223 0.91483378 147 148 139
0.21247759 0.24552953 0.91237128 128 123 126
0.21405455 0.24552953 0.91237128 121 114 118
0.17778106 0.17660062 0.65623605 159 159 159
0.17874229 0.17642982 0.65560138 159 159 159
0.17987543 0.17642982 0.65560138 161 161 160
0.24691737 0.12137621 0.45102584 173 175 166
0.24852370 0.12178133 0.45253128 174 176 165
0.24913953 0.12170009 0.45222938 173 175 164
0.24958818 0.12153794 0.45162681 174 175 164
0.24970335 0.12121491 0.45042646 170 171 161
0.25031555 0.12113442 0.45012739 161 162 153
0.25187156 0.12113442 0.45012739 156 155 151
0.25315386 0.12137621 0.45102584 152 151 148
0.25410250 0.12145702 0.45132613 152 151 149
0.25488257 0.12145702 0.45132613 156 154 153
0.25532266 0.12129550 0.45072597 152 149 149
0.25644273 0.12145702 0.45132613 147 145 144
0.25688076 0.12129550 0.45072597 155 154 152
0.95916647 0.41745639 1.55123997 115 114 115
0.95746565 0.41555455 1.54417276 116 116 116
0.96013463 0.41555455 1.54417276 122 122 121
0.96500176 0.41650331 1.54769826 139 139 138
0.97435045 0.41937572 1.55837202 147 146 145
0.99070895 0.42524111 1.58016741 146 146 144
1.13424027 0.43958661 1.63347435 153 152 140
1.14534318 0.44278750 1.64536858 154 152 142
1.14818704 0.44278750 1.64536858 151 150 139
1.13996339 0.43852991 1.62954772 151 150 140
1.13459766 0.43539008 1.61788034 155 155 144
1.13199079 0.43332171 1.61019444 165 163 153
1.13477385 0.43332171 1.61019444 176 172 165
1.14298677 0.43539008 1.61788034 177 173 166
1.13494837 0.43127292 1.60258114 173 172 163
1.13771832 0.43127292 1.60258114 169 169 160
1.14863455 0.43435344 1.61402822 167 165 157
1.14596725 0.43229488 1.60637879 167 163 157
1.14602804 0.43127292 1.60258114 168 165 158
0.40017441 0.13124348 0.48769197 135 132 126
0.40044117 0.13105492 0.48699126 133 130 124
0.40041992 0.13077308 0.48594397 127 125 119
0.40097240 0.13067940 0.48559588 117 119 113
0.40152410 0.13058586 0.48524827 129 131 124
0.40236279 0.13058586 0.48524827 136 138 130
0.40377957 0.13077308 0.48594397 140 143 135
0.40432966 0.13067940 0.48559588 143 145 137
0.40516898 0.13067940 0.48559588 152 154 145
0.63756961 0.17608923 0.65433574 143 144 142
0.63870054 0.17608923 0.65433574 146 147 145
0.64044970 0.17625937 0.65496796 148 149 147
0.64034438 0.17591943 0.65370476 152 152 150
0.64271384 0.17625937 0.65496796 148 148 146
0.64136720 0.17558080 0.65244645 149 150 147
0.63758564 0.17423920 0.64746118 155 155 152
-0.20006117 0.16305517 0.60203540 133 132 128
-0.19780436 0.16291049 0.60150117 129 128 126
-0.19659027 0.16276607 0.60096794 128 128 128
-0.19555156 0.16276607 0.60096794 129 129 129
-0.19503152 0.16320011 0.60257053 127 127 128
-0.15155238 0.17687874 0.65307498 147 147 144
-0.15071398 0.17722020 0.65433574 146 147 144
-0.14943877 0.17704929 0.65370476 143 143 143
-0.14888318 0.17773487 0.65623605 129 129 132
-0.01737197 0.12803356 0.47272792 205 201 198
-0.01577082 0.12830198 0.47371897 206 203 197
-0.01495203 0.12830198 0.47371897 206 203 197
-0.01412338 0.12821238 0.47338817 206 203 196
-0.01331446 0.12830198 0.47371897 206 203 195
-0.01251317 0.12848154 0.47438198 200 200 191
-0.01167689 0.12830198 0.47371897 188 187 180
-0.01085053 0.12821238 0.47338817 180 178 174
-0.01003932 0.12830198 0.47371897 173 172 167
-0.00921410 0.12821238 0.47338817 186 179 177
-0.00840175 0.12830198 0.47371897 186 177 176
-0.00758827 0.12839170 0.47405025 187 179 175
-0.00676418 0.12830198 0.47371897 187 179 176
-0.00594956 0.12839170 0.47405025 185 178 174
-0.00514098 0.12866162 0.47504684 185 178 174
-0.00434120 0.12929586 0.47738862 183 178 173
-0.00352103 0.12947823 0.47806194 178 175 168
-0.00269664 0.12956960 0.47839934 176 173 165
-0.00187109 0.12966110 0.47873718 176 173 167
-0.00104363 0.12966110 0.47873718 168 164 162
-0.00021587 0.12947823 0.47806194 164 160 159
0.00061086 0.12956960 0.47839934 158 154 153
0.04728410 0.47076955 1.73818421 130 129 130
0.04977787 0.46599016 1.72053766 130 130 132
0.05170190 0.45671672 1.68629813 133 133 135
0.05316185 0.44455236 1.64138460 127 127 131
0.08336423 0.15415628 0.56917870 139 138 139
0.08427725 0.15402696 0.56870121 140 139 140
0.08511739 0.15376894 0.56774861 148 147 147
0.20274296 0.24677436 0.91114497 170 166 164
0.20597893 0.24878065 0.91855264 171 166 163
0.20728570 0.24844401 0.91730964 170 165 160
0.20943801 0.24911821 0.91979897 166 165 156
0.21160203 0.24979609 0.92230183 162 161 153
0.21290649 0.24945669 0.92104870 148 148 139
0.21391715 0.24878065 0.91855264 143 134 136
0.21492235 0.24810828 0.91607004 132 123 125
0.24947239 0.12264537 0.45283356 174 176 166
0.24992119 0.12248174 0.45222938 175 176 166
0.25020209 0.12223710 0.45132613 176 177 167
0.25064841 0.12207455 0.45072597 170 170 161
0.25142744 0.12207455 0.45072597 161 160 154
0.25220650 0.12207455 0.45072597 153 151 150
0.25349116 0.12231854 0.45162681 146 140 142
0.25444129 0.12240008 0.45192790 143 132 138
0.25522241 0.12240008 0.45192790 147 137 141
0.25600353 0.12240008 0.45192790 152 143 146
0.25695595 0.12248174 0.45222938 153 146 148
0.25739416 0.12231854 0.45162681 156 151 151
0.95916647 0.42013758 1.55123997 105 103 109
0.95965165 0.41917837 1.54769826 108 107 110
0.96452880 0.42013758 1.55123997 116 115 117
0.97165698 0.42206925 1.55837202 132 131 131
0.98339319 0.42598638 1.57283485 139 138 138
0.99302369 0.42897224 1.58385944 142 142 140
1.13161004 0.44028807 1.62563992 158 153 143
1.13441980 0.44028807 1.62563992 157 152 142
1.12642455 0.43610480 1.61019444 153 148 139
1.12386858 0.43404284 1.60258114 150 146 137
1.12398136 0.43301916 1.59880149 153 150 140
1.12409365 0.43200028 1.59503961 155 150 143
1.13486135 0.43507138 1.60637879 155 150 143
1.13227153 0.43301916 1.59880149 157 154 148
1.13503504 0.43301916 1.59880149 158 157 152
1.14590621 0.43610480 1.61019444 159 158 153
1.14325809 0.43404284 1.60258114 163 160 155
1.14602804 0.43404284 1.60258114 163 160 156
0.40075102 0.13227674 0.48839471 112 111 108
0.40130606 0.13218151 0.48804307 118 115 114
0.40128291 0.13189664 0.48699126 122 120 118
0.40125984 0.13161299 0.48594397 118 121 119
0.40181172 0.13151871 0.48559588 127 131 128
0.40265101 0.13151871 0.48559588 130 135 131
0.40435931 0.13180196 0.48664168 129 134 130
0.40461949 0.13161299 0.48594397 135 141 137
0.40659079 0.13170740 0.48629257 144 145 141
0.63766962 0.17756298 0.65560138 135 136 133
0.63818556 0.17739142 0.65496796 141 142 139
0.63870054 0.17722020 0.65433574 145 146 144
0.64106911 0.17756298 0.65560138 147 148 146
0.64158177 0.17739142 0.65496796 148 149 147
0.64333540 0.17756298 0.65560138 151 151 149
0.64260411 0.17704929 0.65370476 153 153 152
0.63941777 0.17586219 0.64932168 153 154 153
-0.20131266 0.16512226 0.60580146 114 113 113
-0.19937474 0.16438773 0.60310662 120 120 121
-0.19904064 0.16497482 0.60526055 122 122 124
-0.19693945 0.16409574 0.60203540 123 124 126
-0.19607303 0.16424161 0.60257053 129 130 133
-0.19555300 0.16468075 0.60418171 134 134 138
-0.15404829 0.17698449 0.64932168 144 142 144
-0.15292598 0.17698449 0.64932168 142 143 144
-0.15253422 0.17783619 0.65244645 144 144 146
-0.15140651 0.17783619 0.65244645 142 142 144
-0.15042359 0.17800751 0.65307498 139 139 141
-0.14929481 0.17800751 0.65307498 131 130 136
-0.14873919 0.17869614 0.65560138 128 127 134
-0.01816371 0.12867117 0.47206953 205 202 196
-0.01737197 0.12885064 0.47272792 205 201 197
-0.01577082 0.12912075 0.47371897 206 203 197
-0.01494159 0.12903059 0.47338817 203 202 196
-0.01412338 0.12903059 0.47338817 205 204 197
-0.01330517 0.12903059 0.47338817 204 203 196
-0.01249568 0.12912075 0.47371897 192 192 183
-0.01166874 0.12903059 0.47338817 182 178 176
-0.01083539 0.12885064 0.47272792 172 166 167
-0.01002531 0.12894055 0.47305781 162 160 160
-0.00920125 0.12885064 0.47272792 172 170 168
-0.00839003 0.12894055 0.47305781 179 177 174
-0.00757767 0.12903059 0.47338817 182 175 174
-0.00675474 0.12894055 0.47305781 182 174 174
-0.00594125 0.12903059 0.47338817 183 175 174
-0.00513020 0.12921105 0.47405025 184 176 175
-0.00432293 0.12957349 0.47537997 180 174 171
-0.00351113 0.12993798 0.47671717 177 172 167
-0.00269095 0.13012099 0.47738862 173 169 162
-0.00186713 0.13021269 0.47772506 175 172 166
-0.00104142 0.13021269 0.47772506 166 161 158
-0.00021541 0.13002943 0.47705266 161 155 153
0.00060956 0.13012099 0.47738862 155 150 149
0.00143368 0.13002943 0.47705266 153 149 148
0.00226141 0.13021269 0.47772506 152 148 146
0.00308061 0.12993798 0.47671717 150 145 140
0.04965185 0.46777672 1.71618187 133 133 135
0.05170190 0.45963135 1.68629813 128 129 133
0.05342054 0.44956642 1.64937186 128 128 133
0.08329429 0.15500991 0.56870121 142 141 141
0.08413608 0.15475026 0.56774861 153 152 152
0.08483319 0.15423356 0.56585294 159 159 156
0.08531273 0.15333760 0.56256586 160 160 156
0.20198257 0.24935466 0.91483378 180 175 170
0.20247084 0.24801585 0.90992194 182 175 169
0.20625842 0.25070801 0.91979897 177 169 164
0.20756657 0.25036830 0.91855264 169 161 155
0.20972258 0.25104865 0.92104870 161 160 151
0.21217939 0.25207612 0.92481834 162 162 153
0.21348661 0.25173271 0.92355835 148 148 139
0.21537635 0.25207612 0.92481834 147 145 143
0.25427178 0.12309914 0.45162681 151 141 146
0.25712749 0.12334567 0.45253128 157 150 153
0.25756577 0.12318120 0.45192790 158 157 157
0.96357638 0.42476279 1.55837202 119 117 124
0.96405369 0.42378855 1.55479777 120 119 123
0.97119606 0.42574149 1.56196272 123 122 126
0.98295528 0.42970186 1.57649267 126 125 127
0.99028611 0.43170983 1.58385944 130 129 130
0.99534929 0.43272087 1.58756876 139 138 138
1.11582291 0.43475720 1.59503961 154 147 137
1.09791327 0.42672473 1.56557012 147 142 133
1.10316694 0.42771250 1.56919408 138 132 123
1.10844505 0.42870489 1.57283485 132 127 123
1.12157249 0.43272087 1.58756876 138 132 130
1.12168956 0.43170983 1.58385944 147 144 142
1.12442720 0.43170983 1.58385944 152 151 151
1.14048827 0.43681279 1.60258114 152 152 151
1.14056182 0.43578255 1.59880149 154 153 151
1.14332521 0.43578255 1.59880149 158 157 154
1.14339185 0.43475720 1.59503961 162 161 159
0.40132931 0.13331299 0.48909944 109 105 106
0.40188473 0.13321687 0.48874682 125 124 124
0.40214959 0.13302507 0.48804307 126 125 125
0.40212461 0.13273837 0.48699126 131 133 132
0.40209976 0.13245291 0.48594397 138 142 140
0.40351820 0.13264307 0.48664168 144 148 146
0.40494069 0.13283379 0.48734137 136 140 137
0.40776083 0.13292935 0.48769197 145 146 144
0.63973421 0.17991413 0.66006994 119 119 119
0.63777006 0.17904244 0.65687191 127 127 126
0.63705355 0.17852348 0.65496796 131 131 130
0.63880277 0.17869614 0.65560138 132 133 132
0.63870054 0.17835116 0.65433574 135 136 135
0.64168966 0.17886913 0.65623605 140 141 140
0.64395821 0.17886913 0.65623605 146 147 145
0.64322442 0.17835116 0.65433574 147 148 146
0.63941777 0.17698449 0.64932168 141 142 142
-0.20381688 0.16736588 0.61016369 100 99 102
-0.20221622 0.16691516 0.60852051 93 92 98
-0.20080394 0.16661602 0.60742998 104 103 110
-0.20029247 0.16706513 0.60906726 115 114 122
-0.19799449 0.16602097 0.60526055 130 131 133
-0.15404829 0.17810678 0.64932168 137 137 139
-0.15292598 0.17810678 0.64932168 135 136 138
-0.15238754 0.17879182 0.65181905 132 132 135
-0.15126093 0.17879182 0.65181905 131 131 134
-0.15027882 0.17896390 0.65244645 124 125 131
-0.14915112 0.17896390 0.65244645 120 120 127
-0.14845206 0.17948213 0.65433574 146 145 152
-0.01817637 0.12957734 0.47239849 205 202 196
-0.01738409 0.12975819 0.47305781 205 202 196
-0.01657802 0.12984881 0.47338817 206 203 197
-0.01577082 0.12993954 0.47371897 206 203 197
-0.01494159 0.12984881 0.47338817 198 197 194
-0.01412338 0.12984881 0.47338817 202 202 197
-0.01330517 0.12984881 0.47338817 195 195 186
-0.01248695 0.12984881 0.47338817 190 185 178
-0.01166060 0.12975819 0.47305781 176 171 167
-0.01082030 0.12948711 0.47206953 154 148 148
-0.01000437 0.12948711 0.47206953 159 151 154
-0.00918843 0.12948711 0.47206953 165 160 161
-0.00837833 0.12957734 0.47239849 171 166 167
-0.00757239 0.12975819 0.47305781 177 172 173
-0.00674063 0.12948711 0.47206953 178 172 172
-0.00592883 0.12957734 0.47239849 179 172 172
-0.00512303 0.12984881 0.47338817 179 173 173
-0.00431386 0.13012141 0.47438198 178 172 172
-0.00349883 0.13030377 0.47504684 178 171 170
-0.00268150 0.13048665 0.47571358 175 166 165
-0.00186058 0.13057829 0.47604764 173 166 163
-0.00103704 0.13048665 0.47571358 166 159 156
-0.00021451 0.13030377 0.47504684 154 147 146
0.00060700 0.13039516 0.47537997 154 147 146
0.00142466 0.13003041 0.47405025 146 139 138
0.00224402 0.13003041 0.47405025 149 143 141
0.00306337 0.13003041 0.47405025 147 142 137
0.04965185 0.47074300 1.71618187 121 121 125
0.05144595 0.46025616 1.67795014 124 125 128
0.08238045 0.15612383 0.56917870 144 141 142
0.08329429 0.15599287 0.56870121 153 152 150
0.08420660 0.15586211 0.56822449 166 166 156
0.08497505 0.15547115 0.56679922 166 166 156
0.08538359 0.15443811 0.56303310 167 167 158
0.20171036 0.25059769 0.91360086 183 178 171
0.20274296 0.24992405 0.91114497 179 171 165
0.20570020 0.25161499 0.91730964 177 169 163
0.20728570 0.25161499 0.91730964 173 165 159
0.20915422 0.25195596 0.91855264 162 158 151
0.21160203 0.25298434 0.92230183 163 160 152
0.21319616 0.25298434 0.92230183 152 151 143
0.21479028 0.25298434 0.92230183 151 151 147
0.25281745 0.12355049 0.45042646 144 140 140
0.95697653 0.42452851 1.54769826 132 134 135
0.95965165 0.42452851 1.54769826 128 129 131
0.96452880 0.42549998 1.55123997 129 130 132
0.98067468 0.43142340 1.57283485 131 134 134
0.98797774 0.43343470 1.58016741 132 135 135
0.99070895 0.43343470 1.58016741 137 138 138
1.00043619 0.43648705 1.59129536 145 145 145
1.11320364 0.43648705 1.59129536 157 149 141
1.08044648 0.42259884 1.54066324 152 144 137
1.09054482 0.42549998 1.55123997 142 134 126
1.10078287 0.42844123 1.56196272 140 133 131
1.12420535 0.43648705 1.59129536 139 135 136
1.12168956 0.43444741 1.58385944 135 132 133
1.12442720 0.43444741 1.58385944 139 139 139
1.14319074 0.44062439 1.60637879 155 155 155
1.14325809 0.43958271 1.60258114 157 157 156
1.14332521 0.43854597 1.59880149 160 160 158
1.14339185 0.43751410 1.59503961 163 163 161
0.40103996 0.13406163 0.48874682 129 120 126
0.40188473 0.13406163 0.48874682 148 146 147
0.40186027 0.13377230 0.48769197 148 147 147
0.40183595 0.13348420 0.48664168 153 153 152
0.40181172 0.13319734 0.48559588 158 160 157
0.40322873 0.13338844 0.48629257 161 163 161
0.40464979 0.13358009 0.48699126 149 152 149
0.40520042 0.13348420 0.48664168 147 150 147
0.40604156 0.13348420 0.48664168 151 153 151
0.40746769 0.13367613 0.48734137 157 158 156
0.40860376 0.13377230 0.48769197 155 156 154
0.63715267 0.18000337 0.65623605 127 127 127
0.63705355 0.17965554 0.65496796 132 132 132
0.63818556 0.17965554 0.65496796 131 131 131
0.63870054 0.17948213 0.65433574 127 128 128
0.64044970 0.17965554 0.65496796 130 131 131
0.64158177 0.17965554 0.65496796 131 132 132
0.64333540 0.17982928 0.65560138 133 134 134
0.64198506 0.17913631 0.65307498 136 137 137
0.63880593 0.17793635 0.64870036 137 138 138
-0.20400050 0.16857222 0.61071336 119 120 123
-0.20116445 0.16796693 0.60852051 124 125 129
-0.20047258 0.16826904 0.60961497 138 139 141
-0.15390088 0.17905758 0.64870036 126 127 129
-0.15277965 0.17905758 0.64870036 132 133 136
-0.15209506 0.17957310 0.65056801 134 134 138
-0.15082586 0.17940092 0.64994425 127 127 131
-0.14984615 0.17957310 0.65056801 117 119 124
-0.14872169 0.17957310 0.65056801 138 138 142
-0.14788108 0.17991844 0.65181905 161 161 163
-0.01820173 0.13057584 0.47305781 206 202 198
-0.01739623 0.13066702 0.47338817 206 202 199
-0.01657802 0.13066702 0.47338817 205 201 198
-0.01577082 0.13075833 0.47371897 206 202 199
-0.01495203 0.13075833 0.47371897 206 202 201
-0.01412338 0.13066702 0.47338817 204 201 198
-0.01330517 0.13066702 0.47338817 191 191 183
-0.01248695 0.13066702 0.47338817 177 176 168
-0.01166060 0.13057584 0.47305781 166 164 160
-0.01082030 0.13030304 0.47206953 138 135 134
-0.00999741 0.13021237 0.47174102 142 133 138
-0.00918843 0.13030304 0.47206953 155 146 149
-0.00837250 0.13030304 0.47206953 164 155 158
-0.00756711 0.13048477 0.47272792 171 165 167
-0.00673594 0.13021237 0.47174102 173 167 167
-0.00592883 0.13039385 0.47239849 179 173 172
-0.00512303 0.13066702 0.47338817 177 169 169
-0.00431084 0.13084976 0.47405025 180 172 172
-0.00349393 0.13094133 0.47438198 179 171 170
-0.00267587 0.13103303 0.47471419 176 167 166
-0.00185537 0.13103303 0.47471419 174 165 164
-0.00103414 0.13094133 0.47438198 168 159 158
-0.00021406 0.13084976 0.47405025 157 148 147
0.00060573 0.13094133 0.47438198 157 148 147
0.00142168 0.13057584 0.47305781 150 141 140
0.00223932 0.13057584 0.47305781 151 143 141
0.00305910 0.13066702 0.47338817 149 143 139
0.00386920 0.13039385 0.47239849 140 134 132
0.00554471 0.13140111 0.47604764 141 136 133
0.00634080 0.13084976 0.47405025 138 133 133
0.00714517 0.13057584 0.47305781 133 128 128
0.08231134 0.15697581 0.56870121 149 143 142
0.08315478 0.15671287 0.56774861 160 155 148
0.08413608 0.15671287 0.56774861 164 163 151
0.08483319 0.15618962 0.56585294 168 167 154
0.08531273 0.15528230 0.56256586 167 166 152
0.08607080 0.15489666 0.56116873 166 164 151
0.11093946 0.16144535 0.58489376 175 175 166
0.20171036 0.25217676 0.91360086 180 175 169
0.20274296 0.25149888 0.91114497 178 169 164
0.20542224 0.25285834 0.91607004 171 161 156
0.20700559 0.25285834 0.91607004 161 151 149
0.20858894 0.25285834 0.91607004 152 145 140
0.21017230 0.25285834 0.91607004 146 140 135
0.21204218 0.25320050 0.91730964 141 138 135
0.21333900 0.25285834 0.91607004 145 145 140
0.21434304 0.25217676 0.91360086 153 155 149
0.25264958 0.12424646 0.45012739 155 152 148
0.25764346 0.12516065 0.45343935 129 129 131
0.95312339 0.42429742 1.53716969 143 149 146
0.95795250 0.42526174 1.54066324 135 141 139
0.97614497 0.43213665 1.56557012 129 134 133
0.98797774 0.43616590 1.58016741 130 134 133
0.98840499 0.43515155 1.57649267 135 139 138
0.99809325 0.43820882 1.58756876 140 144 143
1.10541904 0.43616590 1.58016741 145 135 129
1.09073007 0.42720357 1.54769826 136 130 127
1.11895204 0.43718496 1.58385944 144 140 141
1.11388206 0.43414193 1.57283485 149 144 146
1.12442720 0.43718496 1.58385944 153 153 153
1.14048827 0.44235265 1.60258114 158 158 158
1.14325809 0.44235265 1.60258114 160 160 159
1.14063501 0.44027099 1.59503961 163 163 161
1.14339185 0.44027099 1.59503961 166 166 164
0.40101734 0.13461523 0.48769197 167 166 160
0.40128291 0.13442181 0.48699126 171 171 165
0.40097240 0.13403666 0.48559588 173 173 164
0.40152410 0.13394071 0.48524827 176 176 164
0.40265101 0.13403666 0.48559588 173 174 162
0.40406924 0.13422896 0.48629257 170 171 162
0.40461949 0.13413274 0.48594397 167 168 160
0.40545940 0.13413274 0.48594397 164 166 159
0.40659079 0.13422896 0.48629257 166 167 163
0.40772378 0.13432533 0.48664168 162 163 160
0.63643861 0.18061310 0.65433574 139 139 138
0.63818556 0.18078761 0.65496796 142 142 140
0.63808465 0.18043892 0.65370476 139 139 137
0.63921452 0.18043892 0.65370476 139 139 138
0.64034438 0.18043892 0.65370476 139 140 138
0.64209342 0.18061310 0.65433574 141 141 140
0.64136720 0.18009159 0.65244645 144 145 144
0.63880593 0.17905758 0.64870036 148 149 147
-0.20257993 0.16932270 0.60961497 141 142 143
-0.20134519 0.16917057 0.60906726 135 136 135
-0.20047258 0.16932270 0.60961497 141 142 142
-0.19870415 0.16871582 0.60742998 138 139 140
-0.19836524 0.16932270 0.60961497 137 138 139
-0.19678070 0.16886713 0.60797477 136 137 137
-0.19537941 0.16856477 0.60688615 134 135 137
-0.19363703 0.16796330 0.60472065 122 123 125
-0.19224882 0.16766416 0.60364366 125 128 128
-0.19086555 0.16736609 0.60257053 122 124 124
-0.15390088 0.18017881 0.64870036 128 130 134
-0.15209506 0.18069755 0.65056801 129 132 136
-0.15082586 0.18052430 0.64994425 122 126 129
-0.14970247 0.18052430 0.64994425 134 138 139
-0.14857911 0.18052430 0.64994425 155 157 158
-0.14745574 0.18052430 0.64994425 172 173 175
-0.01821444 0.13148522 0.47338817 203 199 196
-0.01739623 0.13148522 0.47338817 204 200 196
-0.01657802 0.13148522 0.47338817 204 200 197
-0.01577082 0.13157712 0.47371897 204 200 197
-0.01494159 0.13148522 0.47338817 204 201 200
-0.01412338 0.13148522 0.47338817 200 199 197
-0.01330517 0.13148522 0.47338817 187 187 183
-0.01248695 0.13148522 0.47338817 179 176 174
-0.01165246 0.13130185 0.47272792 156 152 152
-0.01080525 0.13093661 0.47141296 135 131 132
-0.00998351 0.13084562 0.47108537 141 135 139
-0.00916928 0.13084562 0.47108537 153 146 149
-0.00834924 0.13075475 0.47075823 166 157 160
-0.00754606 0.13093661 0.47141296 169 163 165
-0.00671259 0.13057341 0.47010529 174 169 167
-0.00590414 0.13066402 0.47043154 179 174 170
-0.00511232 0.13121034 0.47239849 178 172 168
-0.00430482 0.13148522 0.47338817 179 174 170
-0.00348904 0.13157712 0.47371897 178 172 169
-0.00267400 0.13176127 0.47438198 177 171 169
-0.00185407 0.13176127 0.47438198 179 170 169
0.00142069 0.13130185 0.47272792 150 141 140
0.00223620 0.13121034 0.47239849 146 137 136
0.00305696 0.13139348 0.47305781 143 137 136
0.00386651 0.13111898 0.47206953 142 136 135
0.00553305 0.13194594 0.47504684 142 137 136
0.00634524 0.13176127 0.47438198 140 135 135
0.00715016 0.13148522 0.47338817 139 134 134
0.00796281 0.13139348 0.47305781 138 134 135
0.08301572 0.15743047 0.56679922 156 151 144
0.08392522 0.15729895 0.56632566 157 154 144
0.08455089 0.15664463 0.56396991 162 159 147
0.08517137 0.15599573 0.56163365 162 158 144
0.08599961 0.15573767 0.56070459 163 155 147
0.10790663 0.16245630 0.58489376 168 166 163
0.10891757 0.16245630 0.58489376 173 171 167
0.10983375 0.16231625 0.58438951 174 172 168
0.11084381 0.16231625 0.58438951 172 171 166
0.11175755 0.16217645 0.58388615 170 170 162
0.11247611 0.16175847 0.58238131 166 166 157
0.11290075 0.16092893 0.57939476 158 158 151
0.11361087 0.16051735 0.57791293 145 145 143
0.20040137 0.25409833 0.91483378 173 169 163
0.20143889 0.25341433 0.91237128 174 164 160
0.20247084 0.25273404 0.90992194 165 154 151
0.20514500 0.25409833 0.91483378 159 147 144
0.20672622 0.25409833 0.91483378 154 141 141
0.20802671 0.25375587 0.91360086 141 132 131
0.20988865 0.25409833 0.91483378 134 127 124
0.21146987 0.25409833 0.91483378 132 128 130
0.21276397 0.25375587 0.91360086 136 134 134
0.21376686 0.25307372 0.91114497 146 146 145
