ply
format ascii 1.0
element vertex 1013
property float x
property float y
property float z
property uchar red
property uchar green
property uchar blue
end_header
-0.84339933 -0.82399052 1.69472957 43 24 34
-0.84612072 -0.82557669 1.70793603 40 25 34
-0.84508165 -0.81245969 1.69614891 37 24 32
-0.84586114 -0.81391531 1.71258491 41 28 35
-0.84817696 -0.81242454 1.72934407 46 30 40
-0.82181674 -0.84823281 1.69050336 53 25 34
-0.82151455 -0.82163262 1.67795014 41 23 29
-0.83401730 -0.82593027 1.69390538 39 24 32
-0.83863306 -0.82548685 1.70539099 40 25 35
-0.83311534 -0.80133122 1.67795014 37 24 32
-0.82751708 -0.80965314 1.68951258 38 26 34
-0.83473553 -0.80978017 1.70647444 40 28 35
-0.80001259 -0.85169464 1.65743732 52 24 31
-0.80814751 -0.84719048 1.66831684 54 26 33
-0.81875533 -0.84943765 1.68420595 55 27 34
-0.80001259 -0.83737093 1.65743732 63 26 34
-0.80901443 -0.82720609 1.67222622 47 24 31
-0.80029386 -0.82367140 1.68211377 44 26 33
-0.81027439 -0.81560220 1.67629290 40 25 32
-0.81454287 -0.81009080 1.68886969 41 27 36
-0.80183589 0.11527718 1.81740439 131 131 136
-0.80332343 0.12644705 1.81671020 113 114 118
-0.81029075 0.12503611 1.82228994 125 126 129
-0.79436868 -0.84580553 1.64995490 52 24 31
-0.79390685 -0.83145427 1.65619344 61 26 35
-0.79708496 -0.82433431 1.66500447 51 25 32
-0.79149443 -0.81758517 1.66968429 44 26 34
-0.78785257 0.09261853 1.80932920 134 134 138
-0.79154818 0.10977552 1.81301770 138 140 143
-0.79072260 0.12704903 1.81279837 128 128 130
-0.77675998 0.09683440 1.79574311 131 132 136
-0.77221518 0.11697306 1.79527245 125 128 130
-0.77829930 0.10812507 1.80290389 132 133 137
-0.76781144 0.12362270 1.79416166 117 122 126
-0.77738965 0.12803398 1.80350485 128 129 130
-0.75623149 0.11777871 1.78392589 127 136 137
-0.75565138 0.12530764 1.78864113 130 134 139
-0.62109298 -0.38141921 1.43015158 77 80 105
-0.62086198 -0.36152364 1.39627713 67 67 78
-0.62109298 -0.37647542 1.43015158 76 82 104
-0.62180076 -0.34990150 1.39551863 74 77 95
-0.62650073 -0.34035027 1.40350282 81 87 105
-0.62150139 -0.33894676 1.39771509 76 89 108
-0.62500689 -0.33399909 1.40741352 67 80 96
-0.60736339 -0.36386653 1.39548609 72 79 100
-0.60713467 -0.36674631 1.40950334 74 82 107
-0.61848330 -0.37735510 1.42414248 75 80 105
-0.60391957 -0.35244069 1.34769750 58 49 60
-0.61616945 -0.35721296 1.37503421 57 48 57
-0.61023777 -0.35136457 1.39223795 75 84 105
-0.60831834 -0.35556096 1.40448348 73 84 107
-0.61332204 -0.33434511 1.39183662 70 84 102
-0.59929357 -0.36444598 1.41227776 69 80 108
-0.59931433 -0.35384762 1.35307753 80 81 99
-0.59792718 -0.34873121 1.39001557 70 83 107
-0.59833224 -0.35704548 1.40715474 74 88 112
-0.59098046 -0.33602692 1.37392981 72 84 108
-0.59750712 -0.33616760 1.38133955 70 85 107
-0.48491549 -0.10715548 1.74624560 37 35 43
-0.48432089 0.37791705 1.15590766 85 86 89
-0.48880738 0.37538473 1.16548074 106 106 108
-0.48403877 0.38281792 1.15240043 83 85 86
-0.49241567 0.38375244 1.16276991 84 85 85
-0.46083795 -0.28175595 0.88209775 145 107 96
-0.46132453 -0.27610423 0.87866771 136 100 79
-0.46185107 -0.27352209 0.88614502 134 93 79
-0.46675834 -0.12076998 1.73373878 36 35 42
-0.46916198 -0.10982248 1.73596225 35 34 40
-0.47970024 -0.10934276 1.74265254 35 33 41
-0.47019598 -0.09764184 1.73237789 47 47 52
-0.46158326 -0.08731183 1.75392753 68 68 72
-0.46033752 -0.08613217 1.76075804 86 86 88
-0.46524597 0.37077300 1.13212271 90 93 96
-0.47379820 0.37330121 1.14983079 88 89 92
-0.47774646 0.37201691 1.16376540 96 96 98
-0.47546689 0.38113539 1.13550043 94 95 100
-0.47894094 0.38293071 1.14380240 90 93 97
-0.45381698 -0.28259594 0.88536672 140 105 91
-0.45639851 -0.27705468 0.87858679 136 99 79
-0.45076220 -0.27475622 0.88606893 133 98 85
-0.45021867 -0.10641022 1.73030627 36 36 40
-0.45259196 -0.10934276 1.74265254 34 33 39
-0.44705047 -0.09651137 1.72870176 49 48 54
-0.45678279 -0.09074784 1.74716136 57 58 62
-0.44228321 0.21262753 1.11129808 127 126 130
-0.44382649 0.35526140 1.11145413 122 126 127
-0.44960027 0.35487832 1.12382774 118 122 123
-0.44600607 0.36738144 1.10667298 106 109 113
-0.45715763 0.36727421 1.12556705 101 103 106
-0.43895171 -0.27207069 0.88613463 131 99 88
-0.42198688 -0.10619872 1.71618187 39 38 42
-0.43304115 -0.10760657 1.72320348 38 37 41
-0.42092127 -0.09853356 1.71184814 48 47 53
-0.43429702 -0.09773030 1.72382392 49 47 52
-0.43022053 0.21422121 1.10689202 111 111 115
-0.42343747 0.22618558 1.09590464 123 127 129
-0.42865593 0.22295371 1.10492302 122 126 126
-0.43678368 0.35705273 1.10226566 124 128 129
-0.43482560 0.36585874 1.09493020 98 101 103
-0.43900537 0.36783204 1.10107072 104 107 109
-0.41849153 -0.10310023 1.71401501 40 39 42
-0.41447744 0.21876071 1.09869015 112 113 121
-0.41353990 0.21496179 1.10521494 124 126 130
-0.41222437 0.22750877 1.09343804 117 119 127
-0.41232810 0.22216324 1.10311106 114 115 122
-0.36108044 0.16827491 0.73924953 77 71 78
-0.36248025 0.17328593 0.74332264 61 59 66
-0.36129781 0.18204994 0.75940110 95 95 97
-0.36492684 0.18453387 0.76425236 78 78 81
-0.36110592 0.28773341 1.30363810 103 104 108
-0.37121743 0.29280970 1.33183163 103 103 108
-0.34972763 0.16596145 0.73873437 112 111 109
-0.35214349 0.17060106 0.74443067 114 113 112
-0.35705194 0.18056652 0.75321317 104 105 107
-0.35129169 0.27562140 1.29559603 98 96 101
-0.34614702 0.27708287 1.30364519 101 101 103
-0.35495475 0.28666711 1.29762093 107 109 111
-0.34651976 0.28785958 1.30739243 120 121 122
-0.34479113 0.30339476 1.31097610 90 93 97
-0.35375540 0.30519714 1.32921730 105 108 110
-0.32931650 0.05979479 0.61016369 128 131 134
-0.32404255 0.06513791 0.60783439 161 159 156
-0.32380879 0.27091879 1.29864335 120 120 129
-0.33112421 0.27684250 1.30682559 137 137 137
-0.33750775 0.29932871 1.25768435 114 114 114
-0.32809016 0.29018787 1.29781568 107 108 109
-0.33401761 0.28867292 1.30574011 121 122 124
-0.32811168 0.30519695 1.25548944 116 118 120
-0.32867770 0.30942852 1.26595747 116 117 121
-0.33490420 0.30329224 1.29123474 105 108 113
-0.33567482 0.30067459 1.30113602 94 95 102
-0.32084677 0.33810436 0.95680387 120 123 121
-0.32518663 0.33889652 0.96911656 106 108 110
-0.32307966 0.34798920 0.95172742 114 115 113
-0.32780237 0.34079377 0.96797220 102 104 109
-0.31624279 0.06807348 0.60825461 151 151 148
-0.30162283 0.25862767 0.75004902 89 89 92
-0.30114479 0.25429966 0.76750125 91 92 98
-0.30643815 0.26708317 0.75324712 111 113 115
-0.31438418 0.26354791 0.76266661 108 110 112
-0.31423849 0.29900846 1.24728060 125 125 127
-0.31853446 0.29988509 1.26002204 134 136 138
-0.31329349 0.30137703 1.23929036 109 110 114
-0.31727212 0.30496981 1.25074100 114 114 119
-0.31601138 0.33742249 0.95478044 126 126 124
-0.31791320 0.33696566 0.96338411 104 107 107
-0.30541308 0.34389276 0.91115920 134 139 140
-0.31325466 0.34600258 0.93387945 122 124 126
-0.31552061 0.34579383 0.94890671 129 128 126
-0.31510358 0.34996180 0.96325792 125 127 127
-0.28204080 -0.20148964 0.50740433 130 144 149
-0.28582365 -0.19061430 0.50655563 155 135 132
-0.28748633 0.03197282 0.59587621 139 140 142
-0.29232816 0.04003098 0.59849203 136 135 139
-0.28454642 0.10949524 1.55658489 133 134 137
-0.28754190 0.10796274 1.56557343 124 126 127
-0.28560807 0.25589479 0.73531160 119 121 121
-0.29424272 0.25730125 0.74673186 97 97 99
-0.29834822 0.25457656 0.76356810 84 85 91
-0.28826882 0.26385053 0.73664700 110 114 114
-0.29334833 0.26535116 0.74123943 101 104 105
-0.26275178 -0.38749808 0.79414140 106 68 60
-0.26485727 -0.37549813 0.78792133 73 50 48
-0.27894572 -0.20191296 0.50669328 131 144 152
-0.27857674 -0.19657935 0.50491868 147 137 136
-0.27812948 0.03348125 0.59380119 137 137 138
-0.27066946 0.07784479 1.51653659 180 181 179
-0.26463384 0.07763497 1.52966330 139 138 143
-0.26986557 0.08846696 1.53358939 134 133 137
-0.27117142 0.08897405 1.54066324 138 135 140
-0.27497529 0.10696525 1.54988523 124 123 131
-0.26408023 0.24780859 0.71508502 93 94 95
-0.27400315 0.25475592 0.72624892 124 126 125
-0.27586298 0.26130413 0.72820893 151 151 150
-0.25799564 -0.38750138 0.79384014 110 72 61
-0.25781770 -0.37505470 0.79042053 84 55 52
-0.24480246 0.07802193 1.48988657 147 147 151
-0.25222232 0.07740834 1.50811884 140 141 144
-0.25872099 0.07819466 1.52335250 168 168 170
-0.24764126 0.08670771 1.49504776 125 125 131
-0.25415199 0.08877435 1.50923715 132 130 137
-0.25942130 0.08632310 1.52747586 127 125 130
-0.23320255 0.07759180 1.48661565 122 125 132
-0.22214285 0.08751235 1.47624640 145 146 147
-0.23096043 0.08904535 1.48468041 138 138 143
-0.23480921 0.10491406 1.49513588 129 129 134
-0.23969127 0.10443297 1.50308609 154 154 160
-0.21955999 0.08662218 1.47261234 144 147 149
-0.20571610 0.15747006 0.61456812 126 128 127
-0.20458302 0.16431151 0.61084282 134 134 133
-0.20177783 0.18198696 0.61682606 108 106 113
-0.18439537 -0.26727566 0.62974778 59 59 65
-0.19231715 -0.24172223 0.47553585 66 32 38
-0.18611576 -0.25912505 0.62790229 81 95 101
-0.19125382 -0.23740660 0.47571276 59 39 42
-0.19730441 -0.23730890 0.48180286 57 37 42
-0.18366286 -0.18306191 1.41186222 45 44 49
-0.18742434 -0.18199247 1.42190328 45 45 49
-0.18187833 -0.17462750 1.41699948 45 44 46
-0.18692262 -0.16956578 1.42630626 44 44 46
-0.18491050 -0.15429609 1.42660936 42 42 45
-0.19689775 0.15906923 0.60270527 155 149 147
-0.19002101 0.17180996 0.59990430 113 116 117
-0.19494763 0.17061904 0.60436946 120 120 122
-0.19873488 0.18067311 0.61237291 127 125 131
-0.17579060 -0.26638736 0.63467158 51 47 52
-0.17398172 -0.18136422 1.40467961 47 44 47
-0.17504288 -0.18005563 1.42115688 46 45 47
-0.17457142 -0.17950149 1.39771509 48 44 47
-0.17254988 -0.17075934 1.41258621 45 44 45
-0.17543184 -0.16610303 1.42265284 44 43 45
-0.17401854 -0.15523804 1.41564776 43 42 44
-0.17865704 -0.15418253 1.42200991 43 43 45
-0.16778254 0.09303378 0.46866914 132 133 136
-0.17120638 0.10598019 0.47054260 116 117 120
-0.16013514 0.15829803 0.67993164 124 122 132
-0.16246778 0.15826639 0.68232852 96 95 108
-0.16157383 0.16619110 0.67857039 122 120 125
-0.16239189 0.16518676 0.68484282 129 128 133
-0.15306503 -0.26142951 0.61637271 66 45 46
-0.14968384 -0.24950357 0.61009066 57 50 56
-0.14079317 -0.23305879 0.59601915 73 80 86
-0.14802549 -0.23872939 0.60683066 78 83 92
-0.15437856 0.09080987 0.45756694 126 127 128
-0.15833971 0.08799200 0.46119089 124 124 128
-0.15094721 0.15866379 0.50543873 127 128 128
-0.15159926 0.15837799 0.67506259 134 134 137
-0.15295203 0.15888354 0.68143598 143 143 142
-0.14896890 0.17466738 0.49567491 139 139 140
-0.15222697 0.16598306 0.50343126 126 129 130
-0.15177052 0.17454103 0.65398320 142 143 144
-0.15037929 0.16791468 0.67154213 132 133 134
-0.15496169 0.17221370 0.68198513 109 109 110
-0.15035869 0.18115356 0.64938479 145 147 150
-0.13732421 -0.24093307 0.59919894 45 36 42
-0.13912238 -0.24833604 0.60555310 52 39 42
-0.13400875 -0.22955484 0.59091054 70 72 82
-0.13946043 -0.23870092 0.60096794 71 73 81
-0.12287956 0.15056247 0.85707615 121 121 126
-0.12599861 0.14944292 0.86337285 116 116 121
-0.13934942 0.17518003 0.65942788 198 200 194
-0.13931184 0.17380119 0.66286868 193 192 191
-0.10164589 0.11582376 0.49896661 118 118 119
-0.10274555 0.11662933 0.50095525 113 113 115
-0.11251252 0.15069454 0.85517917 174 173 171
-0.08436221 -0.18984749 0.48728314 56 46 51
-0.08998494 0.07452405 0.46653146 136 135 137
-0.09038203 0.08072416 0.46599276 126 127 130
-0.09229180 0.11021221 0.49117683 142 142 144
-0.07683818 -0.18470564 0.47733269 57 47 52
-0.07916046 -0.18528021 0.48077564 62 57 62
-0.07534246 -0.17919046 0.47764130 72 75 83
-0.06276083 0.33270490 0.81570455 187 186 177
-0.06596334 0.33132384 0.82159350 199 199 189
-0.06201950 0.34479971 0.81680980 120 118 117
-0.06494185 0.34752918 0.82351012 113 113 109
-0.05787036 -0.24148653 0.59937407 126 80 73
-0.05333164 -0.24320937 0.60511172 131 82 75
-0.05687587 -0.23510229 0.59949210 87 55 54
-0.05222553 -0.23687703 0.60209026 105 67 62
-0.05388021 0.33703389 0.80996166 140 130 130
-0.05536777 0.34476310 0.79564768 0 0 0
-0.05461289 0.34301953 0.80756269 80 76 76
-0.00906450 0.12948332 0.47412397 180 176 173
-0.00172761 0.12772793 0.48080611 181 178 175
-0.00361205 0.17706046 0.59320251 155 153 149
-0.00753575 0.17818896 0.60043561 170 166 160
-0.00453802 0.18103250 0.59192351 166 162 158
-0.00303158 0.18827967 0.92528653 203 198 193
-0.00396689 0.24639647 0.69872423 154 154 151
-0.00354980 0.24506676 0.70143152 148 145 140
0.00523069 0.13406513 0.47253544 161 158 155
0.00102843 0.12882949 0.48026349 175 170 167
0.00757401 0.14101628 0.47434914 167 161 159
0.01164006 0.17925235 0.47858750 159 159 157
0.01389478 0.17946509 0.48026349 164 163 159
0.00273543 0.17717902 0.58730671 152 151 149
0.01540305 0.17903839 0.91508271 170 168 169
0.01300295 0.17819381 0.92618637 147 142 147
0.01374033 0.18423116 0.47870548 163 162 160
0.01025614 0.18380502 0.48164347 156 155 154
0.00109127 0.18060381 0.58913004 155 154 152
0.01850133 0.18348318 0.87470694 173 168 166
0.01515277 0.18507125 0.89122201 181 178 178
0.01166084 0.18624547 0.91190672 170 169 170
0.00496747 0.18615329 0.92565852 158 153 154
0.00460208 0.24721422 0.69785848 148 147 144
0.00544197 0.25227997 0.70148075 147 147 144
0.03537903 0.17235156 0.49456015 154 151 150
0.03022190 0.17682551 0.50145919 150 146 144
0.02382532 0.17968507 0.87582928 186 181 176
0.02039126 0.18809919 0.47688887 174 173 167
0.03863884 0.18483386 0.49903477 155 152 147
0.03426755 0.18515626 0.50349435 158 156 153
0.02219081 0.18248833 0.87114128 171 164 162
0.03841900 0.45901442 1.74489820 180 172 170
0.03917521 0.44191146 1.77924371 145 145 147
0.03700094 0.46473680 1.74942452 171 164 160
0.03272410 0.46683688 1.76305068 177 171 170
0.04088379 0.17089675 0.48647004 166 164 160
0.05756163 0.21318066 0.67794549 161 157 151
0.05900686 0.21800884 0.68363926 171 172 164
0.05779635 0.22930343 0.68767472 169 165 163
0.05759196 0.27432256 0.71391258 154 153 146
0.05756712 0.28437371 0.71799389 131 127 128
0.05573585 0.28802845 0.72077835 125 126 128
0.05848661 0.39602460 1.55658489 169 165 162
0.05715453 0.39787528 1.56919968 175 172 168
0.05782167 0.39796305 1.58757452 172 172 168
0.05198287 0.39681303 1.60511891 164 163 162
0.05855376 0.40052110 1.55837202 167 166 162
0.05624816 0.40330249 1.56919408 169 169 162
0.05429747 0.40743026 1.59168563 173 171 165
0.05185781 0.40848771 1.60830019 172 170 167
0.04787510 0.41133412 1.63054821 177 175 172
0.04605244 0.41404930 1.65098886 169 169 168
0.04386968 0.41512066 1.66558194 159 160 160
0.05645739 0.42319697 1.61403739 152 145 147
0.05418367 0.42725945 1.62955713 150 146 147
0.05216018 0.43175807 1.64824196 157 152 151
0.04922508 0.43455007 1.66834390 169 162 160
0.04575881 0.43232426 1.68211377 184 178 177
0.04239911 0.42936121 1.72272664 154 154 155
0.04138159 0.43282333 1.74265254 155 155 156
0.04236168 0.43999103 1.78392589 148 148 149
0.05338844 0.44501832 1.64838076 128 128 131
0.05131892 0.44176149 1.67380702 140 139 141
0.05129976 0.45260347 1.68910511 136 135 137
0.04882014 0.45210012 1.71293700 149 146 146
0.04442722 0.45483407 1.73241868 171 164 162
0.05144595 0.46025616 1.67795014 124 125 128
0.04965185 0.46925986 1.71618187 127 127 130
0.04520673 0.46477828 1.73214889 141 139 136
0.07838589 -0.06414462 0.48231773 99 99 109
0.07622906 -0.04868433 0.48217597 128 128 136
0.07647534 -0.03634391 0.48117391 176 175 180
0.07446665 0.21329741 0.67585547 159 158 157
0.06637088 0.21499688 0.68422235 134 133 134
0.07390097 0.22852926 0.67569356 151 151 150
0.06540291 0.22621700 0.68481987 145 143 142
0.06413587 0.24469500 0.67606999 140 137 130
0.06283732 0.25672186 0.69045367 130 127 122
0.06262264 0.26244694 0.69802010 138 135 130
0.06243279 0.27381162 0.70914047 136 134 132
0.06452440 0.28613248 0.71454041 117 116 122
0.06292816 0.38887629 1.53369200 169 164 160
0.06072417 0.39308917 1.54506218 166 163 160
0.06110680 0.40228981 1.55479777 154 153 153
0.06021486 0.41742325 1.60258114 156 150 150
0.09665210 -0.24268023 0.83334968 202 203 209
0.09860211 -0.23116136 0.83203917 183 185 187
0.09894337 -0.21634641 0.83279097 66 64 73
0.09746632 -0.08262115 0.86438375 205 204 212
0.08436333 -0.06327076 0.47975361 54 53 61
0.08202851 -0.06394581 0.48197662 96 95 105
0.09776010 -0.07662635 0.86498937 205 205 214
0.08248385 -0.04922084 0.48326629 134 133 140
0.08917521 -0.03612841 0.47650004 142 140 143
0.08174384 -0.03699977 0.48132940 198 198 205
0.09004223 0.01734785 1.05920601 146 146 152
0.09335686 0.01740201 1.06121366 149 149 155
0.08739781 0.02141619 1.05920601 145 148 151
0.09145827 0.02535040 1.06383350 153 153 158
0.08532559 0.15871391 0.55800087 149 146 141
0.08409398 0.15556762 0.56543396 153 151 147
0.09573971 0.15928367 0.81772238 134 131 132
0.08462047 0.16221649 0.55626825 136 134 135
0.08988094 0.16383538 0.56351513 126 126 127
0.09737932 0.17278193 0.81620847 178 176 174
0.09564844 0.17242142 0.82116839 172 171 172
0.09741285 0.18839397 0.77601038 177 173 172
0.09314736 0.18797136 0.78692346 170 165 166
0.09403538 0.18064647 0.81527707 171 170 169
0.09276580 0.18015739 0.82268429 176 175 173
0.08221752 0.21203265 0.67001139 172 167 163
0.09852178 0.20070323 0.77829146 174 168 168
0.09928502 0.20430889 0.78612498 171 164 165
0.08191043 0.22643536 0.65603451 181 179 172
0.08271130 0.22460727 0.66915804 151 149 149
0.10165777 -0.24357060 0.83145245 198 199 202
0.10234484 -0.22919106 0.82971123 164 165 169
0.10087917 -0.21586755 0.83095441 57 56 65
0.11844928 -0.14614575 0.85158327 163 164 170
0.11974693 -0.13986309 0.85809094 55 54 65
0.11901706 -0.12881324 0.86355650 52 51 58
0.11106592 -0.10016037 0.84842533 202 201 210
0.11278379 -0.09361376 0.85167252 201 201 208
0.10927875 -0.08497245 0.86260802 113 112 121
0.10850954 -0.07387280 0.86471335 105 105 115
0.11070640 -0.01126978 1.29578305 193 191 193
0.10980639 -0.00449953 1.30762418 193 192 193
0.11840102 -0.00069104 1.32400751 193 190 191
0.10021307 0.01592393 1.05920601 141 141 151
0.10386910 0.01780006 1.06181490 142 141 149
0.10691250 0.00616665 1.30815435 194 191 192
0.11817022 0.00159429 1.32142663 168 162 164
0.10358867 0.02463866 1.06516426 144 144 152
0.10292979 0.15774447 0.80981367 152 148 154
0.10935239 0.16775326 0.57796096 144 142 141
0.11019688 0.16536679 0.58219726 148 146 146
0.10259935 0.16944419 0.81460645 171 167 166
0.10034294 0.17191942 0.82069230 171 166 167
0.10749385 0.18972846 0.77516035 163 159 158
0.10525486 0.19649492 0.78134252 163 156 154
0.10486930 0.20115320 0.77847077 147 142 144
0.10601140 0.20428227 0.78497386 135 131 136
0.13099927 -0.14791875 0.84670367 129 129 136
0.13150007 -0.13554693 0.85508033 116 116 124
0.12594454 -0.13111679 0.86079174 81 81 90
0.12434659 -0.01185741 1.29404146 166 166 169
0.12329958 -0.00469839 1.31123544 149 146 151
0.12578348 -0.00068969 1.32142663 141 138 145
0.12693510 0.00272719 1.31757528 133 132 140
0.12057183 0.00273783 1.32271707 145 140 142
0.13762346 0.03301867 0.64670423 141 140 143
0.13788250 0.04200624 0.64469104 143 144 146
0.14307555 -0.14316618 0.84262616 129 131 138
0.14309161 -0.13487654 0.84914794 199 200 207
0.14267253 0.03400381 0.64796842 152 150 153
0.14496836 0.04218577 0.64516124 142 141 143
0.15109598 0.17030046 0.75968478 177 175 167
0.14904065 0.17376459 0.76688392 157 154 154
0.15501770 0.19074647 0.77264963 164 161 159
0.15498161 0.20045526 0.77473354 135 129 135
0.17733074 0.15886728 0.65096294 168 160 161
0.17576652 0.16768514 0.65541441 159 155 153
0.16924139 0.16665851 0.66899344 162 160 158
0.16566528 0.16823783 0.68876755 165 161 159
0.16571602 0.17172574 0.70117081 155 153 153
0.16190418 0.19510398 0.76946869 159 155 150
0.16620054 0.25478002 0.65330373 132 127 127
0.16529013 0.25888675 0.66071332 157 153 150
0.16960748 0.26125374 0.65900105 122 121 119
0.16639651 0.26872713 0.66890422 144 139 132
0.16737879 0.28252771 0.67761863 28 28 27
0.16673958 0.28580082 0.68061429 0 0 0
0.18048357 0.15854277 0.64963296 153 148 149
0.18319462 0.16999251 0.65522492 169 169 166
0.19857017 0.26465814 0.91855375 163 159 153
0.19911996 0.26929197 0.92355835 155 152 151
0.21279321 -0.40277861 0.97329491 108 109 117
0.20900271 -0.38950335 0.96604549 109 110 116
0.20989230 -0.37776128 0.96577756 107 108 118
0.21127849 0.15843095 0.51709933 146 142 141
0.20830866 0.16715215 0.51674787 156 154 147
0.21119288 0.17490109 0.52196602 129 124 121
0.21619891 0.16284619 0.67782655 163 162 159
0.21677619 0.16476910 0.68100537 155 152 151
0.21334920 0.18423572 0.52639062 154 153 147
0.21023240 0.23841344 0.90779310 141 140 140
0.20832235 0.25201397 0.91391701 148 144 142
0.21276244 0.25168216 0.92272219 154 154 146
0.20518734 0.26274862 0.91636934 147 141 140
0.20748712 0.27140323 0.92672813 156 154 152
0.21194898 0.28052238 0.93438016 161 160 152
0.21386964 0.28523584 0.94283505 155 147 146
0.22403439 -0.40852284 0.98722671 109 110 115
0.23924257 0.10441210 0.45896640 152 152 151
0.23692318 0.10934612 0.46575081 159 156 154
0.22597069 0.15839379 0.68543160 148 144 150
0.22810991 0.16761566 0.67988906 171 169 163
0.22976575 0.16811461 0.68391159 167 163 160
0.24458115 0.10871552 0.45601937 147 145 142
0.24020613 0.11142771 0.46703149 172 171 165
0.25439398 0.12532076 0.45238765 161 158 153
0.25802155 0.18872368 0.91730964 174 174 173
0.25707723 0.19534354 0.92700550 158 157 157
0.25313607 0.20587328 0.93551099 155 152 150
0.24964359 0.20825108 0.94512561 167 164 161
0.25881725 0.30884923 1.70668242 157 150 151
0.24840128 0.31319587 1.72884699 166 159 158
0.24683443 0.31918657 1.74714386 166 162 158
0.25875477 0.32314457 1.73596150 138 137 137
0.25380994 0.32656026 1.74941053 144 143 142
0.25223985 0.33313119 1.77165062 143 139 139
0.24813873 0.33699556 1.78549488 128 126 129
0.25701126 0.34206049 1.77575648 150 149 153
0.25210099 0.34515630 1.79100375 140 142 146
0.26211607 0.19038107 0.91638246 180 174 174
0.26353148 0.19620937 0.92799988 178 175 173
0.26580348 0.20570480 0.93532419 175 174 171
0.26634863 0.20753271 0.94424487 164 161 161
0.26058528 0.30745038 1.69897699 156 151 152
0.26218280 0.31272862 1.70939967 144 143 144
0.27662185 0.31248143 1.72574629 141 140 142
0.27037734 0.32631032 1.73095844 124 124 131
0.26126006 0.33192019 1.74265254 115 113 120
0.29997563 0.14639015 0.77918601 178 176 174
0.29947818 0.14535317 0.78291968 182 178 177
0.28864563 0.26912615 0.69543835 176 171 163
0.29241783 0.27369823 0.71174777 168 167 160
0.29416094 0.27683992 0.72306516 163 162 158
0.29015209 0.28828868 0.71403739 149 147 141
0.29137816 0.28844094 0.72659684 156 154 150
0.29034496 0.31701882 1.69264104 167 166 161
0.28850647 0.31596996 1.70934004 162 161 160
0.28209350 0.31323318 1.72272664 144 143 145
0.28922585 0.32279238 1.69472957 161 159 157
0.28327274 0.32309245 1.71185899 161 160 161
0.28176707 0.32649444 1.72987157 136 136 139
0.29324226 0.42739889 1.63544714 177 176 169
0.29360259 0.43208751 1.65339470 177 175 170
0.29414609 0.43500307 1.66456136 171 169 165
0.29724869 0.43377796 1.68211377 172 172 169
0.28876330 0.43566216 1.73596150 145 140 142
0.29233450 0.43463774 1.74835556 137 137 138
0.29577902 0.44320713 1.67381722 143 134 135
0.29801345 0.45021272 1.69472957 133 127 129
0.29788004 0.44708496 1.71078643 164 163 160
0.29273257 0.44984981 1.73285871 151 149 149
0.29326958 0.44445971 1.75091775 148 142 144
0.28789547 0.44594194 1.77691483 131 131 133
0.28979400 0.45351797 1.78863287 126 126 128
0.31508396 0.13894096 0.77769641 144 143 143
0.31300984 0.13673114 0.78319179 151 150 150
0.30986627 0.14556301 0.77734088 147 145 144
0.30874025 0.14516092 0.78194841 160 156 153
0.30094266 0.31839857 1.69472957 147 146 142
0.30227746 0.31439696 1.70939345 145 147 147
0.30019218 0.32052645 1.69050336 144 143 139
0.31052029 0.42324846 1.63217179 167 163 158
0.31069036 0.42735682 1.64805039 167 163 159
0.30660813 0.42955527 1.67134562 172 170 166
0.30818816 0.43242994 1.68630509 173 170 165
0.30668401 0.43368367 1.71041804 174 173 168
0.30448094 0.43406748 1.72692800 173 172 166
0.30150368 0.43438030 1.74895906 156 156 152
0.30204719 0.44174768 1.73043856 168 168 164
0.30236019 0.44623204 1.75392753 169 166 163
0.30049437 0.44645017 1.76075804 169 164 163
0.33244947 0.04788191 0.57877838 145 145 144
0.33165432 0.04747788 0.58085088 153 153 150
0.33556690 0.17908145 0.49708845 145 146 138
0.33085171 0.17905120 0.50117750 121 124 124
0.32716666 0.18077213 0.45042646 141 141 141
0.33517626 0.18227100 0.49817962 150 147 137
0.33112066 0.18214314 0.50174277 136 135 132
0.34351389 -0.22464756 0.52922830 101 107 109
0.34580406 -0.21660135 0.53189876 99 105 109
0.34122834 0.04626441 0.57939476 135 135 129
0.34112991 0.18191102 0.49559548 160 158 151
0.37684654 -0.09404491 0.45178116 91 95 99
0.36553942 0.38770195 1.17012946 174 171 162
0.36981020 0.39504973 1.19229412 175 173 163
0.37169091 0.39830359 1.21163672 174 172 165
0.37400110 0.39622304 1.22919227 175 171 165
0.37183901 0.40770774 1.19558241 171 168 164
0.37608590 0.41229755 1.20865747 168 166 161
0.37332302 0.40964808 1.22799346 171 169 166
0.37283227 0.41029876 1.24156010 165 164 164
0.37273717 0.42242324 1.19980860 172 173 166
0.37683729 0.42254158 1.20407840 172 172 166
0.37719618 0.42121915 1.23478389 168 167 163
0.37899613 0.42698314 1.24536816 162 161 160
0.36591101 0.68385291 1.87781680 148 147 146
0.36854980 0.68337207 1.88946659 151 151 148
0.37539592 0.68550944 1.90955448 153 149 148
0.36968863 0.69214873 1.92804873 153 152 151
0.37303568 0.69944999 1.95781341 156 154 154
0.37602851 0.70163903 1.97348845 155 153 152
0.38515761 -0.09084673 0.45203199 91 96 101
0.39949579 0.13308720 0.48644015 155 155 148
0.39885924 0.14072905 0.48745840 174 174 167
0.39812624 0.40411469 1.17079771 151 147 142
0.39457916 0.40757596 1.19283124 122 115 118
0.38914970 0.41495506 1.21053996 137 132 133
0.39441901 0.41763172 1.22529700 134 131 129
0.39773676 0.42083168 1.21922994 104 105 106
0.39630229 0.42493660 1.22666640 140 139 137
0.38055408 0.43164478 1.26002204 163 162 161
0.38638586 0.68744594 1.91494870 161 160 155
0.38802394 0.69165613 1.93133923 153 151 147
0.39061870 0.69416239 1.95406011 145 140 140
0.39250114 0.69456413 1.96890888 147 142 142
0.39005038 0.69715758 1.98992451 151 150 149
0.38229078 0.70061773 1.97061586 149 142 143
0.38277760 0.70437986 1.99087608 148 147 147
0.41884404 0.10721745 0.49745381 142 139 135
0.41732320 0.11272286 0.50297309 156 154 143
0.40312553 0.13312046 0.48601212 157 158 150
0.40276731 0.14138055 0.48762673 170 171 164
0.40515440 0.41568095 1.19319613 161 157 153
0.40799131 0.42173199 1.19980860 172 169 162
0.41104772 0.43073105 1.21176734 161 158 154
0.40844887 0.43107971 1.22638904 133 130 130
0.41360506 0.43926889 1.24156010 144 143 145
0.41453613 0.44455547 1.23158351 145 141 141
0.41556921 0.44580318 1.25304587 134 134 132
0.41687736 0.44948669 1.26119524 129 128 127
0.41037807 0.63870668 1.88827813 144 144 143
0.41267711 0.64556688 1.89885676 137 137 137
0.41112331 0.64335057 1.90687251 146 146 144
0.41246231 0.65483554 1.92858803 139 140 140
0.41134061 0.65651794 1.94424403 151 151 151
0.41598461 0.66476080 1.95134623 140 141 140
0.41744843 0.67409647 1.96775985 147 147 141
0.40093359 0.69793713 1.95357883 142 141 139
0.41051372 0.69409899 1.97253644 148 146 136
0.41768464 0.69030625 1.98504627 165 164 148
0.41384780 0.70236926 1.97143660 128 126 123
0.43659908 -0.42439604 1.59129536 93 93 100
0.43934837 -0.42564464 1.60638779 96 97 102
0.43934891 -0.42410925 1.62175083 94 97 101
0.42274532 0.09928968 0.49437403 136 131 128
0.42184589 0.10338399 0.49495596 146 143 138
0.42144198 0.10920768 0.50246037 161 159 150
0.42977302 0.13232480 0.55617304 144 142 138
0.42584034 0.13636344 0.56297341 154 151 145
0.43086158 0.14116143 0.55862769 163 164 159
0.42647593 0.14352293 0.56329804 156 157 150
0.43699968 0.14586956 0.77510031 153 149 149
0.43905548 0.15684755 0.79253227 160 157 158
0.43835894 0.15633721 0.81161159 175 174 168
0.43988243 0.16105169 0.79845917 174 173 173
0.43848547 0.16133195 0.81379575 156 153 152
0.43954235 0.16115674 0.82368392 165 165 161
0.42231716 0.45205513 1.23253471 152 152 150
0.42225578 0.45623697 1.25131378 133 132 131
0.42132157 0.45839408 1.26472354 134 135 135
0.42866252 0.46434031 1.25422281 147 147 145
0.42609599 0.46717657 1.26778008 132 132 130
0.42874097 0.47338061 1.29370737 126 126 125
0.43042304 0.47683862 1.31248313 121 121 120
0.43851810 0.48598203 1.28958913 144 141 136
0.43311048 0.48297340 1.31374383 128 127 127
0.43402720 0.48674806 1.32847692 122 121 121
0.42186990 0.67470600 1.92583942 148 141 139
0.42356243 0.67443426 1.95118214 141 138 137
0.42023873 0.67481369 1.96490383 138 138 135
0.42195594 0.68330771 1.93132623 133 124 127
0.42215517 0.68816082 1.95219557 136 129 130
0.42219385 0.69004551 1.97206044 141 137 132
0.42091013 0.68825720 1.98407749 155 154 139
0.42023873 0.70198315 1.96490383 133 127 131
0.44142190 -0.42639789 1.59880149 95 95 102
0.45026723 -0.42574612 1.61359221 94 95 101
0.45410121 -0.42492191 1.62773911 92 93 101
0.45885289 -0.42073274 1.64138460 93 95 103
0.44039197 -0.41830637 1.61020350 92 95 103
0.44740315 -0.41847358 1.62892153 93 93 102
0.45532090 -0.40988699 1.65259797 90 93 99
0.45104905 -0.38952042 1.65007221 90 93 98
0.45132180 -0.37621197 1.65018427 89 90 95
0.44045410 0.14898686 0.77517676 144 142 141
0.44179805 0.15622701 0.78804005 150 143 146
0.44434910 0.15693310 0.81262568 172 169 166
0.44208674 0.15769418 0.82418981 173 173 165
0.44512529 0.16070972 0.79224495 166 165 165
0.44279874 0.16122643 0.80927656 162 159 159
0.44051890 0.16228352 0.82218629 158 154 153
0.44122291 0.48889704 1.29535151 144 136 133
0.44189480 0.49259830 1.30614996 150 147 140
0.46106777 -0.42175265 1.61275641 95 96 102
0.46117696 -0.42051515 1.62954772 96 97 103
0.46168989 -0.42215124 1.64138460 94 97 104
0.46236597 -0.41650961 1.61403433 94 95 100
0.46315585 -0.41595546 1.62825451 93 95 98
0.46543382 -0.41100551 1.65103183 90 94 98
0.46447611 -0.41152996 1.66149962 91 93 100
0.46337733 -0.39729840 1.64537630 91 94 101
0.49021537 -0.10213411 1.34904252 53 49 51
0.49512650 -0.08244449 1.32959170 72 67 68
0.49177688 -0.09564546 1.34627991 50 45 49
0.49814409 0.04810640 0.54933883 167 167 163
0.50878144 -0.10393054 1.35218718 51 50 51
0.50878083 -0.10866219 1.36950533 52 50 52
0.51482081 -0.11526377 1.38063514 54 48 48
0.50675493 -0.08031584 1.31629479 75 72 74
0.50773221 -0.08424298 1.33405239 65 60 61
0.50679385 -0.09433703 1.34882575 48 46 47
0.51453822 -0.06382291 0.52834596 58 59 55
0.51619724 -0.05887014 0.52968289 59 59 57
0.50618014 0.04802303 0.54788604 155 155 149
0.51945148 0.23884910 0.62192044 135 132 127
0.51682662 0.24852217 0.61754480 138 134 129
0.51726936 0.24571762 0.62285402 134 133 129
0.52287023 -0.06176156 0.52962633 58 58 56
0.52403403 -0.05865289 0.53028927 54 58 57
0.53477045 0.13585184 0.59061940 157 158 151
0.53326852 0.14466971 0.59172452 149 149 143
0.53798301 0.20933689 0.55964672 167 167 156
0.53877955 0.21248202 0.56275129 158 157 149
0.53423104 0.23763806 0.61802565 135 134 126
0.53114840 0.23733010 0.62410258 134 131 125
0.53008954 0.24545490 0.61824416 128 127 125
0.52827729 0.24537409 0.62331518 108 108 107
0.53455905 0.58889698 1.47176821 160 160 158
0.53528625 0.59785932 1.48011315 159 158 158
0.53827089 0.60127036 1.48011315 153 151 150
0.54725915 -0.40188536 0.76968924 106 112 110
0.55194968 -0.39651822 0.76990185 104 110 110
0.54281529 0.13414893 0.59405047 162 162 156
0.54119086 0.14244402 0.59181586 161 162 156
0.54244193 0.21701550 0.56890393 152 152 146
0.54847078 0.22830647 0.57622218 150 149 141
0.54846191 0.23042196 0.58038688 154 155 150
0.54008478 0.24685346 0.61907929 167 168 159
0.54107308 0.24837713 0.62021214 161 161 152
0.54804270 0.57449771 1.45338183 171 170 163
0.54713595 0.57831536 1.46731667 169 170 163
0.55262844 0.58850317 1.44906885 164 161 158
0.55292547 0.59051501 1.46922244 165 162 160
0.54897277 0.59365340 1.48386116 167 165 163
0.55567969 0.60353343 1.47315208 159 158 155
0.55050754 0.60664135 1.49016607 161 161 158
0.55569853 0.61625606 1.50419950 163 163 159
0.55577168 0.62097356 1.51146638 163 163 160
0.57473460 -0.40895021 1.10752074 100 101 105
0.56238301 -0.39492290 0.76897435 105 110 112
0.57876681 -0.39424708 1.10446057 99 104 107
0.56287551 0.62567782 1.51653659 167 165 162
0.56403977 0.62990534 1.52678347 164 161 160
0.59267090 -0.42395766 0.71884768 109 119 115
0.59659708 -0.42770964 0.72039515 110 117 115
0.59058768 -0.42184649 1.11229977 100 102 107
0.59211290 -0.42180903 1.12048233 101 101 102
0.59279059 -0.41432747 0.71815105 109 117 115
0.59734416 -0.41376403 0.72039515 109 117 117
0.59062923 -0.40994407 1.11375032 99 102 107
0.59211291 -0.41547763 1.12048233 99 101 107
0.58724926 -0.39353701 1.10342062 98 103 107
0.59349799 0.25351072 0.55227623 150 149 145
0.59243756 0.26309949 0.55406381 150 149 144
0.60080320 -0.42014623 1.11863339 97 103 106
0.60044146 -0.41519052 0.71963042 109 114 114
0.60080320 -0.41241238 1.11863339 93 99 105
0.60179621 -0.41696737 1.12048233 97 103 109
0.60006559 0.24678464 0.55839527 157 158 150
0.63830150 0.17775525 0.65312532 138 139 138
0.63973421 0.17991413 0.66006994 119 119 119
0.63601770 0.18432435 0.65113829 154 155 148
0.64186404 0.17762935 0.65453598 144 145 143
0.64186379 0.18699046 0.65431452 152 153 147
0.65194269 0.19436610 0.66343858 147 147 143
0.65284363 0.31647089 0.85195478 148 148 141
0.65046252 0.32737348 0.84976591 129 128 124
0.65623750 0.33046673 0.86439733 119 120 117
0.67221737 -0.20015043 1.06923008 94 95 98
0.67689985 -0.18637414 1.05920601 95 99 100
0.67546567 -0.19108183 1.06519416 90 93 99
0.67872658 -0.17005231 1.04883508 57 58 59
0.66251726 0.33528197 0.87432488 124 123 121
0.67512896 0.37824276 0.91624857 132 129 125
0.67614591 0.38144234 0.91813942 128 123 122
0.67768658 0.38384715 0.92374131 126 124 124
0.68736531 -0.18471799 1.05818991 89 93 94
0.68860737 -0.18733009 1.06447242 85 90 90
0.68580795 -0.17005390 1.05006658 56 57 57
0.69044452 -0.17838380 1.06286314 64 64 64
0.68068439 0.37896746 0.91855264 123 119 116
0.68589123 0.39700830 0.91622960 127 126 124
0.68746501 0.39331120 0.92906131 131 126 125
0.68507785 0.40256497 0.91805745 138 138 133
0.69054250 0.40543875 0.93349341 136 134 127
0.69300972 0.41262009 0.94751720 132 130 122
0.69340286 0.42291527 0.95454477 125 127 124
0.69795680 0.42771575 0.96589659 110 111 109
0.70080813 -0.18171179 1.06586945 76 77 77
0.70307994 -0.17921870 1.06838816 64 64 64
0.77642909 0.05757964 1.24785224 146 145 143
0.76814263 0.07044167 1.23883808 140 141 138
0.77177673 0.06794603 1.24594841 145 145 144
0.78531925 0.05782949 1.23778546 148 152 150
0.78793709 0.05645778 1.24987087 143 143 141
0.78362404 0.06749773 1.23590516 143 142 139
0.78304150 0.06706495 1.24524982 149 149 147
0.79953098 0.25645150 1.15288061 166 166 160
0.80454381 0.23667443 1.14780805 177 176 168
0.80338071 0.24526898 1.09691807 167 167 159
0.81147460 0.24740821 1.11029956 168 167 160
0.81392626 0.25220719 1.13396498 160 158 156
0.80679540 0.25163493 1.14805480 165 162 157
0.81986028 0.26043513 1.13549721 173 174 166
0.81400311 0.26131786 1.14799714 152 147 143
0.81962025 0.42542258 1.23253059 162 159 151
0.82123970 0.25294762 1.12972608 171 170 164
0.82005596 0.25780541 1.14123201 167 166 165
0.82476684 0.26141645 1.13549721 170 170 161
0.82732105 0.26470839 1.14426650 172 172 163
0.82967754 0.41770266 1.24765468 146 145 144
0.83458777 0.42572302 1.23753329 151 149 141
0.83376361 0.42450508 1.25119731 160 157 152
0.85108807 0.41906941 1.26575439 131 127 125
0.84232250 0.42882678 1.23929036 140 138 134
0.84958869 0.42887251 1.25228220 134 132 129
0.84960992 0.42810563 1.26360372 146 144 140
0.85496813 0.44444886 1.27083411 153 150 143
0.85437202 0.44895549 1.28145909 144 144 137
0.86994302 0.41920692 1.27184212 147 143 138
0.86351976 0.43193087 1.25768435 132 132 130
0.87013692 0.43056080 1.26500388 137 137 132
0.87873590 0.42459160 1.28145909 145 144 138
0.87244295 0.44843199 1.27055142 146 144 140
0.86925355 0.45592207 1.28933195 152 148 142
0.87929267 0.46042621 1.28876781 148 144 137
0.87083393 0.46212104 1.30614996 144 143 141
0.88485956 0.43355601 1.27591975 140 139 132
0.88884096 0.42940738 1.28592398 142 139 129
0.88428248 0.44829249 1.27372755 146 146 141
0.88610766 0.45505969 1.28528879 149 145 141
0.88425237 0.46050385 1.27663243 174 176 163
0.88871481 0.46544337 1.29031722 167 168 155
0.90562257 0.43469056 1.29616191 146 140 131
0.90797132 0.43673353 1.30113602 145 138 130
0.90156794 0.45374361 1.28876781 156 156 149
0.93931210 0.39596972 1.54066324 139 132 132
0.95449728 0.39966512 1.56557012 143 131 131
0.95540315 0.41153874 1.55125616 117 116 116
0.95179135 0.40237108 1.56557012 139 130 129
0.95312339 0.42429742 1.53716969 143 149 146
0.95843679 0.42361408 1.54682493 125 126 128
0.96305869 0.39808121 1.54887883 164 161 154
0.97892076 0.39992464 1.61019444 145 132 134
0.96868067 0.41075222 1.55334334 142 141 139
0.97319809 0.41079732 1.56606780 145 144 141
0.97240372 0.41105837 1.58873682 134 129 128
0.97429234 0.40357360 1.60258114 154 140 138
0.96566893 0.42325163 1.55480435 123 122 125
0.97367051 0.42893907 1.56376642 126 128 129
0.97660106 0.42118892 1.60637879 123 122 122
0.99800524 0.04983386 1.41007870 133 133 134
0.99015111 0.39999184 1.62175083 143 131 130
0.98559056 0.40938064 1.57344733 163 161 153
0.98819810 0.41070311 1.59186281 159 159 153
0.99215276 0.40724435 1.60798069 154 149 144
0.99332710 0.40842755 1.62467232 141 131 127
0.99341306 0.41526894 1.64337659 151 140 136
0.98476663 0.42875811 1.57502954 137 138 138
0.99190549 0.43331230 1.58304283 137 138 138
0.98710072 0.42594029 1.61174247 122 121 122
0.99329934 0.43131356 1.63152048 133 131 129
0.99988800 0.43246159 1.64937186 128 127 124
0.98840499 0.44332609 1.57649267 149 149 147
0.99439248 0.44266012 1.58385944 145 146 146
1.01764532 0.03353009 1.41620994 132 132 133
1.01885223 0.05362683 1.39771509 114 113 119
1.01242115 0.04961415 1.41192641 140 141 142
1.01665077 0.05136744 1.42235112 154 155 153
1.01707745 0.06108363 1.43091387 173 174 169
1.01340175 0.41008350 1.43621159 121 119 120
1.00043619 0.41173324 1.59129536 166 166 157
1.00752573 0.40661275 1.61264737 161 159 150
1.00879606 0.40776345 1.63153555 151 144 139
1.01381767 0.40723959 1.64537826 154 145 143
1.00043619 0.43648705 1.59129536 145 145 145
1.00724006 0.43851325 1.66149962 139 136 131
1.00043619 0.44198790 1.59129536 147 148 148
1.01180816 0.44176149 1.67380702 142 139 130
1.02183008 0.03350673 1.41522300 127 131 128
1.02855988 0.03664039 1.42294993 130 132 135
1.02504402 0.05357166 1.39627713 146 146 148
1.02503179 0.05040548 1.40742996 134 134 135
1.02906140 0.04107789 1.42329126 124 125 127
1.03021637 0.06076444 1.41523363 163 164 161
1.02770841 0.06414270 1.42730263 170 171 168
1.02458024 0.41359068 1.44851333 123 122 123
1.03392226 0.41560589 1.46888983 118 117 117
1.02448908 0.41036381 1.62955399 158 158 149
1.02895482 0.40702349 1.65028538 161 155 149
1.02806044 0.40692380 1.66149962 165 159 153
1.04002452 0.03756803 1.43015158 130 131 136
1.04266804 0.41859974 1.47048813 120 120 121
1.05026466 0.41933589 1.48663348 121 121 121
1.04854261 0.40787295 1.67010876 152 146 142
1.05302638 0.40811655 1.68420595 153 144 145
1.05460691 0.42210969 1.49645728 124 122 124
1.07361275 0.19903738 1.00843441 157 157 147
1.07463042 0.19839284 1.02304223 153 153 147
1.07350574 0.20321831 0.99895698 147 148 142
1.07464479 0.20409449 1.01090791 156 156 148
1.07678301 0.20980822 1.02246500 162 163 155
1.06926006 0.22273035 1.01709265 169 170 161
1.07711959 0.22159419 1.02401362 171 172 163
1.06140955 0.41003420 1.68211377 160 154 152
1.06139886 0.42195663 1.50978136 120 120 120
1.07550557 0.42651511 1.52610037 126 125 125
1.08172472 0.19764819 1.02529758 151 151 146
1.08203270 0.21142452 1.02789854 159 160 151
1.09549028 0.21005074 1.32530302 164 164 160
1.08287096 0.22166052 1.03258526 173 174 165
1.08233762 0.23899195 1.28388608 174 175 166
1.09791678 0.22283626 1.34369183 148 149 144
1.09875536 0.38440245 1.54769826 172 167 161
1.09024487 0.42701284 1.54700284 140 135 131
1.09791327 0.42672473 1.56557012 147 142 133
1.10844749 0.21258932 1.33401986 164 165 159
1.11656369 0.21701533 1.34617104 164 165 157
1.11141987 0.22755709 1.35347725 168 168 160
1.11596789 0.23622721 1.36627581 171 171 163
1.10953808 0.24550146 1.31885576 170 171 162
1.11759335 0.24376567 1.36995357 159 157 156
1.10754399 0.43076863 1.56847932 141 136 133
1.11334941 0.43614878 1.58759046 150 142 137
1.12621525 0.21836799 1.34837136 173 176 167
1.12891155 0.22317032 1.35511168 169 171 161
1.13174040 0.23345228 1.36845704 168 167 160
1.12486154 0.24542318 1.33706999 172 171 161
1.13567226 0.24913754 1.35270480 168 169 159
1.12977448 0.24728354 1.37469655 169 168 166
1.13524809 0.25281008 1.38119867 177 176 171
1.12700105 0.39492933 1.59006480 173 168 163
1.13755691 0.39992464 1.61019444 170 165 160
1.13503504 0.40814856 1.59880149 172 172 166
1.13478589 0.41059868 1.60974246 174 174 166
1.12525638 0.43361501 1.58996413 147 145 142
1.13239793 0.43372480 1.60782324 162 159 150
1.13711683 0.43324906 1.63085659 159 159 148
1.12470466 0.44281179 1.57466376 153 152 146
1.13125926 0.44223411 1.58479542 165 163 156
1.13301492 0.44028807 1.62563992 157 152 142
1.14221328 0.23451391 1.36805973 172 171 164
1.14054298 0.24818514 1.35850072 176 173 163
1.14444173 0.24775694 1.37104514 172 171 164
1.14808599 0.25211809 1.38458960 170 169 163
1.15907478 0.26284480 1.38628185 169 168 159
1.14470690 0.41505706 1.59880149 155 156 148
1.14311027 0.41377835 1.61075900 173 173 165
1.14935948 0.41365441 1.62956341 175 174 167
1.15675497 0.41334537 1.64138460 158 159 156
1.14373902 0.43272527 1.59772667 161 160 156
1.14627341 0.42849427 1.60996817 171 168 161
1.15071018 0.42946818 1.63164095 177 175 167
1.15180408 0.43351510 1.64730103 173 173 163
1.14152956 0.44153824 1.59629357 163 163 160
1.14231237 0.44177656 1.60384703 157 157 157
1.14870548 0.44215367 1.64937968 154 154 142
1.17815077 0.45992744 1.36671746 120 120 118
1.17579323 0.46583736 1.36672300 138 136 132
1.17730088 0.47409967 1.39026358 167 166 156
1.18856990 0.45418297 1.38157435 123 122 120
1.18610175 0.46818967 1.37365371 128 128 125
1.19142197 0.47401309 1.39022816 142 140 134
1.18278575 0.48554005 1.35578370 137 134 128
1.19598039 0.48986103 1.37227130 140 138 132
1.19715561 0.48510264 1.39159593 141 139 132
1.18953893 0.48903869 1.40440430 167 164 152
1.20003998 0.45344791 1.39771509 128 127 124
1.20251942 0.44954315 1.40060294 136 135 132
1.21075058 0.45600745 1.43621159 140 136 135
1.20003998 0.46190335 1.39771509 131 131 128
1.20514076 0.47387695 1.40819092 134 131 127
1.21423036 0.46224073 1.42868423 148 147 141
1.21719897 0.46717204 1.44386071 169 164 157
1.20201802 0.48509988 1.37782896 151 143 135
1.20529670 0.48985486 1.39020495 139 138 131
1.21033298 0.49252311 1.41013299 142 140 132
1.21335106 0.49386766 1.42538448 157 154 144
1.21349871 0.48890337 1.44539833 170 170 159
1.20956035 0.50344452 1.39234331 140 140 135
1.21521876 0.50841653 1.40409238 143 143 137
1.21593723 0.50237299 1.42339766 138 138 132
1.22026837 0.45832925 1.42414248 132 131 128
1.22321473 0.46815214 1.43126842 135 135 130
1.22737802 0.47296775 1.44762522 143 142 137
1.23339829 0.47125847 1.46668930 158 155 151
1.23149669 0.48051029 1.45783186 142 141 139
1.23682420 0.48780494 1.47129251 160 160 153
1.22299662 0.51267089 1.41448906 142 142 136
1.23011446 0.51617485 1.42414248 149 148 143
1.22669387 0.50030035 1.46412921 170 172 163
1.24295521 0.45916033 1.48660493 157 153 152
1.24776288 0.47019179 1.49010727 155 151 149
1.25972354 0.47023304 1.50978136 152 149 147
1.24784204 0.48976510 1.48871659 168 167 158
1.25673521 0.49023043 1.50308609 172 172 163
1.24894130 0.50744274 1.49253790 169 170 160
1.26535988 0.47495819 1.51653659 152 148 146
1.27172136 0.47900560 1.53369200 161 158 148
1.26632977 0.48945242 1.51518857 165 164 156
1.27292478 0.48948912 1.52993291 160 160 150
1.27750194 0.49449745 1.54066324 162 163 147
1.26912081 0.50817736 1.51789975 173 173 163
1.27679181 0.50305620 1.53023773 170 171 162
1.27871104 0.52632678 1.53253798 166 168 159
1.26648431 0.83440184 1.99528284 138 138 135
1.27101040 0.84229022 1.99968100 131 131 124
1.28257573 0.49337614 1.53716969 163 160 150
1.28653479 0.49365944 1.55479777 160 159 147
1.29246354 0.49593437 1.56196272 163 163 152
1.28257573 0.50931740 1.53716969 175 172 164
1.28775862 0.51564063 1.54418480 174 174 165
1.29544842 0.50384462 1.56557012 162 163 149
1.28958521 0.52841909 1.54771171 166 168 159
1.30161065 0.49588610 1.57466376 168 165 157
1.31090748 0.49857646 1.58756876 172 169 161
1.30510700 0.50425550 1.58385944 164 163 151
1.30242584 0.52714858 1.56485195 170 171 162
1.31567124 0.53065791 1.58386438 172 172 163
1.30689681 0.54152337 1.57283485 164 165 156
1.31298959 0.54814476 1.58016741 163 164 156
1.32337004 0.53569877 1.59598008 173 173 164
1.53548479 0.20664801 1.95359498 124 128 128
1.55795801 0.19255656 1.96490383 126 127 128
1.54776955 0.20953743 1.96490383 126 129 130
1.55905318 0.24979152 1.98795259 117 116 114
1.56632529 0.19545746 1.97277030 124 125 127
1.57847631 0.19767161 1.98213995 131 134 135
1.56704235 0.20051129 1.97636104 117 118 121
1.57374320 0.20732135 1.98698954 125 127 129
1.57377350 0.22417047 1.95922494 125 125 123
1.57840377 0.22579999 1.97348845 128 129 131
1.57473139 0.22387916 1.99186206 119 120 122
1.57208031 0.24956818 1.95922494 120 121 117
1.57441652 0.25102128 1.97063243 114 113 109
1.56707760 0.25245122 1.99087608 122 121 120
1.58825928 0.19825129 1.98795259 129 133 134
1.59190781 0.20435364 1.99381335 119 120 123
1.58241427 0.22613114 1.97636104 130 131 131
1.58878426 0.22829520 1.99116374 129 131 132
1.58716675 0.25245508 1.99089328 118 118 116
1.59244514 0.26163408 1.99968100 113 115 114
1.60627023 0.19942091 1.99968100 127 128 130
1.60524971 0.20653926 1.99497585 121 122 124
