ply
format ascii 1.0
element vertex 1118
property float x
property float y
property float z
property uchar red
property uchar green
property uchar blue
end_header
-0.06995045 0.13775608 0.93550300 78 75 77
-0.06990480 0.12782443 0.94581162 74 72 75
-0.07017736 0.15406931 0.91076812 88 88 90
-0.07016209 0.14436739 0.92573865 80 78 80
-0.07036198 0.17665163 0.87374404 98 96 101
-0.06977453 0.16691880 0.89009148 97 95 99
-0.06585344 0.16002954 0.90154829 91 89 91
-0.07025409 0.19819201 0.83562490 110 109 110
-0.06993660 0.19050503 0.84956093 102 101 104
-0.06999488 0.18241106 0.86386217 98 97 101
-0.07076427 0.21816429 0.79684804 110 109 110
-0.06991865 0.21183075 0.80964384 114 114 116
-0.06970737 0.20360622 0.82580155 114 112 114
-0.07032590 0.23763664 0.75370009 112 112 113
-0.07026073 0.23072724 0.76968156 112 111 112
-0.06964158 0.22294453 0.78684362 110 109 111
-0.06992673 0.25875488 0.69579458 110 109 110
-0.07008403 0.25413136 0.70983052 109 108 109
-0.06994887 0.24689369 0.72996601 114 114 115
-0.06955418 0.24156835 0.74379434 113 113 114
-0.07000799 0.27877988 0.61515892 0 0 0
-0.06980212 0.27543837 0.62882944 7 7 7
-0.06999924 0.27152478 0.65025739 109 108 108
-0.07021352 0.26616978 0.66981073 111 110 110
-0.07001094 0.26167808 0.68597259 112 111 112
-0.07002576 0.29978435 0.53831661 0 0 0
-0.07014253 0.29722684 0.54966972 0 0 0
-0.07002251 0.29220334 0.56986793 0 0 0
-0.06991732 0.28644888 0.58976881 0 0 0
-0.06995682 0.28155594 0.60514985 0 0 0
-0.06996504 0.30090131 0.53373642 0 0 0
-0.05023753 -0.46958544 0.71354655 0 0 0
-0.04961248 -0.46815420 0.89009242 75 81 83
-0.05008894 -0.46883787 0.91240621 77 81 84
-0.05047953 -0.45788516 0.71882907 0 0 0
-0.04973305 -0.44779409 0.72563894 0 0 0
-0.04998216 -0.45010654 0.91667151 79 85 85
-0.05022240 -0.43671100 0.73594029 0 0 0
-0.04989451 -0.42653910 0.74922814 0 0 0
-0.04112414 -0.42004143 0.76109958 0 0 0
-0.05764067 -0.42140001 0.79857531 15 16 16
-0.04826252 -0.42402677 0.80355316 37 39 41
-0.04108022 -0.43610660 0.82644507 60 63 65
-0.04916265 -0.43300751 0.91890727 81 88 90
-0.05065286 -0.42280134 0.92036943 83 88 91
-0.04999565 -0.41613589 0.76852673 0 0 0
-0.04974800 -0.41467066 0.78325732 0 0 0
-0.04980394 -0.40991161 0.92172626 82 89 92
-0.04990185 -0.38996469 0.92353400 84 89 93
-0.05000295 -0.36996039 0.92540323 84 89 94
-0.05010563 -0.34988314 0.92730044 83 87 89
-0.05020064 -0.32967043 0.92905564 86 90 95
-0.05027310 -0.31004645 0.93039841 87 90 96
-0.04978616 -0.29045259 0.93144595 89 92 99
-0.04958052 -0.26964675 0.93249849 89 92 98
-0.04963283 -0.24976345 0.93348222 91 94 100
-0.04968467 -0.22983402 0.93445444 92 95 101
-0.04973655 -0.20986441 0.93543073 92 95 102
-0.04978738 -0.18984774 0.93638655 91 94 99
-0.04983114 -0.16976659 0.93720962 89 91 96
-0.04986612 -0.15043349 0.93786677 91 93 98
-0.04989534 -0.13024682 0.93841547 91 92 98
-0.04992169 -0.11003025 0.93891019 89 90 96
-0.04957557 -0.09018025 0.93947573 91 92 98
-0.05798939 -0.08173137 0.94005857 92 93 100
-0.04507881 -0.07307709 0.93979904 92 92 98
-0.05267764 -0.06761455 0.94030631 92 93 100
-0.05001935 -0.05008308 0.94074517 92 93 99
-0.05005157 -0.02977703 0.94135096 93 93 99
-0.05008311 -0.00944496 0.94194269 93 93 98
-0.05011366 0.01009780 0.94251425 93 94 98
-0.05014524 0.02966559 0.94310834 90 91 94
-0.05018526 0.05008200 0.94386435 89 90 93
-0.05021689 0.07051822 0.94446197 89 90 93
-0.05024174 0.09015291 0.94493258 88 87 91
-0.05029784 0.10987550 0.94599122 86 85 87
-0.04975077 0.13778937 0.93572899 78 75 76
-0.05027035 0.12778231 0.94548716 73 71 74
-0.05003481 0.15389520 0.91149594 90 87 89
-0.05003595 0.14436069 0.92604604 84 79 82
-0.05023303 0.17699179 0.87379046 97 96 99
-0.05000433 0.16737153 0.88993285 94 94 97
-0.04881013 0.16031461 0.90151099 92 90 93
-0.05023366 0.19826419 0.83609566 110 109 111
-0.05000290 0.19047010 0.85024246 105 103 106
-0.04987913 0.18256829 0.86421418 100 97 101
-0.04993603 0.21854659 0.79676010 110 110 111
-0.05015980 0.21226209 0.80936412 113 111 113
-0.04973558 0.20375991 0.82601291 113 113 115
-0.04999497 0.23755907 0.75427590 112 110 112
-0.04998233 0.23102364 0.76955625 112 111 111
-0.05007228 0.22327872 0.78673649 110 109 109
-0.04954065 0.25854247 0.69570275 112 111 112
-0.05000304 0.25384108 0.71051207 111 111 112
-0.05000373 0.24698323 0.73001396 113 114 114
-0.04986988 0.24148649 0.74438097 113 112 113
-0.05007622 0.27879757 0.61512366 0 0 0
-0.04982294 0.27490941 0.62854382 0 0 0
-0.05018459 0.27101957 0.65050736 106 104 105
-0.04982456 0.26574562 0.66981541 109 109 110
-0.05068767 0.26159655 0.68516576 109 108 108
-0.05179897 0.29982811 0.53878525 0 0 0
-0.05005432 0.29748821 0.54953873 0 0 0
-0.04998408 0.29266330 0.56972060 0 0 0
-0.05001801 0.28679970 0.59008026 0 0 0
-0.05003993 0.28167604 0.60541462 0 0 0
-0.04962984 0.30092469 0.53432836 0 0 0
-0.03005202 -0.46973446 0.71387338 0 0 0
-0.03808598 -0.46029891 0.87229079 79 80 82
-0.03372231 -0.47323153 0.89679878 77 84 84
-0.03016055 -0.46936789 0.91118229 78 84 86
-0.02952701 -0.45829963 0.71896579 0 0 0
-0.02969809 -0.44796737 0.72608081 0 0 0
-0.03951493 -0.44253241 0.83862233 64 69 71
-0.03877723 -0.45080741 0.85430390 68 73 75
-0.03009078 -0.45040272 0.91617373 79 84 87
-0.03076459 -0.43710321 0.73644552 0 0 0
-0.03003039 -0.42759689 0.74944201 0 0 0
-0.02867749 -0.42068081 0.76159765 0 0 0
-0.03889526 -0.42155590 0.79626262 0 0 0
-0.03665193 -0.42759981 0.80767876 0 0 0
-0.02755862 -0.43839197 0.82806369 20 23 23
-0.02979330 -0.43241741 0.91877102 80 86 88
-0.02983982 -0.42196128 0.92020225 81 87 88
-0.02998845 -0.41649070 0.77025590 0 0 0
-0.02866693 -0.41434022 0.78008637 0 0 0
-0.02988033 -0.40978735 0.92144646 79 86 88
-0.02993467 -0.38978829 0.92311563 81 87 91
-0.02999233 -0.36975353 0.92488523 82 87 91
-0.03004998 -0.34964016 0.92665582 85 87 92
-0.03027295 -0.32966181 0.92831740 87 91 96
-0.02997479 -0.31009194 0.92968857 88 91 98
-0.03018383 -0.29006452 0.93078178 88 92 97
-0.03027738 -0.27017232 0.93178011 89 93 99
-0.03019015 -0.25030726 0.93273626 90 94 101
-0.03027890 -0.22965075 0.93370893 90 93 101
-0.03031080 -0.20969874 0.93469242 92 94 101
-0.03034141 -0.18969572 0.93563671 89 92 98
-0.03036831 -0.16963201 0.93646680 90 90 97
-0.03038907 -0.15031162 0.93710687 89 91 96
-0.03040651 -0.13013958 0.93764262 90 91 97
-0.03042193 -0.10993747 0.93811869 90 91 97
-0.03054749 -0.08985499 0.93874329 91 92 99
-0.03035004 -0.06963502 0.93933207 91 91 98
-0.02735791 -0.05210877 0.93976025 91 92 97
-0.03511110 -0.04697223 0.94019094 94 95 103
-0.02208604 -0.03893992 0.93994560 91 92 95
-0.03081486 -0.02976249 0.94054437 94 94 99
-0.03036718 -0.00965167 0.94103087 92 93 98
-0.03053296 0.01008728 0.94153615 91 91 96
-0.03055195 0.02963452 0.94212012 92 92 97
-0.03057892 0.05003376 0.94295336 91 92 95
-0.03059990 0.07045418 0.94360213 90 90 95
-0.03012668 0.09027003 0.94417662 89 88 93
-0.02983793 0.10979479 0.94529647 86 87 88
-0.03034809 0.13781242 0.93588544 78 75 78
-0.02998333 0.12762598 0.94507349 74 73 76
-0.03018377 0.15401509 0.91163191 88 84 87
-0.03003659 0.14439714 0.92627939 80 77 78
-0.03009427 0.17698404 0.87411534 99 98 102
-0.02969109 0.16789251 0.88941346 93 93 97
-0.03000033 0.16073619 0.90114667 90 89 91
-0.03001024 0.19831706 0.83631873 108 108 111
-0.03011644 0.19069135 0.85012761 105 104 108
-0.03027496 0.18258969 0.86451536 101 99 103
-0.02997196 0.21857339 0.79685785 113 113 114
-0.03012541 0.21215836 0.80977878 112 111 112
-0.02964709 0.20376205 0.82619659 113 112 115
-0.03021520 0.23752309 0.75438917 111 111 112
-0.02979559 0.23107968 0.76948135 111 111 111
-0.03010862 0.22333021 0.78673381 112 111 110
-0.03004448 0.25846849 0.69477426 112 112 113
-0.03000205 0.25368499 0.71028537 114 113 115
-0.02998369 0.24691083 0.73006076 116 115 115
-0.02992926 0.24149431 0.74440507 112 112 112
-0.03008199 0.27854901 0.61583865 0 0 0
-0.03001324 0.27426814 0.62935879 0 0 0
-0.02998142 0.27055062 0.65026627 97 97 98
-0.03001470 0.26530168 0.66984625 110 108 109
-0.02990592 0.26125617 0.68490362 110 109 110
-0.03847382 0.29996584 0.53947876 0 0 0
-0.03014481 0.29780054 0.55034409 0 0 0
-0.03010657 0.29309045 0.57000499 0 0 0
-0.02994250 0.28721520 0.59012580 0 0 0
-0.02984528 0.28178762 0.60553134 0 0 0
-0.03021020 0.30121692 0.53551565 0 0 0
-0.02314204 0.30019614 0.54073431 0 0 0
-0.00973799 -0.47003990 0.71396417 0 0 0
-0.00985640 -0.46954819 0.91073258 75 80 82
-0.00964595 -0.45835483 0.71905239 0 0 0
-0.00974376 -0.44790759 0.72635648 0 0 0
-0.00885735 -0.44073304 0.83248566 68 73 79
-0.00037948 -0.44492097 0.84039611 77 77 85
-0.00991287 -0.45010283 0.91598435 78 82 85
-0.00988424 -0.43722100 0.73685470 0 0 0
-0.01004580 -0.42833942 0.74925060 0 0 0
-0.00940925 -0.42130170 0.76225516 0 0 0
-0.01569478 -0.43992602 0.83096131 58 61 65
-0.00994369 -0.43246425 0.91887049 80 84 87
-0.00995870 -0.42198065 0.92024444 78 85 87
-0.00967521 -0.41685941 0.77106571 0 0 0
-0.00979801 -0.41528781 0.78187042 10 11 12
-0.00997147 -0.40977079 0.92140874 80 86 88
-0.00998781 -0.38968833 0.92287787 82 86 89
-0.01000467 -0.36955488 0.92438769 80 84 89
-0.01012844 -0.34952883 0.92605534 83 86 90
-0.00992856 -0.33009581 0.92762300 84 87 91
-0.01005548 -0.31040153 0.92905590 86 89 94
-0.01006794 -0.28988993 0.93022187 88 92 96
-0.01007827 -0.27006778 0.93117001 89 92 99
-0.01008790 -0.25018530 0.93204902 89 92 100
-0.01009767 -0.23027018 0.93294758 90 94 99
-0.01010791 -0.21032259 0.93387721 88 90 96
-0.01018065 -0.19028568 0.93489099 89 91 98
-0.01007016 -0.17025183 0.93574461 89 90 97
-0.01013520 -0.15020186 0.93642251 89 92 99
-0.01014095 -0.13004430 0.93695645 89 90 97
-0.01014637 -0.10986073 0.93746382 88 89 95
-0.01015263 -0.09047056 0.93802271 90 91 96
-0.01015882 -0.07024625 0.93858483 89 89 92
-0.01016538 -0.04999970 0.93917875 90 90 94
-0.00873150 -0.03145822 0.93960799 90 90 95
-0.01771402 -0.02570966 0.94013351 93 93 98
-0.00384617 -0.01424578 0.93981900 91 92 95
-0.01261522 -0.00869677 0.94033707 91 91 95
-0.01018211 0.01007864 0.94072154 92 92 97
-0.01018816 0.02960816 0.94128616 91 91 97
-0.01019683 0.04998709 0.94207362 90 90 95
-0.01020434 0.07039238 0.94277265 90 90 95
-0.00975076 0.08981017 0.94334701 89 89 93
-0.00940649 0.10970088 0.94448757 87 87 89
-0.01012800 0.13780602 0.93584144 77 75 77
-0.00957833 0.12773964 0.94436289 74 72 75
-0.00986824 0.15395875 0.91186897 89 87 90
-0.01002525 0.14441255 0.92637748 79 77 80
-0.00972175 0.17711149 0.87400896 98 97 100
-0.00962686 0.16786782 0.88956105 95 94 97
-0.00975316 0.16075126 0.90123115 92 90 94
-0.00977479 0.19834702 0.83644516 112 112 113
-0.00993811 0.19061113 0.85043324 106 105 108
-0.01010387 0.18260816 0.86460268 101 98 102
-0.00999945 0.21852948 0.79669781 111 111 112
-0.00985045 0.21232255 0.80940149 113 111 112
-0.00965606 0.20378250 0.82627974 114 114 116
-0.00961262 0.23767684 0.75354502 114 111 112
-0.00965715 0.23096230 0.76940575 112 110 111
-0.00987342 0.22323728 0.78665075 112 111 111
-0.00951875 0.25834134 0.69376423 113 112 112
-0.00986184 0.25358013 0.70959523 114 114 113
-0.00979013 0.24679359 0.72971456 112 112 113
-0.01055231 0.24155991 0.74372432 112 111 111
-0.00985614 0.27847085 0.61566528 0 0 0
-0.00984200 0.27384432 0.62923895 0 0 0
-0.00990024 0.26973683 0.65091325 90 90 91
-0.00993882 0.26485977 0.66980575 111 110 110
-0.01032268 0.26111253 0.68388131 110 109 109
-0.01001215 0.29814649 0.55131128 0 0 0
-0.00988984 0.29364836 0.56964316 0 0 0
-0.00998189 0.28764229 0.58987278 0 0 0
-0.00968499 0.28201797 0.60502394 0 0 0
-0.00996951 0.30181704 0.53615500 0 0 0
-0.00916775 0.30041893 0.54174769 0 0 0
0.01918518 -0.48014895 0.90693703 66 75 75
0.01016715 -0.46992039 0.71399801 0 0 0
0.01424300 -0.46171491 0.86999290 68 74 75
0.00657178 -0.47479237 0.89681917 73 77 80
0.01008032 -0.47000315 0.91055045 72 77 80
0.01023793 -0.45831566 0.71899094 0 0 0
0.01034347 -0.44792047 0.72637828 0 0 0
0.00393300 -0.44130255 0.83084887 52 52 59
0.00493405 -0.45282523 0.85365170 69 72 79
0.01229476 -0.45843678 0.86310783 69 75 79
0.00987663 -0.45008318 0.91594629 75 81 84
0.00995370 -0.43733216 0.73698156 0 0 0
0.00991561 -0.42859119 0.74939278 0 0 0
0.01133189 -0.42162575 0.76357712 0 0 0
0.00991797 -0.42310948 0.79530713 44 47 49
0.00242722 -0.42897980 0.80764860 49 50 59
0.01032398 -0.43230798 0.91894114 77 83 86
0.00828554 -0.42207095 0.92023735 78 83 87
0.00942187 -0.41746420 0.77252445 0 0 0
0.01667530 -0.41814796 0.78361361 17 18 18
0.00993375 -0.40972040 0.92129500 77 81 84
0.00994800 -0.38958158 0.92262412 77 81 85
0.00996204 -0.36937448 0.92393611 76 80 85
0.00997779 -0.34997058 0.92540922 80 84 88
0.00999331 -0.33049483 0.92686463 81 84 89
0.01000909 -0.31016244 0.92834072 83 88 92
0.01002196 -0.28967788 0.92954139 85 88 94
0.01003236 -0.26987426 0.93050310 88 91 97
0.01004221 -0.25001241 0.93140510 85 88 93
0.01005138 -0.23010165 0.93226374 87 90 96
0.01006075 -0.21015517 0.93313413 86 88 94
0.01007186 -0.19020424 0.93416260 87 90 97
0.01008197 -0.17019096 0.93509278 88 88 94
0.01008958 -0.15010046 0.93579101 89 89 95
0.01009524 -0.12995580 0.93631788 88 88 94
0.01010090 -0.10978774 0.93684175 89 89 95
0.01010686 -0.09040904 0.93738441 89 89 95
0.01011257 -0.07019608 0.93791175 90 90 96
0.01011774 -0.04995862 0.93840475 90 90 96
0.01012304 -0.03051134 0.93890466 90 91 96
0.01018644 -0.01029442 0.93942783 91 91 97
0.00120029 -0.00049063 0.94002134 91 94 97
0.01431587 0.00741351 0.93979891 89 89 93
0.00649748 0.01238357 0.94020596 92 92 96
0.01014128 0.02958586 0.94057847 91 91 96
0.01014955 0.04994803 0.94133798 90 89 93
0.01015687 0.07033638 0.94202239 89 88 93
0.01016364 0.08993493 0.94264616 89 89 92
0.01017595 0.10961774 0.94377169 86 86 89
0.01009034 0.13779215 0.93574703 76 74 77
0.01017800 0.12757459 0.94392468 75 74 78
0.01010460 0.15403684 0.91157663 88 87 90
0.00998860 0.14440244 0.92631285 81 80 84
0.01018077 0.17705081 0.87408172 97 95 98
0.01035975 0.16784946 0.88946277 93 93 96
0.01049522 0.16072819 0.90110178 91 91 94
0.01046435 0.19833593 0.83639840 112 111 113
0.00997528 0.19065153 0.85038766 107 105 107
0.01007048 0.18261202 0.86462091 101 97 101
0.01017406 0.21841512 0.79651522 110 109 109
0.01006841 0.21216146 0.80946182 113 111 112
0.01033702 0.20376931 0.82622658 112 112 113
0.01039841 0.23745283 0.75317428 115 113 114
0.01029659 0.23039825 0.77004189 112 110 111
0.00972895 0.22296118 0.78675609 111 110 110
0.01042008 0.25809058 0.69309033 113 113 111
0.01010423 0.25304907 0.70999906 115 115 115
0.01023551 0.24631260 0.72987736 114 113 114
0.00926193 0.24139859 0.74316873 114 114 114
0.01046583 0.27827074 0.61496236 0 0 0
0.01007957 0.27310772 0.62905247 0 0 0
0.01006588 0.26922068 0.65097172 89 89 90
0.01032508 0.26440935 0.66988336 112 112 113
0.00960715 0.26086800 0.68313056 112 113 113
0.00998235 0.29822882 0.55296836 0 0 0
0.01009118 0.29383320 0.57018405 0 0 0
0.01023861 0.28763656 0.59018742 0 0 0
0.00972777 0.28183212 0.60501827 0 0 0
0.00988571 0.30242809 0.53645856 0 0 0
0.01060021 0.30070908 0.54290375 0 0 0
0.03172854 -0.48062616 0.90709987 61 68 72
0.02990716 -0.46983777 0.71387208 0 0 0
0.02378025 -0.46460947 0.87401767 62 69 70
0.03275194 -0.47471531 0.89172286 60 67 72
0.02949160 -0.46985239 0.91063612 67 73 76
0.03011533 -0.45821999 0.71884088 0 0 0
0.03024358 -0.44799210 0.72622221 0 0 0
0.02389782 -0.44016091 0.82601154 58 62 71
0.02596502 -0.45127558 0.84686947 62 67 76
0.02983345 -0.45016023 0.91533190 69 75 77
0.02969261 -0.43733531 0.73710556 0 0 0
0.03002426 -0.42875888 0.74925985 0 0 0
0.02933603 -0.42162095 0.76436683 0 0 0
0.02230209 -0.42444969 0.79459868 11 13 12
0.03165461 -0.43375330 0.81159409 34 38 40
0.02970317 -0.43009168 0.91852462 70 76 79
0.02025737 -0.42029724 0.92004079 75 79 82
0.03046090 -0.41892721 0.77354237 0 0 0
0.03205561 -0.41896042 0.78115895 0 0 0
0.03594649 -0.41656143 0.91969291 69 74 78
0.02886072 -0.40844183 0.92072189 72 76 80
0.02977474 -0.38955330 0.92199317 72 77 81
0.03005441 -0.37012082 0.92331695 72 76 81
0.02995271 -0.35054619 0.92481773 72 77 82
0.02999705 -0.33025668 0.92619613 77 80 85
0.03004489 -0.30993581 0.92766271 77 81 86
0.02997027 -0.29012288 0.92881636 78 82 88
0.03022052 -0.27036360 0.92981945 78 82 87
0.03014402 -0.24983171 0.93073149 79 83 88
0.03016871 -0.22991333 0.93150049 80 83 90
0.03019932 -0.20999806 0.93243740 81 82 89
0.03023367 -0.19006712 0.93348930 82 84 90
0.03026512 -0.17007611 0.93446243 82 83 89
0.03029148 -0.15001612 0.93526680 82 82 87
0.02950406 -0.12989896 0.93590969 83 83 89
0.02952089 -0.10974145 0.93644624 82 83 90
0.02953642 -0.09036652 0.93694301 83 84 90
0.02955121 -0.07015969 0.93742331 86 86 93
0.02956637 -0.04993219 0.93790713 86 86 93
0.02957942 -0.03049253 0.93832495 86 87 93
0.02959559 -0.01022539 0.93884579 89 89 96
0.02961219 0.01006441 0.93937960 88 88 93
0.03212452 0.02630176 0.93980366 86 86 91
0.02660067 0.03353528 0.94018498 87 87 91
0.02965675 0.04991896 0.94078797 87 87 91
0.02967797 0.07029421 0.94145789 88 89 93
0.02969646 0.08987815 0.94205206 85 85 90
0.02973416 0.10955708 0.94324718 83 82 86
0.02992202 0.13786988 0.93583505 76 73 77
0.02973986 0.12750865 0.94343048 72 71 74
0.02978380 0.15384625 0.91193929 87 87 90
0.03000741 0.14442649 0.92646765 82 81 83
0.02981887 0.17703986 0.87402779 97 96 100
0.03034221 0.16783182 0.88936883 93 93 96
0.02996126 0.16071390 0.90102171 90 90 94
0.03016290 0.19832337 0.83617325 110 108 110
0.02980868 0.19055098 0.85037862 104 103 105
0.03006241 0.18261944 0.86446294 100 98 101
0.02994434 0.21791436 0.79697316 110 107 109
0.02994773 0.21172225 0.80987115 111 109 112
0.03032117 0.20371072 0.82598934 109 108 110
0.02991980 0.23713781 0.75280909 114 112 112
0.03021414 0.22992699 0.77025753 112 110 111
0.02975012 0.22257017 0.78691489 108 105 107
0.03017559 0.25782403 0.69237293 112 111 111
0.02997718 0.25252396 0.71009100 115 114 114
0.03007055 0.24570684 0.73016970 116 115 115
0.02983611 0.24099522 0.74285394 115 114 114
0.03011093 0.27797004 0.61452899 0 0 0
0.03007232 0.27235709 0.62940185 0 0 0
0.02979758 0.26881855 0.65143287 86 86 86
0.02992962 0.26406549 0.66944172 111 110 110
0.02934742 0.26060290 0.68242498 112 110 111
0.03010044 0.29821400 0.55348144 0 0 0
0.03001220 0.29385858 0.57004834 0 0 0
0.02998100 0.28739233 0.59035813 0 0 0
0.03002087 0.28173104 0.60439490 0 0 0
0.02990172 0.30255051 0.53663018 0 0 0
0.02981390 0.30074841 0.54336341 0 0 0
0.05701469 -0.48000426 0.89786977 77 84 82
0.04967101 -0.48120683 0.90550620 75 82 82
0.04983307 -0.46991693 0.71375101 0 0 0
0.05087045 -0.46635778 0.87234342 77 86 84
0.05004823 -0.47742019 0.89400568 74 81 81
0.04979452 -0.47001814 0.90843451 75 82 82
0.04998963 -0.45816976 0.71876210 0 0 0
0.05007111 -0.44787843 0.72627313 0 0 0
0.04880679 -0.44515013 0.83065861 56 62 62
0.05502064 -0.45215574 0.84350620 75 82 83
0.05010118 -0.44993619 0.91180681 78 83 86
0.04998890 -0.43734965 0.73707182 0 0 0
0.05006726 -0.42840476 0.74946786 0 0 0
0.04977792 -0.42117068 0.76315485 0 0 0
0.04811079 -0.42290728 0.78750194 25 27 28
0.04266378 -0.43465008 0.81216737 59 66 60
0.04361371 -0.43885342 0.82089525 78 82 84
0.05009799 -0.42987830 0.91402991 81 87 90
0.04989641 -0.41888490 0.77199089 0 0 0
0.05023982 -0.41014245 0.91594731 81 85 88
0.05132083 -0.39032362 0.91697395 82 85 89
0.04133161 -0.38865589 0.92065233 71 74 80
0.05223650 -0.37035161 0.91809429 85 89 92
0.04217654 -0.36897330 0.92151496 71 76 80
0.05342858 -0.35047369 0.91920219 86 88 94
0.04340016 -0.34898835 0.92224687 76 78 84
0.05640074 -0.33744495 0.91983013 86 89 95
0.04913393 -0.32903506 0.92153232 84 88 93
0.04985497 -0.30965588 0.92263806 84 88 92
0.04977777 -0.28998104 0.92370912 86 88 94
0.04991763 -0.27018520 0.92469353 85 89 93
0.05005102 -0.24980176 0.92563075 85 86 93
0.04990528 -0.22995854 0.92659132 85 87 95
0.05012888 -0.21008451 0.92746584 85 87 93
0.05023374 -0.18975496 0.92863390 85 85 90
0.05004557 -0.16981988 0.92981670 83 83 90
0.05038213 -0.14989457 0.93068283 85 86 93
0.04932096 -0.12989997 0.93200647 84 84 91
0.04970564 -0.10985210 0.93252900 84 85 92
0.04957859 -0.09002954 0.93345272 82 83 89
0.04961802 -0.06991629 0.93417794 83 83 91
0.04964684 -0.04976253 0.93472137 84 84 91
0.04968546 -0.03039821 0.93543795 81 81 87
0.04973044 -0.01019660 0.93626477 83 83 90
0.04976796 0.01003862 0.93696373 81 80 86
0.05012193 0.02971295 0.93766949 81 81 86
0.04100789 0.03850453 0.94004905 80 81 83
0.05438528 0.04931137 0.93754689 83 84 89
0.04448810 0.05100938 0.94052503 78 79 83
0.05595095 0.06960819 0.93811457 86 87 92
0.04561803 0.07057697 0.94106132 78 78 83
0.05700752 0.08922877 0.93865410 87 85 91
0.04663997 0.08997394 0.94145067 75 76 79
0.05805782 0.10849492 0.93915769 85 84 90
0.04795705 0.11002586 0.94219121 74 74 78
0.05228409 0.13546449 0.93713267 74 73 78
0.04838504 0.12744553 0.94228343 67 66 70
0.04972545 0.15419744 0.91161094 88 86 89
0.05035756 0.14471703 0.92644876 81 80 82
0.04983573 0.17707934 0.87380841 99 95 99
0.05016883 0.16788851 0.88915870 92 91 93
0.04942757 0.16071169 0.90100941 90 88 91
0.04964654 0.19821535 0.83605595 106 103 106
0.05004477 0.19065059 0.84999749 105 103 106
0.05021002 0.18252691 0.86441863 104 103 106
0.05024643 0.21824087 0.79559067 111 107 110
0.05016614 0.21136096 0.81002238 110 108 111
0.04994471 0.20345740 0.82609041 108 107 110
0.05004500 0.23686475 0.75247514 113 112 112
0.05002693 0.22976188 0.76973262 113 111 112
0.04977263 0.22286375 0.78549421 110 108 109
0.04994389 0.25776161 0.69136106 115 114 113
0.04996155 0.25226042 0.70961611 114 114 113
0.04999233 0.24548734 0.72960299 117 116 115
0.05013070 0.24081178 0.74220435 117 116 115
0.05002387 0.27778159 0.61416794 0 0 0
0.05000710 0.27205256 0.62914566 0 0 0
0.04999400 0.26828396 0.65164093 82 81 81
0.04994777 0.26358649 0.66978251 112 111 111
0.05033246 0.26050450 0.68137507 114 113 110
0.05012509 0.29818273 0.55241480 0 0 0
0.05004674 0.29359452 0.56964611 0 0 0
0.05001588 0.28718174 0.58984542 0 0 0
0.04991269 0.28156274 0.60398390 0 0 0
0.05028676 0.30234073 0.53637649 0 0 0
0.04927847 0.30069204 0.54247756 0 0 0
0.07558368 -0.48119367 0.89719392 79 83 84
0.06896100 -0.48179952 0.90372098 78 83 85
0.06997043 -0.46981022 0.71380935 0 0 0
0.06783533 -0.46169319 0.85806966 65 70 69
0.07362202 -0.46753063 0.86926575 78 83 85
0.06945189 -0.47636080 0.88818294 75 84 84
0.07025489 -0.46998395 0.90639604 80 84 86
0.06986821 -0.45817885 0.71877638 0 0 0
0.07003443 -0.44789464 0.72632494 0 0 0
0.06315102 -0.45547168 0.84832791 69 76 80
0.07024614 -0.45006123 0.90976006 80 84 86
0.07009949 -0.43736131 0.73697319 0 0 0
0.07003813 -0.42850161 0.74937725 0 0 0
0.07030773 -0.42117962 0.76480151 0 0 0
0.06904925 -0.42511633 0.78710137 20 22 23
0.07231626 -0.43660912 0.80885657 40 45 46
0.07032821 -0.43032511 0.91244083 83 88 90
0.06762130 -0.41927583 0.77064063 0 0 0
0.06991125 -0.40978562 0.91433347 84 88 89
0.07000703 -0.38977619 0.91558939 85 89 92
0.07010665 -0.36972892 0.91689355 88 93 98
0.07020979 -0.34964073 0.91824295 87 91 95
0.07118965 -0.33107054 0.91935088 88 90 96
0.06384391 -0.32368770 0.92025660 86 90 95
0.07756957 -0.31621739 0.91975845 89 92 96
0.06868968 -0.30934493 0.92079114 90 93 98
0.06972700 -0.29033514 0.92160962 90 93 98
0.06974197 -0.26996229 0.92255965 88 91 97
0.06959773 -0.24987162 0.92339313 88 91 98
0.07007279 -0.23015920 0.92422030 90 93 100
0.06994039 -0.20996479 0.92518932 92 93 102
0.06985119 -0.18996279 0.92639371 92 93 101
0.07029930 -0.17020080 0.92762335 88 90 96
0.07019921 -0.14975071 0.92861081 90 91 99
0.07025161 -0.12978505 0.92930111 91 91 97
0.07027917 -0.10975042 0.92966452 92 93 100
0.07031302 -0.08970812 0.93011673 90 91 98
0.07017865 -0.06988762 0.93066642 91 91 99
0.07056745 -0.04983092 0.93109458 92 92 99
0.06963133 -0.03027870 0.93175509 90 89 96
0.06968303 -0.01015530 0.93245089 91 91 97
0.06974422 0.00999932 0.93326802 90 89 94
0.06981712 0.03019505 0.93424300 90 89 94
0.06990224 0.05044080 0.93538452 91 90 93
0.06996908 0.06990833 0.93628495 90 90 95
0.07015378 0.08999988 0.93684601 88 87 92
0.06990802 0.11028962 0.93746445 87 86 90
0.07002879 0.13069728 0.93707920 86 84 87
0.07006317 0.15472354 0.91096520 90 89 91
0.06988362 0.14517572 0.92581942 86 84 86
0.07008019 0.17696340 0.87383630 99 97 101
0.06999388 0.16781769 0.88929608 90 89 91
0.06968275 0.16073434 0.90113639 89 88 91
0.06968004 0.19817778 0.83573159 105 102 105
0.07005963 0.19048524 0.84996400 106 104 106
0.07000420 0.18255041 0.86412972 104 103 106
0.07000797 0.21808527 0.79529983 109 104 106
0.06996833 0.21099632 0.81022159 108 105 108
0.07021003 0.20312188 0.82630844 107 106 108
0.07034396 0.23706011 0.75111438 112 111 111
0.06994588 0.22963526 0.76931060 113 111 112
0.07008870 0.22280555 0.78496937 111 109 109
0.07022080 0.25746257 0.69144167 112 112 113
0.06984543 0.25195687 0.70964738 113 113 113
0.07010461 0.24512038 0.72971421 119 118 118
0.06745492 0.24072656 0.74170709 114 113 114
0.07024552 0.27783035 0.61340208 0 0 0
0.07010401 0.27181445 0.62921267 0 0 0
0.06971607 0.26803595 0.65164075 79 78 78
0.07016093 0.26335108 0.66968544 111 111 112
0.06894707 0.26029934 0.68116822 114 113 112
0.07039285 0.29785870 0.55119255 0 0 0
0.06990198 0.29291358 0.56997551 0 0 0
0.07013574 0.28659065 0.59012393 0 0 0
0.06914379 0.28146627 0.60346257 0 0 0
0.07008575 0.30170845 0.53601598 0 0 0
0.06832536 0.30035846 0.54148451 0 0 0
0.09396914 -0.48301586 0.89740027 77 83 83
0.08941486 -0.48171328 0.90149700 79 84 86
0.09004671 -0.46972626 0.71381834 0 0 0
0.08726343 -0.46984868 0.87114650 75 81 84
0.08637280 -0.47808932 0.88854232 77 83 85
0.09026814 -0.47006594 0.90543386 80 84 87
0.08974400 -0.45817202 0.71876567 0 0 0
0.09002431 -0.44787866 0.72631447 0 0 0
0.08634330 -0.44341661 0.81797127 26 28 27
0.08889368 -0.44832673 0.82790849 60 66 67
0.09583698 -0.45674606 0.84345639 78 82 86
0.09010905 -0.44999977 0.90897706 81 86 89
0.08992566 -0.43729026 0.73703111 0 0 0
0.09009613 -0.42832090 0.74939078 0 0 0
0.08950848 -0.42129253 0.76616155 0 0 0
0.08846244 -0.42943930 0.79050684 12 13 13
0.08979714 -0.42975073 0.91177172 83 88 90
0.08155897 -0.41992482 0.77054110 0 0 0
0.08964711 -0.40950946 0.91357208 84 89 91
0.08970371 -0.38940527 0.91471791 84 88 92
0.08977216 -0.36942218 0.91599254 88 92 99
0.08982772 -0.34984182 0.91719262 87 91 96
0.09022468 -0.33037482 0.91827044 87 91 96
0.09064959 -0.31081057 0.91927103 87 92 97
0.08228202 -0.30264437 0.92011128 90 94 101
0.09613253 -0.29540909 0.91979975 89 92 100
0.08860576 -0.28847104 0.92048279 87 91 98
0.09028471 -0.26963039 0.92123174 87 90 96
0.09047722 -0.24994296 0.92199351 87 89 97
0.09001944 -0.23035463 0.92279458 89 92 99
0.08979230 -0.20964214 0.92376799 89 91 98
0.08990861 -0.18992970 0.92496374 92 93 100
0.09003138 -0.17017737 0.92622676 88 89 96
0.08995671 -0.15004936 0.92723963 91 92 99
0.09037035 -0.13014858 0.92797730 90 90 97
0.09005587 -0.11005569 0.92841887 92 92 100
0.09046413 -0.09006150 0.92876648 89 89 97
0.09032438 -0.07035062 0.92924283 90 91 97
0.09037163 -0.05030005 0.92972828 89 89 97
0.08961857 -0.03023026 0.93025632 88 88 94
0.08967346 -0.01013794 0.93082872 89 89 97
0.08973516 0.00997993 0.93147366 89 88 94
0.08982047 0.03013392 0.93236118 88 86 92
0.08991277 0.05032938 0.93332238 88 87 92
0.08998799 0.06974530 0.93410371 89 89 93
0.09003728 0.08997597 0.93461618 88 87 92
0.09009677 0.11024149 0.93523242 87 86 92
0.09010355 0.13045144 0.93529631 88 87 92
0.08996111 0.15463578 0.91137442 90 89 92
0.09000063 0.14513615 0.92590809 85 84 88
0.09007578 0.17692138 0.87368029 98 98 102
0.08990153 0.16784728 0.88929645 93 90 96
0.08994597 0.16076155 0.90128895 92 88 94
0.08988593 0.19813933 0.83556960 109 104 108
0.09000796 0.19049835 0.84970899 104 102 106
0.09014006 0.18245362 0.86406380 102 100 105
0.09004605 0.21806744 0.79482317 110 107 108
0.09005000 0.21096091 0.80988250 110 107 109
0.09006171 0.20304116 0.82615564 108 106 108
0.09000254 0.23667223 0.75150599 111 109 109
0.09023487 0.22898188 0.77022087 112 109 109
0.08962319 0.22255615 0.78498057 113 107 109
0.09018833 0.25742610 0.69099898 112 111 111
0.09003111 0.25146839 0.71080640 116 115 115
0.09002582 0.24462145 0.73069648 119 119 118
0.09002050 0.24056169 0.74151118 113 111 110
0.09001624 0.27788354 0.61311617 0 0 0
0.08991424 0.27168490 0.62948281 0 0 0
0.08999323 0.26788397 0.65209508 80 79 79
0.08997280 0.26308882 0.67000060 109 109 109
0.08393182 0.26002147 0.68165041 109 109 108
0.09476219 0.29968541 0.53830839 0 0 0
0.09005646 0.29733907 0.54981754 0 0 0
0.08998443 0.29230409 0.56975422 0 0 0
0.08981887 0.28615063 0.59009011 0 0 0
0.08994640 0.28129376 0.60344809 0 0 0
0.08908614 0.30093014 0.53440045 0 0 0
0.11030472 -0.48478883 0.89852322 77 80 81
0.11048334 -0.48172635 0.90101780 78 82 83
0.11003641 -0.46964188 0.71361865 0 0 0
0.10881636 -0.46325998 0.85246372 74 76 76
0.10990274 -0.47431203 0.87450713 76 79 81
0.11022638 -0.47052551 0.90460938 79 83 85
0.11020773 -0.45773832 0.71875289 0 0 0
0.10979163 -0.44760808 0.72612119 0 0 0
0.10930665 -0.44333876 0.81350452 68 69 73
0.10056681 -0.45983298 0.84645516 55 56 57
0.10959454 -0.45017482 0.90835631 81 85 89
0.11027137 -0.43727325 0.73649054 0 0 0
0.10987247 -0.42813418 0.74919226 0 0 0
0.10955650 -0.42145252 0.76437140 1 1 1
0.11207292 -0.43306679 0.79214334 33 37 39
0.11892069 -0.43871467 0.80247444 72 76 79
0.10979917 -0.43029849 0.91092375 81 86 89
0.10986088 -0.41041871 0.91279677 83 87 89
0.11029100 -0.39040722 0.91405346 82 86 89
0.11037870 -0.37059587 0.91526014 85 91 95
0.11045804 -0.35051841 0.91638697 84 89 93
0.10986320 -0.33038324 0.91748435 87 90 95
0.10992000 -0.31005290 0.91850759 88 92 99
0.11034049 -0.29005188 0.91945274 88 92 97
0.10242500 -0.28143622 0.92009925 88 88 95
0.11537118 -0.27563788 0.91984313 90 94 99
0.10880609 -0.26868040 0.92035075 89 91 96
0.11022146 -0.25041071 0.92102702 88 91 98
0.10981986 -0.22973770 0.92189438 90 92 99
0.10943510 -0.20984761 0.92285081 90 91 98
0.10998582 -0.19018046 0.92401487 91 92 98
0.10992894 -0.17000123 0.92526823 90 90 98
0.11005329 -0.15018132 0.92631549 91 92 99
0.11013336 -0.13026314 0.92698891 88 90 96
0.11018794 -0.11029012 0.92744729 90 90 99
0.11023706 -0.09029218 0.92785935 89 90 99
0.11029461 -0.07028243 0.92834229 90 90 98
0.11035361 -0.05025179 0.92883898 89 89 97
0.10982496 -0.03034857 0.92935521 89 89 96
0.10967467 -0.01012779 0.92988744 91 91 99
0.10973720 0.00996847 0.93041844 89 88 95
0.10982816 0.03009593 0.93119189 89 88 95
0.10992126 0.05025684 0.93198339 88 87 92
0.10999606 0.06963435 0.93262118 89 89 93
0.11004062 0.08982046 0.93300146 89 89 94
0.11011305 0.11005075 0.93361486 85 84 90
0.11015835 0.13027194 0.93399363 85 84 90
0.11006317 0.15469648 0.91145574 89 89 93
0.10989488 0.14517206 0.92589923 83 83 87
0.10996354 0.17699831 0.87358851 95 95 99
0.10989287 0.16787689 0.88933366 93 90 95
0.11021530 0.16078747 0.90143430 90 89 93
0.11009983 0.19812975 0.83552925 105 103 106
0.10996447 0.19044266 0.84977126 101 98 102
0.11011606 0.18247712 0.86398256 98 97 100
0.11007841 0.21797261 0.79475270 110 106 108
0.11001362 0.21093190 0.80973473 108 105 107
0.11004248 0.20302127 0.82607499 105 102 105
0.10993520 0.23664739 0.75149417 112 111 112
0.10996083 0.22867363 0.77065793 110 107 109
0.11000757 0.22220102 0.78542014 109 108 108
0.10977701 0.25747549 0.69084697 113 112 112
0.10999939 0.25181050 0.70995974 115 115 116
0.11010937 0.24495637 0.73000359 118 118 118
0.10989275 0.24057463 0.74155106 113 113 114
0.11001098 0.27791495 0.61325514 0 0 0
0.10980116 0.27186910 0.62953618 0 0 0
0.11026285 0.26792314 0.65159902 74 73 73
0.10999906 0.26311241 0.66994042 110 109 108
0.11809461 0.26001163 0.68162462 113 113 111
0.11069438 0.29927325 0.53656090 0 0 0
0.10988044 0.29655277 0.54974033 0 0 0
0.11000671 0.29169597 0.56975755 0 0 0
0.10997235 0.28575656 0.59006663 0 0 0
0.10995356 0.28124010 0.60335659 0 0 0
0.10939470 0.30052644 0.53131010 0 0 0
0.13076841 -0.48556303 0.89678146 74 77 81
0.13038354 -0.48159083 0.90083864 77 79 82
0.13001442 -0.46951757 0.71322742 0 0 0
0.13101118 -0.46697856 0.85417330 73 76 87
0.12123045 -0.47936791 0.87961620 74 77 83
0.12013593 -0.47954735 0.88274515 75 79 84
0.12988363 -0.46993779 0.90397402 78 82 83
0.13027959 -0.45724430 0.71853510 0 0 0
0.12993614 -0.44725407 0.72552135 0 0 0
0.12756666 -0.44432049 0.81015839 58 59 68
0.13199874 -0.45444367 0.82894927 67 69 77
0.12977373 -0.44984317 0.90747593 83 88 91
0.13018350 -0.43679342 0.73584327 0 0 0
0.12992365 -0.42782757 0.74900695 0 0 0
0.12915928 -0.42342841 0.76535027 5 6 6
0.13243513 -0.43575468 0.79205197 54 53 58
0.13013056 -0.42984809 0.90997047 81 84 88
0.13041146 -0.41028582 0.91193384 82 87 89
0.13013553 -0.39057402 0.91329473 82 86 88
0.12998714 -0.37034090 0.91449101 85 88 93
0.13015039 -0.35023233 0.91563903 85 87 92
0.12957213 -0.33000108 0.91674818 86 90 94
0.12965322 -0.30978798 0.91772268 87 90 95
0.12964709 -0.28964601 0.91869507 88 92 96
0.13059237 -0.27053832 0.91946064 90 94 99
0.12204024 -0.26288542 0.92010944 91 94 98
0.13560957 -0.25630438 0.91982509 90 90 98
0.12861019 -0.24868107 0.92042774 88 90 97
0.13013986 -0.22975031 0.92116583 89 90 98
0.13026998 -0.21005785 0.92208646 89 92 97
0.13025503 -0.19051073 0.92320669 88 91 97
0.12980579 -0.16985202 0.92445563 88 90 97
0.12994973 -0.15004585 0.92548068 89 90 98
0.13005086 -0.13015228 0.92620078 87 89 96
0.13011985 -0.11020028 0.92669217 90 90 98
0.13018125 -0.09022115 0.92712967 89 89 98
0.13025558 -0.07023056 0.92765916 91 91 99
0.13032963 -0.05021648 0.92818619 91 91 99
0.12978940 -0.03003844 0.92871098 90 90 98
0.12967919 -0.01012107 0.92927314 92 92 100
0.12974852 0.00996137 0.92976997 88 87 94
0.12984054 0.03007107 0.93043035 89 88 94
0.12993653 0.05021000 0.93111928 88 88 92
0.13006188 0.06962273 0.93157768 88 88 92
0.12997782 0.08976496 0.93182985 89 88 94
0.13011246 0.10990570 0.93238367 85 84 88
0.13021296 0.13014942 0.93310047 83 83 88
0.13003315 0.15467499 0.91137357 89 89 92
0.12999134 0.14511768 0.92578955 82 80 86
0.12999302 0.17702360 0.87376123 96 94 99
0.13004051 0.16788292 0.88942621 92 91 95
0.13047268 0.16079113 0.90145477 90 89 92
0.13014841 0.19817178 0.83554007 105 100 104
0.13000502 0.19055297 0.84969426 104 102 105
0.12992948 0.18255179 0.86407424 99 97 102
0.13000946 0.21801888 0.79478227 110 107 108
0.12999567 0.21089791 0.80987836 106 102 105
0.12992213 0.20305548 0.82610938 105 101 105
0.12996989 0.23670856 0.75166166 114 113 114
0.12990498 0.22876386 0.77060371 111 109 111
0.13022126 0.22229966 0.78532141 109 107 108
0.12999813 0.25759961 0.69099140 111 110 108
0.12997985 0.25220044 0.70937156 114 113 114
0.12983462 0.24526248 0.72976524 116 116 115
0.13145977 0.24086860 0.74125720 115 114 112
0.13006120 0.27794801 0.61334147 0 0 0
0.12998464 0.27216776 0.62940256 0 0 0
0.12999810 0.26800425 0.65097330 69 68 69
0.12991553 0.26316753 0.67009084 110 109 109
0.13138332 0.26011533 0.68157213 110 109 107
0.13038311 0.29892869 0.53530479 0 0 0
0.13004106 0.29583737 0.54996192 0 0 0
0.13009085 0.29110768 0.56990030 0 0 0
0.12986932 0.28547331 0.58982632 0 0 0
0.12993903 0.28117437 0.60314608 0 0 0
0.12865594 0.30021643 0.52959322 0 0 0
0.15080300 -0.48711076 0.89783488 75 78 80
0.15013878 -0.48143455 0.90070362 77 79 80
0.14991070 -0.46963485 0.71274524 0 0 0
0.14333534 -0.46605480 0.84845778 73 76 84
0.15245786 -0.47502381 0.86376897 72 80 82
0.14969848 -0.46949880 0.90338806 76 80 82
0.15027998 -0.45706519 0.71816307 0 0 0
0.14991225 -0.44688115 0.72486835 0 0 0
0.14814517 -0.44042824 0.79554820 35 37 39
0.15432117 -0.44634240 0.80623097 67 68 73
0.15286195 -0.45727648 0.82856810 75 82 85
0.14999866 -0.45012991 0.90647264 79 84 86
0.15018232 -0.43621868 0.73521828 0 0 0
0.14972862 -0.42690810 0.74841650 0 0 0
0.14507225 -0.42415755 0.76426167 15 17 18
0.14769017 -0.43507891 0.78589489 42 48 50
0.15042331 -0.43019298 0.90903938 79 83 84
0.14998149 -0.40992282 0.91112682 83 87 90
0.14970983 -0.38985261 0.91251586 82 87 90
0.14961422 -0.37001812 0.91369388 84 87 91
0.14981376 -0.34995425 0.91491223 86 87 92
0.14999606 -0.32979710 0.91602462 85 90 93
0.15016115 -0.30955494 0.91703235 88 90 95
0.15031809 -0.29004547 0.91799063 88 89 97
0.15045836 -0.27046388 0.91884676 89 91 97
0.15070088 -0.25127650 0.91959429 87 89 97
0.14458434 -0.24290733 0.92012791 87 89 97
0.15731479 -0.23834746 0.91992871 85 88 95
0.14969851 -0.22930802 0.92057496 89 90 99
0.15008681 -0.20991063 0.92144007 88 90 96
0.15007628 -0.19008605 0.92257652 88 89 95
0.14967680 -0.16973604 0.92382464 88 89 97
0.14984236 -0.14994305 0.92484645 90 91 99
0.14995845 -0.13006279 0.92556368 90 90 98
0.15003188 -0.11012014 0.92601732 89 91 98
0.15009480 -0.09015079 0.92640583 91 91 99
0.15017706 -0.07017414 0.92691394 90 90 97
0.15026566 -0.05017715 0.92746053 90 89 96
0.15035540 -0.03015737 0.92801376 89 88 95
0.14984936 -0.01026538 0.92862841 91 91 100
0.14973478 0.00995457 0.92913785 88 87 94
0.14982887 0.03004802 0.92972216 90 89 95
0.14993090 0.05016883 0.93035546 87 87 92
0.15000960 0.07030574 0.93084363 87 88 92
0.15003636 0.09043283 0.93100966 89 89 92
0.15011842 0.10980393 0.93152013 84 82 86
0.15025892 0.13005129 0.93239097 78 78 84
0.15018490 0.15419153 0.91198070 88 87 90
0.14965456 0.14459436 0.92596555 79 77 84
0.15003628 0.17702460 0.87400019 96 95 98
0.15005797 0.16790079 0.88964360 90 89 92
0.15036690 0.16083638 0.90153365 89 86 90
0.15002781 0.19818426 0.83570393 105 104 106
0.15000129 0.19053865 0.84998134 104 102 106
0.14993518 0.18254108 0.86435172 96 96 99
0.14995839 0.21803578 0.79498301 111 108 108
0.15006651 0.21096743 0.80997333 110 108 110
0.14981887 0.20307057 0.82627558 104 102 105
0.14975673 0.23686689 0.75174806 115 114 113
0.15010051 0.22954167 0.76910289 115 113 114
0.14997421 0.22269564 0.78477066 110 108 109
0.15003949 0.25772596 0.69128746 109 108 107
0.14996573 0.25236753 0.70974634 112 111 111
0.14998849 0.24555315 0.72973158 112 111 110
0.15048418 0.24082314 0.74195549 113 113 111
0.15007715 0.27792057 0.61324441 0 0 0
0.15005876 0.27230254 0.62963324 0 0 0
0.15002125 0.26799833 0.65097064 72 72 72
0.14999301 0.26344210 0.66930994 109 109 109
0.15007979 0.26039594 0.68104451 110 109 109
0.15043886 0.29867164 0.53412433 0 0 0
0.15006102 0.29518952 0.54989538 0 0 0
0.14984865 0.29049224 0.56984466 0 0 0
0.15011451 0.28501222 0.58980710 0 0 0
0.14956785 0.28095428 0.60298735 0 0 0
0.14629175 0.30009034 0.52820909 0 0 0
0.16186023 -0.48267783 0.87734210 76 81 83
0.17084237 -0.48685112 0.89630307 76 80 82
0.16388310 -0.48089060 0.90035983 77 81 79
0.16998482 -0.46960093 0.71250174 0 0 0
0.16960332 -0.46479867 0.83695564 64 76 71
0.17355481 -0.47052250 0.84815045 70 79 80
0.16080208 -0.47656410 0.86351657 75 79 81
0.16958535 -0.47032686 0.90245406 77 81 83
0.17029815 -0.45673065 0.71810531 0 0 0
0.16987685 -0.44654990 0.72462244 0 0 0
0.17574271 -0.44375563 0.79290199 37 42 40
0.16589234 -0.45142280 0.81159949 54 60 62
0.16313937 -0.45942003 0.82985318 69 79 82
0.17036043 -0.45024944 0.90559909 79 83 84
0.17009885 -0.43555044 0.73487035 0 0 0
0.16945696 -0.42708181 0.74678704 0 0 0
0.16734001 -0.43154502 0.77132517 14 15 15
0.16931642 -0.43708120 0.78217642 35 36 36
0.17013764 -0.43018903 0.90818719 79 82 85
0.16964573 -0.40973350 0.91027985 81 85 89
0.16976934 -0.38968732 0.91167905 82 84 87
0.16998894 -0.36967958 0.91285805 84 88 91
0.17022217 -0.34964741 0.91411025 86 89 93
0.17043860 -0.32952622 0.91527253 86 89 94
0.16979391 -0.30986909 0.91631622 87 89 95
0.17019910 -0.29029080 0.91725578 86 89 95
0.17018244 -0.27026064 0.91815681 87 91 96
0.16955144 -0.24986993 0.91903803 89 90 96
0.17198897 -0.23274498 0.91971342 86 89 97
0.16556226 -0.22538418 0.92021501 87 89 96
0.17927015 -0.21991918 0.91999549 85 88 96
0.17000725 -0.21020154 0.92076786 85 86 92
0.17008098 -0.19009892 0.92190858 88 90 96
0.17030762 -0.16960973 0.92313745 89 89 97
0.17004528 -0.15001880 0.92415649 90 91 98
0.16982331 -0.12996173 0.92484409 89 89 97
0.16990594 -0.11003409 0.92529397 90 91 98
0.16997613 -0.09007993 0.92567663 89 89 96
0.17006551 -0.07011728 0.92616322 89 89 96
0.17016911 -0.05013741 0.92672702 90 90 98
0.17027337 -0.03013403 0.92729524 88 88 95
0.16975661 -0.00996113 0.92790245 90 90 97
0.16967959 0.00994713 0.92843234 88 88 94
0.16979010 0.03002582 0.92903650 89 89 95
0.16990662 0.05013203 0.92967375 89 88 94
0.16999576 0.07025427 0.93016173 88 88 92
0.17002650 0.09036672 0.93032979 87 87 91
0.17010206 0.10971242 0.93074394 83 83 87
0.17026059 0.12994291 0.93161181 77 76 82
0.16993764 0.15403717 0.91208488 87 85 88
0.16997919 0.14430805 0.92570274 79 78 81
0.16999041 0.17713227 0.87424953 95 93 97
0.17001198 0.16792824 0.88988133 91 89 93
0.16984081 0.16080003 0.90167926 88 86 89
0.16992872 0.19821187 0.83593121 107 104 107
0.16978724 0.19069732 0.85005407 105 104 107
0.17040028 0.18276149 0.86440235 99 98 102
0.16993470 0.21813062 0.79518942 110 107 108
0.17002926 0.21104012 0.81014960 108 106 109
0.16984754 0.20311179 0.82644335 106 103 105
0.17001317 0.23692080 0.75238488 113 111 112
0.17000473 0.22969048 0.76940923 113 113 115
0.17005508 0.22280600 0.78507881 109 105 107
0.17007549 0.25781093 0.69151633 108 106 107
0.17000395 0.25244173 0.71018635 111 110 110
0.16997392 0.24569026 0.73011861 112 110 110
0.16993673 0.24088547 0.74259959 112 110 111
0.17020952 0.27790007 0.61223371 0 0 0
0.17010445 0.27234836 0.62973695 0 0 0
0.17001808 0.26803403 0.65109225 76 76 76
0.17000527 0.26347160 0.66947683 108 107 107
0.16984305 0.26046344 0.68126771 108 107 107
0.17023505 0.29815946 0.53325031 0 0 0
0.17003599 0.29435970 0.54976569 0 0 0
0.16998495 0.28962850 0.56984509 0 0 0
0.16987960 0.28428322 0.58999046 0 0 0
0.16940070 0.28063912 0.60232722 0 0 0
0.18823826 -0.48612233 0.87302037 73 75 77
0.19047333 -0.48807351 0.89574268 75 80 82
0.19002901 -0.46953199 0.71245769 0 0 0
0.19125353 -0.46500757 0.82960067 63 65 69
0.19849841 -0.47424500 0.84606576 74 74 82
0.19170877 -0.47901992 0.89979335 78 81 83
0.18952689 -0.46946435 0.90189794 75 80 82
0.19017183 -0.45706454 0.71800546 0 0 0
0.18991409 -0.44684815 0.72456156 0 0 0
0.19418033 -0.44582560 0.78988767 28 29 31
0.18579144 -0.45735342 0.81593072 47 49 54
0.19039082 -0.45009940 0.90483812 77 82 84
0.18977232 -0.43577690 0.73477410 0 0 0
0.18961835 -0.42811981 0.74514037 0 0 0
0.19196695 -0.43712055 0.77268690 0 0 0
0.18970884 -0.43000280 0.90740578 81 84 86
0.18968449 -0.41004870 0.90940908 79 81 85
0.19013734 -0.38953817 0.91089718 80 83 86
0.19033941 -0.36948885 0.91208749 82 85 89
0.19021128 -0.34972508 0.91329497 82 86 89
0.18998784 -0.32989873 0.91449248 86 88 94
0.18979012 -0.31025272 0.91554037 85 87 93
0.18968306 -0.29037661 0.91653260 85 88 94
0.18987074 -0.27004951 0.91743946 85 88 93
0.19005192 -0.24967324 0.91831486 87 90 94
0.19023872 -0.23005873 0.91921693 86 88 96
0.19314636 -0.21572019 0.91976216 83 84 91
0.18857063 -0.20705810 0.92034681 88 88 96
0.18986074 -0.18996046 0.92123669 90 92 98
0.18990464 -0.16991653 0.92235970 88 89 95
0.19001153 -0.14998197 0.92334325 89 92 98
0.18963989 -0.12984893 0.92404202 88 90 96
0.18973453 -0.10993992 0.92450263 88 88 95
0.18982585 -0.09000873 0.92494639 89 90 98
0.18992754 -0.07006274 0.92544223 88 89 96
0.19003922 -0.05009747 0.92598682 92 92 100
0.19014961 -0.03010904 0.92652502 89 88 95
0.19026669 -0.01009732 0.92709513 92 92 99
0.19038470 0.00993904 0.92766999 89 89 95
0.18971555 0.03000258 0.92831762 90 90 95
0.18984338 0.05009256 0.92894347 88 88 93
0.18993550 0.07019635 0.92939442 88 88 93
0.18996860 0.09029155 0.92955635 88 87 93
0.19004613 0.10961720 0.92993602 84 84 89
0.19024587 0.12984570 0.93091226 76 75 83
0.18998923 0.15397730 0.91213546 87 86 88
0.18990101 0.14424881 0.92531812 79 77 80
0.18973537 0.17707775 0.87484397 96 94 97
0.18999155 0.16802384 0.89010071 91 89 93
0.18975083 0.16085074 0.90178879 91 90 91
0.19003960 0.19828773 0.83619550 103 97 101
0.18993220 0.19115838 0.84967352 101 99 103
0.19030063 0.18315817 0.86430917 98 96 100
0.18947217 0.21817416 0.79578070 108 103 105
0.18965252 0.21136787 0.80999357 106 104 106
0.19041450 0.20349238 0.82609615 104 100 103
0.19002613 0.23705424 0.75275946 111 110 109
0.18994841 0.22979696 0.76995792 108 106 107
0.19044344 0.22285188 0.78571730 107 102 104
0.19006596 0.25781583 0.69152812 110 108 107
0.19003543 0.25247819 0.71009660 110 109 108
0.18997604 0.24575864 0.73023583 110 110 108
0.19012225 0.24101507 0.74283074 112 111 111
0.19044348 0.27764689 0.61080789 0 0 0
0.18989215 0.27209142 0.62974923 0 0 0
0.18998830 0.26804383 0.65101261 84 83 84
0.19003374 0.26347021 0.66939894 111 109 107
0.18987535 0.26048445 0.68132266 111 108 107
0.19021593 0.29725786 0.53251954 0 0 0
0.19004041 0.29328168 0.54980895 0 0 0
0.18995689 0.28861089 0.56990190 0 0 0
0.18999174 0.28339539 0.58990735 0 0 0
0.18615567 0.28032567 0.60117798 0 0 0
0.20853205 -0.48029159 0.85421902 71 73 78
0.21373503 -0.48964384 0.87084363 73 75 80
0.21020524 -0.48954528 0.89487662 75 77 79
0.21001798 -0.46950623 0.71244364 0 0 0
0.21213358 -0.46579796 0.82338544 61 65 67
0.20376872 -0.47776970 0.84973373 60 64 69
0.21024210 -0.47841186 0.89966996 79 82 84
0.20978690 -0.46853600 0.90138652 74 78 81
0.20992606 -0.45725428 0.71819728 0 0 0
0.21008477 -0.44690220 0.72535944 0 0 0
0.21674189 -0.44266083 0.77538422 39 42 47
0.20273788 -0.44914448 0.79394130 52 55 58
0.20915984 -0.45484047 0.80278036 53 55 58
0.21031248 -0.44998940 0.90421702 76 80 83
0.20961650 -0.43601628 0.73545702 0 0 0
0.20939057 -0.42981242 0.74391771 0 0 0
0.21078200 -0.43748564 0.76747275 33 35 34
0.20957811 -0.42984953 0.90665612 77 82 83
0.21002586 -0.41035320 0.90859322 79 81 83
0.21035948 -0.39055793 0.91003625 77 79 82
0.21022701 -0.37079925 0.91122941 81 84 88
0.20982611 -0.35041922 0.91251745 82 85 88
0.20963151 -0.33054616 0.91371890 85 89 92
0.20987304 -0.31037298 0.91477203 86 89 94
0.21010619 -0.29014079 0.91578817 85 87 94
0.21031398 -0.26982992 0.91669372 85 88 94
0.21029335 -0.24967194 0.91756757 85 88 93
0.20999558 -0.22995108 0.91850265 86 89 96
0.21050737 -0.21069306 0.91935999 86 87 93
0.20297286 -0.20174817 0.92011994 87 90 96
0.21627943 -0.19725433 0.91986174 89 89 96
0.20885485 -0.18898143 0.92059848 89 90 97
0.20983913 -0.17011828 0.92156712 86 88 93
0.21005311 -0.15036078 0.92250688 89 91 97
0.21022762 -0.12974072 0.92327260 88 89 94
0.21034099 -0.10985277 0.92377042 87 88 95
0.21038872 -0.08999623 0.92423109 88 89 97
0.20976287 -0.07000964 0.92474073 89 89 96
0.20987858 -0.05005774 0.92525098 89 89 98
0.20999881 -0.03008480 0.92578092 88 88 95
0.21013420 -0.01008946 0.92637773 91 91 98
0.21026250 0.00993114 0.92694330 87 88 93
0.20960853 0.02997926 0.92759526 89 89 94
0.20974161 0.05005152 0.92818482 89 89 94
0.20983807 0.07013733 0.92861182 88 87 94
0.20987956 0.09021751 0.92879493 89 89 95
0.21014306 0.10978680 0.92916122 83 83 89
0.21003160 0.12998644 0.93024266 73 71 77
0.20996698 0.15404098 0.91209656 86 84 86
0.20982085 0.14419946 0.92500220 80 79 82
0.20951538 0.17688197 0.87576262 95 94 96
0.21018973 0.16824236 0.89021600 92 91 94
0.21007224 0.16089573 0.90204096 88 87 90
0.20997036 0.19834283 0.83642737 99 96 99
0.20998014 0.19129044 0.84987637 100 99 102
0.21004114 0.18282258 0.86546749 96 96 99
0.20987782 0.21791993 0.79695100 108 106 106
0.20989700 0.21165973 0.80991310 107 105 105
0.21012408 0.20374269 0.82606022 100 97 99
0.21002207 0.23714136 0.75301875 109 106 107
0.21000980 0.22994546 0.77023900 109 105 107
0.21013902 0.22262084 0.78676697 108 104 106
0.20989554 0.25770577 0.69123404 108 106 105
0.21006497 0.25240310 0.70994408 109 107 106
0.20999029 0.24573714 0.73023839 109 108 108
0.21006169 0.24102586 0.74303449 109 108 107
0.21357749 0.27961046 0.59867866 0 0 0
0.21003323 0.27701368 0.60993843 0 0 0
0.20995095 0.27163118 0.62948122 0 0 0
0.21005635 0.26785099 0.65073479 95 95 95
0.21028455 0.26321239 0.66940894 110 109 109
0.20853436 0.26033021 0.68118462 107 106 106
0.21021883 0.29618329 0.53179629 0 0 0
0.21000001 0.29209860 0.54979026 0 0 0
0.20997508 0.28751923 0.56984067 0 0 0
0.20968848 0.28260975 0.58897159 0 0 0
0.23295138 -0.50139678 0.88993382 75 77 80
0.22514471 -0.48563933 0.85845232 70 73 76
0.23574375 -0.49388176 0.87038633 73 77 77
