ply
format ascii 1.0
element vertex 1134
property float x
property float y
property float z
property uchar red
property uchar green
property uchar blue
end_header
-0.40950921 0.04987567 0.56917870 47 46 48
-0.40852544 0.04987567 0.56917870 46 46 48
0.03577308 0.10224083 1.16676736 89 89 93
0.03753135 0.10154175 1.15878952 88 89 93
0.03880457 0.09966766 1.13740242 86 86 92
0.04049867 0.09900320 1.12981975 85 85 91
0.04238084 0.09883848 1.12793982 83 82 90
0.04433040 0.09883848 1.12793982 86 86 93
0.04627995 0.09883848 1.12793982 83 83 90
0.04814938 0.09867429 1.12606621 81 81 88
0.05009570 0.09867429 1.12606621 82 81 88
0.05204201 0.09867429 1.12606621 81 81 86
0.05398833 0.09867429 1.12606621 79 79 83
0.05602771 0.09883848 1.12793982 76 76 80
0.05797726 0.09883848 1.12793982 74 75 79
0.05982727 0.09867429 1.12606621 72 72 77
0.06197949 0.09900320 1.12981975 71 71 77
0.06393230 0.09900320 1.12981975 74 74 82
0.06588510 0.09900320 1.12981975 85 85 92
0.06772503 0.09883848 1.12793982 90 90 97
0.06944349 0.09851065 1.12419879 90 90 97
0.07126839 0.09834756 1.12233746 86 85 89
0.43293706 0.17318346 1.97636104 90 86 97
0.43132302 0.17118710 1.95357883 91 87 97
0.43220851 0.17020608 1.94238353 92 87 95
0.43681738 0.17069519 1.94796503 90 88 95
0.43642202 0.16923626 1.93131578 90 88 95
0.43726858 0.16827740 1.92037344 91 89 96
0.43810561 0.16732936 1.90955448 91 89 96
0.44771194 0.16971979 1.93683386 92 90 96
0.45105958 0.16971979 1.93683386 92 90 97
0.45570928 0.17020608 1.94238353 92 90 96
0.45515403 0.16875547 1.92582905 91 89 95
0.45978889 0.16923626 1.93131578 91 89 95
0.46445024 0.16971979 1.93683386 91 89 95
0.46513996 0.16875547 1.92582905 90 89 96
0.46846858 0.16875547 1.92582905 90 89 96
0.47046068 0.16827740 1.92037344 90 89 96
0.47647950 0.16923626 1.93131578 89 89 96
0.60275722 0.11082449 1.26472354 79 78 82
-0.41646090 0.05098788 0.57061601 44 44 46
-0.41477636 0.05090219 0.56965703 44 44 46
-0.41344434 0.05085945 0.56917870 46 46 47
-0.41211453 0.05081678 0.56870121 46 46 48
-0.41009945 0.05068921 0.56727350 47 46 48
-0.40950921 0.05085945 0.56917870 46 46 48
-0.40852544 0.05085945 0.56917870 46 46 48
0.03583476 0.10443725 1.16877902 88 87 91
0.03753135 0.10354462 1.15878952 87 87 91
0.03873957 0.10146333 1.13549721 88 88 92
0.04049867 0.10095601 1.12981975 88 88 92
0.04238084 0.10078803 1.12793982 77 81 84
0.04433040 0.10078803 1.12793982 85 86 90
0.04620307 0.10062061 1.12606621 82 83 87
0.04806954 0.10045374 1.12419879 81 82 86
0.05001262 0.10045374 1.12419879 81 82 86
0.05195571 0.10045374 1.12419879 81 82 86
0.05389879 0.10045374 1.12419879 79 80 84
0.05593464 0.10062061 1.12606621 77 77 81
0.05797726 0.10078803 1.12793982 73 73 77
0.05982727 0.10062061 1.12606621 72 72 76
0.06197949 0.10095601 1.12981975 72 72 76
0.06393230 0.10095601 1.12981975 73 73 80
0.06588510 0.10095601 1.12981975 80 81 86
0.06761253 0.10062061 1.12606621 89 90 94
0.06944349 0.10045374 1.12419879 87 87 91
0.07115059 0.10012166 1.12048233 85 84 88
0.43132302 0.17456371 1.95357883 93 88 97
0.43220851 0.17356333 1.94238353 92 88 94
0.43681738 0.17406209 1.94796503 91 88 94
0.43766895 0.17306744 1.93683386 91 88 94
0.43726858 0.17159662 1.92037344 91 89 95
0.43810561 0.17062987 1.90955448 91 89 95
0.44899479 0.17356333 1.94238353 91 90 95
0.45645076 0.17257437 1.93131578 89 89 95
0.46110258 0.17306744 1.93683386 90 89 95
0.46578103 0.17356333 1.94238353 90 89 93
0.46646515 0.17257437 1.93131578 90 90 94
0.46980327 0.17257437 1.93131578 91 91 95
0.47179723 0.17208411 1.92582905 89 89 96
0.60275722 0.11301046 1.26472354 79 79 83
-0.41646090 0.05197415 0.57061601 44 43 47
-0.41442811 0.05184323 0.56917870 45 44 48
-0.41309747 0.05179974 0.56870121 46 45 49
-0.41107991 0.05166969 0.56727350 47 46 50
-0.40907249 0.05154030 0.56585294 46 46 50
0.03595876 0.10682575 1.17282331 85 84 88
0.03759562 0.10572823 1.16077375 87 86 90
0.03867479 0.10325298 1.13359845 88 87 91
0.04043129 0.10273758 1.12793982 86 85 89
0.04231044 0.10256692 1.12606621 81 83 87
0.04425676 0.10256692 1.12606621 81 83 86
0.04612645 0.10239682 1.12419879 82 83 87
0.04798995 0.10222729 1.12233746 83 84 88
0.05001262 0.10239682 1.12419879 88 88 90
0.05195571 0.10239682 1.12419879 87 87 89
0.05380956 0.10222729 1.12233746 81 81 83
0.05584188 0.10239682 1.12419879 77 77 79
0.05788096 0.10256692 1.12606621 74 74 76
0.05982727 0.10256692 1.12606621 72 72 74
0.06187637 0.10273758 1.12793982 71 71 73
0.06393230 0.10290881 1.12981975 73 73 76
0.06588510 0.10290881 1.12981975 79 79 82
0.06761253 0.10256692 1.12606621 89 89 92
0.06944349 0.10239682 1.12419879 89 89 91
0.07115059 0.10205832 1.12048233 88 88 91
0.43008360 0.17742899 1.94796503 92 88 95
0.43220851 0.17692059 1.94238353 91 89 93
0.43681738 0.17742899 1.94796503 89 89 91
0.43766895 0.17641510 1.93683386 89 89 92
0.43726858 0.17491582 1.92037344 90 90 94
0.43810561 0.17393038 1.90955448 89 90 94
0.45775491 0.17641510 1.93683386 89 89 98
0.46711949 0.17742899 1.94796503 88 88 95
0.46779791 0.17641510 1.93683386 88 88 96
0.47114554 0.17641510 1.93683386 90 90 97
0.60388386 0.11541175 1.26708758 79 79 82
-0.41611063 0.05291587 0.57013613 44 42 49
-0.41408044 0.05278269 0.56870121 44 42 49
-0.41005051 0.05251834 0.56585294 46 43 50
0.03614637 0.10942081 1.17894232 84 83 87
0.03759562 0.10773453 1.16077375 84 83 87
0.03873957 0.10538855 1.13549721 84 83 87
0.04043129 0.10468713 1.12793982 82 82 86
0.04231044 0.10451324 1.12606621 82 82 86
0.04425676 0.10451324 1.12606621 81 82 86
0.04612645 0.10433991 1.12419879 82 83 87
0.04798995 0.10416716 1.12233746 85 86 90
0.04992982 0.10416716 1.12233746 86 86 88
0.05186969 0.10416716 1.12233746 79 80 82
0.05372062 0.10399499 1.12048233 79 80 80
0.05584188 0.10433991 1.12419879 78 78 79
0.05788096 0.10451324 1.12606621 74 74 74
0.05972805 0.10433991 1.12419879 71 71 71
0.06187637 0.10468713 1.12793982 68 68 68
0.06382593 0.10468713 1.12793982 71 71 73
0.06577548 0.10468713 1.12793982 78 78 80
0.06750041 0.10433991 1.12419879 88 88 90
0.06932852 0.10416716 1.12233746 90 90 92
0.07103318 0.10382338 1.11863339 89 89 91
0.42519629 0.17874138 1.92582905 89 88 95
0.42731097 0.17823504 1.92037344 90 89 96
0.43185356 0.17874138 1.92582905 88 89 93
0.43394938 0.17823504 1.92037344 88 89 93
0.43480510 0.17723089 1.90955448 88 89 93
0.43443435 0.17574573 1.89355266 89 89 95
0.60501474 0.11782204 1.26946032 78 79 83
0.62695634 0.11782204 1.26946032 76 75 84
-0.41576096 0.05385601 0.56965703 44 39 49
-0.41338682 0.05367558 0.56774861 46 41 51
0.03614637 0.11145852 1.17894232 84 84 88
0.03759562 0.10974084 1.16077375 83 82 89
0.03873957 0.10735117 1.13549721 82 81 88
0.04043129 0.10663669 1.12793982 81 80 87
0.04231044 0.10645955 1.12606621 81 81 87
0.04418336 0.10628300 1.12419879 83 83 89
0.04605008 0.10610703 1.12233746 83 84 89
0.04791063 0.10593165 1.12048233 83 83 89
0.04992982 0.10610703 1.12233746 81 81 87
0.05186969 0.10610703 1.12233746 80 80 85
0.05372062 0.10593165 1.12048233 78 79 83
0.05574943 0.10610703 1.12233746 77 77 79
0.05778497 0.10628300 1.12419879 74 74 76
0.05972805 0.10628300 1.12419879 71 71 73
0.06177358 0.10645955 1.12606621 68 68 70
0.06382593 0.10663669 1.12793982 73 72 74
0.06566621 0.10645955 1.12606621 79 78 82
0.06750041 0.10628300 1.12419879 89 88 94
0.06921393 0.10593165 1.12048233 90 89 95
0.07091615 0.10558262 1.11679053 89 89 94
0.41267711 0.17952003 1.89885676 88 88 95
0.41830257 0.18053140 1.90955448 88 88 94
0.42160305 0.18053140 1.90955448 88 89 94
0.42490357 0.18053140 1.90955448 88 89 92
0.42820409 0.18053140 1.90955448 88 89 92
0.43029252 0.18002430 1.90419054 88 89 92
0.43236923 0.17952003 1.89885676 88 89 92
0.59627724 0.12046739 1.27423275 78 78 82
0.59623814 0.12001619 1.26946032 79 79 83
0.59731370 0.11979187 1.26708758 79 80 84
0.59950376 0.11979187 1.26708758 80 80 86
0.60057127 0.11956837 1.26472354 79 79 86
0.60614985 0.12024137 1.27184212 78 78 85
0.60381669 0.11934572 1.26236844 75 75 82
0.61264414 0.11979187 1.26708758 75 73 82
0.62695634 0.12001619 1.26946032 77 76 85
0.62215996 0.11868268 1.25535524 77 76 85
0.61409479 0.11673707 1.23477566 79 78 87
0.61622900 0.11673707 1.23477566 80 79 88
0.61500257 0.11610262 1.22806489 80 79 88
0.03614637 0.11349623 1.17894232 86 86 90
0.03759562 0.11174714 1.16077375 86 85 91
0.03873957 0.10931379 1.13549721 86 84 91
0.04036413 0.10840587 1.12606621 83 81 88
0.04224028 0.10822608 1.12419879 82 82 89
0.04418336 0.10822608 1.12419879 83 83 90
0.04605008 0.10804690 1.12233746 84 83 90
0.04783157 0.10769031 1.11863339 83 82 89
0.04984729 0.10786831 1.12048233 81 81 85
0.05178395 0.10786831 1.12048233 79 79 83
0.05363197 0.10769031 1.11863339 77 77 80
0.05565728 0.10786831 1.12048233 76 76 78
0.05778497 0.10822608 1.12419879 73 73 75
0.05962916 0.10804690 1.12233746 72 71 73
0.06167114 0.10822608 1.12419879 71 71 73
0.06371990 0.10840587 1.12606621 75 71 76
0.06566621 0.10840587 1.12606621 81 77 83
0.06738865 0.10804690 1.12233746 89 87 95
0.06921393 0.10786831 1.12048233 91 89 96
0.07079951 0.10733607 1.11495364 90 88 95
0.42640767 0.18592687 1.93131578 87 88 92
0.42852491 0.18539867 1.92582905 88 89 93
0.43308392 0.18592687 1.93131578 89 89 93
0.43394938 0.18487346 1.92037344 89 89 93
0.43358374 0.18331553 1.90419054 89 89 93
0.59847963 0.12266979 1.27423275 76 76 81
0.59955502 0.12243965 1.27184212 78 77 84
0.60062641 0.12221035 1.26946032 81 80 87
0.60282058 0.12221035 1.26946032 80 80 86
0.60843295 0.12290081 1.27663243 78 77 84
0.60607398 0.12198193 1.26708758 76 75 81
0.61045408 0.12198193 1.26708758 74 73 80
0.61379141 0.12221035 1.26946032 75 73 80
0.61254430 0.12152761 1.26236844 75 73 81
0.61702424 0.12198193 1.26708758 75 73 82
0.61805904 0.12175435 1.26472354 76 74 83
0.62373608 0.12243965 1.27184212 76 75 84
0.62476218 0.12221035 1.26946032 77 76 83
0.62578446 0.12198193 1.26708758 77 77 84
0.62215996 0.12085246 1.25535524 79 78 85
0.61746895 0.11952441 1.24156010 78 78 85
0.61848217 0.11930590 1.23929036 78 77 83
0.61723894 0.11865515 1.23253059 78 77 83
0.03620934 0.11573521 1.18099630 88 86 95
0.03753135 0.11355899 1.15878952 89 87 96
0.03861022 0.11090486 1.13170588 89 87 96
0.04029719 0.11016917 1.12419879 86 84 93
0.04217034 0.10998677 1.12233746 81 80 87
0.04411021 0.10998677 1.12233746 81 80 87
0.04597396 0.10980497 1.12048233 81 81 88
0.04783157 0.10962378 1.11863339 81 80 87
0.04984729 0.10980497 1.12048233 80 80 85
0.05178395 0.10980497 1.12048233 79 78 83
0.05363197 0.10962378 1.11863339 77 77 81
0.05565728 0.10980497 1.12048233 77 77 81
0.05768930 0.10998677 1.12233746 73 73 77
0.05953060 0.10980497 1.12048233 71 71 75
0.06167114 0.11016917 1.12419879 68 68 72
0.06361423 0.11016917 1.12419879 74 69 74
0.06566621 0.11035218 1.12606621 83 78 84
0.06738865 0.10998677 1.12233746 92 88 93
0.06921393 0.10980497 1.12048233 93 89 94
0.07079951 0.10926317 1.11495364 91 88 93
0.43220851 0.19034959 1.94238353 90 89 93
0.43681738 0.19089659 1.94796503 90 90 94
0.43892300 0.19034959 1.94238353 90 89 93
0.43603337 0.18766105 1.91494870 90 90 93
0.60175329 0.12463792 1.27184212 81 81 84
0.60622638 0.12510736 1.27663243 80 80 83
0.61073321 0.12558036 1.28145909 79 79 82
0.60720891 0.12440451 1.26946032 77 77 81
0.60712916 0.12394032 1.26472354 76 75 80
0.61045408 0.12417198 1.26708758 75 75 80
0.61379141 0.12440451 1.26946032 76 75 80
0.61368710 0.12394032 1.26472354 76 75 80
0.61817974 0.12440451 1.26946032 75 73 81
0.61921430 0.12417198 1.26708758 76 74 81
0.62608534 0.12510736 1.27663243 76 74 82
0.62711090 0.12487220 1.27423275 76 75 80
0.62813264 0.12463792 1.27184212 75 75 78
0.62447280 0.12347957 1.26002204 77 77 80
0.62202591 0.12256829 1.25072300 78 78 80
0.61961490 0.12167035 1.24156010 76 76 78
0.62062418 0.12144792 1.23929036 75 75 77
0.03740348 0.11516813 1.15484130 88 86 95
0.03854587 0.11267282 1.12981975 88 86 95
0.04029719 0.11211226 1.12419879 85 84 91
0.04217034 0.11192665 1.12233746 84 83 90
0.04411021 0.11192665 1.12233746 82 82 89
0.04597396 0.11174164 1.12048233 81 81 88
0.04783157 0.11155725 1.11863339 80 80 87
0.04984729 0.11174164 1.12048233 79 79 86
0.05178395 0.11174164 1.12048233 78 78 85
0.05363197 0.11155725 1.11863339 76 77 81
0.05565728 0.11174164 1.12048233 76 76 78
0.05768930 0.11192665 1.12233746 73 73 75
0.05953060 0.11174164 1.12048233 71 71 73
0.06167114 0.11211226 1.12419879 71 70 72
0.06371990 0.11229849 1.12606621 72 69 73
0.06566621 0.11229849 1.12606621 84 80 86
0.06750041 0.11211226 1.12419879 93 88 95
0.06921393 0.11174164 1.12048233 93 88 95
0.43726858 0.19151187 1.92037344 91 90 92
0.60175329 0.12683620 1.27184212 79 79 85
0.60622638 0.12731393 1.27663243 79 78 84
0.61073321 0.12779526 1.28145909 77 76 82
0.60720891 0.12659867 1.26946032 76 76 80
0.60826403 0.12636204 1.26708758 76 76 80
0.61159724 0.12659867 1.26946032 76 76 80
0.61379141 0.12659867 1.26946032 75 75 79
0.61483419 0.12636204 1.26708758 74 74 78
0.61933953 0.12683620 1.27184212 75 74 78
0.62037385 0.12659867 1.26946032 75 74 78
0.62845242 0.12779526 1.28145909 75 73 80
0.63186175 0.12803729 1.28388608 75 74 79
0.63288224 0.12779526 1.28145909 76 75 77
0.62797451 0.12636204 1.26708758 77 76 78
0.62548804 0.12542430 1.25768435 77 77 79
0.62189287 0.12427149 1.24612474 76 76 78
0.03740348 0.11716418 1.15484130 84 83 90
0.03861022 0.11481699 1.13170588 84 83 90
0.04036413 0.11424480 1.12606621 83 82 89
0.04217034 0.11386651 1.12233746 84 83 90
0.04411021 0.11386651 1.12233746 84 83 90
0.04597396 0.11367830 1.12048233 84 83 90
0.04791063 0.11367830 1.12048233 79 80 86
0.04992982 0.11386651 1.12233746 78 79 84
0.05186969 0.11386651 1.12233746 77 78 82
0.05372062 0.11367830 1.12048233 75 76 80
0.05565728 0.11367830 1.12048233 74 75 77
0.05768930 0.11386651 1.12233746 72 73 75
0.05953060 0.11367830 1.12048233 73 73 75
0.06167114 0.11405534 1.12419879 73 73 75
0.06750041 0.11405534 1.12419879 91 90 94
0.60958093 0.12976485 1.27904117 76 76 80
0.60720891 0.12879284 1.26946032 76 76 80
0.60712916 0.12831226 1.26472354 76 76 79
0.61045408 0.12855209 1.26708758 76 76 78
0.61379141 0.12879284 1.26946032 75 75 77
0.61483419 0.12855209 1.26708758 74 74 76
0.61817974 0.12879284 1.26946032 75 74 78
0.62153780 0.12903447 1.27184212 75 74 78
0.63083744 0.13050355 1.28632224 74 73 77
0.63547242 0.13100071 1.29122257 74 73 77
0.63649184 0.13075165 1.28876781 77 73 76
0.63033092 0.12903447 1.27184212 81 77 80
0.62898892 0.12831226 1.26472354 79 77 79
0.62418771 0.12689184 1.25072300 76 75 77
0.03589665 0.12080666 1.17079771 84 83 90
0.03746731 0.11936358 1.15681207 84 83 90
0.03873957 0.11716425 1.13549721 84 83 90
0.04043129 0.11638445 1.12793982 84 83 89
0.04224028 0.11599843 1.12419879 84 85 90
0.04411021 0.11580638 1.12233746 83 84 89
0.04605008 0.11580638 1.12233746 82 82 87
0.04798995 0.11580638 1.12233746 75 78 82
0.05001262 0.11599843 1.12419879 76 78 82
0.05186969 0.11580638 1.12233746 75 76 80
0.05380956 0.11580638 1.12233746 75 76 80
0.05565728 0.11561497 1.12048233 75 76 78
0.05778497 0.11599843 1.12419879 72 73 75
0.05962916 0.11580638 1.12233746 72 72 74
0.60843295 0.13172702 1.27663243 76 76 80
0.63203675 0.13297918 1.28876781 74 73 77
0.63668513 0.13348675 1.29368675 74 73 77
0.63770419 0.13323249 1.29122257 74 72 74
0.63151574 0.13147943 1.27423275 74 72 75
0.03608361 0.12347002 1.17689562 83 83 88
0.03759562 0.12177866 1.16077375 83 83 88
0.03886979 0.11952729 1.13931406 84 84 88
0.04049867 0.11853123 1.12981975 85 85 89
0.04224028 0.11794152 1.12419879 87 87 91
0.04411021 0.11774625 1.12233746 84 84 88
0.04605008 0.11774625 1.12233746 81 82 86
0.04806954 0.11794152 1.12419879 78 79 83
0.05009570 0.11813743 1.12606621 76 77 81
0.05195571 0.11794152 1.12419879 75 76 81
0.05380956 0.11774625 1.12233746 75 76 81
0.05574943 0.11774625 1.12233746 75 75 78
0.05788096 0.11813743 1.12606621 73 73 76
0.05972805 0.11794152 1.12419879 71 71 75
0.63083744 0.13495016 1.28632224 73 72 76
0.63547242 0.13546425 1.29122257 73 72 76
0.63649184 0.13520671 1.28876781 72 71 73
0.63033092 0.13343102 1.27184212 72 71 73
0.55002588 0.07183710 0.68473923 63 63 65
0.54899126 0.07154802 0.68198377 62 62 65
0.54796493 0.07126126 0.67925036 63 63 65
0.03595876 0.12506993 1.17282331 82 81 88
0.03759562 0.12378496 1.16077375 83 82 90
0.03893523 0.12170104 1.14123201 83 83 92
0.04056628 0.12068517 1.13170588 86 86 93
0.04411021 0.11968612 1.12233746 86 86 93
0.04605008 0.11968612 1.12233746 82 83 88
0.04806954 0.11988460 1.12419879 81 82 86
0.05017905 0.12028355 1.12793982 77 78 83
0.05204201 0.12008375 1.12606621 75 75 82
0.05389879 0.11988460 1.12419879 74 74 81
0.62964267 0.13691367 1.28388608 73 72 74
0.63426429 0.13743426 1.28876781 72 71 73
0.63528407 0.13717346 1.28632224 72 71 73
0.63033092 0.13562930 1.27184212 72 71 73
0.55002588 0.07302062 0.68473923 62 62 65
0.54954410 0.07280002 0.68267053 62 62 65
0.54906523 0.07258074 0.68061429 63 64 67
0.54858923 0.07236278 0.67857039 64 64 67
0.54866368 0.07221819 0.67721462 64 64 67
0.03759562 0.12579127 1.16077375 83 81 88
0.03919919 0.12451203 1.14896917 84 82 89
0.04814938 0.12203006 1.12606621 82 82 86
0.05017905 0.12223311 1.12793982 79 80 84
0.63083744 0.13939677 1.28632224 73 73 75
0.63668513 0.14019485 1.29368675 72 72 74
0.63649184 0.13966179 1.28876781 72 72 74
0.63151574 0.13808665 1.27423275 72 71 73
0.55113930 0.07435435 0.68612534 62 62 65
0.55176675 0.07427917 0.68543160 62 62 65
0.55072403 0.07397996 0.68267053 62 63 66
0.54968971 0.07368315 0.67993164 62 63 67
0.63203675 0.14188932 1.28876781 73 73 75
0.63790250 0.14270321 1.29616034 72 72 74
0.63892114 0.14243087 1.29368675 73 72 74
0.63389879 0.14081845 1.27904117 73 73 75
0.55261552 0.07623471 0.69243294 63 63 66
0.55275071 0.07592449 0.68961531 62 62 65
0.55169767 0.07561680 0.68682051 62 62 65
0.55232519 0.07554026 0.68612534 62 62 65
0.55183548 0.07531159 0.68404830 63 63 66
0.55024165 0.07493351 0.68061429 63 64 66
0.55031294 0.07478335 0.67925036 64 64 67
0.63444912 0.14466691 1.29368675 72 72 78
0.64035130 0.14549993 1.30113602 71 71 75
0.64014280 0.14494352 1.29616034 72 72 76
0.63871932 0.14411685 1.28876781 73 73 77
0.54750395 0.07688180 0.68751711 64 64 68
0.54980749 0.07703807 0.68891448 63 63 65
0.55099821 0.07703807 0.68891448 62 62 64
0.55162835 0.07695986 0.68821508 62 62 64
0.55113930 0.07672618 0.68612534 62 62 64
0.55120939 0.07657117 0.68473923 63 63 65
0.55072403 0.07633984 0.68267053 63 64 67
0.54968971 0.07603356 0.67993164 63 64 68
0.54976213 0.07588134 0.67857039 64 65 68
0.55038404 0.07580546 0.67789185 64 65 69
0.63324064 0.14662312 1.29122257 73 72 79
0.64014280 0.14718382 1.29616034 73 72 79
0.64115721 0.14690293 1.29368675 73 72 79
0.54694921 0.07799102 0.68682051 62 62 64
0.54813635 0.07799102 0.68682051 62 62 64
0.54988056 0.07807012 0.68751711 62 62 64
0.55051059 0.07799102 0.68682051 62 62 64
0.54891694 0.07759792 0.68335873 64 64 66
0.54899126 0.07744179 0.68198377 64 64 66
0.54851454 0.07720876 0.67993164 64 64 66
0.54858923 0.07705420 0.67857039 64 64 66
0.54921234 0.07697714 0.67789185 65 65 67
0.63324064 0.14885490 1.29122257 75 74 81
0.64238310 0.14942414 1.29616034 74 73 80
0.54750395 0.07925844 0.68751711 62 62 66
0.54813635 0.07917814 0.68682051 62 62 66
0.54988056 0.07925844 0.68751711 62 62 66
0.54939729 0.07901802 0.68543160 62 62 66
0.54671246 0.07846268 0.68061429 63 64 68
0.54679090 0.07830543 0.67925036 64 64 68
0.54796493 0.07830543 0.67925036 64 64 68
0.54804069 0.07814882 0.67789185 64 64 68
0.54866368 0.07807075 0.67721462 62 62 66
0.54983419 0.07807075 0.67721462 61 62 66
0.54750395 0.08044676 0.68751711 62 62 66
0.54813635 0.08036525 0.68682051 61 62 67
0.54932344 0.08036525 0.68682051 61 62 67
0.54773581 0.07996018 0.68335873 61 62 67
0.54507071 0.07939991 0.67857039 62 63 67
0.54569727 0.07932051 0.67789185 62 63 67
0.54686898 0.07932051 0.67789185 61 62 66
0.54749316 0.07924126 0.67721462 60 61 65
0.54811609 0.07916218 0.67653877 60 61 65
0.54983419 0.07924126 0.67721462 59 61 65
0.54805976 0.08171795 0.68821508 61 61 68
0.54988056 0.08163507 0.68751711 61 61 69
0.54773581 0.08114132 0.68335873 63 63 70
0.54452562 0.08049218 0.67789185 61 62 68
0.54515213 0.08041177 0.67721462 60 61 66
0.54686898 0.08049218 0.67789185 60 60 65
0.54749316 0.08041177 0.67721462 59 60 64
0.54811609 0.08033152 0.67653877 59 60 64
0.54928547 0.08033152 0.67653877 59 60 64
0.54980749 0.08299173 0.68891448 61 61 68
0.54988056 0.08282340 0.68751711 61 61 68
0.54884237 0.08248875 0.68473923 62 62 70
0.54507071 0.08174561 0.67857039 62 62 69
0.54624355 0.08174561 0.67857039 60 60 67
0.54741639 0.08174561 0.67857039 59 59 66
0.54749316 0.08158229 0.67721462 59 59 65
0.54921234 0.08166386 0.67789185 59 60 65
0.54805976 0.08409701 0.68821508 61 62 67
0.54813635 0.08392660 0.68682051 61 62 67
0.54876745 0.08384164 0.68612534 60 61 66
0.54718423 0.08341948 0.68267053 61 62 67
0.54452562 0.08283555 0.67789185 62 62 68
0.54624355 0.08291847 0.67857039 61 61 68
0.54741639 0.08291847 0.67857039 60 60 67
0.54749316 0.08275279 0.67721462 59 59 66
0.55031294 0.08300155 0.67925036 59 59 66
-0.04972792 0.07707085 0.62191910 87 87 89
0.54750395 0.08520003 0.68751711 61 62 66
0.54647535 0.08485579 0.68473923 61 62 66
0.54710621 0.08477016 0.68404830 61 62 66
0.54608434 0.08442938 0.68129832 61 62 66
0.54398161 0.08392330 0.67721462 61 62 66
0.54624355 0.08409132 0.67857039 61 62 67
0.54741639 0.08409132 0.67857039 60 61 66
-0.04972792 0.07814579 0.62191910 83 80 80
0.54372925 0.08560694 0.68129832 61 62 66
0.54435968 0.08552099 0.68061429 62 63 67
0.54498893 0.08543521 0.67993164 63 64 68
0.54398161 0.08509382 0.67721462 63 64 68
0.54569727 0.08517891 0.67789185 61 62 66
-0.05622913 0.07929347 0.62249023 81 81 83
-0.05505209 0.07914811 0.62134910 80 80 82
-0.05402767 0.07922073 0.62191910 79 79 81
-0.05075629 0.07914811 0.62134910 78 76 79
-0.04968234 0.07914811 0.62134910 80 76 79
-0.04856387 0.07907563 0.62078005 79 74 77
0.54263848 0.08661042 0.67993164 63 64 68
0.54326880 0.08652364 0.67925036 64 65 69
0.54444283 0.08652364 0.67925036 64 65 69
0.54343873 0.08617824 0.67653877 63 64 68
-0.05730505 0.08036940 0.62249023 74 75 79
-0.05612605 0.08022206 0.62134910 73 73 77
-0.05397814 0.08022206 0.62134910 73 73 75
-0.05285574 0.08014860 0.62078005 73 72 74
-0.05183024 0.08022206 0.62134910 72 70 72
-0.05070981 0.08014860 0.62078005 75 71 74
-0.04963684 0.08014860 0.62078005 75 70 74
-0.04856387 0.08014860 0.62078005 76 70 74
0.54381371 0.08778563 0.67993164 63 64 68
0.54498893 0.08778563 0.67993164 63 64 68
-0.05720000 0.08129601 0.62134910 69 66 68
-0.05607465 0.08122157 0.62078005 69 68 69
-0.05392871 0.08122157 0.62078005 67 66 66
-0.05280739 0.08114726 0.62021214 68 67 67
-0.05178278 0.08122157 0.62078005 68 64 65
-0.05070981 0.08122157 0.62078005 67 63 66
-0.04963684 0.08122157 0.62078005 67 61 64
-0.04851944 0.08114726 0.62021214 66 58 63
-0.04744745 0.08114726 0.62021214 66 60 64
-0.04641794 0.08122157 0.62078005 69 62 68
-0.05720000 0.08236997 0.62134910 70 62 65
-0.05607465 0.08229454 0.62078005 68 62 64
-0.05490113 0.08214409 0.61964518 66 62 64
-0.05387937 0.08221924 0.62021214 64 61 63
-0.05280739 0.08221924 0.62021214 62 59 61
-0.05178278 0.08229454 0.62078005 63 59 60
-0.05070981 0.08229454 0.62078005 63 59 61
-0.04963684 0.08229454 0.62078005 64 59 63
-0.04851944 0.08221924 0.62021214 62 56 62
-0.04744745 0.08221924 0.62021214 59 54 59
-0.04641794 0.08229454 0.62078005 60 56 61
-0.04534497 0.08229454 0.62078005 65 61 66
-0.05816732 0.08329123 0.62021214 65 60 64
-0.05714761 0.08336750 0.62078005 65 61 64
-0.05602334 0.08329123 0.62021214 65 62 65
-0.05490113 0.08321510 0.61964518 66 64 66
-0.05383012 0.08321510 0.61964518 67 65 67
-0.05275911 0.08321510 0.61964518 68 66 68
-0.05173540 0.08329123 0.62021214 67 66 68
-0.05066341 0.08329123 0.62021214 64 63 65
-0.04959143 0.08329123 0.62021214 63 62 64
-0.04851944 0.08329123 0.62021214 64 63 65
-0.04744745 0.08329123 0.62021214 63 63 65
-0.04637547 0.08329123 0.62021214 62 61 63
-0.04530348 0.08329123 0.62021214 61 60 62
-0.04423149 0.08329123 0.62021214 60 60 62
0.58027560 0.07505137 0.55885559 65 65 70
0.57696068 0.07449862 0.55473965 66 65 70
0.58077109 0.07486621 0.55747682 66 66 71
0.57795823 0.07413462 0.55202919 74 74 78
0.57891238 0.07413462 0.55202919 70 70 73
0.57986647 0.07413462 0.55202919 67 67 70
0.58129400 0.07419504 0.55247909 66 66 69
0.58559090 0.07425556 0.55292970 66 66 70
0.58654660 0.07425556 0.55292970 66 66 70
-0.05816732 0.08436321 0.62021214 77 73 77
-0.05714761 0.08444047 0.62078005 77 74 77
-0.05602334 0.08436321 0.62021214 79 78 80
-0.05485099 0.08420913 0.61907929 83 82 84
-0.05383012 0.08428610 0.61964518 80 79 81
-0.05271094 0.08420913 0.61907929 78 77 79
-0.05168811 0.08428610 0.61964518 79 78 80
-0.05066341 0.08436321 0.62021214 78 78 80
-0.04954610 0.08428610 0.61964518 77 77 79
-0.04851944 0.08436321 0.62021214 74 74 76
-0.04744745 0.08436321 0.62021214 73 72 74
-0.04633308 0.08428610 0.61964518 72 70 73
-0.04526207 0.08428610 0.61964518 72 69 72
-0.04419106 0.08428610 0.61964518 74 69 77
0.57979763 0.07595469 0.55839527 65 65 70
0.57791954 0.07545745 0.55473965 66 65 71
0.57653457 0.07502766 0.55158001 66 66 70
0.57701844 0.07496666 0.55113161 68 68 72
0.57797104 0.07496666 0.55113161 67 67 70
0.57892364 0.07496666 0.55113161 65 65 67
0.58082062 0.07508876 0.55202919 65 65 67
0.58177477 0.07508876 0.55202919 66 65 68
0.58367950 0.07521125 0.55292970 66 66 68
0.58511245 0.07527265 0.55338109 66 66 68
0.58511364 0.07514995 0.55247909 65 65 69
0.58654660 0.07521125 0.55292970 65 65 69
0.58798188 0.07527265 0.55338109 65 65 69
-0.05602334 0.08543520 0.62021214 81 80 82
-0.05490113 0.08535711 0.61964518 83 83 85
-0.05387937 0.08543520 0.62021214 84 84 85
-0.05275911 0.08535711 0.61964518 81 81 82
-0.05168811 0.08535711 0.61964518 82 82 82
-0.05066341 0.08543520 0.62021214 82 82 84
-0.04954610 0.08535711 0.61964518 81 81 83
-0.04851944 0.08543520 0.62021214 83 82 84
-0.04740408 0.08535711 0.61964518 86 82 87
-0.04629076 0.08527916 0.61907929 84 80 86
-0.04522074 0.08527916 0.61907929 82 78 85
-0.04415071 0.08527916 0.61907929 81 77 82
0.58123392 0.07711039 0.55977857 65 65 68
0.57839280 0.07647885 0.55519396 66 66 69
0.57653457 0.07598102 0.55158001 67 67 70
0.57701844 0.07591925 0.55113161 66 66 69
0.57750154 0.07585758 0.55068386 66 65 68
0.57845336 0.07585758 0.55068386 66 65 67
0.58034801 0.07598102 0.55158001 66 65 67
0.58511364 0.07610487 0.55247909 65 65 69
0.58654660 0.07616695 0.55292970 65 65 69
-0.05607465 0.08658641 0.62078005 78 77 79
-0.05490113 0.08642811 0.61964518 82 79 80
-0.05387937 0.08650719 0.62021214 82 80 80
-0.05271094 0.08634918 0.61907929 81 80 80
-0.05168811 0.08642811 0.61964518 81 80 80
-0.05061710 0.08642811 0.61964518 81 78 80
-0.04954610 0.08642811 0.61964518 81 77 79
-0.04847509 0.08642811 0.61964518 81 80 82
-0.04740408 0.08642811 0.61964518 81 77 82
-0.04629076 0.08634918 0.61907929 82 78 83
-0.04522074 0.08634918 0.61907929 83 79 84
-0.04415071 0.08634918 0.61907929 84 80 84
0.58171427 0.07814244 0.56024116 66 65 67
0.57933110 0.07769298 0.55701876 66 65 67
0.58077109 0.07775687 0.55747682 66 65 67
0.57748795 0.07693438 0.55158001 66 65 67
0.57797104 0.07687183 0.55113161 66 65 67
0.57939470 0.07693438 0.55158001 66 65 67
0.58082062 0.07699703 0.55202919 66 65 67
0.58559090 0.07712264 0.55292970 65 64 68
0.58654660 0.07712264 0.55292970 64 63 67
-0.05607465 0.08765937 0.62078005 79 75 78
-0.05490113 0.08749912 0.61964518 77 76 78
-0.05383012 0.08749912 0.61964518 79 78 80
-0.05271094 0.08741921 0.61907929 80 79 81
-0.05164091 0.08741921 0.61907929 80 79 80
-0.05061710 0.08749912 0.61964518 78 76 76
-0.04950085 0.08741921 0.61907929 78 74 75
-0.04843082 0.08741921 0.61907929 79 76 77
-0.04736079 0.08741921 0.61907929 80 74 78
-0.04629076 0.08741921 0.61907929 84 78 82
-0.04415071 0.08741921 0.61907929 82 78 81
-0.04308068 0.08741921 0.61907929 81 77 80
0.28105080 0.20366816 1.44232309 84 82 91
0.57979763 0.07885011 0.55839527 66 65 67
0.57790655 0.07846233 0.55564904 66 65 67
0.58029389 0.07865574 0.55701876 65 64 66
0.57842922 0.07801470 0.55247909 64 64 67
0.57891238 0.07795117 0.55202919 65 65 68
0.57986647 0.07795117 0.55202919 66 65 68
0.58129400 0.07801470 0.55247909 66 65 68
0.58559090 0.07807834 0.55292970 64 63 66
0.58702540 0.07814207 0.55338109 63 62 66
0.59421951 0.07833391 0.55473965 65 65 69
-0.05602334 0.08865117 0.62021214 80 77 80
-0.05164091 0.08848924 0.61907929 80 79 81
-0.05057088 0.08848924 0.61907929 77 76 77
-0.04945568 0.08840851 0.61851448 77 76 76
-0.04838663 0.08840851 0.61851448 79 75 76
-0.04736079 0.08848924 0.61907929 79 75 76
-0.04624853 0.08840851 0.61851448 81 77 78
-0.04517948 0.08840851 0.61851448 81 77 79
-0.04407021 0.08832791 0.61795062 79 75 76
0.26543155 0.20186609 1.41227472 81 79 86
0.27012360 0.20356244 1.42414248 82 78 87
0.27796644 0.20572340 1.43926084 84 80 90
0.28165004 0.20660068 1.44539833 83 81 90
0.57979763 0.07981525 0.55839527 66 66 69
0.57980752 0.07968398 0.55747682 66 66 69
0.58124912 0.07974956 0.55793566 66 66 69
0.57935244 0.07935768 0.55519396 65 65 68
0.58078772 0.07942272 0.55564904 65 65 69
0.57984698 0.07916317 0.55383319 65 65 69
0.58033007 0.07909855 0.55338109 65 65 69
0.58081245 0.07903403 0.55292970 65 65 69
0.58224303 0.07909855 0.55338109 65 65 69
0.58367598 0.07916317 0.55383319 65 65 69
0.58559012 0.07929274 0.55473965 64 64 68
0.58606935 0.07922790 0.55428606 63 63 67
0.58654773 0.07916317 0.55383319 63 63 67
0.58798540 0.07922790 0.55428606 62 62 66
0.58942538 0.07929274 0.55473965 64 64 67
0.59135205 0.07942272 0.55564904 66 67 70
0.59231246 0.07942272 0.55564904 67 67 71
0.59278697 0.07935768 0.55519396 66 66 70
0.59423321 0.07942272 0.55564904 65 65 69
0.59470618 0.07935768 0.55519396 64 64 68
0.59469169 0.07922790 0.55428606 64 64 68
-0.04731758 0.08947755 0.61851448 79 75 76
-0.04620637 0.08939599 0.61795062 79 75 76
-0.04509718 0.08931457 0.61738783 79 75 76
-0.04403008 0.08931457 0.61738783 77 76 76
0.26520056 0.20602395 1.42414248 80 77 83
0.26654214 0.20516193 1.41818380 78 76 83
0.27069226 0.20645769 1.42714071 80 78 85
0.27489516 0.20776992 1.43621159 83 81 88
0.27855787 0.20865405 1.44232309 84 82 91
0.28225186 0.20954573 1.44848680 83 82 91
0.28597757 0.21044506 1.45470357 79 78 87
0.28911233 0.21089764 1.45783186 77 76 85
0.29226059 0.21135215 1.46097374 78 77 86
0.29415181 0.21089764 1.45783186 86 86 95
0.29540104 0.20999444 1.45158851 83 82 91
0.91213894 0.13470797 0.93117011 66 65 72
0.90999836 0.13415514 0.92734861 65 64 71
0.91445506 0.13433890 0.92861897 65 65 69
0.58075434 0.08091370 0.55931669 67 67 71
0.58172107 0.08091370 0.55931669 67 67 71
0.58220744 0.08084700 0.55885559 66 66 70
0.58221346 0.08071391 0.55793566 66 66 70
0.58269823 0.08064754 0.55747682 65 65 69
0.58079600 0.08025156 0.55473965 64 65 69
0.58080423 0.08012043 0.55383319 65 66 70
0.58176148 0.08012043 0.55383319 65 66 70
0.58367246 0.08025156 0.55473965 65 65 69
0.58511007 0.08031728 0.55519396 65 65 69
0.58655006 0.08038311 0.55564904 65 65 68
0.58702928 0.08031728 0.55519396 65 65 68
0.58702737 0.08018593 0.55428606 65 65 68
0.58894855 0.08031728 0.55519396 63 63 65
0.59039164 0.08038311 0.55564904 64 64 65
0.59280980 0.08058127 0.55701876 67 67 69
0.59377253 0.08058127 0.55701876 68 68 71
0.59424704 0.08051511 0.55656147 67 67 70
0.59472072 0.08044906 0.55610490 65 65 68
0.59519362 0.08038311 0.55564904 64 64 68
0.59517831 0.08025156 0.55473965 64 64 68
-0.04505615 0.09029943 0.61682606 79 76 79
0.25893122 0.20546395 1.40350282 64 60 66
0.26353958 0.20717971 1.41522300 61 56 64
0.26955730 0.20804839 1.42115688 59 58 65
0.27431399 0.20980778 1.43317509 62 60 67
0.27796644 0.21069869 1.43926084 62 61 68
0.28165004 0.21159719 1.44539833 67 67 74
0.28536522 0.21250339 1.45158851 62 62 70
0.28849190 0.21295941 1.45470357 61 61 70
0.29226059 0.21387734 1.46097374 62 62 69
0.29415181 0.21341738 1.45783186 64 63 69
0.29603493 0.21295941 1.45470357 63 63 67
0.90963989 0.13594395 0.92861897 64 64 71
0.90751541 0.13538755 0.92481834 64 64 71
0.90664011 0.13501915 0.92230183 64 64 71
0.91071236 0.13538755 0.92481834 64 64 71
0.58075434 0.08188043 0.55931669 66 66 72
0.58268261 0.08201577 0.56024116 67 67 72
0.58316898 0.08194804 0.55977857 67 67 71
0.58413655 0.08194804 0.55977857 67 66 70
0.58462131 0.08188043 0.55931669 65 65 69
0.58270335 0.08147708 0.55656147 64 65 69
0.58223128 0.08127689 0.55519396 64 65 69
0.58319086 0.08127689 0.55519396 64 65 69
0.58558929 0.08147708 0.55656147 64 65 69
0.58848387 0.08174554 0.55839527 64 65 69
0.58896387 0.08167826 0.55793566 66 66 70
0.58895874 0.08154403 0.55701876 67 67 70
0.58895361 0.08141024 0.55610490 67 67 69
0.59039915 0.08147708 0.55656147 64 64 65
0.59330958 0.08174554 0.55839527 63 63 64
0.59525537 0.08188043 0.55931669 67 67 67
0.59573054 0.08181293 0.55885559 67 67 68
0.59620500 0.08174554 0.55839527 66 66 68
0.59667861 0.08167826 0.55793566 64 64 66
0.59666085 0.08154403 0.55701876 64 64 67
0.59566575 0.08127689 0.55519396 63 63 67
0.24768943 0.20660651 1.39483917 50 46 52
0.24856593 0.20533898 1.38628185 50 47 52
0.25096202 0.20533898 1.38628185 51 47 55
0.25733289 0.20660651 1.39483917 53 50 55
0.26189932 0.20832108 1.40641463 50 49 55
0.26433018 0.20832108 1.40641463 49 48 54
0.27258509 0.21094698 1.42414248 51 49 56
0.27737752 0.21273467 1.43621159 50 49 57
0.28045407 0.21318634 1.43926084 52 51 59
0.28354374 0.21363993 1.44232309 47 46 55
0.28603667 0.21363993 1.44232309 46 45 53
0.29038313 0.21501234 1.45158851 41 40 48
0.29289207 0.21501234 1.45158851 41 40 46
0.29476982 0.21455291 1.44848680 40 40 44
0.29727343 0.21455291 1.44848680 35 35 39
0.90839553 0.13736083 0.92734861 64 63 70
0.90627903 0.13679941 0.92355835 65 64 71
0.90540826 0.13642767 0.92104870 65 64 71
0.90700024 0.13642767 0.92104870 66 65 72
0.90612990 0.13605794 0.91855264 66 65 72
0.57979763 0.08271068 0.55839527 67 66 73
0.58220148 0.08291557 0.55977857 67 66 73
0.58316898 0.08291557 0.55977857 69 67 73
0.58413655 0.08291557 0.55977857 68 67 72
0.58510405 0.08291557 0.55977857 67 66 72
0.58366174 0.08257464 0.55747682 67 65 71
0.58270848 0.08230390 0.55564904 66 65 71
0.58414769 0.08237142 0.55610490 66 65 70
0.58751875 0.08271068 0.55839527 66 65 70
0.58993495 0.08277886 0.55885559 66 65 70
0.58992821 0.08264261 0.55793566 66 66 70
0.58943719 0.08243905 0.55656147 66 66 70
0.59137017 0.08257464 0.55747682 64 64 67
0.59622210 0.08284716 0.55931669 65 65 68
0.59718883 0.08284716 0.55931669 64 64 67
0.59717011 0.08271068 0.55839527 64 64 67
0.59764296 0.08264261 0.55793566 64 64 68
0.59615403 0.08230390 0.55564904 63 64 68
0.24768943 0.20901738 1.39483917 66 66 74
0.24856593 0.20773506 1.38628185 66 66 73
0.25044984 0.20731111 1.38345277 68 67 74
0.26081708 0.20988108 1.40060294 66 66 69
0.26323789 0.20988108 1.40060294 64 64 66
0.27258509 0.21340850 1.42414248 64 62 71
0.27679110 0.21476205 1.43317509 65 64 73
0.27985990 0.21521704 1.43621159 66 65 74
0.28354374 0.21613286 1.44232309 64 63 72
0.29038313 0.21752129 1.45158851 60 59 68
0.29289207 0.21752129 1.45158851 56 55 64
0.29540104 0.21752129 1.45158851 56 55 61
0.90963989 0.13915403 0.92861897 65 64 73
0.90751541 0.13858451 0.92481834 66 65 73
0.90664011 0.13820741 0.92230183 66 65 74
0.90947163 0.13839570 0.92355835 67 66 73
0.90982836 0.13820741 0.92230183 67 66 73
0.91640973 0.13896367 0.92734861 67 66 73
0.92306358 0.13972826 0.93245095 67 66 73
0.92213839 0.13934492 0.92989278 67 66 73
0.92917669 0.13992073 0.93373531 67 67 75
0.92951024 0.13972826 0.93245095 67 67 76
0.92729539 0.13915403 0.92861897 67 67 76
0.58316457 0.08402187 0.56070459 67 66 73
0.58316898 0.08388311 0.55977857 68 66 73
0.58510405 0.08388311 0.55977857 68 67 74
0.58414215 0.08360695 0.55793566 68 66 73
0.58993495 0.08374480 0.55885559 66 65 71
0.58992821 0.08360695 0.55793566 66 65 70
0.58943719 0.08340102 0.55656147 66 65 70
0.59088427 0.08346955 0.55701876 65 64 70
0.59622210 0.08381390 0.55931669 65 65 70
0.59718883 0.08381390 0.55931669 65 65 69
0.59717011 0.08367582 0.55839527 65 65 69
0.59813529 0.08367582 0.55839527 65 66 70
0.59664309 0.08333261 0.55610490 66 67 71
0.59564972 0.08306006 0.55428606 66 67 71
0.24667430 0.21056174 1.38912261 75 75 82
0.24805866 0.20970230 1.38345277 75 74 81
0.24993975 0.20927520 1.38063514 77 76 80
0.25232607 0.20927520 1.38063514 76 76 79
0.25974375 0.21142824 1.39483917 76 76 78
0.26161632 0.21099409 1.39197505 79 79 82
0.26456550 0.21142824 1.39483917 85 85 89
0.27087790 0.21451801 1.41522300 86 86 90
0.27679110 0.21723917 1.43317509 83 82 88
0.27926823 0.21723917 1.43317509 76 75 82
0.28294173 0.21816163 1.43926084 76 75 82
0.28914481 0.21909195 1.44539833 72 71 79
0.91611940 0.14251612 0.94021058 63 64 69
0.90767318 0.14095215 0.92989278 63 63 70
0.91088772 0.14095215 0.92989278 66 66 73
0.90999836 0.14056651 0.92734861 67 67 74
0.90911388 0.14018299 0.92481834 67 67 74
0.91071236 0.14018299 0.92481834 66 66 73
0.91231084 0.14018299 0.92481834 66 66 73
0.91892391 0.14095215 0.92989278 66 66 73
0.92306358 0.14133993 0.93245095 67 67 74
0.92213839 0.14095215 0.92989278 68 67 74
0.92917669 0.14153461 0.93373531 67 67 74
0.92951024 0.14133993 0.93245095 68 68 75
0.92729539 0.14075908 0.92861897 70 70 77
0.58944899 0.08464096 0.55839527 67 66 73
0.58895874 0.08443231 0.55701876 67 66 73
0.58847088 0.08422469 0.55564904 66 65 72
0.58991480 0.08429379 0.55610490 65 65 71
0.59574693 0.08485064 0.55977857 65 65 71
0.59622210 0.08478063 0.55931669 65 65 70
0.59768200 0.08485064 0.55977857 65 65 69
0.59766245 0.08471074 0.55885559 65 65 69
0.59813529 0.08464096 0.55839527 66 66 70
0.59664309 0.08429379 0.55610490 67 68 71
0.59516305 0.08394945 0.55383319 67 68 71
-0.17314528 0.08762716 0.57157826 87 87 87
0.24566747 0.21209349 1.38345277 79 78 84
0.24805866 0.21209349 1.38345277 78 77 83
0.24943176 0.21123132 1.37782896 80 79 82
0.25181323 0.21123132 1.37782896 79 78 81
0.25575417 0.21252722 1.38628185 79 79 81
0.26348120 0.21296272 1.38912261 77 77 81
0.26752684 0.21428001 1.39771509 79 78 82
0.92345995 0.14555435 0.94942838 65 65 72
0.91611940 0.14414120 0.94021058 64 64 71
0.90891999 0.14275523 0.93117011 64 64 71
0.91052943 0.14275523 0.93117011 65 65 72
0.91213894 0.14275523 0.93117011 65 65 72
0.91124493 0.14236411 0.92861897 66 66 73
0.91035587 0.14197515 0.92608178 66 66 73
0.91195649 0.14197515 0.92608178 66 66 73
0.91355717 0.14197515 0.92608178 66 66 73
0.92433500 0.14314850 0.93373531 66 66 73
0.92340505 0.14275523 0.93117011 66 66 73
0.92628688 0.14295159 0.93245095 66 66 73
0.93174344 0.14354393 0.93631470 66 66 73
0.93207443 0.14334594 0.93502325 66 66 73
0.58896387 0.08553565 0.55793566 65 64 71
0.58799243 0.08525497 0.55610490 66 65 72
0.58798891 0.08511532 0.55519396 66 65 72
0.58894855 0.08511532 0.55519396 66 65 72
0.59525537 0.08574737 0.55931669 66 66 71
0.59622210 0.08574737 0.55931669 66 66 71
0.59718883 0.08574737 0.55931669 66 66 71
0.59667861 0.08553565 0.55793566 67 66 72
0.59764296 0.08553565 0.55793566 67 67 72
0.59615403 0.08518509 0.55564904 67 68 71
-0.17586254 0.08899026 0.57399815 83 83 81
-0.17472248 0.08891497 0.57351255 84 84 83
-0.17329139 0.08868986 0.57206064 84 84 83
-0.17215735 0.08861508 0.57157826 84 84 83
0.24805866 0.21448468 1.38345277 81 80 83
0.24993975 0.21404783 1.38063514 80 80 82
0.25181323 0.21361278 1.37782896 78 78 80
0.25575417 0.21492329 1.38628185 79 79 81
0.25867924 0.21536371 1.38912261 77 77 79
0.26054633 0.21492329 1.38628185 78 78 81
0.26348120 0.21536371 1.38912261 79 79 83
0.26697636 0.21624997 1.39483917 78 77 81
0.92345995 0.14719537 0.94942838 64 64 71
0.91866773 0.14617175 0.94282591 63 64 70
0.91017026 0.14456326 0.93245095 63 63 70
0.91556001 0.14516227 0.93631470 63 64 70
0.91591328 0.14496206 0.93502325 64 64 70
0.91374838 0.14436468 0.93117011 64 64 70
0.91284996 0.14396916 0.92861897 64 64 71
0.91445506 0.14396916 0.92861897 64 65 71
0.91606009 0.14396916 0.92861897 65 65 71
0.92527008 0.14516227 0.93631470 65 65 72
0.92688841 0.14516227 0.93631470 65 65 72
0.92594892 0.14476238 0.93373531 65 65 72
0.93141156 0.14536305 0.93760973 65 65 72
0.93822289 0.14617175 0.94282591 64 65 72
0.93594730 0.14556439 0.93890840 63 66 72
0.93112189 0.14456326 0.93245095 64 67 73
0.58751321 0.08628694 0.55656147 63 63 68
0.58702928 0.08607493 0.55519396 65 64 69
0.58702737 0.08593417 0.55428606 66 65 70
0.58798540 0.08593417 0.55428606 66 66 71
0.59378558 0.08649999 0.55793566 66 66 71
0.59474993 0.08649999 0.55793566 67 66 72
0.59571427 0.08649999 0.55793566 67 66 72
0.59472072 0.08621615 0.55610490 67 66 72
0.59568191 0.08621615 0.55610490 67 66 72
0.59517831 0.08600449 0.55473965 66 67 70
-0.18013604 0.09013500 0.57497185 82 82 83
-0.17914224 0.09013500 0.57497185 84 84 84
-0.17799747 0.09005862 0.57448459 88 87 85
-0.17715466 0.09013500 0.57497185 90 89 87
-0.17601158 0.09005862 0.57448459 87 86 84
-0.17487043 0.08998236 0.57399815 86 85 83
-0.17358436 0.08983023 0.57302779 87 86 84
-0.17244816 0.08975437 0.57254380 85 84 82
-0.17145856 0.08975437 0.57254380 85 84 83
-0.17032510 0.08967862 0.57206064 84 84 84
0.24805866 0.21687585 1.38345277 81 80 82
0.24993975 0.21643415 1.38063514 81 80 82
0.25575417 0.21731937 1.38628185 81 80 82
0.25921041 0.21821184 1.39197505 79 79 81
0.26054633 0.21731937 1.38628185 78 78 80
0.26348120 0.21776469 1.38912261 79 79 82
0.26697636 0.21866085 1.39483917 80 79 82
0.92345995 0.14883637 0.94942838 64 64 71
0.91485053 0.14718722 0.93890840 63 63 70
0.90891999 0.14597413 0.93117011 62 63 68
0.91052943 0.14597413 0.93117011 62 63 68
0.91339356 0.14617492 0.93245095 63 64 69
0.91249496 0.14577389 0.92989278 63 64 68
0.91284996 0.14557421 0.92861897 63 64 68
0.91570944 0.14577389 0.92989278 62 63 67
0.91731668 0.14577389 0.92989278 64 65 69
0.92399383 0.14657816 0.93502325 65 66 70
0.92688841 0.14678062 0.93631470 65 66 70
0.92467523 0.14617492 0.93245095 65 65 72
0.93012512 0.14678062 0.93631470 65 65 72
0.93691981 0.14759608 0.94151646 65 65 72
0.93594730 0.14718722 0.93890840 63 66 72
0.93112189 0.14617492 0.93245095 64 67 72
0.58655006 0.08710588 0.55564904 65 65 69
0.58654892 0.08696331 0.55473965 66 66 69
0.58702737 0.08689221 0.55428606 67 66 69
0.58798540 0.08689221 0.55428606 67 67 69
0.59378558 0.08746434 0.55793566 67 67 70
0.59426087 0.08739241 0.55747682 67 67 70
0.59522438 0.08739241 0.55747682 67 67 70
0.59423321 0.08710588 0.55564904 67 67 70
0.59470618 0.08703454 0.55519396 67 67 70
0.59469169 0.08689221 0.55428606 66 66 68
0.59419215 0.08667959 0.55292970 66 66 68
-0.18013604 0.09112880 0.57497185 84 85 86
-0.17929432 0.09120616 0.57545996 86 87 87
-0.17814845 0.09112880 0.57497185 89 88 87
-0.17730504 0.09120616 0.57545996 85 84 83
-0.17616086 0.09112880 0.57497185 81 80 80
-0.17501862 0.09105157 0.57448459 84 83 83
-0.17373121 0.09089751 0.57351255 85 84 84
-0.17273994 0.09089751 0.57351255 88 86 86
-0.17174867 0.09089751 0.57351255 88 86 86
-0.17061307 0.09082067 0.57302779 86 83 84
0.24130644 0.21749160 1.37225068 80 78 81
0.24417254 0.21793276 1.37503421 80 79 81
0.24705029 0.21837571 1.37782896 81 80 81
0.24943176 0.21837571 1.37782896 81 80 82
0.25181323 0.21837571 1.37782896 80 79 81
0.25575417 0.21971545 1.38628185 79 79 81
0.25867924 0.22016568 1.38912261 79 79 81
0.26054633 0.21971545 1.38628185 79 79 81
0.26294240 0.21971545 1.38628185 79 79 81
0.26588219 0.22016568 1.38912261 79 79 81
0.20015803 0.13134578 0.82871866 82 81 85
0.20109871 0.13102543 0.82669735 83 82 86
0.20377009 0.13182926 0.83176911 81 81 85
0.20445514 0.13134578 0.82871866 80 80 84
0.20773643 0.13070664 0.82468593 82 82 86
0.20967199 0.13102543 0.82669735 83 83 87
0.21058725 0.13070664 0.82468593 84 84 87
0.91232330 0.14839897 0.93631470 64 64 70
0.90767318 0.14738114 0.92989278 64 64 69
0.90928042 0.14738114 0.92989278 63 63 69
0.91088772 0.14738114 0.92989278 63 63 69
0.91249496 0.14738114 0.92989278 64 65 68
0.91160125 0.14697790 0.92734861 64 65 68
0.91445506 0.14717925 0.92861897 64 65 68
0.92272115 0.14799015 0.93373531 65 65 69
0.92560995 0.14819428 0.93502325 65 66 69
0.92467523 0.14778659 0.93245095 65 66 70
0.92756277 0.14799015 0.93373531 65 66 70
0.93562031 0.14901644 0.94021058 65 66 70
0.93724543 0.14901644 0.94021058 65 66 70
0.58655006 0.08806627 0.55564904 66 66 69
0.58654892 0.08792213 0.55473965 67 67 69
0.58750772 0.08792213 0.55473965 67 67 69
0.58798540 0.08785024 0.55428606 67 67 69
0.58990812 0.08799414 0.55519396 67 67 69
0.59329730 0.08835597 0.55747682 67 67 69
0.59426087 0.08835597 0.55747682 67 67 69
0.59522438 0.08835597 0.55747682 67 67 69
0.59423321 0.08806627 0.55564904 66 66 69
0.59470618 0.08799414 0.55519396 66 66 69
0.59469169 0.08785024 0.55428606 65 65 68
0.59419215 0.08763528 0.55292970 65 65 67
-0.18028896 0.09220079 0.57545996 84 84 86
-0.17929432 0.09220079 0.57545996 87 86 88
-0.17814845 0.09212259 0.57497185 89 88 89
-0.17730504 0.09220079 0.57545996 89 88 88
-0.17616086 0.09212259 0.57497185 86 85 85
-0.17501862 0.09204452 0.57448459 84 83 83
-0.17373121 0.09188878 0.57351255 83 82 82
-0.17288621 0.09196658 0.57399815 83 79 82
-0.17174867 0.09188878 0.57351255 85 81 84
-0.17061307 0.09181110 0.57302779 85 81 84
-0.16962263 0.09181110 0.57302779 85 81 82
0.24367826 0.21986343 1.37225068 81 80 82
0.24654917 0.22030939 1.37503421 80 80 80
0.24892581 0.22030939 1.37503421 80 80 80
0.25130245 0.22030939 1.37503421 80 80 80
0.25523221 0.22165823 1.38345277 79 79 81
0.25867924 0.22256666 1.38912261 79 79 81
0.26001459 0.22165823 1.38345277 79 79 81
0.26240578 0.22165823 1.38345277 80 80 82
0.26533848 0.22211152 1.38628185 80 80 82
0.19970219 0.13343063 0.83279097 83 83 85
0.20015803 0.13277815 0.82871866 83 83 85
0.20109871 0.13245431 0.82669735 84 83 86
0.20327127 0.13294068 0.82973295 82 82 85
0.20395647 0.13245431 0.82669735 81 81 85
0.20438834 0.13181132 0.82268429 81 80 86
0.20531195 0.13149217 0.82069230 82 82 86
0.20748402 0.13197148 0.82368392 83 83 87
0.20916183 0.13213204 0.82468593 85 85 89
0.21007611 0.13181132 0.82268429 84 84 87
0.90518981 0.14858076 0.92734861 64 64 68
0.90555388 0.14837778 0.92608178 64 64 67
0.90839553 0.14858076 0.92734861 64 64 67
0.90999836 0.14858076 0.92734861 64 64 67
0.90911388 0.14817534 0.92481834 65 65 67
0.91071236 0.14817534 0.92481834 65 65 67
0.93303216 0.15022480 0.93760973 66 66 68
0.93724543 0.15064152 0.94021058 66 66 68
0.58606935 0.08880828 0.55428606 67 67 69
0.58702737 0.08880828 0.55428606 67 68 70
0.58798540 0.08880828 0.55428606 67 68 70
0.59280980 0.08924612 0.55701876 66 67 69
0.59426087 0.08931952 0.55747682 66 67 69
0.59522438 0.08931952 0.55747682 66 67 69
0.59423321 0.08902667 0.55564904 65 66 69
0.59421951 0.08888096 0.55473965 65 65 68
0.59469169 0.08880828 0.55428606 65 65 68
0.59419215 0.08859097 0.55292970 65 65 67
-0.18013604 0.09311638 0.57497185 82 82 82
-0.17929432 0.09319542 0.57545996 83 82 82
-0.17814845 0.09311638 0.57497185 78 78 78
-0.17715466 0.09311638 0.57497185 82 81 81
-0.17601158 0.09303747 0.57448459 86 85 86
-0.17501862 0.09303747 0.57448459 83 82 83
-0.17373121 0.09288005 0.57351255 83 82 82
-0.17273994 0.09288005 0.57351255 83 79 82
-0.17160350 0.09280153 0.57302779 85 81 84
-0.17061307 0.09280153 0.57302779 84 81 83
-0.16947937 0.09272315 0.57254380 84 81 82
0.24269569 0.22133914 1.36671746 80 80 80
0.24605009 0.22223525 1.37225068 81 81 81
0.26187134 0.22359310 1.38063514 82 82 84
0.19994782 0.13503593 0.83381528 87 87 90
0.20064861 0.13453947 0.83074981 86 86 89
0.20134425 0.13404666 0.82770675 83 83 87
0.20327127 0.13437480 0.82973295 82 82 86
0.20395647 0.13388319 0.82669735 82 82 86
0.20414059 0.13307178 0.82168710 82 82 86
0.20481603 0.13258962 0.81870997 84 83 87
0.20916183 0.13355744 0.82468593 88 87 89
0.20982146 0.13307178 0.82168710 86 85 88
0.91035587 0.14997843 0.92608178 64 63 66
0.58750772 0.08983978 0.55473965 69 70 72
0.59378558 0.09035738 0.55793566 66 67 69
0.59523988 0.09043181 0.55839527 66 67 69
0.59517831 0.08983978 0.55473965 64 65 67
0.59467721 0.08961976 0.55338109 64 65 67
-0.18013604 0.09411018 0.57497185 82 82 82
-0.17929432 0.09419006 0.57545996 82 82 82
-0.17814845 0.09411018 0.57497185 82 81 81
-0.17730504 0.09419006 0.57545996 87 86 86
-0.17616086 0.09411018 0.57497185 84 83 83
