ply
format ascii 1.0
element vertex 1098
property float x
property float y
property float z
property uchar red
property uchar green
property uchar blue
end_header
0.87009127 -0.02698322 1.21508126 121 120 116
0.86968243 -0.03654744 1.22205524 106 102 102
0.87070209 -0.00318376 1.19723096 138 136 135
0.86962918 -0.01346049 1.20497359 124 122 120
0.87223532 0.01977601 1.17979402 110 110 109
0.86972092 0.01000068 1.18726791 145 140 135
0.86999133 0.03081866 1.17138077 108 108 105
0.87030403 0.05254904 1.15437057 100 95 94
0.86941272 0.04296344 1.16192065 104 101 100
0.87009587 0.07596104 1.13574831 135 131 120
0.86989142 0.06567072 1.14405961 99 97 94
0.86996203 0.09795836 1.11791604 120 112 101
0.87000545 0.08785072 1.12619956 126 119 104
0.87782070 0.11919648 1.09991841 114 111 104
0.86980326 0.11032444 1.10769279 106 102 100
0.86996679 0.13047547 1.09042847 93 92 88
0.86996948 0.15134299 1.07195074 89 85 83
0.87008098 0.14141722 1.08085808 97 94 91
0.87026513 0.17210594 1.05288522 80 79 79
0.86915084 0.16259178 1.06176796 82 80 78
0.87013395 0.19303577 1.03253569 127 123 120
0.87015253 0.18244056 1.04317132 96 95 96
0.87028315 0.21268295 1.01311071 137 133 127
0.86922469 0.20325188 1.02250397 127 126 118
0.87024424 0.23317858 0.99253641 112 111 106
0.86945906 0.22272509 1.00319403 135 129 126
0.87018781 0.25268354 0.97160387 129 126 124
0.86944332 0.24287324 0.98248885 131 130 127
0.87011573 0.27159170 0.95051304 112 106 100
0.86888526 0.26158117 0.96187269 129 128 123
0.86981415 0.29901290 0.91912901 99 100 95
0.87003001 0.28966985 0.92994895 114 110 105
0.86984696 0.28066142 0.94025638 113 112 110
0.86993153 0.31815553 0.89723412 96 94 86
0.86994276 0.30812136 0.90874493 92 88 84
0.86952121 0.33654795 0.87567454 100 98 91
0.87000156 0.32674505 0.88712361 90 87 81
0.86974916 0.35448671 0.85295210 112 109 106
0.87071587 0.34454754 0.86575567 109 106 103
0.87003180 0.37278045 0.83027518 84 82 80
0.87005879 0.36234685 0.84301242 94 89 87
0.87066572 0.39819366 0.79508986 62 58 56
0.86999988 0.38807848 0.81003447 106 105 102
0.87018890 0.41342241 0.77328417 0 0 0
0.86948989 0.40313262 0.78400014 0 0 0
0.86979385 0.42975378 0.75874822 0 0 0
0.86969575 0.42428967 0.76330429 0 0 0
0.89002656 -0.84547107 1.26136184 89 94 92
0.89002656 -0.82911986 1.26136184 90 93 93
0.89002656 -0.80949840 1.26136184 89 91 91
0.89002656 -0.78987694 1.26136184 90 92 91
0.89002656 -0.77025549 1.26136184 90 93 90
0.89002656 -0.75063403 1.26136184 89 94 93
0.89002656 -0.72992249 1.26136184 87 94 92
0.89002656 -0.70921095 1.26136184 90 93 92
0.89002656 -0.68958950 1.26136184 92 94 91
0.89002656 -0.66996804 1.26136184 91 93 90
0.89002656 -0.65034658 1.26136184 91 91 92
0.89002656 -0.63072513 1.26136184 89 92 92
0.89002656 -0.61001359 1.26136184 91 91 92
0.89002656 -0.58930205 1.26136184 89 90 91
0.89002656 -0.56968059 1.26136184 87 89 88
0.89002630 -0.55005898 1.26136147 88 90 90
0.89027932 -0.53057072 1.26107371 88 88 88
0.89047618 -0.51044991 1.26045531 87 88 86
0.88995831 -0.48837957 1.25972234 85 89 89
0.89020290 -0.49831391 1.26006854 86 88 88
0.88950741 -0.47072261 1.25908411 88 89 89
0.88990230 -0.45072515 1.25841873 87 88 90
0.89036829 -0.43024238 1.25772210 85 87 88
0.89025897 -0.40913346 1.25707243 85 88 88
0.88982298 -0.38938809 1.25645683 82 84 86
0.88966100 -0.36938220 1.25568099 80 84 86
0.89022089 -0.35010129 1.25484661 79 82 84
0.89018997 -0.33008378 1.25391483 79 80 85
0.88963496 -0.31023296 1.25294706 77 78 82
0.89019343 -0.29083410 1.25192284 77 78 80
0.89018490 -0.27090599 1.25086220 77 77 81
0.88977437 -0.24984712 1.24963966 76 77 81
0.89025731 -0.22942937 1.24811740 77 78 79
0.88991826 -0.20947260 1.24642763 76 77 80
0.89017719 -0.18978649 1.24363315 67 66 67
0.88987293 -0.16244668 1.23988411 50 49 47
0.88981624 -0.17199869 1.24062019 48 47 46
0.89028320 -0.15067613 1.23914572 49 47 45
0.88978388 -0.12991301 1.23794546 51 48 47
0.89002223 -0.10984094 1.23680919 55 51 49
0.89011599 -0.09035431 1.23575887 54 50 49
0.88991788 -0.06982059 1.23442414 53 51 50
0.89007298 -0.04939810 1.22925806 87 84 82
0.89041626 -0.02754326 1.21494080 116 115 113
0.88887910 -0.03706798 1.22182501 102 101 101
0.89024700 -0.00373201 1.19716294 135 130 130
0.88997208 -0.01426309 1.20503241 124 124 121
0.88922816 0.01976846 1.17934350 99 98 96
0.88999696 0.00962100 1.18702875 141 139 134
0.89001016 0.03066619 1.17092355 112 112 109
0.89005938 0.05224084 1.15400318 100 97 95
0.88990129 0.04255920 1.16159707 105 106 103
0.89003674 0.07500434 1.13592824 133 129 118
0.89004334 0.06462570 1.14426175 97 92 88
0.88989593 0.09791946 1.11747064 113 105 98
0.89001260 0.08802605 1.12547787 116 110 102
0.88995531 0.11916672 1.09964384 121 119 109
0.88995360 0.10949199 1.10782891 108 105 100
0.89005329 0.13038180 1.08995433 97 96 91
0.89008362 0.15133627 1.07137052 93 90 85
0.89020000 0.14134880 1.08033511 81 72 71
0.88998310 0.17143735 1.05289768 86 85 86
0.89005218 0.16189703 1.06175816 78 74 77
0.89012997 0.19293847 1.03193264 135 134 129
0.88974781 0.18232149 1.04261002 102 101 100
0.89001286 0.21221656 1.01294487 130 126 119
0.88985018 0.20272301 1.02232810 136 134 125
0.89002514 0.23269229 0.99215781 125 125 118
0.88994358 0.22222078 1.00298971 108 105 105
0.88998818 0.25218038 0.97160212 109 107 104
0.89004809 0.24227056 0.98228280 125 121 114
0.88999875 0.27143232 0.95053994 117 116 112
0.89017768 0.26134846 0.96176626 112 112 102
0.88998764 0.29976268 0.91909657 90 89 86
0.88995948 0.29033014 0.92972359 109 104 99
0.88939928 0.28067720 0.94030924 114 111 108
0.88919582 0.31809800 0.89812293 88 86 80
0.89009763 0.30841584 0.90922941 92 89 86
0.88994290 0.33660687 0.87640279 84 79 77
0.89012891 0.32665035 0.88798359 103 97 90
0.89002926 0.35501360 0.85317569 106 103 95
0.89009224 0.34473680 0.86648261 81 80 79
0.89811937 0.37937526 0.81992622 113 110 104
0.88985544 0.37257527 0.83012107 94 94 92
0.88996605 0.36256166 0.84331026 91 86 80
0.89016373 0.39724815 0.79426578 41 40 41
0.88979046 0.38703765 0.80985707 93 90 88
0.88971942 0.41305134 0.77356579 0 0 0
0.88989584 0.40303289 0.78328977 0 0 0
0.88649390 0.43049568 0.75935181 0 0 0
0.89064529 0.42508248 0.76347342 0 0 0
0.91073810 -0.84547107 1.26136184 93 94 92
0.91073810 -0.82911986 1.26136184 91 96 93
0.91073810 -0.80949840 1.26136184 92 94 94
0.91073810 -0.78987694 1.26136184 89 93 91
0.91073810 -0.77025549 1.26136184 91 94 92
0.91073810 -0.75063403 1.26136184 91 93 93
0.91073810 -0.72992249 1.26136184 89 94 94
0.91073810 -0.70921095 1.26136184 90 95 94
0.91073810 -0.68958950 1.26136184 92 94 90
0.91073810 -0.66996804 1.26136184 91 94 90
0.91073810 -0.65034658 1.26136184 91 92 94
0.91073810 -0.63072513 1.26136184 89 93 93
0.91073810 -0.61001359 1.26136184 89 91 91
0.91073810 -0.58930205 1.26136184 89 92 92
0.91073810 -0.56968059 1.26136184 88 91 88
0.91073102 -0.55005494 1.26135208 87 90 90
0.91046640 -0.53028028 1.26098576 86 87 90
0.91002611 -0.51041781 1.26037601 86 87 89
0.90993149 -0.48987370 1.25968197 87 87 87
0.90470302 -0.49902914 1.26004148 85 87 88
0.90988684 -0.47051228 1.25898454 87 87 88
0.91045018 -0.45104416 1.25831409 86 88 89
0.91018704 -0.42995120 1.25758842 84 88 89
0.90975022 -0.40910489 1.25698487 85 87 86
0.90978955 -0.38909455 1.25633347 83 84 86
0.91013308 -0.36980054 1.25554963 82 84 86
0.91025385 -0.34980387 1.25468441 81 82 84
0.90960128 -0.33004953 1.25378481 81 81 83
0.90999300 -0.31031015 1.25283251 78 79 84
0.91032725 -0.29058253 1.25180314 77 78 81
0.90958292 -0.27088802 1.25077956 77 77 79
0.91023316 -0.25039119 1.24963197 77 78 81
0.90978171 -0.22931837 1.24808647 76 77 80
0.91026066 -0.20988747 1.24648351 77 79 81
0.90984282 -0.18969747 1.24355374 66 65 67
0.91019906 -0.16244083 1.23983948 50 48 47
0.91011032 -0.17238149 1.24059066 49 48 46
0.90976249 -0.15045765 1.23906699 48 47 46
0.91003612 -0.13026809 1.23789272 50 48 47
0.91005078 -0.10966355 1.23672567 55 52 50
0.90988557 -0.09009860 1.23565772 54 50 49
0.90999560 -0.07025840 1.23436867 55 50 50
0.91004458 -0.04953151 1.22887146 95 90 87
0.90993837 -0.02781450 1.21468038 116 116 113
0.91003624 -0.03753296 1.22160518 104 101 100
0.91027543 -0.00370385 1.19660500 121 121 119
0.90989942 -0.01405972 1.20438432 126 124 121
0.91064886 0.01942153 1.17892471 120 119 117
0.90986952 0.00943142 1.18657881 137 136 129
0.90997071 0.03074849 1.17023051 114 112 108
0.91011458 0.05201542 1.15354666 97 94 94
0.90907194 0.04248621 1.16104590 106 103 101
0.91007285 0.07495542 1.13541943 131 128 120
0.91015889 0.06466635 1.14363510 102 100 97
0.91032691 0.09722242 1.11744254 89 87 81
0.90973439 0.08729579 1.12551149 116 113 105
0.90950191 0.11911306 1.09914864 114 113 107
0.91000207 0.10943942 1.10729113 107 105 99
0.90992910 0.13027087 1.08944864 100 96 91
0.91023827 0.15043507 1.07156189 88 86 82
0.90114410 0.14130797 1.08002305 126 115 110
0.91006716 0.17202696 1.05170124 89 88 86
0.91017770 0.16176830 1.06117556 89 90 87
0.90998135 0.19206720 1.03216824 135 132 124
0.90953355 0.18216136 1.04211905 113 114 109
0.91028541 0.21258073 1.01187108 133 132 125
0.90997369 0.20256946 1.02181563 124 121 114
0.91008224 0.23258978 0.99166368 120 118 110
0.90926591 0.22253238 1.00196474 123 124 115
0.90998515 0.25217491 0.97139770 124 122 116
0.91014260 0.24219616 0.98198097 124 118 113
0.91004298 0.27146570 0.95087271 124 123 117
0.91049631 0.26130697 0.96173587 125 124 110
0.90799584 0.29993924 0.91963791 94 95 89
0.91001745 0.29062794 0.93031084 113 109 101
0.90935875 0.28081790 0.94078060 129 127 119
0.90970554 0.31791398 0.89856372 98 98 96
0.91019954 0.30843381 0.90964682 106 105 101
0.90968799 0.33721472 0.87643923 80 78 75
0.91021322 0.32716172 0.88827616 82 80 78
0.91020675 0.35498700 0.85321827 80 78 76
0.91015721 0.34478989 0.86684135 92 88 83
0.91211852 0.37940713 0.81902282 92 88 87
0.91014762 0.37194666 0.83006993 86 82 80
0.90991837 0.36229621 0.84298416 99 93 93
0.90972271 0.39689472 0.79450980 67 66 65
0.90970058 0.38653341 0.80900711 95 93 92
0.90938629 0.41371801 0.77462804 0 0 0
0.91053361 0.40367030 0.78352183 0 0 0
0.91007518 0.42647637 0.76520665 0 0 0
0.93035956 -0.84547107 1.26136184 92 95 90
0.93035956 -0.82911986 1.26136184 94 95 91
0.93035956 -0.80949840 1.26136184 93 95 94
0.93035956 -0.78987694 1.26136184 92 95 93
0.93035956 -0.77025549 1.26136184 93 95 93
0.93035956 -0.75063403 1.26136184 91 95 94
0.93035956 -0.72992249 1.26136184 92 95 93
0.93035956 -0.70921095 1.26136184 93 95 93
0.93035956 -0.68958950 1.26136184 92 94 92
0.93035956 -0.66996804 1.26136184 92 93 92
0.93035956 -0.65034658 1.26136184 92 93 94
0.93035956 -0.63072513 1.26136184 90 92 91
0.93035956 -0.61001359 1.26136184 89 92 90
0.93035956 -0.58930205 1.26136184 90 92 92
0.93035956 -0.56968059 1.26136184 90 91 92
0.93032398 -0.55003840 1.26131368 86 90 90
0.92997000 -0.53021641 1.26083392 86 89 91
0.93070993 -0.50193278 1.25995816 85 88 90
0.92934451 -0.51168614 1.26028116 87 89 89
0.92989575 -0.49032061 1.25955943 86 87 89
0.93042064 -0.47081879 1.25885048 85 87 88
0.93019574 -0.45081678 1.25819156 85 87 89
0.92966629 -0.42991257 1.25747537 85 87 88
0.92969163 -0.40879526 1.25681848 83 86 86
0.93021518 -0.38954105 1.25613516 83 85 85
0.93024092 -0.36950787 1.25531804 82 84 85
0.92961975 -0.34974680 1.25447982 82 83 85
0.92994177 -0.32990354 1.25360037 80 81 82
0.93032456 -0.31037983 1.25268730 79 80 84
0.92970704 -0.29055345 1.25167804 78 79 82
0.92992403 -0.27076541 1.25066229 75 78 81
0.93026255 -0.25009846 1.24951826 78 78 84
0.92985897 -0.22907510 1.24797732 76 78 81
0.93011975 -0.20962542 1.24643268 78 80 82
0.92992784 -0.18981255 1.24346503 64 65 65
0.92947952 -0.16243974 1.23983121 52 49 49
0.93001286 -0.17218277 1.24054263 49 48 47
0.93010479 -0.15066138 1.23909246 48 47 47
0.93019798 -0.13009783 1.23793535 50 48 47
0.92984213 -0.10941802 1.23679247 51 51 49
0.93014590 -0.09060089 1.23569256 54 50 49
0.92989709 -0.06973808 1.23423847 55 50 50
0.92994973 -0.04946681 1.22850342 97 91 87
0.93011238 -0.02796025 1.21431217 124 119 118
0.92978843 -0.03763393 1.22127546 105 99 100
0.93047450 -0.00448989 1.19659131 117 117 114
0.92950378 -0.01474391 1.20433763 123 123 116
0.93011642 0.01878879 1.17881989 133 131 128
0.93008792 0.00859587 1.18662305 136 134 128
0.92999928 0.03077981 1.16956295 121 118 114
0.92998064 0.05125837 1.15346312 95 95 92
0.92965170 0.04153793 1.16109231 105 104 97
0.93042769 0.07451258 1.13516570 123 116 112
0.92948734 0.06427512 1.14332344 97 95 95
0.92986978 0.09693697 1.11703753 86 86 82
0.93005663 0.08691737 1.12517270 116 112 104
0.93146355 0.11858005 1.09890809 112 106 94
0.92976595 0.10916057 1.10690555 116 112 105
0.92985891 0.13020511 1.08889881 98 95 91
0.93012909 0.15035421 1.07099988 87 87 85
0.93019322 0.17147463 1.05151286 84 83 81
0.92817790 0.16123038 1.06108244 79 79 75
0.93002127 0.19204099 1.03157116 123 119 113
0.93008896 0.18214814 1.04137036 119 118 114
0.93018016 0.21208176 1.01187605 130 127 121
0.92942348 0.20187573 1.02187641 138 135 125
0.93008847 0.23193470 0.99217875 116 114 109
0.92968614 0.22216105 1.00197489 130 124 118
0.92997360 0.25222183 0.97160091 134 131 126
0.93023940 0.24215909 0.98202712 131 129 123
0.92999811 0.27209736 0.95107559 110 104 100
0.93070611 0.26199848 0.96162007 105 105 103
0.93004045 0.29128860 0.93041449 112 110 104
0.93023907 0.28165621 0.94098493 99 92 91
0.92908307 0.31815971 0.89845924 109 107 99
0.93005983 0.30859639 0.90975150 112 111 106
0.93151504 0.30009115 0.92010368 129 126 119
0.93067766 0.33702021 0.87651534 66 66 67
0.92986886 0.32717012 0.88832496 82 83 86
0.93020826 0.35468460 0.85260670 93 89 85
0.93006239 0.34465068 0.86625430 103 98 97
0.93106505 0.37898392 0.81857336 95 95 93
0.92986589 0.37072518 0.83034283 88 87 85
0.93006956 0.36160810 0.84270136 87 85 80
0.92919772 0.39698405 0.79604752 103 100 98
0.93005739 0.38685625 0.80847976 111 109 106
0.92947973 0.41533193 0.77618790 0 0 0
0.93059219 0.40517170 0.78504960 2 2 1
0.93025667 0.42720173 0.76829988 0 0 0
0.94998102 -0.84547107 1.26136184 93 95 92
0.94998102 -0.82911986 1.26136184 93 94 93
0.94998102 -0.80949840 1.26136184 93 95 93
0.94998102 -0.78987694 1.26136184 93 95 94
0.94998102 -0.77025549 1.26136184 93 95 93
0.94998102 -0.75063403 1.26136184 93 95 94
0.94998102 -0.72992249 1.26136184 95 96 95
0.94998102 -0.70921095 1.26136184 94 94 94
0.94998102 -0.68958950 1.26136184 92 93 94
0.94998102 -0.66996804 1.26136184 93 95 95
0.94998102 -0.65034658 1.26136184 92 93 94
0.94998102 -0.63072513 1.26136184 90 92 93
0.94998102 -0.61001359 1.26136184 90 94 91
0.94998102 -0.58930205 1.26136184 89 92 90
0.94998102 -0.56968059 1.26136184 87 91 91
0.94988787 -0.55000581 1.26123835 87 90 91
0.94947164 -0.53015418 1.26068585 87 89 90
0.95144681 -0.50458071 1.25985485 86 88 91
0.94898261 -0.51400371 1.26020014 87 89 90
0.95042421 -0.49061867 1.25940872 86 88 90
0.95016487 -0.47058552 1.25871753 86 89 88
0.94967871 -0.45077447 1.25807350 86 88 88
0.94959684 -0.43047128 1.25737624 86 88 90
0.95035114 -0.41017747 1.25672969 83 88 87
0.95024639 -0.38923120 1.25594983 84 85 87
0.94961091 -0.36944663 1.25510996 83 83 87
0.94993187 -0.34958436 1.25424655 81 83 85
0.95033220 -0.33004720 1.25337464 80 83 82
0.94977896 -0.31022057 1.25247085 79 80 82
0.94997420 -0.29040245 1.25144655 78 78 80
0.95029315 -0.27092692 1.25047260 77 78 82
0.94979154 -0.24987314 1.24933050 78 78 82
0.95022177 -0.22951044 1.24787429 77 79 81
0.94987978 -0.20934213 1.24625460 77 79 80
0.95006654 -0.18983448 1.24327094 64 63 63
0.95088894 -0.16307925 1.23980495 51 49 49
0.94947071 -0.17249168 1.24052607 51 49 48
0.95029571 -0.15055770 1.23903165 50 48 48
0.94987823 -0.12982029 1.23789390 51 50 48
0.95012301 -0.10992132 1.23682954 52 51 50
0.94986802 -0.09034939 1.23568916 52 51 49
0.95002962 -0.07011304 1.23425199 54 52 51
0.94975450 -0.04940298 1.22814241 95 91 89
0.95038494 -0.02842913 1.21410790 123 121 117
0.94860023 -0.03783357 1.22099840 111 106 104
0.94995053 -0.00476501 1.19626084 119 120 113
0.95012468 -0.01528765 1.20414566 125 124 121
0.95051567 0.01873119 1.17824890 137 134 125
0.94999854 0.00857847 1.18604512 138 137 130
0.95000554 0.03073464 1.16895432 124 119 115
0.95004577 0.05125131 1.15279240 92 93 90
0.95018846 0.04151455 1.16043898 108 108 107
0.95006753 0.07399343 1.13493100 120 116 109
0.94987332 0.06361576 1.14316533 98 99 96
0.95037326 0.09656008 1.11666584 115 112 107
0.94975730 0.08658554 1.12477268 123 119 110
0.94995309 0.11811357 1.09869333 121 118 106
0.94999043 0.10839792 1.10690856 113 111 101
0.95801834 0.13943235 1.07995421 103 105 97
0.94986286 0.13006613 1.08839755 95 93 89
0.95016999 0.15024233 1.07049693 86 85 84
0.95001265 0.17114343 1.05122466 84 83 81
0.94933397 0.16080462 1.06086382 70 69 71
0.95001751 0.19194623 1.03121551 122 119 113
0.95036902 0.18206778 1.04091079 87 85 85
0.94991777 0.21200255 1.01189648 128 123 118
0.95004392 0.20169813 1.02167519 130 124 116
0.94981780 0.23240081 0.99199895 124 123 115
0.95063782 0.22264137 1.00162334 126 124 119
0.94996359 0.25238901 0.97221470 121 118 112
0.95017591 0.24234690 0.98238953 129 128 120
0.95005698 0.27245978 0.95126867 114 112 106
0.94997179 0.26225093 0.96215327 110 109 107
0.95007514 0.29147449 0.93080975 106 104 100
0.94981862 0.28181512 0.94139775 104 106 106
0.95065009 0.31861990 0.89836220 109 109 108
0.95020301 0.30932232 0.90954538 107 105 99
0.95023179 0.30022613 0.92051755 111 106 101
0.94997342 0.33686803 0.87545731 105 104 101
0.95002408 0.32644315 0.88818980 108 107 105
0.95055370 0.35460610 0.85181093 81 80 77
0.94967123 0.34476510 0.86529959 80 79 78
0.94788791 0.37924023 0.81874394 112 109 104
0.95003839 0.37070293 0.82995019 103 101 97
0.94897537 0.36153110 0.84178449 104 102 94
0.94994751 0.39791459 0.79748534 94 92 90
0.95028049 0.38796727 0.80889869 80 76 76
0.94647158 0.41595335 0.77711164 0 0 0
0.94983642 0.40595480 0.78663355 9 9 9
0.94315535 0.42410778 0.77147264 0 0 0
0.96960247 -0.84547107 1.26136184 92 97 98
0.96960247 -0.82911986 1.26136184 93 96 95
0.96960247 -0.80949840 1.26136184 92 97 95
0.96960247 -0.78987694 1.26136184 93 96 95
0.96960247 -0.77025549 1.26136184 95 96 94
0.96960247 -0.75063403 1.26136184 94 96 96
0.96960247 -0.72992249 1.26136184 96 96 95
0.96960247 -0.70921095 1.26136184 94 97 97
0.96960247 -0.68958950 1.26136184 95 96 95
0.96960247 -0.66996804 1.26136184 95 96 96
0.96960247 -0.65034658 1.26136184 92 95 94
0.96960247 -0.63072513 1.26136184 90 93 93
0.96960247 -0.61001359 1.26136184 89 93 92
0.96960247 -0.58930205 1.26136184 91 93 92
0.96959429 -0.56967588 1.26135126 88 89 91
0.96949598 -0.54981792 1.26105088 89 91 91
0.96998061 -0.53004962 1.26043719 88 89 89
0.97118883 -0.50822564 1.25975221 87 89 89
0.96789556 -0.51768043 1.26008599 89 90 91
0.97011047 -0.49035046 1.25919165 86 88 87
0.96962053 -0.47052499 1.25855567 87 88 87
0.96975309 -0.45046216 1.25790746 88 88 89
0.97028836 -0.43118286 1.25726554 85 88 88
0.97028025 -0.41006362 1.25659278 85 87 87
0.96964835 -0.38917684 1.25577453 84 86 87
0.96996592 -0.36929427 1.25492343 83 84 88
0.97036575 -0.34973767 1.25406769 82 83 85
0.96981857 -0.32989287 1.25318983 81 83 84
0.96984885 -0.30994561 1.25226466 78 80 81
0.97034989 -0.29056004 1.25125214 79 78 81
0.96973428 -0.27078155 1.25028837 78 78 82
0.97006182 -0.25011050 1.24918975 76 79 81
0.96990390 -0.22925214 1.24772651 77 78 80
0.97017959 -0.20982285 1.24611626 78 78 80
0.97003667 -0.18960857 1.24295723 64 62 61
0.97065906 -0.16379789 1.23976262 51 48 47
0.96987377 -0.17362130 1.24051631 51 49 49
0.96989027 -0.15031864 1.23895271 50 46 47
0.97015138 -0.13036095 1.23789519 52 48 48
0.96996726 -0.10967081 1.23680768 53 52 48
0.97003834 -0.09025230 1.23567443 51 49 48
0.97006403 -0.06997760 1.23421117 55 52 51
0.96984637 -0.04944537 1.22792159 103 97 93
0.96992587 -0.02897569 1.21402374 124 124 117
0.97029081 -0.03862681 1.22107391 110 107 105
0.96999291 -0.00472069 1.19570330 117 118 113
0.97011276 -0.01515281 1.20354382 115 116 109
0.97114271 0.01811673 1.17807174 143 139 128
0.96975437 0.00813309 1.18582343 140 138 131
0.96996730 0.03062965 1.16836310 122 122 113
0.97007531 0.05036003 1.15275145 97 97 95
0.96188790 0.04150005 1.16003370 101 101 100
0.97012791 0.07369586 1.13441594 119 113 108
0.96960813 0.06343407 1.14255396 96 95 91
0.96982853 0.09593986 1.11652495 100 92 89
0.96991326 0.08600519 1.12451330 125 120 114
0.97062960 0.11792856 1.09812551 112 107 90
0.96988412 0.10837585 1.10627677 114 109 100
0.96987351 0.13939253 1.07964576 87 94 91
0.96994208 0.12923613 1.08848919 103 102 95
0.97010091 0.15020254 1.07000680 86 87 85
0.96990423 0.17106925 1.05089166 82 83 83
0.97004314 0.16074205 1.06045104 83 84 83
0.97000542 0.19111856 1.03187178 118 115 110
0.96970546 0.18125195 1.04138822 87 87 87
0.96965343 0.21168055 1.01244555 126 124 118
0.97002334 0.20168725 1.02181446 123 122 117
0.96998342 0.23276873 0.99235630 114 112 104
0.97080811 0.22249066 1.00221700 136 133 128
0.96990866 0.25319275 0.97205480 112 113 109
0.96997193 0.24314964 0.98241048 112 108 107
0.96970051 0.27255683 0.95155549 126 125 119
0.97065803 0.26254880 0.96244504 123 120 118
0.96997824 0.29163170 0.93081118 104 100 94
0.97058225 0.28158857 0.94180810 127 126 120
0.97142349 0.31812039 0.89826982 123 123 116
0.96983921 0.30882216 0.90980913 121 119 112
0.97017524 0.30024372 0.92057147 101 99 94
0.96986433 0.33681728 0.87494397 101 97 90
0.97001677 0.32642818 0.88778007 114 113 107
0.97010685 0.35418148 0.85141573 106 105 102
0.96995359 0.34417042 0.86504406 91 88 85
0.96185144 0.37935908 0.81989125 73 65 66
0.96986794 0.37142214 0.82987066 96 94 91
0.97005275 0.36160750 0.84140927 108 103 98
0.96926811 0.39851881 0.79776959 101 102 99
0.96992033 0.38879649 0.80978648 78 78 77
0.96498399 0.40293885 0.79099825 30 30 28
0.98922393 -0.84547107 1.26136184 94 97 98
0.98922393 -0.82911986 1.26136184 94 96 95
0.98922393 -0.80949840 1.26136184 94 97 97
0.98922393 -0.78987694 1.26136184 94 96 95
0.98922393 -0.77025549 1.26136184 95 98 97
0.98922393 -0.75063403 1.26136184 95 98 95
0.98922393 -0.72992249 1.26136184 96 97 96
0.98922393 -0.70921095 1.26136184 96 98 98
0.98922393 -0.68958950 1.26136184 96 97 94
0.98922393 -0.66996804 1.26136184 94 96 96
0.98922393 -0.65034658 1.26136184 94 96 93
0.98922393 -0.63072513 1.26136184 93 95 95
0.98922393 -0.61001359 1.26136184 91 95 92
0.98922393 -0.58930205 1.26136184 92 94 92
0.98986739 -0.56939342 1.26122421 88 92 90
0.98995399 -0.54989687 1.26076355 86 91 89
0.99498336 -0.52256950 1.25991281 90 90 91
0.98970156 -0.53122926 1.26024020 88 89 91
0.99002935 -0.51010883 1.25961320 87 88 88
0.98957294 -0.49028843 1.25903244 86 89 89
0.99003994 -0.47036266 1.25838301 87 88 89
0.99026253 -0.45093027 1.25779471 87 88 88
0.99028510 -0.43089572 1.25717382 85 88 89
0.98973548 -0.41002568 1.25647610 85 87 89
0.98989261 -0.38894391 1.25558000 85 87 87
0.99041840 -0.36944877 1.25475773 83 86 86
0.98987681 -0.34958636 1.25390411 81 83 85
0.98989323 -0.32961340 1.25297913 80 81 85
0.99021453 -0.31035572 1.25208034 79 80 82
0.98984148 -0.29042379 1.25112009 77 79 81
0.98982712 -0.27053030 1.25016031 77 79 83
0.99025909 -0.25011532 1.24906923 78 80 81
0.98981338 -0.22897212 1.24756705 76 78 79
0.99012240 -0.20942549 1.24586591 77 79 80
0.99007921 -0.18974768 1.24255300 62 61 60
0.99036287 -0.16496799 1.23965662 50 48 47
0.98940959 -0.17472406 1.24039571 49 47 48
0.99006154 -0.15075100 1.23879996 49 46 45
0.98994987 -0.13007681 1.23773702 50 48 47
0.98995327 -0.10948927 1.23667841 52 50 47
0.99023678 -0.09044621 1.23558834 51 50 48
0.98990516 -0.06979444 1.23419126 53 53 51
0.99006724 -0.04938619 1.22768182 102 98 90
0.99004850 -0.02885642 1.21353003 127 127 121
0.99003736 -0.03861498 1.22069988 117 116 107
0.99033829 -0.00552640 1.19574898 119 116 108
0.98938910 -0.01585434 1.20360503 120 119 115
0.99011194 0.01763877 1.17776082 140 139 127
0.99025965 0.00756705 1.18560982 134 132 128
0.98985956 0.03071798 1.16756906 124 125 119
0.98989015 0.05013002 1.15217823 102 99 96
0.98993155 0.07288288 1.13433665 109 106 97
0.99004486 0.06252643 1.14244808 98 95 93
0.98990406 0.09584992 1.11590337 91 91 86
0.98992011 0.08579722 1.12399888 109 107 99
0.99004543 0.11705881 1.09827211 123 122 112
0.98991804 0.10746217 1.10635233 109 108 101
0.99000052 0.13933622 1.07920965 104 104 99
0.99000842 0.12916236 1.08799698 112 109 105
0.98999259 0.15006948 1.06976238 94 93 90
0.98980013 0.17105498 1.05080140 81 83 82
0.99000173 0.16070896 1.06023275 92 99 93
0.98984092 0.19144087 1.03176057 127 125 119
0.99118992 0.18159292 1.04113401 94 92 89
0.98979446 0.21188588 1.01275065 128 123 117
0.99049696 0.20240760 1.02157286 135 131 126
0.99000423 0.23292563 0.99285327 108 105 98
0.99013338 0.22230092 1.00300658 122 119 113
0.98993042 0.25332605 0.97231524 121 122 117
0.99008734 0.24328660 0.98274431 117 118 113
0.99008020 0.27261536 0.95196783 122 121 115
0.98980793 0.26313042 0.96226930 123 123 115
0.99001853 0.29150788 0.93086010 103 100 97
0.99015397 0.28132348 0.94233581 115 113 109
0.98988135 0.31810021 0.89809548 112 107 105
0.98993675 0.30869224 0.90981669 108 106 102
0.98981105 0.30016681 0.92033568 116 116 113
0.98988960 0.33593055 0.87473326 101 97 92
0.99019862 0.32604786 0.88790368 93 87 84
0.98984385 0.35338242 0.85258308 93 90 89
0.99024966 0.34346877 0.86500013 94 92 92
0.98988457 0.37211674 0.83101933 103 98 96
0.99082752 0.36194327 0.84235252 103 102 96
0.98771337 0.38732634 0.81285466 85 85 84
0.99094446 0.38068162 0.82109911 106 99 99
1.00993547 -0.84547107 1.26136184 93 98 95
1.00993547 -0.82911986 1.26136184 94 96 95
1.00993547 -0.80949840 1.26136184 95 98 98
1.00993547 -0.78987694 1.26136184 97 97 98
1.00993547 -0.77025549 1.26136184 96 98 98
1.00993547 -0.75063403 1.26136184 97 99 96
1.00993547 -0.72992249 1.26136184 98 99 99
1.00993547 -0.70921095 1.26136184 96 99 98
1.00993547 -0.68958950 1.26136184 96 99 98
1.00993547 -0.66996804 1.26136184 95 100 98
1.00993547 -0.65034658 1.26136184 94 97 96
1.00993547 -0.63072513 1.26136184 93 95 93
1.00993547 -0.61001359 1.26136184 92 96 92
1.00992626 -0.58929678 1.26135042 89 94 92
1.01035474 -0.56975641 1.26101101 87 92 91
1.01031417 -0.54967295 1.26047468 87 91 91
1.01083303 -0.52676272 1.25981385 87 89 90
1.00792567 -0.53596184 1.26011123 89 89 89
1.00964988 -0.50980609 1.25931888 87 89 89
1.01001866 -0.49017804 1.25874899 87 89 89
1.01048369 -0.47047510 1.25813860 86 88 89
1.01015365 -0.45059131 1.25756263 85 88 88
1.00966868 -0.43082205 1.25695890 84 89 91
1.00976701 -0.40981198 1.25623673 83 88 88
1.01040071 -0.38935895 1.25536197 84 87 86
1.00991371 -0.36928600 1.25456438 83 86 88
1.00984779 -0.34927753 1.25370006 83 84 85
1.01027287 -0.33002261 1.25280104 80 83 84
1.00990148 -0.31006951 1.25186119 79 79 83
1.00980007 -0.29013434 1.25095647 77 79 80
1.01019180 -0.27095536 1.25002128 78 79 81
1.00984976 -0.24977319 1.24883084 78 79 81
1.01009182 -0.22944244 1.24738129 76 77 79
1.00988472 -0.20933269 1.24559314 76 78 78
1.01002413 -0.18955279 1.24209880 60 60 60
1.01062774 -0.16703651 1.23957242 48 48 48
1.00883218 -0.17635797 1.24027293 48 47 46
1.00988572 -0.15050194 1.23857337 49 47 45
1.01004705 -0.12996282 1.23757876 50 50 48
1.01015873 -0.10983284 1.23660258 53 51 48
1.00988251 -0.09010555 1.23548269 51 50 48
1.00998936 -0.07025478 1.23415673 55 54 52
1.01017335 -0.04947341 1.22739204 100 99 93
1.01014781 -0.02895633 1.21319034 134 132 124
1.00978121 -0.03860351 1.22033718 124 124 115
1.01010481 -0.00579705 1.19535004 116 112 110
1.00975587 -0.01623069 1.20334340 120 112 110
1.01071220 0.01744125 1.17720161 147 141 131
1.00997029 0.00738363 1.18511544 129 127 121
1.01375176 0.03948466 1.15972907 130 129 124
1.00963474 0.02999099 1.16740764 135 133 126
1.00976041 0.05015416 1.15140022 108 106 103
1.01003083 0.07280644 1.13370631 112 109 98
1.00956963 0.06248768 1.14177607 94 94 90
1.00996578 0.09483933 1.11609444 100 99 93
1.01018004 0.08486066 1.12410991 108 109 98
1.00982511 0.11705911 1.09771920 122 122 111
1.00986914 0.10737928 1.10584624 133 130 121
1.01028631 0.13930407 1.07896062 101 100 95
1.01008442 0.12910292 1.08762838 111 109 103
1.00998987 0.15017387 1.06954030 88 87 85
1.00998720 0.17109078 1.05101746 84 84 82
1.00926754 0.16071277 1.06025787 82 84 82
1.01014140 0.19202713 1.03163924 126 124 117
1.00990698 0.18209762 1.04108134 91 88 87
1.01001782 0.21219682 1.01294774 116 115 109
1.00983973 0.20258527 1.02189488 132 125 119
1.00984813 0.23294191 0.99315535 127 123 114
1.01016933 0.22235581 1.00334625 121 121 104
1.01000551 0.25331631 0.97268017 119 115 111
1.01001204 0.24322457 0.98301123 119 117 113
1.01018334 0.27296319 0.95149199 126 126 120
1.00978814 0.26317626 0.96250173 119 120 115
1.01757559 0.29991087 0.91955094 106 104 92
1.01013873 0.29141714 0.93054416 106 100 98
1.00908902 0.28147524 0.94189648 129 125 116
1.01065919 0.31780996 0.89732594 70 71 72
1.00970589 0.30788951 0.90952021 87 86 84
1.00473739 0.30011143 0.92016585 106 104 100
1.01005779 0.33584950 0.87452066 114 110 108
1.00968326 0.32599807 0.88681528 109 102 100
1.00988211 0.35407140 0.85318995 80 77 76
1.01013904 0.34389601 0.86465196 96 92 90
1.00901862 0.37217391 0.83247437 102 100 98
1.01042991 0.36301658 0.84316673 99 97 89
1.00137031 0.38342741 0.81874733 102 99 99
1.00416568 0.38114456 0.82152040 103 94 96
1.03064700 -0.84547107 1.26136184 95 100 92
1.03064700 -0.82911986 1.26136184 96 98 94
1.03064700 -0.80949840 1.26136184 97 99 97
1.03064700 -0.78987694 1.26136184 98 99 99
1.03064700 -0.77025549 1.26136184 95 100 97
1.03064700 -0.75063403 1.26136184 98 99 99
1.03064700 -0.72992249 1.26136184 98 100 99
1.03064700 -0.70921095 1.26136184 97 99 99
1.03064700 -0.68958950 1.26136184 95 98 99
1.03064700 -0.66996804 1.26136184 97 100 97
1.03064700 -0.65034658 1.26136184 96 97 96
1.03064700 -0.63072513 1.26136184 95 96 95
1.03064687 -0.61001351 1.26136168 93 94 93
1.03052941 -0.58923544 1.26121825 90 94 92
1.03013772 -0.56939998 1.26073895 91 92 91
1.03427317 -0.54181561 1.25993643 85 89 90
1.02907073 -0.55065252 1.26025899 88 91 92
1.02986777 -0.52935452 1.25964733 87 91 90
1.02083925 -0.53858478 1.26002002 89 90 88
1.03008014 -0.51005976 1.25906448 88 90 90
1.03047186 -0.49007550 1.25848573 88 89 88
1.02998927 -0.47027847 1.25789644 87 89 89
1.02951233 -0.45050219 1.25731396 87 91 90
1.03009871 -0.43073459 1.25670375 84 88 89
1.03024226 -0.41119741 1.25602772 85 88 88
1.02992743 -0.39007481 1.25517135 84 85 87
1.02984774 -0.36895798 1.25430637 84 85 87
1.03021586 -0.34972966 1.25350390 83 84 84
1.02998200 -0.32973747 1.25259934 81 83 84
1.02983526 -0.30976717 1.25165625 80 80 82
1.03014235 -0.29060011 1.25078401 79 79 82
1.02984335 -0.27067672 1.24980360 79 79 81
1.03001906 -0.24998975 1.24858620 77 78 79
1.02999537 -0.22894759 1.24705744 77 78 79
1.02994807 -0.20969223 1.24532141 77 78 80
1.02998826 -0.18944434 1.24171295 59 58 58
1.03019608 -0.16825736 1.23944404 48 47 47
1.02891410 -0.17778913 1.24012863 48 48 47
1.03004499 -0.15047588 1.23835933 49 46 45
1.03018187 -0.13014495 1.23737962 51 48 46
1.02987852 -0.10940696 1.23641592 52 51 49
1.03003864 -0.09054813 1.23538630 51 49 47
1.02993261 -0.06972272 1.23396452 57 55 54
1.03019191 -0.04943599 1.22707089 105 98 93
1.03024965 -0.02978598 1.21331606 136 131 123
1.02222241 -0.03859540 1.22008089 124 125 113
1.03022407 -0.00579406 1.19472212 116 115 115
1.02979839 -0.01624991 1.20278687 113 112 110
1.02996031 0.01667579 1.17711081 147 141 132
1.03012199 0.00654261 1.18510225 133 128 125
1.03028358 0.03946528 1.15915980 124 124 112
1.03010814 0.02962695 1.16691790 138 133 125
1.02984648 0.05014191 1.15070389 101 100 97
1.02994712 0.07184164 1.13385086 101 98 91
1.03017934 0.06152524 1.14186050 94 94 89
1.03005494 0.09485094 1.11552208 98 94 89
1.03007393 0.08488913 1.12350852 115 113 102
1.02979458 0.11708345 1.09739083 130 126 120
1.02994901 0.10737367 1.10544398 110 107 100
1.02981761 0.13929725 1.07890779 95 91 86
1.03008130 0.12912542 1.08741287 117 113 107
1.03006636 0.15004646 1.06979804 90 88 85
1.03006796 0.17116852 1.05123977 78 77 77
1.02969570 0.16075489 1.06053570 78 79 79
1.03008614 0.19206104 1.03190018 126 123 117
1.02988424 0.18213015 1.04126736 93 87 86
1.03003223 0.21224447 1.01317305 131 129 122
1.02980836 0.20258834 1.02217270 134 133 124
1.03003974 0.23374129 0.99272453 116 111 103
1.02993945 0.22306885 1.00296608 130 126 117
1.03006285 0.25331635 0.97263161 122 120 114
1.02982598 0.24341116 0.98316827 114 114 110
1.03006255 0.27296396 0.95102087 122 116 112
1.02943460 0.26297907 0.96236208 120 117 114
1.03182437 0.29937117 0.91904323 100 98 95
1.03001765 0.29101767 0.92983216 106 102 100
1.02966633 0.28170845 0.94115022 101 95 92
1.02966927 0.31746129 0.89708073 107 107 104
1.03011246 0.30740235 0.90890560 111 109 105
1.02983863 0.33598506 0.87540538 87 82 81
1.02961920 0.32600142 0.88682125 93 90 90
1.02957300 0.35496572 0.85400520 105 102 100
1.03039000 0.34505088 0.86518779 98 96 90
1.02347578 0.36861338 0.83734320 106 104 99
1.02805655 0.36257336 0.84459631 100 99 93
1.05026846 -0.84547107 1.26136184 94 99 96
1.05026846 -0.82911986 1.26136184 97 101 96
1.05026846 -0.80949840 1.26136184 97 99 100
1.05026846 -0.78987694 1.26136184 98 101 102
1.05026846 -0.77025549 1.26136184 96 99 96
1.05026846 -0.75063403 1.26136184 98 100 99
1.05026846 -0.72992249 1.26136184 99 100 100
1.05026846 -0.70921095 1.26136184 99 100 99
1.05026846 -0.68958950 1.26136184 98 100 98
1.05026846 -0.66996804 1.26136184 99 99 97
1.05026846 -0.65034658 1.26136184 96 98 94
1.05026846 -0.63072513 1.26136184 96 98 94
1.05022986 -0.60999148 1.26131563 94 96 95
1.04995971 -0.58912949 1.26099133 93 95 93
1.04954850 -0.56929092 1.26049751 92 92 91
1.05129467 -0.54593467 1.25983916 89 90 93
1.04760712 -0.55510222 1.26012762 91 91 94
1.05017679 -0.52986566 1.25939791 88 91 91
1.05030187 -0.50977515 1.25878933 87 90 90
1.04981462 -0.48996640 1.25820544 87 89 89
1.04979682 -0.46990124 1.25757125 87 89 90
1.04989838 -0.45039107 1.25700390 83 90 89
1.05050113 -0.43063930 1.25642545 85 88 88
1.04989384 -0.41085709 1.25569912 84 86 87
1.04980307 -0.38970747 1.25490794 84 87 88
1.05019564 -0.36939787 1.25407770 84 85 87
1.05000167 -0.34940039 1.25323738 84 85 86
1.04977620 -0.32941993 1.25236046 81 82 83
1.05015052 -0.31021990 1.25144087 81 81 82
1.04987030 -0.29028004 1.25050084 79 79 81
1.04989856 -0.27044170 1.24951164 76 79 80
1.04982964 -0.25029418 1.24829132 77 77 78
1.05028247 -0.22951295 1.24679945 78 78 79
1.04994510 -0.20915536 1.24500627 77 78 82
1.05003949 -0.18966767 1.24151460 57 56 55
1.05019189 -0.16928375 1.23931143 50 49 47
1.04430086 -0.17854147 1.24003738 47 47 46
1.05020023 -0.15045030 1.23814871 47 46 46
1.05001208 -0.12974666 1.23713920 49 48 46
1.04995420 -0.10983850 1.23620836 52 50 48
1.04979143 -0.09030993 1.23514984 50 49 47
1.05007759 -0.07018954 1.23388295 57 53 53
1.05005713 -0.04937760 1.22684248 106 100 96
1.04996146 -0.02993210 1.21296909 132 127 121
1.05025961 -0.00670872 1.19483183 122 120 116
1.04958167 -0.01712938 1.20294424 114 113 108
1.04993093 0.01669039 1.17638518 140 137 130
1.04999875 0.00653878 1.18441797 130 126 118
1.05182258 0.03888442 1.15892276 122 122 110
1.04981563 0.02933870 1.16647982 140 137 128
1.05000268 0.05006198 1.15016856 101 99 93
1.05009865 0.07193132 1.13330109 100 95 91
1.05039143 0.06158650 1.14125420 98 99 94
1.05000612 0.09482459 1.11520942 98 93 89
1.04989500 0.08485846 1.12309986 118 117 104
1.04995637 0.11696586 1.09739972 111 111 104
1.04996366 0.10730497 1.10531357 116 113 107
1.04964059 0.13932940 1.07915680 94 92 87
1.05006690 0.12913669 1.08749437 104 102 97
1.05004799 0.15018600 1.06997203 88 87 86
1.04998479 0.17117043 1.05150522 93 91 87
1.05006719 0.16078673 1.06074575 82 83 82
1.04996816 0.19211920 1.03205582 131 130 122
1.04993302 0.18217377 1.04151678 120 115 109
1.05001684 0.21232414 1.01322524 112 110 105
1.05022213 0.20269623 1.02220004 131 128 120
1.05011579 0.23371450 0.99264759 120 118 111
1.05004876 0.22315581 1.00308670 113 111 109
1.05013781 0.25326538 0.97238863 123 120 116
1.04958844 0.24330299 0.98302959 122 119 115
1.04990111 0.27238367 0.95081680 112 106 103
1.05021643 0.26236729 0.96258051 114 112 111
1.05034969 0.29894423 0.91902414 119 116 108
1.05032515 0.28970708 0.93029269 125 123 121
1.05018129 0.28086359 0.94093366 119 116 114
1.04948829 0.31744304 0.89724127 107 107 104
1.05011760 0.30727959 0.90911584 100 96 93
1.04982832 0.33652229 0.87654782 104 103 100
1.04995690 0.32667448 0.88711577 89 86 88
1.04471855 0.35415984 0.85605786 115 109 103
1.04957508 0.34537927 0.86653526 88 87 86
1.06988992 -0.84547107 1.26136184 98 98 99
1.06988992 -0.82911986 1.26136184 97 99 97
1.06988992 -0.80949840 1.26136184 101 100 99
1.06988992 -0.78987694 1.26136184 101 103 100
1.06988992 -0.77025549 1.26136184 99 101 99
1.06988992 -0.75063403 1.26136184 98 100 97
1.06988992 -0.72992249 1.26136184 101 101 100
1.06988992 -0.70921095 1.26136184 97 103 98
1.06988992 -0.68958950 1.26136184 97 102 100
1.06988992 -0.66996804 1.26136184 97 99 97
1.06988992 -0.65034658 1.26136184 97 99 98
1.06988530 -0.63072245 1.26135642 96 98 97
1.06973231 -0.60992433 1.26117629 93 96 96
1.06941880 -0.58904326 1.26080669 92 93 90
1.07794969 -0.56087755 1.25995234 90 90 90
1.06970594 -0.56958571 1.26030904 90 92 91
1.07092707 -0.54900955 1.25972171 90 91 92
1.06267133 -0.55775900 1.26004081 89 89 92
1.07019596 -0.52951129 1.25915712 88 93 91
1.06969312 -0.50968455 1.25856547 88 90 90
1.06988953 -0.48962822 1.25791460 88 90 90
1.07019440 -0.47032385 1.25734182 87 89 89
1.07033493 -0.45030544 1.25676490 84 88 89
1.06979574 -0.43053868 1.25613191 86 87 86
1.06982767 -0.41051632 1.25542883 86 87 87
1.07015450 -0.39020650 1.25467703 83 87 87
1.06997982 -0.36906211 1.25380343 85 86 88
1.06989771 -0.34907388 1.25296962 83 84 85
1.07009931 -0.32986947 1.25214478 80 82 82
1.06992852 -0.30990797 1.25120913 78 80 82
1.06986262 -0.29000082 1.25026076 79 80 81
1.07016130 -0.27074129 1.24926052 77 78 80
1.06979237 -0.25065708 1.24807682 77 78 78
1.07009343 -0.23031714 1.24663634 77 80 80
1.07005484 -0.20947688 1.24480362 76 77 80
1.07175722 -0.18128020 1.23992130 47 46 44
1.06969522 -0.19080406 1.24135373 58 56 55
1.07007525 -0.17003029 1.23915916 51 47 46
1.06990597 -0.15017666 1.23794433 48 46 46
1.07012141 -0.13026868 1.23696533 51 48 47
1.06985072 -0.10949271 1.23597641 51 50 48
1.06989016 -0.09029453 1.23493934 50 49 48
1.07007718 -0.06976061 1.23365711 59 57 56
1.07007967 -0.04934735 1.22668805 104 102 97
1.06993979 -0.02994459 1.21253233 133 131 122
1.07004725 -0.00682725 1.19428487 124 123 117
1.07014902 -0.01725624 1.20245403 117 117 110
1.07018314 0.01564966 1.17659739 135 133 130
1.06987395 0.00563819 1.18448862 122 120 116
1.07001378 0.03845064 1.15879108 127 127 121
1.07001699 0.02861095 1.16644681 139 135 127
1.07001548 0.05001698 1.14979855 96 94 92
1.07008440 0.07179358 1.13311952 92 91 88
1.07029986 0.06152304 1.14094839 96 96 92
1.06991718 0.09488243 1.11515895 95 93 91
1.06994940 0.08481266 1.12299055 105 102 98
1.07006924 0.11709902 1.09751886 129 133 116
1.07008386 0.10739476 1.10530548 107 108 99
1.07039691 0.13936050 1.07939769 93 93 88
1.06997724 0.12918293 1.08774674 111 108 102
1.06992665 0.15018611 1.07023141 84 84 82
1.06993857 0.17132768 1.05157867 85 84 81
1.07048295 0.16082406 1.06099203 105 106 101
1.06990411 0.19210684 1.03214746 130 127 119
1.06983482 0.18219084 1.04161443 112 113 109
1.06996827 0.21226984 1.01315443 123 122 114
1.07028334 0.20265933 1.02226855 132 126 114
1.07021644 0.23342528 0.99244778 133 130 124
1.06964871 0.22297817 1.00297712 127 126 123
1.07017782 0.25327082 0.97179564 99 100 98
1.06971603 0.24315210 0.98263012 101 98 97
1.07003354 0.27195377 0.95043272 121 120 116
1.07032107 0.26219789 0.96195921 102 99 99
1.07032358 0.29897703 0.91912496 94 95 89
1.07015296 0.28963427 0.93005491 117 114 109
1.06989719 0.28070245 0.94039382 123 122 120
1.06909665 0.31797015 0.89788957 106 105 104
1.06982638 0.30802790 0.90861324 110 109 105
1.06757670 0.33729978 0.87688080 95 91 91
1.07028853 0.32743186 0.88794625 98 95 95
1.06332364 0.34239134 0.87057097 78 74 77
1.08951138 -0.84547107 1.26136184 100 101 100
1.08951138 -0.82911986 1.26136184 99 102 99
1.08951138 -0.80949840 1.26136184 100 102 100
1.08951138 -0.78987694 1.26136184 101 103 99
1.08951138 -0.77025549 1.26136184 101 103 103
1.08951138 -0.75063403 1.26136184 100 103 99
1.08951138 -0.72992249 1.26136184 103 103 98
1.08951138 -0.70921095 1.26136184 97 103 102
1.08951138 -0.68958950 1.26136184 96 102 99
1.08951138 -0.66996804 1.26136184 98 100 99
1.08951004 -0.65034580 1.26136030 96 98 99
1.08942258 -0.63067414 1.26125929 94 97 94
1.08959905 -0.61054575 1.26099423 93 97 97
1.09004811 -0.58994085 1.26060763 92 94 96
1.09166521 -0.56317692 1.25987065 92 92 90
1.08987620 -0.57275845 1.26017050 92 92 94
1.09005984 -0.54923785 1.25947688 89 91 91
1.08956853 -0.52940707 1.25890927 87 90 91
1.09001520 -0.50947767 1.25829607 87 90 91
1.09030208 -0.49000005 1.25769368 87 90 89
1.09017510 -0.46998052 1.25709949 87 88 89
1.08968915 -0.45022459 1.25653912 86 89 89
1.08996414 -0.43027311 1.25586093 86 86 86
1.09017849 -0.41094593 1.25519056 85 86 87
1.09004035 -0.39093259 1.25444403 84 86 87
1.08977217 -0.36981070 1.25360492 83 85 85
1.09021361 -0.34951591 1.25273797 82 82 83
1.08998642 -0.32955112 1.25189170 78 82 82
1.08982798 -0.30960174 1.25098793 79 80 81
1.09021935 -0.29042327 1.25012072 78 80 80
1.08974582 -0.27053206 1.24913548 76 78 79
1.09013290 -0.25108774 1.24795945 76 77 79
1.08990306 -0.22985180 1.24644819 76 79 79
1.09011035 -0.20932143 1.24462185 76 77 80
1.09067025 -0.18189855 1.23985230 47 46 46
1.08988805 -0.19175547 1.24124108 57 55 53
1.08993555 -0.16957000 1.23895712 50 47 47
1.09004965 -0.15065955 1.23779927 47 47 45
1.08987075 -0.12978842 1.23676106 51 48 48
1.08995400 -0.10967590 1.23578454 51 50 47
1.08998902 -0.09027968 1.23473666 51 49 48
1.09001424 -0.06994011 1.23355808 61 58 56
1.09018290 -0.04946111 1.22646565 113 110 102
1.08992550 -0.03002812 1.21204337 133 131 122
1.09013527 -0.00700196 1.19383847 129 127 120
1.08975221 -0.01732312 1.20194298 112 112 106
1.09007750 0.01564335 1.17611995 134 131 125
1.09006110 0.00551610 1.18405220 122 120 116
1.09025514 0.03848732 1.15845982 126 128 127
1.09007796 0.02860167 1.16606975 136 134 128
1.09004820 0.05015661 1.14943304 96 95 92
1.09004478 0.07191179 1.13296569 92 92 85
1.08984842 0.06151334 1.14076817 93 97 84
1.08998058 0.09477797 1.11539355 98 97 94
1.09005190 0.08478579 1.12313477 104 97 93
1.08987101 0.11700685 1.09780240 134 126 112
1.09019501 0.10735957 1.10552356 111 108 104
1.09011438 0.13937692 1.07952491 101 103 94
1.09000265 0.12919020 1.08795600 111 110 100
1.08998405 0.15021745 1.07030777 88 89 85
1.08992833 0.17119405 1.05169332 83 83 84
1.09065321 0.16082380 1.06099032 98 99 91
1.08995760 0.19216995 1.03202868 123 120 114
1.08962416 0.18218844 1.04160063 93 94 93
1.08998241 0.21214805 1.01304351 126 123 115
1.08988346 0.20258955 1.02217880 128 125 116
1.09004699 0.23268190 0.99244244 114 111 109
1.09015372 0.22227697 1.00315969 124 124 117
1.09004198 0.25220750 0.97183614 113 113 109
1.08955178 0.24248524 0.98229384 98 98 97
1.09033322 0.27167779 0.95037911 112 110 107
1.08973328 0.26153638 0.96187542 113 107 107
1.08877514 0.29953243 0.91908707 116 116 108
1.08995296 0.29003851 0.92980624 108 106 103
1.09007400 0.28066612 0.94027212 117 114 108
1.09044981 0.31876565 0.89868538 98 98 94
1.08995664 0.30897318 0.90894812 117 115 111
1.08679505 0.32483962 0.89169755 98 94 94
1.10913283 -0.84547107 1.26136184 98 100 95
1.10913283 -0.82911986 1.26136184 99 103 100
1.10913283 -0.80949840 1.26136184 101 102 101
1.10913283 -0.78987694 1.26136184 102 104 102
1.10913283 -0.77025549 1.26136184 102 104 102
1.10913283 -0.75063403 1.26136184 104 104 102
1.10913283 -0.72992249 1.26136184 104 105 102
1.10913283 -0.70921095 1.26136184 101 103 103
1.10913283 -0.68958950 1.26136184 101 102 100
1.10987478 -0.66973666 1.26135075 97 101 99
1.11010537 -0.65027817 1.26122872 99 100 99
1.10993902 -0.63056435 1.26103977 98 97 96
1.11015071 -0.61106689 1.26076210 95 95 97
1.11017373 -0.59037826 1.26035663 94 96 95
1.11084467 -0.56787402 1.25977130 92 93 91
1.10726871 -0.57708180 1.26006760 93 94 93
1.10959798 -0.54903935 1.25926503 88 91 91
1.11002381 -0.52930405 1.25866428 89 91 92
1.11045035 -0.50958813 1.25806548 88 91 91
1.11004261 -0.48967350 1.25745334 85 91 89
1.10959664 -0.46992379 1.25694807 86 89 88
1.10983741 -0.44994048 1.25637273 86 88 87
1.11037319 -0.43056190 1.25566558 84 86 87
1.11001074 -0.41061530 1.25496013 83 86 87
1.10983506 -0.39059683 1.25418496 83 86 85
1.11012023 -0.37029756 1.25340018 82 85 83
1.11003592 -0.34920619 1.25254095 81 83 83
1.10980032 -0.32924636 1.25170082 80 83 84
1.11019391 -0.31007422 1.25085374 79 80 79
1.10994005 -0.29016250 1.24999479 77 78 80
1.10981753 -0.27028337 1.24901856 77 78 82
1.11020017 -0.25084440 1.24785871 75 76 82
1.11003959 -0.23013405 1.24635321 75 77 80
1.10998350 -0.20914848 1.24450716 74 77 78
1.11027736 -0.18300117 1.23975660 49 45 46
1.10964733 -0.19292852 1.24116526 59 55 55
1.11010323 -0.17005246 1.23882288 48 46 46
1.10990044 -0.15020505 1.23761489 48 47 44
1.11000959 -0.13013320 1.23661328 50 48 47
1.10999334 -0.10956565 1.23562389 50 50 46
1.11002182 -0.09017291 1.23458803 51 49 47
1.11006205 -0.06992762 1.23332774 64 58 57
1.11261543 -0.04069377 1.21976795 112 109 104
1.10987939 -0.05007955 1.22642445 117 111 105
1.11011848 -0.02991789 1.21139781 134 132 123
1.10985883 -0.00782155 1.19396141 129 127 122
1.11006802 -0.01828989 1.20216879 113 114 105
1.10992835 0.01572176 1.17576837 129 129 123
1.11015084 0.00551432 1.18365140 117 116 113
1.11062279 0.03843508 1.15832195 121 118 116
1.11001222 0.02859606 1.16583814 128 128 122
1.11007827 0.05004230 1.14948091 97 96 91
1.10995090 0.07185738 1.13312054 98 98 90
1.10963375 0.06151710 1.14083795 93 96 87
1.11003702 0.09484820 1.11548717 96 95 91
1.10998421 0.08483161 1.12323689 102 100 95
1.10987835 0.11712781 1.09780628 128 125 114
1.11002465 0.10740360 1.10562036 104 102 98
1.10960541 0.13936430 1.07942714 98 97 95
1.11007480 0.12914532 1.08797914 123 120 112
1.11003395 0.15020193 1.07024644 89 88 86
1.10996802 0.17124250 1.05145217 76 76 77
1.11071636 0.16080804 1.06088638 82 82 79
1.11003584 0.19209437 1.03170572 128 126 117
1.11005982 0.18214455 1.04134978 121 121 117
1.11033972 0.21236322 1.01209387 127 127 113
1.10919338 0.20250525 1.02176088 125 125 114
1.11014073 0.23228460 0.99181514 128 127 123
1.10857665 0.22228310 1.00223353 124 123 116
1.10984610 0.25217757 0.97138604 116 114 109
1.11021407 0.24215108 0.98179819 122 121 114
1.11028417 0.27140220 0.95065137 107 106 102
1.11000919 0.26131626 0.96177013 117 114 110
1.10427461 0.29993201 0.91961576 116 115 107
1.11000282 0.29065348 0.93010722 103 101 99
1.10974789 0.28070926 0.94041665 123 120 115
1.10090866 0.31818913 0.89933732 71 72 72
1.10816994 0.30732604 0.91155957 102 97 95
1.11515315 0.30007924 0.92006718 102 98 97
1.12984437 -0.84547107 1.26136184 100 102 100
1.12984437 -0.82911986 1.26136184 101 105 103
1.12984437 -0.80949840 1.26136184 103 105 101
1.12984437 -0.78987694 1.26136184 104 106 103
1.12984437 -0.77025549 1.26136184 102 105 101
1.12984437 -0.75063403 1.26136184 104 104 103
1.12984437 -0.72992249 1.26136184 103 105 104
1.12984437 -0.70921095 1.26136184 99 103 101
1.12982456 -0.68957758 1.26133984 101 102 99
1.13037972 -0.67010401 1.26117767 98 99 98
1.13057564 -0.65014067 1.26096198 97 100 98
1.13039304 -0.63042366 1.26075834 96 97 98
1.13013514 -0.61067232 1.26047071 95 96 98
1.13203755 -0.58407135 1.25993210 95 96 95
1.12903062 -0.59328318 1.26016989 95 96 94
1.12967856 -0.56971493 1.25956985 91 93 91
1.13000835 -0.54912462 1.25899305 90 92 91
1.13050141 -0.52921517 1.25845311 90 92 91
1.12996316 -0.50939636 1.25785389 87 90 90
1.12945682 -0.48960991 1.25729024 86 89 89
1.13008173 -0.46985983 1.25677696 85 89 88
1.13022727 -0.45032263 1.25616280 85 87 87
1.12995184 -0.43029673 1.25542592 83 86 85
1.12979984 -0.41027186 1.25469026 83 87 87
1.13017172 -0.39103447 1.25396236 83 84 85
1.13008578 -0.36995829 1.25316825 80 84 84
1.12982844 -0.34888946 1.25231822 81 83 85
