ply
format ascii 1.0
element vertex 1055
property float x
property float y
property float z
property uchar red
property uchar green
property uchar blue
end_header
-0.57996339 -0.41695961 1.24156010 148 151 150
-0.56136119 -0.32324260 1.31885576 147 147 148
-0.56917751 -0.32526690 1.33181107 150 150 152
-0.56102949 -0.31238951 1.31629813 143 144 144
-0.57109892 -0.30167879 1.33270562 144 145 143
-0.57600600 -0.30000135 1.34236014 144 148 148
-0.56136119 -0.29930747 1.31885576 139 140 138
-0.56885558 -0.29052162 1.33325700 141 142 143
-0.57691520 -0.29257828 1.34556150 144 145 146
-0.56470263 -0.27873529 1.32401258 140 141 143
-0.55829638 -0.63295221 1.72491562 87 127 156
-0.54766251 -0.32486764 1.31166303 152 134 145
-0.55788749 -0.32615668 1.32142663 105 105 109
-0.54490137 -0.30703017 1.29479345 105 98 110
-0.55176355 -0.31155797 1.30764569 132 127 132
-0.54404633 -0.29687476 1.29546033 102 93 106
-0.55105692 -0.29058039 1.31189389 121 116 124
-0.55239285 -0.28788080 1.32660869 145 135 147
-0.54826874 -0.27002978 1.29864335 118 119 120
-0.55271284 -0.27624355 1.31037535 123 121 126
-0.55157149 -0.27960791 1.32271707 131 123 133
-0.53308864 -0.32743949 1.29665883 174 143 157
-0.53844343 -0.32757433 1.30436272 176 146 161
-0.53778231 -0.30132538 1.27904117 85 77 96
-0.53862035 -0.30526400 1.28632224 107 90 105
-0.53893089 -0.31961554 1.30867147 178 150 159
-0.53566623 -0.29744807 1.27663243 104 84 106
-0.52893390 -0.29386742 1.29167533 158 128 140
-0.53592423 -0.28917119 1.30557852 175 146 160
-0.51497090 -0.29303452 1.27184212 168 128 143
-0.51984751 -0.29359040 1.28388608 166 128 141
-0.46176032 0.36447613 1.11752887 75 84 107
-0.46925337 0.36876738 1.12741059 75 84 104
-0.47352239 0.37048818 1.14510059 71 80 100
-0.47782870 0.38341914 1.13644981 78 92 104
-0.44106340 0.35074100 1.09869015 105 115 138
-0.44440435 0.35568876 1.10226667 93 106 128
-0.45594600 0.35948038 1.12606621 83 92 116
-0.44346772 0.36418754 1.09590627 86 99 116
-0.45230610 0.36337507 1.10802918 78 92 112
-0.45406067 0.36090055 1.12140989 84 93 120
-0.42693808 0.35472887 1.07571171 87 100 119
-0.43550486 0.35439892 1.08952499 94 111 131
-0.42792202 0.36333479 1.07628573 83 93 111
-0.43550237 0.36355525 1.08405681 88 97 116
-0.40293660 0.21804264 0.98532460 48 50 55
-0.40367062 0.23174301 0.96927521 77 77 79
-0.40439118 0.22284198 0.98564424 59 60 69
-0.39143023 0.21607480 0.97425905 68 67 75
-0.38930672 0.21599029 0.98245400 120 88 97
-0.39622492 0.23664589 0.95612580 61 68 79
-0.39252962 0.23069593 0.97341055 69 74 81
-0.38511547 0.22845492 0.98620005 97 76 89
-0.39455783 0.24034020 0.97444965 83 93 98
-0.36189497 -0.13643018 0.71886811 138 139 138
-0.36849723 -0.13132777 0.73175556 136 137 136
-0.37062637 -0.12568348 0.74066342 139 140 141
-0.36270200 -0.12444765 1.95640188 127 127 131
-0.37363163 -0.12356244 1.99674028 126 126 130
-0.37858605 0.23427645 0.97961247 67 66 76
-0.37851964 0.23535420 0.98531622 58 59 67
-0.32480870 0.21746178 1.95218346 130 130 134
-0.32388641 0.22835501 1.95797025 128 128 132
-0.33063869 0.23013729 1.96680784 131 131 134
-0.32692024 0.24010304 1.96490383 131 131 133
-0.32164851 0.31904683 0.96291453 96 118 133
-0.32152662 0.33716580 0.95882863 105 119 124
-0.32612747 0.33246303 0.96894737 85 100 117
-0.32293095 0.34800331 0.95385308 91 111 129
-0.32142039 0.35125236 0.96223161 104 125 141
-0.30479754 0.20823471 1.91136265 130 126 130
-0.30818397 0.21624034 1.92995974 123 113 125
-0.31645882 0.21552899 1.94238353 130 130 132
-0.30205956 0.23730855 1.91494870 112 105 116
-0.30287126 0.22836244 1.92948687 121 98 119
-0.31449496 0.22958724 1.95099530 117 111 122
-0.30275590 0.24751890 1.92995971 124 120 128
-0.30850830 0.24778080 1.94517428 122 120 127
-0.31712453 0.31784803 0.95679912 105 124 144
-0.31633455 0.33705248 0.95486244 109 126 131
-0.31846035 0.33090012 0.96767046 86 103 123
-0.31711693 0.34453400 0.95382646 105 124 137
-0.31577310 0.34895421 0.96277120 102 125 140
-0.28130081 -0.12212714 0.50541800 147 151 152
-0.28302875 -0.07711611 0.97203177 131 132 135
-0.28311335 -0.02408566 0.50378459 138 139 139
-0.28133552 -0.01508177 0.49699458 137 138 137
-0.28352239 -0.01839687 0.50161696 136 136 135
-0.28599775 0.19893391 1.89620471 130 130 132
-0.28773617 0.19794707 1.90777155 132 132 134
-0.28962137 0.19520174 1.93499450 133 133 136
-0.28985431 0.20281182 1.89568021 130 130 132
-0.28902701 0.20708245 1.91091061 128 126 130
-0.29162591 0.21521345 1.92858661 119 108 121
-0.28641707 0.23629440 1.89356005 115 101 117
-0.29112531 0.23538992 1.90836922 116 101 117
-0.29129681 0.22815677 1.93133619 122 98 119
-0.28803417 0.24187841 1.89885676 116 104 117
-0.28884324 0.24749470 1.90419054 122 117 125
-0.29795072 0.24781975 1.92584461 121 115 124
-0.27661228 -0.12105952 0.50231813 147 151 152
-0.27218047 -0.11225463 0.49908868 141 145 145
-0.27336132 -0.11897589 0.50105794 142 148 147
-0.26873995 -0.08151019 0.95125574 128 128 132
-0.27758759 -0.08016220 0.96018672 129 130 134
-0.26172657 -0.06763632 0.93610244 127 127 133
-0.26807380 -0.07594768 0.95011257 128 129 132
-0.27897130 -0.07555637 0.96497302 129 130 133
-0.27947967 -0.02664382 0.50206801 138 138 138
-0.27719318 -0.01517664 0.49453080 138 138 138
-0.27886814 -0.01929896 0.50065869 136 137 137
-0.26046730 0.19504940 0.70663029 124 133 148
-0.26625401 0.19969729 1.87262940 129 129 133
-0.27334417 0.19738436 1.89180434 129 130 132
-0.27732390 0.19648048 1.90419054 130 131 133
-0.27968076 0.19483109 1.92037344 132 132 134
-0.27088133 0.20718496 1.89260705 129 126 132
-0.27626297 0.21173945 1.90822107 129 123 131
-0.27958746 0.23724510 1.87522310 118 106 121
-0.27818811 0.23531437 1.89885676 117 104 122
-0.27668416 0.22627578 1.91494870 124 111 124
-0.27539898 0.24965187 1.84713048 124 123 127
-0.27868940 0.24455625 1.86919967 124 120 128
-0.24070160 -0.11239122 0.79008371 128 128 130
-0.25862163 -0.08056651 0.94545585 125 126 130
-0.24615343 -0.06179966 0.91642901 126 124 127
-0.24944180 -0.06714305 0.93135023 125 125 128
-0.25935163 -0.07458755 0.94217119 124 125 129
-0.24233915 -0.05898248 0.91483378 127 124 127
-0.25687426 -0.05978935 0.92734861 128 128 132
-0.24470858 0.19465011 0.69639466 115 126 137
-0.25157618 0.19204605 0.70516464 106 120 132
-0.24393199 0.20127654 0.69718214 120 133 138
-0.23048931 -0.12590843 0.81123084 119 118 122
-0.23896791 -0.13250929 0.82168710 121 121 125
-0.22872977 -0.10846680 0.77574454 124 120 126
-0.22657752 -0.11179916 0.78668948 121 119 124
-0.22229839 -0.11735290 0.80252538 115 114 118
-0.22549415 -0.09450591 0.75924009 120 108 120
-0.22906468 -0.09702122 0.76426517 115 101 111
-0.23689406 -0.06164956 0.91213461 125 125 126
-0.23652800 -0.06643020 0.93410161 123 122 126
-0.23568711 -0.05850872 0.90748572 124 124 126
-0.23800757 0.19572057 0.69885804 134 146 151
-0.23979112 0.19353724 0.70117263 114 125 133
-0.21792629 -0.10382351 0.77704433 118 117 124
-0.21928309 -0.10852169 0.78188217 113 114 118
-0.21905704 -0.11599477 0.80081758 114 114 118
-0.20115046 -0.02085865 0.51059069 150 111 119
-0.20535436 -0.01054916 0.51069659 149 119 128
-0.21547878 -0.00612586 0.52105445 109 109 113
-0.19761180 -0.02123104 0.50733694 150 105 114
-0.19521962 -0.00974616 0.50739595 156 106 118
-0.18132034 0.01402928 0.50758756 158 104 120
-0.16952639 0.01408152 0.49855273 154 126 135
-0.17520689 0.01442966 0.50303562 156 110 123
-0.17264923 0.02088251 0.49590031 157 106 119
-0.17725537 0.02051462 0.50084370 159 105 120
-0.14401238 -0.00119798 0.48740371 142 146 148
-0.14632848 0.00689769 0.48806352 141 139 144
-0.14798358 0.15542779 0.49617281 96 117 132
-0.14380339 0.15883484 0.50162231 70 90 109
-0.14863331 0.16837192 0.49044066 116 133 147
-0.14361521 0.16100166 0.50113013 83 100 118
-0.14725003 0.18013290 0.49075341 178 194 197
-0.12169490 -0.52324039 1.38251356 84 116 141
-0.12376245 -0.51223627 1.37019116 87 115 143
-0.12473508 -0.51105356 1.38283305 88 116 141
-0.12481747 -0.49083312 1.37205575 89 117 144
-0.12948447 -0.49946064 1.38063514 84 116 143
-0.12189112 -0.47684055 1.36506751 132 129 150
-0.12220454 -0.06872588 0.54897843 110 110 114
-0.12245159 -0.05809005 0.55081402 112 111 118
-0.13757218 0.00889913 0.48698428 142 142 146
-0.11993922 -0.52093750 1.38063514 82 116 141
-0.11731397 -0.50082695 1.37782896 84 114 143
-0.11128009 -0.50903683 1.38373874 87 116 140
-0.11509988 -0.48952333 1.37414888 94 118 142
-0.11222431 -0.47447360 1.36948575 159 143 159
-0.11342840 -0.08094037 0.54388033 108 107 111
-0.11582425 -0.06927385 0.54626903 110 110 114
-0.11577081 -0.05836003 0.54723399 114 111 115
-0.11239625 0.05660107 0.45045663 132 132 135
-0.08320377 -0.06229619 0.47024192 113 111 117
-0.08229055 -0.05871118 0.47018888 115 114 119
-0.08140495 -0.02296815 0.53938918 129 128 132
-0.08270912 -0.02532792 0.54087937 129 129 133
-0.08202223 -0.01909781 0.53834214 130 130 134
-0.07614445 -0.06263775 0.47262425 113 111 117
-0.07490299 -0.05829133 0.47206375 107 93 108
-0.07596186 -0.02278943 0.53874330 129 128 133
-0.07843100 -0.02548569 0.54116986 129 128 133
-0.07684054 -0.01950763 0.53824778 128 128 132
-0.06156147 0.32842755 0.81762789 169 180 181
-0.06599346 0.33348191 0.82485699 174 186 190
-0.06525274 0.34732078 0.82930425 128 137 144
-0.06947515 0.35957441 0.84158188 59 62 65
-0.07086064 0.36368811 0.84948850 0 0 0
-0.04672316 0.31733636 0.81347889 143 155 166
-0.05341595 0.31830324 0.82202351 146 156 171
-0.04879868 0.32487666 0.81570480 151 163 170
-0.05520882 0.32813174 0.82402875 150 161 167
-0.02055324 0.21507491 0.77918601 146 148 154
-0.02378402 0.25046284 0.60947684 132 146 156
-0.02619831 0.31205782 0.79728827 127 135 143
-0.03185595 0.31642551 0.80676556 133 141 148
-0.02660220 0.32170390 0.80942684 140 149 159
-0.02699563 0.39882283 1.09514221 135 145 152
-0.02628114 0.40326180 1.09691410 133 146 156
-0.02921749 0.41007016 1.10745549 136 148 158
-0.03159701 0.41911992 1.12419879 129 139 153
-0.02812908 0.42801107 1.13282685 129 143 153
-0.02653240 0.43657521 1.14917352 129 145 157
-0.02943209 0.44389086 1.15567746 133 144 154
-0.02845111 0.44800510 1.16390283 131 143 151
-0.03959305 0.45982942 1.18928397 122 131 137
-0.01012131 0.03955584 0.46234820 136 136 145
-0.00814837 0.04462599 0.45943242 136 136 145
-0.01107116 0.05041450 0.47032296 135 134 143
-0.00946841 0.06516161 0.47726265 126 127 135
-0.00772115 0.21279514 0.77101510 142 148 157
-0.01653857 0.21652894 0.78038222 122 123 140
-0.00702908 0.22003828 0.77296674 122 124 137
-0.01829642 0.25016330 0.60708723 148 160 170
-0.01898569 0.31845089 0.80797674 143 154 164
-0.01907561 0.32217965 0.80930343 149 160 173
-0.01320732 0.39500412 1.09364125 139 153 162
-0.01065147 0.39316490 1.10227530 139 154 164
-0.00244261 0.39836776 1.12048233 143 157 166
-0.01366125 0.40483504 1.09531450 147 163 169
-0.01684332 0.41100899 1.10527545 148 164 171
-0.00411349 0.40617732 1.12526764 144 158 165
-0.01060664 0.43039503 1.13419774 142 155 164
-0.01241671 0.43655578 1.14633666 141 151 162
-0.01275852 0.44468306 1.15355237 137 149 158
-0.01746435 0.44699469 1.16276673 136 147 157
0.01885400 0.13092403 0.53010974 191 144 162
0.01552747 0.17956223 0.47941431 149 163 168
0.01775741 0.18592150 0.47563869 146 159 167
0.01465039 0.18440394 0.48241646 142 157 167
0.00435063 0.20606431 0.75233409 103 111 125
0.00143467 0.40335358 1.12357835 143 155 162
0.03954170 0.13236130 0.46111215 97 104 116
0.02465789 0.12738924 0.52845600 195 145 163
0.03402747 0.17360150 0.49384034 140 151 157
0.03176834 0.17786901 0.50028920 137 145 154
0.02401163 0.18513987 0.47348067 136 145 153
0.03806842 0.18470110 0.49828717 141 151 160
0.03684456 0.18445120 0.50263151 139 151 158
0.05881525 -0.12036552 0.56024116 96 96 100
0.05890490 -0.11763997 0.55977857 101 97 105
0.05893629 -0.11709740 0.56024116 100 97 104
0.05831994 -0.00727589 0.54365750 136 139 147
0.05976408 0.00066493 0.55113161 138 144 151
0.04853484 0.07597693 0.48595411 138 143 153
0.04978896 0.08336879 0.47952753 145 157 175
0.04709246 0.08619538 0.48454455 152 163 181
0.04591559 0.13248742 0.45862230 89 97 117
0.04372244 0.13035058 0.46131672 82 82 100
0.04107939 0.16906094 0.47783735 161 171 176
0.04027027 0.17124456 0.48427800 154 165 170
0.04051646 0.18160436 0.49698922 129 137 145
0.05853794 0.21528079 0.68528899 146 152 158
0.05728658 0.22672459 0.68958276 152 160 168
0.05965047 0.25808357 0.69385695 133 143 149
0.05753002 0.27269218 0.70777157 129 138 144
0.05883996 0.28119666 0.71013232 100 113 123
0.07765415 -0.18675652 0.57691668 126 80 95
0.07540861 -0.19220938 0.59024842 127 78 91
0.07622286 -0.16141772 0.55348951 112 106 119
0.07729147 -0.17465576 0.57095855 119 109 121
0.07340711 -0.17783742 0.58228374 118 114 122
0.07414198 -0.14137250 0.53881246 104 101 107
0.07253418 -0.15035946 0.54469087 109 106 112
0.07230003 -0.12967333 0.53376499 104 99 108
0.06780056 -0.12219549 0.55056795 97 93 98
0.06321652 -0.12093270 0.56062759 95 94 98
0.07317364 -0.11789012 0.53144167 104 100 108
0.06885044 -0.11469916 0.55427343 98 94 99
0.06322078 -0.11786502 0.56114329 97 93 98
0.06319126 -0.00587890 0.53972280 135 140 147
0.06152178 -0.00705203 0.54146585 137 141 149
0.06149742 0.00118880 0.54244628 138 144 151
0.07965446 0.03908472 0.53908044 172 130 146
0.07854346 0.03764353 0.54460164 167 128 147
0.06443207 0.04617319 0.45485878 157 143 157
0.07848391 0.04470251 0.53095532 169 131 148
0.07701099 0.04254570 0.54317331 154 129 148
0.07864500 0.07767126 0.51504213 174 128 143
0.07695771 0.07572332 0.53142104 167 132 150
0.07819875 0.08231064 0.51568039 176 129 146
0.07685817 0.08438168 0.53284171 168 133 151
0.07157757 0.17887139 0.49131595 115 126 137
0.07767467 0.18522452 0.47941456 147 156 161
0.07359384 0.18336857 0.49042626 136 150 156
0.07227490 0.21497893 0.67601050 130 143 155
0.06713790 0.21438303 0.68401180 146 156 162
0.07198606 0.22532606 0.67427876 126 137 151
0.06345671 0.22532333 0.68404461 133 141 148
0.06142797 0.25712972 0.68915616 119 130 136
0.06516895 0.26893584 0.69875435 123 134 142
0.06529776 0.27461157 0.70158036 120 133 144
0.07312767 0.28488695 0.70707571 138 152 163
0.09264864 -0.20268951 0.57824412 179 145 157
0.08884520 -0.20327855 0.58260090 181 140 154
0.09191399 -0.18107489 0.46481558 132 133 135
0.08907254 -0.18971247 0.57517780 165 125 141
0.08715906 -0.19284503 0.58138425 146 111 129
0.08347570 -0.16953711 0.45985494 96 114 134
0.08977698 -0.17368921 0.46304633 125 129 135
0.08005238 -0.16477259 0.55977857 105 93 119
0.08513624 -0.17647955 0.56942441 154 127 144
0.09528834 -0.14062975 0.73764074 102 98 103
0.09432130 -0.14109033 0.74005657 101 100 104
0.09612359 -0.13222675 0.73504065 105 102 109
0.09304217 -0.13853207 0.74005657 105 103 107
0.09705702 -0.04394748 0.73800293 132 132 144
0.09778668 -0.04731417 0.74046128 132 134 143
0.09459193 -0.00124556 0.55318056 120 96 104
0.09301434 -0.00077915 0.56209940 138 112 120
0.09328138 0.00985124 0.53907950 113 92 98
0.08955791 0.00988673 0.55380518 144 113 124
0.08924002 0.00571242 0.56076779 159 118 132
0.09172811 0.03821653 0.51158495 114 92 93
0.08053192 0.03778151 0.53716270 174 129 145
0.09543406 0.02972188 0.55794934 116 92 99
0.09067959 0.02961614 0.56326771 147 117 128
0.08887092 0.04448877 0.50979671 117 93 97
0.08043612 0.04495961 0.52191562 172 126 144
0.08817755 0.07431550 0.50592051 114 88 92
0.08022649 0.07476521 0.52306467 174 129 144
0.08617074 0.08177999 0.50557610 112 81 86
0.09975210 0.09971368 0.54580665 107 88 86
0.09244464 0.11156963 0.55243519 124 92 100
0.08695106 0.11305917 0.56120354 159 118 133
0.09076475 0.13004184 0.55274100 131 98 108
0.08261024 0.12250338 0.56461406 177 135 155
0.08147257 0.14948001 0.53929365 93 90 103
0.08703918 0.14446179 0.54569359 122 99 108
0.08003144 0.17925625 0.48874682 91 100 116
0.08299874 0.18557525 0.47853254 114 122 132
0.08147872 0.18860085 0.48377334 110 120 129
0.08674459 0.21496071 0.65800124 123 133 148
0.08639931 0.21446557 0.66721350 133 143 154
0.08238280 0.22249600 0.65805611 144 156 163
0.08647730 0.22323251 0.66847953 132 143 157
0.08031824 0.28491777 0.70687675 157 167 175
0.09747775 0.55650306 1.77691483 149 158 167
0.09567487 0.55480470 1.78627938 148 160 173
0.09267110 0.55841210 1.80290389 148 160 174
0.09320986 0.56217865 1.79338968 149 161 171
0.09125380 0.57535586 1.83710527 150 163 174
0.09200179 0.57526994 1.85216355 147 160 174
0.10847786 -0.24716725 0.51623505 137 137 135
0.10730029 -0.25552716 0.52083705 137 137 135
0.10698222 -0.22938807 0.51092441 132 130 128
0.10716680 -0.21946087 0.50931019 137 136 134
0.10359047 -0.20370456 0.58582156 109 113 133
0.10984143 -0.20339729 0.71329741 175 135 150
0.11294258 -0.20525836 0.72278746 176 134 151
0.10185949 -0.19396294 0.57925351 112 114 127
0.10348104 -0.19417565 0.58308879 120 120 130
0.11455481 -0.18415825 0.69957876 166 119 133
0.11043289 -0.19013683 0.71131654 167 128 143
0.11016679 -0.18834165 0.72292238 172 134 148
0.11455481 -0.17932159 0.69957876 166 116 133
0.11405498 -0.16996618 0.70888835 164 124 138
0.10873842 -0.16848557 0.72551945 167 142 157
0.11576945 -0.15018305 0.71216081 162 118 131
0.10893159 -0.14996726 0.72407423 163 129 143
0.11634277 -0.13232560 0.71141955 158 115 127
0.10957725 -0.12897588 0.72885811 154 120 136
0.11659440 -0.10112525 0.71963042 168 121 135
0.11159763 -0.11116523 0.73334206 160 129 143
0.10633113 -0.10991412 0.74252430 137 121 133
0.11672794 -0.08841650 0.71454281 155 114 126
0.11098581 -0.08907638 0.72674291 171 130 145
0.11815986 -0.07911574 0.71856430 147 111 121
0.11470238 -0.07529575 0.73111295 164 123 137
0.11449728 -0.06790443 0.74344586 171 135 150
0.11176592 -0.04613541 0.73653460 160 123 139
0.11014416 -0.05399218 0.74174833 159 131 145
0.11310811 -0.03565937 0.73641787 163 122 140
0.11099793 -0.02895419 0.74511354 158 124 141
0.11819502 -0.02046279 0.76373754 172 128 146
0.11866951 -0.01623603 0.77530756 169 132 150
0.11856273 -0.01351947 0.78481404 171 140 159
0.10198327 0.03293874 0.55802108 118 97 98
0.10243252 0.03288704 0.56047288 120 97 99
0.10481704 0.05864921 0.55721100 120 102 101
0.10272798 0.05886400 0.56211077 121 99 99
0.11828654 0.07660832 0.46487635 112 102 101
0.10614147 0.06465307 0.55688740 119 103 104
0.10413058 0.06932969 0.56428563 119 98 100
0.11813153 0.08752276 0.45951016 123 114 114
0.11585293 0.08502917 0.46233854 112 100 100
0.10087333 0.10498890 0.54377741 118 96 99
0.11149640 0.19646933 0.61684505 146 159 169
0.10871248 0.19600899 0.62437182 146 160 170
0.10959319 0.20530683 0.61558824 104 118 132
0.10742610 0.20435302 0.62366595 122 133 142
0.10836899 0.55877203 1.77924371 136 143 150
0.11375121 0.55770122 1.79134033 133 139 147
0.11540511 0.55819148 1.81740439 143 148 157
0.10888604 0.56434321 1.79135815 132 140 147
0.10773873 0.56846213 1.81174811 142 148 155
0.11143560 0.56671733 1.82969761 152 155 164
0.10830428 0.57684600 1.85723794 155 159 171
0.11374266 0.57518259 1.86747062 153 157 167
0.11104231 0.58813792 1.90419054 155 159 171
0.11530522 0.58981711 1.92037344 156 159 170
0.11525091 0.60701293 1.97636104 155 161 172
0.11626783 0.60892278 1.99379957 155 162 173
0.12889580 -0.20041832 0.71886730 135 119 120
0.12601312 -0.20077306 0.72269991 133 107 112
0.12587168 -0.18515484 0.71332837 129 105 109
0.12718246 -0.19557166 0.72278737 130 105 111
0.12535491 -0.16445899 0.69756771 135 120 119
0.12384922 -0.17202134 0.70338522 132 108 111
0.12310014 -0.15086099 0.69703665 135 116 117
0.12053850 -0.14914344 0.70482865 134 104 109
0.13967088 -0.13256791 0.45982154 137 130 128
0.13914719 -0.12681177 0.46329209 135 128 125
0.12181657 -0.13873827 0.69616854 127 108 109
0.12185835 -0.13048151 0.71254827 129 100 106
0.12551595 -0.12301018 0.72665513 126 100 104
0.13917855 -0.11983629 0.46751162 134 126 120
0.12497518 -0.11536524 0.72972256 130 101 107
0.12281635 -0.08440874 0.71405079 130 107 109
0.12075587 -0.07985313 0.71848655 131 99 107
0.12371379 -0.06609694 0.72198250 127 100 106
0.12516844 -0.05442352 0.71886811 131 108 111
0.12351047 -0.04983880 0.72868254 131 102 108
0.12182704 -0.03432047 0.73481753 132 107 118
0.12166420 -0.02618369 0.74704208 147 115 128
0.13707540 -0.02530475 0.81229301 119 105 114
0.13638815 -0.02077659 0.82135630 136 116 126
0.12460743 -0.00898039 0.79408870 166 122 137
0.12970427 -0.01244221 0.80435415 155 115 128
0.13851086 -0.01251372 0.83050944 132 112 119
0.12528411 0.07158335 0.46740724 118 107 104
0.12093847 0.08260857 0.46341721 107 91 92
0.12668491 0.52814724 1.67153021 134 143 150
0.13364398 0.52798122 1.69050336 137 146 148
0.12763597 0.53510796 1.71062544 120 125 136
0.12861783 0.53467532 1.72787917 121 127 135
0.13191625 0.53893811 1.74489820 125 132 140
0.12318334 0.54486588 1.74942452 117 121 132
0.12676485 0.54920874 1.77151318 117 124 132
0.12334144 0.55541714 1.79574940 117 122 130
0.12103858 0.55833894 1.80771160 121 129 135
0.12691215 0.55886725 1.82474583 119 123 134
0.14100457 -0.12992659 0.45910085 138 131 129
0.14190173 -0.12589541 0.46148810 134 128 126
0.14011825 -0.11926012 0.46526923 126 118 113
0.15703365 -0.08638266 0.60782413 126 116 115
0.15720510 -0.07850105 0.61225957 130 121 120
0.15329862 -0.02890143 0.81379743 122 107 110
0.14480135 -0.02327760 0.82216749 115 89 95
0.15216006 -0.01175113 0.81341168 127 110 111
0.14390170 -0.01329472 0.82545356 121 98 103
0.14632029 0.07234391 0.63034789 119 106 105
0.14364265 0.08066395 0.63324910 121 108 110
0.15978789 0.25000261 0.65687257 139 147 152
0.16213913 -0.08882712 0.60812693 127 116 114
0.16007255 -0.07944163 0.60634333 130 122 121
0.16227794 -0.02795922 0.80814071 124 110 112
0.16098776 -0.01838915 0.80737538 124 112 113
0.17914596 0.13916326 0.47558041 120 137 148
0.17266815 0.14956517 0.47781749 148 156 161
0.17606993 0.15546125 0.48155553 129 136 140
0.17904387 0.16062397 0.48351771 136 145 150
0.16466235 0.17067583 0.61832857 158 167 171
0.16707448 0.17598144 0.62628204 156 165 170
0.17117908 0.18945214 0.63451003 121 130 138
0.16415897 0.25245137 0.65518612 120 131 137
0.16370946 0.25750820 0.66326330 134 146 151
0.16501242 0.26450158 0.66921626 142 152 157
0.18210928 0.13711302 0.47613977 128 143 150
0.18211042 0.14593593 0.47630300 126 134 141
0.18283489 0.15709874 0.48282207 126 133 138
0.18342938 0.16065846 0.48362145 158 170 173
0.21052143 0.17297930 0.51563293 122 133 142
0.20777634 0.17499627 0.52061010 128 133 138
0.21562232 0.18123792 0.51896733 132 141 145
0.21215527 0.18243924 0.52166797 138 145 151
0.21330975 0.53148871 1.85171476 143 151 162
0.21221070 0.53132733 1.86954931 124 136 151
0.21292576 0.52828301 1.88829772 59 63 88
0.21427451 0.53188378 1.91494870 49 50 71
0.20845737 0.54921252 1.83462268 129 142 157
0.21011360 0.54665201 1.84923103 127 135 147
0.20734812 0.54774027 1.86748485 122 130 143
0.23703029 0.51180726 1.78706388 91 98 118
0.23589236 0.51557169 1.80676553 89 96 115
0.23761678 0.51540715 1.82720172 65 73 91
0.23477209 0.52049667 1.81740439 103 109 129
0.23625265 0.53010972 1.82886565 94 106 124
0.22912111 0.52960778 1.85179228 125 132 143
0.22954316 0.53119981 1.86748661 127 137 144
0.22826107 0.52921957 1.89356252 72 77 97
0.23128415 0.53369190 1.90956457 81 87 103
0.22187302 0.54129094 1.86747062 137 143 154
0.23817030 0.54105419 1.94796503 61 59 78
0.25960398 0.01267579 0.45275799 115 107 101
0.25404778 0.08753284 0.55567466 118 105 99
0.25413947 0.09328242 0.56058901 115 105 99
0.25365952 0.10049713 0.56070459 113 98 95
0.24257615 0.52481586 1.87781680 50 51 71
0.24220114 0.52654324 1.89180434 53 54 72
0.24406302 0.52857393 1.91494870 53 49 65
0.24281090 0.53976792 1.93131578 68 76 94
0.24574646 0.53684735 1.94798926 64 55 71
0.24223528 0.54430136 1.95359498 72 73 89
0.24434783 0.54223606 1.97063243 72 62 77
0.26519023 0.01242075 0.45257351 117 108 103
0.26478729 0.02038839 0.45198820 118 108 103
0.26196318 0.08955673 0.55843803 117 104 100
0.26288223 0.09141918 0.56081293 118 106 101
0.28489119 0.24978673 0.68807043 130 138 142
0.28822916 0.25730853 0.70321397 135 143 150
0.29374001 0.26913203 0.70984191 150 163 167
0.29537563 0.27643877 0.72840486 145 162 167
0.29762926 0.27629730 0.74307546 136 151 157
0.28948578 0.29441041 0.71963042 115 123 129
0.29289116 0.28887025 0.73118819 138 149 154
0.29181052 0.29015622 0.74215505 130 144 153
0.30811357 0.09977293 0.82821515 115 104 99
0.30832937 0.11088567 0.83066359 115 104 101
0.30770196 0.11842874 0.84210775 119 104 100
0.30707216 0.12126116 0.82671654 116 106 105
0.30770196 0.12085219 0.84210775 118 105 104
0.30095306 0.27514941 0.74493611 140 153 161
0.32981104 -0.09643937 0.47975361 129 121 115
0.32986412 -0.09228249 0.48310857 129 124 116
0.32815832 0.17832042 0.49913236 106 121 130
0.32662754 0.17906083 0.50140197 114 126 135
0.32615600 0.18287274 0.49925630 128 138 142
0.32949862 0.18257403 0.50094942 134 145 148
0.34840651 -0.18196718 0.85042241 131 125 120
0.34724301 -0.18177579 0.86844040 130 125 120
0.34993244 -0.17465434 0.85521461 132 126 122
0.34719154 -0.17622401 0.86684170 131 124 120
0.35794862 -0.12471613 0.45678270 128 123 112
0.35790660 -0.12262197 0.46076837 128 121 115
0.35695328 -0.11594374 0.45610706 128 122 113
0.35784443 -0.11886219 0.46060293 128 121 114
0.35949329 0.32162383 1.04130852 129 139 144
0.35843468 0.33204697 1.07263517 150 161 168
0.35867772 0.33725559 1.08988265 150 160 170
0.35973030 0.34069383 1.09691238 151 161 173
0.35549646 0.34729598 1.10586089 139 155 162
0.35620576 0.35738348 1.12951159 118 130 141
0.35793218 0.36845935 1.13216681 134 142 152
0.35839025 0.37131666 1.14726270 136 144 152
0.35897156 0.38285758 1.15549823 158 165 171
0.35843915 0.38659030 1.16676736 157 165 172
0.36579936 -0.02564607 0.47001887 123 117 110
0.36842393 -0.01686890 0.47412753 118 114 104
0.37496837 0.19696992 0.49394332 124 141 144
0.36880987 0.20288930 0.49009288 138 154 155
0.36134916 0.32545693 1.05372187 133 144 149
0.36408473 0.33360984 1.07157471 149 161 165
0.36017284 0.33767220 1.08116722 150 164 170
0.36892799 0.34273171 1.07944560 165 175 180
0.36914925 0.34785645 1.09247056 154 165 171
0.36997806 0.35278153 1.10688229 155 167 174
0.36505915 0.35655800 1.12451773 147 160 167
0.37394917 0.36060046 1.09691525 135 143 150
0.37385672 0.36402179 1.10918101 139 145 153
0.36818340 0.36564803 1.12909118 139 149 159
0.37299496 0.37179313 1.14954737 136 144 154
0.36232887 0.38759262 1.17283034 157 166 172
0.37759517 0.68771344 1.90956457 144 152 159
0.37800472 0.69333236 1.93133923 139 147 154
0.37054045 0.69643615 1.95359319 134 146 155
0.37805985 0.69569600 1.96633184 131 142 152
0.37938747 0.69786298 1.98213995 130 141 151
0.37406340 0.70869309 1.93683386 129 137 141
0.37424188 0.70628854 1.94867887 131 141 147
0.36938781 0.70402180 1.97063007 133 145 155
0.36983215 0.70404426 1.99132320 134 146 159
0.39716406 0.03232127 0.89683936 120 110 107
0.39626461 0.03164541 0.90136205 121 110 108
0.39904372 0.04454251 0.89797910 122 111 105
0.39948997 0.04621065 0.90025479 121 110 105
0.38067350 0.37457287 1.16077375 143 153 165
0.39512190 0.63192248 1.87781680 135 143 149
0.39649537 0.63656236 1.88434422 134 141 147
0.39954904 0.64556688 1.89885676 136 139 145
0.38294700 0.67909706 1.94796503 142 150 155
0.38301519 0.68831521 1.93133146 133 146 151
0.38397509 0.68791915 1.94751875 130 139 147
0.39093914 0.69169249 1.96704999 133 141 148
0.38221629 0.69476646 1.98796976 135 144 154
0.39646551 0.70198315 1.96490383 140 151 156
0.41104940 -0.09091746 0.45157389 125 122 108
0.40654445 0.01901521 0.89668546 118 107 106
0.41520059 0.01987722 0.90567076 121 109 106
0.40470618 0.02882587 0.89522873 118 109 104
0.41549011 0.02248417 0.90265684 119 108 105
0.40100437 0.04137775 0.89668232 122 112 107
0.40252930 0.62649095 1.85216355 132 141 148
0.40444768 0.63499290 1.87091935 120 128 137
0.40272880 0.63693249 1.88303292 120 125 133
0.40810451 0.64165944 1.87781680 119 128 138
0.40712882 0.64837977 1.89004611 124 130 139
0.40575947 0.65514894 1.90956659 131 136 142
0.41210075 0.66269344 1.89620471 127 135 139
0.41225070 0.66790872 1.90956457 122 130 136
0.41040888 0.67058659 1.92675388 130 138 141
0.41038637 0.67715120 1.94238353 138 147 150
0.41531430 0.68260950 1.93407482 108 121 125
0.40823516 0.68703858 1.95218076 122 133 136
0.42003891 -0.09162700 0.45192790 121 121 103
0.45850433 -0.11236131 0.77342655 130 122 113
0.45359895 -0.08729150 0.77602002 128 120 115
0.45555218 -0.08945777 0.78407433 128 120 116
0.45466977 0.17243908 0.95747435 113 105 100
0.45808462 0.17331922 0.96591227 115 105 102
0.45733365 0.19615830 0.95612389 125 118 114
0.45807866 0.18909508 0.96530071 115 107 104
0.44894394 0.25297836 0.73822827 120 135 138
0.44920140 0.25247341 0.74528680 116 127 132
0.44903522 0.26055523 0.73860636 115 128 134
0.45034017 0.26517771 0.74811511 119 127 130
0.45750815 0.27404940 0.76339173 132 140 144
0.47709019 -0.12231616 0.49697254 129 127 114
0.47364995 -0.12401489 0.50201185 127 126 112
0.47719140 -0.11808705 0.49590849 128 127 113
0.47402556 -0.11895487 0.50125128 129 127 117
0.46101647 -0.11065020 0.77784653 129 122 112
0.46391100 -0.10551837 0.79083225 127 119 112
0.46169010 -0.09778819 0.79003787 126 118 111
0.46918375 0.17362848 0.97415057 115 105 101
0.47613746 0.17187481 0.98389033 116 107 101
0.46796567 0.18753214 0.97584284 110 102 97
0.47241170 0.19292267 0.98646201 108 100 96
0.48084675 -0.12181221 0.49583724 128 126 112
0.48042261 -0.11828207 0.49481174 129 124 115
0.49900237 0.01947215 0.58378565 112 107 96
0.48042101 0.17557952 0.97961247 114 106 100
0.48191307 0.17328957 0.98760492 116 106 101
0.48227322 0.18543372 0.97890650 106 95 94
0.48304506 0.19148795 0.98670353 106 96 94
0.50987919 0.01502050 0.58681655 116 108 101
0.50739416 0.02206716 0.58526429 112 109 100
0.51770932 0.24849828 0.61694044 105 117 121
0.51831731 0.24770744 0.62284516 112 124 127
0.53770355 -0.06430424 0.54487979 127 124 114
0.53844130 -0.05932145 0.54563143 122 121 109
0.53375977 0.23999493 0.61795062 122 128 133
0.52733185 0.24863592 0.61730343 106 122 126
0.53058415 0.24689892 0.62863044 104 116 122
0.53213204 0.24625239 0.64322570 121 135 138
0.55880272 -0.18099518 1.89355266 126 116 111
0.55880272 -0.17772233 1.89355266 127 117 112
0.54930130 -0.06725940 0.54946334 126 123 114
0.54183702 -0.05835070 0.54664998 121 120 107
0.55640867 0.06307105 0.53239433 113 108 101
0.54577650 0.15961497 0.50657841 77 103 118
0.54488470 0.17610799 0.49738726 111 131 132
0.54829699 0.16780882 0.50594475 105 123 133
0.54532081 0.23995548 0.63771576 114 119 126
0.54351281 0.24523985 0.63721924 107 117 124
0.54628121 0.24494220 0.64390022 110 119 124
0.57833502 -0.20015492 1.92037344 126 115 115
0.57057121 -0.18119798 1.89567430 124 114 109
0.57197615 -0.18705841 1.90717387 125 116 111
0.57394234 -0.19387340 1.92154250 125 117 113
0.57082311 -0.17131701 1.89652532 125 115 113
0.56764392 -0.16994409 1.91046361 126 115 114
0.56389588 -0.15677150 1.87781680 124 120 114
0.56377363 -0.15764487 1.88827813 129 118 118
0.56828504 0.06558440 0.53634979 111 119 118
0.57825534 0.06672407 0.54058399 90 114 118
0.57145693 0.09508165 0.69901262 116 110 103
0.56968316 0.09627320 0.70296087 117 110 102
0.57344204 0.10532799 0.69885866 116 107 101
0.57066308 0.10492107 0.70532358 116 108 101
0.59123828 -0.18484488 1.89644849 123 114 110
0.58642004 -0.19112806 1.90687251 126 117 113
0.59153076 -0.17474121 1.89224142 122 113 108
0.59814572 -0.17049268 1.90419054 122 112 108
0.59790719 0.07820073 0.51856449 134 154 156
0.59807312 0.07453277 0.52054014 110 128 131
0.59820117 0.08273766 0.51821736 133 155 157
0.58044723 0.09320514 0.69943452 117 112 106
0.58188283 0.10438291 0.70237621 115 106 100
0.60631627 -0.18970723 1.89885676 126 116 115
0.60474737 -0.18921778 1.90572309 125 115 113
0.60464194 -0.16678329 1.89568021 126 117 115
0.60309876 -0.17174984 1.90597852 124 115 112
0.60276942 0.07636687 0.51808572 137 156 161
0.60166363 0.08390127 0.51665738 142 161 164
0.61036256 0.29446265 0.67866198 109 125 127
0.61597029 0.29575522 0.69099494 125 141 143
0.61836536 0.29444604 0.70048252 134 152 153
0.61523807 0.30266213 0.68751711 87 104 107
0.62371960 0.29332954 0.69325542 148 158 160
0.62566688 0.29357915 0.70052430 156 170 171
0.65687482 -0.14384898 0.77760417 129 124 115
0.65678135 -0.14385304 0.78350814 128 125 114
0.65855062 -0.13730146 0.77867484 129 126 114
0.65879284 -0.13779411 0.78358921 131 127 114
0.64589280 0.32812689 0.83742332 110 123 128
0.65409693 0.33176265 0.85399456 120 132 135
0.65792060 0.33243601 0.86444608 113 122 129
0.66174769 -0.14125907 0.77858997 129 125 113
0.66905065 -0.14210277 0.78224748 129 125 112
0.67036128 -0.14096628 0.80509722 129 125 111
0.66264356 -0.13654329 0.77873874 130 126 114
0.66459605 -0.13595879 0.78350849 129 125 114
0.66451652 0.31787348 0.86748012 138 147 149
0.66387737 0.32897887 0.87065574 114 127 133
0.66633907 0.33659730 0.88306177 109 122 126
0.69278023 0.39184021 0.93659604 114 128 132
0.69481689 0.39587569 0.94603722 107 121 124
0.69490044 0.40644542 0.93590771 121 134 138
0.69485040 0.40908369 0.94753977 122 136 137
0.69996285 0.42006737 0.94677633 146 162 165
0.71887094 -0.02436454 0.83897507 116 113 104
0.71892169 -0.02220736 0.84430362 118 112 103
0.70872027 -0.00406314 0.83897507 125 121 113
0.71616278 -0.01030600 0.84318544 119 114 106
0.71963620 0.00102362 0.84842533 129 121 115
0.70152459 0.39534370 0.94766076 108 126 128
0.70028251 0.41960302 0.94942838 141 158 159
0.70061219 0.42176881 0.94876444 148 164 167
0.72177118 -0.02146434 0.83897507 120 113 102
0.73111218 -0.02273906 0.84496272 117 111 103
0.72206119 -0.01696903 0.83897507 118 108 100
0.72868993 -0.01317766 0.84553731 119 112 102
0.72335719 0.00138881 0.84762992 125 119 112
0.73861883 0.25655877 0.90835557 119 110 102
0.73871019 0.26133867 0.90839808 124 115 109
0.75114024 -0.50140136 0.77918601 128 129 121
0.75184472 -0.50290375 0.78632387 135 136 126
0.75028389 -0.49067100 0.77526921 135 137 126
0.75405155 -0.49389137 0.78620514 139 140 129
0.74189106 -0.02518396 0.84663209 115 107 98
0.74237591 -0.00915456 0.84708719 116 113 103
0.74367557 0.00175461 0.84657933 120 115 107
0.74864280 0.25726610 0.91044303 113 108 100
0.75229463 0.26800979 0.91002046 108 106 103
0.76151019 -0.49090426 0.79102351 141 143 131
0.77151550 -0.24827213 0.89609563 128 122 112
0.77664338 -0.24883602 0.90215381 128 122 112
0.76864991 -0.23558731 0.89474135 127 122 114
0.76270279 0.25778123 0.91221853 104 103 98
0.76310366 0.26369769 0.91136369 111 109 100
0.78117611 -0.25683205 0.90439428 128 122 109
0.83873320 -0.06429243 0.85736842 127 124 111
0.83925931 -0.06379410 0.86089385 127 124 112
0.83928043 -0.04639588 0.85754853 126 125 114
0.84841983 -0.06694276 0.85298203 123 120 109
0.84250465 -0.06209455 0.86466148 128 122 112
0.85031304 -0.05650162 0.85509223 123 120 109
0.84644365 -0.05339642 0.86389878 125 121 113
0.86022842 -0.05525413 0.85700613 124 121 111
0.86201648 -0.05397758 0.86026883 124 120 113
0.98984965 -0.52617636 0.89589526 82 108 124
0.99772748 -0.52755949 0.90355693 80 108 122
0.99185486 -0.51345660 0.89576417 78 109 120
0.99632718 -0.51544931 0.90105289 81 110 121
1.01760179 -0.54710776 0.92608348 84 109 125
1.00405836 -0.52925764 0.91076510 83 109 122
1.01801336 -0.53337714 0.92482222 83 109 121
1.00646312 -0.51599519 0.91060816 78 110 122
1.01684535 -0.51945907 0.92104870 79 113 127
1.00261426 0.50699139 1.41227472 138 158 160
1.00981069 0.51248226 1.42414880 141 159 160
1.01784519 0.52588938 1.43722800 147 163 166
1.02630532 -0.54613001 0.93400426 83 109 124
1.03527933 -0.54358421 0.94217119 84 110 123
1.02598765 -0.52421465 0.93215004 81 109 123
1.03475010 -0.52945355 0.94021058 81 110 120
1.02986772 -0.51615298 0.93313964 77 111 119
1.03825190 -0.51722740 0.94073293 80 112 116
1.02113318 0.51888245 1.44539833 143 162 162
1.02572529 0.52788128 1.44953839 147 163 166
1.03735769 0.53474432 1.46836392 148 164 166
1.05925786 -0.56043792 0.96703541 83 111 122
1.04821962 -0.55124573 0.95545056 84 110 123
1.05816031 -0.55791001 0.96787063 87 112 125
1.04107157 -0.51259259 0.93761094 72 111 118
1.05102588 -0.51014103 0.94886482 77 107 120
1.04870343 0.53679124 1.48989728 155 165 168
1.04111195 0.54304373 1.47367787 141 158 163
1.05229285 0.54764387 1.49315745 143 160 164
1.05669200 0.54478765 1.50308609 155 168 170
1.06137997 -0.56506054 0.97319674 85 111 121
1.06761503 -0.52032334 0.96703541 80 107 118
1.07642847 -0.53185034 0.99727114 121 124 116
1.07777143 -0.53271163 1.00131738 123 124 115
1.06210470 -0.50075895 0.95680293 81 105 121
1.07311998 -0.50845948 0.96916711 78 106 120
1.06376070 -0.49827939 0.95680387 80 105 119
1.07524552 -0.49917317 0.96724066 77 105 118
1.07673054 -0.22389401 1.07602736 119 119 110
1.07933164 -0.22177950 1.08462691 119 120 111
1.07745984 -0.21430476 1.07846547 119 119 106
1.07818341 -0.21686313 1.08347462 120 120 109
1.07318427 0.34710433 1.10829043 97 123 127
1.06496648 0.55515528 1.51486164 147 162 167
1.07225859 0.55462933 1.53025071 156 167 170
1.07040195 0.56923240 1.53450296 141 157 164
1.06927536 0.57489416 1.54846428 130 144 150
1.07626557 0.57555258 1.56557012 135 147 153
1.07384355 0.58575940 1.55124992 128 141 149
1.07604513 0.58719009 1.56920748 119 128 133
1.09227739 -0.52678124 0.99765798 92 113 121
1.08991984 -0.52840711 1.00660345 121 125 121
1.08204768 -0.50695653 0.97735482 78 105 121
1.09293454 -0.51588912 0.99532869 87 110 120
1.09659060 -0.51780043 1.00428569 95 113 121
1.08178874 -0.49442711 0.97287024 74 105 120
1.09052467 -0.49926409 0.98316905 76 106 122
1.08066738 -0.22205887 1.07329686 122 120 111
1.08296829 -0.22489769 1.08936487 121 121 112
1.08291676 -0.21248314 1.07691771 121 118 107
1.08492905 -0.20617579 1.08203425 125 121 113
1.08350420 -0.19833124 1.07944560 127 122 115
1.08223653 0.35130718 1.11863339 87 113 118
1.09057494 0.35428660 1.13106687 85 108 114
1.09888577 0.35075857 1.15616407 83 88 91
1.09893012 0.35049724 1.16077375 82 84 86
1.09263936 0.36395713 1.13242905 82 98 105
1.09410667 0.36098453 1.14315653 97 109 114
1.08065331 0.57308233 1.53716969 153 165 170
1.08385348 0.57493123 1.54849429 149 164 169
1.08779335 0.58583870 1.53300583 143 156 158
1.09216689 0.59009652 1.54949567 141 156 159
1.09023614 0.59220524 1.56739379 136 149 155
1.08712113 0.59706758 1.58536744 116 125 131
1.09581053 0.59752405 1.61019444 134 138 138
1.09013168 0.60523421 1.57082346 134 144 148
1.09418510 0.60899569 1.58646983 132 142 148
1.09664553 0.60479176 1.60734624 122 127 131
1.10102185 -0.52708670 0.99885881 81 108 124
1.10920004 -0.52211775 1.01423519 98 115 122
1.11705824 -0.52529873 1.02743477 117 123 124
1.10269575 -0.50956646 0.99631766 76 106 122
1.10815976 -0.51493981 1.00549489 78 106 121
1.10793201 0.35412585 1.15185862 73 87 93
1.11113506 0.35499911 1.16456549 70 76 82
1.10694497 0.36770052 1.15322681 86 99 106
1.11225757 0.37012429 1.16370022 86 99 103
1.11408846 0.38144839 1.16544004 118 134 131
1.10126960 0.59977746 1.55123997 124 141 144
1.10151112 0.59560584 1.56993237 146 160 164
1.10190228 0.60415097 1.55213755 120 133 141
1.10791408 0.60539288 1.57123922 128 143 148
1.10949810 0.61021224 1.58423470 131 143 149
1.10383761 0.61156172 1.61788034 113 118 126
1.10772985 0.61308339 1.62564927 123 128 132
1.11697060 0.61551502 1.64337659 131 132 133
1.12975011 -0.52465258 1.03275442 97 115 123
1.13250865 -0.52778706 1.04395779 127 129 126
1.12419862 -0.51517445 1.01709491 73 107 120
1.13628983 -0.51917762 1.02763156 77 107 121
1.12073779 0.35734868 1.16676736 65 75 81
1.12166160 0.37917741 1.16878253 81 103 104
1.12267005 0.38119641 1.16877902 93 115 116
1.12235260 0.61927074 1.65339470 137 138 139
1.12378472 0.62355760 1.65340459 126 126 131
1.14393609 -0.52383980 1.03828084 77 108 120
1.14929498 -0.52434208 1.04817147 89 114 119
1.15510300 -0.53326394 1.06461537 136 138 131
1.15256910 -0.51647661 1.04867775 81 108 114
1.14632127 -0.49353380 1.02972823 77 104 118
1.15821222 -0.21882097 1.07318032 122 123 115
1.16438332 -0.52423832 1.05386382 76 109 119
1.16891975 -0.52446098 1.06827842 92 114 117
1.16216803 -0.50773206 1.04612935 79 106 119
1.17221547 -0.51702341 1.07031756 91 111 114
1.16577524 -0.49674566 1.04774630 76 105 119
1.17681962 -0.24447151 1.08549601 120 120 119
1.16704218 -0.22860348 1.07627982 118 119 112
1.16979083 -0.22927662 1.08463702 117 116 108
1.16533241 -0.21611877 1.07485100 122 125 117
1.16963377 -0.21570403 1.08550255 118 119 108
1.18411529 -0.52089435 1.06754625 77 105 120
1.19273990 -0.52829114 1.08462971 92 112 120
1.18765713 -0.51388273 1.07220887 80 106 117
1.19363624 -0.51165670 1.08914436 93 111 115
1.19267542 -0.49301817 1.06959441 78 108 123
1.19388003 -0.49365861 1.08812174 90 110 117
1.18211820 -0.24289628 1.09021153 115 113 112
1.18057907 -0.23903416 1.08636510 117 113 110
1.21023891 -0.52674998 1.09487218 80 106 116
1.21877456 -0.52312100 1.10136849 82 105 114
1.20104551 -0.50804311 1.07944560 75 106 122
1.20794327 -0.51041605 1.09522244 83 107 116
1.21371840 -0.51599215 1.10343444 84 107 117
1.20329927 -0.49227232 1.07849280 76 105 118
1.20829523 -0.49204072 1.08852037 77 104 117
1.20805340 0.46974272 1.43858323 137 153 152
1.21338872 0.46726302 1.44657639 149 166 163
1.20203421 0.48403969 1.43469653 150 166 167
1.21238480 0.48906042 1.44954505 150 166 168
1.21899974 0.49417174 1.46097374 149 166 167
1.21983004 0.48486040 1.48660970 150 163 163
1.22736716 -0.52245631 1.10950645 80 105 116
1.23702180 -0.52154720 1.12048233 78 108 120
1.22047985 -0.50631028 1.09691238 79 106 118
1.22726879 -0.51245778 1.10732427 77 106 118
1.22237587 -0.48592910 1.09691238 78 102 121
1.22943288 -0.49713148 1.10495889 78 107 119
1.22586355 0.47440847 1.47320845 147 165 164
1.22948571 0.47697807 1.48368150 145 162 162
1.22663723 0.49094873 1.46979694 151 167 168
1.23165172 0.48926484 1.48762316 153 167 168
1.23854947 0.49802431 1.50308609 157 169 172
1.23227859 0.50466025 1.47688854 146 163 166
1.23582253 0.50678624 1.48498198 147 165 168
1.24078083 -0.52068651 1.11863339 76 106 120
1.24636960 -0.52425578 1.12630585 77 105 119
1.24730139 -0.51359688 1.12345917 77 104 116
1.24259734 -0.49859563 1.11679053 79 104 119
1.24159961 0.47480152 1.49053426 138 153 155
1.24073216 0.49431094 1.49410181 157 169 170
1.24807529 0.49715833 1.50308609 159 171 172
1.24342716 0.51134449 1.49644995 146 163 166
1.25171673 0.51735717 1.50642633 147 164 167
1.26979220 -0.50359005 1.14123201 79 102 121
1.29617083 -0.52562865 1.17080079 78 106 116
1.28493452 -0.50759935 1.15484130 79 102 120
1.29626093 -0.51463212 1.17314884 82 104 121
1.29770581 -0.51569341 1.18099630 88 108 114
1.29257023 -0.48425838 1.17079771 78 102 116
1.30233018 -0.52451915 1.17485583 78 105 117
1.31223941 -0.52102384 1.18305731 80 102 122
1.30527258 -0.51087025 1.17568164 78 103 119
1.31444149 -0.51065880 1.19146521 82 104 114
1.31794488 -0.50960229 1.20193589 96 107 107
1.30156207 -0.48966485 1.17894232 79 104 118
1.31129706 -0.48885376 1.18993460 80 104 113
1.32527219 -0.50686696 1.19408698 77 103 115
1.33138642 -0.50731672 1.20407281 82 104 115
1.32939426 -0.49268939 1.19546226 77 103 113
1.33444266 -0.48850718 1.20828920 80 103 114
1.33881915 -0.47053963 1.19768882 74 100 118
1.34030879 -0.50606179 1.20836341 77 102 116
1.34810588 -0.48856487 1.21256971 76 102 114
1.35631744 -0.49353253 1.22216165 77 103 111
1.34536622 -0.47506590 1.20478749 76 100 114
1.36045170 -0.48445329 1.21704102 76 100 119
1.36511285 -0.48940812 1.22465924 74 100 117
1.37446082 -0.36493802 1.31714845 126 127 116
1.39677143 -0.49753481 1.25535524 76 101 116
1.39573920 -0.38434511 1.33312190 125 124 117
1.38080287 -0.37453213 1.31885576 127 128 121
1.39120360 -0.36630043 1.33261373 126 126 115
1.39769727 -0.36517698 1.35172987 127 124 114
1.39206481 -0.35979581 1.33181107 128 129 115
1.41402340 -0.50296548 1.27184653 76 101 113
1.41795087 -0.45265941 1.26946032 71 103 111
1.40645483 -0.38239169 1.33838600 127 128 122
1.41169018 -0.38777677 1.34502882 128 128 121
1.40471929 -0.37081610 1.33838600 128 129 118
1.40930370 -0.36272324 1.35129257 128 126 117
1.41579004 -0.36583735 1.36581560 125 125 116
1.40031815 -0.35961342 1.33970726 129 128 119
1.41147614 -0.35781083 1.35038221 129 126 119
1.43039292 -0.50918558 1.28757292 77 102 113
1.43617535 -0.49741200 1.28876781 80 100 111
1.42651609 -0.45135511 1.27663469 71 102 113
1.43536383 -0.44952388 1.28480311 67 97 109
1.42911990 -0.36579915 1.37257747 126 126 117
1.43575093 -0.36817982 1.38275123 124 125 116
1.42230999 -0.35996199 1.35850072 129 125 118
1.43257570 0.74423945 1.64536858 130 140 146
1.43774188 0.75897682 1.67795014 113 133 141
1.42861755 0.76407623 1.67134969 128 146 149
1.43549466 0.76958233 1.68211377 134 154 156
1.45035038 -0.51392865 1.30946534 81 103 110
1.45942676 -0.51558995 1.32400751 86 106 108
1.44579703 -0.49737965 1.29740185 75 99 115
1.44579703 -0.46374498 1.29740185 71 102 113
1.45835567 -0.47342697 1.30867147 72 106 114
1.44605822 -0.44749814 1.29534432 72 97 112
1.45388917 -0.44099702 1.30197004 71 96 113
1.44803953 -0.43683232 1.29740185 70 97 115
1.44995832 -0.43921620 1.30113602 70 98 114
1.45059931 -0.36828050 1.37643158 127 127 116
1.45102674 -0.36723244 1.38686047 128 126 116
1.44165117 0.74969837 1.65743732 122 138 142
1.45039748 0.74970224 1.66878843 124 141 144
1.45608453 0.75567144 1.68350856 121 140 144
1.44773823 0.76949328 1.69474018 117 136 142
1.45647246 0.77041870 1.70324588 115 136 141
1.45423853 0.78121334 1.70753610 135 156 156
1.46858048 -0.52016687 1.32400751 79 105 108
1.46457589 -0.50803632 1.31629479 81 102 112
1.47106787 -0.51649607 1.33027293 82 105 109
1.47733629 -0.51809645 1.34236014 85 105 107
1.46400821 -0.47753266 1.31374383 73 106 116
1.47893441 -0.46477139 1.32919967 72 102 114
1.46430528 -0.43879096 1.30994689 68 97 114
1.47713768 -0.43921363 1.32142663 71 98 113
1.46484943 -0.36535756 1.39198546 128 125 114
1.47407333 -0.36435860 1.40254017 129 127 115
1.46384370 0.74737602 1.67795014 121 143 144
1.47019013 0.75458618 1.69194011 119 140 142
1.46383619 0.76070821 1.69472957 122 141 143
1.46900910 0.76914288 1.71186444 114 136 140
1.47576065 0.77584981 1.72580912 109 134 137
1.46160173 0.78220254 1.71618187 124 144 147
1.47054195 0.78353751 1.72784913 113 133 138
1.47812164 0.78824329 1.74265254 109 130 136
1.48306930 -0.52182996 1.33706999 79 105 108
1.49189126 -0.52144921 1.34502351 81 103 110
1.48249761 -0.51793466 1.33794908 82 104 109
1.48974263 -0.51631859 1.34915915 82 104 115
1.49607530 -0.51766449 1.36259806 96 111 117
1.49062562 -0.48002335 1.33970726 70 104 113
1.49357736 -0.48561420 1.34236014 72 105 113
1.48476568 -0.47237577 1.33444053 71 100 114
1.49339652 -0.45479572 1.36122859 75 97 102
1.48626397 -0.10734372 1.67381518 126 124 112
1.49435506 -0.10856461 1.69022698 126 125 112
1.49280912 -0.10978903 1.70862228 129 126 115
1.49653637 -0.10795517 1.72053766 130 127 114
1.49284577 -0.09948260 1.67795014 129 122 110
1.48670328 0.75760263 1.70753610 117 140 141
1.49504948 0.75444973 1.72053766 118 137 139
1.48681515 0.76514642 1.71618187 115 136 139
1.49171950 0.77026104 1.72932590 113 135 139
1.49016976 0.77920723 1.74265254 103 130 133
1.48034024 0.78321785 1.73818421 101 123 128
1.48798263 0.78523755 1.74715165 101 126 129
1.49410531 0.79341346 1.76419699 86 108 119
1.50311697 -0.52014571 1.37225068 116 122 122
1.50415921 -0.51558822 1.35714221 79 102 116
1.50941689 -0.51620360 1.37238134 96 111 117
1.51400052 -0.50802263 1.38280519 117 124 124
1.51374739 -0.48748024 1.37686544 89 107 111
1.51180381 -0.49021366 1.38063514 111 120 117
1.51513492 -0.46909840 1.37424106 76 104 110
1.51707359 -0.47718836 1.38063514 83 107 110
1.50650864 -0.45643670 1.36672576 77 100 108
1.50459318 -0.10292446 1.69642854 129 124 109
1.50673388 -0.10652400 1.71186335 128 125 109
1.51075737 -0.10424093 1.72587137 129 124 109
1.51471144 -0.10646387 1.74489820 129 124 115
1.51371217 -0.09841072 1.70971388 128 122 106
1.51157693 -0.09667073 1.73154610 127 123 110
1.51388431 0.40785313 1.35850072 151 167 168
1.51817318 0.40686592 1.36305455 149 165 168
1.50737906 0.76519197 1.73818421 110 131 134
1.51066790 0.77477640 1.74895906 108 130 135
1.50782228 0.78222775 1.75619650 114 134 141
1.50733095 0.79319064 1.77195558 92 116 124
1.51358438 0.79871443 1.78627938 83 108 114
