ply
format ascii 1.0
element vertex 1054
property float x
property float y
property float z
property uchar red
property uchar green
property uchar blue
end_header
-0.64979934 0.29014676 0.77457572 57 56 69
-0.65015915 0.30979179 0.77357281 53 52 64
-0.64994022 0.33011830 0.77261666 50 49 59
-0.64985297 0.35035429 0.77162168 47 46 57
-0.65023835 0.36979529 0.77066410 45 45 54
-0.64990983 0.38970977 0.76995719 44 43 52
-0.64976050 0.41010011 0.76941745 42 42 52
-0.65030498 0.42891592 0.76900243 42 41 50
-0.63032556 -0.56070932 0.83116640 0 0 0
-0.63035230 -0.55000135 0.83148604 0 0 0
-0.62950104 -0.53033676 0.83197521 0 0 0
-0.63017351 -0.51010656 0.83305845 0 0 0
-0.63190516 -0.50147851 0.86604507 221 222 221
-0.62966369 -0.49461555 0.83457868 6 5 6
-0.63005172 -0.49481071 0.84759546 200 200 204
-0.63020079 -0.48998867 0.86775431 212 217 218
-0.62989897 -0.46958690 0.86716627 250 250 250
-0.63000836 -0.44964538 0.86628617 250 250 250
-0.63001410 -0.42967428 0.86526570 250 250 250
-0.63002523 -0.40974083 0.86410404 250 250 250
-0.62991662 -0.38956193 0.86283351 250 250 250
-0.63010971 -0.36988632 0.86155637 250 250 250
-0.62909369 -0.34309369 0.85980437 251 251 251
-0.63034932 -0.35270160 0.86044574 251 251 251
-0.63001557 -0.32995495 0.85898368 250 250 250
-0.63005723 -0.31047926 0.85774743 250 250 250
-0.63010203 -0.28990686 0.85641966 250 250 250
-0.62980932 -0.26974092 0.85512353 250 250 250
-0.63009670 -0.25002939 0.85385905 250 250 250
-0.63001451 -0.23015017 0.85256000 250 250 250
-0.62999106 -0.21018682 0.85124144 249 249 250
-0.63001713 -0.19008119 0.84984487 250 250 250
-0.62998346 -0.16965684 0.84837824 250 250 250
-0.63010288 -0.14958219 0.84689002 242 242 243
-0.62994503 -0.12988565 0.84540153 250 250 250
-0.62998894 -0.10998709 0.84390398 250 250 250
-0.62999006 -0.08990929 0.84237201 250 250 250
-0.62798641 -0.06189257 0.83988512 250 250 250
-0.63026820 -0.07111726 0.84076926 250 250 250
-0.62998454 -0.05037400 0.83876473 250 250 250
-0.63738240 -0.02037803 0.81719666 215 220 224
-0.63017712 -0.02941165 0.83429610 245 245 246
-0.63032730 -0.00937958 0.80895978 198 205 210
-0.62488425 -0.01771057 0.82531786 230 233 237
-0.63000549 0.00998027 0.80259282 182 189 193
-0.63077028 0.03164911 0.79860512 168 175 179
-0.62635607 0.02216742 0.80043795 175 181 185
-0.63003096 0.04992912 0.79601982 158 164 169
-0.62989358 0.06964452 0.79352471 151 153 160
-0.63001599 0.08983922 0.79115153 140 144 149
-0.62997215 0.10998580 0.78887359 133 136 141
-0.62995259 0.13014196 0.78668775 125 127 134
-0.63001926 0.15021312 0.78467683 114 117 125
-0.63000504 0.17018032 0.78291685 105 107 116
-0.62993102 0.19016007 0.78136508 96 97 107
-0.63138662 0.21396905 0.77959968 85 85 96
-0.62822762 0.20496248 0.78033670 89 90 102
-0.62999824 0.22960006 0.77857555 80 80 90
-0.63020784 0.24967099 0.77730219 73 73 83
-0.62975633 0.27023893 0.77609213 68 68 78
-0.62992507 0.29028953 0.77494125 62 61 73
-0.63013705 0.30977764 0.77390091 58 57 69
-0.62993847 0.32985945 0.77294211 54 53 64
-0.62993055 0.34988636 0.77195659 49 48 60
-0.63001017 0.37001622 0.77095288 47 46 56
-0.63008462 0.38968812 0.77028167 46 45 54
-0.62994174 0.40989892 0.76981082 44 44 53
-0.62997847 0.42897039 0.76956759 42 41 52
-0.61036521 -0.56084879 0.83137314 0 0 0
-0.61019143 -0.55028404 0.83169612 0 0 0
-0.60952321 -0.53047095 0.83218565 0 0 0
-0.61018413 -0.51032488 0.83328091 0 0 0
-0.61454757 -0.50076368 0.86665217 153 163 160
-0.60971133 -0.49355801 0.83497172 5 5 5
-0.61085655 -0.49374858 0.85023103 175 180 175
-0.61007967 -0.48990301 0.86737188 179 182 193
-0.61020559 -0.46961729 0.86704411 250 250 251
-0.60978316 -0.44945025 0.86609544 250 250 250
-0.61013237 -0.42974839 0.86506884 250 250 250
-0.60984879 -0.40942853 0.86389831 250 250 250
-0.61007410 -0.38969149 0.86262012 233 234 237
-0.61003188 -0.36966164 0.86133567 250 250 250
-0.60925386 -0.34447812 0.85968030 250 250 250
-0.61062046 -0.35436531 0.86034706 251 251 251
-0.61009334 -0.33015085 0.85878152 250 250 250
-0.60989100 -0.31003334 0.85749526 250 250 250
-0.60999559 -0.29061009 0.85623123 250 250 250
-0.61002360 -0.27018458 0.85492181 250 250 250
-0.61001320 -0.24961702 0.85359898 250 250 250
-0.60999345 -0.23043569 0.85233917 248 248 249
-0.61000670 -0.21001001 0.85098658 250 250 250
-0.61001545 -0.18971922 0.84957329 250 250 250
-0.60994990 -0.16994098 0.84815291 250 250 250
-0.61004697 -0.14983368 0.84666784 250 250 250
-0.60999451 -0.12954802 0.84513362 250 250 250
-0.61004833 -0.10970099 0.84361057 250 250 250
-0.60995110 -0.09008875 0.84207901 250 250 250
-0.60905675 -0.06350119 0.83973722 251 251 251
-0.61034037 -0.07294091 0.84063087 250 250 250
-0.61000583 -0.05051012 0.83843214 250 250 250
-0.60999420 -0.02996354 0.83562697 250 250 250
-0.61117611 -0.00574571 0.81152634 205 211 215
-0.60873243 -0.01419435 0.82821575 241 243 244
-0.60997497 0.00992670 0.80435567 184 191 195
-0.61138174 0.03549799 0.79922941 170 175 179
-0.60893967 0.02572334 0.80104270 175 181 184
-0.61002011 0.04987449 0.79719125 163 168 173
-0.60991262 0.06967618 0.79458582 153 158 162
-0.61011155 0.08997957 0.79217419 144 149 154
-0.60998071 0.11017596 0.78993879 136 139 145
-0.60991828 0.13023992 0.78774656 130 131 137
-0.61004469 0.15029356 0.78568592 121 123 131
-0.60999564 0.17027118 0.78387768 111 113 122
-0.60999928 0.19012572 0.78226703 103 105 113
-0.61678769 0.21817091 0.77988432 89 88 97
-0.60967929 0.20946994 0.78081261 93 95 105
-0.61068932 0.23066883 0.77925864 86 86 96
-0.60359334 0.22239112 0.78015574 91 91 101
-0.60995155 0.24984417 0.77804726 78 79 88
-0.61018138 0.26987935 0.77682973 73 73 84
-0.60988367 0.29000824 0.77566489 67 67 78
-0.60992423 0.31032060 0.77453818 62 61 72
-0.61002258 0.32983467 0.77354277 57 56 66
-0.61005197 0.34998833 0.77253579 53 51 65
-0.60990463 0.37039173 0.77151866 49 48 59
-0.60991219 0.38998522 0.77086878 47 46 56
-0.61013220 0.40965838 0.77042390 45 44 54
-0.61013757 0.42898164 0.77031240 35 34 43
-0.59031830 -0.56091577 0.83147243 0 0 0
-0.59026624 -0.55042996 0.83182724 0 0 0
-0.58948134 -0.52992559 0.83238337 0 0 0
-0.59027965 -0.50976846 0.83344723 0 0 0
-0.58943758 -0.49239504 0.83485540 1 1 1
-0.58801999 -0.49031314 0.84893915 117 123 132
-0.59008071 -0.48920833 0.86707213 216 217 227
-0.58996083 -0.46950487 0.86684376 250 250 250
-0.59005113 -0.44943312 0.86587696 250 250 250
-0.58987519 -0.42934700 0.86484629 250 250 250
-0.59007248 -0.40949830 0.86371769 250 250 250
-0.59004873 -0.38956942 0.86243108 248 248 249
-0.58995576 -0.36943192 0.86110235 250 250 250
-0.58966473 -0.34637753 0.85956785 251 251 251
-0.59080537 -0.35613815 0.86022731 251 251 251
-0.58988614 -0.32968611 0.85849630 250 250 250
-0.59002863 -0.31016987 0.85723633 249 249 249
-0.58999424 -0.29045089 0.85594433 250 250 250
-0.58998154 -0.26986529 0.85461047 250 250 250
-0.59005563 -0.24987815 0.85333264 250 250 250
-0.58991305 -0.23001487 0.85202418 250 250 250
-0.59003770 -0.20992352 0.85067212 249 249 249
-0.59001919 -0.18997196 0.84927864 250 250 250
-0.58994330 -0.16952254 0.84780638 250 250 250
-0.59002800 -0.14957865 0.84634921 250 250 250
-0.58995156 -0.12986712 0.84485750 250 250 250
-0.59003029 -0.10980298 0.84330943 250 250 250
-0.59002308 -0.08973211 0.84172220 250 250 250
-0.58956476 -0.06508244 0.83955925 249 249 249
-0.59045613 -0.07460368 0.84045072 250 250 250
-0.58997990 -0.05039680 0.83806121 250 250 250
-0.58998418 -0.03008314 0.83558683 250 250 250
-0.59139023 -0.00233596 0.81432791 221 224 228
-0.58968889 -0.01142380 0.83026897 248 249 249
-0.58991866 0.00984042 0.80672856 193 198 203
-0.59561706 0.03877297 0.79971191 171 174 180
-0.58949241 0.02931621 0.80184334 178 183 186
-0.59029232 0.05016266 0.79831505 167 172 176
-0.58238970 0.04130399 0.80017533 174 177 183
-0.58991788 0.06969773 0.79565980 156 163 165
-0.59010281 0.09007732 0.79319535 149 153 158
-0.59002572 0.11034640 0.79094513 140 143 149
-0.58997574 0.13045941 0.78874879 133 135 142
-0.59001866 0.15045596 0.78669059 125 128 135
-0.59000669 0.17045611 0.78486578 118 119 128
-0.59003270 0.19041118 0.78321902 109 110 118
-0.59000136 0.21039522 0.78167455 97 102 111
-0.59370323 0.23554727 0.77967909 89 90 98
-0.58807715 0.22775404 0.78050478 92 94 102
-0.59003811 0.25001233 0.77893197 85 85 96
-0.58009409 0.24092728 0.78004050 91 93 107
-0.59006696 0.26963348 0.77774167 77 77 89
-0.59013569 0.28998092 0.77655833 72 72 83
-0.58976899 0.31005133 0.77542797 66 66 77
-0.59008070 0.33005249 0.77434641 61 60 70
-0.59002579 0.34994219 0.77337507 56 55 67
-0.59008696 0.36976364 0.77241778 52 51 63
-0.58981568 0.39025147 0.77176362 48 47 59
-0.59018709 0.41028410 0.77132007 46 45 56
-0.59017099 0.42946936 0.77118881 25 24 31
-0.57025186 -0.56096843 0.83155049 0 0 0
-0.57032118 -0.55045255 0.83195133 0 0 0
-0.56953597 -0.53001864 0.83260537 0 0 0
-0.57026043 -0.50979842 0.83366458 0 0 0
-0.56942413 -0.49141762 0.83532694 1 1 1
-0.57167334 -0.48854035 0.84984801 160 161 172
-0.56981307 -0.48808878 0.86673511 250 250 250
-0.56981644 -0.46998433 0.86657059 250 250 250
-0.57010370 -0.44959562 0.86566299 250 250 250
-0.56986129 -0.42932558 0.86466989 250 250 250
-0.57009542 -0.40959705 0.86357030 250 250 250
-0.56995975 -0.38928933 0.86228522 250 250 250
-0.57008212 -0.36965024 0.86094773 250 250 250
-0.56970032 -0.34757509 0.85946280 250 250 250
-0.57072853 -0.35751970 0.86013183 250 250 250
-0.56999733 -0.32984350 0.85830868 250 250 250
-0.57004736 -0.31011199 0.85701403 250 250 250
-0.56997818 -0.29020202 0.85568911 250 250 250
-0.57001297 -0.27013948 0.85436977 250 250 250
-0.56996300 -0.24945130 0.85302260 250 250 250
-0.56999027 -0.23019863 0.85173754 250 250 250
-0.57002496 -0.20996730 0.85036274 250 250 250
-0.56999342 -0.18955940 0.84892915 250 250 250
-0.56999684 -0.17048534 0.84755290 250 250 250
-0.56993620 -0.15028843 0.84607770 250 250 250
-0.57003040 -0.12943524 0.84450990 250 250 250
-0.57002389 -0.10975405 0.84298825 250 250 250
-0.56999712 -0.09005500 0.84142061 250 250 250
-0.56947376 -0.06725948 0.83938477 250 250 250
-0.57120359 -0.07646244 0.84027291 251 251 251
-0.56998957 -0.05032959 0.83764491 250 250 250
-0.57004086 -0.02994764 0.83528835 250 250 250
-0.57823870 -0.00066279 0.81744660 233 235 237
-0.57013214 -0.00946470 0.83084211 250 250 250
-0.57054557 0.01060612 0.81005478 209 213 218
-0.56520404 0.00294578 0.82398563 248 249 250
-0.56994124 0.03008320 0.80337203 184 188 191
-0.57122073 0.05336995 0.79903957 169 175 178
-0.56810170 0.04447246 0.80069386 175 179 183
-0.56998046 0.06979919 0.79681880 162 166 170
-0.57001413 0.09020285 0.79430248 153 157 162
-0.57003697 0.11047299 0.79198363 144 148 154
-0.57014721 0.13029744 0.78980301 137 139 145
-0.56996107 0.14982675 0.78781586 130 133 139
-0.56999883 0.16975401 0.78598400 122 125 132
-0.57003458 0.18996219 0.78430183 114 117 123
-0.56998811 0.21016732 0.78274995 105 107 117
-0.56986024 0.23018746 0.78132252 97 100 109
-0.57307252 0.25389586 0.77959765 88 91 100
-0.56694288 0.24677696 0.78040333 94 95 104
-0.57000691 0.27030387 0.77877388 83 83 95
-0.56999652 0.28976268 0.77762416 76 77 87
-0.57006157 0.30988704 0.77646795 72 72 83
-0.57000182 0.33019759 0.77535511 64 64 75
-0.56992213 0.35016396 0.77440900 60 59 69
-0.57005836 0.37004783 0.77348882 55 54 67
-0.57014041 0.38973631 0.77284262 51 50 61
-0.56985126 0.40980908 0.77243661 46 45 57
-0.56983754 0.42943339 0.77210970 16 16 19
-0.55024402 -0.56108471 0.83172286 0 0 0
-0.55020571 -0.54991891 0.83215935 0 0 0
-0.54962427 -0.52953512 0.83289054 0 0 0
-0.55024334 -0.50994599 0.83398406 0 0 0
-0.54972407 -0.49027370 0.83561726 2 2 2
-0.54939400 -0.48523192 0.84866399 162 163 163
-0.55045793 -0.48643567 0.86597284 251 251 251
-0.54993861 -0.47063768 0.86634249 250 250 250
-0.54999515 -0.44993780 0.86545428 250 250 250
-0.55005268 -0.42953159 0.86450893 250 250 250
-0.54985528 -0.40917044 0.86338798 250 250 250
-0.55008623 -0.38952101 0.86216710 250 250 250
-0.54990833 -0.36927217 0.86077827 250 250 250
-0.54975146 -0.34862534 0.85939541 250 250 250
-0.55264080 -0.35833519 0.86006187 251 251 251
-0.55003988 -0.32980656 0.85815374 250 250 250
-0.55000071 -0.30983931 0.85682398 250 250 250
-0.55004961 -0.29044975 0.85551912 250 250 250
-0.54994030 -0.26967610 0.85411446 250 250 250
-0.54999100 -0.24967464 0.85277688 250 250 250
-0.54999353 -0.22998347 0.85144403 250 250 250
-0.55004442 -0.20968136 0.85004473 250 250 250
-0.55002434 -0.18983740 0.84863530 250 250 250
-0.54996132 -0.17013889 0.84719414 250 250 250
-0.55000604 -0.15027552 0.84572366 249 249 249
-0.55007056 -0.13041405 0.84420935 250 250 250
-0.54995173 -0.11020296 0.84265006 248 248 249
-0.55006175 -0.08971575 0.84100605 223 225 229
-0.54952896 -0.06928763 0.83918349 250 250 250
-0.55430667 -0.07816771 0.84012232 250 250 250
-0.55000481 -0.05046049 0.83722904 250 250 250
-0.54998461 -0.03008442 0.83491956 250 250 250
-0.54996830 -0.00976717 0.83153628 250 250 250
-0.55119812 0.01506474 0.81182540 221 225 229
-0.54910459 0.00673070 0.82595200 249 249 250
-0.55001304 0.03016036 0.80530353 191 195 199
-0.55512896 0.05715391 0.79961094 170 177 179
-0.54908102 0.04888738 0.80148267 178 183 186
-0.55016865 0.07011786 0.79813847 166 171 175
-0.54212064 0.06077664 0.80010763 174 178 180
-0.54996974 0.09028015 0.79556812 157 162 165
-0.55010706 0.11006619 0.79320156 149 154 157
-0.54986637 0.12959507 0.79102140 141 144 150
-0.54998622 0.14964720 0.78893852 134 137 142
-0.55000026 0.16967062 0.78707487 127 129 136
-0.55000583 0.18953270 0.78541276 118 122 129
-0.55006967 0.20947356 0.78389337 112 114 122
-0.55002112 0.22975837 0.78248219 104 106 115
-0.55982711 0.25978244 0.77998000 90 92 101
-0.55003761 0.24994882 0.78118322 96 98 108
-0.55311105 0.27308679 0.77959528 88 89 100
-0.54593358 0.26645001 0.78042700 92 94 104
-0.54997945 0.29047271 0.77875265 81 82 92
-0.54994047 0.30997087 0.77764224 75 75 86
-0.54999199 0.32978178 0.77656672 71 70 80
-0.55016234 0.34982532 0.77563626 63 63 73
-0.55000448 0.37007729 0.77479055 58 57 68
-0.54966097 0.39009144 0.77418697 52 51 61
-0.54996823 0.41013996 0.77370065 46 45 56
-0.55003428 0.42978228 0.77291316 5 5 6
-0.53027021 -0.56124578 0.83196162 0 0 0
-0.53021886 -0.55000964 0.83241086 0 0 0
-0.52961984 -0.52967749 0.83320099 0 0 0
-0.53005034 -0.51001135 0.83434396 0 0 0
-0.53004723 -0.49011533 0.83613226 0 0 0
-0.53141215 -0.48314656 0.85080865 217 217 217
-0.53048492 -0.48482772 0.86582571 250 250 250
-0.52680515 -0.47874908 0.83792970 25 25 25
-0.53215810 -0.47918461 0.84062141 145 145 145
-0.53024120 -0.47043188 0.86596454 250 250 250
-0.52979944 -0.45059974 0.86524373 250 250 250
-0.53019028 -0.43043378 0.86436243 250 250 250
-0.52989583 -0.40974406 0.86324004 250 250 250
-0.52998090 -0.38927276 0.86198001 250 250 250
-0.52506775 -0.36014402 0.85994408 251 251 251
-0.53015103 -0.36975074 0.86064455 250 250 250
-0.53008703 -0.34962839 0.85929532 250 250 250
-0.52996958 -0.32952817 0.85796064 250 250 250
-0.53005398 -0.31008589 0.85666028 250 250 250
-0.52997225 -0.29001810 0.85528958 250 250 250
-0.53019684 -0.27029432 0.85393456 250 250 250
-0.52976777 -0.24968687 0.85252243 250 250 250
-0.53005781 -0.22989364 0.85115093 250 250 250
-0.53016990 -0.21004797 0.84975603 250 250 250
-0.52988983 -0.18958019 0.84826681 250 250 250
-0.52999995 -0.17038443 0.84683432 250 250 251
-0.53001156 -0.15020149 0.84530762 250 250 250
-0.53006131 -0.13006994 0.84375613 250 250 250
-0.52994322 -0.11053664 0.84223458 236 237 238
-0.52703082 -0.08202330 0.83980528 249 249 250
-0.53068041 -0.09155433 0.84071290 206 208 215
-0.52997930 -0.06986306 0.83874397 249 250 250
-0.53006340 -0.05014760 0.83671938 249 249 249
-0.52998076 -0.02986881 0.83439938 250 250 250
-0.53009012 -0.00965852 0.83141331 250 250 250
-0.53415096 0.01824308 0.81472902 236 237 240
-0.52951575 0.00968664 0.82655800 249 249 249
-0.52986213 0.03007853 0.80814246 205 209 213
-0.52108209 0.02085406 0.82088540 241 241 243
-0.52998617 0.05026838 0.80305074 183 188 191
-0.53158384 0.07382578 0.79908888 170 174 177
-0.52781198 0.06473285 0.80075773 175 180 183
-0.53016227 0.09021094 0.79704981 162 166 171
-0.52981747 0.10976835 0.79463831 153 158 162
-0.52996496 0.12959676 0.79231993 145 149 155
-0.52999437 0.14971119 0.79018795 138 141 146
-0.53002780 0.16977494 0.78827512 131 134 139
-0.53002176 0.18986742 0.78657468 124 126 133
-0.52991387 0.21006927 0.78505064 116 119 126
-0.53002067 0.22990038 0.78368194 108 112 120
-0.53006753 0.24962336 0.78243810 103 105 114
-0.52999716 0.26981467 0.78123977 95 98 106
-0.53427090 0.29313542 0.77960778 85 87 98
-0.52697160 0.28687329 0.78044177 90 92 100
-0.53005977 0.31030352 0.77894212 78 79 89
-0.52123413 0.30070665 0.78006007 87 87 97
-0.52982135 0.33010173 0.77794833 73 74 83
-0.53012652 0.35022240 0.77708454 66 66 76
-0.52972940 0.36996015 0.77637884 59 58 68
-0.53007494 0.38987808 0.77577500 52 51 60
-0.53032430 0.40994863 0.77514659 42 42 50
-0.52976868 0.42983338 0.77372363 0 0 0
-0.50915407 -0.56088240 0.83231157 0 0 0
-0.51029860 -0.54972610 0.83273137 0 0 0
-0.50965325 -0.52988019 0.83352005 0 0 0
-0.51014149 -0.50974890 0.83470828 0 0 0
-0.50998283 -0.48998063 0.83658155 0 0 0
-0.50624919 -0.48258418 0.85792038 251 251 251
-0.51116476 -0.48305230 0.86505571 251 251 251
-0.50942620 -0.47788928 0.83803238 1 1 1
-0.51119507 -0.47849209 0.84560505 156 156 156
-0.51012891 -0.47009293 0.86556123 250 250 250
-0.51022436 -0.45048175 0.86501715 250 250 250
-0.50983265 -0.43051548 0.86414592 250 250 250
-0.51016610 -0.41080609 0.86310002 250 250 250
-0.51008681 -0.39016323 0.86184536 250 250 250
-0.50921073 -0.36132624 0.85986327 250 250 250
-0.51003546 -0.37167496 0.86058505 250 250 250
-0.50992067 -0.34922833 0.85906061 250 250 250
-0.51009515 -0.32975214 0.85776350 250 250 250
-0.50994220 -0.30964043 0.85640820 250 250 250
-0.51003426 -0.29027758 0.85507815 250 250 250
-0.50996813 -0.27032197 0.85369125 250 250 250
-0.50996707 -0.25023502 0.85228380 250 250 250
-0.51005359 -0.22995003 0.85083477 250 250 250
-0.51001385 -0.21026437 0.84942182 250 250 250
-0.51003547 -0.19043206 0.84794766 250 250 250
-0.50999149 -0.16999350 0.84638300 250 250 250
-0.51000371 -0.15011820 0.84483764 250 250 250
-0.51000146 -0.13031053 0.84327371 250 250 250
-0.50996105 -0.11009017 0.84164649 245 245 246
-0.50887937 -0.08522677 0.83945166 251 251 251
-0.51145194 -0.09512121 0.84042397 248 248 250
-0.50997418 -0.07013724 0.83807174 250 250 250
-0.51004483 -0.05047642 0.83603542 237 238 240
-0.51000322 -0.03011313 0.83368399 250 250 250
-0.51005945 -0.00980889 0.83091462 250 250 250
-0.51002397 0.01035053 0.82692560 250 250 250
-0.51085841 0.03167321 0.81205372 222 225 228
-0.50753338 0.02333450 0.82216310 249 250 250
-0.51001344 0.04963307 0.80544319 191 195 199
-0.51678775 0.07854102 0.79969429 171 176 179
-0.50947586 0.06961939 0.80172900 178 182 185
-0.51056919 0.09074499 0.79861408 167 171 175
-0.50371760 0.08250149 0.80030959 172 176 180
-0.51001498 0.10973571 0.79622330 158 162 167
-0.50997656 0.12995410 0.79381012 150 154 159
-0.50998660 0.15010890 0.79162602 143 145 150
-0.50999692 0.17024511 0.78966072 135 137 144
-0.50996308 0.19040193 0.78791009 128 130 136
-0.50996518 0.21018845 0.78639725 121 123 130
-0.51006270 0.23010661 0.78502044 112 116 123
-0.50996694 0.25034999 0.78372984 106 108 116
-0.51003592 0.26995709 0.78255048 99 101 110
-0.51000190 0.29012191 0.78143277 91 94 103
-0.51633540 0.31407857 0.77974050 80 82 89
-0.50824641 0.30850282 0.78062634 85 86 96
-0.51184600 0.33089775 0.77930847 75 75 84
-0.50316861 0.32580298 0.78024119 78 78 86
-0.50990397 0.34986508 0.77877784 67 67 77
-0.50998562 0.36985537 0.77811537 59 58 67
-0.51028525 0.39007207 0.77755016 50 49 58
-0.50984481 0.40998756 0.77676304 32 32 38
-0.50997093 0.42995062 0.77458845 0 0 0
-0.49040667 -0.56098449 0.83264101 0 0 0
-0.49009504 -0.54974441 0.83307391 0 0 0
-0.48967382 -0.53008578 0.83384350 0 0 0
-0.49021639 -0.50993945 0.83500862 0 0 0
-0.48989499 -0.48995119 0.83668230 0 0 0
-0.49729579 -0.48143395 0.85691085 211 211 211
-0.49183254 -0.48134559 0.86429992 250 250 250
-0.48959984 -0.47637316 0.83814061 6 6 6
-0.48787239 -0.47633911 0.84840700 171 171 171
-0.48978269 -0.47016140 0.86524843 250 250 250
-0.49010967 -0.45049594 0.86475424 250 250 250
-0.49015658 -0.43049124 0.86390455 250 250 250
-0.48985915 -0.41040758 0.86285179 250 250 250
-0.49014069 -0.39081378 0.86167670 250 250 250
-0.48988358 -0.36323601 0.85979386 251 251 251
-0.49019755 -0.37340271 0.86050347 251 251 251
-0.48987677 -0.34989976 0.85889123 250 250 250
-0.48995955 -0.32931549 0.85750648 250 250 250
-0.49003910 -0.30986869 0.85619135 250 250 250
-0.48995208 -0.28988353 0.85481039 250 250 250
-0.48999561 -0.27048478 0.85343424 250 250 250
-0.48996315 -0.25000528 0.85197157 250 250 250
-0.49000881 -0.22966923 0.85047749 250 250 250
-0.49001663 -0.21044966 0.84905386 250 250 250
-0.49000809 -0.18994795 0.84748270 250 250 250
-0.48996528 -0.17020557 0.84594462 250 250 250
-0.48999597 -0.15002792 0.84432978 250 250 250
-0.49000266 -0.12992015 0.84268007 250 250 250
-0.48235495 -0.10060801 0.83992004 251 251 251
-0.49006249 -0.11053793 0.84105251 248 248 249
-0.48948537 -0.08895889 0.83909106 250 250 251
-0.49573565 -0.09809395 0.84014630 250 250 250
-0.48997137 -0.06973975 0.83726370 250 250 250
-0.49003072 -0.05011143 0.83522216 250 250 250
-0.48998740 -0.02989435 0.83287955 250 250 250
-0.48998530 -0.00967283 0.83025819 250 250 250
-0.49004276 0.01037815 0.82688999 250 250 250
-0.49132495 0.03560519 0.81599457 238 239 240
-0.48924124 0.02633122 0.82249286 250 250 250
-0.48994459 0.04975089 0.80835057 201 206 210
-0.49016484 0.07010170 0.80369518 183 188 190
-0.49395021 0.09558181 0.79944795 169 173 176
-0.48819555 0.08770110 0.80109107 174 177 180
-0.49001803 0.10995548 0.79795141 163 167 171
-0.48022887 0.10053438 0.80009747 170 173 179
-0.48997371 0.13028779 0.79548427 153 158 162
-0.48997582 0.15049051 0.79326154 145 149 153
-0.49014571 0.17039713 0.79125961 138 141 145
-0.49001931 0.18999245 0.78951401 132 133 140
-0.49000014 0.20997324 0.78794809 123 126 132
-0.48998795 0.23013027 0.78652509 116 118 126
-0.48997144 0.24989597 0.78523182 108 110 118
-0.48998328 0.27027174 0.78400178 101 104 113
-0.48999664 0.29001150 0.78294994 93 96 105
-0.49003427 0.31031753 0.78200999 85 86 96
-0.48979583 0.33019721 0.78122524 76 76 84
-0.49718877 0.35318635 0.77978794 65 64 74
-0.48829119 0.34939105 0.78073892 67 67 75
-0.49477439 0.37103965 0.77947558 56 56 65
-0.48491996 0.36931554 0.78045494 56 56 65
-0.49138845 0.39088869 0.77921797 48 47 56
-0.48214520 0.38640450 0.78021559 49 48 56
-0.48997175 0.41038066 0.77812415 22 22 26
-0.49001444 0.43041445 0.77538081 0 0 0
-0.48091970 0.44000670 0.77448523 0 0 0
-0.47047415 -0.56124165 0.83302270 0 0 0
-0.47003291 -0.54998437 0.83342637 0 0 0
-0.46968685 -0.53030065 0.83418147 0 0 0
-0.47027460 -0.51012769 0.83530499 0 0 0
-0.46980536 -0.49001579 0.83687504 0 0 0
-0.47997204 -0.48003278 0.86304650 251 251 251
-0.46967258 -0.47544359 0.83854281 0 0 0
-0.46828930 -0.47316287 0.84831317 188 188 188
-0.47000640 -0.47003955 0.86475364 250 250 250
-0.46978260 -0.45002378 0.86443634 250 250 250
-0.47007920 -0.43051627 0.86365212 250 250 250
-0.47004915 -0.41047223 0.86262743 250 250 250
-0.46992338 -0.39039617 0.86142961 250 250 250
-0.46932394 -0.36513282 0.85969706 250 250 250
-0.47070366 -0.37503941 0.86041033 251 251 251
-0.47000479 -0.34990817 0.85866139 250 250 250
-0.46998574 -0.32951708 0.85727926 250 250 250
-0.46992961 -0.30951613 0.85591636 250 250 250
-0.47001495 -0.28999493 0.85454433 250 250 250
-0.46997102 -0.27024621 0.85311090 250 250 250
-0.47000403 -0.24989648 0.85163547 250 250 250
-0.47006384 -0.22981728 0.85012552 249 249 249
-0.46998644 -0.21004064 0.84861725 250 250 250
-0.47002161 -0.19022900 0.84705550 250 250 250
-0.46995038 -0.16979752 0.84540645 250 250 250
-0.47003786 -0.14988528 0.84376956 250 250 250
-0.46999518 -0.13012989 0.84210348 250 250 250
-0.46787911 -0.10328600 0.83968441 251 251 251
-0.47088924 -0.11290757 0.84063895 251 251 251
-0.46999151 -0.08953572 0.83848407 250 250 251
-0.46992058 -0.07001980 0.83659240 250 250 250
-0.46999070 -0.05027931 0.83454440 250 250 250
-0.46997364 -0.02989297 0.83222018 250 250 250
-0.47001484 -0.00975945 0.82966765 250 250 250
-0.47004670 0.01029992 0.82665717 250 250 250
-0.47518714 0.03829096 0.81906131 249 250 250
-0.46953283 0.02939560 0.82257422 250 250 250
-0.47000929 0.05001694 0.81231314 221 223 227
-0.46174169 0.04067727 0.82006949 251 251 251
-0.47001526 0.06995012 0.80631188 190 195 198
-0.46998246 0.08977439 0.80276043 178 181 184
-0.47214614 0.11381376 0.79915555 165 168 173
-0.46721033 0.10551603 0.80076968 171 173 178
-0.47013469 0.13012231 0.79735151 157 160 165
-0.46986186 0.14969180 0.79519458 150 152 157
-0.46998890 0.16953697 0.79317529 141 144 148
-0.46992399 0.18986341 0.79135048 134 137 141
-0.47005159 0.20990027 0.78973146 126 129 134
-0.47002006 0.22967448 0.78825922 117 121 128
-0.46994769 0.25000204 0.78688453 109 114 120
-0.46999198 0.26968732 0.78570475 103 106 115
-0.47008320 0.28997592 0.78469165 95 96 104
-0.46982533 0.30986350 0.78390088 84 85 94
-0.46992955 0.32977780 0.78318290 74 73 82
-0.47024987 0.35001751 0.78256712 63 63 70
-0.47001850 0.36992046 0.78196841 53 53 60
-0.47892248 0.39997427 0.77995282 46 45 53
-0.46991346 0.38965261 0.78121134 49 47 55
-0.47076968 0.41241106 0.77886190 5 5 6
-0.46777515 0.40318239 0.78049106 36 36 42
-0.47001863 0.42966237 0.77631010 0 0 0
-0.47042465 0.44020828 0.77484003 0 0 0
-0.45052730 -0.56150398 0.83341206 0 0 0
-0.45000553 -0.55022151 0.83378004 0 0 0
-0.44951740 -0.53009537 0.83452619 0 0 0
-0.45043477 -0.50985653 0.83559511 0 0 0
-0.44981720 -0.49010834 0.83707839 0 0 0
-0.44983763 -0.47397621 0.83863540 2 2 2
-0.45018420 -0.47061565 0.84813167 207 207 207
-0.45037966 -0.46879588 0.86449222 250 250 250
-0.44998890 -0.45005072 0.86418955 250 250 250
-0.44981979 -0.43008499 0.86340120 250 250 250
-0.45008710 -0.41054262 0.86242145 250 250 250
-0.44992311 -0.39044481 0.86120464 250 250 250
-0.44952957 -0.36682850 0.85956480 251 251 251
-0.45090495 -0.37651173 0.86027949 250 250 250
-0.44995985 -0.35061208 0.85843471 250 250 250
-0.45001467 -0.33008356 0.85703111 250 250 250
-0.44996664 -0.30953521 0.85562618 250 250 250
-0.45002068 -0.28987506 0.85422328 250 250 250
-0.44999656 -0.27012590 0.85276487 250 250 250
-0.45008026 -0.24999375 0.85126646 250 250 250
-0.45001412 -0.22939539 0.84967903 250 250 250
-0.45003923 -0.21025916 0.84817694 250 250 250
-0.45000340 -0.18973915 0.84652878 250 250 250
-0.44998320 -0.16996873 0.84488863 249 249 249
-0.45003261 -0.14986653 0.84318663 250 250 250
-0.45002504 -0.12973228 0.84146082 250 250 250
-0.44905250 -0.10669679 0.83938746 251 251 251
-0.45152387 -0.11646636 0.84035025 250 250 250
-0.45012285 -0.08981493 0.83786012 250 250 251
-0.44988431 -0.07001376 0.83592044 250 250 250
-0.45000146 -0.05019035 0.83386821 250 250 250
-0.45000074 -0.02999842 0.83159291 250 250 250
-0.44998252 -0.00983067 0.82909827 250 250 250
-0.45002864 0.01024414 0.82626457 250 250 250
-0.44998061 0.03017503 0.82280845 250 250 250
-0.45040348 0.05181875 0.81554749 236 238 239
-0.44797090 0.04165569 0.82043261 251 251 251
-0.44989639 0.07010038 0.80916398 199 203 207
-0.44998480 0.09002662 0.80513388 183 187 190
-0.45825081 0.11930848 0.79987389 164 168 172
-0.45000658 0.10999352 0.80205637 172 175 178
-0.45213682 0.13212211 0.79900920 158 162 167
-0.44497786 0.12539295 0.80061681 164 167 172
-0.44996960 0.14994969 0.79727515 152 155 159
-0.45005326 0.17016772 0.79523316 142 145 150
-0.44994248 0.19006138 0.79345693 136 137 142
-0.45004802 0.21023479 0.79178771 128 131 135
-0.45010719 0.23048619 0.79019716 120 124 131
-0.44998570 0.25008125 0.78885788 112 115 122
-0.45014950 0.27027330 0.78768224 104 105 113
-0.44983235 0.29002735 0.78683086 93 93 101
-0.44993248 0.30989056 0.78609988 80 79 88
-0.45022133 0.33007175 0.78542452 69 69 77
-0.45003433 0.34996599 0.78486585 59 59 67
-0.44990456 0.36981652 0.78411612 52 51 59
-0.44991760 0.39037522 0.78299646 49 48 56
-0.45069389 0.41497428 0.77918949 0 0 0
-0.44933915 0.40520797 0.78086377 9 9 10
-0.44995915 0.42997654 0.77709118 0 0 0
-0.45010148 0.44063475 0.77559070 0 0 0
-0.43053631 -0.56173348 0.83375268 0 0 0
-0.43000526 -0.55044615 0.83412047 0 0 0
-0.42966364 -0.53000838 0.83485692 0 0 0
-0.43019851 -0.50971866 0.83589608 0 0 0
-0.42988180 -0.49026558 0.83729599 0 0 0
-0.43018068 -0.47311579 0.83879824 0 0 0
-0.42844589 -0.46815384 0.84856145 155 155 155
-0.43019631 -0.46695322 0.86422130 250 250 250
-0.43015455 -0.45010094 0.86395677 250 250 250
-0.43007358 -0.43013570 0.86319128 250 250 250
-0.42986591 -0.41008469 0.86217296 250 250 250
-0.43010198 -0.39052085 0.86097842 250 250 250
-0.42956139 -0.36817562 0.85940158 250 250 250
-0.43132608 -0.37811298 0.86015208 250 250 250
-0.43006306 -0.35066664 0.85815793 250 250 250
-0.43001262 -0.32992843 0.85671658 250 250 250
-0.42996004 -0.30968529 0.85531452 250 250 250
-0.42997539 -0.28961743 0.85386488 250 250 250
-0.43007072 -0.27021235 0.85240332 250 250 250
-0.43000303 -0.25033430 0.85088153 250 250 250
-0.43001545 -0.23035694 0.84931401 250 250 250
-0.43001460 -0.20978129 0.84766328 250 250 250
-0.42997195 -0.18999939 0.84603233 250 250 250
-0.42998814 -0.16960065 0.84429946 250 250 250
-0.43000094 -0.14971802 0.84258354 250 250 250
-0.42366392 -0.12134723 0.83992097 251 251 251
-0.43026711 -0.13026196 0.84090298 250 250 250
-0.42977519 -0.10938784 0.83901888 250 250 250
-0.43662180 -0.11909311 0.84011271 251 251 251
-0.42988367 -0.09032835 0.83725265 250 250 251
-0.42999973 -0.07055272 0.83531829 250 250 250
-0.43004638 -0.04997198 0.83317784 250 250 250
-0.43005168 -0.02978577 0.83091069 250 250 250
-0.42996425 -0.00974531 0.82848247 250 250 250
-0.43001370 0.01026866 0.82582811 250 250 250
-0.42995881 0.03014003 0.82279791 250 250 250
-0.43037365 0.05282177 0.81819318 247 247 248
-0.42909394 0.04298431 0.82055424 251 251 251
-0.43003460 0.06977240 0.81240250 212 215 219
-0.43002581 0.09021492 0.80775505 188 192 195
-0.42990192 0.11001698 0.80444742 175 178 181
-0.43884600 0.13864808 0.79978359 158 159 165
-0.42980046 0.12965839 0.80190006 162 166 171
-0.43257829 0.15219782 0.79910593 152 155 158
-0.42514271 0.14618650 0.80066161 154 157 161
-0.43019149 0.17008994 0.79766068 142 146 150
-0.42994375 0.19006197 0.79589598 135 138 142
-0.42987761 0.20971467 0.79424365 129 131 136
-0.42997799 0.22963952 0.79263358 121 124 130
-0.43010264 0.25001693 0.79123332 110 113 120
-0.42987414 0.27000104 0.79016377 98 100 107
-0.43001963 0.29004017 0.78927605 85 86 94
-0.43030172 0.31021683 0.78850840 75 75 82
-0.43005201 0.33004749 0.78790810 66 66 74
-0.42984105 0.34990604 0.78727636 61 60 68
-0.43005334 0.37021742 0.78626182 59 57 65
-0.42982734 0.39030967 0.78461228 50 48 54
-0.43208279 0.41714654 0.77958658 0 0 0
-0.42935137 0.40752672 0.78105301 0 0 0
-0.43003351 0.43021430 0.77792848 0 0 0
-0.42819055 0.44085931 0.77657692 0 0 0
-0.41053616 -0.56197283 0.83410794 0 0 0
-0.40992200 -0.55002887 0.83450815 0 0 0
-0.40969818 -0.52958607 0.83524177 0 0 0
-0.41015104 -0.50994199 0.83626231 0 0 0
-0.40993044 -0.48979975 0.83768489 0 0 0
-0.41073556 -0.47356736 0.83925290 0 0 0
-0.40893749 -0.46568148 0.84304712 51 51 51
-0.40990688 -0.46597674 0.86393840 251 251 251
-0.40991557 -0.44964443 0.86373381 250 250 250
-0.41004778 -0.43017930 0.86297609 250 250 250
-0.41008244 -0.41014475 0.86193907 250 250 250
-0.40170808 -0.38095941 0.85995893 251 251 251
-0.41004229 -0.39018939 0.86069826 250 250 250
-0.40986540 -0.37010374 0.85927760 250 250 250
-0.41587337 -0.37951384 0.86005137 251 251 251
-0.40991059 -0.35019667 0.85783465 250 250 250
-0.41007893 -0.33073723 0.85645555 250 250 250
-0.40995101 -0.30988302 0.85498293 250 250 250
-0.41002791 -0.28975625 0.85350305 250 250 250
-0.40999350 -0.26977156 0.85196547 250 250 250
-0.41003532 -0.25050409 0.85045842 250 250 250
-0.40997427 -0.22986819 0.84879950 250 250 250
-0.41002552 -0.21001042 0.84716882 250 250 250
-0.41017080 -0.18985894 0.84547417 250 250 250
-0.40973013 -0.17015757 0.84375978 250 250 250
-0.41014349 -0.14982376 0.84200434 250 250 250
-0.40859009 -0.12375410 0.83967608 251 251 251
-0.41059415 -0.13329550 0.84057656 251 251 251
-0.40997975 -0.11000822 0.83846389 250 250 250
-0.41004764 -0.08992712 0.83658899 250 250 251
-0.40992869 -0.07048829 0.83466154 250 250 250
-0.40995856 -0.05023319 0.83253463 250 250 250
-0.40998358 -0.02976750 0.83026101 250 250 250
-0.41009027 -0.00956939 0.82787880 250 250 250
-0.41000324 0.01029260 0.82535838 250 250 250
-0.41001410 0.03014534 0.82262399 250 250 250
-0.41008184 0.05331540 0.81897492 250 250 250
-0.40970308 0.04357854 0.82058314 250 250 250
-0.41005280 0.07004937 0.81518755 229 230 232
-0.41009821 0.08993612 0.81055849 192 196 199
-0.40998804 0.10973682 0.80702978 176 179 183
-0.41005789 0.13015881 0.80425541 161 164 168
-0.40999464 0.15013566 0.80222348 150 152 156
-0.41529621 0.17322644 0.79934643 140 142 146
-0.40717375 0.16815183 0.80091887 140 143 146
-0.41075826 0.19047999 0.79846006 134 135 140
-0.40177185 0.18375787 0.80028097 135 135 140
-0.41010646 0.21030217 0.79690221 125 128 132
-0.41009403 0.23011113 0.79533116 115 117 123
-0.40999157 0.24999430 0.79399575 103 104 110
-0.40984870 0.26978973 0.79291646 90 91 99
-0.41010758 0.28995789 0.79194071 80 80 89
-0.40991742 0.31000822 0.79118591 74 74 81
-0.40998584 0.32998085 0.79049162 72 72 77
-0.41008189 0.35024480 0.78970884 73 73 79
-0.40995670 0.36994806 0.78848055 76 74 78
-0.41007465 0.39019131 0.78584812 50 49 52
-0.41825014 0.41883901 0.77993709 0 0 0
-0.40978120 0.40961205 0.78154692 0 0 0
-0.41044747 0.43060830 0.77880751 0 0 0
-0.40491719 0.42149638 0.78022207 0 0 0
-0.41020564 0.44102988 0.77746903 0 0 0
-0.39053602 -0.56151561 0.83449979 0 0 0
-0.38995403 -0.54951979 0.83490925 0 0 0
-0.38962497 -0.52978344 0.83563978 0 0 0
-0.39011152 -0.51019875 0.83668343 0 0 0
-0.38995080 -0.49004979 0.83810100 0 0 0
-0.39045242 -0.47521051 0.83954515 0 0 0
-0.38939809 -0.46564297 0.84222253 22 22 22
-0.39077593 -0.46478215 0.86363032 250 250 250
-0.38997116 -0.44973887 0.86359094 250 250 250
-0.38982382 -0.42975089 0.86273010 250 250 250
-0.39006653 -0.41016779 0.86167098 250 250 250
-0.38828489 -0.38222034 0.85985686 250 250 250
-0.39044409 -0.39199335 0.86054529 250 250 250
-0.38990320 -0.36998929 0.85898864 250 250 250
-0.39009002 -0.35034942 0.85755779 250 250 250
-0.38996309 -0.33024847 0.85610678 250 250 250
-0.39008426 -0.31016468 0.85465703 250 250 250
-0.38989816 -0.28934064 0.85309188 250 250 250
-0.39002334 -0.26997682 0.85157537 250 250 250
-0.38999598 -0.25002760 0.84997723 250 250 250
-0.38998414 -0.23010549 0.84834023 250 250 250
-0.39002321 -0.20951943 0.84660061 250 250 250
-0.38996853 -0.19047614 0.84495509 250 250 250
-0.38997195 -0.17005202 0.84316290 250 250 250
-0.38996621 -0.15036605 0.84142707 250 250 250
-0.38898739 -0.12729993 0.83935107 250 250 250
-0.39227033 -0.13699175 0.84032393 251 251 251
-0.39006141 -0.10966267 0.83777568 250 250 250
-0.38992495 -0.09014180 0.83594098 251 251 251
-0.39004212 -0.07017947 0.83396462 250 250 250
-0.39000763 -0.05004110 0.83183123 250 250 250
-0.38988385 -0.02998259 0.82962354 250 250 250
-0.39003005 -0.00973112 0.82730373 250 250 250
-0.39005725 0.01035704 0.82486334 250 250 250
-0.39005282 0.03014085 0.82229083 249 249 249
-0.38995185 0.05309715 0.81908323 250 250 250
-0.39013521 0.04331467 0.82047139 251 251 251
-0.38995736 0.07014386 0.81637273 244 245 245
-0.39009660 0.09015529 0.81256122 203 206 210
-0.39003741 0.11006812 0.80923538 175 177 181
-0.38995652 0.13000311 0.80676833 157 158 163
-0.39000541 0.14991079 0.80492634 145 146 149
-0.39015309 0.17000011 0.80319265 134 135 139
-0.39859231 0.19636980 0.79971489 128 128 134
-0.38920125 0.18960453 0.80172427 126 126 131
-0.39432593 0.21146769 0.79913179 116 119 125
-0.38539157 0.20797278 0.80086352 113 114 120
-0.39058073 0.23051460 0.79825770 103 104 112
-0.38161891 0.22404878 0.80024464 101 102 110
-0.39000499 0.24996378 0.79702262 94 94 101
-0.39017807 0.27016560 0.79581879 87 87 96
-0.38981674 0.28999637 0.79491119 84 84 91
-0.38982195 0.30981247 0.79409727 87 86 93
-0.39005488 0.33016705 0.79322664 93 92 96
-0.39008514 0.34999063 0.79221263 99 97 100
-0.39008471 0.37008231 0.79039706 102 97 98
-0.38992572 0.39005627 0.78675703 50 49 51
-0.38998518 0.41015709 0.78246770 0 0 0
-0.39085548 0.43456633 0.77931199 0 0 0
-0.38889097 0.42490254 0.78058828 0 0 0
-0.39018022 0.44154937 0.77842310 0 0 0
-0.37050108 -0.56175562 0.83485650 0 0 0
-0.37007599 -0.54978945 0.83529085 0 0 0
-0.36958840 -0.53004754 0.83605641 0 0 0
-0.36990725 -0.51020966 0.83714438 0 0 0
-0.37015916 -0.49007774 0.83855201 0 0 0
-0.37124166 -0.47756819 0.83972370 0 0 0
-0.36977463 -0.46726108 0.84210817 17 17 17
-0.37041390 -0.46326391 0.86352952 250 250 250
-0.36726614 -0.45948629 0.84367066 24 24 24
-0.37008363 -0.44983517 0.86343371 250 250 250
-0.37009852 -0.42979122 0.86249946 250 250 250
-0.36985846 -0.40972320 0.86137856 250 250 250
-0.36928688 -0.38402988 0.85972988 250 250 250
-0.37051008 -0.39378923 0.86039914 250 250 250
-0.36996147 -0.37002418 0.85872100 250 250 250
-0.36996079 -0.35003703 0.85724819 250 250 250
-0.37012604 -0.33036318 0.85581094 250 250 250
-0.36995616 -0.31036581 0.85432694 250 250 250
-0.37002773 -0.29027553 0.85279640 250 250 250
-0.36998906 -0.26948552 0.85113592 250 250 250
-0.37001107 -0.25024876 0.84955960 250 250 250
-0.37012128 -0.22974892 0.84783945 250 250 250
-0.36983108 -0.20991594 0.84611048 250 250 250
-0.37001264 -0.18998967 0.84434609 250 250 250
-0.36996212 -0.17029107 0.84257511 250 250 250
-0.36415136 -0.14211492 0.83984478 251 251 251
-0.37059343 -0.15071728 0.84083206 250 250 250
-0.36972209 -0.13012746 0.83893715 250 250 250
-0.37760468 -0.13953849 0.84006445 250 250 250
-0.36997794 -0.10962278 0.83704129 250 250 250
-0.37003085 -0.08986119 0.83515536 248 248 249
-0.36992408 -0.07040980 0.83322343 250 250 250
-0.37008213 -0.04984780 0.83110935 250 250 250
-0.36998204 -0.02982805 0.82895887 250 250 250
-0.36984301 -0.00981236 0.82671425 250 250 250
-0.37007452 0.01029879 0.82436661 248 248 249
-0.37006049 0.03013230 0.82185355 248 248 248
-0.36981237 0.05186287 0.81899075 250 250 250
-0.37096862 0.04217466 0.82028445 250 250 250
-0.36996043 0.07017565 0.81656467 250 250 250
-0.36994042 0.09044351 0.81365004 219 219 221
-0.37034013 0.11006764 0.81125121 172 172 175
-0.36968092 0.13010903 0.80943444 149 150 152
-0.37016073 0.14988546 0.80797095 134 134 136
-0.36988124 0.17012475 0.80660592 123 123 126
-0.36997367 0.19001153 0.80509962 114 115 119
-0.37016186 0.21017314 0.80349638 107 107 114
-0.37874427 0.23656556 0.79980713 96 97 105
-0.36937289 0.22971399 0.80215942 103 103 110
-0.37622422 0.25161762 0.79927547 94 94 101
-0.36688739 0.24927952 0.80126991 101 101 108
-0.37326401 0.27069947 0.79868500 97 97 103
-0.36334799 0.26867137 0.80073622 113 112 115
-0.37038984 0.29025533 0.79818437 107 106 110
-0.36113463 0.28251704 0.80029047 122 122 124
-0.37007007 0.31009733 0.79718253 116 116 121
-0.36999105 0.32972401 0.79596985 123 123 125
-0.36997694 0.34996312 0.79440674 127 124 124
-0.36994004 0.36991912 0.79190791 135 133 136
-0.36999205 0.39017154 0.78725510 42 42 43
-0.37016736 0.41018561 0.78339661 0 0 0
-0.37388950 0.43733384 0.77977324 0 0 0
-0.36925823 0.42847941 0.78106234 0 0 0
-0.36969855 0.44148152 0.77940131 0 0 0
-0.35045059 -0.56199833 0.83521719 0 0 0
-0.35023560 -0.55007599 0.83568110 0 0 0
-0.34954564 -0.53033277 0.83650641 0 0 0
-0.35001997 -0.51005873 0.83764169 0 0 0
-0.35019032 -0.48997883 0.83902582 0 0 0
-0.34013016 -0.48102617 0.84003162 0 0 0
-0.35423654 -0.47914396 0.83991369 0 0 0
-0.34970619 -0.46904446 0.84218166 12 12 12
-0.35095192 -0.46217874 0.86330756 251 251 251
-0.34849673 -0.45845654 0.84414339 25 25 25
-0.34990298 -0.44939999 0.86328319 250 250 250
-0.34998431 -0.42976383 0.86226162 250 250 250
-0.35016337 -0.40976174 0.86113407 250 250 250
-0.34955248 -0.38564654 0.85959678 251 251 251
-0.35038686 -0.39562851 0.86027366 250 250 250
-0.35003573 -0.37006290 0.85846269 250 250 250
-0.34994790 -0.35001048 0.85696127 250 250 250
-0.35003343 -0.33013811 0.85549006 250 250 250
-0.35003647 -0.31055379 0.85400480 250 250 250
-0.34998410 -0.28975919 0.85237858 250 250 250
-0.34999416 -0.26971209 0.85073667 250 250 250
-0.35000884 -0.24975045 0.84905991 250 250 250
-0.34997800 -0.23056530 0.84740870 250 250 250
-0.35001550 -0.20998841 0.84558927 250 250 250
-0.34994224 -0.19020354 0.84379049 250 250 250
-0.35004988 -0.16978624 0.84190560 250 250 250
-0.34863792 -0.14515005 0.83958376 250 250 250
-0.35095357 -0.15426475 0.84049908 251 251 251
-0.35006763 -0.12995757 0.83821987 250 250 250
-0.34990815 -0.10974617 0.83628669 250 250 250
-0.35003592 -0.08980139 0.83434663 250 250 250
-0.34998573 -0.07021645 0.83238984 250 250 250
-0.34989068 -0.04999908 0.83034252 250 250 250
-0.35013474 -0.02961379 0.82821629 250 250 250
-0.34990408 -0.00980924 0.82602662 250 250 250
-0.34991993 0.01024395 0.82376683 250 250 250
-0.34191843 0.03925399 0.81994708 251 251 251
-0.35028039 0.03006553 0.82132779 250 250 250
-0.34975628 0.05023261 0.81883060 250 250 250
-0.35552977 0.04099406 0.82010631 250 250 250
-0.34989213 0.07028448 0.81659472 249 249 249
-0.35004576 0.09027584 0.81438116 225 225 227
-0.35022903 0.10998355 0.81314918 223 222 223
-0.35014001 0.12988093 0.81232692 171 167 167
-0.34974644 0.15023598 0.81162868 135 132 133
-0.35010455 0.17004025 0.81063845 126 124 126
-0.34975995 0.18992483 0.80943383 121 120 123
-0.35034011 0.21009197 0.80789623 120 119 122
-0.34963940 0.22995228 0.80666217 123 123 126
-0.35028069 0.25002169 0.80499197 128 127 131
-0.34993324 0.26985898 0.80335407 134 134 136
-0.35893175 0.29658353 0.79980024 130 130 131
-0.34955141 0.28976952 0.80174343 140 140 140
-0.35478026 0.31230489 0.79928445 138 139 140
-0.34613972 0.30786140 0.80083128 148 148 148
-0.35023387 0.33025793 0.79826025 147 146 147
-0.34148054 0.32134083 0.80010466 157 157 157
-0.34978672 0.35005612 0.79612626 157 155 153
-0.35005398 0.37027601 0.79294047 166 167 169
-0.34997138 0.38975019 0.78773284 19 19 19
-0.35002692 0.40974338 0.78430893 0 0 0
-0.35006498 0.42987080 0.78167908 0 0 0
-0.35397315 0.44265466 0.77982400 0 0 0
-0.34762300 0.44153491 0.78031506 0 0 0
-0.33040340 -0.56227618 0.83563013 0 0 0
-0.33044262 -0.55042983 0.83609885 0 0 0
-0.32946085 -0.52998277 0.83701947 0 0 0
-0.33000880 -0.50971496 0.83817577 0 0 0
-0.33077583 -0.49181982 0.83934050 0 0 0
-0.32807198 -0.48242510 0.84017659 0 0 0
-0.32989424 -0.46999920 0.84170082 4 4 4
-0.33113631 -0.46097301 0.86340906 251 251 251
-0.32926419 -0.45744543 0.84511540 42 42 42
-0.33012348 -0.44954651 0.86322052 250 250 250
-0.32979846 -0.42947239 0.86205146 250 250 250
-0.32998300 -0.40965368 0.86090699 250 250 250
-0.32981898 -0.38730273 0.85948799 250 250 250
-0.33127167 -0.39716300 0.86016545 250 250 250
-0.32991905 -0.36963651 0.85817922 250 250 250
-0.33000279 -0.35001750 0.85667464 250 250 250
-0.32999647 -0.33005884 0.85515741 250 250 250
-0.32997367 -0.31015538 0.85360299 250 250 250
-0.33015162 -0.29053605 0.85202515 250 250 250
-0.32984864 -0.26977527 0.85026964 250 250 250
-0.32997548 -0.24995416 0.84855895 250 250 250
-0.32999725 -0.23006883 0.84680978 250 250 250
-0.32998939 -0.21020842 0.84503159 250 250 250
-0.33002708 -0.18972634 0.84314658 250 250 250
-0.32992975 -0.16999615 0.84128437 250 250 250
-0.32945860 -0.14835703 0.83923234 250 250 250
-0.33349939 -0.15739138 0.84020815 251 251 251
-0.32990662 -0.13015286 0.83753397 250 250 250
-0.33022543 -0.10992871 0.83559345 250 250 250
-0.32977893 -0.09056757 0.83365061 250 250 250
-0.33008485 -0.07002285 0.83155087 250 250 250
-0.32990867 -0.05002110 0.82947416 250 250 250
-0.32995850 -0.02974866 0.82726456 250 250 250
-0.33014947 -0.00951919 0.82502951 250 250 250
-0.32981334 0.01008477 0.82285302 250 250 250
-0.32788837 0.03762167 0.81978299 250 250 250
-0.33074146 0.02806305 0.82084281 250 250 250
-0.32993806 0.04981165 0.81860122 250 250 250
-0.33012858 0.07001534 0.81679752 249 249 248
-0.33004813 0.09043618 0.81567009 228 223 219
-0.33013497 0.11020338 0.81536179 197 185 175
-0.33015859 0.12994313 0.81542178 176 160 149
-0.33025276 0.14984878 0.81529898 163 148 142
-0.32999980 0.16997241 0.81498628 153 142 138
-0.33009552 0.19013543 0.81431639 148 140 136
-0.33022314 0.21001529 0.81352572 147 139 137
-0.32994617 0.23009832 0.81280555 146 139 137
-0.33005566 0.24980648 0.81112856 150 145 143
-0.32983480 0.26995597 0.80785382 163 160 159
-0.32982777 0.29003825 0.80419133 175 175 177
-0.33024145 0.31021689 0.80213476 178 178 181
-0.33110949 0.33408482 0.79923824 182 182 183
-0.32851146 0.32460449 0.80058858 188 188 191
-0.32998720 0.35007499 0.79703227 193 193 194
-0.32999811 0.37047571 0.79354778 175 177 179
-0.32991977 0.38991248 0.78810329 0 0 0
-0.33005971 0.41002121 0.78500472 0 0 0
-0.33007818 0.43029134 0.78233117 0 0 0
-0.32964599 0.44225074 0.78081105 0 0 0
-0.31035664 -0.56259114 0.83609821 0 0 0
-0.31039912 -0.55010359 0.83659111 0 0 0
-0.30966166 -0.52961894 0.83754255 0 0 0
-0.30986213 -0.50996132 0.83867153 0 0 0
-0.31120149 -0.49450853 0.83961713 0 0 0
-0.30893770 -0.48476692 0.84037422 0 0 0
-0.30988867 -0.46988706 0.84182078 0 0 0
-0.30986857 -0.45628180 0.84483405 39 39 39
-0.30998695 -0.45015388 0.86295630 250 250 250
-0.31023567 -0.42946980 0.86185381 250 250 250
-0.30064644 -0.40029754 0.85999185 251 251 251
-0.30986765 -0.40960063 0.86068384 250 250 250
-0.30973894 -0.38900435 0.85935757 250 250 250
-0.31472494 -0.39843729 0.86005995 251 251 251
-0.31012777 -0.36981609 0.85793753 250 250 250
-0.30991094 -0.34962686 0.85633758 250 250 250
-0.30996388 -0.32996754 0.85479381 250 250 250
-0.31006903 -0.31013138 0.85319629 250 250 250
-0.30998343 -0.29024244 0.85152716 250 250 250
-0.31002362 -0.27014628 0.84978607 250 250 250
-0.30997914 -0.24942351 0.84794785 250 250 250
-0.30994251 -0.23022531 0.84622263 250 250 250
-0.31005265 -0.20969578 0.84436742 250 250 250
-0.30993726 -0.18984295 0.84252560 250 250 250
-0.30705932 -0.16176151 0.83978053 250 250 250
-0.31077245 -0.17135899 0.84080596 250 250 250
-0.30989037 -0.14975996 0.83874175 250 250 250
-0.31007715 -0.12979181 0.83685113 250 250 250
-0.30992892 -0.11011689 0.83494012 250 250 250
-0.31008091 -0.09034263 0.83298041 250 250 250
-0.30984412 -0.07008630 0.83084305 250 250 250
-0.31019569 -0.04967794 0.82859899 250 250 250
-0.30977653 -0.02986329 0.82631374 250 250 250
-0.31016295 -0.00969260 0.82405960 247 247 248
-0.30980809 0.01022329 0.82203998 248 248 249
-0.31177251 0.03605370 0.81969401 247 246 246
-0.30936222 0.02713993 0.82053654 245 244 243
-0.31129916 0.04999912 0.81886209 227 223 219
-0.30163694 0.04990101 0.82024407 196 182 170
-0.31155499 0.06959084 0.81838102 202 192 182
-0.30166554 0.06975629 0.82032187 188 173 159
-0.31237859 0.08975103 0.81830168 189 173 159
-0.30241328 0.08961806 0.82042776 188 169 155
-0.31273316 0.11005648 0.81840417 186 166 151
-0.30305921 0.10993283 0.82058368 184 164 148
-0.31350134 0.13019506 0.81848347 182 163 148
-0.30381197 0.13008899 0.82065884 182 161 143
-0.31373893 0.15024671 0.81853872 177 157 141
-0.30372526 0.15009197 0.82074835 182 158 140
-0.31372551 0.17004604 0.81850369 172 152 140
-0.30390368 0.17048673 0.82062489 178 155 139
-0.31369624 0.18983466 0.81842784 169 152 141
-0.30388575 0.19033311 0.82057643 175 154 138
-0.31377032 0.20978463 0.81841417 168 152 141
-0.30391649 0.21021077 0.82065941 175 154 138
-0.31419808 0.22967198 0.81836816 166 149 139
-0.30387229 0.23054438 0.82091283 176 152 138
-0.31466061 0.25043587 0.81743371 159 145 136
-0.30439099 0.25004892 0.82105950 167 147 132
-0.31055232 0.27089994 0.81239513 191 183 177
-0.30320479 0.26360434 0.82101376 161 141 126
-0.30979739 0.29010700 0.80550223 235 235 236
-0.31005841 0.31028178 0.80292154 237 237 238
-0.31017129 0.33620858 0.79945361 235 236 236
-0.30979512 0.32655019 0.80084101 235 235 236
