ply
format ascii 1.0
element vertex 1079
property float x
property float y
property float z
property uchar red
property uchar green
property uchar blue
end_header
-0.82247898 -0.57770219 0.97359574 107 172 196
-0.83031660 -0.55011920 0.89601989 0 0 0
-0.82535553 -0.54675425 0.91434018 77 126 142
-0.83317425 -0.55114154 0.92212126 87 141 160
-0.82984713 -0.53898588 0.89654747 5 9 11
-0.83877707 -0.34823994 0.89299048 1 2 3
-0.83657216 -0.32959155 0.89270682 0 1 1
-0.83837855 -0.32647710 0.90031567 34 48 69
-0.83442669 -0.30981912 0.89234746 0 0 0
-0.83849555 -0.30252791 0.90548337 16 23 30
-0.83232122 -0.28984969 0.89224702 0 0 0
-0.83817144 -0.28077870 0.91108513 39 58 73
-0.83180443 -0.28767283 1.97429512 81 112 141
-0.82276178 -0.28868758 1.98125935 83 110 139
-0.83016102 -0.26972809 0.89210027 0 0 0
-0.83095371 -0.27112743 0.90438168 22 34 47
-0.83030275 -0.26106113 1.83519802 58 78 115
-0.82444542 -0.27333280 1.89839868 71 97 133
-0.83557345 -0.27429210 1.90506136 73 97 131
-0.82942170 -0.25018756 0.89185268 0 0 0
-0.82956286 -0.25252794 0.90732604 28 41 59
-0.82840252 -0.24512871 1.74439190 57 76 107
-0.82952237 -0.23009187 0.89163339 0 0 0
-0.82293051 -0.22690932 0.90557718 33 48 65
-0.83576025 -0.22664032 0.92144752 58 75 104
-0.83338606 -0.22459405 1.63857079 54 76 99
-0.82340351 -0.22496150 1.64125164 55 76 101
-0.83040392 -0.23417319 1.68718193 60 75 105
-0.82945661 -0.21004061 0.89156264 0 0 0
-0.82791279 -0.20488325 0.91672532 49 59 87
-0.83172974 -0.20751305 0.92139399 67 77 128
-0.82814758 -0.20043470 1.51980583 60 76 107
-0.83086984 -0.20058390 1.52093716 57 75 110
-0.83304167 -0.20839305 1.55970913 61 74 108
-0.82864335 -0.20847330 1.56030973 61 74 109
-0.82912488 -0.21621778 1.59760592 59 75 105
-0.83951235 -0.21676186 1.60162604 60 77 109
-0.82982604 -0.18981023 0.89149873 0 0 0
-0.82251608 -0.19219937 0.91293409 35 52 73
-0.83490795 -0.19909537 0.92668921 50 82 115
-0.82875046 -0.18039204 1.42381205 60 72 101
-0.83083666 -0.18692338 1.45550683 63 71 107
-0.83019436 -0.19368835 1.48815480 56 77 106
-0.83011949 -0.16995276 0.89144729 0 0 0
-0.82490155 -0.17522637 0.91910928 34 46 66
-0.83292027 -0.17631212 0.92893240 49 65 96
-0.82717781 -0.16023209 1.33768807 58 66 90
-0.83129652 -0.16400064 1.35348890 58 67 91
-0.83053206 -0.16979656 1.37777501 54 70 93
-0.82633510 -0.17481668 1.39889035 59 70 99
-0.83590258 -0.17504821 1.40074309 57 71 97
-0.83006479 -0.14991259 0.89138855 0 0 0
-0.82789275 -0.14349169 0.92960306 53 67 99
-0.82927399 -0.14247358 1.27133188 54 62 93
-0.83029821 -0.14788094 1.29043670 54 64 93
-0.83068402 -0.15201869 1.30683321 55 65 90
-0.83052588 -0.15615818 1.32276424 57 66 90
-0.83000466 -0.12987416 0.89132396 0 0 0
-0.82090173 -0.13908738 0.92175317 33 47 65
-0.82878906 -0.12320281 1.21390871 52 60 84
-0.83039088 -0.12891241 1.22959246 50 63 87
-0.82952174 -0.13557936 1.24898273 53 63 91
-0.82994490 -0.10983868 0.89125976 0 0 0
-0.82367014 -0.10671186 0.93118688 30 36 46
-0.82818452 -0.10100801 1.15665228 49 58 80
-0.83058203 -0.10622341 1.17048173 49 58 80
-0.82988498 -0.11360763 1.18968015 51 58 84
-0.83106471 -0.11893474 1.20384731 50 58 84
-0.82988736 -0.08980636 0.89119794 0 0 0
-0.82943681 -0.08254819 1.11234551 50 58 80
-0.82990190 -0.08934491 1.12941303 49 57 78
-0.83048811 -0.09613546 1.14588504 48 57 80
-0.83028321 -0.06995326 0.89112860 0 0 0
-0.82623023 -0.07364295 0.94051349 36 50 66
-0.82958854 -0.06012850 1.01417353 114 145 172
-0.82991532 -0.06380042 1.03093911 60 86 122
-0.83017093 -0.06772283 1.05039900 74 102 137
-0.83094152 -0.07103048 1.06891194 55 66 101
-0.82982247 -0.07485749 1.08806038 50 57 87
-0.82978999 -0.07864809 1.10171267 48 57 81
-0.83052777 -0.04974911 0.89105847 0 0 0
-0.82243165 -0.04110356 0.93988794 115 139 161
-0.82901155 -0.04249114 0.95607967 115 141 166
-0.82986216 -0.04654504 0.96978808 103 127 156
-0.82993794 -0.05350114 0.98966498 105 128 156
-0.82970345 -0.05783391 1.00476286 96 123 152
-0.83046352 -0.02972524 0.89098947 0 0 0
-0.82396017 -0.03674069 0.94876351 124 139 162
-0.83038411 -0.00970431 0.89090422 0 0 0
-0.83027716 0.01031244 0.89078945 0 0 0
-0.83015144 0.03032336 0.89065454 0 0 0
-0.83000272 0.05032680 0.89049495 0 0 0
-0.82983259 0.07032127 0.89031240 0 0 0
-0.82964429 0.09030558 0.89011034 0 0 0
-0.82945151 0.11028023 0.88990347 0 0 0
-0.82990466 0.13032165 0.88968524 0 0 0
-0.83056710 0.15019502 0.88945090 0 0 0
-0.83032633 0.17013109 0.88919303 0 0 0
-0.83005584 0.19004878 0.88890333 0 0 0
-0.82977284 0.20995034 0.88860025 0 0 0
-0.82949422 0.22983950 0.88830186 0 0 0
-0.83004893 0.24969166 0.88801306 0 0 0
-0.83050762 0.26958944 0.88774388 0 0 0
-0.83027785 0.28945647 0.88749824 0 0 0
-0.83006254 0.30931784 0.88726807 0 0 0
-0.82984714 0.32993536 0.88703781 0 0 0
-0.82964260 0.35054685 0.88681915 0 0 0
-0.82945681 0.37039024 0.88662054 0 0 0
-0.82959420 0.39040788 0.88643795 0 0 0
-0.83065970 0.41007131 0.88626886 0 0 0
-0.83050920 0.42990739 0.88610826 0 0 0
-0.83036970 0.44974220 0.88595939 0 0 0
-0.83023999 0.46957587 0.88582098 0 0 0
-0.83011782 0.48940778 0.88569064 0 0 0
-0.83004326 0.50160969 0.88561110 0 0 0
-0.80050244 -0.91652557 1.67646170 102 150 164
-0.80302796 -0.80816093 1.45524263 106 159 178
-0.80745355 -0.63407143 1.09083664 116 175 197
-0.80958419 -0.60232424 0.89514771 0 0 0
-0.81046391 -0.60803795 1.03680062 119 175 195
-0.80983278 -0.59012711 0.89542259 0 0 0
-0.81021124 -0.57027371 0.89584099 0 0 0
-0.81611140 -0.56850252 0.95530891 106 146 166
-0.81384681 -0.57516621 0.96932188 110 168 196
-0.81019880 -0.55041680 0.89635824 0 0 0
-0.81011678 -0.54250371 0.90832531 89 145 165
-0.80891551 -0.53899476 0.89701083 3 5 6
-0.80843518 -0.53915577 0.90076238 46 74 83
-0.81051574 -0.28798436 1.97643313 85 116 144
-0.81127283 -0.26105950 1.83518654 58 78 111
-0.81853586 -0.27355095 1.89991379 74 100 133
-0.80814668 -0.27392595 1.90251833 72 101 129
-0.81839643 -0.24741770 0.89254255 0 1 1
-0.81773456 -0.24691140 1.75707789 58 73 110
-0.80896727 -0.24794738 1.76445019 65 73 109
-0.81637837 -0.22934306 0.89242805 0 0 1
-0.80973069 -0.22549951 1.64517675 58 75 102
-0.80838264 -0.23412849 1.68685988 58 76 102
-0.81428381 -0.20956507 0.89231213 1 1 2
-0.81720415 -0.21298545 0.90184889 28 36 54
-0.81057730 -0.20063744 1.52134315 61 75 108
-0.81145508 -0.20786822 1.55578107 59 75 105
-0.81052017 -0.21604468 1.59632693 54 77 102
-0.81230381 -0.18962261 0.89226880 0 1 1
-0.81460338 -0.19221359 0.90371791 37 52 65
-0.81088159 -0.18107446 1.42919832 62 72 108
-0.81064188 -0.18719540 1.45762494 57 75 104
-0.81010265 -0.19349758 1.48668902 57 76 111
-0.81040214 -0.16982298 0.89207978 0 0 1
-0.81318975 -0.16540863 0.90755879 32 42 67
-0.81234446 -0.16004351 1.33611371 56 69 91
-0.80996221 -0.16468501 1.35530654 55 69 92
-0.80969559 -0.16942248 1.37473963 57 70 98
-0.81226151 -0.17465052 1.39756078 57 71 101
-0.80219734 -0.17509000 1.40107747 62 72 105
-0.80932934 -0.14991999 0.89205661 0 0 0
-0.80984032 -0.15206353 0.90582154 18 26 40
-0.80985654 -0.14193172 1.26771381 53 63 93
-0.81032730 -0.14769576 1.28882083 52 65 94
-0.80995371 -0.15374266 1.31128196 54 67 91
-0.80281333 -0.15998487 1.33562422 55 70 92
-0.80951225 -0.12998709 0.89185025 0 0 0
-0.80821498 -0.12839406 0.90848236 18 22 32
-0.81870390 -0.13102473 0.92107290 36 43 64
-0.80925688 -0.12360958 1.21043575 54 60 89
-0.81024525 -0.13029061 1.22959276 55 63 91
-0.81054393 -0.13604713 1.24735492 55 63 94
-0.80955909 -0.10989441 0.89171196 0 0 0
-0.80731823 -0.11065091 0.91093209 20 23 34
-0.81027210 -0.10255247 1.15464079 51 59 83
-0.80956787 -0.10883264 1.17023728 52 59 84
-0.81062018 -0.11647073 1.19091829 53 59 86
-0.80951438 -0.08985317 0.89166283 0 0 0
-0.80298256 -0.09429285 0.90894038 25 26 43
-0.81366503 -0.08977939 0.92257994 36 38 60
-0.81011861 -0.08370444 1.11094581 51 58 78
-0.80988633 -0.09209382 1.12982180 51 58 80
-0.80990097 -0.09855682 1.14494274 49 58 82
-0.80992733 -0.06963758 0.89158078 0 0 0
-0.80573891 -0.06230693 0.91718783 36 42 67
-0.81398416 -0.06997338 0.92620757 35 44 64
-0.80919991 -0.06004627 1.01278648 112 133 165
-0.80913026 -0.06379890 1.03028141 61 87 126
-0.80991622 -0.06785185 1.05240000 81 104 140
-0.81125121 -0.07098117 1.07219301 50 62 101
-0.81013305 -0.07595368 1.09121303 49 58 84
-0.81010008 -0.04977160 0.89145941 0 0 0
-0.80146920 -0.05651231 0.91322547 56 80 106
-0.81012362 -0.05637915 0.92399698 90 119 152
-0.81097601 -0.04067880 0.95747970 134 150 169
-0.80986274 -0.04599111 0.96924667 110 132 159
-0.81024483 -0.05350211 0.98965996 103 130 156
-0.81018014 -0.05780367 1.00423751 112 138 165
-0.80999816 -0.02973725 0.89134714 0 0 0
-0.80215197 -0.02797795 0.91792103 101 113 126
-0.80852309 -0.02626876 0.93404484 115 131 146
-0.80960202 -0.03423551 0.94655406 121 139 157
-0.80999421 -0.00980196 0.89122025 0 0 0
-0.80145850 -0.01637366 0.91955221 88 123 121
-0.80332985 -0.01538588 0.92615614 98 116 127
-0.81051192 0.01031558 0.89106479 0 0 0
-0.81037629 0.03033223 0.89091563 0 0 0
-0.81022036 0.05034086 0.89074418 0 0 0
-0.81003704 0.07033942 0.89054258 0 0 0
-0.80983468 0.09032681 0.89032005 0 0 0
-0.80962566 0.11030333 0.89009021 0 0 0
-0.80947395 0.13032281 0.88985376 0 0 0
-0.81022987 0.15004621 0.88959884 0 0 0
-0.81045974 0.17015481 0.88931716 0 0 0
-0.81018394 0.19007253 0.88901450 0 0 0
-0.80989930 0.20997440 0.88870215 0 0 0
-0.80962083 0.22986399 0.88839656 0 0 0
-0.80959470 0.24990077 0.88809530 0 0 0
-0.81049634 0.26951115 0.88781127 0 0 0
-0.81038191 0.28947276 0.88754828 0 0 0
-0.81015924 0.30933048 0.88730438 0 0 0
-0.80993781 0.32994427 0.88706183 0 0 0
-0.80972732 0.35055162 0.88683127 0 0 0
-0.80953534 0.37039040 0.88662099 0 0 0
-0.80935737 0.39022650 0.88642604 0 0 0
-0.81041237 0.40988245 0.88624129 0 0 0
-0.81055767 0.42988552 0.88606325 0 0 0
-0.81040761 0.44971162 0.88589919 0 0 0
-0.81027326 0.46953945 0.88575230 0 0 0
-0.81015462 0.48937019 0.88562260 0 0 0
-0.81008561 0.50157348 0.88554717 0 0 0
-0.78885782 -0.97587259 1.80210853 105 144 156
-0.79603702 -0.87320412 1.59218657 111 153 169
-0.78676925 -0.83666132 1.51599944 113 156 174
-0.78620951 -0.81427743 1.47083426 110 156 177
-0.78621122 -0.73862166 1.31367004 110 167 191
-0.78975134 -0.60253833 0.89546588 0 0 0
-0.78999609 -0.59033855 0.89574340 0 0 0
-0.79988911 -0.58053631 0.98410523 113 171 195
-0.79033819 -0.57045855 0.89613124 0 0 0
-0.79553719 -0.56548484 0.95439357 112 172 195
-0.78990851 -0.55003548 0.89665383 0 0 0
-0.78957366 -0.54174875 0.90771561 47 83 93
-0.78857645 -0.55043535 0.92494893 101 133 151
-0.79059068 -0.53807880 0.89726596 2 3 3
-0.78897946 -0.28636744 1.96533623 91 115 144
-0.78660407 -0.29460130 1.99814290 80 106 139
-0.78990977 -0.26081799 1.83348877 54 75 109
-0.79008551 -0.27450512 1.90654085 70 96 125
-0.79066303 -0.24794492 1.76443270 58 76 106
-0.78918117 -0.22531369 1.64382106 58 75 101
-0.79421588 -0.23511559 1.69397178 55 75 107
-0.78580206 -0.23654789 1.70429128 62 71 109
-0.79462662 -0.20026186 1.51849526 61 76 107
-0.79970712 -0.20054880 1.52067101 62 76 108
-0.79045898 -0.20730046 1.55153169 56 77 103
-0.79678478 -0.21643519 1.59921233 54 74 101
-0.78673899 -0.21671344 1.60126827 58 75 103
-0.78971605 -0.18131816 1.43112184 56 75 105
-0.79037102 -0.18716855 1.45741585 57 76 107
-0.79135963 -0.19362721 1.48768504 63 75 106
-0.78492183 -0.19979541 1.51495841 60 77 105
-0.78857115 -0.16437763 1.35277686 55 68 97
-0.79048274 -0.16963667 1.37647765 58 70 99
-0.78094273 -0.17014772 1.38062441 57 72 103
-0.78977606 -0.17555934 1.40483317 59 72 105
-0.79929662 -0.14489498 0.89251414 0 0 0
-0.79147614 -0.14252343 1.26867085 54 63 95
-0.78952988 -0.14734869 1.28579224 53 65 93
-0.78977979 -0.15331791 1.30878992 55 66 92
-0.79029295 -0.15978631 1.33396657 54 67 93
-0.79757352 -0.12914798 0.89238447 0 0 0
-0.78850982 -0.12073564 1.19812799 56 62 90
-0.79076439 -0.12473288 1.21006240 55 61 91
-0.79019819 -0.13154739 1.23092282 54 63 93
-0.78843246 -0.13757271 1.25125903 55 63 95
-0.79601445 -0.10927885 0.89271985 0 0 1
-0.78900172 -0.10375038 1.15075590 52 60 85
-0.79024966 -0.11043568 1.16940544 50 58 86
-0.79011894 -0.11649683 1.18655966 53 59 89
-0.79431289 -0.08944145 0.89243087 0 0 1
-0.79684036 -0.08705830 0.90261814 19 20 31
-0.78661663 -0.08046535 1.09727290 51 57 81
-0.79006346 -0.08568625 1.10947658 52 59 80
-0.79053792 -0.09460300 1.12955775 50 59 82
-0.79607836 -0.09930099 1.14214055 50 58 83
-0.79277885 -0.06961596 0.89239950 0 0 1
-0.79918297 -0.07266162 0.90793872 26 28 40
-0.78974786 -0.06003161 1.01253925 94 118 154
-0.79084630 -0.06357680 1.03019019 64 90 128
-0.78827735 -0.06730271 1.05209084 80 100 137
-0.78919092 -0.07151142 1.07370140 50 61 93
-0.79106684 -0.07594922 1.08776790 51 57 83
-0.79150350 -0.04953909 0.89203478 0 0 0
-0.79176830 -0.04919204 0.90266566 47 68 84
-0.79007389 -0.04018820 0.95677099 127 148 167
-0.78999823 -0.04568518 0.96842057 111 138 164
-0.78994467 -0.05349979 0.98871569 106 133 156
-0.79030835 -0.05774696 1.00325231 113 136 164
-0.79017444 -0.02957628 0.89213322 1 2 2
-0.79415630 -0.02974257 0.90817700 82 88 105
-0.79025846 -0.02481741 0.93515420 116 130 143
-0.78985257 -0.03411337 0.94687214 119 140 158
-0.78944935 -0.00963505 0.89177008 0 0 0
-0.79038554 -0.00440382 0.91522821 117 124 130
-0.78980854 -0.01272092 0.92498348 106 116 127
-0.78973340 0.01031493 0.89173465 1 1 2
-0.78700052 0.00940824 0.91281525 105 113 122
-0.78990313 0.03034430 0.89127157 0 0 0
-0.78388764 0.02932075 0.90676413 89 101 107
-0.79043166 0.05033417 0.89111234 0 0 0
-0.78144478 0.04391033 0.90258738 76 90 92
-0.79028503 0.07036235 0.89083357 0 0 0
-0.79006473 0.09035366 0.89058517 0 0 0
-0.78983358 0.11033231 0.89032452 0 0 0
-0.78960421 0.13029955 0.89006590 0 0 0
-0.78966698 0.15042861 0.88978798 0 0 0
-0.79032057 0.17001092 0.88948898 0 0 0
-0.79034875 0.19010634 0.88917269 0 0 0
-0.79006180 0.21000927 0.88884985 0 0 0
-0.78977444 0.22989758 0.88852650 0 0 0
-0.78949327 0.24977332 0.88821012 0 0 0
-0.79004497 0.26960335 0.88790414 0 0 0
-0.79050182 0.28949569 0.88761869 0 0 0
-0.79027108 0.30934969 0.88735957 0 0 0
-0.79004199 0.32995929 0.88710229 0 0 0
-0.78982072 0.35056048 0.88685379 0 0 0
-0.78961861 0.37039280 0.88662680 3 3 4
-0.78943091 0.39022205 0.88641600 7 7 8
-0.78989981 0.41008852 0.88621104 8 9 11
-0.79061022 0.42986479 0.88602057 10 10 13
-0.79045010 0.44968210 0.88584110 13 14 17
-0.79030758 0.46950182 0.88568134 17 17 21
-0.79000321 0.48980541 0.88553400 20 20 25
-0.79109495 0.50191742 0.88545710 18 18 23
-0.77027807 -1.02468286 1.91053891 110 142 154
-0.77964517 -0.99682092 1.84668732 107 142 162
-0.77139412 -0.65047404 1.12912762 107 176 195
-0.76988473 -0.60273718 0.89576141 0 0 0
-0.77012559 -0.59053513 0.89604165 0 0 0
-0.76813606 -0.59024487 1.00943565 119 172 196
-0.77034385 -0.57051015 0.89641153 0 0 0
-0.77059778 -0.57855363 0.98362625 124 173 192
-0.76992150 -0.54999005 0.89692809 0 0 0
-0.77627406 -0.54143612 0.90807138 28 42 49
-0.76656937 -0.54704621 0.92394882 109 171 192
-0.76928778 -0.53786133 0.89758198 0 0 0
-0.76675101 -0.53761133 0.90208904 29 48 55
-0.76251806 -0.28536544 1.95845950 82 108 139
-0.77248307 -0.28592157 1.96227622 84 109 143
-0.76991612 -0.29350458 1.99070439 73 103 135
-0.77064189 -0.26126664 1.83664270 55 77 108
-0.76173319 -0.27320044 1.89747941 69 90 120
-0.77190457 -0.27389929 1.90233314 72 95 123
-0.76968560 -0.24856023 1.76881137 58 73 108
-0.76965715 -0.22626449 1.65075786 57 74 105
-0.77029771 -0.23676001 1.70581957 60 74 104
-0.76101623 -0.20005095 1.51689601 55 75 102
-0.77040192 -0.20767746 1.55435336 56 75 104
-0.76723140 -0.21628502 1.59810278 59 75 103
-0.77680982 -0.21664573 1.60076797 58 76 103
-0.76956540 -0.18152500 1.43275437 58 77 101
-0.77054807 -0.18724720 1.45802830 62 75 102
-0.76955181 -0.19299314 1.48281331 61 77 105
-0.77018815 -0.19971090 1.51431756 58 78 104
-0.76287469 -0.16008159 1.33643166 58 73 99
-0.77250016 -0.16494080 1.35741159 56 71 99
-0.76253903 -0.16532359 1.36056181 52 69 99
-0.77027687 -0.17042876 1.38290485 55 72 101
-0.76938491 -0.17589333 1.40750574 55 75 103
-0.76959368 -0.14348155 1.27121998 55 65 91
-0.76866929 -0.14857925 1.28999933 56 65 93
-0.77087395 -0.15405555 1.31081377 55 66 94
-0.77259699 -0.15970446 1.33328319 55 68 96
-0.76960470 -0.12037024 1.19450190 52 61 93
-0.77018995 -0.12491491 1.20899925 53 63 97
-0.77023409 -0.13121856 1.22895530 56 65 92
-0.76971547 -0.13804815 1.25178793 57 66 92
-0.76591096 -0.10094156 1.13837912 53 60 88
-0.77025541 -0.10484433 1.14970688 52 60 87
-0.77053832 -0.11200114 1.16973633 52 61 90
-0.76970756 -0.11737655 1.18512112 56 62 89
-0.76840946 -0.08257878 1.09700053 53 60 83
-0.76920619 -0.08858896 1.10981371 52 60 84
-0.77073542 -0.09635595 1.12781938 52 60 86
-0.77005847 -0.06013436 1.01427240 87 115 149
-0.77027763 -0.06268995 1.02742459 65 91 129
-0.76963968 -0.06666715 1.04865662 66 94 131
-0.76953431 -0.07203798 1.07189388 54 59 93
-0.77008814 -0.07760097 1.08696806 52 57 82
-0.76925295 -0.04094069 0.95776309 118 143 164
-0.77025269 -0.04647526 0.96942548 109 138 162
-0.77023951 -0.05349671 0.98865251 99 128 157
-0.77011361 -0.05779325 1.00405639 104 130 162
-0.77009750 -0.02469178 0.93527803 102 123 137
-0.77012194 -0.03398276 0.94671865 124 145 163
-0.77940059 -0.00355158 0.89247423 4 4 4
-0.77005378 -0.00206845 0.91874573 138 148 148
-0.76996949 -0.01242206 0.92512526 113 123 130
-0.77875676 0.01268687 0.89257975 6 7 7
-0.76997122 0.01052877 0.91318054 105 113 120
-0.77798582 0.03038936 0.89262289 7 8 9
-0.77006110 0.03006256 0.90699484 96 105 112
-0.77788959 0.05122475 0.89270391 9 10 12
-0.76998929 0.04946044 0.90257243 86 96 104
-0.77218660 0.07076659 0.89627130 40 47 63
-0.76838165 0.06141403 0.90034978 82 87 105
-0.77106084 0.08960460 0.89478727 33 43 58
-0.77057620 0.10960576 0.89341640 31 39 55
-0.77004491 0.13000858 0.89236004 28 37 50
-0.77001999 0.15053072 0.89144409 27 32 43
-0.77026506 0.17040978 0.89069866 22 27 34
-0.77037322 0.19029744 0.89006852 20 22 29
-0.76992813 0.21017511 0.88955301 18 19 26
-0.77027310 0.23003613 0.88906289 18 19 25
-0.76989560 0.24989022 0.88862655 19 20 24
-0.76972093 0.26986402 0.88820818 21 21 28
-0.77025412 0.28939068 0.88782882 22 22 28
-0.77044791 0.30939588 0.88749244 25 25 31
-0.77017128 0.32998573 0.88717365 28 28 35
-0.76991926 0.35057208 0.88688328 31 32 37
-0.76969975 0.37039425 0.88663038 32 31 40
-0.76950012 0.39021515 0.88640039 33 32 39
-0.76949578 0.41016367 0.88617997 32 32 41
-0.77060438 0.42979154 0.88598103 32 33 39
-0.77050274 0.44965700 0.88579168 33 32 40
-0.77035563 0.46947063 0.88562255 33 32 39
-0.77021641 0.49004684 0.88546248 33 33 39
-0.77013775 0.50223945 0.88537204 31 31 40
-0.74754672 -1.06224569 1.99991059 102 138 152
-0.74754908 -1.04500181 1.95472336 107 140 150
-0.74363905 -1.05601690 1.99253885 101 137 151
-0.75080353 -0.93247864 1.72197449 104 147 157
-0.74181532 -0.85241802 1.55919945 102 148 164
-0.75259889 -0.82841905 1.51052618 108 151 167
-0.75669373 -0.80736747 1.46292007 112 154 170
-0.74645049 -0.73739209 1.32369053 116 162 184
-0.75534138 -0.62308477 1.07834852 117 175 197
-0.74999524 -0.60292829 0.89604542 0 0 0
-0.75005609 -0.59029970 0.89633903 0 0 0
-0.74515363 -0.58720218 1.01020426 116 175 196
-0.74066117 -0.59804557 1.03192735 115 175 196
-0.75073144 -0.56964452 0.89670286 0 0 0
-0.75064143 -0.56440502 0.96239960 119 174 193
-0.74956637 -0.54954882 0.89723416 0 0 0
-0.75177460 -0.54325739 0.91855607 109 171 194
-0.75652330 -0.55023272 0.93273562 113 170 194
-0.74946853 -0.53670127 0.89818051 5 8 9
-0.75122055 -0.53729385 0.90550384 76 121 136
-0.74483129 -0.31023397 1.99396144 77 105 139
-0.75066658 -0.28471940 1.95402575 81 108 142
-0.74568385 -0.29161680 1.97211748 77 104 136
-0.75135193 -0.29641132 1.98711967 78 105 138
-0.75108169 -0.26108743 1.83538290 56 74 105
-0.75530121 -0.27324647 1.89779909 69 85 119
-0.74574115 -0.27395244 1.90270230 71 90 121
-0.75081580 -0.24939655 1.77476281 56 72 104
-0.74997055 -0.22720682 1.65763277 59 72 103
-0.74934661 -0.23713158 1.70849666 57 75 103
-0.75178315 -0.20003582 1.51678129 59 78 105
-0.75070519 -0.20742893 1.55249323 59 76 107
-0.75462167 -0.21623467 1.59773073 60 74 105
-0.74411308 -0.21719875 1.60485415 59 74 105
-0.75074877 -0.18146406 1.43227339 61 76 102
-0.74956033 -0.18672815 1.45398664 59 77 104
-0.74950486 -0.19311388 1.48374098 59 77 104
-0.74221529 -0.19993024 1.51598072 57 75 103
-0.75606274 -0.16035181 1.33868754 54 70 97
-0.74616946 -0.16071298 1.34170282 56 71 99
-0.75007555 -0.16568838 1.36356396 59 72 101
-0.75069434 -0.17086801 1.38646906 56 74 104
-0.75008190 -0.17621624 1.41008973 57 76 102
-0.75022010 -0.14334739 1.27003138 51 65 96
-0.75175522 -0.14868836 1.28964529 55 66 96
-0.74933546 -0.15406964 1.31200039 54 69 97
-0.74279065 -0.15597962 1.32125175 54 69 96
-0.75031691 -0.12025698 1.19337794 53 66 93
-0.75022649 -0.12488659 1.20760151 54 65 93
-0.75006798 -0.13122686 1.22792186 56 65 93
-0.74995311 -0.13799497 1.25130514 53 67 92
-0.74834736 -0.10123413 1.13562299 54 62 92
-0.75070151 -0.10617537 1.14957653 54 63 93
-0.74996440 -0.11287712 1.16973309 54 65 94
-0.75048562 -0.11725399 1.18388364 53 65 91
-0.74876577 -0.08363506 1.09432732 53 60 87
-0.75017011 -0.09044749 1.10952033 53 60 85
-0.75040541 -0.09690341 1.12497147 56 62 88
-0.74976001 -0.06026396 1.01645825 76 103 142
-0.74994880 -0.06297233 1.02959783 67 97 135
-0.74990817 -0.06665787 1.04710053 71 94 132
-0.74994541 -0.07273880 1.07066661 53 59 90
-0.74969950 -0.07841001 1.08445524 54 59 84
-0.74996967 -0.04109764 0.95789087 118 138 160
-0.75018387 -0.04661711 0.96990329 111 137 162
-0.75017344 -0.05360660 0.98981846 99 131 160
-0.75065695 -0.05789876 1.00588946 95 127 160
-0.74986089 -0.02479700 0.93534306 109 122 143
-0.74981969 -0.03400952 0.94646028 117 139 157
-0.75005543 -0.00206875 0.91888747 149 154 157
-0.74993429 -0.01247455 0.92530086 110 124 131
-0.74993989 0.01058707 0.91331070 104 114 121
-0.75000896 0.03010304 0.90714500 100 105 112
-0.74995433 0.04949648 0.90287488 90 98 104
-0.74999749 0.07255385 0.89893621 68 78 98
-0.75023760 0.06256665 0.90051919 87 95 102
-0.75003956 0.08943180 0.89681090 54 67 90
-0.75002741 0.10937358 0.89501671 52 62 88
-0.74990949 0.13003813 0.89357034 49 58 80
-0.75002724 0.15069115 0.89239756 43 51 69
-0.74999774 0.17056105 0.89144606 38 44 58
-0.75008582 0.19041833 0.89063569 34 37 49
-0.74950551 0.21026784 0.88994663 31 32 42
-0.75047500 0.23005535 0.88934773 30 30 39
-0.75008815 0.24994286 0.88881430 29 28 37
-0.74968354 0.26976854 0.88833486 28 28 36
-0.74974212 0.28966992 0.88790742 28 28 35
-0.75054381 0.30941117 0.88753645 28 28 36
-0.75025141 0.32999200 0.88719065 29 29 37
-0.74998988 0.35057129 0.88688135 29 29 37
-0.74976450 0.37038773 0.88661482 30 30 38
-0.74956148 0.39020383 0.88637472 31 31 39
-0.74937000 0.41001542 0.88614828 31 31 40
-0.75030400 0.42969441 0.88594153 32 31 39
-0.75056180 0.44963442 0.88574722 32 32 39
-0.75041450 0.46944455 0.88557338 32 32 40
-0.75027650 0.49001808 0.88541052 32 32 38
-0.75020100 0.50221074 0.88532142 32 32 39
-0.72717035 -1.04248596 1.98205817 102 138 153
-0.72781919 -1.03901782 1.95617902 101 136 151
-0.72897702 -1.03800289 1.96385801 100 136 151
-0.73129368 -0.94752344 1.76099873 108 139 154
-0.73165419 -0.93930722 1.74013877 108 144 164
-0.73547915 -0.76420706 1.38039184 106 154 177
-0.73159349 -0.64543313 1.13398647 119 175 192
-0.72974860 -0.60243474 0.89632507 0 0 0
-0.73042432 -0.58948939 0.89661386 0 0 0
-0.72728765 -0.58060851 0.99886072 112 176 195
-0.73511342 -0.58202077 1.00129032 118 177 199
-0.73049967 -0.56935176 0.89698466 0 0 0
-0.72702771 -0.57127887 0.97989655 111 175 199
-0.72949483 -0.54961167 0.89749958 0 0 0
-0.72303328 -0.54906926 0.93533880 117 175 195
-0.73001043 -0.55256192 0.94220525 115 173 194
-0.72976912 -0.53589833 0.89825858 3 6 6
-0.72880241 -0.53486669 0.90589386 98 154 176
-0.72910618 -0.32709469 1.99331337 76 107 138
-0.72664213 -0.30805009 1.97364028 76 106 139
-0.73609387 -0.31089343 1.98456271 77 107 139
-0.72415720 -0.28163552 1.93286115 79 104 136
-0.72927190 -0.28728277 1.94846462 81 106 138
-0.72862408 -0.29688044 1.96747038 83 105 140
-0.73043172 -0.26107906 1.83532401 58 72 107
-0.72494374 -0.27293074 1.89560620 64 86 123
-0.73523859 -0.27371477 1.90105164 63 87 118
-0.72963675 -0.24897338 1.77175144 59 72 105
-0.73266107 -0.22717175 1.65737696 56 74 100
-0.72292204 -0.22771250 1.66132212 59 74 105
-0.73134518 -0.23848185 1.71822517 60 69 104
-0.72988836 -0.20723671 1.55105457 61 75 106
-0.72967957 -0.21785633 1.60971294 62 75 105
-0.73007355 -0.18125006 1.43058434 60 75 103
-0.73089672 -0.18709830 1.45686882 61 77 104
-0.73024127 -0.19310317 1.48365869 60 79 105
-0.73017354 -0.19950194 1.51273310 60 77 107
-0.72995620 -0.16123069 1.34602482 57 73 100
-0.73008041 -0.16623361 1.36805100 56 74 101
-0.73148659 -0.17113832 1.38866244 57 73 103
-0.72950015 -0.17595358 1.40798794 62 75 104
-0.73039163 -0.14333509 1.26992239 54 65 98
-0.72999004 -0.14744491 1.28663184 55 67 100
-0.72954982 -0.15189265 1.30574969 57 70 99
-0.73024215 -0.15647295 1.32543057 58 71 99
-0.73046414 -0.12004548 1.19127916 54 65 92
-0.73020119 -0.12467771 1.20617185 56 64 97
-0.73053767 -0.13095666 1.22650151 56 66 97
-0.72982747 -0.13787420 1.24963414 54 66 97
-0.73008635 -0.10146133 1.13373706 56 64 90
-0.73011671 -0.10696358 1.15020064 54 65 95
-0.73029168 -0.11265328 1.16796603 53 66 93
-0.72960287 -0.11702240 1.18154538 53 66 90
-0.72949041 -0.08401680 1.09137126 52 62 87
-0.73093234 -0.09203033 1.10940058 55 62 87
-0.72950740 -0.09765627 1.12322330 56 63 92
-0.72971426 -0.06027677 1.01667429 74 99 136
-0.73021551 -0.06396409 1.03358547 74 101 138
-0.72830601 -0.06829769 1.05276176 63 78 117
-0.72995411 -0.07402825 1.07091236 54 59 86
-0.73167700 -0.07887663 1.08163140 53 60 85
-0.73104056 -0.04094627 0.95789137 113 137 158
-0.72962975 -0.04634495 0.96979241 112 139 163
-0.73027747 -0.05353431 0.99024484 98 130 161
-0.73031853 -0.05794018 1.00660912 94 127 159
-0.73008377 -0.02466591 0.93534764 104 125 141
-0.72984802 -0.03408873 0.94682580 114 136 155
-0.73016879 -0.00206871 0.91884484 149 159 160
-0.72994786 -0.01251324 0.92533194 112 122 134
-0.72991026 0.01053032 0.91334030 105 115 121
-0.72991491 0.03012439 0.90717479 100 109 113
-0.72998002 0.04952009 0.90296063 104 110 113
-0.73005496 0.07334603 0.89902416 81 92 104
-0.73027250 0.06339546 0.90055056 103 110 114
-0.73000748 0.08944616 0.89695682 57 69 92
-0.73004542 0.10937479 0.89510225 54 64 86
-0.72993576 0.13002578 0.89363243 48 57 76
-0.73001755 0.15069982 0.89244891 40 47 65
-0.72995229 0.17057135 0.89149994 36 42 55
-0.73012025 0.19043047 0.89069243 32 34 46
-0.72955088 0.21027991 0.88999781 31 31 40
-0.73040871 0.23007522 0.88938966 29 30 38
-0.73014638 0.24995291 0.88885008 28 28 37
-0.72974798 0.26977770 0.88836506 28 28 36
-0.72951626 0.28969569 0.88793003 27 27 35
-0.73054872 0.30936145 0.88754922 27 27 35
-0.73031625 0.32999176 0.88719005 28 28 36
-0.73005327 0.35056701 0.88687056 28 27 36
-0.72982770 0.37038007 0.88659652 29 29 36
-0.72962539 0.39019327 0.88635074 30 30 37
-0.72943553 0.41000237 0.88612009 31 30 39
-0.72979614 0.42989721 0.88590607 31 31 38
-0.73063087 0.44961678 0.88571247 32 32 39
-0.73048572 0.46942500 0.88553650 32 31 40
-0.73035320 0.48999891 0.88537586 32 32 40
-0.73028232 0.50219288 0.88528994 32 31 40
-0.70844865 -1.02615731 1.94941813 100 136 151
-0.71814834 -1.03442519 1.96673238 101 137 152
-0.70679455 -1.01371275 1.90853667 99 135 150
-0.70913838 -1.01685192 1.92383367 99 136 150
-0.71967152 -0.77044046 1.39600968 109 153 170
-0.71013007 -0.63479907 1.11870027 120 174 188
-0.71012399 -0.60248980 0.89654530 0 0 0
-0.71036070 -0.58951392 0.89684416 0 0 0
-0.71037726 -0.56958040 0.89724528 0 0 0
-0.70241965 -0.56613240 0.97395647 107 171 193
-0.71884704 -0.57798727 0.99435121 111 178 195
-0.70953440 -0.54977129 0.89776018 0 0 0
-0.71271568 -0.54762019 0.93446077 117 163 187
-0.71830290 -0.55320902 0.94609702 115 171 194
-0.71003632 -0.53540916 0.89839503 0 0 0
-0.71067291 -0.53290593 0.90380518 59 88 100
-0.70639884 -0.34733737 1.99109972 79 104 137
-0.70749655 -0.32773579 1.97304494 77 104 137
-0.71523648 -0.33319017 1.98697199 78 106 138
-0.70605001 -0.30854527 1.95301424 75 104 137
-0.71572643 -0.31162056 1.96541589 74 105 138
-0.70915734 -0.28480358 1.93166649 76 102 132
-0.71069496 -0.29362440 1.94835855 78 101 136
-0.71577710 -0.29917710 1.96023846 80 104 140
-0.71034630 -0.26127092 1.83667278 56 72 104
-0.70273819 -0.27006337 1.87569124 65 86 119
-0.71331628 -0.27162264 1.88652098 59 79 115
-0.70439478 -0.27910047 1.91546309 83 108 131
-0.71124997 -0.27984423 1.92056751 79 103 131
-0.70925494 -0.24934656 1.77440706 60 68 105
-0.71166829 -0.22871248 1.66861765 59 71 100
-0.70963287 -0.23816902 1.71597128 59 72 103
-0.71824057 -0.20813167 1.55775285 60 75 107
-0.70925321 -0.20865658 1.56168151 61 74 104
-0.70912846 -0.21795571 1.61044726 59 76 103
-0.71123220 -0.18148811 1.43246324 62 74 104
-0.71023957 -0.18663019 1.45322382 60 76 106
-0.70785448 -0.19224690 1.47707977 60 76 108
-0.71837648 -0.19267311 1.48035443 61 77 106
-0.70964534 -0.19924764 1.51080492 62 76 108
-0.70971288 -0.16165212 1.34954309 58 72 99
-0.70990669 -0.16621413 1.36789065 60 72 101
-0.71012630 -0.17090808 1.38679417 61 75 103
-0.70940754 -0.17610272 1.40918133 60 75 103
-0.70860437 -0.14295050 1.27166692 56 68 98
-0.71011520 -0.14816925 1.29295256 58 70 99
-0.70992340 -0.15252302 1.31116870 58 69 96
-0.70996386 -0.15705457 1.33035729 58 71 98
-0.71015374 -0.12159163 1.19540678 54 64 97
-0.71071873 -0.12693777 1.21207621 55 66 99
-0.70928409 -0.13226215 1.23002450 54 67 97
-0.71163687 -0.13757190 1.24964247 55 67 98
-0.71087863 -0.10153242 1.13274104 56 64 93
-0.70910365 -0.10679321 1.14836785 54 64 93
-0.71056298 -0.11256720 1.16707058 52 64 90
-0.70858714 -0.11782787 1.18374623 53 65 95
-0.71014185 -0.08434675 1.08878859 52 64 90
-0.71007540 -0.09251588 1.10807275 54 63 90
-0.70827668 -0.09794442 1.12246238 56 64 92
-0.71006154 -0.06024938 1.01621230 66 100 137
-0.71037714 -0.06384673 1.03237981 74 105 144
-0.71043178 -0.06881956 1.05323071 58 67 107
-0.70980675 -0.07546339 1.07130310 52 60 86
-0.71061220 -0.04018343 0.95665737 121 141 161
-0.70989054 -0.04569006 0.96850329 123 143 165
-0.70999396 -0.05359290 0.99042496 101 133 161
-0.70994178 -0.05791004 1.00608544 88 118 150
-0.71005398 -0.02483159 0.93574610 105 126 141
-0.71009446 -0.03407248 0.94700079 117 136 156
-0.71013938 -0.00202710 0.91893952 146 159 160
-0.71002623 -0.01250974 0.92552588 113 126 134
-0.70999997 0.01061710 0.91339057 102 114 120
-0.70990029 0.03009086 0.90723733 105 114 117
-0.70996477 0.04942071 0.90302370 113 120 121
-0.71003753 0.07334756 0.89913416 101 107 115
-0.71023812 0.06335168 0.90061964 116 124 124
-0.71000485 0.08947588 0.89707104 63 72 91
-0.71005376 0.10940237 0.89517769 53 60 81
-0.71006508 0.12947737 0.89372703 46 54 72
-0.70990235 0.15011048 0.89253310 39 45 58
-0.70995966 0.17058069 0.89154875 35 39 50
-0.71014355 0.19044029 0.89073839 33 34 43
-0.70958562 0.21028953 0.89003857 31 31 40
-0.71033529 0.23009341 0.88942503 28 30 38
-0.71019603 0.24996050 0.88887712 28 29 38
-0.70980251 0.26978361 0.88838457 27 27 35
-0.70944912 0.28960094 0.88794225 27 26 35
-0.71042742 0.30933505 0.88754985 27 26 34
-0.71037419 0.32998830 0.88718080 27 26 35
-0.71011267 0.35056052 0.88685418 27 27 35
-0.70988918 0.37037110 0.88657505 27 27 35
-0.70968976 0.39018237 0.88632599 29 28 37
-0.70950271 0.40998954 0.88609237 29 29 37
-0.70945426 0.42989277 0.88587532 30 30 38
-0.71045783 0.44944245 0.88568282 31 31 38
-0.71056330 0.46940856 0.88550548 31 31 39
-0.71043609 0.48998292 0.88534695 31 31 40
-0.71037078 0.50217906 0.88526558 10 10 13
-0.68987098 -1.04483134 1.99306703 107 139 146
-0.69490471 -1.02521988 1.94923051 103 136 150
-0.68970606 -1.03255678 1.96318003 103 136 148
-0.69287640 -1.00293801 1.89751107 100 136 150
-0.69375374 -1.00494592 1.90442568 100 137 151
-0.68783215 -0.99185713 1.87044203 99 136 150
-0.68140951 -0.99891683 1.89300025 103 137 150
-0.69634023 -0.97783613 1.82908690 106 140 151
-0.69817997 -0.93277128 1.73916817 109 142 154
-0.69368158 -0.89423350 1.65663624 106 144 158
-0.69574884 -0.80239819 1.46770573 103 150 166
-0.69542529 -0.72494039 1.30946422 105 155 177
-0.68726852 -0.69383480 1.24937737 108 158 177
-0.69013217 -0.60262340 0.89674411 0 0 0
-0.69036140 -0.58964392 0.89704198 0 0 0
-0.68272917 -0.58558688 1.02262938 118 178 199
-0.69033335 -0.56976001 0.89747084 0 0 0
-0.69599832 -0.56333922 0.97204155 117 177 198
-0.68956762 -0.54993493 0.89802749 0 0 0
-0.68325077 -0.55200570 0.94965333 93 149 168
-0.69002546 -0.53411433 0.89874115 3 4 5
-0.68639155 -0.53388866 0.91238684 91 140 159
-0.69016458 -0.36377958 1.99556476 83 104 138
-0.68180643 -0.34317752 1.95998108 83 106 139
-0.68869364 -0.34815851 1.97325039 81 103 138
-0.69235622 -0.35534864 1.98538169 83 104 141
-0.68148371 -0.32622897 1.93977714 77 105 138
-0.68847676 -0.32907177 1.95220746 78 104 138
-0.69549207 -0.33389575 1.96514785 79 104 138
-0.68098827 -0.30290944 1.91948009 79 100 140
-0.68745799 -0.30923357 1.93257776 77 103 137
-0.69732497 -0.31025616 1.94469237 76 103 137
-0.68521047 -0.28454416 1.91643584 75 101 134
-0.69292371 -0.29214543 1.93003338 77 102 137
-0.69838098 -0.29611086 1.94014812 78 102 138
-0.69619441 -0.26013733 1.82870388 57 74 112
-0.68123453 -0.26735063 1.85685027 65 83 109
-0.69028106 -0.26837050 1.86393368 65 85 114
-0.68932848 -0.27769551 1.90582089 78 101 127
-0.69006051 -0.24961103 1.77628911 60 69 99
-0.68143724 -0.25813912 1.81465697 58 74 109
-0.68911575 -0.25925728 1.82251740 54 70 106
-0.68962815 -0.22857274 1.66759816 59 73 101
-0.69246834 -0.23838878 1.71755459 59 68 100
-0.68252418 -0.23906423 1.72242113 59 66 99
-0.68895931 -0.20006361 1.51699201 63 75 105
-0.69075238 -0.20877590 1.56257454 60 76 102
-0.69665181 -0.21884408 1.61701131 58 75 102
-0.68730944 -0.21943028 1.62134271 60 73 101
-0.69085724 -0.18069104 1.42617207 60 74 104
-0.69008809 -0.18593876 1.44783993 61 75 108
-0.69018160 -0.19230435 1.47752115 60 77 107
-0.69846827 -0.19978367 1.51486939 62 75 104
-0.68912608 -0.16147405 1.34805650 57 73 102
-0.69084957 -0.16618093 1.36761743 57 74 101
-0.69033858 -0.17105270 1.38796766 56 73 99
-0.69005513 -0.17582361 1.40694791 58 73 103
-0.69159926 -0.14159909 1.26836956 60 71 101
-0.68842328 -0.14712204 1.29106034 59 70 98
-0.69119202 -0.15289036 1.31432655 61 69 99
-0.68955492 -0.15711770 1.33089207 58 71 101
-0.69235955 -0.12283334 1.19838979 55 67 98
-0.68833726 -0.12543896 1.20811042 57 69 98
-0.68986079 -0.13129038 1.22903298 56 70 98
-0.69051330 -0.13669927 1.24939545 59 71 101
-0.69030214 -0.10263844 1.13538448 54 66 94
-0.68941286 -0.10693430 1.14880393 51 66 93
-0.69035398 -0.11397495 1.17031871 53 67 95
-0.68962649 -0.11974793 1.18832639 55 66 98
-0.68933201 -0.08072592 1.07858976 52 66 92
-0.68935813 -0.08591611 1.09025522 53 65 92
-0.69049697 -0.09405202 1.11086127 53 65 95
-0.69023281 -0.09972927 1.12669248 55 65 95
-0.69029053 -0.06021008 1.01554945 62 94 137
-0.69049342 -0.06384167 1.03161341 80 109 150
-0.68995091 -0.06868298 1.05114709 54 68 106
-0.68982197 -0.07536755 1.06822600 53 61 89
-0.68943176 -0.04043910 0.95710132 110 134 155
-0.69043593 -0.04580809 0.96852933 120 143 165
-0.68977480 -0.05355144 0.98965989 98 134 164
-0.69029349 -0.05786643 1.00532791 78 117 154
-0.68988845 -0.02467376 0.93564719 108 128 141
-0.68991193 -0.03395702 0.94683001 120 139 160
-0.69009584 -0.00211100 0.91907639 141 154 154
-0.69001487 -0.01242700 0.92555451 120 130 138
-0.68997842 0.01058941 0.91350642 106 120 124
-0.68997382 0.03012419 0.90731470 110 118 122
-0.68996224 0.04944253 0.90308267 119 124 125
-0.69008738 0.07342921 0.89920040 116 121 122
-0.68989120 0.06342525 0.90065997 131 137 135
-0.68998378 0.08946743 0.89717163 71 79 91
-0.69010705 0.10941912 0.89523949 49 56 72
-0.68993881 0.12927992 0.89379250 42 49 64
-0.69001818 0.14995130 0.89258638 38 42 55
-0.68995787 0.17058830 0.89158855 35 38 48
-0.69015783 0.19044819 0.89077538 32 34 43
-0.68961079 0.21029678 0.89006931 31 32 40
-0.69025214 0.23010887 0.88944989 30 30 39
-0.69023774 0.24996566 0.88889549 28 29 37
-0.68985013 0.26978717 0.88839631 28 27 36
-0.68949976 0.28960184 0.88794508 26 26 34
-0.69018666 0.30936001 0.88754333 25 25 34
-0.69042901 0.32998316 0.88716702 26 26 34
-0.69017047 0.35055285 0.88683479 26 26 34
-0.68995075 0.37036165 0.88655246 27 26 34
-0.68975491 0.39017128 0.88630081 27 27 35
-0.68957137 0.40997686 0.88606497 28 28 36
-0.68940255 0.42978105 0.88584805 29 29 35
-0.68984676 0.44968991 0.88565207 30 29 37
-0.69064583 0.46939453 0.88547901 31 30 38
-0.69052393 0.48996952 0.88532273 26 26 33
-0.69046230 0.50216665 0.88524371 0 0 0
-0.67847509 -1.02583736 1.95040452 103 137 146
-0.67141784 -1.02854772 1.97176206 106 134 143
-0.66322148 -1.02712519 1.98547649 101 130 142
-0.67691713 -1.00195328 1.89875448 106 137 151
-0.67238021 -1.00993868 1.91388723 101 135 148
-0.66884863 -1.01407462 1.92593559 103 137 146
-0.66671433 -1.01994601 1.94559705 106 138 145
-0.67903311 -0.98451175 1.85961080 100 138 152
-0.67832163 -0.99918789 1.89351392 104 138 151
-0.66756167 -0.96646477 1.81958199 99 138 152
-0.66641266 -0.97777822 1.84689206 100 137 149
-0.66590624 -0.95372581 1.78977394 102 136 150
-0.66565976 -0.79774719 1.46848369 111 144 162
-0.66776870 -0.77618453 1.42425990 105 148 166
-0.66735569 -0.71683743 1.29888296 107 152 172
-0.67011458 -0.60274189 0.89692043 0 0 0
-0.67033530 -0.58975819 0.89721582 0 0 0
-0.67295067 -0.59529156 1.04589081 119 176 193
-0.67036738 -0.56991346 0.89765443 0 0 0
-0.67664556 -0.57202502 0.99295163 86 163 185
-0.67976052 -0.57439110 1.00005925 112 177 199
-0.66951452 -0.55003769 0.89819505 0 0 0
-0.67501820 -0.54768003 0.94502163 122 177 197
-0.66971764 -0.53332829 0.89885955 0 0 0
-0.66847804 -0.52805035 0.90413982 71 110 125
-0.66457763 -0.53936192 0.92928469 104 151 168
-0.66678582 -0.38654795 1.99441348 80 101 136
-0.66479888 -0.36683544 1.97486726 73 103 135
-0.67282695 -0.37188954 1.98850611 78 104 136
-0.66697455 -0.34700521 1.95183305 80 101 137
-0.67373856 -0.35373621 1.96752753 81 101 137
-0.66196082 -0.32163034 1.91243339 78 106 134
-0.67013997 -0.32896811 1.93079278 79 103 136
-0.67175948 -0.33812930 1.94395522 79 102 136
-0.66199568 -0.30374165 1.89362258 79 100 137
-0.66953649 -0.30984454 1.90994406 79 101 137
-0.67550257 -0.31561381 1.92275500 79 104 136
-0.66502548 -0.29054564 1.89293041 78 102 138
-0.67552217 -0.29035663 1.90828945 77 103 138
-0.66885100 -0.26625068 1.84921072 64 82 107
-0.66350539 -0.27383957 1.87935758 83 99 129
-0.66938500 -0.27722686 1.89137870 77 98 128
-0.66385256 -0.24728403 1.75972962 56 70 106
-0.67288196 -0.24836979 1.76745613 53 68 101
-0.66275452 -0.25577081 1.79800832 58 70 104
-0.67174981 -0.25683194 1.80546776 55 71 106
-0.66977139 -0.22918082 1.67203450 57 67 100
-0.66987095 -0.23932798 1.72432144 57 69 97
-0.67093033 -0.20975804 1.56992533 60 76 104
-0.66647331 -0.21902894 1.61837723 60 72 101
-0.67724013 -0.21934538 1.62071538 60 73 102
-0.67057986 -0.18021193 1.42239049 61 75 107
-0.67023417 -0.18598550 1.44820385 60 77 107
-0.67019815 -0.19243007 1.47848712 66 76 106
-0.66974143 -0.19980576 1.51503685 60 76 104
-0.67049632 -0.16147595 1.34807239 56 72 100
-0.66899786 -0.16683311 1.36862493 55 73 98
-0.66881279 -0.17239489 1.39013676 58 74 100
-0.67537778 -0.17517132 1.40172818 60 76 101
-0.67041777 -0.14099054 1.26857644 59 68 98
-0.66997656 -0.14659713 1.28947654 60 68 98
-0.67013776 -0.15275131 1.31313117 57 70 102
-0.66967808 -0.15704252 1.33025522 58 71 102
-0.66813592 -0.12013099 1.19212766 56 70 98
-0.67005199 -0.12493142 1.20862058 57 72 95
-0.67096652 -0.13122081 1.23087706 59 71 98
-0.66873334 -0.13625247 1.25054005 60 70 100
-0.67005980 -0.10254308 1.13432952 56 67 93
-0.67084730 -0.10779666 1.15005771 55 68 96
-0.66949163 -0.11353575 1.16909026 55 66 97
-0.67007144 -0.11753733 1.18296727 54 66 100
-0.66982968 -0.08062252 1.07720823 55 66 92
-0.67021032 -0.08624653 1.09016495 55 65 90
-0.67007125 -0.09463499 1.11207315 54 65 92
-0.67099934 -0.09947794 1.12551159 54 65 92
-0.67049271 -0.06016606 1.01480693 59 92 133
-0.67014618 -0.06377192 1.03048572 78 109 146
-0.66956779 -0.06963985 1.05269980 51 66 97
-0.67010994 -0.07630042 1.06875923 53 65 89
-0.67023351 -0.04107050 0.95803106 114 137 155
-0.67002857 -0.04660881 0.96973971 114 138 161
-0.67019442 -0.05345241 0.98875373 104 135 165
-0.66995315 -0.05783559 1.00479203 83 114 152
-0.66994781 -0.02475230 0.93566435 112 128 141
-0.66974781 -0.03405495 0.94682442 116 139 157
-0.66999923 -0.00206927 0.91909180 138 144 149
-0.67009490 -0.01253680 0.92562309 126 135 141
-0.66998643 0.01051407 0.91359819 112 121 130
-0.67002956 0.03006542 0.90740051 117 124 126
-0.66995414 0.04946419 0.90313757 119 125 124
-0.67013535 0.07417967 0.89916687 126 130 129
-0.66975424 0.06412860 0.90060476 136 139 137
-0.66996557 0.08950570 0.89727735 86 95 102
-0.67010452 0.10940049 0.89531383 49 56 70
-0.66995004 0.12930476 0.89383711 40 46 61
-0.66998824 0.14995709 0.89262097 39 41 51
-0.67000607 0.17059399 0.89161837 36 37 48
-0.67016162 0.19045358 0.89080064 33 34 43
-0.66962575 0.21030126 0.89008833 31 32 40
-0.67021851 0.23013903 0.88946164 30 30 39
-0.67026966 0.24996747 0.88890197 30 29 38
-0.66988934 0.26978755 0.88839760 27 27 35
-0.66954421 0.28960013 0.88793987 26 26 35
-0.66994421 0.30941803 0.88753057 26 26 35
-0.67048214 0.32997689 0.88715019 26 25 34
-0.67022796 0.35054457 0.88681386 26 26 34
-0.67001224 0.37035161 0.88652842 27 26 34
-0.66982103 0.39016011 0.88627542 26 26 34
-0.66964245 0.40996490 0.88603913 27 27 35
-0.66947879 0.42976870 0.88582258 28 28 35
-0.66939490 0.44962804 0.88562821 29 28 37
-0.67025005 0.46921089 0.88545879 30 29 38
-0.67061786 0.48995978 0.88530512 19 19 24
-0.67055665 0.50215565 0.88522432 0 0 0
-0.65143811 -1.02152191 1.98794536 102 132 146
-0.65563267 -1.00378269 1.90849298 105 136 146
-0.65147719 -1.00527860 1.93035781 110 137 147
-0.64401167 -1.00708076 1.95327115 102 132 146
-0.65902622 -0.98343469 1.85757637 103 137 150
-0.65189879 -0.98855388 1.86847291 99 135 147
-0.65175153 -0.99946743 1.89715505 104 137 147
-0.64979809 -0.97920441 1.84958595 102 137 150
-0.64848074 -0.94328425 1.77593958 98 139 152
-0.65431700 -0.92301553 1.72654247 105 140 150
-0.64194816 -0.86135391 1.60600924 105 140 153
-0.64913868 -0.64128526 1.14760876 115 160 187
-0.65007881 -0.60285087 0.89708261 0 0 0
-0.65028963 -0.58986185 0.89737351 0 0 0
-0.65865886 -0.58421842 1.02643597 114 175 192
-0.64039899 -0.59214547 1.99994016 87 112 135
-0.65049662 -0.57007947 0.89781304 0 0 0
-0.64795981 -0.57705757 1.01385480 114 175 192
-0.64942195 -0.55011354 0.89831872 0 0 0
-0.65513373 -0.54175981 0.93760258 113 175 196
-0.64137887 -0.54542577 0.94962838 117 176 199
-0.65280862 -0.55302325 0.96285617 116 178 201
-0.64983030 -0.53258520 0.89898196 0 0 0
-0.64929867 -0.52636659 0.90393916 29 45 50
-0.65336334 -0.53594330 0.92476990 97 146 164
-0.64033257 -0.52641291 1.99973273 86 111 136
-0.64223560 -0.46307811 1.99490774 80 107 136
-0.64110144 -0.45537923 1.99138482 84 107 134
-0.64523502 -0.43128956 1.99139018 79 103 132
-0.64414265 -0.40733226 1.97537558 82 102 137
-0.65293886 -0.41064649 1.99148345 82 101 135
-0.64030558 -0.38670457 1.95738626 78 101 135
-0.64909402 -0.38759538 1.97149821 79 101 135
-0.65646511 -0.39317646 1.98579884 80 101 135
-0.64852306 -0.36687164 1.95537202 75 101 133
-0.65345470 -0.37392186 1.96845579 79 102 133
-0.64765943 -0.34722964 1.93222271 79 101 135
-0.65130492 -0.35481081 1.94575880 74 103 136
-0.64437239 -0.32192703 1.89472491 81 104 134
-0.65007948 -0.32974184 1.91151694 78 104 135
-0.65575158 -0.33761034 1.92818540 77 105 138
-0.64396315 -0.30633431 1.87542441 79 99 136
-0.65178260 -0.31174967 1.89057508 81 100 136
-0.65890834 -0.31685697 1.90361464 81 105 136
-0.64337021 -0.28529046 1.85872430 76 102 137
-0.64894911 -0.29140138 1.86888752 79 101 137
-0.65795791 -0.28985159 1.88207262 79 103 138
-0.65026630 -0.26389702 1.83286365 68 77 111
-0.64265432 -0.27435562 1.85357682 75 99 132
-0.65149299 -0.27544133 1.86818673 76 98 132
-0.64112512 -0.24441729 1.73932922 54 69 101
-0.65185259 -0.24562447 1.74791980 52 68 101
-0.65020552 -0.25450419 1.78910429 60 71 99
-0.64342347 -0.22023564 1.62729341 57 70 106
-0.65008627 -0.22987793 1.67712045 55 69 98
-0.64907650 -0.23771545 1.71270339 53 68 95
-0.65792051 -0.23877798 1.72035873 53 69 95
-0.65402149 -0.20020447 1.51806013 58 77 104
-0.64589861 -0.20053350 1.52055502 60 75 105
-0.64925031 -0.20976245 1.56995836 60 73 102
-0.65835475 -0.21912012 1.61905098 60 71 101
-0.65138221 -0.21960132 1.62260649 56 69 101
-0.65570124 -0.18017660 1.42211160 60 76 107
-0.64955892 -0.18544053 1.44396038 63 75 102
-0.64939322 -0.19194677 1.47477384 59 76 105
-0.65836511 -0.19992958 1.51597571 58 78 105
-0.64906958 -0.16278818 1.34997984 55 72 99
-0.65123008 -0.16890460 1.37435609 59 74 99
-0.64962751 -0.17476169 1.39845037 59 72 103
-0.64302655 -0.17972551 1.41855121 56 75 101
-0.64887090 -0.17998672 1.42061293 58 76 103
-0.64924807 -0.14091588 1.26790468 60 69 96
-0.65025809 -0.14666649 1.28950680 57 70 95
-0.65065733 -0.15270641 1.31274521 56 71 100
-0.64992836 -0.15671399 1.32747235 54 71 99
-0.64981602 -0.12036376 1.19443763 51 70 97
-0.65096512 -0.12511684 1.21153890 54 71 102
-0.64927283 -0.12989212 1.22923013 59 69 103
-0.65003396 -0.13553136 1.24905817 61 69 100
-0.64942009 -0.10253588 1.13424994 54 65 93
-0.65029522 -0.10675259 1.14792744 58 67 96
-0.65023799 -0.11260049 1.16741354 56 69 100
-0.64979474 -0.11717819 1.18311828 52 69 98
-0.64973817 -0.08055555 1.07631346 54 66 94
-0.65016027 -0.08637672 1.09011391 52 65 95
-0.64982109 -0.09472225 1.11148305 54 66 91
-0.64952766 -0.09983833 1.12593729 56 66 93
-0.65041053 -0.06009331 1.01357990 62 99 141
-0.65026640 -0.06374408 1.03003358 82 110 151
-0.65054315 -0.06965578 1.05206349 50 64 94
-0.64979007 -0.07619196 1.06724124 53 66 91
-0.65013661 -0.04105620 0.95769785 113 134 158
-0.64996597 -0.04650013 0.96899734 118 140 162
-0.65005445 -0.05353273 0.98841270 106 132 166
-0.64931275 -0.05777606 1.00375777 67 105 142
-0.64998205 -0.02472290 0.93553477 107 129 144
-0.64997239 -0.03404761 0.94662410 120 138 158
-0.64988471 -0.00202739 0.91908240 126 133 134
-0.65013664 -0.01241287 0.92548070 132 141 147
-0.65004130 0.01061022 0.91361084 115 124 128
-0.65000847 0.03012313 0.90744411 123 128 128
-0.65000070 0.04953229 0.90317910 125 130 130
-0.65008457 0.07413349 0.89923512 135 136 134
-0.64981209 0.06405144 0.90067174 138 140 137
-0.64999176 0.08952430 0.89737040 99 106 109
-0.65010587 0.10944670 0.89539122 57 63 76
-0.64995369 0.12930127 0.89387695 41 47 61
-0.64994862 0.14996101 0.89264441 39 42 53
-0.65004265 0.17059700 0.89163409 36 38 48
-0.65015445 0.19045608 0.89081242 33 35 44
-0.64963079 0.21030281 0.89009492 31 31 40
-0.65017230 0.23012093 0.88946164 30 31 39
-0.65029186 0.24996566 0.88889556 30 30 38
-0.64991971 0.26978428 0.88838685 28 28 36
-0.64958264 0.28959564 0.88792611 27 27 36
-0.64975561 0.30944769 0.88751274 26 26 34
-0.65053420 0.32996970 0.88713086 26 25 33
-0.65028643 0.35053631 0.88679298 28 28 34
-0.65007594 0.37034221 0.88650594 29 28 35
-0.64989009 0.39015001 0.88625248 29 28 36
-0.64971704 0.40995443 0.88601650 28 28 35
-0.64955924 0.42975839 0.88580133 28 27 35
-0.64941886 0.44956472 0.88560989 28 28 37
-0.64960210 0.46954978 0.88544001 29 29 37
-0.65027004 0.48976315 0.88529903 13 13 16
-0.65066455 0.50215444 0.88522219 0 0 0
-0.63913137 -1.00735966 1.95379674 101 132 147
-0.63607067 -1.00644952 1.96520746 102 133 147
-0.62916877 -1.00855931 1.98271286 100 133 143
-0.63397686 -0.98120836 1.85944176 103 137 149
-0.63839478 -0.98569123 1.87716419 109 139 147
-0.63560165 -0.98583053 1.89301415 103 130 143
-0.63401886 -0.99216698 1.91790080 102 132 146
-0.62573908 -0.99168308 1.92987462 101 132 146
-0.62293813 -0.99833720 1.95596850 101 132 146
-0.62542357 -0.96956245 1.83437407 103 136 150
-0.62712869 -0.97157020 1.84876618 105 135 147
