ply
format ascii 1.0
element vertex 1086
property float x
property float y
property float z
property uchar red
property uchar green
property uchar blue
end_header
0.35043377 -0.47016807 1.02533136 92 111 126
0.35058319 -0.44997946 1.02576846 90 111 127
0.35028843 -0.42953583 1.02614161 88 110 128
0.34991447 -0.41034384 1.02640766 89 109 127
0.34995336 -0.38998634 1.02652329 88 107 125
0.34995520 -0.36958436 1.02652884 86 107 125
0.34995520 -0.35006737 1.02652884 85 106 124
0.34995520 -0.33055038 1.02652884 85 104 124
0.34995520 -0.31014625 1.02652884 84 103 123
0.34995517 -0.28974209 1.02652873 83 101 122
0.34993992 -0.27021344 1.02648362 81 100 122
0.34985077 -0.25063375 1.02622203 81 99 121
0.35038132 -0.23033450 1.02587162 79 98 121
0.35046520 -0.20967503 1.02542543 79 97 120
0.35027249 -0.19007479 1.02486175 79 98 120
0.34998913 -0.17045186 1.02403243 80 97 120
0.34990543 -0.14963621 1.02243962 67 77 95
0.34987341 -0.12937210 1.02111190 53 57 66
0.35027684 -0.11005937 1.02046296 52 56 65
0.35050414 -0.08892199 1.01977547 52 56 67
0.34927625 -0.09852184 1.02004618 52 57 66
0.35012811 -0.07012224 1.01928455 51 55 65
0.34994146 -0.04963249 1.01799876 63 68 79
0.34997976 -0.03020144 1.01074997 121 128 140
0.34998014 -0.00472273 0.99747096 111 123 134
0.34998690 -0.01521230 1.00287330 117 126 137
0.34994615 0.01068208 0.98966740 124 132 141
0.35001035 0.03495169 0.97715155 128 134 143
0.34999814 0.02500927 0.98229846 123 128 136
0.35006800 0.05056687 0.96913620 140 143 147
0.35013284 0.07397660 0.95735861 137 140 144
0.34997464 0.06435493 0.96219412 140 145 149
0.34996057 0.08975375 0.94934772 133 139 145
0.35000316 0.11371089 0.93698446 109 117 127
0.35002804 0.10370473 0.94220772 114 122 135
0.35000498 0.13026266 0.92819080 115 121 131
0.35002530 0.15239250 0.91614898 132 138 143
0.34993737 0.14284463 0.92137139 124 131 137
0.35000207 0.16955669 0.90633634 154 159 161
0.35009442 0.19044348 0.89446644 143 147 151
0.34974103 0.18005072 0.90036756 150 154 157
0.35018387 0.21740636 0.87856808 127 131 133
0.34993716 0.20742143 0.88442186 147 152 153
0.34995213 0.22979577 0.87083661 153 157 157
0.34972828 0.25368595 0.85580663 150 155 154
0.35016600 0.24373393 0.86244922 139 142 142
0.35023514 0.27878587 0.83913423 151 157 154
0.34996708 0.26880288 0.84641734 146 150 150
0.35003587 0.29011627 0.83243077 135 139 139
0.34997208 0.31516908 0.81688707 134 137 136
0.35003090 0.30542258 0.82297736 139 142 141
0.34999275 0.32979738 0.80786238 151 155 154
0.34993050 0.35025428 0.79191242 0 0 0
0.35157521 0.34044591 0.80085920 109 111 107
0.35027244 0.37565618 0.77794318 0 0 0
0.34979424 0.36589251 0.78287582 0 0 0
0.35006194 0.38986703 0.77045932 0 0 0
0.35023000 0.41467619 0.75708193 0 0 0
0.34964748 0.40453288 0.76248667 0 0 0
0.34994738 0.42354790 0.75240955 0 0 0
0.37006447 -0.58560203 0.87595765 0 0 0
0.37756266 -0.58663095 0.98960954 87 119 123
0.36910749 -0.59551326 1.01513926 93 119 128
0.37092627 -0.58827071 1.02158505 93 117 126
0.36973780 -0.57398878 0.87862703 0 0 0
0.37072521 -0.56399318 0.88093006 0 0 0
0.36575422 -0.56519611 0.95161909 78 107 111
0.37244828 -0.57536046 0.96965814 87 119 122
0.36275802 -0.57925868 0.98193944 88 121 124
0.37003473 -0.57000104 1.02313596 95 117 125
0.36990188 -0.54984018 0.88444821 0 0 0
0.37191872 -0.54676996 0.90954058 43 53 62
0.36851939 -0.55875392 0.93620827 60 85 87
0.36947821 -0.55013274 1.02408399 92 115 127
0.36798079 -0.53785962 0.88848785 2 3 3
0.36958621 -0.52993272 1.02438374 92 114 125
0.36975189 -0.50979979 1.02484326 91 113 125
0.36991720 -0.48964797 1.02530143 90 112 124
0.37008058 -0.47036205 1.02575440 89 110 125
0.37023725 -0.45016380 1.02618880 91 110 124
0.37034415 -0.42989152 1.02648608 89 109 126
0.37035932 -0.41039260 1.02652880 86 108 125
0.37035933 -0.38998849 1.02652884 88 107 123
0.37035933 -0.36958436 1.02652884 85 106 125
0.37035933 -0.35006737 1.02652884 85 105 123
0.37035933 -0.33055038 1.02652884 85 104 124
0.37035933 -0.31014625 1.02652884 81 102 122
0.37035933 -0.28974212 1.02652884 82 101 121
0.37035549 -0.27022238 1.02651811 81 101 122
0.37026554 -0.25064523 1.02626872 81 99 120
0.37011051 -0.23015007 1.02583938 79 98 120
0.36993816 -0.20966205 1.02536185 78 97 118
0.36973114 -0.19006114 1.02478806 79 96 121
0.36977328 -0.17024202 1.02396326 80 96 122
0.37020025 -0.15010141 1.02246825 67 77 92
0.37018256 -0.12937652 1.02114679 51 57 64
0.36993431 -0.10988862 1.02046214 51 55 63
0.36951874 -0.08883506 1.01974912 51 57 65
0.37057340 -0.09846987 1.02003651 53 56 65
0.36979587 -0.06991076 1.01922314 50 55 64
0.37015597 -0.04996766 1.01802672 61 66 77
0.36999707 -0.03027892 1.01059057 122 130 140
0.37003055 -0.00484682 0.99735691 114 121 136
0.37014640 -0.01530943 1.00274630 122 131 139
0.36992336 0.01062549 0.98955732 116 124 136
0.36986488 0.03498690 0.97700268 129 137 144
0.36997932 0.02497723 0.98217368 127 133 141
0.37012781 0.05056123 0.96902838 140 144 148
0.37007193 0.07395053 0.95727353 133 139 144
0.36989362 0.06434833 0.96209544 140 144 147
0.36999794 0.08975553 0.94925888 131 138 144
0.37012492 0.11365240 0.93697056 114 121 133
0.37003799 0.10372389 0.94214044 114 121 133
0.36997115 0.13027177 0.92810074 115 123 132
0.36993916 0.15228458 0.91610492 147 152 154
0.37008982 0.14287469 0.92128790 110 117 129
0.36992935 0.16947347 0.90640915 150 155 158
0.37006675 0.19048065 0.89440254 154 158 159
0.37000401 0.18006598 0.90044389 146 149 151
0.37003260 0.21739503 0.87834881 150 158 158
0.36993611 0.20746953 0.88435721 146 151 152
0.36999531 0.22982646 0.87075193 136 140 142
0.36994304 0.25333991 0.85618109 144 149 149
0.37011228 0.24331743 0.86261386 140 144 148
0.36857522 0.27917891 0.83936357 151 157 156
0.37022506 0.26917566 0.84628624 138 142 142
0.36999677 0.29026184 0.83230905 144 149 149
0.37018285 0.31459960 0.81693077 141 144 144
0.36982679 0.30489273 0.82315740 141 145 144
0.36997429 0.32972040 0.80760787 131 135 136
0.37007473 0.35036861 0.79103840 2 2 2
0.36992610 0.34079924 0.80087642 129 134 134
0.37039821 0.37501405 0.77740564 0 0 0
0.36979643 0.36491480 0.78252422 0 0 0
0.36985060 0.39025258 0.76933395 0 0 0
0.37041773 0.41361375 0.75653545 0 0 0
0.36959883 0.40379579 0.76192754 0 0 0
0.36951393 0.42323446 0.75133887 0 0 0
0.38778563 -0.60209540 1.01827080 87 120 122
0.39259639 -0.60186533 1.02080512 90 119 125
0.39022633 -0.58548976 0.87673407 0 0 0
0.39438090 -0.58305017 0.97409634 86 114 125
0.38505366 -0.59081656 0.99569726 92 117 127
0.38690149 -0.59942540 1.01416012 91 120 125
0.39006982 -0.58985791 1.02238192 93 115 125
0.38923843 -0.57549565 0.87907117 0 0 0
0.39046565 -0.56555039 0.88139321 0 0 0
0.39389937 -0.56185034 0.92928666 56 77 84
0.38696622 -0.56973154 0.94980583 75 101 112
0.39071378 -0.56980287 1.02396229 90 116 122
0.38956412 -0.55063598 0.88591865 0 0 0
0.39396547 -0.54807876 0.90007523 29 40 41
0.38537440 -0.55640065 0.92423549 100 113 123
0.38983658 -0.55003938 1.02469775 91 114 126
0.38962196 -0.53042992 1.02496105 91 112 123
0.38942362 -0.51004444 1.02533479 91 112 124
0.38956949 -0.48984764 1.02571937 91 111 124
0.38993956 -0.47011558 1.02613790 89 110 122
0.38964619 -0.44990515 1.02647397 90 110 124
0.38987632 -0.42990961 1.02652884 89 108 126
0.38987632 -0.41039262 1.02652884 89 107 124
0.38987632 -0.38998849 1.02652884 87 107 124
0.38987632 -0.36958436 1.02652884 87 106 123
0.38987632 -0.35006737 1.02652884 86 105 124
0.38987632 -0.33055038 1.02652884 83 104 124
0.38987632 -0.31014625 1.02652884 82 102 121
0.38987632 -0.28974212 1.02652884 82 100 121
0.38987612 -0.27022499 1.02652829 83 99 121
0.38979542 -0.25065677 1.02631571 82 98 119
0.38961209 -0.23014877 1.02583307 79 98 119
0.38967075 -0.20948010 1.02531050 78 96 118
0.39007570 -0.19004894 1.02472235 78 96 120
0.39008371 -0.17063057 1.02394441 80 96 118
0.39009426 -0.14986802 1.02244955 64 74 89
0.38959905 -0.12937726 1.02115153 52 56 65
0.38998864 -0.10972348 1.02045265 51 54 64
0.38993765 -0.08865888 1.01972938 52 56 64
0.39005570 -0.09838186 1.02003795 53 56 65
0.38998967 -0.07031382 1.01914207 49 54 62
0.39018472 -0.04972357 1.01784997 61 66 76
0.39001389 -0.03018968 1.01036903 125 133 141
0.39009360 -0.00487137 0.99724272 116 127 137
0.39016013 -0.01521905 1.00254902 136 141 147
0.39003795 0.01055786 0.98945119 112 123 135
0.38985491 0.03496387 0.97692860 117 124 133
0.38997547 0.02494654 0.98209877 110 119 130
0.39006594 0.05062736 0.96893801 132 139 144
0.39002306 0.07394644 0.95721974 133 138 142
0.38998531 0.06436987 0.96200967 142 145 149
0.39003549 0.08971943 0.94920435 130 137 143
0.39003451 0.11371201 0.93685154 114 119 130
0.39003573 0.10374088 0.94205127 118 125 135
0.39004899 0.13024064 0.92803842 114 121 130
0.38987773 0.15230283 0.91606349 132 139 143
0.38996341 0.14278877 0.92128126 129 135 140
0.39000136 0.16949448 0.90636075 142 147 149
0.39010530 0.19046081 0.89454885 143 149 151
0.39023842 0.18006746 0.90045130 139 146 149
0.38996953 0.21743790 0.87834846 153 157 157
0.38993044 0.20740603 0.88435682 153 158 159
0.39002764 0.22981207 0.87067012 155 161 161
0.38993344 0.25334099 0.85622044 127 134 135
0.39003228 0.24324030 0.86243854 150 153 153
0.38875177 0.27926811 0.83951009 146 151 149
0.39003802 0.26916807 0.84612287 140 144 145
0.39002579 0.29022179 0.83247990 130 135 136
0.39014913 0.31472587 0.81646987 142 148 147
0.38995493 0.30467038 0.82286889 145 148 148
0.38981576 0.32992223 0.80715535 141 145 144
0.39002796 0.35017038 0.79060450 13 14 14
0.38999367 0.34079722 0.80087146 155 161 156
0.39011930 0.37430791 0.77693006 0 0 0
0.38980035 0.36399839 0.78221252 0 0 0
0.38998643 0.39012436 0.76847687 0 0 0
0.39013605 0.41274710 0.75588156 0 0 0
0.38953780 0.40269188 0.76152277 0 0 0
0.38995083 0.42296290 0.75019610 0 0 0
0.41070523 -0.60635592 1.01451451 92 116 127
0.41079953 -0.60492168 1.02188159 91 116 124
0.40996943 -0.58580959 0.87735199 0 0 0
0.41953234 -0.59152423 0.97976619 83 115 118
0.40979852 -0.59534680 0.99178634 89 112 126
0.40119297 -0.59779696 1.00162601 87 117 127
0.40989003 -0.59040920 1.02333567 93 114 123
0.40853102 -0.57765140 0.87944236 0 0 0
0.41058867 -0.56774148 0.88186061 0 0 0
0.41909255 -0.56034133 0.91244352 63 72 81
0.40997720 -0.56605921 0.92872671 48 64 68
0.40843663 -0.57598426 0.95199838 80 112 118
0.41044048 -0.56995199 1.02471120 92 114 124
0.40919154 -0.55344956 0.88662861 0 0 0
0.41509104 -0.55813972 0.90885848 27 31 35
0.41066208 -0.54988184 1.02526488 92 113 122
0.41041728 -0.52995054 1.02555151 89 112 125
0.40978435 -0.50994686 1.02584367 90 110 124
0.40997314 -0.49016840 1.02613354 90 110 123
0.40936079 -0.46979259 1.02644642 87 109 122
0.40939331 -0.44942659 1.02652882 88 108 125
0.40939331 -0.42990961 1.02652884 88 109 124
0.40939331 -0.41039262 1.02652884 87 108 123
0.40939331 -0.38998849 1.02652884 86 106 121
0.40939331 -0.36958436 1.02652884 87 105 124
0.40939331 -0.35006737 1.02652884 86 105 124
0.40939331 -0.33055038 1.02652884 84 103 122
0.40939331 -0.31014625 1.02652884 83 101 121
0.40939331 -0.28974212 1.02652884 83 101 119
0.40939331 -0.27022513 1.02652884 82 98 120
0.40989822 -0.25046757 1.02633526 79 98 118
0.41000111 -0.23014807 1.02582984 77 96 117
0.41001383 -0.20981324 1.02529473 78 95 117
0.41042886 -0.19004193 1.02468458 80 95 118
0.41011735 -0.17043070 1.02390682 79 95 118
0.40991983 -0.14964177 1.02244803 63 71 85
0.40991889 -0.12938444 1.02120783 50 55 65
0.41027021 -0.11006599 1.02052393 50 54 64
0.41021000 -0.08865968 1.01973775 52 55 63
0.41034692 -0.09838572 1.02007796 54 56 63
0.40994159 -0.07010771 1.01907077 50 53 61
0.40989273 -0.04964917 1.01772647 64 69 80
0.40995038 -0.03021198 1.01021340 129 137 145
0.41000874 -0.00478412 0.99708522 130 138 143
0.41019130 -0.01525570 1.00246537 140 146 153
0.41006795 0.01065335 0.98924675 118 127 135
0.40996737 0.03494137 0.97686562 119 128 138
0.40996134 0.02491547 0.98200600 110 121 131
0.41000273 0.05055595 0.96892786 137 142 148
0.40995761 0.07393965 0.95713276 137 140 143
0.41007499 0.06433880 0.96195313 147 151 156
0.41001444 0.08974411 0.94913407 131 137 142
0.40994292 0.11363471 0.93682546 109 118 127
0.41004173 0.10368518 0.94202573 105 114 125
0.40996207 0.13025081 0.92797814 112 121 131
0.40994039 0.15236708 0.91611197 129 136 141
0.41013610 0.14286383 0.92122469 107 122 129
0.41016331 0.16983438 0.90615436 145 149 151
0.41007179 0.19045942 0.89435893 157 161 161
0.40571140 0.18002705 0.90024919 151 160 161
0.41008643 0.21741428 0.87836847 143 146 147
0.40999636 0.20739951 0.88432832 151 156 157
0.41005979 0.22980799 0.87071173 156 161 160
0.40993509 0.25334851 0.85608202 153 159 159
0.41001221 0.24328702 0.86237355 146 149 150
0.41055910 0.27938466 0.83937924 135 141 143
0.40989967 0.26925960 0.84610069 134 139 141
0.40997331 0.29002613 0.83212411 137 143 143
0.41012271 0.31429314 0.81637124 121 125 125
0.40988280 0.30399345 0.82289068 140 143 142
0.40999757 0.33006947 0.80663768 140 146 145
0.41005591 0.35060037 0.79017348 24 25 25
0.40998742 0.34073247 0.80071913 152 155 153
0.41009890 0.37336043 0.77662503 0 0 0
0.40970173 0.36361846 0.78169273 0 0 0
0.41012302 0.39003486 0.76760833 0 0 0
0.41028467 0.41178424 0.75525234 0 0 0
0.40853238 0.40177820 0.76106446 0 0 0
0.40958930 0.42271390 0.74909205 0 0 0
0.43368047 -0.60347929 0.99671441 89 117 122
0.42929275 -0.61069023 1.01442843 91 115 123
0.43129644 -0.60686403 1.02240024 91 114 120
0.42964745 -0.58669389 0.87830290 0 0 0
0.43488006 -0.58075095 0.88030681 0 0 0
0.42525108 -0.58292376 0.95458949 46 63 62
0.43424380 -0.59066416 0.96726507 85 108 111
0.42830921 -0.59745204 0.98535633 82 115 117
0.42945762 -0.59046747 1.02410014 89 114 120
0.42310424 -0.57982720 0.87979296 0 0 0
0.43002747 -0.56960783 0.88280297 0 0 0
0.42606906 -0.56418364 0.91611866 51 65 72
0.43264673 -0.57361613 0.93143827 39 52 61
0.43011926 -0.57021311 1.02517987 89 113 123
0.42891008 -0.55606217 0.88786926 3 4 4
0.43382830 -0.55921669 0.90047461 22 29 30
0.43033016 -0.55010574 1.02568281 90 112 121
0.43048610 -0.52991021 1.02605419 88 111 123
0.43060994 -0.50966249 1.02634949 87 109 122
0.43049513 -0.49008601 1.02648929 88 109 120
0.42979738 -0.46983065 1.02652868 89 109 122
0.42979744 -0.44942660 1.02652884 87 108 122
0.42979744 -0.42990961 1.02652884 87 108 122
0.42979744 -0.41039262 1.02652884 87 106 123
0.42979744 -0.38998849 1.02652884 84 105 122
0.42979744 -0.36958436 1.02652884 85 104 123
0.42979744 -0.35006737 1.02652884 85 103 122
0.42979744 -0.33055038 1.02652884 82 103 121
0.42979744 -0.31014625 1.02652884 84 101 121
0.42979744 -0.28974212 1.02652884 80 100 120
0.42979744 -0.27022513 1.02652884 81 99 119
0.43028872 -0.25087534 1.02639711 81 97 117
0.43040348 -0.23015456 1.02585880 78 95 117
0.43017582 -0.20965280 1.02531613 77 95 116
0.42991519 -0.19004384 1.02469482 78 95 119
0.42958860 -0.17043234 1.02391653 77 95 116
0.43016823 -0.15003154 1.02252081 59 71 83
0.43024894 -0.12939395 1.02128254 50 55 64
0.42995147 -0.10990097 1.02057664 49 54 63
0.42941187 -0.08795262 1.01971456 52 55 63
0.43025702 -0.09761883 1.02008714 53 55 65
0.43010191 -0.07003550 1.01900477 49 52 60
0.43004622 -0.04992195 1.01760714 66 70 82
0.42996733 -0.03023615 1.01008333 126 137 145
0.43035377 -0.00520674 0.99709837 137 142 148
0.42968171 -0.01552575 1.00245776 147 155 160
0.42993644 0.01052975 0.98912952 125 132 138
0.43006847 0.03493812 0.97677596 108 118 132
0.42993464 0.02488393 0.98189226 114 123 132
0.43008070 0.05055388 0.96888587 128 136 143
0.42991243 0.07391803 0.95710452 131 135 140
0.43000940 0.06433618 0.96191396 137 141 146
0.42999989 0.08966175 0.94913899 134 139 144
0.42996502 0.11363108 0.93679504 118 127 135
0.43004932 0.10365447 0.94199425 108 118 131
0.43000069 0.13017891 0.92798954 115 126 132
0.43009285 0.15229077 0.91606733 128 135 140
0.43002890 0.14278484 0.92126330 110 121 125
0.42995899 0.16950409 0.90625019 147 152 155
0.43009243 0.19041514 0.89433698 143 147 151
0.43058926 0.18001933 0.90021061 138 143 148
0.42995162 0.21737082 0.87825102 154 162 162
0.43003956 0.20738235 0.88425436 145 149 152
0.43001407 0.22977649 0.87070506 155 160 159
0.42990521 0.25324339 0.85596622 155 159 158
0.43002356 0.24326736 0.86240388 149 155 155
0.42959341 0.27871769 0.83901025 148 157 155
0.43008368 0.26875912 0.84632270 125 131 135
0.42994288 0.28986930 0.83142832 150 153 152
0.43029252 0.31327927 0.81592618 136 141 141
0.42955700 0.30305810 0.82236538 143 150 150
0.42998073 0.33001593 0.80605803 155 160 158
0.43000034 0.35082442 0.79032037 35 35 35
0.43035496 0.34073129 0.80030998 155 157 154
0.43027586 0.37277521 0.77617374 0 0 0
0.42983669 0.36288612 0.78145310 0 0 0
0.42988604 0.39001341 0.76665406 0 0 0
0.43014417 0.41084404 0.75460815 0 0 0
0.42838226 0.40094543 0.76048713 0 0 0
0.43002445 0.42234535 0.74795294 0 0 0
0.45782855 -0.62098512 1.01980484 92 115 118
0.45603543 -0.62037881 1.02170923 93 115 118
0.45330701 -0.60608594 0.98971491 91 112 123
0.44797594 -0.61658610 1.01546894 91 115 121
0.45056090 -0.60910067 1.02264880 90 113 121
0.44844774 -0.58902235 0.87906244 0 0 0
0.45182367 -0.58303330 0.88055327 0 0 0
0.45714815 -0.58093994 0.93545431 79 108 122
0.44330500 -0.58461687 0.94997062 76 105 116
0.45095030 -0.59532469 0.96852318 80 110 116
0.44979607 -0.58982035 1.02468477 89 113 121
0.45001756 -0.56964190 0.88401681 0 0 0
0.45256657 -0.56813512 0.90883859 35 52 55
0.44980066 -0.57582551 0.92808106 74 106 109
0.44957451 -0.56975642 1.02548938 89 112 122
0.44566865 -0.55849949 0.88874150 2 3 3
0.44998418 -0.55029287 1.02603205 88 112 120
0.45015247 -0.53009722 1.02641597 90 110 122
0.45020109 -0.50975129 1.02652773 88 108 122
0.45020157 -0.49023486 1.02652884 88 108 122
0.45020157 -0.46983073 1.02652884 87 108 122
0.45020157 -0.44942660 1.02652884 87 108 122
0.45020157 -0.42990961 1.02652884 88 107 122
0.45020157 -0.41039262 1.02652884 87 105 123
0.45020157 -0.38998849 1.02652884 85 104 119
0.45020157 -0.36958436 1.02652884 86 103 122
0.45020157 -0.35006737 1.02652884 83 104 120
0.45020157 -0.33055038 1.02652884 83 103 119
0.45020157 -0.31014625 1.02652884 84 100 119
0.45020157 -0.28974212 1.02652884 82 99 119
0.45020157 -0.27022513 1.02652884 80 99 118
0.45015542 -0.25068300 1.02642347 80 97 117
0.44992440 -0.23016305 1.02589660 80 95 117
0.44969067 -0.20966248 1.02536371 76 95 116
0.44968389 -0.18988491 1.02476211 76 95 115
0.44996537 -0.17044163 1.02397217 76 95 115
0.45014650 -0.14995590 1.02255535 60 68 79
0.44971715 -0.12940872 1.02139885 50 55 63
0.44989202 -0.10970162 1.02066023 50 54 62
0.44959064 -0.08713953 1.01973110 52 55 63
0.45057054 -0.09680426 1.02013320 52 56 63
0.45035697 -0.07017800 1.01903213 49 52 60
0.45010059 -0.04968099 1.01753002 66 73 82
0.45000260 -0.03020472 1.00997202 129 137 146
0.44991352 -0.00569757 0.99724802 141 145 151
0.44996739 -0.01615420 1.00269583 143 149 155
0.44997548 0.01057714 0.98899418 129 134 141
0.45016440 0.03493488 0.97668308 117 130 137
0.44991757 0.02499531 0.98174793 128 135 140
0.45006730 0.05060089 0.96877580 127 133 142
0.44995790 0.07398611 0.95698027 140 144 148
0.44991750 0.06433006 0.96182242 142 146 149
0.45001007 0.08974934 0.94897435 129 136 141
0.45003137 0.11369642 0.93659732 109 121 130
0.44999124 0.10376118 0.94176311 124 134 139
0.45008852 0.13025124 0.92778747 110 120 130
0.45002041 0.15231956 0.91582318 119 125 131
0.45011899 0.14279816 0.92107159 92 102 117
0.45534588 0.17996468 0.89993732 144 151 153
0.44989859 0.16965445 0.90587294 150 156 158
0.45007992 0.19037027 0.89412308 152 157 158
0.44222099 0.18000395 0.90013370 148 156 155
0.44988718 0.21736381 0.87828041 162 166 164
0.44998834 0.20741506 0.88425877 141 147 148
0.44995986 0.22981212 0.87063944 154 160 159
0.44997646 0.25327878 0.85582958 131 135 138
0.45009644 0.24322710 0.86232638 155 161 159
0.45042751 0.27805304 0.83885747 161 166 163
0.44985597 0.26814280 0.84625704 134 142 142
0.45003454 0.28981755 0.83148710 153 156 154
0.44985286 0.31311645 0.81565699 158 162 160
0.45054603 0.30286846 0.82239798 153 158 157
0.45007961 0.33028497 0.80568213 132 136 136
0.45017533 0.35045540 0.79089307 42 45 45
0.44312907 0.34095945 0.80016890 115 117 119
0.45013846 0.37217090 0.77562353 0 0 0
0.44958321 0.36202699 0.78112680 0 0 0
0.45750878 0.39949678 0.75963700 0 0 0
0.44989938 0.38990892 0.76563495 0 0 0
0.45002657 0.41018194 0.75377022 0 0 0
0.44238620 0.40029318 0.76008032 0 0 0
0.44981613 0.42221107 0.74674463 0 0 0
0.47229998 -0.62369643 1.01775905 87 113 124
0.47162113 -0.62283449 1.02248126 89 114 121
0.47312650 -0.60183701 0.96913157 79 112 114
0.47120414 -0.60837700 0.98511815 85 115 119
0.46575839 -0.61716676 1.00725291 90 114 125
0.47026348 -0.61017236 1.02384817 89 112 118
0.46412270 -0.59200309 0.87955794 0 0 0
0.47114297 -0.58657455 0.88119498 0 0 0
0.47380595 -0.58285387 0.92692840 44 55 60
0.47538804 -0.59368605 0.94940355 64 89 92
0.47304568 -0.59775099 0.96118701 81 116 119
0.47016070 -0.58949110 1.02510484 89 112 120
0.46936166 -0.57145221 0.88500107 1 1 1
0.47849844 -0.57722058 0.91294879 52 67 76
0.46960530 -0.56979711 1.02571784 88 111 119
0.46964389 -0.55047136 1.02636449 90 111 121
0.46971757 -0.53015482 1.02652662 89 108 121
0.46971856 -0.50975185 1.02652884 89 107 119
0.46971856 -0.49023486 1.02652884 87 108 120
0.46971856 -0.46983073 1.02652884 87 108 121
0.46971856 -0.44942660 1.02652884 88 107 123
0.46971856 -0.42990961 1.02652884 88 106 117
0.46971856 -0.41039262 1.02652884 85 105 120
0.46971856 -0.38998849 1.02652884 84 105 120
0.46971856 -0.36958436 1.02652884 87 103 120
0.46971856 -0.35006737 1.02652884 83 103 118
0.46971856 -0.33055038 1.02652884 82 101 120
0.46971856 -0.31014625 1.02652884 82 100 121
0.46971856 -0.28974212 1.02652884 82 99 119
0.46971856 -0.27022513 1.02652884 79 99 118
0.46968053 -0.25068831 1.02644564 79 97 117
0.46952659 -0.23009825 1.02593433 77 95 116
0.47008472 -0.20966831 1.02539229 78 94 115
0.47004448 -0.19023001 1.02481042 76 95 114
0.47033921 -0.17044908 1.02401704 76 94 114
0.46981323 -0.14974677 1.02252752 58 65 76
0.47004235 -0.12941501 1.02144856 50 54 61
0.47018923 -0.11013110 1.02076393 50 53 61
0.47014861 -0.08601780 1.01976453 51 55 64
0.47034233 -0.09575128 1.02018473 51 55 64
0.46984282 -0.07010992 1.01910121 49 53 60
0.46983792 -0.04973829 1.01752344 65 73 82
0.47011376 -0.03018910 1.00987745 131 138 145
0.47004893 -0.00569701 0.99712258 141 147 152
0.47002454 -0.01612232 1.00258335 139 145 152
0.47006539 0.01061805 0.98883181 133 139 144
0.47015203 0.03417935 0.97692925 119 127 137
0.46974875 0.02420266 0.98200661 142 147 152
0.47002741 0.05054265 0.96867068 119 127 136
0.47037668 0.07356373 0.95698413 137 141 144
0.46942785 0.06403185 0.96179719 145 149 151
0.47003094 0.08970014 0.94878077 130 135 139
0.47023596 0.11319859 0.93662927 118 126 132
0.46937964 0.10332847 0.94177003 119 129 135
0.47011809 0.13015504 0.92756036 124 131 136
0.47016587 0.15190318 0.91577903 130 136 139
0.46914534 0.14257541 0.92091756 128 137 141
0.47002138 0.17992594 0.89974361 155 160 161
0.46996528 0.16939016 0.90573224 152 157 157
0.47006767 0.19032890 0.89392781 148 153 154
0.46998683 0.21733204 0.87826816 141 147 148
0.46997599 0.20729238 0.88413926 144 147 148
0.46998663 0.23003340 0.87026232 157 161 160
0.47008305 0.25373965 0.85513075 148 155 155
0.46994658 0.24348325 0.86198645 137 140 143
0.46994958 0.27801649 0.83897727 130 134 138
0.46992548 0.26844841 0.84567584 152 157 156
0.47011008 0.28990014 0.83153530 129 136 138
0.46995227 0.31331596 0.81582095 136 140 140
0.46997826 0.30294995 0.82213704 159 161 160
0.47379903 0.33965118 0.79980183 149 157 158
0.46993190 0.32996017 0.80568200 132 137 137
0.47010432 0.35028295 0.79111933 74 77 77
0.47005907 0.37133611 0.77513817 0 0 0
0.46976911 0.36126408 0.78084961 0 0 0
0.47090396 0.39880588 0.75925057 0 0 0
0.46984539 0.38873424 0.76518127 0 0 0
0.47001688 0.41004565 0.75262077 0 0 0
0.47001182 0.42177311 0.74581507 0 0 0
0.49172670 -0.62679626 1.01293422 86 114 118
0.49103975 -0.62515639 1.02305004 88 112 120
0.49173495 -0.60758489 0.97028270 74 101 104
0.48690035 -0.61552910 0.99118093 81 111 114
0.48994586 -0.61024197 1.02474221 89 110 120
0.49047017 -0.58797801 0.88346774 0 0 0
0.48628924 -0.58041113 0.91424674 31 47 45
0.48762644 -0.58421768 0.92275496 63 88 89
0.48354838 -0.59481216 0.94811700 82 107 116
0.49047910 -0.58984157 1.02541800 86 111 118
0.48916811 -0.57451150 0.88666821 1 1 1
0.49186987 -0.57629423 0.90346007 60 74 80
0.49014168 -0.56966867 1.02609249 90 109 121
0.49011874 -0.55055555 1.02652045 89 109 120
0.49012269 -0.53015598 1.02652884 88 108 120
0.49012269 -0.50975185 1.02652884 86 108 119
0.49012269 -0.49023486 1.02652884 86 108 117
0.49012269 -0.46983073 1.02652884 87 107 119
0.49012269 -0.44942660 1.02652884 88 107 122
0.49012269 -0.42990961 1.02652884 86 106 119
0.49012269 -0.41039262 1.02652884 84 105 121
0.49012269 -0.38998849 1.02652884 85 104 119
0.49012269 -0.36958436 1.02652884 85 102 118
0.49012269 -0.35006737 1.02652884 85 102 120
0.49012269 -0.33055038 1.02652884 82 101 119
0.49012269 -0.31014625 1.02652884 82 101 119
0.49012269 -0.28974212 1.02652884 82 100 119
0.49012269 -0.27022513 1.02652884 79 99 116
0.49031947 -0.25030477 1.02646629 78 96 115
0.48971365 -0.22990240 1.02599502 77 94 116
0.49049239 -0.20967955 1.02544688 76 94 115
0.49019906 -0.19006955 1.02483373 76 95 115
0.48982896 -0.17045630 1.02405998 75 93 114
0.48997929 -0.14987843 1.02252754 55 64 74
0.49035509 -0.12941764 1.02146904 49 54 60
0.49001203 -0.10992006 1.02075448 50 53 60
0.48954205 -0.08601870 1.01977531 52 56 64
0.48973810 -0.09575118 1.02018378 51 55 63
0.49011160 -0.07011171 1.01912708 49 53 61
0.48994995 -0.04986162 1.01747867 69 75 84
0.49018397 -0.03016906 1.00969562 127 136 144
0.49003843 -0.00565277 0.99694303 134 140 147
0.49004098 -0.01608965 1.00239792 146 152 157
0.49005997 0.01067623 0.98862654 137 143 145
0.49000843 0.03409275 0.97679053 121 130 136
0.49000614 0.02409309 0.98185739 139 144 147
0.49001125 0.05053156 0.96845898 118 130 139
0.48998833 0.07309800 0.95696723 142 145 147
0.48998863 0.06350070 0.96183531 139 145 147
0.49002975 0.08971739 0.94852506 126 132 137
0.48989943 0.11279252 0.93660682 124 134 138
0.48994381 0.10280930 0.94180727 121 134 138
0.49007383 0.13017291 0.92726232 122 130 136
0.48997242 0.15147906 0.91561149 131 137 139
0.48981911 0.14197385 0.92088433 112 118 125
0.48935320 0.17988642 0.89954597 143 147 150
0.49001418 0.16936338 0.90547184 156 161 161
0.48996608 0.19030401 0.89367106 150 155 155
0.49055458 0.21698787 0.87810969 153 160 159
0.48979606 0.20705414 0.88401356 135 141 143
0.49017869 0.23011016 0.86998763 144 148 148
0.49002117 0.25307880 0.85513447 154 159 159
0.48929956 0.24295181 0.86213503 138 146 148
0.48978931 0.27786351 0.83862268 146 152 152
0.49005549 0.26846431 0.84544382 135 140 140
0.48995641 0.28959152 0.83063387 147 152 151
0.49008413 0.31356666 0.81551778 134 143 141
0.48993362 0.30345852 0.82234461 108 113 116
0.49123982 0.33900496 0.79950092 159 165 162
0.48988413 0.32906775 0.80556636 149 154 152
0.49015152 0.35055738 0.79074693 86 88 87
0.49019040 0.37078991 0.77445190 0 0 0
0.48690992 0.36071207 0.78056296 0 0 0
0.49074326 0.39761315 0.75878564 0 0 0
0.48975236 0.38783777 0.76450667 0 0 0
0.49010442 0.40993424 0.75154231 0 0 0
0.48921251 0.42161711 0.74488834 0 0 0
0.51198570 -0.62256441 0.99056047 83 111 122
0.50981338 -0.63245588 1.01453035 84 112 117
0.51037126 -0.62799512 1.02413837 86 111 117
0.51436008 -0.60847937 0.95846020 84 108 112
0.50877514 -0.61274952 0.97138649 87 109 119
0.50817105 -0.61858171 0.98420548 84 108 120
0.51027846 -0.61025706 1.02576532 87 110 119
0.51024071 -0.58876938 0.88593343 0 0 0
0.50869159 -0.58470946 0.90990250 32 43 45
0.51421193 -0.59651577 0.93203145 55 74 77
0.51009382 -0.58997107 1.02590350 86 110 120
0.50744759 -0.57784633 0.88861791 0 0 0
0.51046354 -0.57000536 1.02640075 86 109 119
0.51052682 -0.55056011 1.02652884 85 108 120
0.51052682 -0.53015598 1.02652884 86 108 117
0.51052682 -0.50975185 1.02652884 86 107 120
0.51052682 -0.49023486 1.02652884 86 108 120
0.51052682 -0.46983073 1.02652884 87 106 119
0.51052682 -0.44942660 1.02652884 86 107 118
0.51052682 -0.42990961 1.02652884 84 105 118
0.51052682 -0.41039262 1.02652884 82 104 116
0.51052682 -0.38998849 1.02652884 84 103 119
0.51052682 -0.36958436 1.02652884 85 102 118
0.51052682 -0.35006737 1.02652884 81 102 119
0.51052682 -0.33055038 1.02652884 82 102 117
0.51052682 -0.31014625 1.02652884 82 101 118
0.51052682 -0.28974212 1.02652884 81 99 118
0.51052682 -0.27022513 1.02652884 79 97 118
0.51050060 -0.24980854 1.02647608 78 96 115
0.51027734 -0.22930551 1.02602704 75 95 114
0.51001587 -0.20969063 1.02550125 75 94 113
0.50970646 -0.19007802 1.02487912 75 94 113
0.50987524 -0.17026131 1.02405109 76 92 113
0.51012886 -0.15000530 1.02249373 56 64 73
0.50977898 -0.12941851 1.02147521 49 54 60
0.50989646 -0.10970675 1.02070879 49 53 59
0.50981588 -0.08601936 1.01978322 53 56 64
0.51000947 -0.09574992 1.02017045 51 56 64
0.51035871 -0.07011052 1.01910746 48 53 62
0.50998471 -0.04970326 1.01739161 70 76 86
0.51009385 -0.03017853 1.00954485 130 137 144
0.50988006 -0.00573703 0.99679992 120 131 138
0.51004773 -0.01608650 1.00220792 145 153 157
0.51009223 0.01051129 0.98848183 134 140 143
0.51010459 0.03408179 0.97647785 123 129 136
0.51001052 0.02406821 0.98158075 137 145 148
0.50999783 0.05055407 0.96811589 117 127 136
0.50988268 0.07305874 0.95667327 134 136 140
0.50998115 0.06346381 0.96153284 133 138 143
0.51002296 0.08964651 0.94832347 133 138 139
0.51000744 0.11281922 0.93634926 127 133 139
0.50996982 0.10289452 0.94153540 121 129 136
0.51002761 0.13006537 0.92705217 121 130 137
0.50999279 0.15141198 0.91541057 139 147 150
0.50997013 0.14196146 0.92059757 120 131 135
0.51096425 0.17957384 0.89944134 157 163 165
0.50988568 0.16910472 0.90538112 150 157 159
0.51002122 0.19027517 0.89342181 155 161 161
0.50999710 0.21658778 0.87806419 152 157 156
0.51002223 0.20660036 0.88387068 160 166 165
0.51003513 0.23028491 0.86960123 157 162 161
0.51008516 0.25295878 0.85511359 138 142 142
0.50983364 0.24290316 0.86148561 161 164 161
0.50911873 0.27784072 0.83806199 158 165 162
0.51011342 0.26813376 0.84534327 126 134 135
0.51011410 0.28986793 0.83038991 145 148 147
0.51001332 0.31314537 0.81532907 137 144 142
0.51007936 0.30302276 0.82224457 118 125 125
0.51026297 0.33855790 0.79922201 130 136 134
0.51000062 0.32874579 0.80532624 136 141 141
0.50997976 0.35066008 0.79059951 78 81 81
0.51004444 0.37010769 0.77381158 0 0 0
0.51030328 0.39686219 0.75814195 0 0 0
0.50980543 0.38678011 0.76397225 0 0 0
0.51005376 0.41007349 0.75040240 0 0 0
0.50997901 0.42141008 0.74401694 0 0 0
0.53598599 -0.64145245 1.01592910 83 112 119
0.53362628 -0.64169845 1.02341710 85 110 121
0.53292363 -0.62792899 0.98910725 81 111 112
0.52676295 -0.63693089 1.01339273 85 110 122
0.52997821 -0.63053587 1.02520307 86 110 117
0.52986823 -0.60247589 0.93543824 61 82 94
0.52652870 -0.60600289 0.94682479 83 109 118
0.52936996 -0.61750655 0.97004285 85 106 114
0.53001501 -0.60996483 1.02647247 87 109 118
0.52959399 -0.58973169 0.88792468 0 1 1
0.52526027 -0.58901187 0.90853473 29 38 42
0.52603742 -0.59553451 0.92299128 57 75 92
0.52995581 -0.58949508 1.02635729 87 109 118
0.53004261 -0.57007577 1.02652647 86 109 118
0.53004381 -0.55056011 1.02652884 87 108 118
0.53004381 -0.53015598 1.02652884 85 108 119
0.53004381 -0.50975185 1.02652884 87 107 119
0.53004381 -0.49023486 1.02652884 87 106 119
0.53004381 -0.46983073 1.02652884 85 107 118
0.53004381 -0.44942660 1.02652884 86 105 120
0.53004381 -0.42990961 1.02652884 84 105 117
0.53004381 -0.41039262 1.02652884 84 104 117
0.53004381 -0.38998849 1.02652884 84 103 117
0.53004381 -0.36958436 1.02652884 84 101 118
0.53004381 -0.35006737 1.02652884 81 101 120
0.53004381 -0.33055038 1.02652884 82 101 117
0.53004381 -0.31014625 1.02652884 82 100 116
0.53004381 -0.28974212 1.02652884 81 99 118
0.53004381 -0.27022513 1.02652884 79 97 117
0.53002115 -0.24981064 1.02648493 78 96 115
0.52979836 -0.22931141 1.02605346 76 95 113
0.52953209 -0.20969810 1.02553774 76 94 111
0.53008194 -0.19007959 1.02488736 75 93 114
0.53019791 -0.17065442 1.02405781 74 93 114
0.52982231 -0.14972348 1.02237161 54 61 72
0.53004762 -0.12940998 1.02140769 49 53 61
0.53012826 -0.11012120 1.02067280 49 53 62
0.53007180 -0.08601707 1.01975590 51 56 63
0.53027774 -0.09574819 1.02015207 50 54 62
0.52970265 -0.07010633 1.01904578 48 54 62
0.52998324 -0.04982475 1.01728829 71 76 86
0.52996794 -0.03018653 1.00933739 132 137 143
0.53009278 -0.00579642 0.99652547 113 125 134
0.52972111 -0.01626860 1.00206609 137 142 147
0.53006446 0.01064595 0.98808560 133 140 144
0.53035042 0.03351182 0.97638804 129 134 142
0.52919552 0.02357624 0.98151655 138 142 146
0.53001799 0.05049029 0.96777558 118 127 135
0.53024370 0.07259167 0.95659545 134 139 140
0.52928704 0.06311552 0.96138957 136 141 146
0.53005889 0.08958447 0.94809965 130 136 139
0.53002204 0.11279176 0.93612229 112 124 132
0.52997994 0.10282229 0.94132954 117 126 134
0.53002019 0.13012995 0.92673419 110 120 129
0.53036061 0.15117127 0.91529262 129 135 139
0.52813422 0.14150789 0.92059318 112 123 128
0.52968466 0.17907731 0.89938835 150 154 155
0.52984237 0.16882266 0.90522517 162 168 167
0.53011592 0.19015141 0.89311380 155 161 160
0.53040892 0.21611774 0.87785511 149 155 155
0.52981362 0.20619991 0.88376352 157 162 161
0.52998656 0.23015324 0.86930322 154 161 160
0.52990519 0.25289289 0.85472882 145 151 151
0.53014776 0.24296448 0.86130397 141 144 144
0.53095783 0.27748928 0.83858742 113 118 120
0.52964028 0.26792209 0.84472434 138 146 146
0.53011165 0.29014637 0.83035912 121 128 128
0.53012927 0.31252504 0.81536009 142 148 146
0.52958966 0.30279740 0.82155967 160 166 160
0.53063471 0.33811726 0.79879360 123 133 127
0.53003044 0.32807803 0.80527193 124 128 127
0.52992121 0.35939829 0.77966340 0 0 0
0.52983279 0.35021174 0.79085827 98 104 104
0.53016677 0.36991355 0.77270529 0 0 0
0.53034414 0.39560763 0.75772132 0 0 0
0.52942877 0.38578007 0.76338711 0 0 0
0.53014470 0.40986056 0.74944258 0 0 0
0.52912244 0.42113709 0.74321096 0 0 0
0.55139147 -0.64513666 1.01621039 84 110 114
0.55151612 -0.64403661 1.02432975 84 110 113
0.54969456 -0.62446637 0.97044633 82 104 109
0.54958916 -0.63265988 0.98937986 85 109 115
0.54699551 -0.63680597 1.00126040 83 107 114
0.54965309 -0.63047102 1.02609046 85 110 114
0.55083431 -0.60097610 0.91911435 54 72 72
0.55393811 -0.60894559 0.93438789 68 84 93
0.55065298 -0.61660535 0.95246118 60 86 90
0.54956075 -0.60999816 1.02652873 86 108 117
0.54916420 -0.59285468 0.88815385 1 1 1
0.55312200 -0.59640763 0.90775416 43 53 58
0.54956042 -0.58959366 1.02652810 86 109 116
0.54956081 -0.57007710 1.02652884 86 108 116
0.54956081 -0.55056011 1.02652884 86 108 118
0.54956081 -0.53015598 1.02652884 86 106 119
0.54956081 -0.50975185 1.02652884 87 107 118
0.54956081 -0.49023486 1.02652884 87 107 116
0.54956081 -0.46983073 1.02652884 88 107 116
0.54956081 -0.44942660 1.02652884 85 105 119
0.54956081 -0.42990961 1.02652884 85 104 117
0.54956081 -0.41039262 1.02652884 84 104 116
0.54956081 -0.38998849 1.02652884 84 103 116
0.54956081 -0.36958436 1.02652884 83 103 116
0.54956081 -0.35006737 1.02652884 83 101 117
0.54956081 -0.33055038 1.02652884 81 100 118
0.54956081 -0.31014625 1.02652884 82 99 118
0.54956081 -0.28974212 1.02652884 80 100 115
0.54956081 -0.27022513 1.02652884 80 97 115
0.54954064 -0.24981211 1.02649114 77 97 113
0.54988994 -0.22911817 1.02605673 76 95 112
0.54991657 -0.20969814 1.02553789 75 94 113
0.55044331 -0.19007615 1.02486861 77 93 112
0.54996360 -0.17044261 1.02397558 75 94 111
0.54998667 -0.14989294 1.02224599 52 60 68
0.55033365 -0.12940614 1.02137773 49 54 60
0.54994315 -0.10990901 1.02065283 49 54 62
0.55019190 -0.08616362 1.01975149 53 57 64
0.54926526 -0.09595140 1.02014975 52 56 64
0.54995279 -0.07010570 1.01903637 50 54 61
0.55009625 -0.04970368 1.01707611 75 81 88
0.54994301 -0.03017728 1.00902994 129 136 142
0.54990299 -0.00655734 0.99660714 114 125 134
0.55014552 -0.01699885 1.00215262 137 143 148
0.55002584 0.01051644 0.98783448 126 135 140
0.55007324 0.03322600 0.97619023 127 133 138
0.54995260 0.02323275 0.98132247 134 142 146
0.54997800 0.05047921 0.96745203 114 127 133
0.55002147 0.07229461 0.95650839 136 141 143
0.55010223 0.06259417 0.96135586 132 138 141
0.54997075 0.08963216 0.94783854 132 138 141
0.55013446 0.11200031 0.93631011 109 122 130
0.54988843 0.10206781 0.94147336 116 124 134
0.54998243 0.13002177 0.92657715 112 122 130
0.55000817 0.15137207 0.91487193 132 141 144
0.55009336 0.14112459 0.92053364 117 128 133
0.54968730 0.17901021 0.89905138 145 153 154
0.54998445 0.16916521 0.90466082 148 155 155
0.55013036 0.19013960 0.89272374 154 159 160
0.55004094 0.21571045 0.87749060 160 166 165
0.55004312 0.20575754 0.88365565 137 142 144
0.54998267 0.23003335 0.86884879 144 147 147
0.55021301 0.25253892 0.85476841 130 137 137
0.54925467 0.24257137 0.86116808 114 119 121
0.55067678 0.27723837 0.83819644 125 128 128
0.54984785 0.26750684 0.84466288 141 146 146
0.54991755 0.29022174 0.82967646 132 139 138
0.55011008 0.31242542 0.81514543 127 132 130
0.55005764 0.30264313 0.82129779 120 126 128
0.55058192 0.33787522 0.79844449 127 130 130
0.54986470 0.32751970 0.80511533 130 134 133
0.55099801 0.35942336 0.77850282 0 0 0
0.55005160 0.35050365 0.79033541 133 138 136
0.54984146 0.36999494 0.77132714 0 0 0
0.55022993 0.39492436 0.75690015 0 0 0
0.54960734 0.38480514 0.76273033 0 0 0
0.55000906 0.41014783 0.74810525 0 0 0
0.54988187 0.42093420 0.74204374 0 0 0
0.57789308 -0.64226180 0.99143225 74 109 114
0.57555222 -0.65103050 1.01171098 81 106 119
0.57096588 -0.64733567 1.02522262 84 109 116
0.57406993 -0.62088722 0.94831237 81 104 105
0.57266512 -0.63259453 0.97435872 83 107 116
0.57015559 -0.63019642 1.02646305 86 108 114
0.57794612 -0.60034614 0.88992196 0 0 0
0.56202658 -0.60252739 0.91664076 84 100 115
0.57415653 -0.61374568 0.93248501 70 81 99
0.56299256 -0.61438934 0.94211853 85 108 112
0.56996493 -0.60999822 1.02652884 86 109 115
0.56804790 -0.59619732 0.88951403 2 3 3
0.57180750 -0.59919376 0.90208244 39 52 56
0.56996493 -0.58959409 1.02652884 87 108 116
0.56996493 -0.57007710 1.02652884 85 108 118
0.56996493 -0.55056011 1.02652884 86 107 119
0.56996493 -0.53015598 1.02652884 87 106 120
0.56996493 -0.50975185 1.02652884 88 106 119
0.56996493 -0.49023486 1.02652884 87 108 115
0.56996493 -0.46983073 1.02652884 86 107 118
0.56996493 -0.44942660 1.02652884 83 106 120
0.56996493 -0.42990961 1.02652884 85 104 118
0.56996493 -0.41039262 1.02652884 84 104 117
0.56996493 -0.38998849 1.02652884 82 103 118
0.56996493 -0.36958436 1.02652884 83 102 117
0.56996493 -0.35006737 1.02652884 83 100 116
0.56996493 -0.33055038 1.02652884 83 99 118
0.56996493 -0.31014625 1.02652884 80 100 118
0.56996493 -0.28974212 1.02652884 78 99 117
0.56996493 -0.27022513 1.02652884 79 98 113
0.56994855 -0.24981406 1.02649934 76 96 114
0.57025408 -0.22951287 1.02606591 76 94 112
0.57029064 -0.20969437 1.02551932 77 94 112
0.56990643 -0.19006878 1.02482843 77 92 113
0.56979349 -0.17021423 1.02386807 76 93 111
0.57007231 -0.14988717 1.02209343 53 59 67
0.56969949 -0.12939396 1.02128199 49 54 60
0.57002616 -0.10977629 1.02055446 51 55 61
0.57051776 -0.08759762 1.01973298 53 56 64
0.56891517 -0.09703400 1.02010738 53 57 63
0.57014681 -0.07009833 1.01892697 52 55 62
0.56996271 -0.04967942 1.01686637 77 81 88
0.56997409 -0.03018207 1.00871596 124 131 137
0.57004645 -0.00660032 0.99627142 114 125 136
0.57007876 -0.01697414 1.00178787 139 145 152
0.56997405 0.01059081 0.98747669 126 135 139
0.57005641 0.03327821 0.97586606 120 127 134
0.57010823 0.02322468 0.98098161 131 137 143
0.56988934 0.05046546 0.96718952 118 127 135
0.57008735 0.07220437 0.95630961 134 138 142
0.57016673 0.06262074 0.96107404 135 138 140
0.56993600 0.08962932 0.94760242 135 140 142
0.57006248 0.11197203 0.93607342 116 125 132
0.57007094 0.10204332 0.94123577 123 128 133
0.56997282 0.12998074 0.92635263 113 121 129
0.57001040 0.15124329 0.91461049 121 131 135
0.56982567 0.14108596 0.92028166 104 115 121
0.57033377 0.17831134 0.89902434 159 164 163
0.56975807 0.16855915 0.90465881 158 165 165
0.57007372 0.19000427 0.89240258 148 153 153
0.57047604 0.21532999 0.87731016 144 149 147
0.56967136 0.20541739 0.88344242 145 152 153
0.57006414 0.22997729 0.86837706 147 154 153
0.57015911 0.25186395 0.85463894 133 139 138
0.56901531 0.24190925 0.86083343 158 161 158
0.57005556 0.27689373 0.83762225 156 161 158
0.56984528 0.26692104 0.84484772 131 139 139
0.56999796 0.29043811 0.82909358 136 141 140
0.57015346 0.31242246 0.81436708 136 138 135
0.56994670 0.30256771 0.82105933 138 140 138
0.57038823 0.33725706 0.79815052 132 137 136
0.56968855 0.32721896 0.80471765 138 144 140
0.56026163 0.35989198 0.77781790 0 0 0
0.56988017 0.35031439 0.79006917 140 143 141
0.57002371 0.36978729 0.77051959 0 0 0
0.57413188 0.36051076 0.78249935 48 50 52
0.57023987 0.39358332 0.75646211 0 0 0
0.56929561 0.38364062 0.76227541 0 0 0
0.57014357 0.40992044 0.74700031 0 0 0
0.56813145 0.42061910 0.74104660 0 0 0
0.59656016 -0.66097574 1.02395906 83 110 115
0.59053098 -0.64551716 0.99183227 82 106 110
0.59302820 -0.65601114 1.01293573 83 107 116
0.59015302 -0.64998188 1.02566992 83 108 116
0.59544748 -0.62057931 0.93427694 79 105 115
0.58782353 -0.62566369 0.94934234 80 96 100
0.59066727 -0.63566137 0.97025664 83 105 110
0.59036893 -0.63040220 1.02652860 85 107 115
0.58847813 -0.60224913 0.89409216 1 1 1
0.59269625 -0.60957639 0.91095575 39 49 51
0.58962980 -0.61793056 0.93151765 63 82 91
0.59036906 -0.60999822 1.02652884 86 109 115
0.58081105 -0.59940803 0.89196029 0 0 0
0.59036906 -0.58959409 1.02652884 86 108 118
0.59036906 -0.57007710 1.02652884 86 108 118
0.59036906 -0.55056011 1.02652884 87 109 120
0.59036906 -0.53015598 1.02652884 86 107 118
0.59036906 -0.50975185 1.02652884 88 106 117
0.59036906 -0.49023486 1.02652884 85 107 117
0.59036906 -0.46983073 1.02652884 85 107 117
0.59036906 -0.44942660 1.02652884 85 106 118
0.59036906 -0.42990961 1.02652884 85 103 118
0.59036906 -0.41039262 1.02652884 82 103 119
0.59036906 -0.38998849 1.02652884 82 103 117
0.59036906 -0.36958436 1.02652884 84 101 117
0.59036906 -0.35006737 1.02652884 81 101 116
0.59036906 -0.33055038 1.02652884 82 99 116
0.59036906 -0.31014625 1.02652884 80 100 115
0.59036906 -0.28974212 1.02652884 77 98 115
0.59036906 -0.27022513 1.02652884 76 96 113
0.59035750 -0.24981627 1.02650870 80 94 112
0.59010934 -0.22931684 1.02607723 76 94 113
0.58977657 -0.20969022 1.02549870 75 94 110
0.58985890 -0.18984866 1.02476917 75 94 111
0.59005591 -0.17061937 1.02378030 76 92 111
0.58992539 -0.14957663 1.02201380 52 58 66
0.58995567 -0.12938449 1.02120685 49 54 61
0.59022734 -0.11001614 1.02044840 52 55 62
0.59034642 -0.08934610 1.01967333 54 57 64
0.58714560 -0.09863470 1.02004813 53 57 65
0.58995683 -0.06986549 1.01876425 52 54 61
0.58993515 -0.04983574 1.01663532 76 82 89
0.58997585 -0.03017126 1.00835840 122 131 137
0.59037297 -0.00701616 0.99614767 121 131 139
0.58925909 -0.01732995 1.00161846 140 149 155
0.58999690 0.01059932 0.98717806 127 136 140
0.59001503 0.03237552 0.97605362 123 131 138
0.59014295 0.02241793 0.98113735 138 145 149
0.58992258 0.05054025 0.96687051 123 131 138
0.59027843 0.07183665 0.95624302 138 141 144
0.58909245 0.06234542 0.96095797 148 151 154
0.59000476 0.08953818 0.94739323 131 137 140
0.59005153 0.11194881 0.93582616 114 126 131
0.58998067 0.10197518 0.94101243 109 126 132
0.58994853 0.12995499 0.92610579 109 121 126
0.59011004 0.15105044 0.91440383 134 142 145
0.58638905 0.14105263 0.92006425 103 116 125
0.58989535 0.17817393 0.89875514 150 154 154
0.58992480 0.16834441 0.90443658 157 164 162
0.58993662 0.18994322 0.89211661 152 159 158
0.59012236 0.21490420 0.87729264 157 162 159
0.58999996 0.20487019 0.88337308 152 156 156
0.59003102 0.22988677 0.86808530 155 161 159
0.59001496 0.25138546 0.85457563 134 140 139
0.58989044 0.24129418 0.86080020 141 141 138
0.58991833 0.27673616 0.83741280 145 151 148
0.58998206 0.26663481 0.84441689 149 158 155
0.59006174 0.29043588 0.82888006 132 138 135
0.58995828 0.31201139 0.81406308 150 156 153
0.58989447 0.30196212 0.82119905 140 145 144
0.58994746 0.33680128 0.79797118 131 138 135
0.59009908 0.32692827 0.80430348 134 142 140
0.58999495 0.35016777 0.78991310 120 124 122
0.58991971 0.37039775 0.76918846 0 0 0
0.59111544 0.36130647 0.78234003 107 115 114
0.59023184 0.39291946 0.75565938 0 0 0
0.58943623 0.38288613 0.76160409 0 0 0
0.59783431 0.41948214 0.73948400 0 0 0
0.58994464 0.40995678 0.74564692 0 0 0
0.59026485 0.42019264 0.73960917 0 0 0
0.58236718 0.42048921 0.74013118 0 0 0
0.61936829 -0.66225529 1.01016259 85 106 111
0.61149147 -0.66313085 1.02436475 87 108 115
0.60721758 -0.64173516 0.97118115 88 104 121
0.60995744 -0.65077648 0.99136202 86 107 114
0.60959212 -0.65043962 1.02631061 85 108 114
0.61456999 -0.62406051 0.92906372 54 77 84
0.60438377 -0.62818915 0.94573349 79 104 117
0.61720541 -0.63972470 0.96060055 78 98 111
0.60988605 -0.63040235 1.02652884 85 108 115
0.60404504 -0.61283247 0.91156487 54 70 78
0.60988605 -0.60999822 1.02652884 87 109 116
0.60988605 -0.58959409 1.02652884 88 109 116
0.60988605 -0.57007710 1.02652884 87 107 120
0.60988605 -0.55056011 1.02652884 86 108 118
0.60988605 -0.53015598 1.02652884 85 108 118
0.60988605 -0.50975185 1.02652884 85 108 118
0.60988605 -0.49023486 1.02652884 85 107 117
0.60988605 -0.46983073 1.02652884 84 106 119
0.60988605 -0.44942660 1.02652884 85 105 118
0.60988605 -0.42990961 1.02652884 85 103 118
0.60988605 -0.41039262 1.02652884 83 103 119
0.60988605 -0.38998849 1.02652884 81 104 115
0.60988605 -0.36958436 1.02652884 80 103 114
0.60988605 -0.35006737 1.02652884 80 102 116
0.60988605 -0.33055038 1.02652884 84 99 115
0.60988605 -0.31014625 1.02652884 80 99 115
0.60988605 -0.28974212 1.02652884 78 97 115
0.60988605 -0.27022513 1.02652884 78 96 114
0.60987110 -0.24981509 1.02650369 77 95 110
0.60960150 -0.22931078 1.02604999 76 93 112
0.60998414 -0.20955857 1.02545493 75 94 110
0.61015391 -0.19025762 1.02470874 77 94 109
0.60994058 -0.17038758 1.02364293 75 92 110
0.61018671 -0.15002072 1.02198719 52 57 65
0.61019517 -0.12937200 1.02110809 49 54 61
0.61335151 -0.10149884 1.01995334 54 57 63
0.60936103 -0.11071070 1.02035609 52 56 64
0.61007252 -0.09033896 1.01955248 55 58 66
0.61008614 -0.07030256 1.01862483 52 55 63
0.60989283 -0.04961029 1.01630121 78 85 91
0.60995251 -0.03011798 1.00797063 120 128 133
0.61005627 -0.00740053 0.99606678 123 134 140
0.61003961 -0.01788448 1.00156393 137 146 152
0.61002379 0.01053681 0.98694060 120 129 135
0.61009695 0.03236687 0.97579382 116 126 131
0.60991267 0.02237602 0.98091633 144 153 153
0.60994455 0.05043706 0.96664523 117 126 133
0.60994337 0.07136031 0.95626179 129 135 139
0.60995858 0.06178310 0.96095516 133 138 140
0.60998011 0.08948161 0.94723325 129 136 140
0.61025113 0.11163182 0.93578009 109 124 129
0.60916779 0.10172284 0.94095722 122 131 138
0.60988775 0.12995870 0.92590103 111 122 129
0.60998109 0.15043066 0.91459413 125 134 136
0.60997464 0.17814017 0.89858471 154 157 158
0.60998851 0.16834190 0.90424594 156 162 160
0.60992206 0.18992444 0.89202856 151 156 155
0.61003597 0.21477547 0.87716824 159 163 163
0.61006803 0.20486611 0.88326413 139 144 147
0.61001103 0.22987482 0.86802424 144 149 148
0.61001195 0.25129666 0.85437684 140 145 145
0.60993870 0.24132327 0.86070746 147 151 148
0.60995357 0.27675648 0.83742145 141 144 142
0.60992122 0.26661613 0.84426297 153 158 154
0.61002713 0.29022751 0.82844293 145 152 148
0.61007457 0.31120810 0.81424700 146 152 150
0.60928824 0.30102636 0.82069042 160 167 161
0.60992490 0.33673153 0.79778681 122 127 127
0.61008325 0.32687438 0.80405268 139 146 145
0.61011956 0.35016202 0.78947864 126 133 133
0.60985029 0.37089713 0.76851588 5 5 5
0.61032992 0.36200897 0.78208448 135 142 142
0.61020816 0.39193208 0.75511190 0 0 0
0.60954935 0.38187748 0.76122313 0 0 0
0.61190381 0.41803585 0.73894621 0 0 0
0.60965259 0.40836309 0.74499327 0 0 0
0.62744312 -0.66481268 1.01141477 85 107 113
0.63065693 -0.66606112 1.02599942 84 108 114
0.63376523 -0.64213731 0.95677376 84 99 117
