ply
format ascii 1.0
element vertex 1058
property float x
property float y
property float z
property uchar red
property uchar green
property uchar blue
end_header
1.21192467 0.46485871 1.69472957 173 179 176
1.21485388 0.46485871 1.69472957 175 181 177
1.21172452 0.46254599 1.68629813 175 181 177
1.20564175 0.45911971 1.67380702 176 181 178
1.19964850 0.45574385 1.66149962 181 183 180
1.19665432 0.45352069 1.65339470 181 182 180
1.19659364 0.45241725 1.64937186 179 180 178
0.61792558 0.17121868 0.62420982 161 163 160
0.60540909 0.16572504 0.60418171 167 168 168
1.25861239 0.30836400 1.12419879 162 170 169
1.23797226 0.30283955 1.10405838 163 170 170
1.22590446 0.29942590 1.09161329 164 168 169
1.21798456 0.29703432 1.08289433 164 167 168
1.21985626 0.29703432 1.08289433 164 167 168
1.22761106 0.29846466 1.08810890 163 167 167
1.23146844 0.29894450 1.08985829 164 168 167
1.22547138 0.29703432 1.08289433 164 168 166
1.22538555 0.29656059 1.08116722 166 167 164
1.22141016 0.29514840 1.07601881 167 168 165
1.22327006 0.29514840 1.07601881 167 168 165
1.22707760 0.29561764 1.07772946 164 165 163
1.22504508 0.29468066 1.07431352 161 162 159
1.22690201 0.29468066 1.07431352 154 155 155
1.22681463 0.29421437 1.07261372 144 146 148
-0.27273864 0.28053248 1.01632965 109 118 124
-0.27017188 0.27969381 1.01329124 108 115 122
-0.26722220 0.27844518 1.00876760 106 111 118
-0.01139146 0.13718121 0.49698815 201 205 205
-0.01051704 0.13698035 0.49626049 201 205 204
-0.00964517 0.13678010 0.49553499 201 205 204
-0.00877585 0.13658041 0.49481156 203 207 206
-0.00792639 0.13668019 0.49517301 202 206 205
-0.00706536 0.13658041 0.49481156 200 203 203
-0.00621012 0.13658041 0.49481156 199 202 201
-0.00535488 0.13658041 0.49481156 193 194 192
-0.00449964 0.13658041 0.49481156 184 187 192
-0.00364440 0.13658041 0.49481156 181 185 190
-0.00278915 0.13658041 0.49481156 180 185 190
-0.00193250 0.13648079 0.49445066 180 186 187
-0.00107710 0.13638131 0.49409026 180 186 186
-0.00022310 0.13638131 0.49409026 179 184 184
0.00063135 0.13648079 0.49445066 180 181 183
0.00148814 0.13668019 0.49517301 179 180 180
0.00234401 0.13668019 0.49517301 179 180 180
0.00319987 0.13668019 0.49517301 181 182 182
0.00406762 0.13708071 0.49662405 182 183 184
0.00492961 0.13718121 0.49698815 184 185 187
0.00578014 0.13698035 0.49626049 185 186 187
0.00662818 0.13678010 0.49553499 185 186 187
0.00749015 0.13688016 0.49589747 183 184 185
0.00838406 0.13748360 0.49808365 182 183 184
0.00924496 0.13748360 0.49808365 177 179 180
0.06150096 0.52413213 1.89885676 173 178 178
0.06460202 0.52266806 1.89355266 164 170 170
0.06731082 0.51832455 1.87781680 158 161 165
0.07036156 0.51689273 1.87262940 150 153 156
0.07319386 0.51405269 1.86234021 139 143 146
0.07578814 0.50985062 1.84711671 134 134 141
0.07791916 0.50299776 1.82228994 134 134 141
0.08042029 0.49897379 1.80771160 130 130 137
0.08332258 0.49764672 1.80290389 140 140 148
0.08598141 0.49501368 1.79336464 147 147 154
0.09003384 0.50030792 1.81254506 151 154 160
0.11936146 0.22763403 0.82468593 127 130 143
0.12034763 0.22680627 0.82168710 123 129 141
0.12206377 0.22735743 0.82368392 118 125 134
0.12348744 0.22735743 0.82368392 120 127 135
0.12491111 0.22735743 0.82368392 127 134 140
0.12602851 0.22680627 0.82168710 135 138 144
0.34899184 0.52708501 1.90955448 133 139 142
0.35130277 0.52560443 1.90419054 135 141 144
0.35659736 0.52857393 1.91494870 145 147 150
0.35688278 0.52413213 1.89885676 147 148 151
0.35716340 0.51976436 1.88303292 149 149 151
0.36142203 0.52121216 1.88827813 156 156 158
0.36879492 0.52708501 1.90955448 167 167 169
0.37314653 0.52857393 1.91494870 168 168 170
0.38184974 0.53614664 1.94238353 163 163 164
0.38631389 0.53768724 1.94796503 164 164 165
0.38745403 0.53461474 1.93683386 149 151 151
0.38529745 0.52708501 1.90955448 138 141 143
0.38534155 0.52266806 1.89355266 118 121 124
0.38326159 0.51546878 1.86747062 112 115 122
0.37512204 0.50030792 1.81254506 110 109 123
0.37825486 0.50030792 1.81254506 91 90 104
1.03192687 0.45306337 1.64138460 110 118 124
1.02730167 0.44979608 1.62954772 111 118 124
1.02518940 0.44764394 1.62175083 111 115 123
1.02553904 0.44657558 1.61788034 134 138 144
1.01861119 0.44235265 1.60258114 131 134 138
1.02138114 0.44235265 1.60258114 143 146 149
1.02901638 0.44445407 1.61019444 150 154 155
1.03179955 0.44445407 1.61019444 157 161 162
1.03952098 0.44657558 1.61788034 165 169 170
1.04231727 0.44657558 1.61788034 174 178 179
1.04014874 0.44445407 1.61019444 178 183 183
1.04293191 0.44445407 1.61019444 178 184 182
1.22158563 0.47612002 1.72491562 169 175 173
1.22145891 0.47491160 1.72053766 172 181 178
1.21518016 0.47132283 1.70753610 175 184 181
1.19999552 0.46430564 1.68211377 178 184 181
1.20589519 0.46546063 1.68629813 179 183 180
1.21485388 0.46778792 1.69472957 178 182 179
1.20871770 0.46430564 1.68211377 176 181 177
1.20564175 0.46201277 1.67380702 176 181 177
1.20259607 0.45974243 1.66558194 179 182 179
1.19958019 0.45749429 1.65743732 180 182 180
0.61798483 0.17261547 0.62536150 160 164 163
0.61735713 0.17213906 0.62363553 158 161 160
0.61504018 0.17119412 0.62021214 157 160 159
0.60540909 0.16676931 0.60418171 165 167 167
1.25861239 0.31030709 1.12419879 161 170 168
1.23797226 0.30474782 1.10405838 160 169 167
1.22788167 0.30179867 1.09337389 160 166 166
1.21993339 0.29938427 1.08462691 160 163 164
1.22958469 0.30082825 1.08985829 160 163 163
1.23146844 0.30082825 1.08985829 160 163 163
1.22547138 0.29890603 1.08289433 160 163 163
1.22698963 0.29700822 1.07601881 153 157 158
1.22681463 0.29606831 1.07261372 144 149 150
-0.27233034 0.28186655 1.01480818 102 114 120
-0.26936659 0.28060633 1.01027095 102 111 118
-0.26642925 0.27935734 1.00577426 104 109 118
-0.26429871 0.27894348 1.00428426 104 109 118
-0.01138312 0.13793908 0.49662405 203 207 208
-0.01050934 0.13773727 0.49589747 202 206 207
-0.00963812 0.13753605 0.49517301 203 207 208
-0.00877585 0.13743566 0.49481156 204 207 208
-0.00792061 0.13743566 0.49481156 203 207 207
-0.00706536 0.13743566 0.49481156 204 205 205
-0.00621012 0.13743566 0.49481156 198 199 199
-0.00535488 0.13743566 0.49481156 191 192 191
-0.00449964 0.13743566 0.49481156 181 185 186
-0.00364440 0.13743566 0.49481156 181 185 187
-0.00279119 0.13753605 0.49517301 183 187 188
-0.00193250 0.13733540 0.49445066 183 187 188
-0.00107788 0.13733540 0.49445066 182 187 187
-0.00022327 0.13733540 0.49445066 181 187 187
0.00063181 0.13743566 0.49481156 183 184 186
0.00148923 0.13763659 0.49553499 181 182 183
0.00234401 0.13753605 0.49517301 181 182 182
0.00320221 0.13763659 0.49553499 181 182 182
0.00407061 0.13804021 0.49698815 181 182 182
0.00492961 0.13804021 0.49698815 182 183 183
0.00577591 0.13773727 0.49589747 183 184 184
0.00662334 0.13753605 0.49517301 184 184 184
0.00749015 0.13773727 0.49589747 183 183 183
0.00837791 0.13824292 0.49771795 182 182 182
0.00923140 0.13814148 0.49735278 175 175 175
0.01009103 0.13814148 0.49735278 168 171 171
0.06478298 0.52741414 1.89885676 156 159 160
0.06749779 0.52301902 1.88303292 150 151 155
0.07055647 0.52157021 1.87781680 140 143 147
0.07339551 0.51869655 1.86747062 133 137 142
0.07620342 0.51585436 1.85723794 134 134 142
0.07834035 0.50888336 1.83214009 131 131 140
0.08063532 0.50344080 1.81254506 129 129 138
0.08332258 0.50076288 1.80290389 133 133 142
0.11950684 0.22933842 0.82569045 127 131 141
0.12034763 0.22822648 0.82168710 124 132 140
0.12206377 0.22878110 0.82368392 122 130 138
0.12348744 0.22878110 0.82368392 120 128 136
0.12491111 0.22878110 0.82368392 126 136 141
0.12587593 0.22795019 0.82069230 126 133 139
0.12668097 0.22685163 0.81673717 137 144 149
0.36589989 0.54575896 1.96490383 118 120 129
0.36298332 0.53642976 1.93131578 113 115 124
0.36016479 0.52741414 1.89885676 130 130 135
0.38854691 0.54418164 1.95922494 157 157 163
0.39080378 0.54261339 1.95357883 139 142 147
0.38968831 0.53642976 1.93131578 125 132 137
0.38750640 0.52889562 1.90419054 114 122 127
0.38538492 0.52157021 1.87781680 107 115 123
0.38652274 0.51444495 1.85216355 102 104 125
1.02483809 0.45152721 1.62563992 116 121 130
1.02274263 0.44937196 1.61788034 109 114 123
1.02309728 0.44830203 1.61402822 123 128 138
1.01861119 0.44512257 1.60258114 130 133 142
1.01897228 0.44407275 1.59880149 142 145 153
1.03704584 0.44830203 1.61402822 165 169 170
1.03983557 0.44830203 1.61402822 167 171 172
1.21540034 0.47667557 1.71618187 165 169 168
1.22145891 0.47788540 1.72053766 168 172 171
1.20908904 0.47189686 1.69897699 174 178 177
1.19702518 0.46605656 1.67795014 179 183 182
1.20290291 0.46721303 1.68211377 180 184 183
1.21182430 0.46954328 1.69050336 182 186 184
1.21172452 0.46837524 1.68629813 180 184 181
1.20862603 0.46605656 1.67795014 179 183 180
1.20259607 0.46262124 1.66558194 178 182 178
1.20252025 0.46148738 1.66149962 177 181 177
0.63292938 0.17915019 0.64499700 156 160 159
0.63404423 0.17915019 0.64499700 157 161 160
0.61906570 0.17369635 0.62536150 154 160 158
0.61786664 0.17305776 0.62306237 152 158 156
0.62173480 0.17353627 0.62478513 155 161 159
0.62274665 0.17321697 0.62363553 158 163 162
0.61310786 0.17024128 0.61292207 160 165 163
0.60757512 0.16841400 0.60634333 162 166 165
1.25445175 0.31121793 1.12048233 161 170 167
1.23595929 0.30615747 1.10226321 161 170 167
1.22788167 0.30368847 1.09337389 160 166 164
1.22188842 0.30174175 1.08636510 159 160 161
1.23156476 0.30319944 1.09161329 158 159 160
1.23345149 0.30319944 1.09161329 159 160 161
1.22743213 0.30125895 1.08462691 159 160 162
1.23070931 0.29886800 1.07601881 139 148 149
-0.27233034 0.28362057 1.01480818 102 112 119
-0.26936659 0.28235251 1.01027095 101 110 117
-0.26603454 0.28067932 1.00428426 100 108 115
-0.01137478 0.13869585 0.49626049 206 207 209
-0.01050934 0.13859439 0.49589747 206 207 209
-0.00963812 0.13839191 0.49517301 206 207 209
-0.00877585 0.13829090 0.49481156 205 206 208
-0.00792061 0.13829090 0.49481156 204 206 207
-0.00706536 0.13829090 0.49481156 203 204 204
-0.00621012 0.13829090 0.49481156 195 196 196
-0.00535488 0.13829090 0.49481156 188 192 193
-0.00449636 0.13819003 0.49445066 176 180 181
-0.00364440 0.13829090 0.49481156 180 184 185
-0.00278915 0.13829090 0.49481156 182 186 188
-0.00193250 0.13819003 0.49445066 182 186 187
-0.00107788 0.13819003 0.49445066 182 186 187
-0.00022327 0.13819003 0.49445066 182 187 187
0.00063181 0.13829090 0.49481156 183 184 186
0.00148923 0.13849308 0.49553499 181 182 183
0.00234401 0.13839191 0.49517301 182 183 183
0.00320221 0.13849308 0.49553499 179 180 180
0.00406465 0.13869585 0.49626049 181 182 182
0.00492600 0.13879746 0.49662405 177 177 177
0.00577169 0.13849308 0.49553499 177 176 176
0.00661850 0.13829090 0.49481156 174 173 171
0.00747920 0.13839191 0.49517301 173 173 171
0.00835338 0.13869585 0.49626049 174 174 172
0.00919766 0.13849308 0.49553499 168 168 168
0.01006150 0.13859439 0.49589747 167 167 168
0.01091064 0.13849308 0.49553499 160 161 163
0.01174995 0.13829090 0.49481156 154 155 157
0.06514795 0.53368598 1.90955448 148 149 153
0.06768581 0.52773964 1.88827813 138 138 147
0.07055647 0.52481586 1.87781680 132 133 142
0.07359825 0.52336609 1.87262940 132 134 143
0.07641277 0.52049047 1.86234021 131 134 142
0.07876612 0.51483297 1.84209740 128 131 139
0.08063532 0.50657362 1.81254506 127 130 138
0.08354478 0.50522274 1.80771160 125 128 137
0.11822370 0.23104699 0.82669735 127 132 143
0.11936146 0.23048483 0.82468593 127 131 143
0.12034763 0.22964670 0.82168710 126 130 142
0.12206377 0.23020478 0.82368392 127 135 142
0.12348744 0.23020478 0.82368392 123 133 138
0.12475952 0.22992539 0.82268429 122 132 137
0.12587593 0.22936869 0.82069230 120 125 132
0.12668097 0.22826329 0.81673717 129 134 141
0.39080378 0.54598999 1.95357883 140 143 151
0.38968831 0.53976792 1.93131578 124 130 136
0.38750640 0.53218687 1.90419054 105 113 119
1.01824844 0.44895387 1.60637879 122 127 136
1.01381779 0.44578478 1.59503961 132 137 146
1.03213096 0.44895387 1.60637879 165 168 169
1.03736567 0.45002025 1.61019444 163 165 167
1.20927751 0.47722551 1.70753610 159 162 159
1.21222878 0.47722551 1.70753610 157 160 158
1.20305860 0.47246516 1.69050336 157 160 160
1.19112861 0.46664664 1.66968429 166 169 168
1.19696271 0.46779883 1.67380702 174 175 175
1.20581031 0.47012043 1.68211377 180 181 181
1.20274878 0.46779883 1.67380702 183 184 181
1.20564175 0.46779883 1.67380702 179 181 177
1.19964850 0.46435913 1.66149962 175 177 172
1.19958019 0.46322379 1.65743732 175 177 171
0.63301921 0.18060870 0.64622670 145 147 148
0.63353223 0.18043670 0.64561129 148 153 152
0.63464808 0.18043670 0.64561129 149 155 153
0.63335121 0.17975193 0.64316112 149 155 153
0.62142444 0.17575003 0.62884218 145 151 151
0.62020999 0.17510031 0.62651742 144 151 151
0.62014657 0.17477724 0.62536150 146 155 154
0.62230837 0.17477724 0.62536150 152 160 159
0.62332010 0.17445537 0.62420982 156 162 161
0.61645210 0.17223503 0.61626530 156 162 161
0.60811907 0.16961372 0.60688615 158 163 163
1.25652862 0.31367305 1.12233746 161 168 166
1.23595929 0.30806264 1.10226321 161 169 166
1.22986531 0.30607194 1.09514034 161 167 165
1.22977149 0.30557826 1.09337389 160 161 161
1.23166132 0.30557826 1.09337389 159 160 160
1.23554397 0.30607194 1.09514034 159 160 160
1.23743677 0.30607194 1.09514034 161 161 161
1.23335218 0.30459571 1.08985829 161 162 162
-0.01136646 0.13945150 0.49589747 204 207 208
-0.01050166 0.13934956 0.49553499 204 207 208
-0.00963812 0.13924778 0.49517301 204 208 209
-0.00877585 0.13914613 0.49481156 203 207 208
-0.00792061 0.13914613 0.49481156 203 207 208
-0.00706021 0.13904464 0.49445066 200 202 202
-0.00620559 0.13904464 0.49445066 191 192 192
-0.00535097 0.13904464 0.49445066 185 188 189
-0.00449636 0.13904464 0.49445066 171 174 176
-0.00364174 0.13904464 0.49445066 178 181 183
-0.00278915 0.13914613 0.49481156 181 183 186
-0.00193109 0.13894330 0.49409026 183 185 188
-0.00107710 0.13894330 0.49409026 184 186 189
-0.00022310 0.13894330 0.49409026 183 185 187
0.00063135 0.13904464 0.49445066 181 182 184
0.00148814 0.13924778 0.49517301 181 182 183
0.00234230 0.13914613 0.49481156 182 182 182
0.00319987 0.13924778 0.49517301 178 178 178
0.00405870 0.13934956 0.49553499 175 175 177
0.00491520 0.13934956 0.49553499 168 168 170
0.00576747 0.13924778 0.49517301 167 166 168
0.00661368 0.13904464 0.49445066 163 163 163
0.00746829 0.13904464 0.49445066 164 164 165
0.00833507 0.13924778 0.49517301 164 164 166
0.00918423 0.13914613 0.49481156 162 162 164
0.01004680 0.13924778 0.49517301 159 159 161
0.01089471 0.13914613 0.49481156 154 154 156
0.01173283 0.13894330 0.49409026 146 147 149
0.01256850 0.13874106 0.49337107 146 146 149
0.01340174 0.13853940 0.49265397 144 144 148
0.01422225 0.13823801 0.49158219 145 145 154
0.07380213 0.52806151 1.87781680 130 131 142
0.07662328 0.52515209 1.86747062 129 131 140
0.07898074 0.51942837 1.84711671 127 130 139
0.08085150 0.51107293 1.81740439 125 130 138
0.08376816 0.50970644 1.81254506 118 125 135
0.11836806 0.23275971 0.82770675 118 124 135
0.11936146 0.23191023 0.82468593 118 122 134
0.12034763 0.23106693 0.82168710 116 123 132
0.12206377 0.23162845 0.82368392 118 124 133
0.12348744 0.23162845 0.82368392 118 124 133
0.12475952 0.23134734 0.82268429 119 126 132
0.12587593 0.23078719 0.82069230 125 129 136
0.12683378 0.22995201 0.81772238 126 129 137
1.01143789 0.44748875 1.59129536 135 140 146
1.20615244 0.47776994 1.69897699 156 157 154
1.19708812 0.47302783 1.68211377 154 155 154
1.19112861 0.46953255 1.66968429 152 153 153
1.19401443 0.46953255 1.66968429 155 156 156
1.20282567 0.47185695 1.67795014 162 163 163
1.19978631 0.46953255 1.66968429 174 174 172
1.20267224 0.46953255 1.66968429 178 178 174
1.19964850 0.46723092 1.66149962 173 173 169
1.19958019 0.46608853 1.65743732 171 171 166
1.19951212 0.46495172 1.65339470 171 171 166
0.63181460 0.18137984 0.64499700 139 143 145
0.63232774 0.18120742 0.64438391 141 147 147
0.63404423 0.18137984 0.64499700 141 148 148
0.63155359 0.18035024 0.64133573 137 144 144
0.62790972 0.17899550 0.63651818 135 143 142
0.62257951 0.17716563 0.63001102 136 145 144
0.62020999 0.17618319 0.62651742 139 148 147
0.62071919 0.17602050 0.62593889 141 150 149
0.62288296 0.17602050 0.62593889 146 155 155
0.62389457 0.17569605 0.62478513 151 159 159
1.26070321 0.31666148 1.12606621 161 167 165
1.23797226 0.31047267 1.10405838 162 168 166
1.23185539 0.30846313 1.09691238 164 169 167
1.23375142 0.30846313 1.09691238 165 166 166
1.23564732 0.30846313 1.09691238 164 165 165
1.23954892 0.30896306 1.09869015 164 164 164
1.23943913 0.30846313 1.09691238 166 166 166
1.23932970 0.30796480 1.09514034 165 165 165
1.23922062 0.30746809 1.09337389 164 165 166
-0.01219681 0.14000139 0.49481156 201 205 206
-0.01135815 0.14020607 0.49553499 202 206 207
-0.01049399 0.14010365 0.49517301 203 207 208
-0.00963812 0.14010365 0.49517301 203 207 208
-0.00877585 0.14000139 0.49481156 203 207 208
-0.00792061 0.14000139 0.49481156 203 208 208
-0.00706021 0.13989927 0.49445066 195 197 197
-0.00620559 0.13989927 0.49445066 187 188 188
-0.00534707 0.13979730 0.49409026 173 173 175
-0.00449308 0.13979730 0.49409026 164 164 168
-0.00363908 0.13979730 0.49409026 174 174 178
-0.00278712 0.13989927 0.49445066 176 175 181
-0.00192969 0.13969548 0.49373040 174 175 178
-0.00107631 0.13969548 0.49373040 176 177 179
-0.00022294 0.13969548 0.49373040 180 180 182
0.00063089 0.13979730 0.49409026 182 182 184
0.00148814 0.14010365 0.49517301 181 182 182
0.00234230 0.14000139 0.49481156 179 179 179
0.00319754 0.14000139 0.49481156 175 175 177
0.00405574 0.14010365 0.49517301 171 172 173
0.00491161 0.14010365 0.49517301 167 168 170
0.00576326 0.14000139 0.49481156 155 158 159
0.00660886 0.13979730 0.49409026 153 156 158
0.00746285 0.13979730 0.49409026 153 156 159
0.00832291 0.13989927 0.49445066 151 152 156
0.00916416 0.13969548 0.49373040 152 152 156
0.01003215 0.13989927 0.49445066 150 150 153
0.01088677 0.13989927 0.49445066 149 149 151
0.01172428 0.13969548 0.49373040 144 144 146
0.01255023 0.13939092 0.49265397 140 140 144
0.01338229 0.13918860 0.49193892 136 137 141
0.01421194 0.13898689 0.49122596 141 141 149
0.01505008 0.13888624 0.49087027 141 141 150
0.07662328 0.52837986 1.86747062 129 129 140
0.07919653 0.52404886 1.85216355 127 129 140
0.08128736 0.51698625 1.82720172 126 129 139
0.08467376 0.51838350 1.83214009 125 127 140
0.11909513 0.23562886 0.83279097 113 117 131
0.11979868 0.23419034 0.82770675 107 111 127
0.12049369 0.23276928 0.82268429 106 110 124
0.12236112 0.23361984 0.82569045 107 111 123
0.12363767 0.23333563 0.82468593 107 111 122
0.12491111 0.23305212 0.82368392 110 113 123
0.12602851 0.23248714 0.82168710 123 126 134
1.01143789 0.45023918 1.59129536 123 127 136
1.01181316 0.44918475 1.58756876 133 138 143
1.19122481 0.47475716 1.67795014 154 154 150
1.18824267 0.47241846 1.66968429 154 154 152
1.19690037 0.47241846 1.66968429 147 148 147
1.19390500 0.47010267 1.66149962 147 147 147
1.19971728 0.47125772 1.66558194 156 156 156
1.19379663 0.46780950 1.65339470 165 165 164
1.19374275 0.46667126 1.64937186 162 162 160
1.19079900 0.46441135 1.64138460 162 162 160
1.19653308 0.46553856 1.64536858 164 164 163
0.63112789 0.18197523 0.64316112 126 133 135
0.63283998 0.18214804 0.64377195 125 134 135
0.62976623 0.18094519 0.63952059 123 132 133
0.62556022 0.17942178 0.63413644 124 133 134
0.62084848 0.17775893 0.62825936 128 137 138
0.62020999 0.17726608 0.62651742 135 144 145
0.62071919 0.17710239 0.62593889 137 146 147
0.62237579 0.17726608 0.62651742 139 148 149
0.62288296 0.17710239 0.62593889 142 151 151
0.62454152 0.17726608 0.62651742 143 152 153
0.62332010 0.17661317 0.62420982 145 154 155
0.61983299 0.17532165 0.61964518 147 156 157
0.61472309 0.17357637 0.61347675 149 158 159
1.26717663 0.32073894 1.13359845 161 168 167
1.26280081 0.31913793 1.12793982 161 168 167
1.23999178 0.31289053 1.10585940 164 170 169
1.23385191 0.31086206 1.09869015 170 175 174
1.23375142 0.31035906 1.09691238 170 172 172
1.23764992 0.31086206 1.09869015 170 171 171
1.24156117 0.31136671 1.10047376 169 170 170
1.24144793 0.31086206 1.09869015 169 169 169
1.24133503 0.31035906 1.09691238 168 168 168
1.24122250 0.30985767 1.09514034 167 167 168
1.24311543 0.30985767 1.09514034 166 166 168
1.24500823 0.30985767 1.09514034 160 160 162
1.24891877 0.31035906 1.09691238 156 156 158
1.24879396 0.30985767 1.09514034 151 152 154
1.25068688 0.30985767 1.09514034 147 148 150
1.25257969 0.30985767 1.09514034 149 150 152
-0.01219681 0.14085662 0.49481156 199 205 205
-0.01134986 0.14095952 0.49517301 202 206 207
-0.01048633 0.14085662 0.49481156 204 206 208
-0.00963812 0.14095952 0.49517301 204 206 207
-0.00877585 0.14085662 0.49481156 203 205 206
-0.00791483 0.14075388 0.49445066 202 206 204
-0.00706021 0.14075388 0.49445066 190 192 190
-0.00620107 0.14065129 0.49409026 183 183 182
-0.00534318 0.14054886 0.49373040 161 161 163
-0.00448654 0.14044656 0.49337107 154 154 157
-0.00363379 0.14044656 0.49337107 165 165 167
-0.00278306 0.14054886 0.49373040 168 168 172
-0.00192828 0.14044656 0.49337107 168 168 170
-0.00107553 0.14044656 0.49337107 174 174 176
-0.00022278 0.14044656 0.49337107 177 177 179
0.00063043 0.14054886 0.49373040 176 177 178
0.00148705 0.14085662 0.49481156 177 177 178
0.00234059 0.14075388 0.49445066 176 176 176
0.00319520 0.14075388 0.49445066 173 173 173
0.00404982 0.14075388 0.49445066 167 168 169
0.00490802 0.14085662 0.49481156 162 163 165
0.00575906 0.14075388 0.49445066 153 157 158
0.00660404 0.14054886 0.49373040 145 149 152
0.00745199 0.14044656 0.49337107 142 146 149
0.00831079 0.14054886 0.49373040 145 146 150
0.00914418 0.14024243 0.49265397 147 148 152
0.01001024 0.14044656 0.49337107 146 147 150
0.01087091 0.14054886 0.49373040 145 146 148
0.01169872 0.14024243 0.49265397 142 142 145
0.01253202 0.14003888 0.49193892 136 138 141
0.01339201 0.14014058 0.49229619 130 132 136
0.01423257 0.14003888 0.49193892 137 136 143
0.01506099 0.13983592 0.49122596 137 137 146
0.01589851 0.13973467 0.49087027 137 138 147
0.01673482 0.13963355 0.49051508 140 140 151
0.01760812 0.13983592 0.49122596 137 137 148
0.01844380 0.13973467 0.49087027 131 132 143
0.07941350 0.52869475 1.85723794 126 129 140
0.12009194 0.23619777 0.82973295 94 95 113
0.12078686 0.23476104 0.82468593 88 89 107
0.12311088 0.23648722 0.83074981 89 91 107
0.12409055 0.23562098 0.82770675 98 100 116
0.12521540 0.23504698 0.82569045 105 108 118
0.12602851 0.23390736 0.82168710 118 121 129
1.00906920 0.45192873 1.58756876 129 132 140
1.00944912 0.45087284 1.58385944 132 137 144
1.18828356 0.47647795 1.67380702 158 157 153
1.18532312 0.47413653 1.66558194 155 155 151
1.18239164 0.47181803 1.65743732 152 152 149
1.19395959 0.47413653 1.66558194 141 142 140
1.19098592 0.47181803 1.65743732 138 139 137
1.19677675 0.47297445 1.66149962 146 146 146
1.19089198 0.46952209 1.64937186 151 151 151
1.18796194 0.46724835 1.64138460 156 157 157
1.18221140 0.46387878 1.62954772 159 160 160
1.18502796 0.46387878 1.62954772 160 162 162
1.20817435 0.47181803 1.65743732 163 166 166
1.21998775 0.47530437 1.66968429 167 169 170
0.63164026 0.18291333 0.64255148 111 121 123
0.62976623 0.18205054 0.63952059 118 128 129
0.62614590 0.18068686 0.63473016 124 133 136
0.62142444 0.17901073 0.62884218 129 137 143
0.62020999 0.17834896 0.62651742 132 140 146
0.62071919 0.17818429 0.62593889 133 141 147
0.62180108 0.17818429 0.62593889 134 142 147
0.62230837 0.17801990 0.62536150 134 143 148
0.62396485 0.17818429 0.62593889 136 144 148
0.62274665 0.17752859 0.62363553 139 147 150
0.61983299 0.17639266 0.61964518 145 153 156
1.26717663 0.32269830 1.13359845 162 168 168
1.26280081 0.32108748 1.12793982 163 169 169
1.24201798 0.31531629 1.10766637 165 171 171
1.23385191 0.31276107 1.09869015 170 176 176
1.23575091 0.31276107 1.09869015 168 172 172
1.23764992 0.31276107 1.09869015 167 170 170
1.24357998 0.31377816 1.10226321 167 170 170
1.24346328 0.31326878 1.10047376 167 170 170
1.24334693 0.31276107 1.09869015 168 170 170
1.24122250 0.31175053 1.09514034 167 168 169
1.24512696 0.31225497 1.09691238 164 164 166
1.24702287 0.31225497 1.09691238 160 160 162
1.24891877 0.31225497 1.09691238 156 157 158
1.25081468 0.31225497 1.09691238 153 154 154
1.25271058 0.31225497 1.09691238 151 152 152
-0.01219681 0.14171186 0.49481156 200 205 205
-0.01134986 0.14181538 0.49517301 200 204 205
-0.01048633 0.14171186 0.49481156 201 205 205
-0.00963812 0.14181538 0.49517301 201 205 205
-0.00876945 0.14160851 0.49445066 200 204 203
-0.00791483 0.14160851 0.49445066 199 203 198
-0.00706021 0.14160851 0.49445066 185 187 182
-0.00619655 0.14140223 0.49373040 174 174 170
-0.00533929 0.14129931 0.49337107 151 150 152
-0.00448328 0.14119655 0.49301225 143 142 145
-0.00363114 0.14119655 0.49301225 146 145 149
-0.00277901 0.14119655 0.49301225 158 157 164
-0.00192408 0.14099146 0.49229619 162 163 167
-0.00107319 0.14099146 0.49229619 172 173 176
-0.00022246 0.14109394 0.49265397 172 173 177
0.00062951 0.14119655 0.49301225 174 175 177
0.00148597 0.14160851 0.49445066 175 176 178
0.00233888 0.14150529 0.49409026 177 178 179
0.00319288 0.14150529 0.49409026 172 173 175
0.00404687 0.14150529 0.49409026 168 169 171
0.00490087 0.14150529 0.49409026 162 163 165
0.00575067 0.14140223 0.49373040 156 157 159
0.00659444 0.14119655 0.49301225 151 151 155
0.00744657 0.14119655 0.49301225 144 145 149
0.00829267 0.14109394 0.49265397 143 144 148
0.00913091 0.14088915 0.49193892 142 143 147
0.01000296 0.14119655 0.49301225 140 141 144
0.01085510 0.14119655 0.49301225 139 142 143
0.01168174 0.14088915 0.49193892 138 139 143
0.01254112 0.14099146 0.49229619 133 134 139
0.01341149 0.14119655 0.49301225 129 130 136
0.01424291 0.14099146 0.49229619 128 128 135
0.01508285 0.14088915 0.49193892 123 123 133
0.01591003 0.14068496 0.49122596 128 128 139
0.01674694 0.14058310 0.49087027 133 133 144
0.01762089 0.14078699 0.49158219 137 138 149
0.01845716 0.14068496 0.49122596 135 136 148
0.01927827 0.14048137 0.49051508 125 128 141
1.00242281 0.45045301 1.57283485 134 138 145
1.00281465 0.44941032 1.56919408 137 142 149
1.18828356 0.47937101 1.67380702 165 164 160
1.18532312 0.47701538 1.66558194 159 158 154
1.18239164 0.47468278 1.65743732 152 151 147
1.19395959 0.47701538 1.66558194 137 138 135
1.19098592 0.47468278 1.65743732 138 139 135
1.19677675 0.47584620 1.66149962 147 148 147
1.18800151 0.47122633 1.64536858 151 152 152
1.18796194 0.47008535 1.64138460 153 155 156
1.17937636 0.46557614 1.62563992 155 159 160
1.18502796 0.46669534 1.62954772 158 162 163
1.20522761 0.47352502 1.65339470 159 167 168
0.62976623 0.18315589 0.63952059 120 132 136
0.62790972 0.18229601 0.63651818 122 135 139
0.62315863 0.18060024 0.63059705 126 138 143
0.62078375 0.17959782 0.62709701 130 142 147
0.62129289 0.17943184 0.62651742 134 145 149
0.62180108 0.17926617 0.62593889 137 145 147
0.62288296 0.17926617 0.62593889 138 147 149
0.62396485 0.17926617 0.62593889 139 148 150
0.61983299 0.17746367 0.61964518 144 153 155
1.26929915 0.32520142 1.13549721 162 167 168
1.26490545 0.32357544 1.12981975 161 167 167
1.24201798 0.31723082 1.10766637 159 165 165
1.23385191 0.31466004 1.09869015 165 171 171
1.23575091 0.31466004 1.09869015 165 171 171
1.23764992 0.31466004 1.09869015 165 171 171
1.24357998 0.31568334 1.10226321 165 171 171
1.24346328 0.31517085 1.10047376 165 171 171
1.24334693 0.31466004 1.09869015 166 172 172
1.24323094 0.31415090 1.09691238 167 172 172
1.24512696 0.31415090 1.09691238 164 165 167
1.24904394 0.31466004 1.09869015 160 160 162
1.25094295 0.31466004 1.09869015 157 157 158
1.25081468 0.31415090 1.09691238 155 155 155
1.25271058 0.31415090 1.09691238 155 155 155
-0.01217903 0.14235929 0.49409026 199 203 204
-0.01133330 0.14246312 0.49445066 199 203 204
-0.01047868 0.14246312 0.49445066 199 203 204
-0.00963109 0.14256711 0.49481156 200 204 205
-0.00876945 0.14246312 0.49445066 200 204 204
-0.00791483 0.14246312 0.49445066 192 192 190
-0.00705506 0.14235929 0.49409026 181 181 180
-0.00619204 0.14215207 0.49337107 162 162 161
-0.00533153 0.14194545 0.49265397 136 135 138
-0.00448002 0.14194545 0.49265397 142 139 144
-0.00362587 0.14184237 0.49229619 144 141 147
-0.00277498 0.14184237 0.49229619 158 156 165
-0.00192129 0.14163664 0.49158219 163 163 170
-0.00107163 0.14163664 0.49158219 172 172 178
-0.00022213 0.14173943 0.49193892 173 174 178
0.00062814 0.14173943 0.49193892 174 175 179
0.00148380 0.14225560 0.49373040 175 176 180
0.00233888 0.14235929 0.49409026 177 178 180
0.00319055 0.14225560 0.49373040 173 174 176
0.00404392 0.14225560 0.49373040 170 171 173
0.00489730 0.14225560 0.49373040 164 165 167
0.00574648 0.14215207 0.49337107 158 158 160
0.00658964 0.14194545 0.49265397 152 152 154
0.00743575 0.14184237 0.49229619 149 149 151
0.00827463 0.14163664 0.49158219 142 143 147
0.00912429 0.14163664 0.49158219 138 140 144
0.00998843 0.14184237 0.49229619 137 140 143
0.01084721 0.14194545 0.49265397 139 143 144
0.01167327 0.14163664 0.49158219 137 141 142
0.01253202 0.14173943 0.49193892 131 133 137
0.01340174 0.14194545 0.49265397 133 133 140
0.01424291 0.14184237 0.49229619 134 134 143
0.01508285 0.14173943 0.49193892 138 138 148
0.01591003 0.14153402 0.49122596 150 150 161
0.01674694 0.14143153 0.49087027 151 152 160
0.01762089 0.14163664 0.49158219 153 156 164
0.01845716 0.14153402 0.49122596 152 156 164
0.01929223 0.14143153 0.49087027 149 156 163
0.02011153 0.14122699 0.49016041 149 156 165
1.00475407 0.45422542 1.57649267 140 145 150
1.00281465 0.45212254 1.56919408 140 145 152
1.18236554 0.47638276 1.65339470 143 142 140
1.19103324 0.47871798 1.66149962 137 138 136
1.18808103 0.47638276 1.65339470 137 138 136
1.19093883 0.47638276 1.65339470 144 145 145
1.18512499 0.47292235 1.64138460 151 152 153
1.17939496 0.46951187 1.62954772 153 156 156
1.17095232 0.46504033 1.61402822 153 162 161
1.17095399 0.46393570 1.61019444 158 167 166
1.19358289 0.47178003 1.63741994 161 171 170
0.63036090 0.18443526 0.64012450 135 150 148
0.62849987 0.18356855 0.63711637 136 151 150
0.62490255 0.18219863 0.63236177 139 155 152
0.62078375 0.18068172 0.62709701 140 156 153
0.62129289 0.18051472 0.62651742 140 155 153
0.62237579 0.18051472 0.62651742 143 155 153
0.62288296 0.18034805 0.62593889 144 155 153
0.62396485 0.18034805 0.62593889 145 155 154
0.62274665 0.17968440 0.62363553 146 155 155
0.62040007 0.17869802 0.62021214 147 156 156
0.62033695 0.17837164 0.61907929 148 157 157
1.26717663 0.32661694 1.13359845 160 164 165
1.26490545 0.32552823 1.12981975 161 165 166
1.25018907 0.32124496 1.11495364 155 160 161
1.23988056 0.31810576 1.10405838 158 164 164
1.24178886 0.31810576 1.10405838 162 167 167
1.24369717 0.31810576 1.10405838 164 170 170
1.24967599 0.31914532 1.10766637 165 171 171
1.24751365 0.31810576 1.10405838 165 171 171
1.24739039 0.31758851 1.10226321 166 172 172
1.24524593 0.31655905 1.09869015 168 174 174
1.24916959 0.31707296 1.10047376 164 167 167
1.25310588 0.31758851 1.10226321 159 160 160
1.25501108 0.31758851 1.10226321 155 155 155
1.25487578 0.31707296 1.10047376 157 157 157
-0.01217016 0.14310896 0.49373040 200 201 203
-0.01132504 0.14321327 0.49409026 201 202 204
-0.01047104 0.14321327 0.49409026 199 203 204
-0.00962406 0.14331774 0.49445066 199 203 203
-0.00876305 0.14321327 0.49409026 198 199 197
-0.00790906 0.14321327 0.49409026 187 188 186
-0.00704993 0.14310896 0.49373040 174 174 173
-0.00618754 0.14290081 0.49301225 151 151 153
-0.00532766 0.14269325 0.49229619 133 130 135
-0.00447676 0.14269325 0.49229619 143 140 145
-0.00362587 0.14269325 0.49229619 149 145 150
-0.00277498 0.14269325 0.49229619 156 154 161
-0.00191990 0.14238305 0.49122596 164 164 168
-0.00107086 0.14238305 0.49122596 171 172 174
-0.00022197 0.14248630 0.49158219 172 173 175
0.00062814 0.14258970 0.49193892 174 175 177
0.00148272 0.14300482 0.49337107 174 175 177
0.00233718 0.14310896 0.49373040 176 177 179
0.00319288 0.14321327 0.49409026 175 176 178
0.00404687 0.14321327 0.49409026 168 169 170
0.00490087 0.14321327 0.49409026 165 165 165
0.00575067 0.14310896 0.49373040 161 161 162
0.00659444 0.14290081 0.49301225 152 152 153
0.00744116 0.14279696 0.49265397 155 155 155
0.00828063 0.14258970 0.49193892 142 143 147
0.00912429 0.14248630 0.49158219 141 142 146
0.00999569 0.14279696 0.49265397 144 145 149
0.01086300 0.14300482 0.49337107 139 142 146
0.01168174 0.14258970 0.49193892 136 140 143
0.01255023 0.14279696 0.49265397 140 143 147
0.01343103 0.14310896 0.49373040 145 148 156
0.01426362 0.14290081 0.49301225 150 153 159
0.01510477 0.14279696 0.49265397 156 159 164
0.01592157 0.14248630 0.49158219 165 167 173
0.01675908 0.14238305 0.49122596 164 168 171
0.01763368 0.14258970 0.49193892 171 175 178
0.01848395 0.14258970 0.49193892 170 174 178
0.01930621 0.14238305 0.49122596 166 175 176
0.02014066 0.14227995 0.49087027 166 172 175
1.17946982 0.47691411 1.64536858 134 135 136
1.17094529 0.47232839 1.62954772 135 136 138
1.17376184 0.47232839 1.62954772 141 142 143
1.16537285 0.46783003 1.61402822 149 150 152
1.16262627 0.46561283 1.60637879 153 155 157
1.16264772 0.46451211 1.60258114 157 165 165
0.63036090 0.18554166 0.64012450 149 157 155
0.62849987 0.18466975 0.63711637 150 158 155
0.62315863 0.18278010 0.63059705 150 161 157
0.62020999 0.18159762 0.62651742 150 163 159
0.62071919 0.18142994 0.62593889 148 162 158
0.62180108 0.18142994 0.62593889 147 156 152
0.62288296 0.18142994 0.62593889 151 158 154
0.62396485 0.18142994 0.62593889 157 164 161
0.62217426 0.18059616 0.62306237 158 166 165
0.62096822 0.17993464 0.62078005 155 164 163
0.62090403 0.17960568 0.61964518 151 160 159
0.62197500 0.17960568 0.61964518 149 158 157
1.26717663 0.32857630 1.13359845 159 163 164
1.26701725 0.32802776 1.13170588 165 169 169
1.25638843 0.32477456 1.12048233 162 166 166
1.24801087 0.32211250 1.11129808 161 165 166
1.24788594 0.32158530 1.10947931 162 166 166
1.25390804 0.32264140 1.11312294 163 169 168
1.25789750 0.32317206 1.11495364 164 169 169
1.25363898 0.32158530 1.10947931 164 171 170
1.25146019 0.32053608 1.10585940 164 172 172
1.25133026 0.32001403 1.10405838 167 175 175
1.25733399 0.32105982 1.10766637 165 169 168
1.25924850 0.32105982 1.10766637 161 162 162
1.26116312 0.32105982 1.10766637 156 157 157
1.25896335 0.32001403 1.10405838 158 159 159
-0.01215246 0.14375295 0.49301225 200 201 203
-0.01130855 0.14385757 0.49337107 199 202 203
-0.01046342 0.14396234 0.49373040 199 202 202
-0.00962406 0.14417236 0.49445066 197 201 199
-0.00876305 0.14406727 0.49409026 188 191 189
-0.00790906 0.14406727 0.49409026 178 179 179
-0.00704993 0.14396234 0.49373040 165 165 166
-0.00618304 0.14364848 0.49265397 141 141 143
-0.00532379 0.14343998 0.49193892 142 138 143
-0.00447027 0.14333597 0.49158219 145 142 146
-0.00362324 0.14343998 0.49193892 147 146 148
-0.00277296 0.14343998 0.49193892 155 155 157
-0.00191990 0.14323211 0.49122596 164 164 166
-0.00107086 0.14323211 0.49122596 167 168 170
-0.00022197 0.14333597 0.49158219 170 171 173
0.00062769 0.14333597 0.49158219 170 171 173
0.00148057 0.14364848 0.49265397 170 171 172
0.00744657 0.14375295 0.49301225 147 147 147
0.00828665 0.14354415 0.49229619 144 144 146
0.00913091 0.14343998 0.49193892 141 141 143
0.01000296 0.14375295 0.49301225 142 142 144
0.01087883 0.14406727 0.49409026 135 136 141
0.01170723 0.14375295 0.49301225 148 151 155
0.01258682 0.14406727 0.49409026 150 154 157
0.01346044 0.14427759 0.49481156 158 162 166
0.01429481 0.14406727 0.49409026 162 167 168
0.01513777 0.14396234 0.49373040 164 169 170
0.01595628 0.14364848 0.49265397 168 174 176
0.01679559 0.14354415 0.49229619 175 179 180
0.01767215 0.14375295 0.49301225 175 179 180
0.01852428 0.14375295 0.49301225 174 178 179
1.16253960 0.47287154 1.62175083 130 131 134
1.15979338 0.47061977 1.61402822 131 131 137
1.16258311 0.47061977 1.61402822 136 137 142
1.15984976 0.46838933 1.60637879 139 142 144
1.15987778 0.46728203 1.60258114 146 149 151
1.15990555 0.46617994 1.59880149 154 160 160
1.15993333 0.46508306 1.59503961 161 169 169
0.62614590 0.18507518 0.63473016 157 161 160
0.62142444 0.18335834 0.62884218 156 161 158
0.61963731 0.18251182 0.62593889 156 162 156
0.62014657 0.18234345 0.62536150 159 165 159
0.62122744 0.18234345 0.62536150 157 162 157
0.62230837 0.18234345 0.62536150 157 162 157
0.62338924 0.18234345 0.62536150 164 168 164
0.62217426 0.18167306 0.62306237 166 173 170
0.62096822 0.18100759 0.62078005 160 169 167
0.62147206 0.18084200 0.62021214 148 157 155
0.62197500 0.18067668 0.61964518 149 156 155
1.26929915 0.33108929 1.13549721 162 168 166
1.26701725 0.32998380 1.13170588 164 170 168
1.26055551 0.32779485 1.12419879 163 168 166
1.25832510 0.32671124 1.12048233 162 167 166
1.25818205 0.32617211 1.11863339 162 167 166
1.26428807 0.32725215 1.12233746 164 168 167
1.26413500 0.32671124 1.12048233 164 169 168
1.25982463 0.32509917 1.11495364 165 170 169
1.25555658 0.32350296 1.10947931 165 171 171
1.26545179 0.32456535 1.11312294 162 163 163
1.26529801 0.32403329 1.11129808 158 159 159
1.26514482 0.32350296 1.10947931 158 159 159
-0.01212601 0.14429025 0.49193892 200 201 203
-0.01128392 0.14439505 0.49229619 199 200 202
-0.01044820 0.14460507 0.49301225 199 202 202
-0.00962406 0.14502697 0.49445066 192 196 195
-0.00875667 0.14481571 0.49373040 183 184 184
-0.00790906 0.14492127 0.49409026 168 169 171
-0.00704479 0.14471032 0.49337107 145 146 148
-0.00618304 0.14449999 0.49265397 127 126 129
-0.00531993 0.14418563 0.49158219 137 134 140
-0.00446703 0.14408115 0.49122596 140 138 143
-0.00362061 0.14418563 0.49158219 144 143 147
-0.00277296 0.14429025 0.49193892 151 152 154
-0.00191990 0.14408115 0.49122596 160 160 162
-0.00107086 0.14408115 0.49122596 163 163 165
-0.00022197 0.14418563 0.49158219 163 164 166
0.00062723 0.14408115 0.49122596 163 163 165
0.00147949 0.14439505 0.49229619 164 164 166
0.00743575 0.14439505 0.49229619 147 147 148
0.00826863 0.14408115 0.49122596 145 146 148
0.00911107 0.14397681 0.49087027 142 144 148
0.00998119 0.14429025 0.49193892 140 142 148
0.01084721 0.14449999 0.49265397 141 143 151
0.01169022 0.14439505 0.49229619 154 157 161
0.01258682 0.14492127 0.49409026 157 161 164
0.01346044 0.14513282 0.49481156 167 171 172
0.01429481 0.14492127 0.49409026 171 177 177
0.01513777 0.14481571 0.49373040 173 178 179
0.01595628 0.14449999 0.49265397 175 180 182
0.01679559 0.14439505 0.49229619 176 180 181
0.01767215 0.14460507 0.49301225 175 179 179
1.15700376 0.47340947 1.61402822 126 127 130
1.15703857 0.47228497 1.61019444 128 129 134
1.15433788 0.47005197 1.60258114 130 131 136
1.15437877 0.46894336 1.59880149 132 137 141
1.15170956 0.46674174 1.59129536 135 140 143
0.62614590 0.18617226 0.63473016 157 162 161
0.62200141 0.18461651 0.62942606 159 163 161
0.62020999 0.18376338 0.62651742 161 167 161
0.62071919 0.18359371 0.62593889 164 170 164
0.62338924 0.18342434 0.62536150 162 166 161
0.62217426 0.18274999 0.62306237 163 168 164
0.62153739 0.18224746 0.62134910 160 167 164
0.62261134 0.18224746 0.62134910 148 156 153
0.62254405 0.18191399 0.62021214 148 154 152
0.62304604 0.18174769 0.61964518 150 155 154
0.62583321 0.18224746 0.62134910 153 158 157
1.26717663 0.33249494 1.13359845 166 175 172
1.26701725 0.33193988 1.13170588 164 173 170
1.26264942 0.33028567 1.12606621 164 171 168
1.26249862 0.32973793 1.12419879 164 169 167
1.26234829 0.32919201 1.12233746 163 169 167
1.26848841 0.33028567 1.12606621 163 169 167
1.26832783 0.32973793 1.12419879 164 170 168
1.26398253 0.32810557 1.11863339 166 171 170
1.25967991 0.32648930 1.11312294 166 170 171
1.27155161 0.32756504 1.11679053 165 166 168
1.27138734 0.32702628 1.11495364 161 162 164
-0.00961004 0.14566909 0.49373040 187 188 188
-0.00875030 0.14556307 0.49337107 179 180 181
-0.00790330 0.14566909 0.49373040 161 162 164
-0.00703967 0.14545721 0.49301225 134 135 138
-0.00617407 0.14514054 0.49193892 110 112 121
-0.00531223 0.14482525 0.49087027 117 116 129
-0.00446057 0.14472045 0.49051508 124 124 136
-0.00361537 0.14482525 0.49087027 134 134 142
-0.00276894 0.14493018 0.49122596 145 146 152
-0.00191851 0.14482525 0.49087027 157 157 163
-0.00107008 0.14482525 0.49087027 156 156 163
-0.00022181 0.14493018 0.49122596 155 156 158
0.00062723 0.14493018 0.49122596 155 155 160
0.00147735 0.14503528 0.49158219 154 153 160
0.00233378 0.14545721 0.49301225 154 154 159
0.00319055 0.14566909 0.49373040 156 157 160
0.00404392 0.14566909 0.49373040 154 155 158
0.00742497 0.14503528 0.49158219 149 150 154
0.00825070 0.14461581 0.49016041 149 150 154
0.00909133 0.14451131 0.48980623 147 151 156
0.00994510 0.14461581 0.49016041 145 153 159
0.01080793 0.14482525 0.49087027 148 153 160
0.01165636 0.14482525 0.49087027 155 161 167
0.01255936 0.14545721 0.49301225 168 173 179
0.01345062 0.14588159 0.49445066 170 176 177
0.01428440 0.14566909 0.49373040 171 177 177
0.01511575 0.14545721 0.49301225 171 177 177
0.01593312 0.14514054 0.49193892 173 179 179
1.15703857 0.47506809 1.61019444 128 129 133
0.62257951 0.18587701 0.63001102 164 170 167
0.62396485 0.18467559 0.62593889 162 168 162
0.62217426 0.18382689 0.62306237 159 164 159
0.62153739 0.18332142 0.62134910 155 161 157
0.62261134 0.18332142 0.62134910 150 156 152
0.62254405 0.18298596 0.62021214 149 155 152
1.26717663 0.33445427 1.13359845 167 175 172
1.26701725 0.33389592 1.13170588 166 174 172
1.26264942 0.33223200 1.12606621 166 172 170
1.26249862 0.33168104 1.12419879 166 170 169
1.26234829 0.33113188 1.12233746 166 170 169
1.26848841 0.33223200 1.12606621 166 170 169
1.26832783 0.33168104 1.12419879 167 171 170
1.26607168 0.33058456 1.12048233 169 173 172
1.26175177 0.32895339 1.11495364 171 173 174
1.27155161 0.32949531 1.11679053 165 166 166
1.27348185 0.32949531 1.11679053 166 167 168
-0.01038776 0.14546300 0.49016041 194 195 196
-0.00957518 0.14599082 0.49193892 184 185 185
-0.00872490 0.14599082 0.49193892 175 176 177
-0.00788034 0.14609684 0.49229619 154 156 158
-0.00701925 0.14588495 0.49158219 129 132 134
-0.00616512 0.14577924 0.49122596 121 128 136
-0.00530455 0.14546300 0.49016041 131 136 144
-0.00445412 0.14535791 0.48980623 147 150 158
-0.00360753 0.14535791 0.48980623 154 154 161
-0.00276294 0.14546300 0.49016041 161 161 167
-0.00191573 0.14546300 0.49016041 152 151 158
-0.00106853 0.14546300 0.49016041 150 149 155
-0.00022165 0.14567368 0.49087027 148 148 155
0.00062633 0.14556827 0.49051508 145 145 152
0.00147414 0.14556827 0.49051508 143 143 150
0.00232870 0.14599082 0.49193892 148 147 154
0.00318128 0.14609684 0.49229619 145 144 151
0.00403218 0.14609684 0.49229619 145 146 152
0.00740885 0.14556827 0.49051508 150 151 155
0.00823878 0.14525296 0.48945260 148 156 160
0.00907166 0.14504351 0.48874682 151 159 164
0.00992357 0.14514816 0.48909944 153 161 167
0.01077672 0.14525296 0.48945260 153 161 167
0.01163951 0.14546300 0.49016041 159 165 170
0.01251385 0.14577924 0.49122596 170 175 180
0.01343103 0.14652246 0.49373040 167 173 175
0.01425326 0.14620301 0.49265397 170 176 177
0.01508285 0.14599082 0.49193892 170 176 178
0.01591003 0.14577924 0.49122596 172 178 179
0.45718819 0.13826483 0.46590504 145 148 148
0.45705110 0.13798034 0.46494639 153 156 156
1.26717663 0.33641362 1.13359845 169 175 173
1.26701725 0.33585200 1.13170588 169 175 173
1.26475036 0.33473435 1.12793982 168 173 171
1.26459575 0.33417830 1.12606621 166 171 169
1.26234829 0.33307177 1.12233746 170 174 173
1.26848841 0.33417830 1.12606621 171 175 174
1.26832783 0.33362412 1.12419879 171 175 174
1.26607168 0.33252123 1.12048233 173 177 176
1.26383042 0.33142561 1.11679053 174 176 175
-0.01037276 0.14609893 0.48945260 193 194 194
-0.00954746 0.14641608 0.49051508 183 184 184
-0.00870594 0.14652210 0.49087027 172 172 172
-0.00785752 0.14652210 0.49087027 149 151 152
-0.00700909 0.14652210 0.49087027 145 149 150
-0.00615175 0.14631021 0.49016041 149 158 159
-0.00530071 0.14620450 0.48980623 151 160 161
-0.00444769 0.14599352 0.48909944 162 170 170
-0.00360233 0.14599352 0.48909944 169 170 171
-0.00275895 0.14609893 0.48945260 171 172 173
-0.00191297 0.14609893 0.48945260 170 171 171
-0.00106699 0.14609893 0.48945260 170 171 173
-0.00022117 0.14620450 0.48980623 165 166 170
0.00062497 0.14609893 0.48945260 154 155 158
0.00147095 0.14609893 0.48945260 145 146 149
0.00232196 0.14641608 0.49051508 145 145 149
0.00317437 0.14662828 0.49122596 134 134 141
0.00402050 0.14652210 0.49087027 137 137 146
0.00740349 0.14631021 0.49016041 148 150 159
0.00822690 0.14588827 0.48874682 154 162 167
0.00904557 0.14546874 0.48734137 158 166 171
0.00990214 0.14567821 0.48804307 159 167 173
0.01076118 0.14588827 0.48874682 160 168 174
0.01161431 0.14599352 0.48909944 164 172 177
0.01248671 0.14631021 0.49016041 171 178 182
0.01344082 0.14748326 0.49409026 169 175 177
0.01424291 0.14694773 0.49229619 169 175 177
0.01506099 0.14662828 0.49122596 169 175 177
0.01589851 0.14652210 0.49087027 169 175 175
0.01673482 0.14641608 0.49051508 170 175 176
0.01759537 0.14652210 0.49087027 172 176 177
0.45764104 0.13945350 0.46718940 131 132 133
0.45781749 0.13926154 0.46654636 141 142 144
0.45767891 0.13897461 0.46558505 155 156 158
0.45754090 0.13868885 0.46462771 166 167 166
0.45771652 0.13849899 0.46399167 172 174 168
0.46106920 0.13878396 0.46494639 169 171 164
0.46187282 0.13878396 0.46494639 170 173 166
0.46267644 0.13878396 0.46494639 172 175 167
1.26929915 0.33893973 1.13549721 168 174 172
1.26701725 0.33780804 1.13170588 168 174 172
1.26475036 0.33668390 1.12793982 169 175 173
1.26459575 0.33612463 1.12606621 168 174 172
1.26832783 0.33556721 1.12419879 172 176 175
-0.01035034 0.14662731 0.48839471 186 187 187
-0.00952678 0.14694491 0.48945260 175 176 176
-0.00869336 0.14715742 0.49016041 167 167 168
-0.00784615 0.14715742 0.49016041 157 160 160
-0.00699895 0.14715742 0.49016041 160 164 165
-0.00614730 0.14705108 0.48980623 166 174 175
-0.00529306 0.14683889 0.48909944 171 178 177
-0.00443809 0.14652175 0.48804307 176 182 181
-0.00359714 0.14662731 0.48839471 178 179 177
-0.00275497 0.14673303 0.48874682 178 179 177
-0.00191021 0.14673303 0.48874682 177 178 176
-0.00106545 0.14673303 0.48874682 173 174 174
-0.00022101 0.14694491 0.48945260 172 173 173
0.00062452 0.14683889 0.48909944 166 167 167
0.00146883 0.14673303 0.48874682 160 161 161
0.00232028 0.14715742 0.49016041 151 153 155
0.00317207 0.14737053 0.49087027 140 141 147
0.00402341 0.14747733 0.49122596 136 137 146
0.00741422 0.14737053 0.49087027 151 158 166
0.00823878 0.14694491 0.48945260 159 167 173
0.00906513 0.14662731 0.48839471 164 173 179
0.00991642 0.14673303 0.48874682 168 178 183
0.01077672 0.14694491 0.48945260 166 176 181
0.01163110 0.14705108 0.48980623 171 180 185
0.01255936 0.14801361 0.49301225 172 180 184
0.01347027 0.14866231 0.49517301 171 179 183
0.01428440 0.14822921 0.49373040 168 175 179
0.01510477 0.14790604 0.49265397 168 175 179
0.01593312 0.14769137 0.49193892 167 173 175
0.01678340 0.14769137 0.49193892 167 171 174
0.01762089 0.14758426 0.49158219 166 170 173
0.01851082 0.14790604 0.49265397 161 163 166
0.03422843 0.13911054 0.46335739 132 131 137
0.45795664 0.14035773 0.46751162 138 140 140
0.45813277 0.14016439 0.46686766 142 143 143
0.45799348 0.13987540 0.46590504 149 150 150
0.45785472 0.13958758 0.46494639 158 159 159
0.45803005 0.13939637 0.46430948 165 167 167
0.46058148 0.13968340 0.46526551 166 167 164
0.46138564 0.13968340 0.46526551 163 165 156
0.46187282 0.13958758 0.46494639 164 166 158
0.46299401 0.13968340 0.46526551 166 167 158
1.27142894 0.34147432 1.13740242 165 172 170
1.26701725 0.33976412 1.13170588 165 171 169
-0.00784048 0.14789768 0.48980623 164 167 169
-0.00699389 0.14789768 0.48980623 174 178 179
-0.00614286 0.14779089 0.48945260 177 181 181
-0.00527783 0.14725927 0.48769197 180 184 183
-0.00441583 0.14662635 0.48559588 179 183 182
-0.00190335 0.14704768 0.48699126 181 182 180
-0.00106086 0.14694212 0.48664168 179 180 180
-0.00022022 0.14725927 0.48769197 177 178 178
0.00062317 0.14736529 0.48804307 176 177 177
0.00906513 0.14747146 0.48839471 170 178 183
0.00992357 0.14768426 0.48909944 173 183 186
0.01077672 0.14779089 0.48945260 174 183 184
0.01163951 0.14800462 0.49016041 175 184 184
