ply
format ascii 1.0
element vertex 1097
property float x
property float y
property float z
property uchar red
property uchar green
property uchar blue
end_header
-0.37104263 -0.30931048 1.00069229 79 71 72
-0.36988827 -0.29034385 1.00130823 80 70 70
-0.36985479 -0.27003730 1.00196558 82 72 72
-0.36959755 -0.25008348 1.00268778 81 72 71
-0.36992991 -0.23035963 1.00358963 83 71 70
-0.37032133 -0.20976573 1.00465157 83 72 71
-0.37014241 -0.18980744 1.00571305 83 73 72
-0.36987216 -0.17034489 1.00653402 86 74 72
-0.36948782 -0.15022634 1.00711291 86 75 74
-0.36961527 -0.13025325 1.00746058 87 75 73
-0.36971262 -0.11025712 1.00772594 87 74 75
-0.36983100 -0.09025557 1.00804839 87 75 74
-0.36994929 -0.07024133 1.00837093 88 76 74
-0.37007635 -0.05021520 1.00871707 88 76 73
-0.37023674 -0.03017802 1.00915413 88 75 71
-0.37039551 -0.01012394 1.00958703 86 73 75
-0.37043814 0.00994431 1.00970356 87 73 71
-0.37051928 0.03002110 1.00992496 89 76 74
-0.37002447 0.05027826 1.01034728 87 74 72
-0.36992551 0.06988049 1.00858854 78 66 65
-0.37001060 0.09110282 0.99063841 92 77 74
-0.36993998 0.08081662 1.00127431 85 70 69
-0.37459587 0.11896544 0.95998524 109 96 90
-0.36998735 0.11005511 0.97011321 101 88 85
-0.36462398 0.10112054 0.98000962 98 84 81
-0.37013136 0.13733852 0.93815785 124 112 108
-0.36991048 0.12759315 0.94985860 118 106 104
-0.37977605 0.15996952 0.59827852 18 17 24
-0.37870605 0.15911821 0.61168197 19 18 25
-0.37800217 0.15836491 0.63060509 21 20 29
-0.37756495 0.15803360 0.64981827 22 21 29
-0.37786177 0.15818474 0.66931323 26 24 31
-0.37861423 0.15883917 0.68842559 29 28 33
-0.37935749 0.15974082 0.70175833 32 30 37
-0.37006844 0.15605961 0.91446645 127 118 113
-0.36992684 0.14551968 0.92812208 126 115 111
-0.37790867 0.17847893 0.53659854 12 11 20
-0.37456374 0.17565941 0.55104775 14 13 22
-0.37136486 0.17272950 0.57029210 16 15 23
-0.36980039 0.16990914 0.58975207 17 16 24
-0.36881908 0.16762714 0.60945167 19 18 25
-0.36782185 0.16680685 0.62960763 21 20 28
-0.36757499 0.16655001 0.64961852 23 22 29
-0.36786225 0.16683377 0.66985878 26 24 31
-0.36860694 0.16761123 0.68990937 28 27 33
-0.36957693 0.16904637 0.70998471 31 29 35
-0.36961472 0.17132661 0.72943086 32 30 37
-0.37127195 0.17364479 0.74788140 36 35 42
-0.37566388 0.17713809 0.76653997 42 40 48
-0.36999968 0.17353077 0.89100980 133 126 122
-0.36993246 0.16369280 0.90432771 128 119 114
-0.37742454 0.19851103 0.49727972 11 10 19
-0.37202334 0.19448175 0.51133862 11 10 19
-0.36924276 0.18798424 0.52918160 12 11 20
-0.36504277 0.18418645 0.54840347 14 13 21
-0.36190190 0.18184175 0.56714602 15 14 21
-0.36019964 0.18016759 0.58169740 16 15 22
-0.36220720 0.18265787 0.75155046 45 43 53
-0.36850007 0.18877086 0.77043273 51 51 62
-0.37593805 0.19194272 0.78690453 55 55 66
-0.36996824 0.19064407 0.86991245 91 92 98
-0.37050659 0.18078669 0.88119877 142 137 136
-0.37401855 0.21642523 0.47579648 11 10 19
-0.36944471 0.20918940 0.48895929 11 10 19
-0.36419097 0.20294763 0.50540886 13 12 21
-0.36291509 0.20467299 0.77548134 51 50 62
-0.36704062 0.21139669 0.79162208 55 55 69
-0.37223685 0.21609136 0.81185648 69 73 86
-0.37103348 0.21541032 0.83129268 83 91 103
-0.36988664 0.20787447 0.85045417 107 125 135
-0.36592890 0.20086930 0.86096120 67 87 108
-0.37356281 0.23700442 0.45826239 11 10 19
-0.36860888 0.22780466 0.46692011 11 10 19
-0.36099912 0.22059635 0.48095808 11 10 19
-0.36271918 0.22236622 0.81259600 69 73 83
-0.36294152 0.22212727 0.82657585 75 87 104
-0.36863308 0.24679027 0.45411417 10 9 18
-0.36072823 0.24067495 0.46045029 11 10 19
-0.34829282 -0.56136264 0.83358320 0 0 0
-0.35108254 -0.55136887 0.83637287 0 0 0
-0.34451133 -0.54342635 0.84113457 0 0 0
-0.35789017 -0.53848564 0.83927572 0 0 0
-0.34960031 -0.52959238 0.84623453 0 0 0
-0.34378971 -0.52145045 0.97856053 45 42 43
-0.35043053 -0.52187896 0.98458891 46 41 44
-0.35122097 -0.51326600 0.85536575 0 0 0
-0.34789176 -0.50398038 0.86319445 0 0 0
-0.34809803 -0.50178798 0.93559235 30 25 27
-0.35375504 -0.50545358 0.94329894 42 37 38
-0.35022584 -0.50991628 0.98759381 48 43 44
-0.35091834 -0.49305527 0.87242922 0 0 0
-0.34852189 -0.48351665 0.88564552 0 0 0
-0.35390086 -0.49015851 0.91097325 27 24 24
-0.34138719 -0.49593811 0.92618653 36 29 34
-0.34999818 -0.49022391 0.98892859 56 51 52
-0.35732857 -0.47994157 0.88629069 0 0 0
-0.34972564 -0.47046267 0.99036066 64 56 58
-0.35012487 -0.45046457 0.99171061 66 58 58
-0.35015084 -0.43017007 0.99284853 68 60 60
-0.34999451 -0.41017807 0.99377329 70 61 61
-0.34979359 -0.39016447 0.99478361 73 65 64
-0.34991623 -0.36977925 0.99599673 75 67 68
-0.35036395 -0.34956841 0.99727158 78 68 70
-0.35004469 -0.32986458 0.99832596 80 70 70
-0.34948981 -0.31075768 0.99918115 80 72 71
-0.35826210 -0.30336445 1.00007758 82 73 73
-0.34552886 -0.29167070 0.99965235 82 74 71
-0.35429859 -0.28809982 1.00032671 82 72 72
-0.34199737 -0.27682613 0.99990335 81 72 71
-0.35054825 -0.26929375 1.00070953 83 72 72
-0.34988200 -0.25008876 1.00137746 82 72 70
-0.35039753 -0.23006308 1.00229767 83 74 74
-0.35022678 -0.20963815 1.00331796 84 73 73
-0.34950710 -0.19024742 1.00433081 86 74 74
-0.34969191 -0.16992875 1.00524967 86 75 74
-0.34991275 -0.15004304 1.00588461 88 75 75
-0.35004868 -0.13010000 1.00627550 90 77 75
-0.35013806 -0.11012654 1.00653230 92 78 76
-0.35024987 -0.09014856 1.00685389 91 78 76
-0.35036905 -0.07015949 1.00719655 88 76 75
-0.35048189 -0.05015571 1.00752087 87 74 72
-0.35037498 -0.02997320 1.00794045 89 75 74
-0.34990229 -0.01011148 1.00835908 88 76 76
-0.34997160 0.00993315 1.00855916 88 75 74
-0.35007072 0.02998905 1.00884537 89 75 74
-0.34961944 0.04989684 1.00932958 89 75 73
-0.34972760 0.07020718 1.00799440 80 66 66
-0.35003904 0.09101470 0.99074381 92 76 73
-0.35002408 0.08081348 1.00123538 84 72 68
-0.34985060 0.11039210 0.96975855 103 89 85
-0.35361329 0.10112037 0.98000798 95 82 80
-0.35014735 0.13738215 0.93815700 124 112 108
-0.34998718 0.12757288 0.94988655 122 108 106
-0.35009824 0.15597862 0.91461865 127 116 113
-0.34997290 0.14550105 0.92818207 125 115 111
-0.35879496 0.17885264 0.59433154 18 17 25
-0.35740034 0.17757390 0.61032828 18 18 25
-0.35651578 0.17691329 0.62995170 20 19 27
-0.35649481 0.17652884 0.64968910 22 21 29
-0.35671481 0.17689079 0.66958261 25 24 31
-0.35736421 0.17769378 0.68899617 26 25 32
-0.35843148 0.17856955 0.70820165 29 27 35
-0.35924053 0.17921792 0.72608707 31 30 38
-0.34993053 0.17350632 0.89088561 133 125 123
-0.35008409 0.16361388 0.90443544 128 118 114
-0.35954392 0.19957786 0.51927596 12 10 20
-0.35660182 0.19690577 0.53224199 11 10 19
-0.35378110 0.19386674 0.55039812 14 13 21
-0.35134411 0.19139644 0.56996265 15 14 21
-0.34921417 0.18945587 0.58938823 17 16 23
-0.34742714 0.18752588 0.60936157 18 17 24
-0.34637070 0.18659197 0.62954246 20 19 26
-0.34634987 0.18623942 0.64940867 22 21 28
-0.34673625 0.18666734 0.66956675 25 23 30
-0.34736584 0.18748118 0.69015188 26 24 32
-0.34857521 0.18805657 0.71025406 29 27 34
-0.35090328 0.18841418 0.72869824 35 34 41
-0.35589605 0.19015485 0.74665813 44 42 53
-0.35947733 0.19795173 0.76250377 50 50 60
-0.34999765 0.19055560 0.87022909 94 94 98
-0.35064803 0.18075627 0.88105050 139 135 134
-0.35525144 0.21609556 0.49422240 14 13 22
-0.35058197 0.21117084 0.51017263 12 12 21
-0.34736313 0.20662314 0.52876304 12 11 19
-0.34385838 0.20403547 0.54857299 14 13 21
-0.34174375 0.20181990 0.56719873 15 14 21
-0.34032504 0.20024574 0.58209596 16 14 21
-0.34203797 0.20426424 0.73540219 42 39 52
-0.34666564 0.20961801 0.75088395 47 45 57
-0.35218598 0.21452655 0.76874361 51 50 61
-0.35751962 0.21832671 0.78752319 54 56 65
-0.35093564 0.21875186 0.83810345 119 135 146
-0.35007057 0.21066655 0.85002498 104 124 135
-0.34932097 0.20187599 0.86160758 46 57 77
-0.35230420 0.23353536 0.47250309 11 10 19
-0.34770331 0.22631414 0.48795603 14 13 22
-0.34206936 0.22196404 0.50342947 14 13 22
-0.34092149 0.22121211 0.75642028 51 50 63
-0.34508069 0.22686877 0.77157795 54 58 69
-0.35054753 0.23188138 0.79195365 62 69 84
-0.34964856 0.23282342 0.81062356 70 81 102
-0.34974016 0.22473867 0.82817831 87 108 130
-0.35307289 0.25332705 0.45704265 7 6 12
-0.34690210 0.24698532 0.46517077 10 9 17
-0.34147782 0.24114136 0.77855387 65 73 95
-0.34265622 0.24201923 0.79149118 76 88 108
-0.34142078 0.24033003 0.80050507 87 104 124
-0.32989783 -0.56278207 0.83773747 0 0 0
-0.32090730 -0.56112025 0.84038899 0 0 0
-0.33451208 -0.55646224 0.83865820 0 0 0
-0.32878611 -0.54825575 0.84346782 0 0 0
-0.33006594 -0.53005175 0.85193967 0 0 0
-0.32077738 -0.52080249 0.86016431 0 0 0
-0.33965858 -0.52030587 0.97641259 46 42 46
-0.33093151 -0.52081826 0.98348876 48 40 43
-0.33449817 -0.51731707 0.85816454 0 0 0
-0.32912392 -0.50838430 0.86632612 0 0 0
-0.32194762 -0.50317580 0.94426608 43 40 45
-0.32963572 -0.51492092 0.96839899 48 39 44
-0.33003162 -0.51006309 0.98548479 49 43 45
-0.33160314 -0.49648731 0.87615496 0 0 0
-0.32943242 -0.48719441 0.88761089 0 0 0
-0.33115068 -0.48523512 0.90472926 17 14 17
-0.32879598 -0.49304181 0.92225711 37 33 34
-0.32966884 -0.48956240 0.98726087 56 53 53
-0.33010798 -0.46953446 0.98891576 65 58 58
-0.32992433 -0.44979847 0.99024418 68 59 60
-0.32996746 -0.42997358 0.99139202 70 62 61
-0.32977680 -0.40960163 0.99237700 71 63 64
-0.33014946 -0.38945828 0.99349855 75 65 67
-0.33025277 -0.36936580 0.99472874 77 67 69
-0.33004436 -0.35013169 0.99599632 78 69 71
-0.32953756 -0.33045916 0.99704135 79 70 70
-0.32992111 -0.31015097 0.99800289 81 71 72
-0.33019529 -0.28969228 0.99883241 82 72 72
-0.32972776 -0.27056449 0.99944364 85 74 74
-0.33805218 -0.26396439 1.00011935 85 75 76
-0.32403060 -0.25361960 0.99976277 82 74 74
-0.33269794 -0.24861582 1.00041201 82 74 71
-0.33006900 -0.22978052 1.00106645 83 73 72
-0.32968643 -0.21020957 1.00202101 84 75 74
-0.32987962 -0.19037438 1.00312210 88 76 76
-0.33020255 -0.16973509 1.00410415 89 76 77
-0.33041862 -0.14987542 1.00476128 87 76 75
-0.33055241 -0.12995678 1.00516815 90 78 77
-0.32990882 -0.10988303 1.00540571 90 77 76
-0.32986803 -0.09004791 1.00572922 90 78 76
-0.32997480 -0.07007995 1.00605470 91 78 77
-0.33007138 -0.05009738 1.00634896 90 77 75
-0.32998385 -0.03026845 1.00676107 90 75 75
-0.32948372 -0.01009981 1.00721227 91 76 75
-0.32959338 0.00992341 1.00754806 91 77 75
-0.32970982 0.02996116 1.00790426 90 76 74
-0.32989029 0.05002255 1.00845621 88 74 71
-0.32992452 0.07010535 1.00765290 78 65 65
-0.33007748 0.09106386 0.99074648 92 76 73
-0.33014060 0.08081793 1.00129050 86 71 68
-0.32979489 0.11896506 0.95998214 114 99 97
-0.32990083 0.11012745 0.97008100 104 88 84
-0.32991554 0.10112545 0.98005720 98 81 80
-0.33013950 0.13730284 0.93821400 128 115 112
-0.33003505 0.12745707 0.94994014 122 110 107
-0.33012935 0.15605902 0.91456755 126 114 111
-0.33000271 0.14550930 0.92814707 127 116 113
-0.32993974 0.17351787 0.89072377 131 122 120
-0.33008014 0.16367546 0.90437170 128 118 116
-0.33911515 0.19894878 0.59529658 17 16 22
-0.33777327 0.19763605 0.61079118 18 17 24
-0.33689695 0.19647990 0.63028079 20 19 26
-0.33655119 0.19620208 0.64958260 22 21 28
-0.33674495 0.19668742 0.66924122 24 23 30
-0.33741118 0.19748347 0.68959119 25 24 31
-0.33838689 0.19820082 0.70889070 30 28 36
-0.33947265 0.19912167 0.72138965 35 33 44
-0.33011046 0.19046477 0.86988498 104 100 102
-0.32999471 0.18070433 0.88079736 135 126 127
-0.33880519 0.21880400 0.51662413 11 10 19
-0.33658106 0.21634043 0.53111115 12 11 19
-0.33442386 0.21371685 0.55047740 15 14 21
-0.33273740 0.21134983 0.57018604 16 15 22
-0.33092325 0.20991165 0.58994935 16 15 23
-0.32815142 0.20967771 0.60959270 17 17 25
-0.32666497 0.20873711 0.62942146 19 18 25
-0.32647853 0.20783414 0.64970130 21 21 28
-0.32658874 0.20813067 0.66988865 24 23 30
-0.32727178 0.20919263 0.68990021 28 27 34
-0.33007055 0.20915020 0.70889873 35 34 42
-0.33436349 0.21194072 0.72796038 42 41 51
-0.33759890 0.21754819 0.74334889 47 47 56
-0.33195416 0.21956909 0.83887456 94 117 134
-0.32987423 0.21169496 0.85008585 84 102 120
-0.33007695 0.20215734 0.86177041 44 50 68
-0.33933308 0.23918116 0.47912312 11 10 19
-0.33514475 0.23500524 0.49195123 14 13 22
-0.33118639 0.23044708 0.51008921 12 11 20
-0.32673017 0.22887727 0.52915418 12 11 19
-0.32457582 0.22602610 0.54912027 15 14 21
-0.32284203 0.22416247 0.56916004 15 14 22
-0.32166437 0.22242375 0.58819239 16 15 23
-0.32052761 0.22077343 0.60440301 17 17 25
-0.32003838 0.22042564 0.69803822 35 34 42
-0.32166681 0.22316056 0.71279241 46 47 57
-0.32446077 0.22896856 0.72909529 53 57 66
-0.33301323 0.22908599 0.74871206 53 57 67
-0.33800551 0.23544203 0.76511821 59 68 83
-0.33048744 0.23600421 0.81278347 75 98 120
-0.32990917 0.22614860 0.82882060 90 113 132
-0.33871523 0.25961754 0.45858206 0 0 0
-0.33388575 0.25286940 0.47249287 7 7 13
-0.32648097 0.24858724 0.48831273 11 10 19
-0.32211091 0.24301093 0.50648182 11 10 19
-0.32003408 0.24025266 0.52119392 11 11 20
-0.32142921 0.24750755 0.73406204 55 60 72
-0.32443713 0.25092671 0.75065296 59 66 79
-0.32791946 0.25158801 0.77121741 63 72 92
-0.32981505 0.24686246 0.79024190 76 93 113
-0.32842668 0.24154440 0.80295543 74 91 112
-0.33510096 0.26060433 0.45914403 0 0 0
-0.32522700 0.26142739 0.46802620 0 0 0
-0.32091102 0.26074198 0.48274876 0 0 0
-0.31849470 -0.56584818 0.83964469 0 0 0
-0.30916898 -0.56388278 0.84239490 0 0 0
-0.31002509 -0.54994013 0.84766008 0 0 0
-0.31124840 -0.53272279 0.85585361 0 0 0
-0.30720760 -0.52371854 0.86240458 0 0 0
-0.31883677 -0.52013025 0.98245636 50 41 42
-0.31030581 -0.51024681 0.87099355 0 0 0
-0.30307918 -0.50112144 0.88110988 0 0 0
-0.31085512 -0.50875117 0.95783571 48 41 43
-0.30726997 -0.51637090 0.97535545 45 43 46
-0.30995517 -0.50985632 0.98362118 50 45 46
-0.31726357 -0.49884832 0.87884917 0 0 0
-0.31016419 -0.49131519 0.88955756 0 0 0
-0.30750703 -0.48452923 0.90457124 5 4 4
-0.31574657 -0.49304665 0.92376482 32 24 28
-0.30981119 -0.49022254 0.98573127 58 55 56
-0.31024158 -0.47046192 0.98746614 65 60 60
-0.30980138 -0.45001530 0.98884079 69 62 63
-0.31016751 -0.43001334 0.99000900 71 64 65
-0.30993367 -0.40996388 0.99105874 74 66 68
-0.30981634 -0.39044341 0.99214920 76 68 69
-0.30994283 -0.37073524 0.99334373 78 69 70
-0.30992290 -0.35039217 0.99471745 78 71 72
-0.31029469 -0.33015676 0.99591119 79 71 71
-0.30980643 -0.30974066 0.99689594 81 72 73
-0.31021877 -0.28985622 0.99772696 82 72 73
-0.30999557 -0.27024781 0.99841729 85 76 75
-0.30965209 -0.25013386 0.99914195 85 75 75
-0.30667811 -0.23311494 0.99966419 87 76 77
-0.31290532 -0.22606168 1.00031806 85 74 77
-0.31014091 -0.20986266 1.00097074 88 78 77
-0.31016778 -0.18996615 1.00204400 87 77 76
-0.30989593 -0.16954456 1.00297680 91 79 78
-0.31010515 -0.14971026 1.00365416 90 78 78
-0.31023156 -0.12981388 1.00406318 92 81 80
-0.30961876 -0.11001398 1.00434179 92 80 77
-0.30955055 -0.08995303 1.00467048 91 78 78
-0.30965506 -0.07000724 1.00500982 91 80 79
-0.30974095 -0.05004462 1.00528867 90 78 77
-0.30986987 -0.03007494 1.00570709 89 77 77
-0.31003069 -0.01008985 1.00622897 91 77 76
-0.31016270 0.00991480 1.00665758 92 79 77
-0.31029331 0.02993671 1.00708167 91 79 76
-0.31046774 0.04998264 1.00764794 90 78 75
-0.30985895 0.06985393 1.00735954 78 66 64
-0.31006737 0.09115781 0.99077776 93 77 74
-0.31028551 0.08083024 1.00144303 87 71 69
-0.30987566 0.11896189 0.95995655 114 100 94
-0.30993467 0.11020806 0.96999571 103 88 84
-0.30961275 0.10113344 0.98013463 98 83 79
-0.31016750 0.13735305 0.93825728 126 113 113
-0.31004960 0.12758917 0.94982554 122 111 108
-0.31005998 0.15601508 0.91472685 125 114 111
-0.31003802 0.14548568 0.92817673 128 118 117
-0.31003381 0.17350505 0.89088131 128 118 116
-0.30994796 0.16367318 0.90449377 126 118 115
-0.31003299 0.19024113 0.86916236 116 112 113
-0.30945050 0.18070918 0.88082099 134 125 120
-0.31980113 0.21949221 0.61651705 17 16 25
-0.31904343 0.21869274 0.63182708 18 17 25
-0.31860372 0.21792731 0.65011495 22 21 28
-0.31868184 0.21815251 0.66891473 25 24 31
-0.31931503 0.21902610 0.68543478 29 28 37
-0.31002839 0.21191466 0.85037315 79 99 116
-0.31001029 0.20199330 0.86122506 36 40 55
-0.31888740 0.23841569 0.53408456 13 12 21
-0.31727213 0.23589498 0.55062583 15 14 23
-0.31588986 0.23404150 0.57019187 16 15 23
-0.31495683 0.23217798 0.59026426 17 16 24
-0.31395340 0.23021141 0.60991516 18 17 25
-0.31243254 0.22980751 0.62976773 19 18 26
-0.31155969 0.22972390 0.64952598 23 23 30
-0.31208781 0.22957266 0.66933349 28 28 36
-0.31434975 0.22925574 0.68902392 37 36 46
-0.31745086 0.23112555 0.70807889 47 47 58
-0.31939983 0.23518898 0.72111195 53 56 64
-0.31003111 0.23652617 0.81370839 76 95 117
-0.31006177 0.22623655 0.82992797 93 114 134
-0.31808102 0.25633545 0.49572357 11 10 19
-0.31479881 0.25215479 0.51069166 11 10 19
-0.31102492 0.25011929 0.52972832 13 12 20
-0.30776569 0.24989640 0.54961721 15 14 22
-0.30604742 0.24914209 0.56958709 16 15 23
-0.30507985 0.24804677 0.58961975 17 16 24
-0.30422803 0.24753481 0.60981859 19 18 26
-0.30357685 0.24755639 0.62983987 23 22 31
-0.30326286 0.24835196 0.64988742 32 31 39
-0.30438402 0.24967219 0.66952574 43 43 53
-0.30771537 0.25009226 0.68896857 49 51 63
-0.31348723 0.25105748 0.71004888 55 59 74
-0.31732632 0.25498475 0.72876989 69 75 89
-0.31794633 0.25850310 0.74921065 67 77 91
-0.31115752 0.25720217 0.77219492 69 85 107
-0.31002423 0.24968588 0.78996295 85 107 125
-0.30957036 0.24247855 0.80358855 71 84 101
-0.31179164 0.26555885 0.47371259 0 0 0
-0.31009993 0.26550017 0.48973564 0 0 1
-0.30633770 0.26535101 0.50938397 6 5 10
-0.30218715 0.26296185 0.52723307 14 13 22
-0.30044992 0.26064473 0.54340056 15 14 22
-0.30116853 0.26379043 0.67248149 57 64 76
-0.30313278 0.26719346 0.69059910 61 69 83
-0.30530836 0.26868834 0.71051714 62 71 87
-0.30725573 0.26749769 0.73021800 68 79 98
-0.30788467 0.26494752 0.75003983 78 94 112
-0.30630539 0.26149656 0.76381609 64 80 101
-0.28963297 -0.56532936 0.84663292 0 0 0
-0.29005012 -0.54996786 0.85277497 0 0 0
-0.29346825 -0.53713274 0.85826342 0 0 0
-0.28902113 -0.52811107 0.86494653 0 0 0
-0.29094571 -0.51284859 0.87471751 0 0 0
-0.28816713 -0.50335026 0.88360272 0 0 0
-0.29407454 -0.50317787 0.94910964 42 41 41
-0.28317545 -0.51687952 0.97951404 52 45 47
-0.29015598 -0.50880550 0.98242668 51 48 50
-0.29072991 -0.49364160 0.89329614 0 0 0
-0.28902355 -0.48524261 0.90381278 1 1 1
-0.28629561 -0.49215520 0.92659014 30 29 28
-0.28295141 -0.49877628 0.94212158 48 44 48
-0.28988885 -0.48987941 0.98454523 62 57 58
-0.29003590 -0.47001405 0.98633587 69 62 63
-0.28980422 -0.45033891 0.98767538 72 64 66
-0.29013327 -0.43034163 0.98879678 73 64 66
-0.28996999 -0.41050041 0.98987998 75 66 69
-0.28993910 -0.39021346 0.99105536 78 69 72
-0.29021874 -0.37004191 0.99227563 80 72 73
-0.28983310 -0.35000799 0.99362712 80 72 74
-0.29020644 -0.32982395 0.99490765 81 72 73
-0.28972465 -0.30958149 0.99594172 83 75 76
-0.28989725 -0.28996501 0.99680257 84 75 75
-0.29011950 -0.27035885 0.99756710 87 77 79
-0.29033646 -0.24985503 0.99831284 87 78 77
-0.28991126 -0.22998851 0.99907094 88 77 78
-0.28677652 -0.21485938 0.99969373 91 82 80
-0.29252083 -0.20680491 1.00033810 89 79 78
-0.29002660 -0.19019941 1.00115718 87 77 78
-0.28969207 -0.17025444 1.00205215 91 78 78
-0.28989629 -0.15044305 1.00275854 91 80 80
-0.29002096 -0.12970093 1.00318990 93 81 80
-0.29011337 -0.10979589 1.00350980 93 82 81
-0.29022260 -0.08988281 1.00388781 95 80 81
-0.29032654 -0.06995410 1.00424739 93 81 80
-0.29041213 -0.05000754 1.00454342 92 80 79
-0.29011529 -0.02984553 1.00494676 93 80 80
-0.28979475 -0.01008168 1.00541236 93 79 79
-0.28991986 0.00990688 1.00584645 91 78 76
-0.29005706 0.02991421 1.00632281 92 79 78
-0.29023379 0.04994746 1.00693620 89 77 77
-0.28976629 0.07009924 1.00704106 76 65 64
-0.29010661 0.09174962 0.99027475 93 78 77
-0.28948886 0.08158678 1.00108104 86 72 67
-0.29826765 0.11896448 0.95997745 111 101 97
-0.28988475 0.11076302 0.96948655 104 90 87
-0.28931038 0.10114283 0.98022558 97 85 81
-0.29009406 0.13809078 0.93753273 124 114 112
-0.29005644 0.12830347 0.94915782 124 113 110
-0.28998706 0.15606065 0.91478576 127 117 114
-0.29002082 0.14550388 0.92829399 128 120 116
-0.29003027 0.17358866 0.89109076 128 117 115
-0.28997823 0.16371553 0.90459006 126 116 115
-0.28299949 0.19835972 0.85966610 84 81 90
-0.29012439 0.18994520 0.86891163 132 128 125
-0.28971586 0.18074494 0.88099531 134 126 123
-0.28961709 0.21097744 0.85134784 69 84 105
-0.29500968 0.20133081 0.86063558 38 39 54
-0.29016445 0.23660105 0.81407460 90 109 127
-0.29002822 0.22631720 0.83045303 91 109 127
-0.29954507 0.25973907 0.55679591 15 15 24
-0.29923767 0.25902877 0.57177213 16 15 24
-0.29888519 0.25804767 0.59052123 18 17 25
-0.29872631 0.25766366 0.60999884 22 21 29
-0.29890020 0.25765977 0.62979610 29 28 36
-0.29932444 0.25826928 0.64646255 41 42 51
-0.28990418 0.25764321 0.77559463 72 90 112
-0.28997237 0.25029183 0.79034104 75 93 113
-0.28970966 0.24268004 0.80397039 70 88 114
-0.29727327 0.27101239 0.47797916 0 0 0
-0.29116463 0.27401933 0.49108678 0 0 0
-0.29032336 0.27480915 0.51008874 0 0 0
-0.29146670 0.27256875 0.53016834 4 4 7
-0.29146284 0.27043222 0.54971890 13 12 19
-0.29091575 0.26999850 0.56966080 20 20 28
-0.29093642 0.26995985 0.58967742 26 25 34
-0.29170189 0.26988592 0.60960977 35 36 45
-0.29315257 0.26965881 0.62943179 49 50 61
-0.29536574 0.27011679 0.64987167 62 68 80
-0.29656406 0.27320996 0.66891678 70 79 94
-0.29710119 0.27679206 0.69007420 72 88 104
-0.29378701 0.27774484 0.71165984 65 84 101
-0.28996578 0.27510781 0.73005320 80 97 116
-0.29005227 0.26851981 0.74983173 92 110 129
-0.28963140 0.26249610 0.76520478 78 97 117
-0.28044546 0.28016503 0.51837268 0 0 0
-0.28039189 0.28035380 0.53020684 0 0 0
-0.28079524 0.28051385 0.55135042 0 0 0
-0.28151599 0.28132944 0.57074623 21 21 28
-0.28178162 0.28239826 0.59050510 42 45 55
-0.28273388 0.28363740 0.61056534 63 71 78
-0.28428843 0.28555626 0.63044478 82 92 103
-0.28593714 0.28628426 0.65040119 90 103 114
-0.28688466 0.28569969 0.67003178 85 103 114
-0.28720053 0.28399562 0.68982593 85 106 122
-0.28536276 0.28167612 0.70773962 77 102 122
-0.26962430 -0.56652268 0.85095664 0 0 0
-0.27116068 -0.55228444 0.85639157 0 0 0
-0.26701146 -0.54330655 0.86179045 0 0 0
-0.27002125 -0.52998254 0.86897372 0 0 0
-0.27185131 -0.51646374 0.87747295 0 0 0
-0.26913526 -0.50673481 0.88606850 0 0 0
-0.26885653 -0.51507390 0.97823079 52 49 50
-0.27048278 -0.50732304 0.98137038 55 51 52
-0.27127551 -0.49609309 0.89619416 0 0 0
-0.26936643 -0.48788582 0.90546485 0 0 0
-0.26944411 -0.49789112 0.94044962 39 34 36
-0.26981789 -0.48996821 0.98327230 65 60 60
-0.27003201 -0.46996017 0.98520368 69 63 65
-0.26988996 -0.44986890 0.98664455 73 68 67
-0.27019770 -0.42989457 0.98776970 75 69 70
-0.26970891 -0.40979569 0.98886574 77 71 71
-0.26996831 -0.38982067 0.99005793 80 71 72
-0.27023604 -0.36980809 0.99128179 81 73 74
-0.26981598 -0.34966256 0.99264659 81 74 75
-0.27017699 -0.32951451 0.99397479 85 75 75
-0.27003401 -0.30975085 0.99505463 86 76 77
-0.26972592 -0.29043730 0.99592722 87 77 80
-0.27008036 -0.27014773 0.99678838 88 79 81
-0.27028707 -0.24966445 0.99755144 91 82 82
-0.26979199 -0.23013219 0.99828834 88 79 79
-0.26970352 -0.21057870 0.99927856 91 82 81
-0.27816779 -0.20160691 1.00006080 92 80 82
-0.26505293 -0.19743658 0.99985313 90 79 77
-0.27101119 -0.18866517 1.00050669 90 78 80
-0.27010612 -0.16993375 1.00130513 92 79 79
-0.26975539 -0.15032645 1.00198134 91 79 80
-0.26988064 -0.12960479 1.00244683 92 81 82
-0.26998301 -0.10972111 1.00282726 94 83 83
-0.27009516 -0.08982524 1.00324428 93 81 80
-0.27018745 -0.06990816 1.00358699 95 82 81
-0.27026096 -0.04997361 1.00386011 95 81 81
-0.26998098 -0.03023549 1.00421629 96 82 82
-0.26961930 -0.01007456 1.00470197 94 81 80
-0.26973892 0.00989994 1.00514776 93 77 78
-0.26985827 0.02989243 1.00559180 93 79 78
-0.27002358 0.04991148 1.00620800 92 78 76
-0.27019910 0.07000442 1.00657160 75 62 62
-0.26995739 0.09194762 0.99027172 93 78 75
-0.26996770 0.08164077 1.00124068 86 71 68
-0.26995206 0.11090021 0.96955690 104 92 88
-0.26987252 0.10116007 0.98039274 95 85 80
-0.26992251 0.13808564 0.93793809 127 115 112
-0.27004650 0.12833401 0.94946970 123 112 108
-0.27010268 0.15671397 0.91431235 128 118 116
-0.26989404 0.14624737 0.92774525 128 117 116
-0.27016758 0.17370705 0.89135292 128 117 115
-0.26978751 0.16386640 0.90479027 131 117 119
-0.27019628 0.19835385 0.85851920 129 129 131
-0.26986088 0.18901546 0.87005409 144 139 137
-0.27002589 0.18081589 0.88134110 133 126 123
-0.26994484 0.21074486 0.85115248 72 86 103
-0.27036525 0.23653224 0.81492662 80 96 117
-0.27004296 0.22714948 0.82977634 92 111 128
-0.26753805 0.22025796 0.84004512 99 122 139
-0.27012990 0.25822651 0.77548460 78 99 122
-0.26990616 0.25073077 0.78982860 98 118 137
-0.26999873 0.24238251 0.80523617 77 94 115
-0.27921136 0.27945312 0.49397572 0 0 0
-0.27954762 0.27992651 0.50188212 0 0 0
-0.27054619 0.27709593 0.73166432 82 106 127
-0.26985975 0.26990328 0.74990986 93 119 136
-0.27001527 0.26301727 0.76591463 67 85 107
-0.27596303 0.28145074 0.49730549 0 0 0
-0.27137372 0.28509983 0.51123542 0 0 0
-0.27003174 0.28674761 0.52988898 0 0 0
-0.27001236 0.28716150 0.54976258 0 0 0
-0.26999306 0.28794779 0.56954222 0 0 1
-0.27051105 0.28987726 0.58954363 16 18 21
-0.27254365 0.29273828 0.61008221 62 73 81
-0.27080192 0.29572430 0.63023240 98 117 127
-0.26997739 0.29533912 0.64986194 99 121 135
-0.27016623 0.29287363 0.66995988 86 111 126
-0.27004565 0.28895549 0.69001932 74 96 115
-0.26983559 0.28399353 0.70996807 79 97 117
-0.26703140 0.28066846 0.72226803 80 102 123
-0.24973186 -0.56789793 0.85518277 0 0 0
-0.25407052 -0.55675803 0.85851004 0 0 0
-0.24882059 -0.54804772 0.86381614 0 0 0
-0.25048775 -0.53056279 0.87347532 0 0 0
-0.24412629 -0.52141769 0.88098681 0 0 0
-0.25753631 -0.51929713 0.87926477 0 0 0
-0.24986477 -0.50964615 0.88873703 0 0 0
-0.24196986 -0.50508167 0.95715648 37 32 38
-0.24838165 -0.51114643 0.97786541 55 51 53
-0.25243948 -0.50485246 0.98058288 60 55 55
-0.25327018 -0.49834178 0.89858185 0 0 0
-0.24967702 -0.49123035 0.90692383 0 0 0
-0.24720483 -0.49729532 0.93932423 3 2 3
-0.25717451 -0.49774047 0.94016506 17 17 15
-0.24995951 -0.49020261 0.98203888 67 62 61
-0.24992690 -0.46992485 0.98407955 73 68 69
-0.24995096 -0.44959083 0.98555840 77 70 71
-0.25023838 -0.42952202 0.98673838 77 70 70
-0.24980984 -0.40951427 0.98785795 80 73 73
-0.25003868 -0.38943073 0.98906783 80 73 75
-0.25005041 -0.36917808 0.99030935 81 73 74
-0.24996922 -0.34946357 0.99170486 83 75 77
-0.25026836 -0.32982810 0.99300287 86 77 77
-0.24972085 -0.31052375 0.99409294 87 79 79
-0.24983843 -0.29032355 0.99508048 89 81 81
-0.25007576 -0.26994098 0.99602598 91 82 82
-0.25033155 -0.24954433 0.99678271 90 81 82
-0.24983914 -0.22973701 0.99758535 91 83 83
-0.24985234 -0.21022244 0.99857245 93 84 83
-0.24863029 -0.19115188 0.99952368 90 81 82
-0.25631156 -0.18377273 1.00020996 88 81 83
-0.24240290 -0.17680064 0.99988704 92 83 84
-0.25068788 -0.16962121 1.00056549 93 82 82
-0.24963991 -0.15020640 1.00118157 92 81 82
-0.24996314 -0.12980817 1.00171898 94 83 83
-0.24968357 -0.10997771 1.00213541 95 83 84
-0.24999122 -0.08976680 1.00259141 96 84 84
-0.25008120 -0.06986387 1.00295236 96 84 83
-0.25014721 -0.04994164 1.00321725 95 82 82
-0.25022766 -0.03001024 1.00353950 95 82 81
-0.25033587 -0.01006736 1.00397327 97 82 82
-0.25043989 0.00989242 1.00439015 96 82 81
-0.25007836 0.03009392 1.00475673 95 82 80
-0.24981769 0.04987044 1.00537804 92 78 77
-0.25004968 0.06983051 1.00604458 73 61 62
-0.24999862 0.09191385 0.99047607 94 78 76
-0.25013194 0.08172498 1.00135050 84 72 68
-0.25004995 0.11096109 0.96977999 107 92 90
-0.25043429 0.10117970 0.98058299 98 83 82
-0.24976860 0.13819365 0.93823112 126 114 113
-0.25009678 0.12837425 0.94980147 123 110 108
-0.25032836 0.15636162 0.91524065 131 117 114
-0.24996055 0.14633340 0.92812846 127 115 113
-0.25002177 0.17435143 0.89088809 129 119 118
-0.24969486 0.16394792 0.90514763 128 117 117
-0.25006982 0.19833446 0.85811929 157 157 158
-0.25014032 0.18915990 0.87001977 143 138 138
-0.24879994 0.18110310 0.88135092 136 128 127
-0.24994203 0.21053415 0.85036890 81 91 109
-0.24989518 0.23691228 0.81484001 107 127 143
-0.24987658 0.22737798 0.82981089 77 96 119
-0.25375039 0.22026290 0.84006397 75 93 112
-0.25008343 0.25811962 0.77675399 96 121 142
-0.25005932 0.25089826 0.79008446 107 129 146
-0.24977691 0.24255050 0.80524169 93 107 129
-0.25038917 0.27767857 0.73394893 95 124 146
-0.25007475 0.27110241 0.74979236 88 111 134
-0.24991366 0.26331873 0.76663502 82 104 129
-0.25781516 0.29334567 0.51762849 0 0 0
-0.25301655 0.29618571 0.53085264 0 0 0
-0.25172789 0.29662542 0.55006669 0 0 0
-0.25042567 0.29658217 0.56992084 0 0 0
-0.24991788 0.29659608 0.58965690 0 0 0
-0.24914639 0.29713678 0.60925653 0 0 0
-0.24996190 0.29878128 0.62640728 21 26 29
-0.25236313 0.29904118 0.65362348 136 159 170
-0.25005352 0.29610560 0.67000530 135 158 170
-0.25006927 0.29135334 0.68988963 117 139 155
-0.24990270 0.28583132 0.70982606 96 120 139
-0.24926729 0.28128286 0.72392594 91 117 138
-0.24266328 0.30099298 0.53407946 0 0 0
-0.24178618 0.30067229 0.54842118 0 0 0
-0.24073803 0.30024837 0.56503554 0 0 0
-0.25156015 0.30056128 0.63522819 98 114 121
-0.24761323 0.30055286 0.64558408 157 182 188
-0.23123795 -0.57230632 0.85797293 0 0 0
-0.22749771 -0.56427382 0.86163208 0 0 0
-0.23000806 -0.54987114 0.86714993 0 0 0
-0.23081568 -0.53346695 0.87591227 0 0 0
-0.22873309 -0.52384438 0.88264267 0 0 0
-0.23040173 -0.51095889 0.89199244 0 0 0
-0.22692546 -0.50153838 0.90158401 0 0 0
-0.23795498 -0.50184419 0.95102128 32 30 36
-0.22983207 -0.50707683 0.97775386 58 56 57
-0.23761815 -0.50027410 0.98015018 63 58 58
-0.23022112 -0.49307864 0.90956504 0 0 0
-0.22766501 -0.49194276 0.93023164 7 7 7
-0.23259084 -0.49740284 0.94260469 30 29 33
-0.22372631 -0.49832762 0.97965467 65 62 63
-0.23065612 -0.48903624 0.98096903 69 64 66
-0.23000856 -0.47039524 0.98285874 77 70 71
-0.23014389 -0.45054964 0.98440619 77 74 73
-0.22975791 -0.43043834 0.98555691 80 74 74
-0.22988719 -0.41046274 0.98672738 82 74 75
-0.23012442 -0.39042265 0.98797339 82 74 77
-0.23008325 -0.37070522 0.98919727 82 76 77
-0.22987883 -0.35065231 0.99059596 87 80 80
-0.23018935 -0.33055251 0.99193435 87 78 80
-0.22981260 -0.31019264 0.99314298 92 83 84
-0.22985516 -0.29006527 0.99419570 93 84 85
-0.23007652 -0.26970449 0.99515323 94 86 86
-0.23024806 -0.25011067 0.99589497 93 82 83
-0.22995490 -0.23072635 0.99672229 91 82 83
-0.22981361 -0.21004862 0.99774698 94 85 85
-0.23006155 -0.18955893 0.99882380 96 86 86
-0.22925291 -0.17074346 0.99960129 96 85 86
-0.23684409 -0.16398702 1.00013154 95 84 84
-0.22397077 -0.15721567 0.99989707 99 89 88
-0.23114025 -0.14909173 1.00039101 94 83 84
-0.22965703 -0.13025954 1.00082108 96 86 88
-0.22975195 -0.11041189 1.00123424 99 87 88
-0.22985391 -0.08968500 1.00167827 99 87 88
-0.22994069 -0.06980142 1.00205595 97 86 86
-0.23000762 -0.04989826 1.00234781 98 84 84
-0.23008449 -0.02998465 1.00268356 96 84 84
-0.23018735 -0.01005894 1.00313235 98 83 83
-0.23027428 0.00988381 1.00351079 94 83 83
-0.22994200 0.02961474 1.00387179 95 81 81
-0.22963053 0.04982649 1.00449019 92 78 78
-0.22988965 0.06991683 1.00528239 74 61 63
-0.23008067 0.09192597 0.99046095 94 78 77
-0.22974695 0.08167663 1.00121877 86 70 70
-0.23004643 0.11099630 0.96993926 109 92 91
-0.23011697 0.10118901 0.98067315 98 83 79
-0.22996539 0.13820798 0.93854866 126 113 112
-0.23005141 0.12844824 0.95002766 123 110 109
-0.22993792 0.15622718 0.91582996 130 119 115
-0.22991156 0.14633828 0.92852843 127 114 113
-0.22994002 0.17436501 0.89131453 131 121 121
-0.22995590 0.16383824 0.90572550 129 118 116
-0.23006466 0.19829803 0.85827861 159 158 158
-0.23003338 0.18965627 0.86958098 143 137 138
-0.23037103 0.18153842 0.88115480 136 129 130
-0.22996428 0.21024252 0.84959744 105 112 125
-0.22997529 0.23692426 0.81499292 100 121 140
-0.22994830 0.22702611 0.83034021 85 103 123
-0.23062547 0.25855088 0.77723932 95 117 134
-0.22981326 0.25186429 0.78964215 80 101 124
-0.22991297 0.24303523 0.80491778 95 118 138
-0.23034432 0.27812656 0.73442916 152 174 184
-0.22991550 0.27167782 0.74995872 127 149 164
-0.23000243 0.26361951 0.76751188 101 122 141
-0.23914640 0.29985362 0.57732613 0 0 0
-0.23802713 0.29956210 0.59113627 0 0 0
-0.23577487 0.29936324 0.61129870 0 0 0
-0.23061875 0.29915514 0.62880124 0 0 0
-0.23787397 0.29969406 0.65837537 163 185 193
-0.23064571 0.29745643 0.67106968 166 187 193
-0.22977028 0.29233270 0.69000853 168 188 194
-0.23011786 0.28648898 0.71014625 160 181 192
-0.22946459 0.28174091 0.72461593 160 182 189
-0.23489008 0.30381967 0.53724287 0 0 0
-0.23000878 0.30437443 0.54977108 0 0 0
-0.22983051 0.30291276 0.56975298 0 0 0
-0.22808973 0.30178300 0.58931986 0 0 0
-0.22619146 0.30096698 0.60888332 0 0 0
-0.22279912 0.30034438 0.62535859 0 0 0
-0.23046973 0.30118702 0.65129860 132 149 155
-0.22435731 0.30056064 0.66244173 166 187 194
-0.20470607 -0.58065967 0.86129205 0 0 0
-0.21725499 -0.57794739 0.85939394 0 0 0
-0.20958294 -0.56940247 0.86369864 0 0 0
-0.20998258 -0.54985201 0.87122439 0 0 0
-0.21168959 -0.53643370 0.87785072 0 0 0
-0.20924018 -0.52674631 0.88450448 0 0 0
-0.21053513 -0.51308279 0.89415306 0 0 0
-0.20903375 -0.50352743 0.90353418 0 0 0
-0.20237475 -0.50164256 0.95376319 54 48 49
-0.21021043 -0.50613997 0.97556224 63 60 61
-0.21060381 -0.49457160 0.91291793 0 0 0
-0.20853800 -0.49023435 0.92569118 1 1 1
-0.20791404 -0.49273944 0.97932026 73 71 72
-0.21343250 -0.48439699 0.98039271 76 71 72
-0.20993428 -0.46993813 0.98194363 79 74 74
-0.21040768 -0.45018793 0.98361622 81 77 77
-0.20995101 -0.43040865 0.98474818 85 80 80
-0.21005256 -0.41035302 0.98594094 87 81 80
-0.20968172 -0.39026511 0.98726820 89 83 84
-0.20974415 -0.37041439 0.98850294 90 85 86
-0.21003683 -0.35039944 0.98988170 94 87 89
-0.21031514 -0.33030544 0.99119250 96 89 91
-0.20992683 -0.31027338 0.99232668 98 90 92
-0.20992610 -0.28983454 0.99340516 99 91 93
-0.21011528 -0.26947336 0.99429933 101 92 94
-0.21026669 -0.24988983 0.99501618 99 91 92
-0.20979381 -0.23015071 0.99589768 98 89 91
-0.20981595 -0.20988294 0.99695981 99 90 91
-0.21025793 -0.18974884 0.99802685 103 91 93
-0.21000712 -0.17009942 0.99891529 103 92 94
-0.20968131 -0.15052871 0.99956146 102 90 91
-0.21859527 -0.14347344 1.00007875 96 87 87
-0.20529591 -0.13144301 0.99979443 101 92 93
-0.21425236 -0.12874838 1.00019963 102 91 92
-0.20204111 -0.11582166 0.99990987 101 91 91
-0.21056879 -0.10966074 1.00039888 104 92 93
-0.20973901 -0.08959778 1.00070255 104 92 92
-0.20979961 -0.06972737 1.00099124 104 93 95
-0.20986524 -0.04984619 1.00130445 104 92 92
-0.20995279 -0.02995578 1.00172260 101 87 89
-0.21006546 -0.01005012 1.00226062 103 89 90
-0.21014304 0.00987515 1.00263107 102 88 88
-0.21023727 0.02981779 1.00308124 101 86 87
-0.21038170 0.04979085 1.00377056 97 85 82
-0.20983031 0.06980108 1.00464040 79 67 68
-0.21007631 0.09192419 0.99044184 96 79 78
-0.20980188 0.08165948 1.00100822 88 70 72
-0.20996136 0.11101437 0.97008578 110 94 94
-0.20979686 0.10119858 0.98076590 101 84 82
-0.21015066 0.13822409 0.93887846 128 113 113
-0.21000147 0.12841157 0.95040940 124 111 111
-0.21006594 0.15626010 0.91617212 130 119 117
-0.20992249 0.14638903 0.92884575 129 116 117
-0.20998652 0.17442636 0.89162884 131 121 119
-0.20990933 0.16395575 0.90599172 132 119 118
-0.20998841 0.19830096 0.85797439 158 157 158
-0.20997572 0.18972222 0.86973528 141 134 134
-0.21026040 0.18158267 0.88150647 133 126 126
-0.21002149 0.21011632 0.84890833 122 127 138
-0.21016498 0.23696200 0.81509372 85 103 126
-0.20996086 0.22698260 0.83013745 98 118 139
-0.20986650 0.25880050 0.77703722 157 177 189
-0.20999419 0.25202664 0.78961064 133 152 166
-0.20999253 0.24308745 0.80513613 104 125 145
-0.21040348 0.27822279 0.73524286 167 188 195
-0.20991076 0.27188098 0.75002250 168 187 193
-0.20999625 0.26364020 0.76771271 165 185 193
-0.21879626 0.29983973 0.63848933 0 0 0
-0.21798949 0.29990318 0.64098361 0 0 0
-0.21140004 0.29845544 0.67540516 168 188 192
-0.20984454 0.29386087 0.68971160 168 188 195
-0.20995391 0.28747926 0.71005646 160 180 191
-0.20967919 0.28203698 0.72548353 169 189 195
-0.21078942 0.30918452 0.55235509 0 0 0
-0.20996174 0.30750373 0.56979931 0 0 0
-0.21003926 0.30533366 0.58965753 0 0 0
-0.20997139 0.30339553 0.60979275 0 0 0
-0.20971689 0.30162297 0.62974402 0 0 0
-0.20966246 0.30115677 0.64930417 28 32 33
-0.20885462 0.30148100 0.66654240 162 183 188
-0.18908258 -0.58161334 0.86396564 0 0 0
-0.18996569 -0.57000196 0.86727486 0 0 0
-0.19022010 -0.55031153 0.87471634 0 0 0
-0.18338060 -0.54104109 0.88039631 0 0 0
-0.19681307 -0.53879906 0.87922134 0 0 0
-0.18964613 -0.52961779 0.88624196 0 0 0
-0.19082524 -0.51522892 0.89608752 0 0 0
-0.18940916 -0.50533304 0.90571156 0 0 0
-0.18757453 -0.50229555 0.95815341 63 61 56
-0.19055818 -0.50533434 0.97653967 66 63 63
-0.19078789 -0.49661264 0.91532006 0 0 0
-0.18914228 -0.49170982 0.92527510 3 2 2
-0.19523406 -0.49606205 0.94315307 47 44 42
-0.19010172 -0.49047825 0.97894977 76 74 74
-0.18844005 -0.47982038 0.97989612 80 75 75
-0.18967942 -0.46964237 0.98132614 81 78 78
-0.18992464 -0.44999534 0.98319566 84 81 81
-0.19014260 -0.43009569 0.98432278 88 85 84
-0.19037744 -0.41018505 0.98553736 91 88 88
-0.19001258 -0.39044822 0.98688758 93 90 89
-0.19004520 -0.37031636 0.98824125 94 91 91
-0.18977877 -0.35006461 0.98954359 96 91 91
-0.18967389 -0.33016210 0.99076169 96 92 92
-0.18988035 -0.30994977 0.99184000 100 94 95
-0.19007098 -0.28966842 0.99283469 101 94 97
-0.19021770 -0.27014283 0.99360074 103 94 97
-0.19036396 -0.25058546 0.99436568 101 95 96
-0.18990784 -0.23034422 0.99527796 101 94 96
-0.18988125 -0.20975274 0.99634147 102 94 97
-0.19007235 -0.19014024 0.99734424 103 94 95
-0.19025492 -0.17047978 0.99830233 103 94 96
-0.19015550 -0.14970495 0.99898895 104 94 96
-0.18959943 -0.13007423 0.99939530 106 97 100
-0.18951072 -0.11035720 0.99963225 104 94 95
-0.19922701 -0.10163815 1.00003648 101 92 95
-0.18586457 -0.09109340 0.99980284 105 94 95
-0.19523015 -0.08727554 1.00012128 104 93 94
-0.18185147 -0.07168675 0.99987666 106 95 98
-0.19187527 -0.06912821 1.00026361 107 95 98
-0.18020342 -0.05928696 0.99997944 104 95 96
-0.18986912 -0.04973796 1.00046364 105 94 95
-0.18988107 -0.02993051 1.00087625 104 92 92
-0.18998383 -0.01004148 1.00141800 103 91 92
-0.19007428 0.00986790 1.00189579 104 91 92
-0.19017073 0.02979794 1.00240492 102 89 91
-0.19029810 0.04975605 1.00307607 100 89 88
-0.18973577 0.06974793 1.00386660 82 70 71
-0.18981724 0.09154047 0.99075004 95 80 79
-0.19164909 0.08137792 1.00109008 82 68 69
-0.18999608 0.11103420 0.97015435 112 95 95
-0.18946494 0.10120400 0.98081847 103 84 83
-0.19031515 0.13834371 0.93901103 126 113 111
-0.18999090 0.12856803 0.95045438 126 113 113
-0.19031718 0.15644139 0.91633684 130 118 118
-0.18984810 0.14658411 0.92893023 129 115 115
-0.19003223 0.17450001 0.89200544 129 119 117
-0.18996215 0.16400688 0.90636957 129 118 117
-0.18995404 0.19823867 0.85802284 156 156 156
-0.19002175 0.18982571 0.87012465 140 133 134
-0.18979815 0.18171413 0.88187056 134 124 123
-0.19003013 0.21000936 0.84850367 126 129 136
-0.19004165 0.23688572 0.81491701 155 174 184
-0.18999906 0.22690383 0.83007945 123 141 158
-0.18944594 0.25859659 0.77718307 169 188 196
-0.19012471 0.25191435 0.78952814 170 189 196
-0.18996107 0.24306346 0.80482827 168 187 195
-0.18995232 0.27831743 0.73630069 172 191 198
-0.19005790 0.27203361 0.75039996 169 189 196
-0.18988108 0.26370052 0.76755350 169 188 195
-0.19336402 0.29942245 0.67848273 167 192 198
-0.18983621 0.29544727 0.68953794 169 190 196
-0.19009611 0.28852745 0.70988597 165 186 194
-0.18989068 0.28248586 0.72599483 172 191 197
-0.19096998 0.31306102 0.55569012 0 0 0
-0.19001575 0.31135539 0.56982388 0 0 0
-0.19001203 0.30883285 0.58983060 0 0 0
-0.18996960 0.30638762 0.60980314 0 0 0
-0.18993765 0.30397301 0.62982124 0 0 0
-0.18941198 0.30185433 0.64896336 0 0 0
-0.18986520 0.30167573 0.67076688 130 146 152
-0.16995913 -0.58260628 0.86676922 0 0 0
-0.16988244 -0.56984846 0.87070462 0 0 0
-0.17095906 -0.55270910 0.87688734 0 0 0
-0.16805857 -0.54337229 0.88174020 0 0 0
-0.17000965 -0.52989632 0.88950327 0 0 0
-0.17140953 -0.51736848 0.89794622 0 0 0
-0.16954143 -0.50755878 0.90721577 0 0 0
-0.17000536 -0.50177473 0.95715991 55 54 53
-0.17003796 -0.50545698 0.97752894 51 49 49
-0.16136261 -0.50021072 0.98002601 30 30 31
-0.17107598 -0.49799911 0.91725745 0 0 0
-0.16975104 -0.49300077 0.92634802 3 3 3
-0.17506927 -0.49216535 0.97921242 72 69 70
-0.16635121 -0.48774117 0.98089480 43 42 43
-0.17998820 -0.47986460 0.97998643 80 74 72
-0.16936795 -0.46996321 0.98277378 58 56 56
-0.16979798 -0.45001340 0.98478709 61 59 60
-0.16997292 -0.43003482 0.98581061 65 62 63
-0.17015065 -0.41001624 0.98684171 68 66 66
-0.17036052 -0.39002753 0.98805756 69 66 67
-0.17059581 -0.37004280 0.98941646 72 68 71
-0.16952096 -0.35020552 0.99090641 70 67 68
-0.16935798 -0.32995846 0.99207889 69 66 67
-0.16969295 -0.31004006 0.99299216 72 68 70
-0.16962728 -0.28993659 0.99375189 74 69 72
-0.16951677 -0.26991609 0.99441845 75 70 72
-0.16992397 -0.25014671 0.99516865 78 74 76
-0.17015439 -0.23010753 0.99586961 81 75 78
-0.17014820 -0.20984819 0.99679344 83 77 79
-0.17011053 -0.18991439 0.99775734 84 76 79
-0.17063640 -0.17024005 0.99848596 87 80 82
-0.17109673 -0.15026239 0.99898449 89 80 82
-0.16136927 -0.14761052 1.00010933 48 40 44
-0.17159165 -0.13022588 0.99932908 95 86 88
-0.16232738 -0.12954700 1.00032526 47 40 45
-0.17232856 -0.11021214 0.99941770 101 91 92
-0.16299788 -0.11032709 1.00046251 52 42 45
-0.17232217 -0.08991243 0.99959808 104 93 94
-0.16303136 -0.08959507 1.00066844 52 48 49
-0.17241710 -0.07008903 0.99971153 105 94 96
-0.16306699 -0.06971995 1.00088787 58 50 53
-0.17239618 -0.05091536 0.99988032 105 94 96
-0.16712276 -0.04856755 1.00068772 83 73 76
-0.16982824 -0.03681688 0.99995050 103 93 94
-0.16993329 -0.02936624 1.00058241 95 84 86
-0.17000335 -0.01003728 1.00098758 97 86 87
-0.17008596 0.00986385 1.00146972 99 87 87
-0.17018531 0.02978746 1.00205448 101 89 90
-0.17028247 0.04973358 1.00262454 101 88 89
-0.16969876 0.06972350 1.00350556 83 73 75
-0.17017768 0.09155589 0.99074664 96 81 79
-0.16849264 0.08141020 1.00106945 76 64 67
-0.17002671 0.11099006 0.97028688 110 95 95
-0.16998394 0.10121283 0.98090400 102 84 82
-0.16992128 0.13900118 0.93842292 126 114 112
-0.17009678 0.12918641 0.94987455 126 111 111
-0.17001771 0.15701550 0.91607091 129 116 115
-0.16994984 0.14712835 0.92855053 128 115 113
-0.17050034 0.17466478 0.89233709 129 118 118
-0.16973268 0.16458280 0.90615596 130 117 116
-0.16999636 0.19835712 0.85821895 152 149 151
-0.17014426 0.18989411 0.87043381 139 131 131
-0.16844953 0.18149107 0.88278317 130 120 118
-0.17002692 0.21000704 0.84838654 145 147 154
-0.16994778 0.23689183 0.81473883 167 184 191
-0.16997670 0.22695033 0.82973812 166 182 189
-0.17002666 0.25880951 0.77706417 170 187 196
-0.16996927 0.25199425 0.78946284 171 188 196
-0.16996757 0.24301104 0.80479012 171 189 197
-0.17027376 0.27853580 0.73656728 171 192 198
-0.16991216 0.27253255 0.74989960 171 191 197
-0.16999180 0.26411298 0.76710646 170 189 197
-0.17023436 0.29634486 0.68991726 170 189 196
-0.16997891 0.28921954 0.70988068 171 189 196
-0.16999330 0.28275646 0.72647511 171 191 199
-0.17187927 0.31606690 0.55803055 0 0 0
-0.16995750 0.31450266 0.56965557 0 0 0
-0.17000748 0.31181528 0.58989786 0 0 0
-0.16998653 0.30906083 0.60982788 0 0 0
-0.16993334 0.30607707 0.62990721 0 0 0
-0.16979966 0.30280636 0.64956927 0 0 0
-0.17026601 0.30135965 0.67063771 72 80 83
-0.16529382 0.30040082 0.68074819 170 189 195
-0.14986388 -0.58333082 0.86915468 0 0 0
-0.14990586 -0.57019725 0.87338156 0 0 0
-0.15138381 -0.55601141 0.87831874 0 0 0
-0.14922876 -0.54635498 0.88307462 0 0 0
-0.15007606 -0.53012684 0.89246752 0 0 0
-0.14278344 -0.52018573 0.90026516 0 0 0
-0.15394350 -0.51919946 0.89938632 0 0 0
-0.14981535 -0.50941269 0.90851761 0 0 0
-0.15007188 -0.50149653 0.95662924 38 35 37
-0.15003028 -0.50589236 0.97792294 41 37 40
-0.15038838 -0.50033118 0.98026201 40 37 40
-0.15187947 -0.49888379 0.91865460 0 0 0
-0.14973015 -0.49416699 0.92685869 1 1 1
-0.15044213 -0.49003707 0.98147071 42 39 42
-0.14981835 -0.46985217 0.98434161 49 44 47
-0.14965181 -0.44983607 0.98657429 52 47 49
-0.14986353 -0.42998075 0.98796869 53 48 51
-0.15005899 -0.41002347 0.98925695 54 47 50
-0.15026227 -0.39003254 0.99059722 55 49 52
-0.15046421 -0.36998335 0.99192851 56 50 53
-0.14980477 -0.34987175 0.99323941 58 50 53
-0.14997548 -0.32964618 0.99437091 57 51 53
-0.15010886 -0.31015810 0.99525686 57 50 52
-0.15021152 -0.29057450 0.99593886 60 53 56
-0.15009566 -0.26995011 0.99669459 63 55 58
-0.14957253 -0.24963126 0.99741848 67 58 61
-0.14967200 -0.22995872 0.99808232 66 58 61
-0.14977699 -0.21026747 0.99878328 68 58 61
-0.15021878 -0.19008690 0.99955882 66 58 60
-0.14247670 -0.18086219 1.00004727 78 68 71
-0.15682128 -0.17492570 0.99990753 57 49 52
-0.14855458 -0.16889668 1.00031204 72 61 65
-0.15006846 -0.15013961 1.00073443 69 60 63
-0.15013551 -0.13030647 1.00118116 70 60 63
-0.15018990 -0.11044604 1.00154276 72 60 63
-0.15024487 -0.08970587 1.00190836 71 60 62
-0.15030063 -0.06981674 1.00227929 71 59 63
-0.15035900 -0.04991411 1.00266755 71 61 63
-0.15041360 -0.02999520 1.00303106 70 59 62
-0.15044693 -0.01006057 1.00325846 69 59 61
-0.15047293 0.00988256 1.00343719 69 58 61
-0.15049287 0.02983182 1.00356923 67 58 59
-0.15051013 0.04978522 1.00368166 65 55 57
-0.14986702 0.06976600 1.00413604 61 52 55
-0.14995666 0.09187135 0.99072939 94 79 78
-0.15012614 0.08166807 1.00111217 78 67 68
-0.14992266 0.11105589 0.97035890 112 96 95
-0.15050857 0.10122737 0.98104492 101 85 84
-0.15049197 0.13903324 0.93863937 127 115 112
-0.15004991 0.12928509 0.94999909 127 112 113
-0.15008186 0.15710677 0.91633272 129 115 115
-0.15000800 0.14724108 0.92874456 129 115 114
-0.15000660 0.17471737 0.89288022 130 117 116
-0.15000882 0.16477972 0.90633215 131 118 117
-0.15107693 0.19853384 0.85819579 147 142 143
-0.14983506 0.19078929 0.86959105 139 132 131
-0.14993800 0.18188337 0.88284286 130 120 118
-0.14998367 0.20988889 0.84804706 148 148 153
-0.14992673 0.23691564 0.81507505 168 184 193
-0.15001512 0.22689975 0.82993282 165 182 190
-0.14993823 0.25890986 0.77736546 175 190 198
-0.15003008 0.25211968 0.78969781 173 189 198
-0.14995435 0.24309375 0.80511126 171 188 196
-0.15057276 0.27885253 0.73654839 173 193 199
-0.14997845 0.27298613 0.74956397 172 191 198
-0.15003095 0.26419728 0.76745308 172 189 197
-0.14446384 0.29980813 0.67028404 0 0 0
-0.15006442 0.29635371 0.69084740 160 179 191
-0.15001269 0.28939541 0.71035124 167 185 197
-0.14968252 0.28284240 0.72703845 173 193 200
-0.15789467 0.31789450 0.55954736 0 0 0
-0.15018608 0.31703605 0.56988484 0 0 0
-0.14998468 0.31421314 0.58994474 0 0 0
-0.14998591 0.31112424 0.60986263 0 0 0
-0.14982514 0.30758138 0.62998720 0 0 0
-0.14999607 0.30357009 0.64999643 0 0 0
-0.15057032 0.30073641 0.66873235 21 23 24
-0.15147034 0.30029809 0.68122240 171 190 197
-0.12984353 -0.58374406 0.87089269 0 0 0
-0.12996734 -0.56991278 0.87562799 0 0 0
-0.12056415 -0.56022351 0.88005179 0 0 0
-0.13364778 -0.55865272 0.87940399 0 0 0
-0.12964596 -0.54882647 0.88437683 0 0 0
-0.13033927 -0.53137988 0.89428117 0 0 0
-0.12775428 -0.52164259 0.90112323 0 0 0
-0.13016604 -0.51004461 0.91023803 0 0 0
-0.13020306 -0.50140146 0.95644788 52 49 54
-0.12970586 -0.50555498 0.97769439 54 51 54
-0.13105609 -0.50026409 0.98013057 54 51 53
-0.13155090 -0.49959448 0.91964767 0 0 0
-0.12984125 -0.49487754 0.92698361 1 1 1
-0.13021633 -0.48991411 0.98146428 59 57 59
-0.13028330 -0.47029061 0.98430559 71 65 67
-0.13002519 -0.44977846 0.98644744 78 72 74
-0.12997906 -0.42974818 0.98782657 79 76 76
-0.12951765 -0.40995125 0.98908282 81 77 78
-0.12968708 -0.38994546 0.99037540 81 77 78
-0.12985441 -0.36988057 0.99165285 83 78 79
-0.13001809 -0.34975283 0.99290143 82 74 77
-0.13015633 -0.32950892 0.99395629 82 74 77
-0.13027088 -0.31002501 0.99483065 83 75 77
-0.13038528 -0.29050657 0.99570638 87 80 83
