ply
format ascii 1.0
element vertex 1060
property float x
property float y
property float z
property uchar red
property uchar green
property uchar blue
end_header
0.50798601 0.07258937 0.54757017 125 131 127
-0.69477558 0.15456250 1.15091991 136 136 131
-0.68464959 0.15274717 1.13740242 130 131 126
-0.68268365 0.15274717 1.13740242 129 130 125
-0.68071777 0.15274717 1.13740242 128 129 126
-0.67535245 0.15198216 1.13170588 127 128 126
-0.67678595 0.15274717 1.13740242 131 132 130
-0.08915000 0.07271351 0.54144716 122 124 131
-0.08807346 0.07259754 0.54058361 119 124 131
-0.08706968 0.07253969 0.54015285 122 127 134
-0.08606748 0.07248194 0.53972280 125 130 137
-0.08527040 0.07259754 0.54058361 123 127 134
-0.08426885 0.07253969 0.54015285 123 128 134
-0.08326888 0.07248194 0.53972280 131 136 141
-0.08246733 0.07259754 0.54058361 134 139 138
-0.08153298 0.07259754 0.54058361 131 132 132
-0.08059862 0.07259754 0.54058361 127 128 128
-0.07953741 0.07248194 0.53972280 126 126 128
-0.07860455 0.07248194 0.53972280 130 130 134
-0.07760989 0.07242428 0.53929341 130 130 135
-0.07655596 0.07230923 0.53843671 124 123 130
-0.07580595 0.07248194 0.53972280 119 118 127
-0.07475404 0.07236671 0.53886473 127 126 135
-0.07353041 0.07208022 0.53673148 136 135 144
-0.07214573 0.07162653 0.53335315 134 134 138
0.06058000 0.09463339 0.70466930 94 92 99
0.06166975 0.09443705 0.70320731 103 99 110
0.06269009 0.09414407 0.70102566 105 100 112
0.06410062 0.09443705 0.70320731 105 104 120
0.06511343 0.09414407 0.70102566 107 108 124
0.49016687 0.07682474 0.57206064 109 113 116
0.51173788 0.07650194 0.56965703 111 112 115
0.51057726 0.07618185 0.56727350 107 108 111
0.50521612 0.07523745 0.56024116 110 113 116
0.50244719 0.07468197 0.55610490 116 119 122
0.50258380 0.07455964 0.55519396 121 124 127
0.50230926 0.07437689 0.55383319 122 127 129
0.50203604 0.07419504 0.55247909 130 134 137
0.50258136 0.07413462 0.55202919 135 140 142
0.50108719 0.07377416 0.54934508 137 141 141
0.50081909 0.07359524 0.54801279 139 143 142
0.50257891 0.07371443 0.54890031 142 147 146
0.50393564 0.07377416 0.54934508 146 152 149
0.50447637 0.07371443 0.54890031 139 145 142
0.50460792 0.07359524 0.54801279 134 138 135
0.50433195 0.07341719 0.54668695 131 132 130
-0.70113492 0.15708517 1.15484130 138 137 133
-0.70033193 0.15735324 1.15681207 139 139 135
-0.69359803 0.15628643 1.14896917 132 132 128
-0.68464959 0.15471308 1.13740242 131 131 127
-0.68154013 0.15445393 1.13549721 130 130 126
-0.67957753 0.15445393 1.13549721 129 130 127
-0.67422682 0.15368167 1.12981975 128 129 127
-0.08700036 0.07341480 0.53972280 116 121 129
-0.08606748 0.07341480 0.53972280 120 125 133
-0.08520246 0.07347330 0.54015285 125 130 137
-0.08420175 0.07341480 0.53972280 132 136 142
-0.08307046 0.07323987 0.53843671 141 143 148
-0.08233602 0.07341480 0.53972280 145 146 143
-0.08146802 0.07347330 0.54015285 139 139 137
-0.08053440 0.07347330 0.54015285 128 129 127
-0.07941096 0.07329809 0.53886473 121 121 123
-0.07841725 0.07323987 0.53843671 111 111 115
-0.07724120 0.07300791 0.53673148 120 120 125
-0.07607257 0.07277742 0.53503698 124 124 133
-0.07544554 0.07306577 0.53715676 125 125 134
-0.07439920 0.07295015 0.53630686 129 129 137
-0.07329827 0.07277742 0.53503698 136 137 143
-0.07208902 0.07249135 0.53293383 133 134 140
0.06064304 0.09595109 0.70540255 102 98 109
0.48959127 0.07787922 0.57254380 113 117 114
0.49016687 0.07781350 0.57206064 113 117 114
0.49032807 0.07768239 0.57109678 113 117 116
0.50438243 0.07608003 0.55931669 101 106 110
0.50080389 0.07539575 0.55428606 105 112 115
0.50135201 0.07533415 0.55383319 111 118 121
0.50189918 0.07527265 0.55338109 117 123 125
0.50203604 0.07514995 0.55247909 120 126 128
0.50258136 0.07508876 0.55202919 122 128 130
0.50108719 0.07472366 0.54934508 123 128 130
0.50122428 0.07460275 0.54845619 125 130 131
0.50339413 0.07478426 0.54979062 130 134 135
0.50434434 0.07478426 0.54979062 136 140 140
0.50488514 0.07472366 0.54934508 138 142 142
0.50501615 0.07460275 0.54845619 138 141 141
-0.70152909 0.15962508 1.15878952 130 130 128
-0.69359803 0.15827234 1.14896917 122 123 120
-0.68235976 0.15615498 1.13359845 119 120 118
-0.68040043 0.15615498 1.13359845 118 119 118
-0.67844111 0.15615498 1.13359845 118 119 117
-0.67310500 0.15537550 1.12793982 118 119 118
-0.08552276 0.07387712 0.53630686 121 124 132
-0.08413476 0.07428852 0.53929341 135 135 140
-0.08040626 0.07428852 0.53929341 128 128 129
-0.07922204 0.07405288 0.53758276 118 118 120
-0.07823084 0.07399420 0.53715676 97 98 106
-0.07693662 0.07364406 0.53461504 105 107 115
-0.07583316 0.07347024 0.53335315 120 123 131
-0.07502937 0.07358603 0.53419375 126 127 135
-0.07416450 0.07364406 0.53461504 128 128 136
-0.07318275 0.07358603 0.53419375 132 132 139
-0.07203238 0.07335481 0.53251517 134 133 139
0.06089651 0.09757646 0.70835096 117 115 125
0.06199129 0.09737297 0.70687366 102 99 110
0.06282002 0.09676754 0.70247859 96 91 103
0.06416719 0.09696851 0.70393753 97 91 108
0.06511343 0.09656740 0.70102566 108 104 121
0.26120260 0.16296802 1.18305731 105 105 114
0.26324743 0.16296802 1.18305731 111 111 120
0.26622146 0.16353884 1.18720114 122 122 131
0.26780441 0.16325293 1.18512559 137 138 138
0.26891255 0.16268411 1.18099630 155 152 152
0.48243132 0.07866948 0.57109678 112 116 116
0.48539260 0.07866948 0.57109678 112 113 113
0.49000511 0.07893548 0.57302779 119 120 118
0.49058086 0.07886881 0.57254380 115 116 114
0.49032807 0.07866948 0.57109678 115 116 114
0.49998626 0.07622913 0.55338109 100 108 112
0.50053412 0.07616695 0.55292970 101 109 113
0.50148982 0.07616695 0.55292970 102 108 111
0.50162721 0.07604290 0.55202919 102 107 109
0.50217241 0.07598102 0.55158001 102 107 110
0.50108719 0.07567316 0.54934508 105 110 112
0.50122428 0.07555071 0.54845619 105 111 113
0.50339413 0.07573453 0.54979062 104 109 112
0.50475377 0.07579600 0.55023688 105 109 111
0.50488514 0.07567316 0.54934508 112 116 118
0.50501615 0.07555071 0.54845619 122 125 127
-0.70273036 0.16190472 1.16077375 114 115 115
-0.69595718 0.16080333 1.15287733 112 113 113
-0.68464959 0.15864490 1.13740242 108 109 110
-0.67957753 0.15837915 1.13549721 108 109 110
-0.67422682 0.15758726 1.12981975 109 110 111
-0.67565233 0.15837915 1.13549721 107 108 109
-0.08518579 0.07450934 0.53419375 127 128 133
-0.08406789 0.07516085 0.53886473 136 136 138
-0.07915927 0.07492263 0.53715676 111 111 115
-0.07823084 0.07492263 0.53715676 105 108 114
-0.07687599 0.07450934 0.53419375 105 108 115
-0.07577354 0.07433362 0.53293383 110 113 121
-0.07502937 0.07450934 0.53419375 115 113 126
-0.07422303 0.07462696 0.53503698 121 120 134
-0.07318275 0.07450934 0.53419375 120 118 134
0.06076951 0.09859474 0.70687366 147 148 149
0.06186227 0.09838955 0.70540255 119 119 122
0.06269009 0.09777907 0.70102566 102 102 106
0.06396791 0.09788029 0.70175141 111 110 123
0.06497903 0.09757725 0.69957876 113 112 122
0.06625658 0.09767806 0.70030147 116 115 123
0.06739736 0.09757725 0.69957876 118 118 126
0.26029408 0.16443889 1.17894232 112 114 123
0.26187634 0.16415340 1.17689562 112 113 121
0.26529223 0.16501284 1.18305731 114 114 122
0.26780441 0.16530132 1.18512559 114 113 120
0.26844490 0.16443889 1.17894232 130 128 131
0.26907870 0.16358539 1.17282331 140 136 139
0.48167449 0.07985841 0.57254380 104 110 113
0.48103896 0.07958952 0.57061601 101 106 109
0.48161981 0.07952259 0.57013613 111 116 117
0.48399776 0.07958952 0.57061601 108 111 112
0.48457611 0.07952259 0.57013613 108 109 109
0.48876563 0.07972375 0.57157826 118 119 119
0.48975357 0.07972375 0.57157826 116 117 117
0.48950329 0.07952259 0.57013613 120 121 119
0.49917129 0.07705978 0.55247909 109 114 118
0.49931231 0.07693438 0.55158001 109 114 118
0.50067306 0.07699703 0.55202919 106 110 113
0.50081152 0.07687183 0.55113161 103 105 107
0.50135654 0.07680939 0.55068386 99 101 104
0.50027633 0.07649867 0.54845619 94 98 100
0.50081909 0.07643683 0.54801279 93 97 99
0.50298619 0.07662266 0.54934508 94 98 100
0.50434434 0.07668480 0.54979062 99 103 105
0.50488514 0.07662266 0.54934508 104 108 110
0.50542510 0.07656062 0.54890031 110 114 116
-0.69477558 0.16251959 1.15091991 101 101 103
-0.68464959 0.16061081 1.13740242 98 98 100
-0.68268365 0.16061081 1.13740242 105 105 107
-0.67957753 0.16034177 1.13549721 104 105 106
-0.67422682 0.15954007 1.12981975 98 99 100
-0.67678595 0.16061081 1.13740242 98 99 99
-0.67368966 0.16034177 1.13549721 98 99 99
-0.67285413 0.16061081 1.13740242 95 95 95
-0.66864443 0.16007364 1.13359845 95 95 95
-0.07847958 0.07609224 0.53886473 110 110 117
-0.07718009 0.07573105 0.53630686 119 119 128
-0.07583316 0.07531396 0.53335315 126 125 138
-0.07568543 0.07609224 0.53886473 130 129 140
-0.07451711 0.07585106 0.53715676 128 127 139
-0.07329827 0.07555173 0.53503698 128 128 139
0.05674914 0.09919590 0.70247859 134 134 139
0.06064304 0.09960878 0.70540255 141 142 145
0.06173379 0.09940191 0.70393753 124 125 129
0.06262533 0.09888847 0.70030147 109 110 114
0.06383575 0.09888847 0.70030147 114 116 124
0.06497903 0.09878642 0.69957876 120 121 129
0.06611996 0.09868458 0.69885755 121 121 130
0.06732789 0.09868458 0.69885755 121 125 131
0.25894305 0.16561252 1.17282331 118 121 124
0.26051947 0.16532649 1.17079771 117 119 122
0.26733705 0.16705766 1.18305731 122 122 125
0.27468488 0.16532649 1.17079771 144 138 144
0.48149824 0.08098480 0.57351255 115 121 121
0.48167449 0.08084801 0.57254380 116 122 122
0.48103896 0.08057579 0.57061601 118 124 124
0.48121509 0.08044037 0.56965703 122 128 127
0.48399776 0.08057579 0.57061601 111 115 115
0.48416892 0.08044037 0.56965703 111 113 113
0.48835388 0.08064367 0.57109678 135 135 135
0.48892906 0.08057579 0.57061601 138 138 138
0.48909193 0.08044037 0.56965703 135 135 135
0.49795377 0.07782442 0.55113161 117 121 121
0.49769250 0.07763506 0.54979062 118 122 122
0.49945289 0.07776120 0.55068386 120 122 122
0.49959302 0.07763506 0.54979062 123 123 122
0.50013769 0.07757215 0.54934508 130 130 130
0.49946815 0.07732151 0.54757017 127 129 129
0.50001067 0.07725911 0.54712820 126 128 128
0.50136101 0.07732151 0.54757017 128 130 131
0.50271350 0.07738402 0.54801279 132 134 134
0.50325388 0.07732151 0.54757017 130 132 133
0.50379336 0.07725911 0.54712820 123 125 126
-0.69477558 0.16450886 1.15091991 104 103 105
-0.68350279 0.16230439 1.13549721 110 109 107
-0.68154013 0.16230439 1.13549721 121 120 116
-0.67844111 0.16203298 1.13359845 121 121 118
-0.67422682 0.16149287 1.12981975 118 118 116
-0.67482007 0.16257671 1.13740242 87 87 85
-0.66976446 0.16230439 1.13549721 106 106 105
-0.07607257 0.07647650 0.53503698 137 137 142
0.05227160 0.10114376 0.70761150 134 134 142
0.05332765 0.10082801 0.70540255 139 139 147
0.05432078 0.10041007 0.70247859 139 138 145
0.05559257 0.10051423 0.70320731 137 136 143
0.05674914 0.10041007 0.70247859 137 136 141
0.05808369 0.10061861 0.70393753 132 132 135
0.05954774 0.10103829 0.70687366 129 124 127
0.06051709 0.10061861 0.70393753 129 125 130
0.06160584 0.10041007 0.70247859 120 117 122
0.06262533 0.10009889 0.70030147 113 113 122
0.06383575 0.10009889 0.70030147 121 123 131
0.06491204 0.09989250 0.69885755 122 124 132
0.06605187 0.09978962 0.69813782 122 125 133
0.06725854 0.09978962 0.69813782 126 133 138
0.25849584 0.16735013 1.17079771 132 133 134
0.26007029 0.16706158 1.16877902 139 141 142
0.26687130 0.16880788 1.18099630 147 149 150
0.26705158 0.16763966 1.17282331 154 155 156
0.27219114 0.16706158 1.16877902 162 162 162
0.27326897 0.16648749 1.16476262 148 147 148
0.48149824 0.08197608 0.57351255 123 128 126
0.48126802 0.08176854 0.57206064 126 131 129
0.48103896 0.08156206 0.57061601 129 133 132
0.48161981 0.08149346 0.57013613 128 132 130
0.48399776 0.08156206 0.57061601 115 119 117
0.48416892 0.08142497 0.56965703 115 117 116
0.48556155 0.08149346 0.57013613 117 119 119
0.48835388 0.08163077 0.57109678 120 120 120
0.48851785 0.08149346 0.57013613 123 123 123
0.48909193 0.08142497 0.56965703 126 126 126
0.49648449 0.07839460 0.54845619 121 125 124
0.49783525 0.07845807 0.54890031 121 124 123
0.49878398 0.07845807 0.54890031 122 123 122
0.49892473 0.07833122 0.54801279 130 131 130
0.49866256 0.07814171 0.54668695 136 136 136
0.49920487 0.07807875 0.54624647 139 140 140
0.50095636 0.07820478 0.54712820 140 141 141
0.50190204 0.07820478 0.54712820 139 140 140
0.50244218 0.07814171 0.54668695 137 138 138
0.50257647 0.07801588 0.54580665 135 136 136
0.50150090 0.07770307 0.54361814 126 127 128
-0.69135320 0.16426700 1.13549721 104 103 106
-0.70033193 0.16735052 1.15681207 107 106 103
-0.69359803 0.16621594 1.14896917 118 117 114
-0.68235976 0.16399232 1.13359845 132 132 128
-0.68040043 0.16399232 1.13359845 141 142 137
-0.67844111 0.16399232 1.13359845 139 139 134
-0.67422682 0.16344567 1.12981975 134 134 129
-0.67565233 0.16426700 1.13549721 117 118 113
-0.67368966 0.16426700 1.13549721 99 99 94
-0.67398500 0.16481917 1.13931406 98 98 94
-0.15855291 0.10110041 0.69885755 123 123 122
0.05227160 0.10236681 0.70761150 141 141 145
0.05327222 0.10194117 0.70466930 139 139 144
0.05432078 0.10162425 0.70247859 141 141 145
0.05559257 0.10172967 0.70320731 136 136 138
0.05674914 0.10162425 0.70247859 139 139 140
0.05802344 0.10172967 0.70320731 140 139 139
0.05930039 0.10183531 0.70393753 138 133 136
0.06039167 0.10162425 0.70247859 137 132 136
0.06160584 0.10162425 0.70247859 117 113 118
0.06262533 0.10130930 0.70030147 111 111 120
0.06383575 0.10130930 0.70030147 119 119 128
0.06497903 0.10120475 0.69957876 129 130 139
0.06611996 0.10110041 0.69885755 128 130 138
0.06732789 0.10110041 0.69885755 125 130 135
0.25805014 0.16908173 1.16877902 140 140 142
0.25962266 0.16879071 1.16676736 156 157 158
0.26345313 0.16996084 1.17485583 156 160 159
0.26640719 0.17055200 1.17894232 153 158 157
0.26659036 0.16937375 1.17079771 157 161 160
0.26722938 0.16850069 1.16476262 159 160 160
0.27219114 0.16908173 1.16877902 160 161 161
0.27326897 0.16850069 1.16476262 159 159 159
1.39822483 0.28843352 1.99379957 126 131 129
1.38941145 0.28591079 1.97636104 119 123 122
0.48109123 0.08289721 0.57302779 128 130 128
0.48126802 0.08275730 0.57206064 138 140 138
0.48103896 0.08254832 0.57061601 137 139 137
0.48121509 0.08240958 0.56965703 131 132 129
0.48359069 0.08247889 0.57013613 111 112 109
0.48416892 0.08240958 0.56965703 114 114 112
0.48556155 0.08247889 0.57013613 114 114 112
0.48654699 0.08247889 0.57013613 112 112 111
0.48794281 0.08254832 0.57061601 111 111 111
0.48851785 0.08247889 0.57013613 110 110 110
0.48868129 0.08234039 0.56917870 110 110 111
0.49568242 0.07921438 0.54757017 110 111 111
0.49703032 0.07927842 0.54801279 110 110 110
0.49797752 0.07927842 0.54801279 108 108 108
0.49852172 0.07921438 0.54757017 102 102 102
0.49826074 0.07902288 0.54624647 98 98 98
0.49840164 0.07889574 0.54536754 98 98 98
0.50014901 0.07902288 0.54624647 106 107 107
0.50149727 0.07908662 0.54668695 116 117 117
0.50203729 0.07902288 0.54624647 124 127 127
0.50136542 0.07876900 0.54449141 133 136 135
0.49989739 0.07839121 0.54187995 140 142 142
-0.69019711 0.16595164 1.13359845 115 110 111
-0.68939060 0.16622962 1.13549721 117 112 112
-0.69794983 0.16877395 1.15287733 119 118 114
-0.69242442 0.16791724 1.14702511 121 119 116
-0.68235976 0.16595164 1.13359845 123 123 117
-0.68040043 0.16595164 1.13359845 130 131 125
-0.67844111 0.16595164 1.13359845 133 133 126
-0.67535245 0.16567460 1.13170588 133 133 125
-0.67368966 0.16622962 1.13549721 125 126 115
-0.67398500 0.16678837 1.13931406 127 128 118
-0.16700834 0.10230833 0.69885755 121 121 121
-0.16389146 0.10262574 0.70102566 122 123 125
-0.16251175 0.10251971 0.70030147 121 122 126
-0.16113487 0.10241392 0.69957876 111 112 116
-0.15976083 0.10230833 0.69885755 109 110 112
-0.15855291 0.10230833 0.69885755 113 113 113
-0.15750737 0.10241392 0.69957876 118 119 118
0.05542010 0.10262574 0.70102566 151 151 151
0.05669039 0.10273197 0.70175141 152 152 152
0.05790331 0.10273197 0.70175141 155 154 154
0.05911623 0.10273197 0.70175141 159 157 158
0.06026676 0.10262574 0.70102566 157 154 155
0.06383575 0.10251971 0.70030147 119 119 128
0.06497903 0.10241392 0.69957876 135 135 144
0.06611996 0.10230833 0.69885755 126 126 135
0.06732789 0.10230833 0.69885755 118 118 125
0.25849584 0.17139737 1.17079771 136 137 140
0.26391050 0.17229007 1.17689562 152 156 157
0.26640719 0.17258970 1.17894232 152 156 156
0.26659036 0.17139737 1.17079771 158 162 161
0.26722938 0.17051388 1.16476262 163 164 164
0.27017099 0.17110187 1.16877902 160 161 161
0.27266124 0.17139737 1.17079771 160 160 160
0.27373931 0.17080738 1.16676736 158 157 157
1.39822483 0.29187965 1.99379957 132 133 135
1.38941145 0.28932676 1.97636104 119 121 122
0.48149824 0.08395862 0.57351255 134 135 135
0.48167449 0.08381679 0.57254380 143 143 144
0.48103896 0.08353458 0.57061601 138 138 139
0.48121509 0.08339418 0.56965703 130 130 129
0.48179483 0.08332416 0.56917870 122 122 118
0.48359069 0.08346432 0.57013613 114 114 110
0.48416892 0.08339418 0.56965703 113 113 110
0.48515353 0.08339418 0.56965703 112 112 109
0.48613814 0.08339418 0.56965703 107 107 104
0.48753241 0.08346432 0.57013613 106 106 103
0.48810732 0.08339418 0.56965703 105 105 102
0.48827133 0.08325426 0.56870121 103 103 101
0.49568242 0.08016081 0.54757017 131 131 131
0.49703032 0.08022561 0.54801279 120 120 120
0.49797752 0.08022561 0.54801279 102 102 102
0.49852172 0.08016081 0.54757017 100 100 100
0.49826074 0.07996703 0.54624647 106 106 106
0.49840164 0.07983836 0.54536754 113 113 113
0.50014901 0.07996703 0.54624647 119 119 119
0.50109315 0.07996703 0.54624647 125 126 125
0.50163311 0.07990264 0.54580665 130 134 131
0.50136542 0.07971010 0.54449141 140 144 141
0.49909949 0.07920118 0.54101503 149 153 150
-0.69019711 0.16791098 1.13359845 127 121 123
-0.68939060 0.16819224 1.13549721 126 120 122
-0.69794983 0.17076661 1.15287733 124 118 118
-0.69359803 0.17018774 1.14896917 124 118 118
-0.68350279 0.16819224 1.13549721 110 109 106
-0.68040043 0.16791098 1.13359845 115 115 112
-0.67844111 0.16791098 1.13359845 113 113 106
-0.67535245 0.16763066 1.13170588 108 109 100
-0.67565233 0.16819224 1.13549721 106 106 95
-0.67482007 0.16847444 1.13740242 108 106 93
-0.67625815 0.16932675 1.14315653 110 109 96
-0.67201579 0.16875759 1.13931406 112 114 100
-0.16977423 0.10373013 0.70030147 116 118 119
-0.16821626 0.10351625 0.69885755 113 115 116
-0.16735341 0.10373013 0.70030147 114 116 117
-0.16578892 0.10426871 0.70393753 119 122 123
-0.16440150 0.10416054 0.70320731 113 116 118
-0.16301696 0.10405260 0.70247859 113 114 118
-0.16146813 0.10383740 0.70102566 102 102 106
-0.15992570 0.10362308 0.69957876 100 99 102
-0.15871654 0.10362308 0.69957876 107 106 110
-0.15767008 0.10373013 0.70030147 114 113 118
0.05547747 0.10394489 0.70175141 171 170 170
0.05674914 0.10405260 0.70247859 172 171 171
0.05796332 0.10405260 0.70247859 168 167 167
0.05917749 0.10405260 0.70247859 163 162 162
0.06039167 0.10405260 0.70247859 165 164 164
0.06390176 0.10383740 0.70102566 145 144 148
0.06504616 0.10373013 0.70030147 139 138 143
0.06625658 0.10373013 0.70030147 137 138 143
0.06746699 0.10373013 0.70030147 139 139 144
0.25805014 0.17312200 1.16877902 143 146 147
0.25962266 0.17282404 1.16676736 156 159 161
0.26299733 0.17372105 1.17282331 160 161 163
0.26594469 0.17432424 1.17689562 161 162 163
0.26613072 0.17312200 1.16877902 163 164 165
0.26722938 0.17252709 1.16476262 163 163 163
0.27017099 0.17312200 1.16877902 161 161 161
0.27266124 0.17342101 1.17079771 159 158 158
0.27373931 0.17282404 1.16676736 156 152 151
1.36433017 0.29619694 1.99968100 118 122 123
1.39822483 0.29532579 1.99379957 125 126 128
1.38941145 0.29274276 1.97636104 116 117 119
0.63978302 0.12582803 0.84948850 114 118 119
0.64484805 0.12567054 0.84842533 126 129 130
0.48208165 0.08487808 0.57302779 137 136 138
0.48144421 0.08459205 0.57109678 134 133 135
0.48161981 0.08444976 0.57013613 131 130 132
0.48219970 0.08437879 0.56965703 134 133 133
0.48440549 0.08459205 0.57109678 139 138 137
0.48457611 0.08444976 0.57013613 142 142 139
0.48556155 0.08444976 0.57013613 140 141 137
0.48654699 0.08444976 0.57013613 137 138 134
0.48794281 0.08452085 0.57061601 142 143 139
0.48810732 0.08437879 0.56965703 147 147 143
0.48868129 0.08430795 0.56917870 151 151 147
0.49662885 0.08110724 0.54757017 116 117 117
0.49757528 0.08110724 0.54757017 99 100 99
0.49811935 0.08104178 0.54712820 93 94 92
0.49785954 0.08084603 0.54580665 100 101 99
0.49800101 0.08071605 0.54492915 105 105 104
0.50014901 0.08091117 0.54624647 107 108 106
0.50109315 0.08091117 0.54624647 108 109 107
0.50122952 0.08078098 0.54536754 109 113 110
0.49896079 0.08026440 0.54187995 119 123 120
0.49790737 0.07994488 0.53972280 131 135 132
0.49686226 0.07962789 0.53758276 139 143 141
-0.68904489 0.16958672 1.13170588 114 108 110
-0.68708879 0.16958672 1.13170588 112 106 108
-0.69558394 0.17217363 1.14896917 104 100 100
-0.69125479 0.17159197 1.14508760 111 108 108
-0.68235976 0.16987030 1.13359845 109 109 107
-0.68040043 0.16987030 1.13359845 110 110 108
-0.67844111 0.16987030 1.13359845 106 106 102
-0.67535245 0.16958672 1.13170588 96 96 93
-0.67452246 0.16987030 1.13359845 101 101 92
-0.67482007 0.17044035 1.13740242 106 106 94
-0.16977423 0.10494054 0.70030147 105 108 114
-0.16838986 0.10483225 0.69957876 105 109 114
-0.16735341 0.10494054 0.70030147 115 120 122
-0.16578892 0.10548540 0.70393753 115 121 123
-0.16440150 0.10537598 0.70320731 113 117 120
-0.16146813 0.10504907 0.70102566 96 95 103
-0.15992570 0.10483225 0.69957876 92 91 99
-0.15871654 0.10483225 0.69957876 88 86 96
0.05553496 0.10526678 0.70247859 178 178 174
0.05680801 0.10537598 0.70320731 177 176 172
0.06051709 0.10548540 0.70393753 174 170 168
0.06646255 0.10526678 0.70247859 139 140 142
0.06774694 0.10537598 0.70320731 139 140 140
0.24307100 0.17454028 1.16476262 159 160 160
0.24837770 0.17544463 1.17079771 158 157 157
0.24996960 0.17514214 1.16877902 160 159 159
0.25242496 0.17544463 1.17079771 155 155 153
0.25488880 0.17574817 1.17282331 153 153 151
0.25691593 0.17574817 1.17282331 144 145 144
0.25849584 0.17544463 1.17079771 149 150 151
0.26007029 0.17514214 1.16877902 158 159 161
0.26299733 0.17574817 1.17282331 160 161 163
0.26548377 0.17605276 1.17485583 164 164 166
0.26659036 0.17544463 1.17079771 168 168 170
0.26768932 0.17484070 1.16676736 162 162 162
0.27063760 0.17544463 1.17079771 162 160 160
0.27360633 0.17605276 1.17485583 160 156 157
0.27468488 0.17544463 1.17079771 151 147 148
0.27575597 0.17484070 1.16676736 141 139 139
1.36720967 0.29877189 1.99379957 121 121 125
1.37469900 0.29965323 1.99968100 112 112 116
1.39068842 0.29789573 1.98795259 157 163 157
1.38599539 0.29615873 1.97636104 167 169 165
1.38135684 0.29444188 1.96490383 161 162 160
0.62303776 0.12777667 0.85269415 154 155 154
0.62138510 0.12713698 0.84842533 151 152 151
0.61897808 0.12634632 0.84314907 151 151 151
0.63911563 0.12745601 0.85055441 132 135 134
0.63818359 0.12697805 0.84736478 129 131 130
0.63964820 0.12697805 0.84736478 125 127 125
0.64271957 0.12729630 0.84948850 120 123 120
0.64338160 0.12713698 0.84842533 120 123 120
0.64404196 0.12697805 0.84736478 124 125 124
0.64309496 0.12650366 0.84419906 126 127 127
0.64215505 0.12603281 0.84105688 128 129 129
0.48289806 0.08601393 0.57399815 141 141 141
0.48225677 0.08572358 0.57206064 140 140 140
0.48202524 0.08550711 0.57061601 142 142 142
0.48260525 0.08543520 0.57013613 143 142 143
0.48522305 0.08572358 0.57206064 151 150 150
0.48498401 0.08550711 0.57061601 157 156 155
0.48597029 0.08550711 0.57061601 156 157 153
0.48695654 0.08550711 0.57061601 147 148 144
0.48835388 0.08557914 0.57109678 142 143 138
0.48851785 0.08543520 0.57013613 146 146 139
0.48909193 0.08536340 0.56965703 162 162 155
0.49622801 0.08198745 0.54712820 121 125 124
0.49757528 0.08205367 0.54757017 129 133 131
0.49811935 0.08198745 0.54712820 136 140 137
0.49785954 0.08178941 0.54580665 135 139 136
0.49840164 0.08172361 0.54536754 128 130 128
0.50055236 0.08192132 0.54668695 121 122 120
0.50149727 0.08192132 0.54668695 112 113 111
0.50096303 0.08152684 0.54405445 123 127 124
0.49830410 0.08094218 0.54015285 123 126 123
-0.68755740 0.17068791 1.12606621 103 100 108
-0.68789643 0.17125687 1.12981975 107 101 105
-0.68480229 0.17097193 1.12793982 113 107 111
-0.68742800 0.17211746 1.13549721 109 106 108
-0.68776947 0.17269601 1.13931406 109 105 108
-0.68122059 0.17154278 1.13170588 109 108 108
-0.67926455 0.17154278 1.13170588 111 110 110
-0.67617965 0.17125687 1.12981975 112 111 110
-0.67422682 0.17125687 1.12981975 109 108 106
-0.67339635 0.17154278 1.13170588 107 106 102
-0.67144030 0.17154278 1.13170588 108 107 101
-0.17685401 0.10604141 0.69957876 93 90 111
-0.17564486 0.10604141 0.69957876 100 98 121
-0.17443569 0.10604141 0.69957876 100 100 124
-0.17286973 0.10582300 0.69813782 99 100 123
-0.17166305 0.10582300 0.69813782 94 95 117
-0.17063209 0.10593209 0.69885755 99 100 122
-0.16959903 0.10604141 0.69957876 110 118 124
-0.16821626 0.10593209 0.69885755 125 131 136
-0.16510314 0.10626073 0.70102566 129 133 133
-0.16389146 0.10626073 0.70102566 130 131 132
-0.16251175 0.10615095 0.70030147 124 124 128
-0.16146813 0.10626073 0.70102566 110 110 115
-0.15992570 0.10604141 0.69957876 92 91 98
-0.15855291 0.10593209 0.69885755 77 75 83
0.05547747 0.10637073 0.70175141 176 173 171
0.05669039 0.10637073 0.70175141 174 168 167
0.24348937 0.17685737 1.16676736 169 170 170
0.24550603 0.17685737 1.16676736 169 169 169
0.24880742 0.17777531 1.17282331 167 167 167
0.25040132 0.17746827 1.17079771 166 166 166
0.25286168 0.17777531 1.17282331 169 168 167
0.25488880 0.17777531 1.17282331 168 167 165
0.25691593 0.17777531 1.17282331 158 157 155
0.25894305 0.17777531 1.17282331 156 155 155
0.26051947 0.17746827 1.17079771 164 163 165
0.26299733 0.17777531 1.17282331 167 168 170
0.26594469 0.17839257 1.17689562 167 168 170
0.26705158 0.17777531 1.17282331 166 167 169
0.26815087 0.17716229 1.16877902 164 163 163
0.27157569 0.17808340 1.17485583 164 160 161
0.27408135 0.17839257 1.17689562 153 147 149
0.27516010 0.17777531 1.17282331 137 130 133
0.27670848 0.17746827 1.17079771 135 131 133
0.27921435 0.17777531 1.17282331 125 123 125
1.37065578 0.30221802 1.99379957 136 136 139
1.39133251 0.30221802 1.99379957 170 174 164
1.38662207 0.30045065 1.98213995 171 175 165
1.38599539 0.29957470 1.97636104 174 175 165
0.62303776 0.12925047 0.85269415 147 147 145
0.62216377 0.12876457 0.84948850 148 148 146
0.61974889 0.12796280 0.84419906 148 148 147
0.61812896 0.12732853 0.84001470 147 147 147
0.61804909 0.12701376 0.83793801 148 148 148
0.62026411 0.12717095 0.83897507 152 152 152
0.63764554 0.12892613 0.85055441 142 142 143
0.63751584 0.12860341 0.84842533 140 140 140
0.63579935 0.12796280 0.84419906 136 136 135
0.63567519 0.12764488 0.84210169 131 131 129
0.63792318 0.12780364 0.84314907 123 124 122
0.63938046 0.12780364 0.84314907 109 110 108
0.64163584 0.12796280 0.84419906 116 117 116
0.64149725 0.12764488 0.84210169 122 123 123
0.64056551 0.12717095 0.83897507 124 125 125
0.64122206 0.12701376 0.83793801 122 123 123
0.64108545 0.12670052 0.83587158 126 127 127
0.48144421 0.08656624 0.57109678 133 134 132
0.48202524 0.08649337 0.57061601 139 140 138
0.48522305 0.08671235 0.57206064 154 153 151
0.48498401 0.08649337 0.57061601 155 154 152
0.48597029 0.08649337 0.57061601 153 152 148
0.48695654 0.08649337 0.57061601 144 143 139
0.48794281 0.08649337 0.57061601 134 134 129
0.48810732 0.08634800 0.56965703 128 128 121
0.48868129 0.08627550 0.56917870 135 135 128
0.49717370 0.08293311 0.54712820 120 125 121
0.49771765 0.08286623 0.54668695 126 132 128
0.49826074 0.08279946 0.54624647 136 142 138
0.49840164 0.08266623 0.54536754 141 146 143
0.50055236 0.08286623 0.54668695 139 143 140
0.50149727 0.08286623 0.54668695 127 131 128
0.50096303 0.08246720 0.54405445 125 131 127
0.49830410 0.08187580 0.54015285 119 125 121
0.49646857 0.08142165 0.53715676 111 114 112
-0.68755740 0.17263423 1.12606621 99 97 104
-0.68675190 0.17292148 1.12793982 104 98 102
-0.68366480 0.17263423 1.12606621 106 100 104
-0.68513274 0.17349884 1.13170588 107 98 100
-0.68546540 0.17408007 1.13549721 109 100 101
-0.68008524 0.17320968 1.12981975 109 100 102
-0.67813247 0.17320968 1.12981975 110 101 104
-0.67617965 0.17320968 1.12981975 106 103 102
-0.67422682 0.17320968 1.12981975 104 103 101
-0.67339635 0.17349884 1.13170588 98 97 95
-0.67032123 0.17320968 1.12981975 95 95 93
-0.17648974 0.10702967 0.69813782 103 102 119
-0.17546378 0.10714000 0.69885755 121 121 135
-0.17407639 0.10702967 0.69813782 127 127 136
-0.17269187 0.10691956 0.69741958 135 139 142
-0.17148644 0.10691956 0.69741958 137 141 143
-0.17028101 0.10691956 0.69741958 137 141 143
-0.16924970 0.10702967 0.69813782 133 140 138
-0.16787013 0.10691956 0.69741958 137 142 141
-0.16700834 0.10714000 0.69885755 142 143 144
-0.16476236 0.10725058 0.69957876 137 138 138
-0.16355319 0.10725058 0.69957876 137 137 137
-0.16234404 0.10725058 0.69957876 128 128 128
-0.16113487 0.10725058 0.69957876 130 129 130
-0.15976083 0.10714000 0.69885755 140 134 137
-0.15838963 0.10702967 0.69813782 139 134 136
0.24837770 0.17949189 1.17079771 177 177 177
0.24996960 0.17918243 1.16877902 180 180 180
0.25242496 0.17949189 1.17079771 175 175 174
0.25444859 0.17949189 1.17079771 174 174 173
0.25691593 0.17980243 1.17282331 170 169 169
0.25894305 0.17980243 1.17282331 161 160 160
0.26051947 0.17949189 1.17079771 157 156 156
0.26345313 0.18011405 1.17485583 151 150 150
0.26640719 0.18074054 1.17894232 163 162 162
0.26751441 0.18011405 1.17485583 167 165 165
0.26861399 0.17949189 1.17079771 171 168 170
0.27252030 0.18074054 1.17894232 163 159 161
0.27455801 0.18074054 1.17894232 160 154 157
0.27563697 0.18011405 1.17485583 143 136 141
0.28116012 0.18105541 1.18099630 136 130 134
0.28468928 0.18200667 1.18720114 157 156 159
1.39133251 0.30566415 1.99379957 170 171 162
1.38662207 0.30387664 1.98213995 173 174 165
0.62087107 0.13088892 0.85376805 148 149 149
0.62313157 0.13105398 0.85484469 153 154 154
0.62460911 0.13105398 0.85484469 149 149 148
0.62294441 0.13039625 0.85055441 150 150 148
0.62052166 0.12958330 0.84525168 148 148 147
0.61889583 0.12894021 0.84105688 145 145 145
0.61804909 0.12846206 0.83793801 145 145 145
0.62180322 0.12894021 0.84105688 147 146 146
0.62403119 0.12910038 0.84210169 137 136 136
0.62471062 0.12894021 0.84105688 129 129 129
0.63007295 0.12974508 0.84630692 125 125 126
0.63470531 0.13039625 0.85055441 124 124 125
0.63537824 0.13023284 0.84948850 126 126 128
0.63764554 0.13039625 0.85055441 132 132 134
0.63831478 0.13023284 0.84948850 131 131 132
0.63659209 0.12958330 0.84525168 128 128 129
0.63646585 0.12926096 0.84314907 128 128 129
0.63792318 0.12926096 0.84314907 129 129 128
0.63938046 0.12926096 0.84314907 122 122 121
0.64163584 0.12942192 0.84419906 130 130 130
0.64149725 0.12910038 0.84210169 140 140 140
0.64056551 0.12862104 0.83897507 140 140 140
0.64122206 0.12846206 0.83793801 141 142 142
0.64108545 0.12814526 0.83587158 146 147 147
0.64016217 0.12767299 0.83279097 151 152 152
0.64002901 0.12736006 0.83074981 155 156 155
0.48103896 0.08747964 0.57061601 167 168 166
0.48161981 0.08740606 0.57013613 165 166 164
0.48522305 0.08770110 0.57206064 167 167 160
0.48539260 0.08755334 0.57109678 159 160 153
0.48637968 0.08755334 0.57109678 156 157 150
0.48695654 0.08747964 0.57061601 158 159 152
0.48794281 0.08747964 0.57061601 157 158 151
0.48810732 0.08733261 0.56965703 146 146 139
0.48868129 0.08725929 0.56917870 133 133 126
0.49637243 0.08374360 0.54624647 139 142 139
0.49731660 0.08374360 0.54624647 143 147 143
0.49745902 0.08360886 0.54536754 149 153 149
0.49760100 0.08347455 0.54449141 153 156 153
0.49974632 0.08367617 0.54580665 154 155 153
0.49988472 0.08354165 0.54492915 157 158 156
0.49882168 0.08320721 0.54274768 158 159 156
0.49816439 0.08294158 0.54101503 157 158 154
0.49790737 0.08274347 0.53972280 148 149 145
-0.69065100 0.17487103 1.12793982 83 83 88
-0.68870145 0.17487103 1.12793982 87 87 90
-0.68675190 0.17487103 1.12793982 93 91 90
-0.68480229 0.17487103 1.12793982 94 93 91
-0.68627846 0.17574830 1.13359845 97 92 92
-0.68546540 0.17604269 1.13549721 98 94 93
-0.68008524 0.17516248 1.12981975 97 93 92
-0.67813247 0.17516248 1.12981975 98 95 94
-0.67505455 0.17487103 1.12793982 99 98 96
-0.67310500 0.17487103 1.12793982 103 102 100
-0.67227405 0.17516248 1.12981975 95 95 93
-0.66920590 0.17487103 1.12793982 91 92 90
-0.17835206 0.10790297 0.69598752 97 94 107
-0.17389731 0.10812499 0.69741958 141 141 144
-0.17251439 0.10801386 0.69670284 141 142 142
-0.17131019 0.10801386 0.69670284 141 142 142
-0.17010599 0.10801386 0.69670284 143 146 145
-0.16907558 0.10812499 0.69741958 151 153 153
-0.16752544 0.10790297 0.69598752 139 141 140
-0.16649342 0.10801386 0.69670284 134 135 135
-0.16528922 0.10801386 0.69670284 127 128 128
-0.16425385 0.10812499 0.69741958 123 124 124
-0.16321632 0.10823634 0.69813782 114 114 114
-0.16200966 0.10823634 0.69813782 115 115 114
-0.16080298 0.10823634 0.69813782 128 128 127
-0.15943211 0.10812499 0.69741958 139 137 135
-0.15806405 0.10801386 0.69670284 138 137 135
0.25849584 0.18151553 1.17079771 160 160 160
0.26640719 0.18277824 1.17894232 158 156 156
0.26751441 0.18214469 1.17485583 162 158 159
0.26907870 0.18182957 1.17282331 171 167 170
0.27252030 0.18277824 1.17894232 167 163 166
0.27455801 0.18277824 1.17894232 170 166 169
0.27563697 0.18214469 1.17485583 160 156 157
0.28214318 0.18373686 1.18512559 156 152 153
0.28468928 0.18405865 1.18720114 159 158 160
0.62294441 0.13186637 0.85055441 162 162 160
0.62129635 0.13120785 0.84630692 173 173 170
0.61966467 0.13055588 0.84210169 174 173 169
0.62335002 0.13071828 0.84314907 178 177 170
0.62558544 0.13088106 0.84419906 171 170 162
0.62548667 0.13055588 0.84210169 164 163 156
0.63007295 0.13120785 0.84630692 162 161 158
0.63390994 0.13170111 0.84948850 161 160 157
0.63617545 0.13186637 0.85055441 152 151 151
0.63844663 0.13203202 0.85162294 149 149 149
0.63831478 0.13170111 0.84948850 148 148 149
0.63738686 0.13120785 0.84630692 145 145 145
0.63646585 0.13071828 0.84314907 135 135 136
0.63792318 0.13071828 0.84314907 126 124 124
0.63938046 0.13071828 0.84314907 128 125 125
0.64083779 0.13071828 0.84314907 136 133 133
0.64149725 0.13055588 0.84210169 147 143 143
0.64135927 0.13023233 0.84001470 148 144 144
0.64201564 0.13007115 0.83897507 150 149 148
0.64187694 0.12974998 0.83690351 153 153 152
0.64016217 0.12911239 0.83279097 156 157 155
0.64002901 0.12879594 0.83074981 160 160 158
0.48167449 0.08876477 0.57254380 171 172 169
0.48023048 0.08831722 0.56965703 169 170 166
0.48498401 0.08846590 0.57061601 165 165 153
0.48597029 0.08846590 0.57061601 168 168 156
0.48695654 0.08846590 0.57061601 172 172 161
0.48753241 0.08839150 0.57013613 175 175 164
0.48810732 0.08831722 0.56965703 160 160 151
0.49854210 0.08441565 0.54449141 159 161 153
0.49788359 0.08414531 0.54274768 164 166 158
0.49683276 0.08380980 0.54058361 165 167 159
0.49697450 0.08367635 0.53972280 161 162 153
0.49790737 0.08367635 0.53972280 157 158 149
-0.69180208 0.17711528 1.12981975 74 75 77
-0.68984926 0.17711528 1.12981975 76 77 78
-0.68789643 0.17711528 1.12981975 80 80 78
-0.68594366 0.17711528 1.12981975 82 83 81
-0.68513274 0.17741096 1.13170588 84 84 82
-0.68546540 0.17800531 1.13549721 89 89 88
-0.68008524 0.17711528 1.12981975 89 88 86
-0.67700410 0.17682058 1.12793982 92 91 89
-0.67505455 0.17682058 1.12793982 96 95 93
-0.67310500 0.17682058 1.12793982 103 102 100
-0.67227405 0.17711528 1.12981975 99 99 98
-0.66920590 0.17682058 1.12793982 92 93 93
-0.17835206 0.10910592 0.69598752 103 105 114
-0.17733116 0.10921805 0.69670284 117 116 127
-0.17630817 0.10933042 0.69741958 130 129 136
-0.17510274 0.10933042 0.69741958 140 140 144
-0.17371859 0.10921805 0.69670284 138 138 138
-0.17233726 0.10910592 0.69598752 136 136 136
-0.17113431 0.10910592 0.69598752 135 136 136
-0.16975707 0.10899402 0.69527370 134 135 135
-0.16890180 0.10921805 0.69670284 137 138 140
-0.16735362 0.10899402 0.69527370 137 138 140
-0.16632248 0.10910592 0.69598752 135 140 140
-0.16511951 0.10910592 0.69598752 144 147 146
-0.16425385 0.10933042 0.69741958 147 149 147
-0.16304840 0.10933042 0.69741958 154 154 152
-0.16184297 0.10933042 0.69741958 157 156 154
-0.16063754 0.10933042 0.69741958 142 141 139
-0.15926825 0.10921805 0.69670284 134 133 133
-0.15790178 0.10910592 0.69598752 128 128 128
-0.15605792 0.10865968 0.69314092 127 127 127
-0.15470169 0.10854869 0.69243294 120 121 123
0.26733705 0.18546103 1.18305731 166 160 162
0.26844490 0.18481594 1.17894232 166 161 162
0.27001300 0.18449509 1.17689562 176 172 173
0.27299508 0.18513793 1.18099630 175 172 172
0.27503633 0.18513793 1.18099630 181 177 177
0.27911884 0.18513793 1.18099630 175 171 170
0.28263730 0.18611063 1.18720114 171 167 167
0.28518873 0.18643714 1.18928397 163 159 160
0.62451154 0.13367191 0.85269415 164 164 160
0.62285155 0.13300271 0.84842533 178 178 174
0.62198263 0.13250519 0.84525168 179 179 171
0.62112015 0.13201138 0.84210169 179 179 171
0.62725085 0.13300271 0.84842533 180 180 170
0.62871724 0.13300271 0.84842533 178 178 168
0.62704456 0.13234019 0.84419906 176 176 165
0.63086057 0.13283646 0.84736478 176 177 163
0.63470531 0.13333647 0.85055441 178 179 165
0.63697463 0.13350399 0.85162294 179 180 166
0.63844663 0.13350399 0.85162294 179 180 166
0.63911563 0.13333647 0.85055441 178 178 166
0.63818359 0.13283646 0.84736478 175 172 163
0.63805306 0.13250519 0.84525168 161 159 150
0.63951397 0.13250519 0.84525168 149 145 138
0.64097494 0.13250519 0.84525168 143 138 133
0.64323795 0.13267063 0.84630692 144 139 134
0.64149725 0.13201138 0.84210169 149 143 141
0.64215505 0.13184761 0.84105688 151 145 144
0.64281118 0.13168423 0.84001470 155 153 150
0.64187694 0.13119650 0.83690351 157 157 153
0.63937670 0.13039161 0.83176911 156 156 153
0.63924563 0.13007243 0.82973295 154 154 151
0.48023048 0.08930182 0.56965703 174 175 168
0.48457611 0.08937693 0.57013613 178 178 165
0.48753241 0.08937693 0.57013613 184 184 170
0.48769751 0.08922684 0.56917870 181 180 167
0.49654794 0.08501533 0.54231346 166 168 157
0.49669057 0.08487953 0.54144716 164 165 155
0.49604163 0.08460921 0.53972280 158 160 150
-0.68984926 0.17906809 1.12981975 65 67 68
-0.68789643 0.17906809 1.12981975 69 70 70
-0.68594366 0.17906809 1.12981975 76 77 77
-0.68513274 0.17936704 1.13170588 76 76 77
-0.68546540 0.17996792 1.13549721 78 78 80
-0.68122059 0.17936704 1.13170588 82 82 82
-0.67813247 0.17906809 1.12981975 86 86 86
-0.67505455 0.17877014 1.12793982 88 87 87
-0.67310500 0.17877014 1.12793982 86 85 85
-0.67227405 0.17906809 1.12981975 85 85 85
-0.17492278 0.11042225 0.69670284 131 131 134
-0.17354022 0.11030888 0.69598752 127 127 129
-0.17216051 0.11019574 0.69527370 126 126 128
-0.17095879 0.11019574 0.69527370 127 127 129
-0.16958313 0.11008284 0.69456130 120 120 123
-0.16872840 0.11030888 0.69598752 126 126 128
-0.16718215 0.11008284 0.69456130 138 139 141
-0.16615190 0.11019574 0.69527370 144 149 150
-0.16478117 0.11008284 0.69456130 155 157 155
-0.16391656 0.11030888 0.69598752 158 158 156
-0.16288084 0.11042225 0.69670284 157 157 155
-0.16167665 0.11042225 0.69670284 158 158 156
-0.16063754 0.11053585 0.69741958 142 143 141
-0.15926825 0.11042225 0.69670284 132 132 132
-0.15773982 0.11019574 0.69527370 121 121 121
-0.15589851 0.10974551 0.69243294 120 120 121
-0.15438630 0.10952176 0.69102126 114 115 119
0.26844490 0.18685365 1.17894232 177 177 175
0.27095383 0.18717918 1.18099630 181 181 178
0.27394962 0.18783365 1.18512559 184 184 181
0.27551633 0.18750584 1.18305731 186 184 180
0.27659571 0.18685365 1.17894232 186 184 180
0.27960595 0.18750584 1.18305731 185 183 179
0.28263730 0.18816261 1.18720114 183 179 176
0.28568995 0.18882400 1.19137406 180 176 175
0.28825575 0.18915643 1.19347155 168 164 164
0.28929991 0.18849272 1.18928397 158 154 155
0.29084522 0.18816261 1.18720114 144 140 147
0.62451154 0.13514572 0.85269415 178 178 171
0.62285155 0.13446915 0.84842533 182 182 175
0.62034953 0.13330130 0.84105688 180 180 173
0.62568468 0.13413340 0.84630692 180 179 172
0.62871724 0.13446915 0.84842533 179 178 170
0.62626463 0.13363290 0.84314907 178 177 168
0.63086057 0.13430107 0.84736478 178 177 169
0.63390994 0.13463765 0.84948850 175 175 166
0.63697463 0.13497594 0.85162294 170 170 159
0.63924968 0.13514572 0.85269415 167 168 154
0.63991857 0.13497594 0.85162294 169 170 156
0.63978302 0.13463765 0.84948850 173 171 159
0.64499611 0.13480659 0.85055441 161 154 148
0.64565611 0.13463765 0.84948850 152 144 138
0.64389682 0.13396615 0.84525168 150 142 137
0.64535779 0.13396615 0.84525168 161 153 148
0.64360875 0.13330130 0.84105688 166 162 157
0.64267033 0.13280699 0.83793801 166 165 161
0.64173889 0.13231632 0.83484215 162 161 157
0.48167449 0.09074396 0.57254380 175 176 167
0.48023048 0.09028643 0.56965703 176 177 168
0.48399776 0.09043843 0.57061601 179 179 169
0.48457611 0.09036236 0.57013613 179 179 169
0.48712274 0.09028643 0.56965703 176 174 160
0.48769751 0.09021062 0.56917870 174 173 159
-0.68789643 0.18102089 1.12981975 64 65 65
-0.68480229 0.18071969 1.12793982 65 66 66
-0.68513274 0.18132310 1.13170588 65 66 68
-0.68546540 0.18193054 1.13549721 67 68 70
-0.68008524 0.18102089 1.12981975 76 75 75
-0.67700410 0.18071969 1.12793982 80 79 79
-0.67505455 0.18071969 1.12793982 83 82 82
-0.67310500 0.18071969 1.12793982 83 82 82
-0.17510274 0.11174129 0.69741958 114 115 118
-0.17354022 0.11151184 0.69598752 112 113 115
-0.17233726 0.11151184 0.69598752 115 115 118
-0.17095879 0.11139747 0.69527370 117 118 122
-0.16958313 0.11128333 0.69456130 117 116 125
-0.16872840 0.11151184 0.69598752 127 127 132
-0.16718215 0.11128333 0.69456130 141 142 145
-0.16615190 0.11139747 0.69527370 159 160 162
-0.16478117 0.11128333 0.69456130 158 159 160
-0.16408503 0.11162645 0.69670284 149 149 150
-0.16304840 0.11174129 0.69741958 149 150 149
-0.16184297 0.11174129 0.69741958 148 149 147
-0.16063754 0.11174129 0.69741958 143 144 142
-0.15943211 0.11174129 0.69741958 131 132 130
-0.15806405 0.11162645 0.69670284 117 118 118
-0.15605792 0.11105576 0.69314092 113 114 114
0.26938188 0.18955067 1.18305731 177 176 174
0.27190122 0.18988205 1.18512559 178 177 175
0.27442938 0.19021459 1.18720114 180 179 177
0.27599800 0.18988205 1.18512559 182 181 179
0.27756116 0.18955067 1.18305731 182 179 176
0.28058532 0.19021459 1.18720114 187 183 180
0.28313315 0.19054830 1.18928397 187 183 181
0.28619292 0.19121924 1.19347155 188 184 183
0.28825575 0.19121924 1.19347155 183 179 178
0.28929991 0.19054830 1.18928397 168 164 165
0.29084522 0.19021459 1.18720114 140 135 140
0.29341108 0.19054830 1.18928397 128 123 130
0.63086057 0.13576567 0.84736478 181 178 171
0.63390994 0.13610592 0.84948850 174 171 164
0.63697463 0.13644791 0.85162294 163 160 152
0.63924968 0.13661954 0.85269415 154 151 143
0.64072353 0.13661954 0.85269415 155 152 144
0.64139050 0.13644791 0.85162294 163 160 151
0.64580643 0.13644791 0.85162294 161 158 150
0.64727837 0.13644791 0.85162294 154 151 143
0.64550656 0.13576567 0.84736478 145 141 137
0.64940643 0.13627671 0.85055441 154 150 147
0.64520973 0.13509022 0.84314907 166 163 160
0.64426309 0.13458802 0.84001470 169 169 165
0.48167449 0.09173356 0.57254380 177 178 169
0.47982728 0.09119440 0.56917870 178 179 170
-0.68546540 0.18389316 1.13549721 63 64 66
-0.68008524 0.18297368 1.12981975 70 70 71
-0.67393321 0.18236580 1.12606621 72 71 72
-0.16872840 0.11271480 0.69598752 129 131 133
-0.16615190 0.11259919 0.69527370 146 146 148
-0.16478117 0.11248382 0.69456130 151 151 153
-0.16408503 0.11283064 0.69670284 142 143 145
-0.16184297 0.11294672 0.69741958 139 140 140
-0.16080298 0.11306304 0.69813782 137 138 138
-0.15959629 0.11306304 0.69813782 127 131 130
-0.15838963 0.11306304 0.69813782 118 121 120
0.26985282 0.19193044 1.18512559 175 172 171
0.27237740 0.19226657 1.18720114 175 172 171
0.27491084 0.19260389 1.18928397 178 175 174
0.27648136 0.19226657 1.18720114 180 179 177
0.27853334 0.19226657 1.18720114 180 179 178
0.28927431 0.19396505 1.19768882 183 179 177
0.29031855 0.19328207 1.19347155 181 177 176
0.29186752 0.19294238 1.19137406 142 138 139
0.63007295 0.13705894 0.84630692 181 177 170
0.63390994 0.13757420 0.84948850 175 171 164
0.63617545 0.13774681 0.85055441 163 159 152
0.63844663 0.13791986 0.85162294 150 146 138
0.63911563 0.13774681 0.85055441 147 143 135
0.63978302 0.13757420 0.84948850 149 147 139
0.64565611 0.13757420 0.84948850 152 149 146
0.64389682 0.13688804 0.84525168 149 148 144
0.64360875 0.13620870 0.84105688 164 163 159
-0.68661547 0.18616761 1.13740242 57 58 60
-0.15976083 0.11438752 0.69885755 117 119 118
-0.15838963 0.11426972 0.69813782 117 118 117
0.28978631 0.19638212 1.19980860 174 171 165
0.29083058 0.19568941 1.19557643 181 177 174
0.29186752 0.19500157 1.19137406 159 156 154
0.62917930 0.13800484 0.84314907 178 174 166
0.63378978 0.13869487 0.84736478 173 170 162
0.64163584 0.13817671 0.84419906 155 156 155
0.64149725 0.13783340 0.84210169 158 159 157
-0.68892735 0.18876696 1.14123201 52 53 56
-0.16047244 0.11523903 0.69670284 118 117 119
-0.15943211 0.11535759 0.69741958 107 107 107
-0.15806405 0.11523903 0.69670284 100 99 100
0.28978631 0.19845589 1.19980860 172 167 162
0.29031855 0.19740771 1.19347155 170 164 163
0.29186752 0.19706076 1.19137406 168 162 162
-0.16271360 0.11632367 0.69598752 110 109 117
-0.16151065 0.11632367 0.69598752 113 112 118
-0.16030769 0.11632367 0.69598752 111 111 115
-0.15926825 0.11644322 0.69670284 107 107 108
-0.15806405 0.11644322 0.69670284 105 105 107
0.29028139 0.20232010 1.21052110 178 173 167
0.29030010 0.20088521 1.20193589 169 164 159
0.29083058 0.19982232 1.19557643 164 158 156
0.29186752 0.19911996 1.19137406 176 170 168
-0.16134499 0.11740609 0.69527370 101 100 111
-0.16014327 0.11740609 0.69527370 100 99 110
-0.15926825 0.11764742 0.69670284 100 99 104
-0.15790178 0.11752663 0.69598752 109 108 115
0.29183707 0.20699988 1.22584414 184 181 173
0.29342523 0.20662624 1.22363150 172 169 161
0.29394841 0.20551336 1.21704102 159 154 149
0.29341805 0.20368494 1.20621324 159 153 150
-0.40039212 0.18817541 1.08116722 139 141 140
-0.39788881 0.18787576 1.07944560 135 135 135
-0.40491268 0.19218978 1.09337389 132 132 133
0.24716507 0.31523192 1.79336464 184 178 176
0.25092858 0.31606808 1.79812157 180 174 171
0.25471210 0.31690869 1.80290389 178 173 168
0.25782830 0.31690869 1.80290389 183 175 169
-0.40491268 0.19407959 1.09337389 118 114 117
-0.40172699 0.19345553 1.08985829 122 116 120
0.24289341 0.32087824 1.80771160 165 163 163
0.24536359 0.32002485 1.80290389 170 164 166
0.24782068 0.31917599 1.79812157 173 165 161
0.25159594 0.32002485 1.80290389 175 167 162
0.25539136 0.32087824 1.80771160 177 169 163
0.25782830 0.32002485 1.80290389 177 169 163
0.26094446 0.32002485 1.80290389 175 168 164
0.26197046 0.31749168 1.78863287 173 165 163
0.44910556 0.14290896 0.80509722 177 176 174
0.45475441 0.14206535 0.80034459 184 176 170
-0.41010982 0.19756263 1.10226321 82 76 82
-0.40688145 0.19692224 1.09869015 115 109 115
-0.40498248 0.19692224 1.09869015 125 119 125
0.22474584 0.32486904 1.81254506 141 142 142
0.22787867 0.32486904 1.81254506 141 141 142
0.22978273 0.32314101 1.80290389 142 143 144
0.23228113 0.32228389 1.79812157 145 146 147
0.23476632 0.32143128 1.79336464 146 146 148
0.24041003 0.32486904 1.81254506 146 144 147
0.24289341 0.32400274 1.80771160 144 139 143
0.24536359 0.32314101 1.80290389 159 153 155
0.24782068 0.32228389 1.79812157 166 158 156
0.25226685 0.32400274 1.80771160 171 162 159
0.25471210 0.32314101 1.80290389 174 166 160
0.25782830 0.32314101 1.80290389 174 166 160
0.26025230 0.32228389 1.79812157 170 162 158
0.44963959 0.14447209 0.80605453 182 180 176
0.44889772 0.14378819 0.80223888 180 179 174
0.44975206 0.14361823 0.80129057 180 180 174
0.45060441 0.14344867 0.80034459 185 182 177
0.45305753 0.14378819 0.80223888 188 183 178
0.45390698 0.14361823 0.80129057 188 183 177
0.45529193 0.14361823 0.80129057 188 182 175
0.45452783 0.14294238 0.79751980 184 179 173
-0.43166831 0.20243020 1.11863339 112 113 117
