ply
format ascii 1.0
element vertex 1098
property float x
property float y
property float z
property uchar red
property uchar green
property uchar blue
end_header
0.11324384 -0.33900168 1.01992695 90 64 58
0.10961510 -0.32904619 1.02089960 88 61 58
0.11000034 -0.30982650 1.02255329 85 60 56
0.11014572 -0.28988456 1.02390637 84 60 59
0.11019232 -0.26965068 1.02434128 126 121 123
0.11004890 -0.24985090 1.02300893 131 127 132
0.10988994 -0.23006775 1.02153048 138 131 134
0.11110566 -0.20574445 1.01959526 143 139 142
0.10864307 -0.21515996 1.02040292 145 143 144
0.11044356 -0.19065497 1.01849202 146 141 144
0.11028280 -0.17016280 1.01700895 165 163 164
0.11012774 -0.14973662 1.01557840 169 165 166
0.10997656 -0.13024862 1.01418397 161 158 159
0.10982559 -0.10993909 1.01279115 173 169 170
0.10967245 -0.08968240 1.01137857 178 175 175
0.11001381 -0.07014891 1.00996474 180 176 176
0.11022970 -0.05020676 1.00848041 183 180 180
0.11005777 -0.03011400 1.00690774 177 174 175
0.10988906 -0.01008487 1.00536389 178 174 174
0.10971106 0.00988290 1.00373521 168 163 164
0.10986951 0.02956521 1.00205179 179 173 174
0.11060053 0.05676543 0.99962831 182 178 178
0.10993012 0.04651171 1.00056145 185 182 182
0.10998860 0.07022662 0.99838079 182 178 176
0.10985919 0.08997215 0.99650192 186 182 182
0.11041463 0.11034152 0.99444773 183 179 179
0.11036597 0.13007788 0.99246641 184 181 182
0.10981965 0.14949005 0.99056692 184 180 180
0.10975443 0.16948070 0.98850210 180 171 172
0.10951233 0.18956416 0.98632215 176 173 173
0.10996942 0.20943236 0.98415173 168 157 157
0.11017060 0.22964820 0.98191261 151 130 130
0.11088605 0.25394216 0.97921407 169 164 164
0.10973774 0.24339558 0.98045129 165 160 159
0.11020544 0.27061423 0.97735053 163 157 155
0.10996421 0.29024889 0.97521139 170 165 162
0.10972449 0.30979906 0.97308624 166 162 160
0.10944978 0.32999316 0.97064955 162 158 155
0.11012193 0.35000940 0.96794304 164 158 156
0.11049311 0.37971012 0.91066051 0 0 0
0.11046264 0.36970834 0.96484307 164 161 157
0.10991392 0.38992454 0.90457465 0 0 0
0.10968100 0.38250112 0.92324975 128 120 114
0.11014883 0.39073804 0.95438156 159 149 143
0.10974520 0.38474523 0.96186952 165 160 158
0.10873719 0.41380720 0.89863561 0 0 0
0.11184698 0.40409113 0.90100083 0 0 0
0.10956366 0.42996543 0.89594127 0 0 0
0.11022570 0.45013863 0.89271428 0 0 0
0.11043214 0.47023308 0.88921812 0 0 0
0.10980847 0.49010281 0.88557633 0 0 0
0.10954401 0.50114545 0.88344372 0 0 0
0.13010591 -0.66351877 0.98736062 0 0 0
0.13018075 -0.65023838 0.98792865 0 0 0
0.13031901 -0.63041597 0.98897709 0 0 0
0.13031691 -0.61015067 0.99032884 0 0 0
0.13006160 -0.58968937 0.99180523 0 0 0
0.13003544 -0.56966857 0.99333625 0 0 0
0.13012834 -0.54932046 0.99540191 17 14 13
0.12949188 -0.53131171 0.99883373 96 76 71
0.13145008 -0.52155919 1.00017609 97 74 65
0.13023664 -0.51029122 1.00147878 94 73 66
0.12993882 -0.49071506 1.00350680 94 71 64
0.12989508 -0.47064708 1.00553635 94 73 64
0.13017023 -0.45074397 1.00766670 96 72 63
0.13007209 -0.43056025 1.00986858 94 70 61
0.12985215 -0.41069306 1.01197651 92 69 62
0.13013021 -0.39053811 1.01414386 93 68 61
0.12977290 -0.37049422 1.01638067 92 67 60
0.12982500 -0.35000949 1.01862572 93 65 59
0.13078037 -0.33800928 1.01983412 91 64 61
0.12993993 -0.32783242 1.02078485 91 62 61
0.13029389 -0.30975124 1.02230471 89 63 58
0.13045612 -0.28979187 1.02357825 90 64 63
0.13049128 -0.26952338 1.02385696 129 124 126
0.13031713 -0.24972432 1.02249063 139 135 138
0.13013164 -0.22995611 1.02103502 145 141 143
0.13051150 -0.20829759 1.01940380 152 147 149
0.12776559 -0.21769952 1.02017579 147 144 146
0.12976454 -0.19059144 1.01815303 161 156 157
0.12957800 -0.17010927 1.01668925 174 172 172
0.13027462 -0.14969123 1.01527108 172 169 169
0.13010122 -0.13021448 1.01391862 170 166 166
0.12992840 -0.10991515 1.01257137 171 166 167
0.12975158 -0.08966587 1.01119277 172 169 169
0.13003504 -0.07055416 1.00983979 180 177 178
0.13025597 -0.05019935 1.00833170 180 175 175
0.13005068 -0.03010910 1.00674266 175 170 170
0.12984797 -0.01008296 1.00517405 178 171 171
0.12996884 0.01007516 1.00353313 174 169 169
0.13028456 0.02977729 1.00185163 179 175 175
0.13032027 0.05581236 0.99952604 176 173 173
0.12979348 0.04554359 1.00046767 186 181 180
0.12980664 0.07021225 0.99817700 190 185 185
0.12962820 0.08981620 0.99629612 187 182 181
0.13015302 0.11031770 0.99423309 182 178 178
0.12988439 0.13066883 0.99218091 183 178 178
0.13041148 0.15015905 0.99022068 183 179 179
0.13021749 0.16942944 0.98820347 181 179 179
0.12992788 0.18950345 0.98600602 176 170 170
0.12963956 0.20948835 0.98381824 171 161 161
0.12961774 0.22918874 0.98163049 166 157 155
0.13061457 0.25269416 0.97904986 173 168 167
0.12897237 0.24197344 0.98026431 170 166 164
0.13043822 0.27053440 0.97706246 171 167 165
0.13014846 0.29015385 0.97489218 171 166 163
0.12986006 0.30968635 0.97273228 162 155 154
0.12953607 0.32987617 0.97030538 159 155 153
0.13000535 0.34984814 0.96756242 158 154 150
0.12802707 0.37990855 0.91207115 0 0 0
0.13041524 0.36954126 0.96440716 148 141 138
0.13006291 0.38956079 0.90613497 0 0 0
0.13011567 0.38157137 0.92100559 90 84 81
0.13005001 0.39108855 0.95490316 160 156 150
0.12965255 0.38472973 0.96148587 157 154 154
0.12846388 0.41676069 0.89938307 0 0 0
0.13087147 0.40740788 0.90159812 0 0 0
0.12986189 0.42986480 0.89722080 0 0 0
0.12974984 0.44973041 0.89385928 0 0 0
0.13030674 0.46976034 0.89029983 0 0 0
0.12993622 0.48998383 0.88654691 0 0 0
0.12951308 0.50160596 0.88425554 0 0 0
0.15048204 -0.66306634 0.98668737 0 0 0
0.15057489 -0.64982173 0.98729570 0 0 0
0.14988945 -0.63004883 0.98840124 0 0 0
0.15009393 -0.61037912 0.98974929 0 0 0
0.14942331 -0.58999065 0.99130955 0 0 0
0.14984108 -0.56960784 0.99296444 0 0 0
0.15009271 -0.54934492 0.99540702 30 24 23
0.14962066 -0.53190257 0.99897550 93 74 66
0.15091947 -0.52225286 1.00025402 93 73 64
0.15015707 -0.51034011 1.00157443 94 73 65
0.14986105 -0.49034315 1.00356864 97 74 68
0.14988074 -0.47064357 1.00552872 96 73 65
0.15019151 -0.45072074 1.00761447 97 72 63
0.14986039 -0.43088088 1.00968814 93 71 63
0.14993527 -0.41060657 1.01176315 94 70 62
0.15025135 -0.39044285 1.01389641 96 70 60
0.14991346 -0.37006904 1.01615700 94 69 59
0.15003173 -0.34991596 1.01835354 93 67 59
0.15094740 -0.33658917 1.01969849 94 67 62
0.14919933 -0.32675501 1.02064234 93 67 61
0.14986449 -0.30993124 1.02205320 94 68 60
0.14988448 -0.28972892 1.02335555 93 68 64
0.14987862 -0.26938217 1.02331951 138 133 135
0.14968436 -0.24960255 1.02199249 142 138 139
0.15493706 -0.22226415 1.01984599 157 151 152
0.14899211 -0.23093838 1.02064047 145 141 142
0.15013973 -0.21014226 1.01908903 160 154 155
0.14993960 -0.19051225 1.01773033 171 167 168
0.14973121 -0.17004657 1.01631504 175 171 173
0.15040665 -0.14964300 1.01494461 175 170 170
0.15021733 -0.13018200 1.01366637 174 170 171
0.15002573 -0.10989353 1.01237275 173 169 169
0.14982570 -0.08965074 1.01102264 176 172 173
0.14979452 -0.07020646 1.00966396 182 177 178
0.15027597 -0.05019185 1.00818177 186 183 183
0.15004027 -0.03010485 1.00660029 182 178 178
0.14980329 -0.01008139 1.00501052 180 175 175
0.14985977 0.00968985 1.00339082 182 178 179
0.15017292 0.02977227 1.00168276 186 180 179
0.14994904 0.05482339 0.99943109 188 184 184
0.14982375 0.04452606 1.00038306 192 187 186
0.15025333 0.07035602 0.99793967 188 185 184
0.15019075 0.08986118 0.99606071 189 185 185
0.14988177 0.11029311 0.99401163 186 182 182
0.14956993 0.13063753 0.99194395 180 175 175
0.15004042 0.14998234 0.98994917 182 177 176
0.15018262 0.16958991 0.98786765 185 182 181
0.15032611 0.18943712 0.98566126 178 174 173
0.14998705 0.20940742 0.98343830 171 167 166
0.15876895 0.23999943 0.97993517 163 155 158
0.14965226 0.22929216 0.98124335 167 164 163
0.14993836 0.25064711 0.97894760 168 163 160
0.14563669 0.24056506 0.98011654 184 174 171
0.15045199 0.27059960 0.97671423 168 162 160
0.15031619 0.29005261 0.97455204 163 158 157
0.14998114 0.30957416 0.97237993 165 160 158
0.14960353 0.32974918 0.96993216 172 169 167
0.15020902 0.35022333 0.96702098 165 163 162
0.14087987 0.37998626 0.91336909 0 0 0
0.15014712 0.36985961 0.96382676 161 156 155
0.15001320 0.38954900 0.90766725 0 0 0
0.15016176 0.38191750 0.92184105 66 65 63
0.14976477 0.39110138 0.95580408 166 161 157
0.14989640 0.38404595 0.96106238 165 159 158
0.14371478 0.41919178 0.89981748 0 0 0
0.15022208 0.40993833 0.90223326 0 0 0
0.15002261 0.43054527 0.89816778 0 0 0
0.15751064 0.42116068 0.90014748 0 0 0
0.14964608 0.45023595 0.89467100 0 0 0
0.15037433 0.47017292 0.89105017 0 0 0
0.14973537 0.49000853 0.88730382 0 0 0
0.15049836 0.50167091 0.88502281 0 0 0
0.16948374 -0.66281772 0.98603915 0 0 0
0.17023578 -0.64962901 0.98662895 0 0 0
0.16942715 -0.62964601 0.98776935 0 0 0
0.16966348 -0.61000748 0.98914678 0 0 0
0.16992976 -0.59041624 0.99069854 0 0 0
0.17024033 -0.57005035 0.99250820 0 0 0
0.17024281 -0.54962759 0.99550154 40 33 31
0.16943176 -0.53273634 0.99910227 92 76 66
0.17059473 -0.52317013 1.00032910 92 73 64
0.17008061 -0.51038634 1.00166483 97 73 64
0.17012795 -0.49073087 1.00355061 100 75 67
0.16986635 -0.47064041 1.00552176 99 74 67
0.17020546 -0.45068298 1.00752972 95 72 61
0.16987453 -0.43047144 1.00952838 92 71 62
0.16999990 -0.41049561 1.01148940 95 71 62
0.16999838 -0.39052795 1.01354454 93 69 61
0.16984350 -0.37010081 1.01578273 94 69 59
0.17021676 -0.34979951 1.01801486 93 69 60
0.17090638 -0.33483003 1.01954624 92 69 59
0.16940341 -0.32547261 1.02045257 94 69 60
0.16995309 -0.31045600 1.02171829 95 69 61
0.16999978 -0.29029500 1.02306274 109 91 89
0.17026793 -0.26986949 1.02259887 148 144 144
0.16988761 -0.24944056 1.02133008 149 144 144
0.17188451 -0.22582308 1.01958745 160 157 156
0.16784392 -0.23479202 1.02037305 150 146 147
0.17030237 -0.21002676 1.01852929 165 162 163
0.17007927 -0.19041198 1.01719484 173 169 171
0.16985022 -0.16996437 1.01582440 181 176 177
0.16963918 -0.14958635 1.01456150 176 173 173
0.17023953 -0.13007491 1.01335415 177 174 174
0.17010714 -0.10986692 1.01212809 175 172 173
0.16988346 -0.08963066 1.01079679 181 178 179
0.16980903 -0.07044174 1.00947560 185 181 182
0.17028433 -0.05018263 1.00799782 186 182 181
0.17002257 -0.03010029 1.00644806 185 181 181
0.16975137 -0.01007973 1.00484289 185 181 182
0.17033780 0.00987742 1.00318267 187 183 182
0.17004900 0.02976629 1.00148187 183 177 177
0.16998631 0.05350176 0.99934911 188 185 184
0.16914304 0.04326355 1.00028955 193 188 187
0.17002926 0.07001604 0.99776245 190 186 187
0.16995124 0.08984107 0.99583762 189 186 186
0.17032022 0.11038487 0.99374847 182 178 179
0.17009585 0.13060063 0.99166421 183 176 175
0.16974935 0.15000628 0.98964419 189 185 183
0.16973820 0.16911301 0.98761154 183 177 176
0.17015897 0.18957120 0.98531698 181 176 175
0.17032632 0.20933572 0.98310173 180 174 172
0.17166168 0.23891045 0.97981091 160 152 153
0.16961102 0.22842033 0.98097322 173 166 166
0.16954151 0.25065593 0.97857254 157 151 151
0.17006942 0.27036216 0.97633177 165 159 158
0.17045740 0.28993038 0.97414137 167 163 163
0.17021245 0.31006155 0.97189524 169 165 162
0.16947390 0.33018479 0.96940188 166 160 158
0.17008219 0.35028698 0.96649838 166 163 162
0.17034342 0.37052413 0.96313916 164 160 158
0.17001886 0.38922529 0.90904183 0 0 0
0.17027020 0.38416045 0.92725489 62 60 60
0.17022486 0.39034349 0.95691156 167 162 161
0.16870367 0.38338008 0.96058753 170 165 160
0.16970196 0.40972433 0.90327309 0 0 0
0.16972675 0.43247845 0.89864850 0 0 0
0.17185123 0.42256489 0.90048863 0 0 0
0.17000497 0.45021965 0.89538434 0 0 0
0.17016871 0.47039730 0.89162270 0 0 0
0.16994881 0.48985750 0.88790669 0 0 0
0.16950153 0.50158593 0.88556978 0 0 0
0.18943536 -0.66297068 0.98527788 0 0 0
0.18937099 -0.65030882 0.98590193 0 0 0
0.18988979 -0.62982097 0.98702515 0 0 0
0.19011325 -0.60966462 0.98846689 0 0 0
0.19035560 -0.59003787 0.99006387 0 0 0
0.19015034 -0.56996707 0.99199854 0 0 0
0.19008901 -0.54943694 0.99599366 58 46 43
0.18990400 -0.53407503 0.99928043 94 73 65
0.19015347 -0.52425332 1.00042059 94 73 64
0.19001197 -0.51044419 1.00177800 96 74 64
0.19005514 -0.49036306 1.00362121 96 75 67
0.18985115 -0.47063628 1.00551274 97 74 62
0.19021554 -0.45064459 1.00744355 98 72 63
0.18977548 -0.43062054 1.00931689 96 72 61
0.19004949 -0.41037598 1.01119422 96 71 59
0.19004697 -0.38995996 1.01322315 96 70 63
0.18995732 -0.36995197 1.01537416 95 70 59
0.18995675 -0.34989313 1.01762005 96 69 60
0.19025141 -0.33300307 1.01938306 96 69 61
0.18907007 -0.32376531 1.02030302 96 70 62
0.19021870 -0.31038560 1.02148747 96 71 64
0.19041679 -0.29038787 1.02255457 130 120 121
0.19007115 -0.27025267 1.02181930 152 147 147
0.19626408 -0.24150247 1.01987181 158 152 153
0.18974506 -0.25038676 1.02066041 152 145 145
0.19008533 -0.22918341 1.01922408 162 159 160
0.18325740 -0.23820229 1.02008221 158 152 153
0.18981125 -0.20973325 1.01793168 170 166 167
0.19018749 -0.19030166 1.01660531 168 164 165
0.18994288 -0.16987596 1.01529702 176 171 172
0.18972195 -0.14952043 1.01411526 179 176 177
0.19030366 -0.13016857 1.01300467 179 174 175
0.19017096 -0.10983548 1.01183973 179 175 175
0.18992728 -0.08960813 1.01054299 189 185 185
0.18976606 -0.07023233 1.00922903 185 181 181
0.19027887 -0.05017176 1.00778012 187 182 183
0.18999279 -0.03009474 1.00626455 188 184 183
0.18968936 -0.01007789 1.00465727 183 179 179
0.19024173 0.00987553 1.00299172 189 186 186
0.18991480 0.02975987 1.00126813 185 180 181
0.19050790 0.05241974 0.99921458 191 186 185
0.18887429 0.04214194 1.00015643 187 182 180
0.19006679 0.07016628 0.99752511 189 184 183
0.18969802 0.08981862 0.99558995 192 185 184
0.19000286 0.11010712 0.99349160 185 181 181
0.19019144 0.13078122 0.99133880 182 178 177
0.19021698 0.14996009 0.98933943 185 180 179
0.18981982 0.16927001 0.98727399 186 180 180
0.18965841 0.18912388 0.98504394 183 177 177
0.19037818 0.20954838 0.98273355 181 175 174
0.19106262 0.23719386 0.97962783 171 166 166
0.18970985 0.22669403 0.98079470 177 169 168
0.18976090 0.25055398 0.97817474 168 163 161
0.18959535 0.27003513 0.97595581 168 164 163
0.19057617 0.28979962 0.97370218 153 149 149
0.19013000 0.31010813 0.97142268 166 162 160
0.18963524 0.33023452 0.96889490 162 158 154
0.19016439 0.35010715 0.96603171 168 164 162
0.19008099 0.37053943 0.96267019 159 153 152
0.18975368 0.38966828 0.90969039 0 0 0
0.19084247 0.38539030 0.92884965 47 46 46
0.19006860 0.38903548 0.95743748 164 158 156
0.18853514 0.38194176 0.96024355 167 165 163
0.19006743 0.40983397 0.90403858 0 0 0
0.18966481 0.43405286 0.89897206 0 0 0
0.19014289 0.42404965 0.90082007 0 0 0
0.18990214 0.44982203 0.89596267 0 0 0
0.19017171 0.47020507 0.89208929 0 0 0
0.18997557 0.49005431 0.88826342 0 0 0
0.18947281 0.50178004 0.88591248 0 0 0
0.20969686 -0.66242131 0.98446142 0 0 0
0.20983274 -0.65007827 0.98509872 0 0 0
0.21007056 -0.63035985 0.98621507 0 0 0
0.21038546 -0.60996391 0.98769308 0 0 0
0.21019124 -0.58983047 0.98937850 0 0 0
0.20973129 -0.57007590 0.99140196 0 0 0
0.20992512 -0.55083904 0.99612482 65 51 49
0.20966793 -0.53467182 0.99941202 94 73 66
0.21009802 -0.52501222 1.00045409 94 73 69
0.20993013 -0.51045959 1.00180802 95 76 68
0.21023428 -0.49061306 1.00357844 96 74 65
0.20982587 -0.47061061 1.00545761 98 72 65
0.21020755 -0.45057496 1.00728749 98 71 62
0.20977307 -0.43037388 1.00906429 96 71 60
0.21006337 -0.41021006 1.01078491 96 70 62
0.21003319 -0.39019372 1.01265585 96 71 62
0.21001066 -0.36972564 1.01475269 95 71 60
0.21002459 -0.34923422 1.01703781 97 70 63
0.21047146 -0.33050328 1.01905296 99 71 63
0.20407274 -0.32202618 1.02013452 97 70 60
0.21813937 -0.31961777 1.01995107 101 73 64
0.20960998 -0.31024200 1.02114784 99 74 69
0.20972785 -0.29020796 1.02191876 149 144 146
0.20989654 -0.27036282 1.02109182 156 153 154
0.21222397 -0.24621303 1.01959627 160 158 158
0.20744108 -0.25509840 1.02035349 153 149 149
0.20993429 -0.22941575 1.01863657 165 163 164
0.20989309 -0.20994609 1.01734572 169 165 166
0.21027620 -0.19019467 1.01603429 170 166 167
0.21002674 -0.16979744 1.01482874 176 174 174
0.20979509 -0.14946050 1.01370893 179 176 176
0.20990804 -0.12985265 1.01263066 180 175 177
0.21022149 -0.10980323 1.01154394 181 179 179
0.20997069 -0.08958967 1.01033615 187 184 184
0.20977327 -0.07035680 1.00903382 186 183 183
0.21026113 -0.05016001 1.00754377 190 186 186
0.20994983 -0.03008834 1.00605215 189 186 185
0.20999662 -0.00985410 1.00445521 190 186 185
0.21014058 0.00987378 1.00281326 192 188 189
0.20977799 0.02975435 1.00108303 193 188 188
0.21023425 0.05091349 0.99913954 195 189 188
0.20697457 0.04096330 1.00007735 197 193 191
0.20992936 0.07022019 0.99728834 193 188 187
0.21029057 0.08979420 0.99532010 193 188 188
0.20983930 0.11020122 0.99318444 182 177 177
0.20980326 0.13029970 0.99107621 188 183 182
0.21038405 0.15048399 0.98898127 187 184 184
0.21000885 0.16954880 0.98693067 183 178 177
0.20975279 0.18925602 0.98471933 182 178 178
0.20982952 0.20987048 0.98237935 178 172 172
0.21088433 0.23565991 0.97945226 178 174 172
0.21001525 0.22587203 0.98055494 179 176 174
0.20996912 0.25045826 0.97780128 170 166 165
0.20948441 0.27011389 0.97554415 166 162 160
0.21041919 0.28987073 0.97329514 165 160 158
0.21018987 0.30997755 0.97101380 167 163 160
0.20964567 0.33009979 0.96849956 177 171 167
0.21018363 0.34998998 0.96564954 162 159 156
0.20997524 0.37041152 0.96233791 168 163 159
0.20999459 0.39045167 0.90986583 0 0 0
0.20964229 0.38448499 0.92418262 0 0 0
0.21011501 0.38847896 0.95709470 157 154 151
0.20284162 0.38115852 0.96006206 156 151 148
0.21004644 0.40998738 0.90454987 0 0 0
0.20928753 0.43511810 0.89917331 0 0 0
0.21012097 0.42525459 0.90104676 0 0 0
0.21018831 0.44968066 0.89633119 0 0 0
0.20993416 0.46995671 0.89240449 0 0 0
0.20999124 0.49018757 0.88850482 0 0 0
0.20944407 0.50193704 0.88618967 0 0 0
0.22941939 -0.66195649 0.98362208 0 0 0
0.23018224 -0.64966861 0.98424861 0 0 0
0.23032982 -0.62982466 0.98537777 0 0 0
0.23033214 -0.61049953 0.98683129 0 0 0
0.22969776 -0.58982405 0.98865219 0 0 0
0.22988192 -0.56991688 0.99078567 0 0 0
0.22992008 -0.55082018 0.99683243 80 64 60
0.23055166 -0.53464369 0.99946366 95 75 68
0.22991299 -0.52482781 1.00037478 97 75 66
0.22994730 -0.51047780 1.00158993 95 73 65
0.23011464 -0.49035630 1.00333653 95 72 64
0.22974464 -0.47047582 1.00516968 97 72 64
0.23015488 -0.45043060 1.00696425 95 71 61
0.23002997 -0.43044976 1.00856252 99 73 62
0.23001427 -0.40996047 1.01016915 97 72 62
0.22995691 -0.38945539 1.01192347 99 70 63
0.22986296 -0.36955010 1.01389766 96 70 60
0.23022745 -0.35035668 1.01601162 97 71 63
0.23987236 -0.32697890 0.96618787 107 106 118
0.23013699 -0.33058133 1.01843756 98 71 63
0.23979924 -0.30944344 0.97350643 114 115 126
0.23957175 -0.30436679 0.98485629 118 120 130
0.23212872 -0.31834055 1.01978857 98 71 67
0.22955412 -0.30834951 1.02088664 108 90 88
0.23918735 -0.28930207 0.97552477 125 126 140
0.23863046 -0.29031451 0.98888869 130 130 144
0.23960351 -0.28558546 1.01202673 149 149 154
0.22972071 -0.29011676 1.02116527 151 146 148
0.23875077 -0.27002119 0.97457122 135 137 151
0.23743494 -0.26888766 0.98832507 140 142 153
0.23484178 -0.26783767 1.01732288 147 144 146
0.22645985 -0.27341476 1.02041502 148 146 148
0.23872331 -0.24974173 0.97518347 137 141 153
0.23631561 -0.25030562 0.98572655 143 146 156
0.23043983 -0.25024657 1.01733172 157 155 157
0.23779604 -0.22956959 0.97489313 140 143 158
0.23525720 -0.23004955 0.98696618 141 143 157
0.23024287 -0.23013693 1.01609501 158 155 157
0.23683491 -0.20981607 0.97339360 144 146 161
0.23427943 -0.21179399 0.98620801 140 140 153
0.23009078 -0.20950864 1.01523897 163 161 162
0.23661357 -0.18985057 0.97295131 144 146 162
0.23386133 -0.18981535 0.98232054 136 137 150
0.23009286 -0.19006533 1.01409323 169 167 167
0.23696446 -0.17018318 0.97392950 140 140 156
0.23515953 -0.16895389 0.98726518 138 137 147
0.22975718 -0.17027302 1.01337278 170 166 168
0.23747291 -0.14994602 0.97286022 133 134 154
0.23648231 -0.15176689 0.98785972 142 141 153
0.23032262 -0.14998097 1.01264319 175 172 172
0.23763230 -0.13094774 0.97154979 134 136 151
0.23823701 -0.13055238 0.98993120 147 147 155
0.22997101 -0.13016642 1.01207017 180 176 176
0.23857505 -0.11343529 0.97206123 135 136 147
0.23936791 -0.11446693 0.98401833 160 160 160
0.23022516 -0.10975435 1.01109588 182 175 175
0.22999165 -0.08956570 1.01006857 189 183 183
0.22979068 -0.07020307 1.00880811 193 188 186
0.23023347 -0.05014830 1.00730618 189 185 186
0.22988771 -0.03008055 1.00579356 189 184 184
0.22988345 -0.01029250 1.00427295 189 184 184
0.23002648 0.00987179 1.00260918 193 189 189
0.23546340 0.03922935 0.99993990 195 188 182
0.22982953 0.02955237 1.00089394 191 187 187
0.23005457 0.05041111 0.99896898 195 189 187
0.22968794 0.07006798 0.99706320 193 189 189
0.23001683 0.08977171 0.99507088 192 188 187
0.23030677 0.11023556 0.99289929 178 175 174
0.22987329 0.13047975 0.99074647 185 181 180
0.22972823 0.15049656 0.98866500 180 175 174
0.23023767 0.17020219 0.98655986 182 177 176
0.23029406 0.18955900 0.98436703 181 177 176
0.22940469 0.21022052 0.98199847 185 179 176
0.23082045 0.23408092 0.97925801 175 170 169
0.22938663 0.22423382 0.98039187 180 171 169
0.23016401 0.25036496 0.97743715 174 168 166
0.22962483 0.27000402 0.97514767 158 154 155
0.23008673 0.28959535 0.97293680 173 168 165
0.23024415 0.30986231 0.97065267 174 167 164
0.22965482 0.32998693 0.96816807 169 165 162
0.23019977 0.34984497 0.96533729 171 165 160
0.22987177 0.37030952 0.96207199 167 162 160
0.23004721 0.39056685 0.91033182 0 0 0
0.22940020 0.38547734 0.92656794 0 0 0
0.23018530 0.38828000 0.95746458 159 153 151
0.22994589 0.40997549 0.90490255 0 0 0
0.22936987 0.43613856 0.89924014 0 0 0
0.23026452 0.42619601 0.90116052 0 0 0
0.23014934 0.44973463 0.89650788 0 0 0
0.22991656 0.47001839 0.89253680 0 0 0
0.22998971 0.49026107 0.88863788 0 0 0
0.22940341 0.50204029 0.88637195 0 0 0
0.25005775 -0.66201083 0.98258929 0 0 0
0.25004250 -0.65026009 0.98325178 0 0 0
0.25064577 -0.62986979 0.98443533 0 0 0
0.24987213 -0.60974977 0.98607595 0 0 0
0.24950715 -0.59003474 0.98793928 0 0 0
0.25065652 -0.56954092 0.99073699 9 7 7
0.24984800 -0.55069545 0.99751802 91 74 65
0.25061363 -0.53256381 0.99945175 97 73 67
0.24854513 -0.52297343 1.00021660 96 73 67
0.24971008 -0.50997370 1.00109194 94 72 65
0.25626200 -0.48600423 0.96858156 124 113 119
0.25830197 -0.48619166 0.99010218 101 86 85
0.24984626 -0.49006153 1.00244920 95 72 64
0.25514763 -0.46621509 0.93851107 62 63 77
0.25108836 -0.46883105 0.94758604 113 111 116
0.25469979 -0.47036446 0.97435582 102 95 97
0.25611516 -0.47120914 0.98540707 93 82 82
0.24955030 -0.47020977 1.00411350 95 71 62
0.25701370 -0.45727520 0.93938190 34 34 45
0.25270939 -0.44847173 0.94233592 59 58 65
0.25173079 -0.45008444 0.97199667 89 75 74
0.25535969 -0.44495598 0.99665564 86 73 72
0.24898983 -0.45043713 1.00575645 94 71 63
0.25243066 -0.42992493 0.94412068 48 44 51
0.24948365 -0.43097535 0.96719439 84 72 71
0.25409452 -0.43095264 0.99507608 90 71 71
0.24768342 -0.42976421 1.00747746 96 71 63
0.25188888 -0.41013297 0.94688327 41 38 44
0.24711081 -0.40695810 0.96771677 86 71 72
0.25051705 -0.40994150 0.98775163 90 74 75
0.24672798 -0.40993500 1.00889440 97 72 66
0.25096270 -0.39041101 0.94922056 40 37 45
0.24547597 -0.38550898 0.97081923 89 82 83
0.24862669 -0.39589718 0.98432099 92 82 81
0.24628117 -0.39004834 1.01004183 97 75 70
0.25062767 -0.37023880 0.95171136 41 39 49
0.24385059 -0.36925091 0.96972737 95 92 95
0.24769652 -0.36948429 0.99547272 96 92 95
0.24542489 -0.37055726 1.01185589 90 72 68
0.24984342 -0.35006199 0.95437564 45 44 55
0.24120986 -0.34916950 0.96577469 102 102 106
0.24468925 -0.34969212 0.99117676 100 97 101
0.24416615 -0.35023715 1.01384697 90 73 72
0.25017970 -0.33006442 0.95659290 41 40 54
0.24061295 -0.33003717 0.96597269 104 105 114
0.24221638 -0.32946857 0.98871899 105 103 115
0.24300226 -0.33062087 1.01504842 96 81 83
0.25113884 -0.31037655 0.95840332 35 35 54
0.24166080 -0.30961142 0.96355718 102 105 120
0.24086335 -0.31247859 0.98869495 115 115 124
0.24214474 -0.31085172 1.01403035 109 103 108
0.24110021 -0.30909553 1.02013330 102 93 98
0.24850856 -0.29671218 0.95960791 40 37 60
0.24866028 -0.28918568 0.96267427 62 62 80
0.24092195 -0.29061697 1.01586893 128 128 139
0.24955840 -0.27003604 0.96369474 56 57 78
0.24008506 -0.27970142 1.01583803 131 125 134
0.24975133 -0.24973271 0.96501841 60 60 82
0.24992141 -0.22988343 0.96541954 59 58 79
0.24990935 -0.20996249 0.96561897 59 60 79
0.24997979 -0.18998748 0.96589053 62 61 83
0.25007060 -0.17001725 0.96624867 67 67 91
0.25011169 -0.15000186 0.96641302 84 87 112
0.24015268 -0.14175253 1.00874694 160 159 160
0.24989774 -0.13015802 0.96660138 104 109 134
0.24011822 -0.12080245 0.99416667 150 149 154
0.24087933 -0.12801227 1.00951455 161 159 161
0.24947432 -0.10997796 0.96745876 117 119 140
0.24236616 -0.10767004 0.99089266 154 154 157
0.24293177 -0.10832119 1.00905366 178 176 176
0.25162602 -0.09736513 0.97019657 116 113 133
0.24829583 -0.09733152 0.98766570 149 146 153
0.24972643 -0.08935554 1.00923518 186 181 180
0.24974556 -0.07031694 1.00846792 192 188 187
0.25019767 -0.05013663 1.00707291 187 184 185
0.24982218 -0.03007367 1.00556168 190 186 185
0.25023637 -0.01000453 1.00400560 190 187 185
0.24989692 0.00986953 1.00237606 196 191 189
0.25054093 0.03840252 0.99984204 192 190 187
0.24976682 0.02792144 1.00081646 192 189 189
0.25000741 0.05052815 0.99873700 194 190 189
0.25023465 0.07011658 0.99681953 192 188 187
0.24973564 0.08975013 0.99483187 188 186 187
0.24997108 0.11007201 0.99266086 178 175 175
0.25034637 0.13044010 0.99044554 187 179 176
0.24981630 0.15066346 0.98834857 190 183 181
0.24981818 0.17050644 0.98622472 181 172 169
0.25033088 0.19072500 0.98391179 180 174 173
0.24980276 0.21070885 0.98158307 171 168 168
0.25023234 0.23248473 0.97909989 177 173 173
0.24843660 0.22272037 0.98023138 182 180 178
0.25035041 0.25027829 0.97709884 173 171 170
0.24976025 0.26990653 0.97479546 173 168 168
0.24996191 0.28951816 0.97257935 177 173 173
0.25022830 0.30981766 0.97030925 170 164 160
0.24965258 0.32987732 0.96784632 170 166 163
0.25027634 0.34973241 0.96505571 170 165 163
0.25008475 0.37942440 0.95987300 164 161 159
0.24972331 0.36949481 0.96191872 167 162 160
0.24982385 0.39064093 0.91058603 0 0 0
0.25075907 0.38654823 0.92859501 27 26 26
0.25026295 0.38825270 0.95742968 166 162 160
0.24999572 0.41006190 0.90509058 0 0 0
0.24985269 0.43631654 0.89931997 0 0 0
0.25031195 0.42640661 0.90126332 0 0 0
0.25008563 0.44972969 0.89656706 0 0 0
0.24992480 0.47004864 0.89254900 0 0 0
0.24996482 0.49027719 0.88866690 0 0 0
0.24959652 0.50209703 0.88640453 0 0 0
0.27015112 -0.66131025 0.98154947 0 0 0
0.27032294 -0.64984550 0.98217353 0 0 0
0.27058113 -0.63029270 0.98334886 0 0 0
0.26955151 -0.60995179 0.98511453 0 0 0
0.27000927 -0.59005520 0.98723108 0 0 0
0.27013185 -0.56961030 0.99133018 27 21 19
0.26993497 -0.54958481 0.99779528 95 72 65
0.27013153 -0.53028475 0.99925279 95 71 64
0.26344161 -0.52110609 1.00008053 91 73 62
0.27467850 -0.51126385 0.99893934 100 83 85
0.26703090 -0.51286914 1.00043321 94 75 72
0.27366518 -0.48447689 0.95608095 83 84 87
0.26521732 -0.48906555 0.96596444 104 103 106
0.26242872 -0.49659143 0.99413793 103 93 96
0.26064555 -0.49764461 1.00040615 107 76 79
0.27021174 -0.46642913 0.93661352 34 32 39
0.26378178 -0.47673321 0.94361451 91 93 101
0.27159204 -0.45266711 0.93890886 25 23 30
0.26645330 -0.44477027 0.94050479 25 23 31
0.26988870 -0.43038704 0.94213957 25 21 28
0.26996677 -0.41057116 0.94525730 21 19 24
0.26990444 -0.39068951 0.94865182 22 20 26
0.27008079 -0.37050635 0.95178431 19 17 23
0.26975715 -0.35033369 0.95474048 18 16 21
0.27014064 -0.32981384 0.95744658 19 18 24
0.26859779 -0.31323905 0.95931016 22 20 30
0.27219485 -0.30499808 0.96052779 23 22 31
0.26985659 -0.28991534 0.96212209 26 25 35
0.27026341 -0.26979579 0.96423705 27 27 38
0.26994620 -0.25001937 0.96562848 31 30 46
0.27013617 -0.23015425 0.96630788 28 26 37
0.27017624 -0.21014388 0.96645213 31 29 42
0.27014376 -0.19007672 0.96633802 36 35 49
0.27002865 -0.16996237 0.96592938 46 45 64
0.27044447 -0.14965116 0.96537189 67 67 92
0.26938762 -0.13141736 0.96565332 89 88 114
0.27626402 -0.12573633 0.99096424 144 143 148
0.26424301 -0.10945060 0.96768577 99 102 126
0.27484975 -0.10953796 0.98540025 144 145 159
0.26498917 -0.09705325 0.97114093 107 105 130
0.27522807 -0.09780677 0.98758367 147 148 160
0.26988872 -0.08854663 1.00845716 187 184 183
0.27001832 -0.07001327 1.00804192 194 189 189
0.27014552 -0.05012370 1.00681436 193 188 187
0.26973672 -0.03006558 1.00529075 191 187 187
0.27011234 -0.01014050 1.00374945 196 190 189
0.26999667 0.01003436 1.00209525 189 184 182
0.27071422 0.03707198 0.99974393 187 184 182
0.26993553 0.02681376 1.00067993 187 181 181
0.26978774 0.05026845 0.99855025 185 179 178
0.26998937 0.07010131 0.99660204 184 179 179
0.27024027 0.08979534 0.99459974 189 186 186
0.26971527 0.11011677 0.99242455 179 174 174
0.27011940 0.13053522 0.99019917 187 182 181
0.27024195 0.15062227 0.98807858 187 179 179
0.26965332 0.17074308 0.98592653 181 176 175
0.27023826 0.19095736 0.98359703 179 176 175
0.27007653 0.21064222 0.98127284 179 176 176
0.26978440 0.23088323 0.97897232 176 170 169
0.26636259 0.22140276 0.98008769 179 173 172
0.27039751 0.25031576 0.97678067 177 171 170
0.26989516 0.26982318 0.97449429 167 165 164
0.26983377 0.29016450 0.97218041 172 168 166
0.27029760 0.31045922 0.96989468 162 155 153
0.26963965 0.32977079 0.96753366 177 173 170
0.27028243 0.34967430 0.96477792 167 163 160
0.27066902 0.37925578 0.95974627 158 157 155
0.26967244 0.36933136 0.96168646 171 166 162
0.26992611 0.39141376 0.91033396 0 0 0
0.26874606 0.38892993 0.93210659 23 22 21
0.27030504 0.38859776 0.95708246 164 161 159
0.27002267 0.41035038 0.90510961 0 0 0
0.27004721 0.43629642 0.89927851 0 0 0
0.27021741 0.42643173 0.90125695 0 0 0
0.27004442 0.44966931 0.89650696 0 0 0
0.26994907 0.46999531 0.89244778 0 0 0
0.26990169 0.49022136 0.88856560 0 0 0
0.26998704 0.50201417 0.88632586 0 0 0
0.29763469 -0.66102356 0.97986702 0 0 0
0.28698786 -0.66130003 0.98052818 0 0 0
0.29877863 -0.65879792 0.97991542 0 0 0
0.29004021 -0.64990850 0.98097045 0 0 0
0.29067376 -0.62982004 0.98216435 0 0 0
0.28933712 -0.60990810 0.98395683 0 0 0
0.29037530 -0.59005067 0.98624932 0 0 0
0.28989776 -0.56960377 0.99187040 42 32 29
0.29004664 -0.54961913 0.99745720 92 71 64
0.29043086 -0.52963278 0.99877817 94 71 64
0.29048360 -0.51333102 0.99896243 89 75 74
0.29027301 -0.48172490 0.95024384 68 67 72
0.28987681 -0.46629953 0.93465355 31 30 35
0.29012506 -0.44985911 0.93793724 23 21 26
0.29371055 -0.43869466 0.93979919 23 21 24
0.28972204 -0.42932555 0.94165970 22 20 25
0.28975822 -0.41054061 0.94525908 22 20 24
0.29009786 -0.38985733 0.94908077 22 21 27
0.29028390 -0.36985510 0.95245675 18 16 22
0.28967374 -0.35043585 0.95545745 17 15 20
0.29025379 -0.33010469 0.95829188 19 17 23
0.28866215 -0.31832229 0.95981225 20 18 26
0.29003158 -0.30895382 0.96100905 23 21 30
0.29010225 -0.29020206 0.96328747 27 26 35
0.29026003 -0.27012853 0.96538657 28 27 38
0.28949235 -0.25032525 0.96681026 29 28 44
0.28970537 -0.23044336 0.96752187 28 26 38
0.28973965 -0.21040147 0.96763618 32 30 43
0.28965472 -0.19027676 0.96735252 38 36 51
0.28942729 -0.17007999 0.96659402 49 49 70
0.28988254 -0.14998300 0.96581361 74 76 100
0.29053646 -0.13334794 0.96603045 93 93 115
0.29051250 -0.12887985 0.99021526 155 150 149
0.29094800 -0.12528995 1.00955915 177 174 172
0.29144021 -0.11059586 1.00911683 181 178 179
0.29007447 -0.09007410 1.00864287 190 185 185
0.28991601 -0.07040149 1.00768917 192 186 186
0.29005481 -0.05010594 1.00645752 191 188 187
0.29011147 -0.02985002 1.00494591 190 184 184
0.29005550 -0.01006570 1.00345038 191 188 187
0.28981518 0.00970339 1.00185300 180 176 174
0.29044464 0.03592701 0.99962277 186 180 178
0.28966699 0.02569783 1.00053470 184 180 179
0.29022528 0.05044364 0.99829797 188 182 181
0.28974059 0.07008728 0.99640243 187 183 182
0.29001763 0.08971110 0.99440033 183 180 180
0.29023613 0.11009283 0.99220917 181 176 176
0.28972821 0.13026353 0.99001988 188 183 182
0.29018769 0.15080507 0.98784729 183 179 178
0.29003453 0.17070302 0.98569555 178 174 173
0.28969847 0.19049021 0.98341134 179 173 173
0.29341676 0.21967140 0.97992107 174 170 170
0.29017427 0.21005362 0.98108478 176 170 171
0.28968495 0.23040305 0.97875833 175 169 170
0.29021725 0.25021297 0.97649381 176 172 170
0.29001782 0.26974006 0.97419423 167 163 162
0.28978130 0.29006717 0.97189016 160 158 157
0.29033087 0.31036999 0.96961598 167 162 161
0.28962420 0.32967611 0.96725580 166 164 163
0.29028809 0.34954289 0.96456187 165 160 158
0.29069336 0.37854440 0.95974541 166 162 162
0.28968701 0.36854701 0.96164283 163 161 157
0.29000665 0.39144961 0.91048531 0 0 0
0.28981520 0.39080367 0.93548422 21 21 21
0.29007069 0.38907913 0.95699520 169 167 164
0.29000098 0.41019084 0.90506981 0 0 0
0.29067969 0.43580194 0.89919422 0 0 0
0.28965131 0.42591052 0.90121209 0 0 0
0.29002470 0.44957975 0.89634555 0 0 0
0.28998768 0.46991043 0.89224195 0 0 0
0.28990182 0.49018298 0.88831481 0 0 0
0.29032153 0.50184000 0.88608597 0 0 0
0.31006533 -0.66045003 0.97901685 0 0 0
0.31194671 -0.65123174 0.97939234 0 0 0
0.30454013 -0.64513453 0.98028904 0 0 0
0.31810109 -0.63682871 0.97983296 0 0 0
0.30975047 -0.62946466 0.98089384 0 0 0
0.30970718 -0.61005233 0.98255232 0 0 0
0.31008872 -0.58986011 0.98503250 0 0 0
0.31003816 -0.57054360 0.99190434 52 42 37
0.31035486 -0.55014056 0.99665061 91 71 62
0.30998089 -0.52979587 0.99806462 93 71 63
0.31048754 -0.51297245 0.99765971 89 73 71
0.30911424 -0.48203265 0.94900034 67 69 71
0.31452871 -0.49175626 0.96673551 70 71 74
0.31645142 -0.49873031 0.98044568 74 73 74
0.31049477 -0.46692061 0.93374840 32 31 38
0.30816794 -0.47804736 0.94218794 58 59 64
0.31006180 -0.45009986 0.93695133 23 21 26
0.31088646 -0.43746251 0.93952924 23 22 26
0.30964552 -0.42810443 0.94157364 23 22 26
0.30996449 -0.41053059 0.94516596 23 21 26
0.31014537 -0.38997883 0.94913836 23 21 27
0.30998874 -0.36937029 0.95276813 17 15 22
0.30981816 -0.34993798 0.95583427 17 15 20
0.31005383 -0.33047143 0.95859646 19 17 23
0.31734036 -0.32076397 0.96006413 20 18 25
0.30320381 -0.31907125 0.95996388 23 21 28
0.30996179 -0.31004490 0.96125103 24 22 30
0.31014164 -0.29024916 0.96365788 30 29 38
0.30984854 -0.27004631 0.96582014 31 30 45
0.30969969 -0.25045079 0.96729510 29 28 43
0.30990835 -0.23054474 0.96794701 30 28 41
0.30992247 -0.21047898 0.96799179 32 31 45
0.30979860 -0.19032673 0.96760596 39 38 54
0.30951735 -0.17010396 0.96672816 55 55 75
0.30970366 -0.14981833 0.96576839 79 82 107
0.31049403 -0.13358567 0.96620818 93 95 120
0.31121334 -0.12952055 0.99079044 158 156 157
0.31011912 -0.12527981 1.00947605 179 174 173
0.31003433 -0.11042045 1.00920297 184 181 180
0.30975169 -0.09027891 1.00828462 190 186 186
0.31033479 -0.07017216 1.00734896 195 190 190
0.30993679 -0.05008597 1.00605753 189 185 185
0.30995565 -0.03025277 1.00464267 196 191 190
0.30990393 -0.01006249 1.00313641 185 179 178
0.31027670 0.00986140 1.00154144 185 180 179
0.31002557 0.03435633 0.99949487 191 182 178
0.30945616 0.02408372 1.00039479 186 182 179
0.30998356 0.05029402 0.99806201 186 179 176
0.31025960 0.07013614 0.99616177 184 179 176
0.30978492 0.08962651 0.99419375 186 183 183
0.31018352 0.11026711 0.99196269 189 184 183
0.31005778 0.13035374 0.98978988 190 185 184
0.30973648 0.15034762 0.98768667 186 182 181
0.31027978 0.17078617 0.98548261 184 179 179
0.30968878 0.19066066 0.98318701 181 177 175
0.31109194 0.21887909 0.97982091 160 154 156
0.31014139 0.20922256 0.98096658 170 163 162
0.30991074 0.23034749 0.97852242 177 171 169
0.30996838 0.25004749 0.97626851 180 175 173
0.31014486 0.26967141 0.97394642 180 177 174
0.30966815 0.28993366 0.97166247 166 163 163
0.31037002 0.31029824 0.96939169 167 163 162
0.30976827 0.32982189 0.96703342 168 164 164
0.31017667 0.34971500 0.96434874 166 164 162
0.31058132 0.37852252 0.95968991 161 155 154
0.30974024 0.36848499 0.96151289 158 156 154
0.30987784 0.39179175 0.91032390 0 0 0
0.31151896 0.39020918 0.93278913 88 86 82
0.31003597 0.38909374 0.95715422 164 160 158
0.31002723 0.41004515 0.90482537 0 0 0
0.31076396 0.43495881 0.89904767 0 0 0
0.30937737 0.42504939 0.90107813 0 0 0
0.31007050 0.45009565 0.89593557 0 0 0
0.30997306 0.47037881 0.89180639 0 0 0
0.30995596 0.48995644 0.88796475 0 0 0
0.31035561 0.50164610 0.88567603 0 0 0
0.32987131 -0.65017905 0.97812498 0 0 0
0.33159215 -0.63081096 0.97916900 0 0 0
0.32378342 -0.62363916 0.98023178 0 0 0
0.33726759 -0.61698325 0.97968949 0 0 0
0.32872359 -0.60923795 0.98118808 0 0 0
0.33033643 -0.59017828 0.98350740 0 0 0
0.33016105 -0.57098114 0.99126570 67 51 46
0.33021005 -0.55036602 0.99551177 92 70 63
0.32953917 -0.53040064 0.99697656 93 71 61
0.32919782 -0.51403203 0.99646381 87 72 68
0.33427419 -0.49920643 0.97805836 72 70 71
0.33005330 -0.46763826 0.93333320 34 33 40
0.32999912 -0.44953775 0.93647890 22 21 25
0.33034219 -0.43654657 0.93938674 25 24 28
0.32980711 -0.42700546 0.94154855 26 24 29
0.33004129 -0.41038140 0.94510770 25 23 29
0.33008953 -0.39006705 0.94919216 24 22 29
0.32988612 -0.36950913 0.95296468 18 16 22
0.32989371 -0.35004739 0.95616471 17 16 20
0.32985616 -0.33204761 0.95882102 19 17 24
0.33233684 -0.32197243 0.96024244 22 20 27
0.32971284 -0.30962435 0.96172378 25 23 32
0.33033642 -0.28961172 0.96409099 34 33 43
0.32963413 -0.27009121 0.96612631 35 35 55
0.32988115 -0.25054092 0.96764357 31 30 48
0.33009768 -0.23062389 0.96827883 30 29 42
0.33006667 -0.21052207 0.96818854 33 33 47
0.32987298 -0.19032999 0.96762118 40 39 56
0.32952518 -0.17008195 0.96660173 57 57 79
0.33000664 -0.14987216 0.96556696 82 86 111
0.33036592 -0.13306520 0.96547655 94 95 119
0.32943175 -0.12905031 0.99152497 156 153 155
0.33031865 -0.12533147 1.00988961 183 179 178
0.33006116 -0.11041021 1.00910383 186 181 179
0.32968875 -0.09025044 1.00796577 186 182 181
0.33026134 -0.07015175 1.00705516 186 179 179
0.32991113 -0.04999864 1.00574811 186 182 182
0.33023315 -0.03003654 1.00432277 195 190 189
0.32974216 -0.01005936 1.00282962 191 185 183
0.33009013 0.00985863 1.00125597 190 186 185
0.33054245 0.03277466 0.99935947 191 186 185
0.32909852 0.02248504 1.00026455 194 187 185
0.32981304 0.05035219 0.99779993 189 184 183
0.32997181 0.06998367 0.99593237 187 182 181
0.33019329 0.08973692 0.99395268 193 188 186
0.32980750 0.10984960 0.99178250 188 183 182
0.33023967 0.13051836 0.98955510 185 181 180
0.32980655 0.15052690 0.98745296 187 184 183
0.33008556 0.17070789 0.98529651 181 173 172
0.33002168 0.19062634 0.98300997 182 178 176
0.33111191 0.21803449 0.97972952 181 176 176
0.32954408 0.20802498 0.98092051 183 177 175
0.33014043 0.23030147 0.97832689 173 168 167
0.32972964 0.24989676 0.97609997 177 174 172
0.33028785 0.26962426 0.97377614 178 173 169
0.32956573 0.28990979 0.97147161 168 165 164
0.33041002 0.31023606 0.96919749 170 165 163
0.32964866 0.33040626 0.96676158 168 163 161
0.33032205 0.35024513 0.96405177 169 166 164
0.33082094 0.37838792 0.95960106 170 163 161
0.32971032 0.36836119 0.96138535 171 167 165
0.33012844 0.39204717 0.91007100 0 0 0
0.32808599 0.39080788 0.93163974 68 66 67
0.33006606 0.38952935 0.95608853 161 157 157
0.33001204 0.40981225 0.90433971 0 0 0
0.33067026 0.43374401 0.89883973 0 0 0
0.32908428 0.42387883 0.90084038 0 0 0
0.33001175 0.44995213 0.89553897 0 0 0
0.33001101 0.47020059 0.89136518 0 0 0
0.33017410 0.48994486 0.88745105 0 0 0
0.32916831 0.50158649 0.88517357 0 0 0
0.34977952 -0.64947576 0.97651259 0 0 0
0.35019142 -0.62996276 0.97766273 0 0 0
0.35151626 -0.61182055 0.97899678 0 0 0
0.34522953 -0.60373310 0.98048788 0 0 0
0.35857997 -0.59916421 0.97979817 0 0 0
0.34989145 -0.58960012 0.98189278 0 0 0
0.34994744 -0.57106009 0.99063090 78 59 54
0.35025748 -0.54985862 0.99396519 90 69 62
0.34947365 -0.52984452 0.99542221 91 69 63
0.35641525 -0.50112539 0.97850448 79 74 73
0.35021253 -0.51441056 0.99554307 87 71 68
0.34914774 -0.48353569 0.94735584 72 73 73
0.35029035 -0.49653304 0.97165000 76 74 74
0.35042198 -0.46785174 0.93333025 32 32 39
0.34978310 -0.44985169 0.93615800 23 22 26
0.35042211 -0.43674600 0.93912348 25 24 29
0.35003661 -0.42670159 0.94141909 26 24 30
0.35019242 -0.41013926 0.94511224 25 24 30
0.34979277 -0.38990763 0.94930760 26 24 31
0.34986934 -0.36959546 0.95321508 18 17 22
0.35011855 -0.34982324 0.95658590 17 16 20
0.34944835 -0.33345775 0.95906050 19 17 25
0.35136486 -0.32367142 0.96045287 22 20 28
0.34968943 -0.30975354 0.96215828 26 25 34
0.35033794 -0.28984042 0.96446105 35 33 45
0.34959117 -0.27021749 0.96647088 36 38 65
0.35007536 -0.25062982 0.96798729 33 33 53
0.35030198 -0.23070381 0.96861393 31 30 44
0.35023693 -0.21057571 0.96843425 34 35 50
0.34998240 -0.19035184 0.96773097 42 42 61
0.34956360 -0.17007723 0.96657357 57 59 83
0.35016636 -0.14985797 0.96536251 84 88 116
0.35090840 -0.13033530 0.96578660 96 100 124
0.34809644 -0.12644361 0.98903011 150 149 150
0.35001721 -0.12503113 1.00944809 177 174 172
0.35476824 -0.11135804 0.96765596 114 114 134
0.35700701 -0.11203373 0.98818697 153 150 152
0.34999864 -0.11037278 1.00875794 187 180 178
0.35844312 -0.09861096 0.97026809 131 130 142
0.35005473 -0.08999116 1.00760986 187 182 181
0.35018267 -0.07013228 1.00677975 192 187 187
0.34981763 -0.05012691 1.00553812 190 187 186
0.35010871 -0.03002915 1.00407228 195 191 189
0.35016073 -0.00985824 1.00251851 193 189 187
0.34988664 0.00985567 1.00095521 191 187 186
0.35035724 0.03079827 0.99924410 187 184 183
0.34681452 0.02099003 1.00013296 183 181 182
0.35020888 0.05050331 0.99752211 188 183 181
0.34976861 0.07003753 0.99569384 188 184 183
0.35008785 0.08975133 0.99372699 190 186 184
0.35002495 0.11001916 0.99154462 188 183 181
0.34990139 0.13017251 0.98940949 188 185 184
0.35022030 0.15049811 0.98726408 178 175 176
0.34973946 0.17041492 0.98515479 183 180 179
0.35028316 0.19065817 0.98283678 181 177 175
0.35070454 0.21755360 0.97966185 181 179 178
0.34936550 0.20774096 0.98080976 177 173 173
0.35032123 0.23033651 0.97819919 165 163 161
0.34965122 0.24992320 0.97596605 159 153 151
0.35036305 0.26964499 0.97361730 152 147 144
0.34960030 0.28992895 0.97131815 165 158 155
0.35039101 0.31025034 0.96904076 168 165 164
0.34969687 0.33028322 0.96658840 163 160 158
0.35025168 0.35017943 0.96387074 169 165 162
0.35036660 0.37766633 0.95962224 162 154 148
0.34975578 0.36757880 0.96135446 168 164 160
0.34988172 0.39255001 0.90888793 0 0 0
0.35184357 0.38971322 0.92427318 45 44 44
0.34993577 0.39013597 0.95597437 162 159 155
0.35018167 0.40990111 0.90355124 0 0 0
0.35046660 0.43261824 0.89846243 0 0 0
0.34788593 0.42253303 0.90051129 0 0 0
0.34993081 0.45033237 0.89488821 0 0 0
0.34998647 0.46988912 0.89081441 0 0 0
0.34999671 0.49000474 0.88682841 0 0 0
0.34968286 0.50173186 0.88447749 0 0 0
0.36995433 -0.64922726 0.97465505 0 0 0
0.36957630 -0.63010062 0.97583060 0 0 0
0.37038290 -0.60985335 0.97730689 0 0 0
0.37181255 -0.59222105 0.97889615 0 0 0
0.36699807 -0.58398698 0.98249414 34 26 25
0.37030321 -0.57023085 0.98873010 84 65 61
0.37046796 -0.54993669 0.99036757 85 69 67
0.37000133 -0.53004144 0.99023678 74 59 55
0.37082824 -0.51395226 0.98985568 68 59 59
0.37090491 -0.48902972 0.95488629 64 64 72
0.36083046 -0.49215411 0.96098703 73 73 73
0.36991726 -0.46833831 0.93322034 32 31 38
0.37004403 -0.45000872 0.93614937 24 23 28
0.37040877 -0.43640807 0.93914876 26 25 31
0.36959137 -0.42658437 0.94137599 26 25 31
0.37001464 -0.40981895 0.94518236 26 24 31
0.36997357 -0.38956250 0.94950451 26 24 32
0.36993233 -0.36971669 0.95347524 19 18 23
0.36996419 -0.34952330 0.95701328 18 17 23
0.36969209 -0.33456083 0.95931656 20 18 27
0.37084713 -0.32515192 0.96063862 23 21 30
0.36973490 -0.30994229 0.96254475 27 26 35
0.37020324 -0.28990586 0.96483503 35 35 47
0.36969184 -0.27036918 0.96678326 38 40 70
0.37025339 -0.25069838 0.96825207 35 37 59
0.37049340 -0.23076712 0.96887970 33 32 47
0.37041577 -0.21062852 0.96867667 38 37 53
0.37011621 -0.19038401 0.96789353 43 44 62
0.36961700 -0.17008019 0.96658871 57 59 82
0.37025927 -0.14984233 0.96518564 78 83 110
0.37039441 -0.12958942 0.96502877 86 91 118
0.36946348 -0.10992792 0.96599594 99 105 132
0.36339093 -0.10193283 0.99450640 154 152 156
0.36236397 -0.10818041 1.00732168 178 176 175
0.36992487 -0.09688766 0.96895074 115 114 133
0.36566789 -0.09746260 0.98981881 153 151 153
0.36955153 -0.08978156 1.00720099 190 185 184
0.37011080 -0.07011655 1.00655265 190 186 186
0.37002906 -0.04982619 1.00529598 186 181 180
0.36997418 -0.03002175 1.00382202 192 186 183
0.36995969 -0.01025763 1.00226259 192 189 188
0.37489394 0.01801755 0.99990503 192 189 188
0.36969367 0.00930154 1.00067394 191 187 187
0.36992835 0.02969308 0.99901312 187 183 182
0.36990418 0.05015163 0.99724128 187 184 183
0.37024344 0.07008351 0.99541281 189 185 184
0.36981014 0.08946690 0.99351389 183 180 180
0.37023390 0.11018913 0.99131115 190 187 187
0.36977969 0.13021025 0.98919921 191 186 184
0.37027290 0.15067775 0.98703360 188 185 184
0.36982195 0.17057111 0.98493323 179 173 173
0.37018855 0.19071358 0.98267202 167 161 160
0.36951902 0.21706294 0.97961651 171 168 167
0.36994926 0.20714338 0.98075705 170 164 164
0.37021793 0.23038750 0.97807705 169 165 164
0.36977931 0.24995451 0.97583547 159 148 142
0.37029121 0.26963317 0.97346602 160 150 145
0.36968434 0.28988017 0.97115506 166 161 159
0.37028912 0.31018822 0.96888335 156 151 150
0.36974175 0.33027248 0.96640140 166 162 158
0.37018935 0.35012834 0.96372976 165 160 159
0.37027119 0.37766713 0.95962426 158 153 149
0.36983364 0.36753873 0.96128522 163 161 159
0.37008861 0.39294204 0.90771429 0 0 0
0.36886321 0.39252050 0.92895742 63 62 62
0.37005775 0.39072034 0.95617799 157 151 149
0.37833855 0.41949388 0.89990944 0 0 0
0.36979714 0.40996999 0.90266655 0 0 0
0.37025220 0.43066066 0.89809136 0 0 0
0.36387218 0.42137345 0.90012727 0 0 0
0.36998822 0.45003922 0.89423851 0 0 0
0.37010577 0.46989961 0.89009401 0 0 0
0.36976464 0.48994981 0.88614894 0 0 0
0.37004607 0.50135994 0.88382185 0 0 0
0.39003031 -0.64826438 0.97265849 0 0 0
0.38991151 -0.63007694 0.97362902 0 0 0
0.39014462 -0.61024019 0.97476499 0 0 0
0.39004638 -0.58990589 0.97624064 24 23 24
0.38294058 -0.58118836 0.98147367 77 61 60
0.39443782 -0.57049881 0.97754243 87 92 97
0.38470445 -0.56967460 0.98257369 77 73 77
0.39566028 -0.55035245 0.97786444 46 48 62
0.38568662 -0.54978675 0.98228243 48 49 55
0.39579374 -0.53015964 0.97776070 56 57 65
0.38590427 -0.53015528 0.98254883 30 30 36
0.39513135 -0.51000452 0.97638666 72 73 87
0.38583146 -0.51254371 0.98261010 38 36 44
0.39643245 -0.48093949 0.93908921 45 44 58
0.39020258 -0.48635413 0.94880185 55 56 73
0.39557274 -0.49731721 0.96733682 73 77 94
0.38995885 -0.46818925 0.93313970 29 28 35
0.39001419 -0.45010397 0.93615625 24 23 30
0.38995055 -0.43631225 0.93911238 26 25 32
0.38990327 -0.42606207 0.94142913 26 25 32
0.38990125 -0.40978256 0.94515223 27 25 32
0.39005703 -0.38956061 0.94955072 26 25 32
0.39000451 -0.36971902 0.95358899 20 18 24
0.39001570 -0.34958091 0.95720031 19 17 25
0.39009004 -0.33547101 0.95941577 21 20 29
0.39039798 -0.32597570 0.96075692 23 21 30
0.38980333 -0.31002550 0.96280314 28 26 37
0.39009389 -0.28992157 0.96506335 37 37 51
0.38980212 -0.27040994 0.96692854 39 42 72
0.39036454 -0.25071710 0.96832398 36 38 62
0.39061370 -0.23078195 0.96894215 35 34 49
0.39053823 -0.21064555 0.96875489 39 40 56
0.39021243 -0.19039455 0.96794673 45 45 64
0.38963090 -0.17006578 0.96650481 58 59 84
0.39036078 -0.14985921 0.96488834 72 76 104
0.38990653 -0.13212799 0.96493781 89 89 114
0.39600302 -0.12797425 0.98654531 175 174 179
0.38343888 -0.10856038 0.96714904 98 103 127
0.39732208 -0.10879804 0.99036448 144 146 158
0.38420892 -0.09672185 0.96938789 109 110 131
0.39687241 -0.09739030 0.98763502 145 144 153
0.39028589 -0.08837758 1.00653980 186 180 178
0.39003013 -0.07010105 1.00632660 189 185 183
0.38989609 -0.05025671 1.00509441 190 184 184
0.38999522 -0.02988715 1.00356239 190 185 183
0.39006981 -0.01005080 1.00196087 193 190 189
0.39121840 0.01646205 0.99977423 192 185 184
