ply
format ascii 1.0
element vertex 1081
property float x
property float y
property float z
property uchar red
property uchar green
property uchar blue
end_header
-0.18999877 0.17155070 0.85863460 121 121 125
-0.18996933 0.16162380 0.86027108 110 111 116
-0.19001459 0.18977317 0.85563249 127 127 131
-0.18991015 0.20934807 0.85242855 125 125 128
-0.19007607 0.23012577 0.84895523 161 161 161
-0.18985587 0.25006315 0.84562388 197 196 190
-0.19014715 0.26982320 0.84241809 200 200 191
-0.18972759 0.29237244 0.83891608 199 200 192
-0.18995570 0.28210918 0.84047354 198 198 191
-0.19026625 0.31047450 0.83626030 201 201 192
-0.18983903 0.33021896 0.83358235 202 201 192
-0.18989976 0.35012428 0.83133957 191 191 186
-0.19022039 0.37001333 0.83066462 92 92 88
-0.18985409 0.38994933 0.83297188 0 0 0
-0.18974424 0.40978426 0.83382869 0 0 0
-0.19000236 0.43000971 0.83430297 0 0 0
-0.19003914 0.45028434 0.83446434 0 0 0
-0.18998891 0.46746813 0.83424385 0 0 0
-0.17018655 -0.58859849 0.88497928 0 0 0
-0.17024042 -0.56965849 0.88525953 0 0 0
-0.17031166 -0.54999708 0.88563013 0 0 0
-0.17040566 -0.53038990 0.88611899 0 0 0
-0.17052784 -0.51007840 0.88675429 0 0 0
-0.17039372 -0.48971139 0.88766190 0 0 0
-0.16980893 -0.47016459 0.89102318 42 46 48
-0.17056023 -0.45060757 0.89496554 95 102 109
-0.17057408 -0.43053445 0.89503963 104 99 102
-0.17050234 -0.41024994 0.89466156 134 91 80
-0.17048845 -0.39011518 0.89458805 111 72 64
-0.17049166 -0.37002084 0.89460426 78 51 49
-0.17052603 -0.34998893 0.89478354 56 50 55
-0.17058546 -0.32999971 0.89509625 70 74 85
-0.17059105 -0.30989762 0.89512575 70 73 83
-0.17059465 -0.28979084 0.89514476 68 73 83
-0.17059381 -0.26967609 0.89514022 65 68 80
-0.17059297 -0.24956156 0.89513583 62 65 78
-0.17059360 -0.22944916 0.89513913 65 66 80
-0.17059698 -0.20934000 0.89515686 66 68 79
-0.17060228 -0.19000581 0.89518460 69 71 83
-0.17060379 -0.17066673 0.89519243 72 73 83
-0.17059762 -0.15054675 0.89515991 71 72 82
-0.17059821 -0.13043345 0.89516292 55 55 62
-0.17059485 -0.11031745 0.89514531 44 44 48
-0.17059350 -0.09020335 0.89513838 42 42 46
-0.17057870 -0.07008420 0.89506084 41 40 46
-0.17047919 -0.04994611 0.89453909 57 56 59
-0.16996192 -0.02975913 0.89182509 112 111 113
-0.16986491 -0.00966619 0.88852262 138 138 144
-0.17024894 0.01024318 0.88530189 145 145 149
-0.16963668 0.03002707 0.88211812 143 143 148
-0.17035190 0.05108090 0.87870313 138 137 143
-0.17004434 0.04138160 0.88028211 136 137 143
-0.16989545 0.06990878 0.87559406 135 135 141
-0.16993819 0.09002635 0.87221695 133 133 137
-0.17008988 0.10991807 0.86885634 131 131 135
-0.16990695 0.13059842 0.86540324 138 137 139
-0.17009264 0.14992667 0.86218857 126 127 129
-0.16976846 0.17149462 0.85860961 129 130 131
-0.17084581 0.16135703 0.86028994 121 123 127
-0.16997561 0.18941567 0.85565684 130 130 132
-0.17002191 0.20963456 0.85232650 163 163 162
-0.16985343 0.22991110 0.84890997 198 197 189
-0.17012507 0.25034109 0.84551799 199 198 191
-0.17000791 0.26964759 0.84240546 201 200 192
-0.17001733 0.29243907 0.83886139 202 200 193
-0.16961092 0.28209733 0.84043825 200 200 191
-0.17020707 0.31030892 0.83623036 202 202 193
-0.16965858 0.33020050 0.83353568 203 202 194
-0.17022079 0.35026483 0.83132380 191 191 189
-0.17010864 0.37022231 0.83114674 61 61 58
-0.16961220 0.38989146 0.83331176 0 0 0
-0.16978988 0.40976405 0.83418469 0 0 0
-0.16988544 0.43019067 0.83465415 0 0 0
-0.16991479 0.45046440 0.83479803 0 0 0
-0.16987005 0.46765547 0.83457818 0 0 0
-0.15033001 -0.58870973 0.88514654 0 0 0
-0.15037970 -0.56977419 0.88543936 0 0 0
-0.15044437 -0.55011512 0.88582023 0 0 0
-0.15043082 -0.53038535 0.88632101 0 0 0
-0.15072951 -0.51007897 0.88694761 0 0 0
-0.14984463 -0.49005060 0.88781387 0 0 0
-0.14979974 -0.47020108 0.89109182 41 45 48
-0.15046835 -0.45065992 0.89506946 99 104 110
-0.15048519 -0.43059615 0.89516890 95 100 105
-0.15043041 -0.41033518 0.89484548 130 97 87
-0.15039013 -0.39012191 0.89460325 130 86 75
-0.15038237 -0.37000112 0.89455638 85 54 52
-0.15039561 -0.34993084 0.89463409 53 42 46
-0.15045934 -0.32996925 0.89501392 71 72 84
-0.15046943 -0.30987983 0.89507444 67 70 83
-0.15047433 -0.28977751 0.89510357 68 71 81
-0.15047279 -0.26966231 0.89509443 66 69 79
-0.15047127 -0.24954745 0.89508523 63 65 77
-0.15047203 -0.22943650 0.89508979 65 68 80
-0.15047504 -0.20932850 0.89510763 67 70 81
-0.15047766 -0.18999277 0.89512309 71 72 83
-0.15047690 -0.17065266 0.89511849 73 74 83
-0.15046990 -0.15053279 0.89507684 73 74 83
-0.15046924 -0.13042031 0.89507280 55 55 60
-0.15046716 -0.11030698 0.89506042 44 43 48
-0.15046742 -0.09019563 0.89506209 42 41 45
-0.15045796 -0.07007987 0.89500615 41 40 44
-0.15037806 -0.04994557 0.89453149 58 58 61
-0.14992535 -0.02975961 0.89183879 115 113 116
-0.14978339 -0.00965720 0.88852551 154 154 157
-0.15035553 0.01024310 0.88529516 150 149 152
-0.14981340 0.03002653 0.88210286 142 143 148
-0.15005608 0.05114300 0.87867265 134 133 139
-0.14950074 0.04138064 0.88026183 128 128 137
-0.15021880 0.06990757 0.87557900 135 136 142
-0.14976000 0.09008585 0.87218648 132 133 136
-0.15012589 0.10972966 0.86886616 132 132 135
-0.14996820 0.13042163 0.86539986 132 131 133
-0.14998094 0.15016834 0.86211210 130 130 133
-0.15009308 0.17084298 0.85868877 134 134 136
-0.14983261 0.16089100 0.86032717 141 141 142
-0.15001977 0.18974791 0.85556831 168 167 168
-0.14989999 0.20945867 0.85225512 198 197 192
-0.14998260 0.22984332 0.84885298 200 199 193
-0.15017547 0.25018266 0.84551331 199 198 192
-0.14976799 0.26951887 0.84239202 203 201 194
-0.15031000 0.29250603 0.83880681 201 200 191
-0.14999334 0.28208405 0.84039869 203 202 192
-0.14996426 0.31029275 0.83618675 203 201 193
-0.14963222 0.33007318 0.83352485 202 202 192
-0.15044713 0.35026904 0.83136950 196 196 189
-0.15004888 0.37047143 0.83173847 33 33 31
-0.14951495 0.39006649 0.83368619 0 0 0
-0.14966899 0.40994092 0.83454470 0 0 0
-0.14975276 0.43037495 0.83501181 0 0 0
-0.14994334 0.45039573 0.83512605 0 0 0
-0.14950844 0.46756075 0.83489771 0 0 0
-0.13046277 -0.58880671 0.88529240 0 0 0
-0.13050855 -0.56987956 0.88560316 0 0 0
-0.13056624 -0.55022348 0.88599474 0 0 0
-0.13064327 -0.52986209 0.88651746 0 0 0
-0.13025045 -0.50936315 0.88714434 0 0 0
-0.12944485 -0.49014389 0.88794702 0 0 0
-0.12978793 -0.47023961 0.89116474 43 46 49
-0.13037014 -0.45070670 0.89516221 102 107 113
-0.13037560 -0.43061070 0.89519893 100 105 110
-0.13035795 -0.41044276 0.89508045 113 102 100
-0.13029004 -0.39012557 0.89461140 140 97 84
-0.13027353 -0.36997666 0.89449704 99 65 59
-0.13027608 -0.34988431 0.89451426 57 38 41
-0.13033270 -0.32992774 0.89490251 67 69 77
-0.13035106 -0.30986427 0.89502961 65 67 77
-0.13035636 -0.28976537 0.89506607 66 67 78
-0.13035418 -0.26964924 0.89505103 65 67 76
-0.13035230 -0.24953432 0.89503813 63 65 77
-0.13035254 -0.22942367 0.89503971 66 68 77
-0.13035431 -0.20931542 0.89505165 69 71 79
-0.13035491 -0.18997848 0.89505561 72 73 83
-0.13035266 -0.17063770 0.89504008 74 75 83
-0.13034772 -0.15052092 0.89500627 73 74 83
-0.13034554 -0.13040845 0.89499132 56 55 61
-0.13034375 -0.11029694 0.89497903 44 43 48
-0.13034492 -0.09018805 0.89498705 42 41 45
-0.13033943 -0.07007537 0.89494942 42 41 44
-0.13027890 -0.04994555 0.89453456 57 56 59
-0.12989005 -0.02976053 0.89186502 120 118 120
-0.12964694 -0.00960362 0.88853299 157 156 160
-0.13046205 0.01024295 0.88528552 146 145 149
-0.12998885 0.03002552 0.88207424 142 143 146
-0.12969469 0.05129381 0.87859711 132 133 139
-0.12971579 0.04137873 0.88022114 136 136 141
-0.13025890 0.06972407 0.87556166 126 127 133
-0.13003609 0.08998680 0.87216546 133 133 139
-0.12986508 0.11009893 0.86877103 128 128 134
-0.13008254 0.13023342 0.86540417 130 130 135
-0.13002889 0.15004540 0.86212340 128 128 130
-0.13006628 0.17107574 0.85861482 178 177 176
-0.12975650 0.16088910 0.86031700 140 140 141
-0.12987299 0.18947030 0.85553069 200 199 194
-0.13000452 0.20944408 0.85219534 201 199 194
-0.13017571 0.22993303 0.84880883 201 199 193
-0.12971139 0.25017402 0.84548414 202 201 194
-0.12996412 0.27022417 0.84223999 202 201 193
-0.13013123 0.29240753 0.83877070 204 202 194
-0.13106362 0.28246718 0.84029698 203 202 193
-0.12972247 0.31027391 0.83613594 202 201 193
-0.12992608 0.33013807 0.83349268 202 202 192
-0.13043196 0.35021229 0.83144780 200 199 190
-0.13032189 0.37062123 0.83244060 6 6 6
-0.12945003 0.39028511 0.83405147 0 0 0
-0.12952756 0.41010796 0.83488477 0 0 0
-0.12978011 0.43024588 0.83533657 0 0 0
-0.12942821 0.44976171 0.83543179 0 0 0
-0.12957126 0.46726243 0.83516506 0 0 0
-0.11058739 -0.58889525 0.88542555 0 0 0
-0.11062793 -0.56997420 0.88575029 0 0 0
-0.11067788 -0.55032009 0.88615031 0 0 0
-0.11008033 -0.52986417 0.88667953 0 0 0
-0.10959358 -0.50978955 0.88727812 0 0 0
-0.10938233 -0.49011120 0.88806651 0 0 0
-0.10977527 -0.47028785 0.89125609 45 49 50
-0.11026219 -0.45073012 0.89520864 105 111 115
-0.11026464 -0.43062495 0.89522852 102 110 111
-0.11026396 -0.41050732 0.89522315 103 107 111
-0.11020953 -0.39020244 0.89478510 137 102 91
-0.11017086 -0.36996423 0.89446673 120 80 70
-0.11016941 -0.34986087 0.89445434 61 41 42
-0.11021249 -0.32989084 0.89480334 62 61 69
-0.11023657 -0.30985393 0.89499987 65 68 76
-0.11024263 -0.28975994 0.89504925 63 65 74
-0.11024096 -0.26964466 0.89503582 66 67 76
-0.11023862 -0.24952836 0.89501666 67 68 77
-0.11023673 -0.22941379 0.89500101 68 68 77
-0.11023660 -0.20930334 0.89499989 70 71 81
-0.11023505 -0.18996396 0.89498708 72 74 82
-0.11023284 -0.17062415 0.89496907 74 75 83
-0.11022997 -0.15051074 0.89494581 73 74 82
-0.11022764 -0.13039906 0.89492681 55 55 60
-0.11022660 -0.11028947 0.89491841 45 44 46
-0.11022753 -0.09018189 0.89492601 42 41 44
-0.11022409 -0.07007132 0.89489824 43 41 43
-0.11017975 -0.04994562 0.89453891 57 55 57
-0.10985473 -0.02976180 0.89190067 127 123 124
-0.10950606 -0.00963060 0.88855723 161 161 163
-0.11050573 0.01018868 0.88527482 149 148 150
-0.11016310 0.03002381 0.88202562 137 138 144
-0.10961487 0.05104104 0.87855977 126 126 133
-0.11062814 0.04131281 0.88016710 134 132 139
-0.10983799 0.07007399 0.87542900 135 135 140
-0.11031131 0.08988642 0.87213269 130 130 135
-0.11000895 0.10990703 0.86876922 134 134 138
-0.10990535 0.13059988 0.86531538 141 142 146
-0.10990783 0.15003888 0.86208642 182 181 178
-0.11020192 0.17094604 0.85857360 198 196 192
-0.11003351 0.16085187 0.86026517 199 197 189
-0.10991208 0.18963812 0.85544069 200 198 194
-0.11011639 0.20943786 0.85216986 203 200 194
-0.10977356 0.22979208 0.84880836 202 200 194
-0.10997889 0.25016426 0.84545128 203 202 194
-0.11028123 0.27030231 0.84218020 202 201 193
-0.10966096 0.29188522 0.83879548 200 199 192
-0.11093818 0.28231261 0.84026746 202 200 193
-0.10966783 0.31010816 0.83610489 203 202 193
-0.11033186 0.33033268 0.83344002 203 202 193
-0.11037821 0.34960656 0.83158443 195 194 186
-0.11045686 0.36960928 0.83293087 0 0 0
-0.11008338 0.38955316 0.83433065 0 0 0
-0.10971506 0.41045407 0.83520835 0 0 0
-0.10942307 0.42997214 0.83563174 0 0 0
-0.10942958 0.44949610 0.83568068 0 0 0
-0.10957594 0.46726449 0.83537392 0 0 0
-0.09037348 -0.58881909 0.88556119 0 0 0
-0.08997400 -0.57006204 0.88588681 0 0 0
-0.09001518 -0.55040838 0.88629249 0 0 0
-0.08941865 -0.53014090 0.88681672 0 0 0
-0.08936168 -0.50968820 0.88740847 0 0 0
-0.08943800 -0.49016607 0.88816583 0 0 0
-0.08975647 -0.47032635 0.89132881 48 51 52
-0.09014781 -0.45073217 0.89521267 105 114 116
-0.09015004 -0.43062805 0.89523500 104 111 115
-0.09015031 -0.41051404 0.89523783 105 109 114
-0.09013288 -0.39032590 0.89506896 118 105 104
-0.09007240 -0.36996332 0.89446414 139 95 83
-0.09006507 -0.34983571 0.89438990 78 51 50
-0.09009488 -0.32984689 0.89468469 60 54 60
-0.09012311 -0.30984256 0.89496701 66 69 76
-0.09012816 -0.28974952 0.89501711 62 64 72
-0.09012683 -0.26963506 0.89500396 68 69 77
-0.09012395 -0.24951681 0.89497513 69 71 78
-0.09012097 -0.22939948 0.89494512 68 69 76
-0.09022186 -0.20939933 0.89493505 69 70 77
-0.09001042 -0.19007625 0.89491646 72 72 79
-0.09011608 -0.17061030 0.89489650 73 73 83
-0.09011382 -0.15049867 0.89487395 73 74 83
-0.09011139 -0.13038781 0.89484961 55 56 60
-0.09011049 -0.11027989 0.89484079 45 44 49
-0.09011142 -0.09017422 0.89484994 43 42 47
-0.09011060 -0.07006689 0.89484225 43 42 47
-0.09007656 -0.04994350 0.89450419 58 56 60
-0.08981834 -0.02976324 0.89194159 133 128 129
-0.08948046 -0.00968511 0.88858622 155 153 157
-0.09031350 0.01011876 0.88526857 143 142 147
-0.09033783 0.03002154 0.88196063 132 132 140
-0.08999143 0.05040783 0.87857835 132 132 137
-0.09015728 0.04061706 0.88019758 134 136 143
-0.08966350 0.06989153 0.87537687 135 135 141
-0.08996615 0.09006600 0.87203865 130 129 132
-0.09015208 0.10971502 0.86876631 135 135 139
-0.09012809 0.13040831 0.86531144 179 178 177
-0.08978709 0.15003046 0.86203790 198 195 191
-0.09016538 0.17094077 0.85854689 201 197 194
-0.08998256 0.16089745 0.86021443 197 194 191
-0.08984027 0.18954417 0.85545141 202 200 194
-0.09006568 0.20930875 0.85217951 203 201 194
-0.08997510 0.22996721 0.84875977 203 200 194
-0.09024832 0.25015579 0.84542266 203 202 194
-0.08989830 0.27029054 0.84214361 204 201 193
-0.08953959 0.29168627 0.83878312 201 200 193
-0.08969766 0.28203918 0.84026391 206 203 195
-0.09017084 0.31039284 0.83602608 201 201 192
-0.09040860 0.33015877 0.83342939 203 202 193
-0.09021873 0.34959377 0.83168226 174 174 166
-0.09041008 0.36979117 0.83345215 0 0 0
-0.09053864 0.38978882 0.83463402 0 0 0
-0.09028161 0.41020785 0.83546921 0 0 0
-0.08995120 0.43009786 0.83587621 0 0 0
-0.08995202 0.44960483 0.83588301 0 0 0
-0.09012114 0.46758195 0.83552423 0 0 0
-0.06974740 -0.58923219 0.88568502 0 0 0
-0.06931274 -0.57014152 0.88601032 0 0 0
-0.06934461 -0.55048613 0.88641769 0 0 0
-0.06938559 -0.53011560 0.88694160 0 0 0
-0.06943092 -0.50975279 0.88752088 0 0 0
-0.06948789 -0.49021159 0.88824819 0 0 0
-0.06975635 -0.47051740 0.89169182 50 54 56
-0.07003135 -0.45072223 0.89519286 108 114 115
-0.07003318 -0.43061906 0.89521631 105 112 115
-0.07003416 -0.41051000 0.89522909 106 109 115
-0.07003080 -0.39037651 0.89518712 105 107 111
-0.06998406 -0.37001870 0.89459515 138 101 93
-0.06996379 -0.34981210 0.89432910 103 66 63
-0.06998062 -0.32979440 0.89454217 58 48 53
-0.07001232 -0.30983675 0.89495038 70 71 79
-0.07001644 -0.28974494 0.89500287 64 65 73
-0.07001438 -0.26962671 0.89497607 69 70 76
-0.07001078 -0.24950403 0.89492915 73 73 81
-0.07000683 -0.22938228 0.89487787 68 69 76
-0.07000466 -0.21004167 0.89485005 70 70 78
-0.07000273 -0.19070291 0.89482504 72 72 80
-0.07000093 -0.17059219 0.89480170 73 73 82
-0.06999960 -0.15048377 0.89478531 74 74 83
-0.06999684 -0.13037332 0.89475010 57 56 61
-0.06999524 -0.11026607 0.89472855 46 45 49
-0.06999599 -0.09016292 0.89473800 45 44 48
-0.06999838 -0.07006118 0.89477044 46 44 47
-0.06997351 -0.04994061 0.89445398 58 57 61
-0.06977836 -0.02976368 0.89196035 133 130 131
-0.06951647 -0.00968548 0.88861258 147 147 152
-0.06990114 0.01028602 0.88521828 137 137 143
-0.07051563 0.03001935 0.88189794 134 135 142
-0.07024380 0.05040320 0.87849810 133 133 140
-0.07037371 0.04061361 0.88012281 138 137 142
-0.06998833 0.06988569 0.87530321 135 134 139
-0.06972386 0.08996939 0.87199580 135 136 140
-0.06989796 0.11008077 0.86864278 182 179 179
-0.06993318 0.13040092 0.86526205 198 195 193
-0.07005989 0.14985237 0.86204160 200 197 194
-0.07013256 0.17094142 0.85854998 203 200 196
-0.07026837 0.16086956 0.86021250 199 196 194
-0.06988006 0.18954591 0.85545923 203 201 195
-0.07019639 0.20955667 0.85214069 202 200 194
-0.07006723 0.22987332 0.84877026 203 201 195
-0.06979003 0.25015271 0.84541221 205 202 194
-0.06970487 0.27014006 0.84215882 203 202 193
-0.06996621 0.29168024 0.83876580 203 201 193
-0.07009011 0.28203494 0.84025129 205 201 194
-0.07045998 0.31023218 0.83602346 201 200 192
-0.07023911 0.33014804 0.83340229 201 200 191
-0.07010499 0.34965098 0.83181470 142 141 135
-0.07027544 0.36996370 0.83384328 0 0 0
-0.07036553 0.38991729 0.83490915 0 0 0
-0.07052538 0.40988923 0.83568652 0 0 0
-0.07037288 0.42956391 0.83605458 0 0 0
-0.07046007 0.44968272 0.83602798 0 0 0
-0.07042763 0.46752946 0.83564261 0 0 0
-0.04939297 -0.58914561 0.88580192 0 0 0
-0.04941049 -0.57020951 0.88611595 0 0 0
-0.04933460 -0.55042592 0.88652280 0 0 0
-0.04955627 -0.53006979 0.88705018 0 0 0
-0.04949475 -0.50981386 0.88762722 0 0 0
-0.04953322 -0.49024956 0.88831670 0 0 0
-0.04973536 -0.47065039 0.89194487 54 58 59
-0.04991581 -0.45071311 0.89517461 107 114 116
-0.04991668 -0.43060607 0.89518932 106 111 115
-0.04991790 -0.41050174 0.89521114 105 110 114
-0.04991667 -0.39037756 0.89518959 104 107 114
-0.04989800 -0.37013026 0.89486420 123 107 102
-0.04986764 -0.34980469 0.89431006 125 83 75
-0.04987063 -0.32972245 0.89434491 72 55 56
-0.04994511 -0.30979353 0.89466631 85 83 91
-0.04993637 -0.28981040 0.89466553 78 77 84
-0.04988793 -0.26975693 0.89461981 83 81 86
-0.04992137 -0.24969504 0.89455903 87 85 91
-0.04990204 -0.22966310 0.89435979 83 81 87
-0.04969647 -0.21015903 0.89428120 85 81 87
-0.04987190 -0.19059496 0.89431887 85 83 91
-0.04987182 -0.17050086 0.89432267 84 83 92
-0.04987134 -0.15040450 0.89431409 85 85 91
-0.04987105 -0.13030960 0.89431294 71 69 73
-0.04986993 -0.11021271 0.89429561 62 60 63
-0.04986971 -0.09011767 0.89428959 61 57 60
-0.04987799 -0.07003548 0.89444597 61 57 60
-0.04986895 -0.04993239 0.89431049 71 67 70
-0.04973915 -0.02976482 0.89200630 133 129 131
-0.04955119 -0.00968588 0.88863673 144 145 150
-0.04954522 0.01037480 0.88518325 132 132 140
-0.05015887 0.02986457 0.88187748 134 134 141
-0.05050139 0.05040023 0.87844642 134 135 140
-0.05059501 0.04061140 0.88007502 125 124 133
-0.05031739 0.06988106 0.87524550 139 139 144
-0.05012676 0.08996241 0.87192854 184 182 182
-0.04993619 0.10988760 0.86861470 200 196 194
-0.04974188 0.13039704 0.86523598 194 192 193
-0.04996953 0.15019947 0.86198678 203 199 195
-0.05010032 0.17094443 0.85856507 203 200 195
-0.05019711 0.16087161 0.86022346 199 195 194
-0.04992040 0.18955095 0.85548187 201 199 194
-0.04972752 0.20943939 0.85217640 204 200 195
-0.04990810 0.22967945 0.84880536 204 201 194
-0.05006356 0.25015354 0.84541495 202 200 193
-0.05007331 0.27044597 0.84212672 203 201 193
-0.05039541 0.29168452 0.83877817 194 190 182
-0.05048508 0.28204165 0.84027128 200 199 191
-0.05022940 0.31022836 0.83601335 179 176 169
-0.05006962 0.33012816 0.83335222 169 167 162
-0.04998645 0.34972054 0.83197576 99 94 93
-0.05011762 0.37010417 0.83416116 0 0 0
-0.05017493 0.39001219 0.83511254 0 0 0
-0.05021879 0.40985517 0.83584137 0 0 0
-0.05023867 0.42952677 0.83617091 0 0 0
-0.05023556 0.44973139 0.83611851 0 0 0
-0.05021208 0.46757721 0.83572795 0 0 0
-0.02949265 -0.58920779 0.88589541 0 0 0
-0.02950292 -0.57026612 0.88620389 0 0 0
-0.02951661 -0.54984224 0.88661491 0 0 0
-0.02953426 -0.52947078 0.88714521 0 0 0
-0.02955331 -0.50986588 0.88771792 0 0 0
-0.02957663 -0.49030588 0.88841870 0 0 0
-0.02970936 -0.47090000 0.89241732 58 63 64
-0.02980097 -0.45070092 0.89515023 106 113 115
-0.02980107 -0.43058890 0.89515363 107 111 114
-0.02980154 -0.41048162 0.89516718 105 110 113
-0.02980107 -0.39036171 0.89515340 105 109 112
-0.02979781 -0.37021043 0.89506125 107 107 109
-0.02977366 -0.34981774 0.89434174 139 99 93
-0.02974965 -0.32944999 0.89359796 160 145 145
-0.02973356 -0.30997594 0.89312157 190 188 187
-0.02972806 -0.29062743 0.89296100 74 72 74
-0.02972487 -0.27053412 0.89286485 125 122 124
-0.02972071 -0.25043643 0.89273838 190 188 188
-0.02971679 -0.23034702 0.89262238 85 83 86
-0.02971408 -0.21027189 0.89254423 126 122 126
-0.02971206 -0.19020391 0.89248301 193 192 195
-0.02970932 -0.17013468 0.89240167 80 78 82
-0.02970760 -0.15007452 0.89235156 122 119 125
-0.02970704 -0.13002062 0.89232914 190 187 193
-0.02970523 -0.10996396 0.89227711 70 67 73
-0.02970478 -0.08991343 0.89226131 127 123 129
-0.02970387 -0.06986242 0.89222981 187 182 187
-0.02970353 -0.04981360 0.89221590 73 66 70
-0.02968635 -0.02975216 0.89170554 100 97 100
-0.02958474 -0.00968623 0.88865811 149 149 153
-0.02946954 0.01024159 0.88519641 135 135 141
-0.02960311 0.03017478 0.88180816 130 130 138
-0.03000345 0.05039933 0.87843053 142 142 147
-0.03005903 0.04061058 0.88005733 123 123 128
-0.02989373 0.06987877 0.87521751 184 183 183
-0.03029013 0.08980386 0.87191199 199 196 194
-0.03041784 0.10988397 0.86858563 201 198 196
-0.03030031 0.13039613 0.86522974 199 196 195
-0.03018793 0.15002768 0.86202124 202 198 194
-0.03006712 0.17094582 0.85857201 203 200 196
-0.03012516 0.16087266 0.86022909 200 198 195
-0.02995936 0.18955401 0.85549563 204 199 196
-0.02984387 0.20944480 0.85219835 204 200 194
-0.03012832 0.23007761 0.84877718 199 196 191
-0.03033876 0.25016885 0.84546665 187 184 179
-0.03022174 0.27030974 0.84220350 156 154 152
-0.03009914 0.29168721 0.83878611 164 161 157
-0.03015353 0.28205180 0.84030150 156 156 155
-0.02999865 0.31021776 0.83598505 138 135 131
-0.02990210 0.33010495 0.83329364 153 151 147
-0.02986024 0.34979070 0.83213892 93 92 90
-0.02993931 0.37018292 0.83433922 0 0 0
-0.02997080 0.39005924 0.83521345 0 0 0
-0.02999611 0.40989271 0.83591802 0 0 0
-0.03000707 0.42955316 0.83622236 0 0 0
-0.03000485 0.44975376 0.83616005 0 0 0
-0.02999132 0.46760853 0.83578390 0 0 0
-0.00958782 -0.58925179 0.88596158 0 0 0
-0.00959116 -0.57030810 0.88626910 0 0 0
-0.00959554 -0.54987764 0.88667199 0 0 0
-0.00960126 -0.52950369 0.88720033 0 0 0
-0.00960756 -0.50990383 0.88778410 0 0 0
-0.00961532 -0.49035341 0.88850491 0 0 0
-0.00965889 -0.47095670 0.89252384 65 69 72
-0.00968702 -0.45068178 0.89511216 107 113 116
-0.00968712 -0.43057360 0.89512187 108 111 116
-0.00968724 -0.41046594 0.89513293 107 110 114
-0.00968704 -0.39034448 0.89511400 106 108 113
-0.00968651 -0.37021359 0.89506947 104 106 111
-0.00968072 -0.34991362 0.89458409 133 104 100
-0.00977698 -0.33005339 0.89348428 157 141 141
-0.00956268 -0.31059564 0.89300335 159 160 160
-0.00966321 -0.29060816 0.89290190 120 120 124
-0.00966205 -0.27051341 0.89279647 131 131 136
-0.00966065 -0.25041832 0.89267416 143 143 146
-0.00965961 -0.23033560 0.89257802 124 124 129
-0.00965886 -0.21026322 0.89250738 131 132 138
-0.00965814 -0.19019488 0.89244095 142 142 149
-0.00965745 -0.17013001 0.89237699 127 127 135
-0.00965683 -0.15006876 0.89231699 131 131 139
-0.00965618 -0.13001004 0.89225681 137 137 146
-0.00965590 -0.10995810 0.89222923 119 119 129
-0.00965535 -0.08990500 0.89217703 130 130 138
-0.00965493 -0.06985536 0.89214062 141 141 150
-0.00965458 -0.04980745 0.89210337 122 121 128
-0.00964932 -0.02974879 0.89161385 127 125 129
-0.00961710 -0.00968621 0.88865348 147 147 151
-0.00957954 0.01024146 0.88518498 133 134 140
-0.00954323 0.03001709 0.88183183 144 145 149
-0.00950632 0.05039855 0.87841771 187 186 187
-0.00952400 0.04061040 0.88005329 165 165 167
-0.00947145 0.06987689 0.87519410 200 197 197
-0.00996821 0.09010589 0.87184105 200 197 197
-0.01015036 0.10988163 0.86856718 201 199 197
-0.01011111 0.13039324 0.86521033 203 199 198
-0.01007374 0.15002711 0.86201785 204 199 196
-0.01003364 0.17095008 0.85859320 204 200 195
-0.01005291 0.16087433 0.86023799 202 198 193
-0.00999795 0.18956438 0.85554224 191 187 183
-0.00995952 0.20945611 0.85224453 174 171 167
-0.00991965 0.22988851 0.84882639 171 168 165
-0.00988034 0.25016917 0.84546785 163 160 157
-0.00984205 0.27030584 0.84219133 159 156 154
-0.00980231 0.29168942 0.83879247 152 149 146
-0.00981991 0.28205095 0.84029898 156 151 149
-0.00976942 0.31021394 0.83597490 162 160 157
-0.00973786 0.33009750 0.83327472 160 157 154
-0.00972609 0.34985488 0.83228949 86 84 82
-0.00975086 0.37020375 0.83438611 0 0 0
-0.00976091 0.39007470 0.83524669 0 0 0
-0.00976902 0.40990397 0.83594103 0 0 0
-0.00977246 0.42955964 0.83623503 0 0 0
-0.00977169 0.44975877 0.83616933 0 0 0
-0.00976740 0.46761976 0.83580396 0 0 0
0.01031966 -0.58927861 0.88600192 0 0 0
0.01032329 -0.57033620 0.88631277 0 0 0
0.01032794 -0.54990266 0.88671232 0 0 0
0.01033403 -0.52952512 0.88723622 0 0 0
0.01034091 -0.50992809 0.88782638 0 0 0
0.01034966 -0.49038898 0.88856956 0 0 0
0.01039991 -0.47111056 0.89281284 74 77 79
0.01042521 -0.45066306 0.89507506 110 115 117
0.01042536 -0.43055712 0.89508759 109 113 116
0.01042547 -0.41044969 0.89509747 106 113 115
0.01042523 -0.39032900 0.89507855 105 110 113
0.01042497 -0.37020632 0.89505193 105 108 114
0.01042335 -0.35002054 0.89485978 116 104 107
0.01040516 -0.33013636 0.89336367 123 111 111
0.01039967 -0.31067096 0.89290126 104 103 106
0.01039851 -0.29057460 0.89279862 202 202 203
0.01039755 -0.27048707 0.89270977 134 133 136
0.01039635 -0.25039923 0.89260611 58 58 65
0.01039521 -0.23031714 0.89250654 197 197 200
0.01039451 -0.21024818 0.89244360 139 139 145
0.01039376 -0.19018196 0.89238032 58 58 67
0.01039297 -0.17011759 0.89231179 198 198 205
0.01039226 -0.15005742 0.89224964 137 137 144
0.01039156 -0.13000045 0.89219091 55 55 64
0.01039106 -0.10994816 0.89214854 198 199 208
0.01039058 -0.08989782 0.89210604 126 126 134
0.01039010 -0.06984957 0.89206622 67 67 76
0.01038942 -0.04980225 0.89200907 201 201 208
0.01038374 -0.02974546 0.89151723 166 163 167
0.01034996 -0.00968575 0.88861594 148 147 151
0.01030978 0.01024121 0.88516307 137 138 145
0.01027073 0.03001640 0.88181201 187 184 186
0.01023104 0.05039770 0.87840245 199 196 197
0.01024999 0.04060933 0.88003018 198 195 195
0.01019354 0.06987579 0.87518008 201 198 198
0.01015472 0.08995408 0.87184753 200 197 196
0.01011626 0.10987883 0.86854494 203 198 197
0.01007735 0.13039207 0.86520219 200 196 194
0.01004033 0.15002873 0.86202710 183 178 177
0.01000029 0.17095084 0.85859719 168 165 166
0.01001957 0.16087647 0.86024944 175 169 169
0.00996449 0.18956039 0.85552436 171 167 167
0.00992610 0.20945089 0.85222308 166 162 161
0.00988659 0.22988773 0.84882312 160 156 153
0.00984768 0.25017369 0.84548290 163 161 158
0.01021038 0.27050168 0.84217583 162 158 156
0.01033844 0.29192547 0.83876733 144 141 140
0.01128310 0.28237110 0.84026967 147 145 143
0.01045949 0.31021683 0.83598281 140 139 137
0.01042592 0.33010579 0.83329548 146 146 147
0.01041498 0.34990233 0.83240226 60 59 60
0.01043880 0.37018453 0.83434258 0 0 0
0.01045006 0.39006890 0.83523423 0 0 0
0.01045884 0.40990057 0.83593409 0 0 0
0.01046261 0.42955877 0.83623332 0 0 0
0.01046183 0.44975878 0.83616934 0 0 0
0.01045728 0.46762153 0.83580714 0 0 0
0.03022826 -0.58929156 0.88602138 0 0 0
0.03023884 -0.57034811 0.88633126 0 0 0
0.03025232 -0.54991155 0.88672663 0 0 0
0.03026993 -0.52952935 0.88724330 0 0 0
0.03029002 -0.50993137 0.88783206 0 0 0
0.03031681 -0.49041565 0.88861826 0 0 0
0.03047486 -0.47132409 0.89321355 83 87 89
0.03053565 -0.45064258 0.89503434 112 116 119
0.03053596 -0.43053581 0.89504325 110 115 118
0.03053606 -0.41042650 0.89504689 108 114 117
0.03053512 -0.39030318 0.89501930 109 112 115
0.03053533 -0.37019447 0.89502366 106 110 115
0.03053387 -0.35006694 0.89498078 107 109 115
0.03047945 -0.33014673 0.89338736 172 166 168
0.03045636 -0.31060598 0.89271480 192 193 194
0.03045450 -0.29052935 0.89265984 79 81 85
0.03045206 -0.27045061 0.89258950 140 140 146
0.03044891 -0.25036836 0.89249616 195 195 198
0.03044607 -0.23029285 0.89241250 69 70 77
0.03044413 -0.21022731 0.89235506 130 130 137
0.03044212 -0.19016386 0.89229544 199 199 204
0.03043997 -0.17010244 0.89223237 72 72 81
0.03043790 -0.15004424 0.89217127 131 131 140
0.03043606 -0.12998968 0.89211703 199 200 208
0.03043465 -0.10993919 0.89207572 60 60 69
0.03043316 -0.08989035 0.89203194 136 136 144
0.03043150 -0.06984311 0.89198365 198 198 206
0.03042957 -0.04979771 0.89192777 60 61 70
0.03041334 -0.02974324 0.89145246 109 107 112
0.03031468 -0.00968508 0.88855912 154 153 157
0.03019748 0.01024074 0.88512273 184 183 185
0.03008303 0.03001485 0.88176671 197 196 196
0.03007099 0.04975113 0.87847631 199 198 198
0.02165734 0.04060807 0.88000289 202 198 197
0.02985794 0.06987485 0.87516818 201 199 198
0.02974418 0.08995267 0.87183414 189 186 186
0.02963131 0.10987661 0.86852744 160 158 159
0.03000862 0.13055886 0.86514018 159 158 159
0.03015245 0.15001856 0.86196887 175 170 169
0.03003250 0.17093937 0.85853954 168 165 164
0.03009021 0.16086528 0.86018958 168 164 165
0.02992554 0.18955055 0.85547991 159 156 156
0.02981115 0.20944707 0.85220728 160 157 155
0.02969312 0.22989088 0.84883488 153 152 151
0.02957544 0.25017073 0.84547349 157 156 154
0.02983627 0.27011582 0.84222780 148 145 145
0.03006320 0.29165806 0.83870210 165 164 162
0.03011840 0.28203293 0.84024531 149 150 151
0.02996572 0.31021387 0.83597445 154 152 149
0.03054413 0.33017727 0.83335418 164 163 159
0.03056379 0.34997563 0.83257677 62 61 59
0.03025097 0.36998485 0.83428252 0 0 0
0.02993801 0.39005446 0.83520323 0 0 0
0.02996352 0.40989090 0.83591436 0 0 0
0.02997451 0.42955249 0.83622106 0 0 0
0.02997255 0.44975695 0.83616592 0 0 0
0.02995930 0.46761561 0.83579659 0 0 0
0.05013666 -0.58929165 0.88602154 0 0 0
0.05015411 -0.57034740 0.88633015 0 0 0
0.05017632 -0.54990926 0.88672295 0 0 0
0.05020497 -0.52952115 0.88722951 0 0 0
0.05023796 -0.50992031 0.88781275 0 0 0
0.05028174 -0.49039790 0.88858614 0 0 0
0.05057024 -0.47156499 0.89366483 93 99 99
0.05064349 -0.45061517 0.89497996 112 117 119
0.05064426 -0.43051189 0.89499349 110 117 119
0.05064400 -0.41040005 0.89498920 112 115 119
0.05064244 -0.39027796 0.89496147 109 114 118
0.05064382 -0.37017867 0.89498566 108 111 117
0.05064238 -0.35005871 0.89495978 109 110 117
0.05054554 -0.33009743 0.89325322 139 138 140
0.05050672 -0.31055415 0.89256589 147 148 152
0.05050466 -0.29048683 0.89252913 130 130 135
0.05050053 -0.27041005 0.89245570 138 139 144
0.05049612 -0.25033510 0.89237761 141 142 148
0.05049188 -0.23026442 0.89230239 129 130 137
0.05048899 -0.21020281 0.89225114 132 132 140
0.05048611 -0.19014351 0.89219998 133 134 140
0.05048302 -0.17008583 0.89214524 138 137 143
0.05047959 -0.15002965 0.89208454 133 133 141
0.05047654 -0.12997711 0.89203077 128 128 136
0.05047492 -0.10993006 0.89200175 133 133 140
0.05047258 -0.08988314 0.89196018 134 134 143
0.05046923 -0.06983668 0.89190120 133 132 141
0.05046571 -0.04979279 0.89183897 139 138 146
0.05043652 -0.02973902 0.89132495 145 143 148
0.05027564 -0.00968415 0.88847980 183 182 182
0.05008294 0.01024023 0.88507310 195 194 194
0.04989432 0.03001396 0.88173926 197 196 196
0.04971002 0.04964225 0.87848252 181 178 180
0.04957774 0.06992503 0.87512536 153 151 154
0.05008387 0.08994672 0.87177662 135 134 137
0.04989353 0.10986851 0.86846350 135 134 138
0.05016993 0.13020225 0.86513745 147 145 148
0.05026242 0.15000967 0.86191772 162 158 159
0.05006323 0.17093185 0.85850167 164 161 162
0.05015907 0.16085699 0.86014526 159 156 158
0.04988587 0.18954638 0.85546086 159 157 156
0.05007642 0.20963284 0.85218593 161 158 158
0.05023299 0.22989000 0.84883167 160 158 156
0.05003523 0.25017466 0.84548701 153 150 149
0.04984132 0.27031208 0.84221078 149 146 145
0.04963680 0.29167627 0.83875426 153 149 146
0.04972426 0.28202903 0.84023368 166 162 160
0.04947411 0.31022651 0.83600828 151 149 147
0.04999012 0.33013029 0.83348573 150 147 142
0.05000254 0.35005684 0.83277078 58 57 56
0.04969026 0.37032232 0.83426531 0 0 0
0.04942517 0.39004481 0.83518252 0 0 0
0.04946726 0.40988092 0.83589403 0 0 0
0.04948527 0.42954088 0.83619844 0 0 0
0.04948242 0.44974853 0.83615029 0 0 0
0.04945989 0.46760065 0.83576988 0 0 0
0.07004385 -0.58928158 0.88600638 0 0 0
0.07006800 -0.57033574 0.88631202 0 0 0
0.07009873 -0.54989559 0.88670088 0 0 0
0.07013795 -0.52950186 0.88719717 0 0 0
0.07018417 -0.50990253 0.88778176 0 0 0
0.07061548 -0.48966159 0.88873941 4 5 4
0.06960997 -0.47128750 0.89437458 108 114 114
0.06997582 -0.45058969 0.89492949 113 120 121
0.06997735 -0.43049048 0.89494893 112 118 121
0.06997627 -0.41037535 0.89493536 112 117 120
0.06997458 -0.39025705 0.89491353 111 115 119
0.06997643 -0.37015864 0.89493721 110 114 117
0.06997402 -0.35003784 0.89490639 109 112 118
0.07047322 -0.32989059 0.89296675 79 78 81
0.07055215 -0.31050999 0.89243899 80 79 88
0.07054920 -0.29044523 0.89240137 201 202 205
0.07054474 -0.27037622 0.89234410 128 129 132
0.07053882 -0.25030470 0.89226924 74 74 83
0.07053321 -0.23023745 0.89219797 201 201 207
0.07052975 -0.21017996 0.89215417 131 132 137
0.07052624 -0.19012428 0.89210980 66 65 74
0.07052187 -0.17006848 0.89205429 201 201 208
0.07051732 -0.15001490 0.89199685 134 134 141
0.07051336 -0.12996482 0.89194658 67 66 76
0.07051121 -0.10991990 0.89191936 196 196 204
0.07050867 -0.08987577 0.89188723 131 130 139
0.07050453 -0.06983144 0.89183447 80 80 91
0.07049941 -0.04978891 0.89176950 201 201 209
0.07045774 -0.02973632 0.89124192 189 188 191
0.07023546 -0.00968346 0.88842987 192 191 193
0.06996864 0.01024003 0.88505468 182 181 182
0.06970453 0.03001308 0.88171483 153 152 157
0.06968765 0.04979529 0.87839790 136 136 142
0.06998571 0.06981660 0.87507029 134 134 140
0.07042053 0.08994022 0.87171333 135 135 139
0.07015427 0.10986266 0.86841711 138 137 139
0.06988461 0.13037343 0.86507877 153 151 152
0.06986643 0.15015675 0.86187244 169 166 165
0.07009440 0.17092976 0.85849115 170 164 164
0.07022825 0.16085423 0.86013050 168 164 164
0.06984515 0.18954165 0.85543937 161 157 157
0.06993799 0.20926345 0.85223629 168 163 161
0.07003809 0.22988651 0.84881837 141 139 140
0.07014051 0.25035952 0.84547143 148 146 144
0.07021411 0.27028653 0.84213263 159 156 152
0.06993301 0.29167735 0.83875763 162 158 155
0.07005290 0.28201646 0.84019622 167 164 160
0.06970506 0.31023243 0.83602339 150 146 141
0.06950217 0.33022250 0.83358892 136 134 134
0.06944729 0.35012367 0.83293056 48 47 45
0.06955705 0.37014304 0.83424886 0 0 0
0.06963568 0.39004902 0.83519156 0 0 0
0.06969365 0.40987774 0.83588764 0 0 0
0.06971774 0.42952996 0.83617719 0 0 0
0.06971373 0.44973712 0.83612911 0 0 0
0.06968093 0.46758169 0.83573603 0 0 0
0.08994951 -0.58926596 0.88598289 0 0 0
0.08997969 -0.57031529 0.88628021 0 0 0
0.09001840 -0.54987124 0.88666159 0 0 0
0.09006812 -0.52947458 0.88715146 0 0 0
0.09012680 -0.50987255 0.88772956 0 0 0
0.09019603 -0.48937500 0.88934567 16 18 18
0.08929750 -0.47062702 0.89479479 116 122 122
0.08930655 -0.45056733 0.89488514 116 120 122
0.08930852 -0.43046926 0.89490478 113 120 121
0.08930671 -0.41035305 0.89488672 115 117 120
0.08930514 -0.39023845 0.89487091 112 116 119
0.08930703 -0.37013912 0.89488994 110 115 120
0.08930402 -0.35001975 0.89485995 111 116 121
0.09032217 -0.32989462 0.89280054 178 177 180
0.09059016 -0.31045972 0.89229464 178 179 183
0.09058893 -0.29040638 0.89228215 73 73 80
0.09058492 -0.27034553 0.89224293 150 150 157
0.09057728 -0.25027621 0.89216769 197 197 202
0.09057087 -0.23021335 0.89210464 63 63 72
0.09056648 -0.21015807 0.89206130 140 139 146
0.09056222 -0.19010497 0.89201925 201 201 205
0.09055678 -0.17005159 0.89196569 60 59 67
0.09055096 -0.14999996 0.89190819 135 135 143
0.09054664 -0.12995300 0.89186547 199 199 205
0.09054425 -0.10991035 0.89184186 54 53 63
0.09054175 -0.08986865 0.89181706 140 139 148
0.09053810 -0.06982723 0.89178075 198 198 205
0.09053178 -0.04978605 0.89171858 64 63 74
0.09048153 -0.02973557 0.89122328 128 126 130
0.09019835 -0.00968354 0.88843394 153 152 157
0.08985289 0.01023970 0.88503171 138 137 145
0.08957152 0.03006430 0.88164364 139 139 144
0.09015651 0.04948204 0.87836438 134 134 140
0.09034518 0.06986015 0.87498444 132 133 138
0.09000231 0.08993514 0.87166362 134 132 136
0.08971944 0.10990982 0.86836887 131 129 133
0.09006690 0.13036892 0.86504871 144 142 143
0.08995773 0.14985821 0.86191228 149 147 147
0.09012604 0.17092959 0.85849038 150 147 147
0.09029771 0.16085329 0.86012550 143 138 137
0.08991435 0.18963020 0.85540436 159 156 157
0.09020259 0.20944685 0.85220564 145 144 145
0.08984413 0.22988634 0.84881790 140 138 139
0.08984615 0.24999457 0.84551845 136 135 137
0.09012222 0.27048037 0.84216808 145 143 144
0.09022690 0.29167188 0.83874124 156 156 154
0.09038889 0.28203314 0.84024596 149 148 149
0.08994482 0.31026606 0.83611383 138 134 131
0.08968327 0.33025964 0.83368240 162 161 161
0.08961721 0.35018090 0.83306696 43 43 42
0.08975231 0.37017638 0.83432388 0 0 0
0.08985341 0.39008271 0.83526384 0 0 0
0.08992388 0.40989345 0.83591984 0 0 0
0.08995142 0.42952959 0.83617655 0 0 0
0.08994459 0.44972869 0.83611348 0 0 0
0.08990092 0.46756593 0.83570790 0 0 0
0.10985299 -0.58924411 0.88595004 0 0 0
0.10988875 -0.57028861 0.88623871 0 0 0
0.10988406 -0.54989482 0.88661083 0 0 0
0.11004935 -0.52950561 0.88709773 0 0 0
0.11006608 -0.50983783 0.88766899 0 0 0
0.11004083 -0.48965089 0.88991451 30 32 32
0.10940230 -0.47062338 0.89478746 116 123 124
0.10940855 -0.45054427 0.89483935 116 121 123
0.10941069 -0.43044630 0.89485702 114 121 122
0.10940822 -0.41033020 0.89483692 114 119 121
0.10940731 -0.39022026 0.89482924 111 117 120
0.10941004 -0.37012328 0.89485160 111 115 120
0.10940530 -0.35000147 0.89481292 112 115 120
0.11029972 -0.32988140 0.89267053 145 144 147
0.11062573 -0.31042096 0.89218330 144 145 150
0.11062494 -0.29037217 0.89217691 128 128 134
0.11061931 -0.27031176 0.89213149 136 138 143
0.11061093 -0.25024711 0.89206395 140 141 146
0.11060367 -0.23018770 0.89200522 136 136 141
0.11059817 -0.21013442 0.89196088 134 134 140
0.11059309 -0.19008383 0.89191997 130 130 136
0.11058670 -0.17003305 0.89186849 138 139 145
0.11058083 -0.14998525 0.89182085 132 132 139
0.11057702 -0.12994200 0.89178996 122 122 132
0.11057481 -0.10990175 0.89177204 141 141 149
0.11057175 -0.08986162 0.89174738 132 131 140
0.11056856 -0.06982258 0.89172166 126 126 136
0.11056175 -0.04978316 0.89166654 153 152 160
0.11050089 -0.02973396 0.89117584 143 142 147
0.11015280 -0.00968289 0.88836893 141 140 145
0.10972947 0.01023882 0.88495468 133 133 140
0.10978723 0.03013847 0.88156165 136 136 142
0.11041936 0.04963047 0.87827550 139 138 143
0.10999803 0.06985536 0.87492418 135 135 139
0.10976350 0.09005962 0.87159734 134 133 137
0.10997195 0.10980424 0.86835013 129 128 132
0.11024732 0.13036379 0.86501465 157 155 157
0.10984651 0.15000143 0.86186958 160 157 158
0.10995961 0.17060712 0.85854342 154 152 153
0.11118996 0.16063742 0.86016358 143 141 144
0.10986515 0.18945006 0.85543847 170 167 165
0.11008404 0.20943895 0.85217411 167 164 163
0.11014965 0.23006234 0.84880652 142 139 141
0.10994718 0.25016594 0.84545919 154 152 151
0.10976332 0.26982570 0.84221976 156 152 151
0.11020037 0.29221212 0.83869014 159 156 151
0.11033449 0.28217426 0.84034258 139 138 139
0.11019489 0.31031585 0.83624824 133 131 130
0.10987180 0.33030502 0.83379688 164 160 155
0.10979775 0.35025142 0.83323470 37 36 36
0.10995999 0.37023925 0.83446552 0 0 0
0.11008249 0.39014419 0.83539571 0 0 0
0.11016022 0.40992612 0.83598672 0 0 0
0.11018765 0.42953933 0.83619564 0 0 0
0.11017532 0.44972284 0.83610270 0 0 0
0.11011892 0.46754752 0.83567505 0 0 0
0.12975324 -0.58921452 0.88590553 0 0 0
0.12979424 -0.57025443 0.88618558 0 0 0
0.12984529 -0.55055858 0.88653424 0 0 0
0.12991581 -0.53016003 0.88701583 0 0 0
0.13000309 -0.50980485 0.88761168 0 0 0
0.12992616 -0.48997954 0.89057708 45 47 47
0.12950666 -0.47062007 0.89478092 116 123 122
0.12950958 -0.45052515 0.89480136 116 121 123
0.12951142 -0.43042566 0.89481410 116 120 122
0.12950828 -0.41030974 0.89479233 112 118 120
0.12950850 -0.39020479 0.89479382 112 115 118
0.12951251 -0.37011075 0.89482134 111 115 118
0.12950623 -0.34998773 0.89477768 111 115 117
0.13035085 -0.32986408 0.89262364 96 96 98
0.13066011 -0.31039117 0.89209752 102 102 107
0.13065867 -0.29034311 0.89208767 200 200 204
0.13065110 -0.27028294 0.89203630 111 111 117
0.13064078 -0.25021953 0.89196573 82 82 89
0.13063201 -0.23016206 0.89190584 202 203 207
0.13062534 -0.21011074 0.89186027 123 124 129
0.13061903 -0.19006194 0.89181724 76 75 84
0.13061099 -0.17001277 0.89176235 197 197 203
0.13060731 -0.14997113 0.89173697 124 124 131
0.13060489 -0.12993182 0.89172024 76 76 86
0.13060126 -0.10989232 0.89169565 190 190 197
0.13059799 -0.08985420 0.89167346 122 122 130
0.13059448 -0.06981691 0.89164961 91 91 99
0.13058517 -0.04977867 0.89158612 190 189 197
0.13051269 -0.02973117 0.89109114 154 153 157
0.13009935 -0.00968179 0.88826929 140 139 145
0.12960269 0.01023799 0.88487799 134 133 141
0.13268661 0.03908569 0.87997199 141 137 140
0.13006718 0.02931441 0.88164289 138 138 143
0.13014438 0.04962690 0.87821248 142 140 144
0.12970558 0.06990408 0.87486163 142 141 144
0.13008327 0.08980358 0.87161086 131 131 136
0.13017878 0.10984998 0.86831668 124 124 128
0.12984553 0.13048933 0.86496348 150 148 150
0.12995269 0.14999638 0.86184068 163 161 160
0.13037826 0.17063514 0.85851800 145 144 147
0.12824341 0.16069605 0.86014873 137 135 136
0.12999898 0.18971334 0.85541089 153 149 148
0.12998318 0.20946343 0.85227305 142 140 140
0.12994588 0.22972602 0.84890386 154 152 149
0.13016371 0.25035253 0.84550619 140 138 138
0.12979245 0.27017216 0.84223509 159 156 154
0.12965929 0.29189216 0.83891292 151 147 143
0.13119871 0.28222569 0.84029379 166 163 157
0.13014564 0.31011451 0.83644853 145 142 140
0.13025219 0.32996794 0.83401728 144 140 138
0.12981627 0.35007558 0.83339977 32 32 31
0.13035579 0.37005456 0.83465767 0 0 0
0.13032349 0.39022227 0.83556325 0 0 0
0.13040152 0.40996428 0.83606487 0 0 0
0.13042467 0.42954875 0.83621412 0 0 0
0.13040434 0.44971285 0.83608425 0 0 0
0.13033277 0.46751991 0.83562579 0 0 0
0.14964890 -0.58917475 0.88584572 0 0 0
0.14969403 -0.57020769 0.88611291 0 0 0
0.14975152 -0.55050830 0.88645326 0 0 0
0.14983213 -0.53010907 0.88693053 0 0 0
0.14993156 -0.50975175 0.88751936 0 0 0
0.14984570 -0.49032721 0.89126947 61 64 64
0.14960641 -0.47060277 0.89474805 115 124 124
0.14960910 -0.45050647 0.89476422 115 122 122
0.14961013 -0.43040468 0.89477047 115 119 120
0.14960722 -0.41029173 0.89475307 112 118 120
0.14960806 -0.39018915 0.89475801 111 115 118
0.14961501 -0.37010166 0.89479946 110 114 117
0.14961087 -0.34998647 0.89477475 110 115 119
0.15044489 -0.32984576 0.89248344 183 184 186
0.15069765 -0.31037594 0.89205348 168 169 172
0.15069788 -0.29033236 0.89205461 75 75 79
0.15068310 -0.27026218 0.89196769 160 160 164
0.15066962 -0.25019775 0.89188808 184 185 187
0.15066147 -0.23014503 0.89183980 65 65 72
0.15065215 -0.21009295 0.89178484 148 148 155
0.15064279 -0.19004327 0.89172950 191 191 195
0.15063596 -0.16999871 0.89168886 53 54 61
0.15063182 -0.14995895 0.89166455 139 140 147
0.15062951 -0.12992171 0.89165071 190 191 198
0.15062574 -0.10988397 0.89162822 51 49 59
0.15061836 -0.08984534 0.89158486 139 139 146
0.15061130 -0.06980858 0.89154304 189 189 195
0.15061023 -0.04977566 0.89153537 52 51 58
0.15052488 -0.02972945 0.89103064 103 101 106
0.15003890 -0.00968048 0.88815495 148 145 149
0.14965417 0.01037011 0.88477350 138 137 143
0.15016815 0.03908323 0.87991662 150 146 149
0.15038695 0.02919465 0.88159745 144 143 147
0.14986773 0.04962374 0.87815622 148 147 150
0.14989731 0.06995306 0.87480640 135 135 138
0.15024684 0.08992353 0.87155068 125 125 130
0.14985039 0.10997708 0.86826404 127 127 132
0.15001328 0.13023153 0.86498433 150 149 151
0.15005908 0.14999282 0.86182022 160 159 158
0.15000963 0.17034308 0.85852153 159 157 157
0.14977648 0.16012343 0.86019730 156 155 155
0.14994044 0.18937007 0.85545017 161 159 158
0.15002771 0.20958213 0.85222197 154 152 150
0.15000463 0.22989988 0.84886849 150 148 146
0.14987587 0.25001883 0.84555444 141 140 140
0.15021452 0.26972646 0.84236969 156 154 153
0.14971970 0.29256349 0.83894346 138 138 138
0.14992687 0.28223968 0.84048942 121 120 122
0.15005369 0.30974049 0.83657172 124 124 125
0.15029525 0.32974040 0.83419299 126 127 127
0.15017682 0.34965725 0.83353528 31 32 32
0.15041680 0.36969554 0.83486582 0 0 0
0.15037678 0.39014972 0.83573054 0 0 0
0.14992344 0.41000103 0.83614014 0 0 0
0.14993917 0.42955605 0.83622850 0 0 0
0.15007181 0.44982536 0.83605397 0 0 0
0.15054211 0.46748571 0.83556476 0 0 0
0.16953740 -0.58911937 0.88576245 0 0 0
0.16958731 -0.57015007 0.88602334 0 0 0
0.16965124 -0.55044879 0.88635742 0 0 0
0.16974222 -0.53005059 0.88683269 0 0 0
0.16985010 -0.50968119 0.88739639 0 0 0
0.16981834 -0.49073821 0.89207362 77 82 82
0.16970773 -0.47059412 0.89473142 116 123 125
0.16970853 -0.45049210 0.89473565 115 122 122
0.16970794 -0.43038649 0.89473263 114 119 121
0.16970502 -0.41027527 0.89471720 112 118 119
0.16970709 -0.39017613 0.89472817 111 114 118
0.16971582 -0.37009117 0.89477415 110 112 116
0.16971424 -0.34998275 0.89476547 112 114 118
0.17012637 -0.32983691 0.89282259 171 170 171
0.17002161 -0.31020627 0.89248252 153 152 154
0.17005514 -0.29021201 0.89247639 84 81 82
0.17004506 -0.27014200 0.89242155 145 142 147
0.17005030 -0.25009637 0.89244622 153 152 154
0.16996705 -0.23020301 0.89253191 84 81 85
0.17007328 -0.21027582 0.89256110 131 129 135
0.17006889 -0.19021512 0.89253668 148 144 148
0.17007254 -0.17016353 0.89255419 79 75 79
0.17010339 -0.15013507 0.89271367 118 116 122
0.17011614 -0.13008615 0.89278003 129 128 132
0.17011712 -0.11002658 0.89278506 68 64 66
0.17010388 -0.08995936 0.89271586 103 98 102
0.17008512 -0.06989289 0.89261869 118 114 118
0.17006217 -0.04983035 0.89250593 74 67 70
0.17041163 -0.02959782 0.89119939 123 118 119
0.16996779 -0.00967887 0.88801159 147 146 148
0.16986234 0.01028915 0.88467681 143 142 145
0.16992541 0.03908001 0.87984431 137 138 141
0.17024555 0.02924497 0.88150219 146 145 148
0.16970739 0.04971661 0.87807300 150 148 150
0.17023374 0.06968222 0.87479186 137 136 141
0.16981965 0.08991803 0.87149706 134 134 138
0.17004025 0.10976463 0.86825851 129 128 134
0.17003688 0.13035251 0.86493954 143 141 145
0.16999771 0.15011043 0.86177842 160 157 156
0.17002545 0.17004539 0.85855603 152 149 149
0.16984329 0.16011901 0.86017355 157 155 155
0.17001769 0.18971876 0.85537343 158 155 155
0.16989338 0.20932330 0.85221467 160 158 157
0.17010307 0.23007681 0.84879395 154 151 151
0.16986751 0.25017677 0.84549382 146 143 143
0.17003234 0.26968733 0.84241969 152 147 145
0.16987645 0.29254486 0.83888943 157 154 149
0.17061313 0.28223580 0.84047805 152 151 149
0.16971193 0.30955477 0.83654850 148 145 143
0.17034894 0.32987385 0.83421295 156 156 154
0.17036848 0.34970258 0.83364232 42 42 41
0.17005511 0.36970594 0.83510220 0 0 0
0.16988876 0.39053176 0.83589405 0 0 0
0.16944841 0.41003659 0.83621293 0 0 0
0.16945423 0.42956299 0.83624221 0 0 0
0.16955651 0.44955850 0.83602721 0 0 0
0.17002594 0.46745005 0.83550111 0 0 0
0.18941708 -0.58904825 0.88565553 0 0 0
0.18947373 -0.57008379 0.88592037 0 0 0
0.18954558 -0.55038601 0.88625632 0 0 0
0.18964720 -0.52999009 0.88673144 0 0 0
0.18977599 -0.50964460 0.88733306 0 0 0
0.18986275 -0.49124763 0.89304909 93 101 100
0.18980754 -0.47058344 0.89471106 115 122 123
0.18980829 -0.45048150 0.89471455 115 121 122
0.18980573 -0.43037205 0.89470257 112 119 120
0.18980217 -0.41026085 0.89468576 112 117 119
0.18980310 -0.39015961 0.89469022 110 113 115
0.18981434 -0.37007833 0.89474323 109 111 117
0.18981427 -0.34997384 0.89474273 109 109 115
0.18979073 -0.32982891 0.89463151 107 110 113
0.18975329 -0.30966533 0.89445424 105 107 112
0.18974495 -0.28955443 0.89441444 103 104 110
0.18974163 -0.26945288 0.89439899 102 103 110
0.18973118 -0.24934243 0.89434995 98 98 105
0.18972743 -0.23001539 0.89433255 92 93 100
0.18972694 -0.21069245 0.89433013 90 90 94
0.18973387 -0.19060431 0.89436311 86 86 91
0.18974147 -0.17051553 0.89439972 80 81 87
0.18973758 -0.15041591 0.89438161 78 78 83
0.18973003 -0.13031435 0.89434567 56 55 58
0.18972936 -0.11021856 0.89434262 51 50 51
0.18971214 -0.09011512 0.89426176 49 47 50
0.18969579 -0.07001553 0.89418379 49 47 49
0.18958534 -0.04989670 0.89366338 74 71 73
0.19019425 -0.02971153 0.89122139 128 124 125
0.18988863 -0.00967718 0.88786064 140 140 143
0.19006170 0.01020782 0.88455818 153 152 153
0.19137237 0.03859894 0.87982697 159 158 158
0.18982822 0.02890848 0.88145012 149 148 148
0.18988567 0.04969292 0.87799598 143 142 145
0.19009784 0.06983759 0.87470033 141 141 145
0.18985946 0.09007954 0.87141222 135 135 137
0.19012955 0.10978265 0.86820586 122 122 125
0.18989775 0.13053171 0.86487543 153 152 154
0.19008573 0.14985490 0.86177487 171 168 168
0.19000658 0.17034992 0.85846670 162 160 160
0.18990107 0.16010789 0.86011382 175 173 172
