ply
format ascii 1.0
element vertex 1060
property float x
property float y
property float z
property uchar red
property uchar green
property uchar blue
end_header
-0.21750534 0.10321642 1.46731210 134 134 137
-0.20530850 0.15599225 0.61002002 125 127 127
-0.20402868 0.16285780 0.60570705 119 119 120
-0.19267488 0.05426786 0.52647622 149 149 145
-0.19377666 0.06104576 0.52953183 132 131 135
-0.19302523 0.07952985 1.45160623 134 132 136
-0.18502847 0.09201087 1.43855717 123 121 128
-0.19338366 0.08815263 1.44723358 121 120 126
-0.19898824 0.15476242 0.60730226 133 137 136
-0.18533485 0.15893102 0.92230183 136 143 142
-0.19870216 0.16182132 0.60241995 137 137 136
-0.18199986 0.17120010 0.91654119 119 121 127
-0.18638755 0.17011585 0.92700892 123 125 130
-0.19298673 0.17901269 0.94413906 123 123 130
-0.19271831 0.18039331 0.94282591 122 125 131
-0.16272025 0.09688344 0.59674065 120 121 128
-0.16299260 0.10128602 0.59736762 125 131 134
-0.16045702 0.15979379 0.68129832 156 157 155
-0.17553815 0.15939347 0.91278776 117 120 126
-0.16871767 0.15980068 0.92734861 123 123 127
-0.16264826 0.16443113 0.68484472 118 119 125
-0.16579268 0.17035277 0.89846539 131 130 137
-0.17238845 0.16873734 0.90921190 119 121 127
-0.16978815 0.16193744 0.92735902 137 138 140
-0.15576782 0.09723003 0.59505972 118 122 128
-0.15492784 0.10654349 0.59723736 119 121 124
-0.15788084 0.11198621 0.60090174 123 126 130
-0.14791896 0.15646174 0.49772280 119 122 126
-0.14540193 0.15768781 0.50138148 103 105 110
-0.15276595 0.15769413 0.67831171 138 139 142
-0.15595112 0.15793866 0.68155692 146 148 147
-0.14887661 0.16918351 0.49102370 135 139 140
-0.14436278 0.16085329 0.50192996 99 105 110
-0.14983440 0.17161399 0.65350412 149 150 150
-0.15086472 0.16694216 0.67189979 127 129 130
-0.15901217 0.16289206 0.68159346 135 138 139
-0.14749159 0.18286140 0.49418510 195 197 189
-0.12092439 -0.19098558 0.72974764 107 114 130
-0.11324245 -0.19322524 0.72887393 101 112 129
-0.10076145 -0.16432075 1.31121840 153 126 110
-0.10414223 -0.15813839 1.31311843 152 125 111
-0.10210966 -0.15381980 1.32725391 163 140 123
-0.10011884 0.09964202 0.48980623 179 179 175
-0.10087785 0.10638962 0.49151526 133 134 136
-0.08765769 -0.28810720 0.69906403 112 123 130
-0.08611665 -0.28462405 0.70219335 110 121 132
-0.08468714 -0.27804431 0.70291043 110 120 130
-0.09337886 -0.16549679 1.30933564 154 129 112
-0.08515752 -0.16579361 1.33118644 154 130 110
-0.08396712 -0.17240587 1.34502959 156 133 113
-0.09220438 -0.15083055 1.31210224 162 136 121
-0.09055208 -0.15296282 1.32401141 162 137 121
-0.09159872 -0.13946867 1.31629479 162 135 124
-0.08594903 0.09542311 0.47924492 130 130 131
-0.09168186 0.09845288 0.48618785 138 139 141
-0.09394694 0.10659988 0.48911078 132 133 136
-0.07682489 -0.28513344 0.70527121 109 120 129
-0.07808143 -0.27813412 0.70400724 110 118 128
-0.07582019 -0.16025582 1.31885576 150 125 106
-0.07612697 -0.16753738 1.33345056 153 129 110
-0.07339785 -0.15653199 1.31629479 157 131 114
-0.06612633 0.33252513 0.82788695 191 192 184
-0.06679309 0.34693436 0.83208085 160 160 155
-0.06921797 0.35828988 0.84140688 130 131 121
-0.07086064 0.36368811 0.84948850 0 0 0
-0.05168688 0.31885982 0.82468593 158 158 158
-0.05294534 0.32901048 0.82817009 165 164 161
-0.05714501 0.32777634 0.84210297 176 176 172
-0.05464287 0.34789603 0.82720525 102 101 102
-0.02606640 -0.12100456 0.57794051 162 138 121
-0.02519500 -0.11241751 0.57821291 161 138 124
-0.02346805 -0.08571209 0.54671544 160 135 121
-0.02326542 -0.06236666 0.53879411 162 137 122
-0.02361645 -0.07362373 0.54446437 161 136 121
-0.02537675 -0.04850887 0.53747050 159 134 117
-0.02933670 -0.04943558 0.54064135 158 133 115
-0.02409868 -0.03079125 0.53090836 160 136 120
-0.02529466 -0.01752007 0.52506307 160 135 118
-0.02034198 0.12325903 0.47851290 195 195 189
-0.02460551 0.30931536 0.79714758 147 146 143
-0.02902845 0.31592976 0.80850149 143 142 140
-0.02567596 0.32233750 0.81323464 150 150 148
-0.03867009 0.32015270 0.82069230 148 147 146
-0.01576402 -0.10925050 0.57812999 109 109 121
-0.01432667 -0.08423208 0.54717241 162 114 118
-0.00671066 -0.06714138 0.50999734 142 111 108
-0.01443205 -0.07972158 0.54712820 176 123 126
-0.00368202 -0.04000822 0.49992025 157 134 133
-0.00379565 -0.05245358 0.50499932 145 125 116
-0.01477769 -0.04746344 0.53613518 162 123 120
-0.00367931 -0.03911530 0.49955183 160 138 134
-0.01582298 -0.03240056 0.53158877 152 118 116
-0.01028184 0.12891648 0.47032552 173 171 168
-0.00104733 0.12596862 0.48043361 176 176 172
-0.00317601 0.17395194 0.59074865 149 148 146
-0.00442626 0.16899842 0.60096794 160 156 155
-0.00412275 0.24477045 0.69838793 152 153 150
-0.00342395 0.24287221 0.70346201 143 142 139
-0.01583947 0.31760467 0.80852923 162 161 156
-0.01616995 0.32343497 0.81340980 165 165 162
-0.01881108 0.32866371 0.82069230 173 173 171
0.00065442 -0.06227642 0.51251930 141 118 112
0.01833491 -0.04596058 0.45453418 150 131 125
0.01837912 -0.02210711 0.64712923 167 150 143
0.01714836 -0.01750989 0.64596352 170 154 143
0.00577040 0.13329965 0.47068567 156 155 154
0.00795172 0.14019188 0.47239849 157 153 152
0.01848732 0.15443872 0.55748446 147 149 150
0.01679732 0.15502445 0.56105356 143 143 144
0.01908212 0.16066922 0.55931669 135 133 142
0.00649570 0.17354025 0.57605973 152 152 152
0.00125092 0.17284449 0.58537986 150 150 150
0.01850796 0.17875468 0.87498607 177 176 175
0.01567584 0.17781245 0.89162339 176 176 177
0.01247971 0.17660147 0.90838334 156 157 160
0.01673904 0.18239134 0.87489527 171 171 171
0.01257457 0.18455877 0.88836999 173 173 175
0.00795637 0.18398314 0.91110784 147 146 148
0.00277179 0.18443701 0.92230183 162 158 159
0.00608150 0.24781222 0.69419714 137 137 134
0.00365234 0.24648366 0.70186467 147 145 142
0.02828276 -0.04907809 0.45620757 146 125 122
0.03549263 -0.03897123 0.45093648 165 147 142
0.02880578 -0.02319980 0.64754366 170 150 146
0.03240822 -0.01218159 0.64971504 170 153 146
0.03570027 0.00127840 0.65669078 210 154 159
0.02360721 0.15314642 0.55362132 155 156 157
0.02201865 0.14979897 0.56024116 139 139 143
0.03166037 0.17367032 0.49861876 133 133 133
0.02885702 0.17597090 0.50156046 141 141 137
0.02337237 0.17923903 0.85917848 153 152 150
0.02218548 0.17868420 0.87097385 175 172 170
0.02205380 0.17814736 0.88575355 177 177 175
0.03323056 0.18424103 0.50744410 155 154 152
0.02334278 0.18049529 0.85809094 145 144 145
0.02201021 0.18138565 0.86411352 148 147 147
0.05796311 -0.44168084 1.37410637 101 114 120
0.04150927 -0.00871598 0.65524380 167 144 144
0.04061535 0.00079328 0.65750909 210 150 157
0.05953818 0.03192228 0.93760973 193 189 186
0.05740889 0.03444664 0.95345245 194 190 187
0.05747039 0.03843397 0.96264836 198 195 192
0.05843924 0.05164898 0.97328785 184 181 175
0.05584228 0.09637377 0.69487829 128 129 135
0.05473771 0.10276638 0.69381245 160 160 161
0.05580716 0.21086755 0.67837724 153 151 145
0.05794523 0.21214010 0.68225929 148 146 141
0.05916066 0.22737091 0.68267221 160 157 153
0.05572161 0.41526525 1.81740439 170 170 171
0.05934055 0.41231470 1.83215350 162 163 166
0.05431512 0.42666861 1.81532182 161 158 154
0.05836704 0.42695306 1.83003131 161 159 158
0.05982519 0.42365062 1.84711671 172 173 174
0.07096850 -0.44875145 1.36944046 103 110 120
0.07388036 -0.43301483 1.35748184 101 110 122
0.07106292 -0.43783969 1.36654325 101 110 122
0.07430065 0.03214893 0.93632243 150 150 151
0.07075829 0.03519867 0.95042981 154 151 151
0.06684798 0.03863740 0.96360368 172 169 167
0.06926742 0.05056374 0.97078155 135 135 139
0.07229464 0.06390132 0.97460257 125 125 129
0.06558081 0.09414661 0.69500109 114 115 122
0.07066626 0.09176237 0.70063595 123 126 130
0.06459003 0.10293713 0.69343623 140 140 141
0.07315747 0.17935334 0.49707593 127 125 122
0.07350003 0.18409353 0.49538976 148 149 146
0.06558882 0.18072990 0.50102872 120 119 117
0.07401791 0.21272013 0.67539436 153 154 155
0.06545713 0.21317435 0.68360513 132 131 132
0.07197151 0.22560964 0.67628841 142 142 144
0.06445559 0.22457253 0.68323686 141 140 138
0.07323400 0.39376384 1.79456016 141 138 138
0.06978595 0.39774226 1.80772707 144 142 143
0.07481382 0.41034127 1.79812157 168 167 167
0.06993657 0.40790415 1.81359374 166 166 167
0.07101068 0.41215272 1.82680796 172 171 172
0.07999367 0.42173693 1.79812157 124 123 127
0.07750249 0.42355342 1.81254506 142 139 141
0.06967361 0.42921326 1.83339141 152 150 151
0.07012936 0.42930932 1.84948659 160 159 159
0.06836551 0.43679896 1.86234021 145 140 143
0.07218416 0.44301496 1.86954553 123 121 130
0.06912513 0.44816163 1.88303292 121 121 133
0.09108510 -0.44560092 1.35687051 102 111 123
0.08671320 -0.44585191 1.36397403 102 112 120
0.08922851 -0.43508416 1.35601283 103 110 122
0.08545312 -0.43710788 1.36161986 101 109 124
0.08020545 0.03899794 0.95209527 127 126 129
0.08054482 0.04081554 0.95612389 130 130 134
0.08054054 0.05115625 0.96934316 137 137 142
0.08282806 0.06451831 0.97721226 120 116 123
0.09736692 0.15671369 0.80860237 156 155 157
0.08371165 0.17994688 0.47604764 124 130 126
0.08005243 0.17993507 0.49409026 121 117 116
0.09884221 0.16314840 0.57721827 117 117 119
0.09780281 0.17874013 0.77134278 168 165 163
0.09807437 0.17756973 0.78008264 180 180 173
0.09628822 0.17159626 0.81364826 170 170 170
0.09041344 0.17688417 0.82069230 174 175 176
0.08312579 0.18421588 0.47742113 127 128 128
0.08145187 0.18830530 0.48839756 132 131 130
0.09640037 0.18750574 0.77294491 172 171 170
0.09239218 0.19622766 0.78400215 168 168 168
0.09398898 0.18110252 0.81605530 176 176 176
0.09794882 0.19746856 1.14925071 150 147 148
0.08210095 0.21179831 0.67022747 160 160 159
0.08091476 0.20639268 0.68353735 174 175 175
0.09670459 0.20096763 0.77775714 162 162 160
0.09408278 0.20744378 0.78859938 153 153 152
0.09860907 0.20162041 1.14702511 153 153 152
0.08176551 0.22532982 0.65942788 176 176 174
0.08207509 0.22365385 0.66853648 149 150 150
0.09659791 0.37429716 1.74714971 138 137 138
0.09937663 0.38154924 1.75619650 128 127 133
0.09332509 0.38749292 1.76945652 145 145 147
0.08989425 0.39592806 1.79101374 144 145 147
0.09016606 0.40674351 1.79442453 131 130 132
0.08693128 0.40950267 1.80680444 155 156 155
0.08475963 0.42591955 1.81148244 137 137 140
0.09760438 0.42135441 1.83710527 128 129 130
0.11489059 -0.12155087 0.77877314 160 124 115
0.11453655 -0.12735223 0.78078716 152 119 118
0.11567814 -0.11770006 0.77792393 156 116 106
0.11931853 -0.09339223 0.83885984 190 137 144
0.11527162 -0.08897658 0.84070177 157 129 129
0.11620934 -0.07249566 0.84408349 166 133 136
0.10980259 0.15979092 0.57889998 168 168 164
0.10867258 0.15933473 0.58088464 178 177 173
0.10209768 0.15701570 0.80811601 150 150 153
0.10842072 0.16496026 0.57789705 143 143 143
0.10509744 0.16058177 0.58055264 158 158 156
0.11272247 0.17945262 0.76511592 144 143 145
0.10214446 0.17609425 0.79783293 163 160 160
0.10396690 0.16947402 0.81107854 160 159 159
0.11039441 0.17204399 0.82159775 157 157 160
0.11954709 0.17849910 1.15780079 166 165 164
0.11804990 0.17826039 1.16276479 164 164 164
0.10733475 0.19012423 0.77323862 152 151 150
0.11151910 0.19483297 1.15442371 144 142 146
0.11433673 0.19450716 1.16077375 150 147 149
0.10593729 0.20154899 0.77616890 126 125 127
0.10312773 0.20740143 0.78608221 126 125 128
0.11065259 0.20052398 1.14833212 158 158 158
0.10412060 0.39202845 1.78549488 158 159 163
0.10513581 0.39792919 1.80290389 163 163 166
0.10284016 0.40898277 1.81740439 160 159 161
0.10792006 0.41481668 1.85049963 163 163 165
0.10105353 0.42409135 1.84209740 144 144 144
0.10731384 0.42932952 1.87190466 158 157 156
0.11309271 0.43553796 1.88946331 167 164 159
0.11762479 0.43344972 1.90419054 179 176 173
0.10950433 0.44042885 1.87781680 151 150 150
0.11444157 0.44380924 1.89224875 163 161 159
0.11554107 0.45142543 1.90597852 170 170 168
0.12430491 -0.12378930 0.77815202 156 130 108
0.12186056 -0.12872390 0.78114903 156 131 112
0.12323351 -0.11659237 0.77825528 157 128 107
0.12369225 -0.11501348 0.78008264 154 123 102
0.13127795 -0.10667766 0.84533873 156 127 107
0.12229966 -0.09440440 0.83897507 134 88 89
0.12883840 -0.08956822 0.84150167 158 128 112
0.12723632 -0.07395914 0.84285387 160 125 113
0.13504836 -0.02043601 0.50740466 152 122 105
0.13648158 -0.01139430 0.50794762 150 121 100
0.13585274 0.03447104 0.63926228 131 128 130
0.13837444 0.03548504 0.64155018 139 138 138
0.13089716 0.04187345 0.63780249 157 156 157
0.13665319 0.04401140 0.64187940 141 141 143
0.12943390 0.17652328 1.13719287 145 144 145
0.12698437 0.17758050 1.14684203 150 149 149
0.12607465 0.18193105 1.13550043 128 127 130
0.12352713 0.19131702 1.15249502 136 134 138
0.12386667 0.19400558 1.16077375 116 110 119
0.12302404 0.20065643 1.15287733 146 146 145
0.13311136 0.31863040 1.76075804 173 172 174
0.12539618 0.32656264 1.73818421 171 172 173
0.13250966 0.33157811 1.75279886 177 176 176
0.13451178 0.32793474 1.76677447 178 175 176
0.13992490 0.34170881 1.76995254 177 177 174
0.12142790 0.44354522 1.91225159 174 170 163
0.12298887 0.44422793 1.93683386 176 175 167
0.12706260 0.44678098 1.94796503 175 175 168
0.15631081 -0.12187008 0.54942176 154 128 109
0.15696402 -0.11678651 0.54834936 149 121 99
0.14128097 -0.01192387 0.50780670 147 121 98
0.14210279 0.03594879 0.64407933 146 143 144
0.14705294 0.05913054 0.50721461 128 129 135
0.14495095 0.04485334 0.64417840 140 139 141
0.14925866 0.06886481 0.49992025 109 112 120
0.14794317 0.06607359 0.50670774 118 120 125
0.15958427 0.24562599 0.64684337 153 152 146
0.15984046 0.25714627 0.66656095 148 148 148
0.15518586 0.30708219 1.71329272 150 147 146
0.15361435 0.31412430 1.72896799 147 143 143
0.14708655 0.31445173 1.74602103 164 162 161
0.14419602 0.31672283 1.77738061 172 170 171
0.14102957 0.31973955 1.78392589 172 171 171
0.15355719 0.32459455 1.73729513 141 139 139
0.14976184 0.32838656 1.74790604 156 154 152
0.14321189 0.32876198 1.77073955 173 171 170
0.15083934 0.34215607 1.77226925 166 166 164
0.15952979 0.34748989 1.78392589 156 151 152
0.16191565 -0.11648941 0.54694166 152 124 105
0.16557589 0.15968744 0.67586422 133 127 129
0.17716450 0.16663942 0.65571713 157 155 156
0.17120071 0.16721027 0.66955208 151 150 151
0.16393174 0.16794872 0.69141887 156 156 157
0.16278712 0.16788209 0.70030147 159 158 157
0.17618736 0.23440147 0.65119577 159 161 157
0.17029725 0.24727179 0.65736964 139 139 136
0.16457655 0.25683660 0.66335607 142 141 138
0.16628119 0.26663359 0.66918383 143 142 137
0.16539714 0.28169474 0.67993164 116 113 110
0.16523691 0.28456601 0.68305764 25 25 24
0.16216554 0.30572975 1.71401501 148 148 147
0.16382567 0.31384028 1.73153486 143 139 139
0.16982961 0.31767666 1.74714386 138 133 133
0.16144791 0.32055402 1.73818421 155 149 149
0.16832861 0.32069470 1.74715555 146 142 140
0.16811658 0.33000112 1.77691483 150 148 145
0.16847405 0.33673419 1.78999194 157 155 153
0.17369162 0.33872190 1.80290389 153 149 148
0.16840317 0.34522541 1.79219733 168 165 164
0.16901735 0.34495422 1.80290389 174 173 172
0.18066207 0.17094262 0.65846848 176 177 177
0.18311128 0.17425508 0.66517105 173 173 172
0.18550624 0.23085685 0.63500206 152 152 144
0.18374072 0.23188938 0.64967376 156 156 151
0.18365259 0.24176590 0.65694548 168 168 163
0.23805359 0.10589528 0.45908709 153 154 153
0.23785460 0.10611730 0.46351768 159 160 157
0.23727112 0.15697807 0.87582928 177 176 176
0.23834202 0.15512243 0.89425114 177 177 177
0.23834537 0.15788816 0.90614561 168 168 171
0.23575732 0.16379017 0.87582928 178 178 180
0.23881951 0.16712311 0.89206479 173 172 174
0.23828390 0.16578349 0.90775942 166 167 170
0.23837782 0.16826683 0.92104870 159 160 162
0.23996978 0.18100250 0.92104870 141 142 146
0.23824599 0.30949347 1.73228329 156 155 155
0.23757234 0.31288520 1.74565454 148 147 151
0.23720060 0.31640893 1.76534331 136 135 140
0.23935576 0.33028487 1.73670240 124 121 133
0.23869876 0.32900611 1.75393140 122 122 131
0.23905506 0.32970716 1.77461503 127 127 135
0.23795267 0.33611380 1.78627938 123 123 128
0.23962782 0.34297702 1.76075804 135 137 141
0.25109263 0.11952926 0.45059321 162 162 161
0.25219975 0.12474652 0.45260710 162 161 158
0.24185223 0.17277712 0.88994320 177 175 176
0.24239072 0.17743673 0.90689052 159 159 161
0.24663352 0.18364574 0.91251636 170 170 170
0.24918621 0.19053057 0.93119808 140 140 143
0.24922755 0.19742595 0.94355117 149 150 150
0.25217322 0.20901193 0.93585677 147 146 146
0.25267717 0.20521366 0.94501822 156 154 153
0.25177565 0.29864076 1.69897699 177 169 166
0.25520813 0.30482395 1.69263756 155 151 150
0.25504940 0.31014652 1.71114395 151 145 146
0.25043642 0.31071626 1.73134883 160 156 155
0.24662162 0.31640043 1.74564675 158 157 155
0.25245969 0.32591510 1.73248799 141 140 142
0.24682207 0.32932011 1.74884465 137 134 141
0.24723615 0.34297702 1.76075804 167 171 170
0.27419009 0.13493841 0.47154238 140 141 140
0.27599925 0.14331092 0.47322186 138 140 139
0.26172391 0.18619549 0.91917580 178 178 178
0.26323382 0.19337805 0.93094236 173 173 173
0.26238883 0.19885863 0.94151825 163 164 164
0.26499436 0.20628760 0.93464255 177 176 175
0.26498494 0.20569566 0.94518524 162 160 161
0.26407148 0.31597541 1.71013203 125 125 130
0.29454745 0.12964419 0.75996846 146 146 148
0.29622536 0.13612349 0.76316506 165 165 165
0.28023776 0.14570200 0.47305804 140 147 146
0.29593281 0.14457723 0.76657186 169 167 166
0.28900289 0.23859005 0.67766611 152 152 149
0.28716289 0.24132808 0.67925073 155 155 151
0.28629349 0.24924285 0.69013817 143 142 135
0.28800999 0.25678262 0.70574718 141 140 134
0.29281516 0.26629087 0.70941803 159 160 154
0.29374610 0.27565455 0.72544771 163 164 162
0.29038695 0.28805013 0.72787528 153 152 149
0.29018001 0.29012989 0.74208394 153 154 152
0.31607162 0.05961172 0.54144784 96 97 101
0.30838581 0.07290353 0.47742997 144 146 145
0.31803583 0.07481542 0.48038351 127 129 129
0.31473900 0.06631001 0.53908215 130 131 133
0.31614779 0.06168629 0.54104503 117 122 125
0.30855922 0.13663119 0.77067465 144 144 146
0.31348362 0.13404039 0.78152532 154 154 155
0.30732997 0.14325918 0.76876146 138 137 139
0.31777704 0.28444976 1.92037344 166 167 165
0.31867981 0.30190104 1.92582905 176 175 173
0.33533078 0.03740422 0.58706760 145 143 142
0.33757439 0.04339710 0.58442957 145 144 142
0.32299474 0.06595187 0.53972280 134 135 135
0.32576950 0.07082420 0.54491807 126 128 129
0.32959752 0.17821078 0.49942936 122 126 126
0.32681044 0.17857732 0.50189610 124 125 125
0.32942764 0.18213674 0.49969006 133 135 132
0.32783876 0.18368993 0.50250648 142 143 136
0.33904874 0.26864961 1.89091539 130 130 133
0.33170530 0.27430287 1.91135255 135 135 137
0.32292587 0.27939430 1.93131578 131 130 132
0.32357732 0.28850096 1.91263689 175 175 174
0.32432016 0.28754080 1.92721243 166 166 166
0.33589044 0.28699619 1.94517428 152 152 154
0.32414620 0.30066217 1.92860365 178 177 176
0.34113015 0.03728524 0.58665057 148 148 144
0.34148691 0.04329157 0.58376100 150 150 148
0.35049006 0.27844994 1.89091539 110 112 118
0.34568696 0.27734474 1.90956457 121 122 130
0.35941970 0.28788313 1.87781680 151 147 146
0.35315443 0.28887520 1.89265202 147 146 146
0.34825660 0.29049102 1.90553153 143 143 144
0.34678710 0.28790547 1.92733679 135 134 138
0.34307257 0.29002671 1.95099530 141 140 144
0.34997770 0.30350524 1.91494870 159 159 161
0.34895594 0.30195238 1.93683386 147 147 149
0.34859202 0.30624649 1.95360037 149 148 149
0.34720079 0.30952574 1.97444598 155 152 153
0.37166994 0.19745571 0.49131645 133 135 131
0.36625654 0.20248902 0.48685331 155 157 150
0.36243159 0.27720416 1.89355266 127 127 130
0.36591101 0.29112878 1.87781680 116 111 115
0.36278944 0.28608126 1.89056388 140 138 138
0.36922717 0.33527078 1.07704737 161 160 156
0.36755122 0.33737068 1.08891510 161 160 158
0.36973532 0.34208276 1.09204132 170 170 165
0.36988400 0.34791604 1.10747054 171 171 167
0.37111848 0.35450333 1.13028947 167 168 165
0.37157089 0.35763595 1.14508760 164 165 165
0.37762365 0.36234326 1.13502890 173 174 166
0.37539395 0.36471866 1.15007941 168 169 165
0.37332903 0.37451911 1.16527417 156 156 154
0.36522305 0.37857085 1.19557643 157 158 152
0.36869892 0.38236172 1.17373918 159 158 157
0.36728579 0.38949727 1.18977555 166 165 162
0.36613845 0.39148472 1.21132223 166 166 162
0.36889747 0.38781175 1.22142673 168 168 158
0.36690634 0.40201397 1.19769251 170 171 165
0.36866088 0.40698198 1.20995936 166 166 163
0.36779979 0.40402035 1.22363412 165 166 163
0.39994746 0.13920964 0.49051508 170 171 162
0.39994746 0.14048137 0.49051508 169 170 161
0.38362184 0.35651928 1.11679053 172 172 165
0.38287802 0.36422143 1.13171914 169 170 162
0.38530675 0.37314826 1.15264466 162 163 157
0.38319906 0.37724797 1.16595052 156 156 154
0.38182344 0.37866555 1.18616337 154 154 154
0.39404288 0.38194406 1.15878952 146 145 143
0.38999174 0.38463913 1.17003473 146 145 143
0.38872961 0.39182370 1.18873960 138 137 137
0.39536402 0.40149371 1.19769251 129 128 128
0.39363775 0.40834681 1.21011073 108 108 109
0.39414912 0.41681835 1.22446825 121 122 117
0.39697816 0.42236701 1.22807067 123 123 120
0.40396935 0.13299444 0.48935425 153 154 148
0.40402903 0.14204976 0.49222807 168 169 161
0.40050053 0.39768585 1.18582229 146 140 139
0.40120994 0.40215905 1.19506139 139 137 136
0.40180106 0.40587497 1.20300335 135 135 133
0.40128759 0.41812104 1.22363150 111 112 110
0.40249272 0.42624742 1.23120148 111 111 109
0.40876457 0.43899715 1.25303483 129 130 124
0.43863510 -0.37152281 0.84525299 95 104 105
0.43680915 0.13832306 0.77775837 179 180 175
0.43545195 0.13910410 0.78062187 176 177 175
0.43597732 0.14203003 0.77643236 160 160 159
0.43470846 0.15153636 0.79004143 163 162 160
0.43558308 0.15475529 0.80749691 175 175 172
0.43854959 0.20319019 0.45262589 140 141 136
0.45671054 -0.66618699 1.27264196 101 112 115
0.45579565 -0.65299343 1.26384370 103 111 116
0.45905653 -0.38220997 0.84789506 97 102 106
0.45111452 -0.37005388 0.84409722 94 102 106
0.45408536 -0.35868352 0.84220669 93 101 104
0.44003865 0.13965635 0.77918601 183 184 178
0.44054502 0.13846874 0.78008264 183 184 177
0.44012046 0.14329377 0.77695978 162 161 158
0.44185853 0.15405000 0.78808718 149 148 146
0.44023347 0.15246870 0.80414218 167 167 165
0.44450582 0.16210468 0.79299416 174 174 169
0.44932716 0.16630664 0.80383136 182 182 179
0.44392878 0.19968211 0.45359111 142 143 143
0.44185896 0.20204023 0.45382256 140 141 137
0.44235641 0.20671418 0.46052435 148 151 141
0.45124587 0.45980492 1.25072300 172 172 168
0.45375744 0.46453795 1.25768435 165 165 163
0.45580555 0.47079504 1.27119344 164 164 161
0.45896743 0.47556438 1.28755432 165 165 163
0.45912315 0.48256868 1.27664149 161 161 156
0.44570980 0.49103912 1.31376174 140 140 138
0.45194261 0.49665869 1.32603743 140 140 137
0.45987061 0.50194919 1.31885576 113 112 112
0.45496851 0.50254894 1.32747009 130 129 127
0.46891411 -0.68254438 1.28564213 103 112 116
0.47132149 -0.67044998 1.27074461 103 112 115
0.46665317 -0.67685315 1.28267258 102 112 117
0.47332171 -0.65279806 1.25768435 106 110 113
0.46750931 -0.65545388 1.26343000 104 111 115
0.46096680 -0.38123864 0.84736478 95 100 106
0.46039131 -0.37929991 0.84630692 92 100 104
0.47568461 0.24570757 0.89432499 154 158 158
0.47641963 0.25335398 0.91085932 159 161 161
0.47715667 0.25654557 0.92773930 147 147 147
0.46091819 0.47874942 1.29616034 165 165 164
0.46172655 0.48676305 1.29216188 155 155 153
0.46365132 0.49073013 1.30990090 147 146 145
0.46533220 0.49563477 1.33330375 146 146 144
0.46574616 0.49581376 1.34236014 155 156 153
0.46306558 0.50284363 1.31821552 120 120 120
0.46393955 0.50283758 1.32702385 123 122 123
0.48810356 -0.67149279 1.25768435 105 110 112
0.48490941 -0.67130304 1.26459908 105 111 113
0.49388099 -0.08184636 0.88510014 55 53 55
0.49767380 -0.07061395 0.87855442 51 51 52
0.49457515 -0.07365386 0.88394921 54 53 53
0.48967453 0.07790705 0.53595081 116 117 119
0.49488138 0.07358785 0.54577714 112 116 117
0.49055349 0.09745238 0.45568679 142 143 142
0.49243783 0.09849153 0.46066673 132 133 131
0.48740761 0.08216126 0.53310864 143 146 144
0.49203582 0.10279695 0.45755661 132 135 133
0.49236215 0.10287746 0.46088100 134 135 133
0.48529163 0.23764473 0.91237128 151 142 138
0.48256170 0.24717049 0.91263109 138 140 141
0.48402069 0.25023400 0.92619905 134 134 133
0.48919855 0.25393250 0.94361966 144 143 141
0.51499131 -0.20029075 0.66103593 91 99 102
0.51031812 -0.19980352 0.65942788 90 98 102
0.51535438 -0.19652172 0.66345035 89 97 100
0.50722689 -0.06762226 0.87597517 51 52 52
0.50679751 -0.06994228 0.88323802 53 53 53
0.51748439 0.24881582 0.61599872 121 120 113
0.51812694 0.24679380 0.62332144 131 131 126
0.50084418 0.25014255 0.94777039 132 132 130
0.52962121 -0.20071408 0.66519298 90 97 102
0.52496918 -0.19693615 0.66514109 88 96 100
0.52094087 -0.06496148 0.87809825 50 51 51
0.52158170 -0.06834238 0.88498344 52 53 53
0.53565158 0.12704392 0.60645834 159 160 154
0.53519435 0.23902586 0.61683611 139 140 133
0.53793579 0.23959789 0.62154049 136 137 129
0.53451846 0.24467151 0.61825180 151 152 145
0.52962116 0.24667148 0.62629177 114 115 112
0.54953429 0.13261050 0.61308682 149 150 144
0.55144563 0.14040826 0.61682835 151 153 143
0.55037999 0.17439650 0.63445163 154 154 148
0.55353417 0.17900703 0.64149216 135 132 132
0.55673524 0.18294815 0.63879775 133 132 134
0.55628435 0.18457225 0.64426516 129 129 130
0.54952764 0.21800544 0.57805120 161 162 154
0.54846191 0.21938729 0.58038688 149 151 142
0.54971146 0.22144126 0.57829353 150 151 140
0.55130579 0.23036771 0.58388901 149 149 143
0.54427340 0.24275978 0.63405256 133 133 126
0.55024128 0.24545942 0.64347233 123 124 116
0.55698953 0.62659570 1.55124533 153 153 151
0.55788034 0.63678968 1.57649267 146 146 144
0.55918074 0.64100528 1.58016741 142 142 140
0.56365114 0.17932694 0.64164051 133 133 131
0.56454992 0.18315589 0.63952059 129 131 130
0.56489936 0.18301361 0.64266871 125 126 126
0.57250518 0.60816522 1.51427980 162 162 157
0.57631813 0.61301261 1.53292786 163 163 159
0.57712972 0.61886553 1.54535325 161 160 159
0.57771776 0.62271774 1.53508620 157 157 154
0.57668977 0.62727237 1.54989392 160 159 157
0.57259448 0.63314494 1.56830490 159 159 156
0.57078108 0.63765094 1.58201343 155 154 153
0.57967901 0.64223939 1.57649267 164 164 160
0.56657655 0.64892895 1.59020014 143 142 140
0.56917256 0.65918744 1.60447997 139 137 131
0.57315735 0.66425248 1.60868263 136 135 130
0.57522136 0.67392284 1.63347435 131 128 121
0.57937849 0.68214142 1.65339470 132 129 122
0.59885466 0.25970688 0.55816621 155 155 146
0.59904595 0.25697570 0.56154124 154 157 147
0.59935871 0.26110160 0.55908692 150 150 145
0.59945962 0.26159367 0.56326711 153 153 147
0.58178931 0.63259694 1.54951763 158 158 153
0.58174726 0.63175513 1.56738210 160 159 159
0.58377588 0.64197543 1.56920248 161 162 156
0.58462985 0.65032906 1.59104551 161 162 156
0.58345097 0.64994775 1.60562286 157 158 156
0.58511865 0.66238129 1.59880149 152 154 152
0.58720405 0.66450530 1.61403280 155 156 151
0.58910026 0.67064149 1.62891523 152 152 149
0.61332507 0.11715417 0.80895065 116 123 123
0.61639849 0.12459932 0.81616010 141 141 141
0.61934551 0.13365107 0.82235511 142 142 141
0.60174289 0.25492081 0.55939374 147 148 139
0.60280787 0.25299117 0.56139549 148 150 139
0.60486769 0.26700620 0.56899361 152 153 146
0.61544448 0.29275261 0.69343781 143 144 139
0.61190400 0.30071145 0.68577847 105 105 105
0.62541260 0.11788716 0.81489197 132 138 136
0.62676724 0.12587522 0.81828274 135 139 138
0.62522209 0.13188973 0.82206296 150 151 150
0.63724740 0.17564995 0.65475274 133 136 135
0.63983935 0.17912208 0.66135788 121 122 124
0.63411929 0.18642907 0.65250828 150 150 145
0.63983935 0.18026517 0.66135788 112 113 113
0.62237304 0.28870433 0.69621558 156 156 147
0.64282635 0.15902143 0.65623853 157 161 158
0.64360051 0.17147864 0.65616410 157 159 154
0.64918928 0.17221853 0.66458884 155 157 152
0.64756773 0.18769482 0.65759574 148 149 143
0.64974584 0.18515184 0.66147620 138 141 137
0.69928408 -0.16340508 0.70393753 78 85 87
0.69854700 -0.15132929 0.69873784 75 84 84
0.69887427 -0.15508873 0.70189833 76 84 87
0.69443595 0.39869885 0.93580240 136 137 128
0.69456616 0.39128596 0.94884358 125 125 122
0.69991970 0.39946365 0.96018672 121 122 122
0.69391249 0.40771606 0.93435496 137 138 133
0.69863712 0.40508322 0.95086769 129 128 121
0.69908991 0.40693188 0.96018672 139 137 129
0.69987535 0.42708793 0.97398251 100 96 98
0.70777158 -0.16397675 0.70530633 77 85 86
0.70160457 -0.15151079 0.69957876 76 85 84
0.70677619 -0.15622288 0.70279086 74 84 85
0.70111864 0.39690038 0.95345162 114 116 114
0.70655817 0.39946365 0.96018672 108 109 107
0.70265445 0.40769814 0.95314644 127 127 120
0.70604616 0.41344270 0.96617535 133 132 126
0.70500219 0.42121732 0.95433972 157 158 152
0.70718186 0.42619429 0.96991056 138 138 136
0.77540606 -0.20556402 0.91979897 86 92 93
0.77963752 -0.20508732 0.92481834 85 92 94
0.77794391 0.05929346 1.23853656 146 147 141
0.77337607 0.05812562 1.24630794 136 136 135
0.77437460 0.05710941 1.26119524 139 142 142
0.77276533 0.07544364 1.23478007 155 156 154
0.77303368 0.06878303 1.24805937 144 145 143
0.77373790 0.06420810 1.26148963 136 137 136
0.77160363 0.08036826 1.23343682 144 143 142
0.76508090 0.08142010 1.24957979 143 143 143
0.79651201 -0.22632097 0.94677633 83 93 96
0.78523941 -0.20698954 0.93338048 84 92 93
0.79428494 -0.20779029 0.95138339 84 92 94
0.79653122 -0.20751685 0.96615769 84 92 94
0.78528702 -0.19792371 0.93632185 85 91 96
0.78967047 -0.19862597 0.94349346 85 91 96
0.79897785 0.05628842 1.06086361 166 164 162
0.78501651 0.05840513 1.23674932 149 151 143
0.78510383 0.05567325 1.24537096 141 141 138
0.78553032 0.06894783 1.23581166 142 142 139
0.78158244 0.06590999 1.24221098 142 143 140
0.78326898 0.08179720 1.23567863 150 151 146
0.79391670 0.39975828 1.21922994 158 159 152
0.79736870 0.40687854 1.21488215 166 166 162
0.79729134 0.41106443 1.22323352 161 163 159
0.78970200 0.42083168 1.21922994 111 112 111
0.78844456 0.42706229 1.22942894 142 143 138
0.79339070 0.43344953 1.25010713 163 165 159
0.79439568 0.44066697 1.25266659 170 170 162
0.81817240 -0.82228839 1.52335250 96 104 110
0.81867880 -0.83219248 1.54417276 89 97 102
0.81698328 -0.80801868 1.50980135 93 101 105
0.81695989 -0.24091928 0.97609881 85 93 97
0.80326570 -0.22380478 0.95559206 83 92 95
0.81190583 -0.23001272 0.96898810 83 92 96
0.81854683 -0.22942224 0.98103017 83 91 95
0.80128983 -0.21884817 0.95343626 83 94 94
0.80614667 -0.21790312 0.96457386 84 93 94
0.80648130 0.01950934 1.05509031 110 112 113
0.80510322 0.01946222 1.06503564 118 121 122
0.80731580 0.02909686 1.05532534 128 129 130
0.80523441 0.03064653 1.06490847 127 129 130
0.80895685 0.04975313 1.05738261 153 154 150
0.80851919 0.04612508 1.06502290 159 161 156
0.81562636 0.11589174 0.78973298 105 110 112
0.81782889 0.25504829 1.13337287 170 170 165
0.81874916 0.25541756 1.16176927 150 149 146
0.81543283 0.26932139 1.13298651 167 168 162
0.81865586 0.27362110 1.15386596 168 168 162
0.80158676 0.40763452 1.21580025 161 161 157
0.80668307 0.41074736 1.22627560 155 155 150
0.80906280 0.42498480 1.23361249 148 148 145
0.81489782 0.43462938 1.24740623 125 126 126
0.81830108 0.43926725 1.26002204 119 121 120
0.83851278 -0.86147243 1.55123997 95 104 105
0.83291818 -0.84492729 1.54851932 96 104 107
0.83299651 -0.85074276 1.56437318 96 104 108
0.83061144 -0.82592648 1.53254318 96 104 109
0.83019632 -0.83570350 1.54277055 96 104 108
0.82623929 -0.80177718 1.49976075 95 103 105
0.83139271 -0.80855539 1.51417276 95 104 106
0.83103839 -0.81376348 1.52602965 96 104 107
0.82106762 -0.23575158 0.98269650 83 92 97
0.82547574 0.11694246 0.79438409 114 119 121
0.83240372 0.11993205 0.80034459 122 126 127
0.82594293 0.12067429 0.79611516 151 157 155
0.83550924 0.12843960 0.80974809 154 161 155
0.82204356 0.25659446 1.13478914 171 171 165
0.82570620 0.25516374 1.15648210 154 155 153
0.82338493 0.25649043 1.16360410 148 148 146
0.82433013 0.26936123 1.15402523 166 167 161
0.82433707 0.26771882 1.16437040 159 160 156
0.83032452 0.26202929 1.18254387 155 155 150
0.83066934 0.28180039 1.15878952 160 161 155
0.83150923 0.28276712 1.16276479 167 168 161
0.83204699 0.41726618 1.24959532 140 140 137
0.83052118 0.42824237 1.25254476 155 157 149
0.83842182 0.43300366 1.26080418 160 161 154
0.82483464 0.44144508 1.26002204 121 125 124
0.85350120 -0.86040360 1.55658489 95 104 107
0.85364223 -0.86330652 1.56919408 97 107 111
0.85210603 -0.85028450 1.53109935 89 106 107
0.85188693 -0.84792591 1.54971064 96 104 107
0.85001621 -0.85829252 1.56376642 96 105 109
0.84979829 -0.82709556 1.53323664 95 104 107
0.84733894 -0.83524631 1.54241800 95 104 106
0.84470624 -0.81215916 1.51428485 93 104 107
0.84713533 -0.81614474 1.52335250 95 105 107
0.84144639 0.13411087 0.81447542 153 158 152
0.84073893 0.12744243 0.82201950 146 156 152
0.85369924 0.41834257 1.27424061 135 132 131
0.85002965 0.43953571 1.23029375 172 173 164
0.84664071 0.42880558 1.25489976 142 144 138
0.84954216 0.42941168 1.26655656 145 146 141
0.85583385 0.42220421 1.28633716 128 126 126
0.85069948 0.44153945 1.23590231 171 171 163
0.85293818 0.44437465 1.24383819 168 168 162
0.85142356 0.44470619 1.27222438 150 151 144
0.85761444 0.44695381 1.28632224 149 150 142
0.86515384 -0.86342638 1.57140217 96 104 106
0.86917093 -0.86934364 1.58016741 96 104 105
0.86405590 -0.85354567 1.54418075 94 105 106
0.86320704 -0.85662842 1.56196272 97 105 106
0.87989980 0.13982785 0.89196295 172 173 165
0.87824096 0.35405840 0.97475298 155 156 146
0.87605311 0.35812947 0.98340531 150 151 149
0.87328711 0.36553347 0.97945540 172 173 164
0.87424455 0.36419652 0.98188488 169 170 163
0.86620070 0.41765156 1.29083522 151 151 144
0.87073359 0.43664534 1.27783680 130 130 129
0.87053182 0.42758137 1.29105390 139 138 136
0.86841319 0.42217446 1.30364136 140 141 136
0.86300552 0.44631943 1.25535524 154 154 150
0.87180173 0.44808239 1.27519987 139 139 135
0.87282949 0.45129743 1.28878549 146 146 140
0.86524206 0.45584926 1.30113602 146 148 141
0.88189756 0.13812000 0.89272065 170 173 165
0.88568426 0.14975707 0.89454841 163 164 160
0.88664636 0.15388977 0.90211044 167 168 164
0.89171833 0.16602939 0.89609322 169 170 162
0.89438731 0.16312148 0.90250463 168 169 162
0.88111103 0.35329375 0.97550168 157 158 149
0.88827929 0.35239922 0.98960156 153 153 147
0.89737391 0.35306084 1.00279856 157 158 154
0.88380834 0.36332025 0.97679242 169 170 161
0.88863498 0.36553449 0.99013656 163 164 157
0.89407027 0.41712026 1.31374878 154 154 144
0.88398574 0.43614984 1.29523745 144 144 141
0.89024156 0.42885924 1.30742940 147 147 139
0.89929092 0.42641434 1.32142663 145 141 138
0.88581220 0.44995411 1.29388220 133 133 130
0.88785504 0.45772629 1.30263727 145 146 138
0.88378590 0.46170977 1.29864335 142 143 134
0.88773113 0.46034706 1.30113602 143 143 134
0.90028155 0.16400094 0.90627253 168 169 160
0.90541005 0.35447383 1.01177883 159 159 156
0.90523127 0.42468286 1.32790589 150 148 142
0.90594222 0.45862120 1.31121258 141 141 137
0.90995741 0.46026638 1.31374383 148 148 144
0.91935492 0.46386221 1.32400751 152 152 147
0.93221753 -0.20238274 1.01090656 77 84 87
0.93567735 -0.19417010 1.01108386 78 84 87
0.92115402 0.46247706 1.32659853 153 154 148
0.94420343 -0.20396871 1.00917617 78 84 87
0.94146337 -0.19560764 1.00728568 78 84 86
0.95626253 0.37219749 1.07205955 158 159 156
0.96103662 0.36954084 1.07601881 168 170 162
0.97026609 0.37494069 1.08899060 162 163 158
0.97275758 0.38306043 1.09337389 156 157 153
0.97489195 0.39732343 1.61659630 136 134 132
0.97473426 0.39859031 1.62175083 143 142 140
0.97660498 0.40885633 1.62955642 157 156 152
0.99166065 0.38740379 1.11679053 155 156 154
0.99658797 0.39062407 1.12233953 154 155 152
0.98359340 0.39763902 1.61788034 143 139 139
0.98454499 0.39718877 1.62175083 153 151 147
0.98079705 0.40183359 1.61788034 140 136 135
0.98895274 0.41116858 1.63118228 137 136 134
0.98937190 0.41901937 1.64138460 159 160 153
0.99782023 0.42346198 1.63663082 118 116 123
0.99396086 0.42742893 1.64793117 141 141 139
1.00435638 -0.66038513 1.37782896 92 102 104
1.00941823 -0.66240454 1.38204396 93 102 104
1.00731978 -0.64804167 1.37241845 94 102 103
1.00932147 -0.64885764 1.38507557 91 101 102
1.01821935 -0.65813541 1.40350282 91 100 101
1.00804955 -0.63757368 1.37017713 95 104 104
1.01641682 -0.63319670 1.39090262 94 103 105
1.01741705 -0.63519235 1.40642192 93 103 102
1.01770627 -0.61651504 1.38628185 94 103 102
1.00743632 0.39826173 1.13676949 154 155 152
1.01309961 0.39556144 1.14315981 154 155 152
1.01232187 0.40732719 1.15008359 143 145 144
1.00714815 0.41702321 1.60638779 162 162 159
1.00832049 0.41213707 1.63381732 149 148 145
1.01398946 0.41109923 1.64537686 153 151 147
1.01104033 0.42890182 1.63257262 134 135 136
1.01102004 0.43160972 1.64581397 128 129 130
1.00395727 0.43959066 1.66558194 138 139 139
1.01493979 0.44453515 1.63610474 119 128 128
1.01022591 0.44379929 1.64768127 115 121 122
1.03149232 -0.66867057 1.38783666 95 104 106
1.02427003 -0.64968593 1.37503949 96 105 105
1.02489585 -0.64979853 1.38063514 97 105 104
1.02209201 -0.62937948 1.39244083 94 104 103
1.02185205 -0.63301234 1.40853095 92 102 101
1.02010238 -0.61891115 1.38628185 92 101 101
1.02520057 0.39528698 1.15681430 159 163 155
1.03418938 0.39219016 1.16544004 151 152 146
1.02307385 0.40363100 1.15780079 155 156 156
1.02895376 0.40329046 1.16592009 155 156 154
1.02589664 0.41022432 1.63741994 154 155 152
1.02807486 0.41090111 1.64817413 156 156 151
1.03301341 0.40423965 1.66734873 165 164 155
1.02253672 0.42386584 1.63545188 160 160 157
1.02506502 0.43201860 1.64404058 142 144 145
1.02426939 0.44712158 1.64457564 128 137 136
1.05280934 0.19566626 1.27423663 159 166 163
1.05749512 0.20871523 1.28876781 155 157 148
1.04541944 0.39081953 1.17602646 154 154 149
1.05336533 0.39152489 1.18786730 159 161 153
1.05507272 0.39468848 1.22639933 130 128 121
1.04175442 0.40488824 1.17894232 159 162 155
1.05294106 0.40602865 1.19184213 156 160 152
1.05289721 0.41656008 1.66558194 155 155 155
1.05602849 0.40970483 1.68714752 144 145 141
1.06884398 0.20818288 1.29493178 164 168 164
1.07176938 0.21397039 1.30605894 161 162 158
1.07954562 0.21899918 1.32400751 143 143 142
1.07472479 0.22095576 1.31186503 169 169 167
1.07744133 0.22314022 1.32142663 176 177 175
1.06152183 0.38821438 1.19663262 167 170 161
1.07024209 0.39333555 1.21000394 167 171 161
1.06892193 0.39639701 1.23188823 137 139 131
1.06633611 0.40440128 1.20794256 153 154 147
1.07315792 0.40501224 1.23062557 141 145 139
1.07276289 0.40690328 1.24613220 113 115 113
1.06813490 0.41022944 1.69897699 142 143 144
1.06493080 0.41126016 1.70324588 145 145 142
1.07799649 0.43226805 1.53716969 114 114 118
1.07400799 0.42784870 1.69897699 164 164 163
1.07128032 0.57423181 1.54682966 150 150 149
1.07603855 0.58637285 1.55234342 147 147 143
1.07701997 0.58727924 1.56799169 134 131 126
1.08615544 0.21327921 1.30762895 166 168 167
1.09571314 0.21628830 1.32142663 169 169 165
1.08563515 0.39467558 1.23214017 155 159 151
1.09296521 0.39337711 1.24460598 138 138 131
1.08354651 0.41190640 1.23287308 154 156 148
1.08528546 0.41407186 1.25189030 122 129 126
1.09125777 0.41676284 1.26002204 125 132 129
1.08742368 0.41947386 1.72491562 159 160 160
1.09252620 0.42186995 1.25151622 139 142 138
1.09664261 0.42092429 1.26709193 119 122 120
1.09018519 0.43199757 1.55149227 121 122 124
1.09580109 0.43128614 1.56739044 138 135 134
1.09995663 0.43480030 1.58016741 146 142 138
1.09169221 0.42203844 1.72931588 164 166 161
1.08136737 0.57433251 1.54769826 164 166 161
1.08522186 0.59020396 1.55425795 154 155 149
1.08564911 0.59588791 1.57212355 138 138 135
1.08604228 0.59552338 1.58510741 126 122 117
1.08478475 0.60253507 1.55837202 147 148 139
1.08968820 0.60573869 1.56765292 148 149 140
1.09227675 0.60899661 1.58705075 143 144 138
1.09599656 0.60305604 1.60638779 129 122 118
1.09953612 0.62278587 1.58943206 164 165 155
1.10021138 0.21764150 1.32271707 164 164 162
1.10611404 0.22475784 1.33096796 166 166 164
1.11760861 0.23061524 1.34502882 167 167 164
1.10338315 0.42550466 1.27424401 121 125 122
1.11316019 0.43168058 1.28939545 122 124 124
1.10635321 0.43282571 1.56890609 135 136 136
1.11172315 0.43114298 1.58455757 143 141 139
1.10823706 0.42941055 1.74714971 168 169 164
1.11914945 0.42514688 1.76075804 163 164 163
1.10383761 0.61156172 1.61788034 124 124 121
1.11039263 0.61455712 1.62955713 131 127 122
1.10913169 0.62011445 1.62563992 135 135 131
1.12434354 0.23584804 1.35173258 167 169 162
1.13342768 0.24461950 1.35309050 173 174 164
1.13687231 0.24533546 1.36443136 174 175 167
1.13477385 0.39714155 1.61019444 172 173 164
1.13494837 0.40080366 1.60258114 166 167 162
1.13859648 0.41268900 1.62759382 174 175 167
1.12624830 0.43660352 1.29740185 129 131 129
1.13021529 0.43983009 1.31374383 122 124 124
1.12428355 0.43305674 1.58881672 151 151 149
1.13282820 0.43249526 1.61403433 159 159 154
1.13441980 0.43747827 1.62563992 143 139 135
1.12794632 0.43616079 1.77459812 168 169 160
1.13328426 0.44475974 1.31021569 132 134 131
1.12838334 0.44284557 1.58943206 147 149 147
1.13377535 0.45351797 1.78863287 164 165 162
1.12521708 0.62356454 1.65340459 127 125 120
1.14016402 0.23932248 1.37503421 160 162 156
1.14345596 0.24655620 1.36903693 173 174 168
1.15213658 0.24919597 1.38883162 174 175 168
1.14565897 0.39814126 1.62563992 177 178 169
1.14511827 0.40834282 1.61595428 166 167 161
1.15098985 0.41204479 1.62814209 168 169 163
1.15440014 0.41296006 1.64501520 172 173 166
1.14198139 0.43484631 1.61172795 158 159 152
1.15253785 0.42897408 1.63035189 172 173 166
1.15450212 0.42921897 1.64739064 173 175 166
1.15657198 0.42559028 1.66149962 173 175 166
1.14449000 0.43514410 1.79574311 169 170 166
1.15587935 0.43687310 1.80675521 166 168 166
1.14373112 0.45065963 1.31885576 136 137 133
1.15343904 0.45509007 1.33182136 135 137 132
1.14430335 0.44582818 1.60716364 160 161 158
1.15828866 0.44222216 1.62759382 159 160 157
1.15519845 0.44119775 1.65541601 160 160 155
1.14600587 0.44038436 1.79812157 170 171 163
1.15522871 0.45113440 1.80957260 162 163 160
1.15414226 0.46417168 1.81416484 164 165 163
1.17666336 0.38637299 1.38960580 143 144 141
1.16379577 0.41611657 1.65238899 169 171 163
1.16528141 0.42791274 1.63741994 173 174 167
1.16350723 0.42982680 1.65313047 175 176 168
1.16369623 0.43163490 1.67381722 172 174 165
1.17092156 0.43813905 1.68211377 168 170 161
1.16356494 0.43706488 1.81012833 166 167 165
1.16249561 0.44134647 1.62954772 159 159 157
1.17238155 0.44596472 1.68421116 164 164 158
1.16516768 0.44983716 1.81343563 163 164 160
1.17715764 0.44157898 1.82228994 169 171 167
1.16143680 0.46395442 1.81740439 163 164 162
1.16770852 0.46520159 1.82228994 165 166 164
1.18794382 0.38914078 1.39607171 146 147 144
1.19464684 0.39250913 1.40789237 147 148 144
1.18312919 0.40271533 1.39771509 162 163 155
1.19093752 0.40807481 1.40790294 163 165 154
1.18268764 0.44069940 1.70324588 170 172 163
1.19469464 0.45112111 1.72053766 169 170 162
1.18988708 0.44714372 1.83498117 171 171 166
1.19718590 0.44998951 1.84711671 170 170 167
1.18512857 0.46517897 1.83462268 165 166 166
1.19442457 0.47031963 1.84712730 167 168 166
1.21470630 0.18742549 1.14508760 154 155 152
1.20033538 0.39470527 1.41227472 146 148 142
1.20819092 0.39806944 1.43317509 148 150 143
1.20732416 0.41111831 1.43117218 165 167 157
1.21859527 0.41233671 1.44848680 161 161 158
1.21195048 0.42452984 1.43469334 165 167 153
1.21676687 0.42584392 1.44334817 171 172 159
1.20568752 0.43921584 1.83214009 174 174 171
1.20905626 0.43841898 1.84209740 174 174 172
1.20568752 0.44238254 1.83214009 171 170 166
1.21384881 0.44784881 1.85290027 170 170 167
1.21918905 0.44868229 1.86490542 171 171 167
1.20615339 0.46449301 1.85723794 159 158 156
1.20732113 0.46362316 1.86234021 164 163 161
1.21211922 0.49451715 1.39771509 139 139 141
1.21568801 0.48929302 1.40350759 137 139 138
1.23585562 0.17562236 1.13567564 130 134 133
1.23634439 0.17628667 1.14273032 139 140 138
1.23028063 0.18821086 1.13555111 157 159 152
1.23018552 0.19151135 1.14921028 155 155 152
1.22382534 0.41662073 1.45470357 158 158 154
1.22443175 0.43146918 1.45393476 168 169 158
1.23493481 0.43113539 1.47050586 170 172 160
1.23830330 0.43838422 1.49755355 171 173 166
1.23710708 0.44147043 1.47049967 160 162 153
1.23696256 0.44280494 1.49645361 170 171 167
1.22380328 0.45568629 1.86850805 172 172 168
1.23239485 0.46446161 1.87436807 167 165 162
1.23795223 0.47081991 1.88513100 167 167 162
1.23141670 0.49495413 1.42565423 135 136 135
1.23085908 0.49342125 1.44959401 152 153 148
1.23410600 0.49787796 1.46944785 169 170 161
1.23526565 0.50234705 1.42915638 138 140 140
1.22973490 0.50246811 1.45574633 167 168 161
1.23479224 0.50622570 1.46851341 167 167 160
1.23752737 0.50064564 1.48011315 170 170 161
1.24099058 0.17421473 1.14605799 137 138 139
1.24008918 0.19337273 1.13931406 164 166 158
1.24339165 0.43435393 1.48913219 173 175 164
1.25537900 0.43675028 1.50979642 171 173 162
1.24248934 0.44594854 1.47688854 161 165 156
1.24541645 0.44675346 1.49177352 163 164 158
1.25086493 0.45027937 1.50787380 163 164 159
1.25584495 0.47305826 1.49645581 156 157 148
1.25946299 0.46666478 1.50531292 156 157 151
1.25788200 0.46261138 1.52335250 160 161 159
1.24494465 0.47531139 1.89179448 168 168 162
1.24827546 0.47855219 1.90687251 166 165 162
1.25711346 0.47696394 1.92037344 160 155 154
1.24068534 0.49926558 1.43926084 135 135 134
1.24260807 0.49234949 1.45316154 130 129 127
1.25308034 0.49602024 1.47208652 140 139 136
1.24792119 0.48794896 1.48785987 160 161 150
1.25841084 0.49348549 1.50509024 164 167 156
1.24631011 0.48146588 1.89885676 178 179 171
1.25190729 0.48389116 1.91494870 175 176 170
1.25735617 0.48164758 1.92582905 158 156 155
1.24024856 0.51588088 1.43015158 140 142 140
1.24788314 0.50884966 1.45004652 136 136 136
1.25141926 0.50569945 1.46732039 146 146 143
1.24675634 0.50931506 1.48990221 165 166 160
1.25358242 0.51093079 1.50475991 168 169 162
1.24814820 0.52165443 1.43926084 151 155 151
1.25105733 0.52193770 1.44694257 141 144 140
1.26153022 0.43875110 1.51823676 170 172 161
1.26415730 0.45712309 1.51823676 160 161 157
1.26841390 0.45997840 1.52335250 157 158 155
1.26794022 0.47404888 1.51570919 143 143 139
1.27096862 0.47044455 1.53148112 155 156 151
1.27325648 0.47642057 1.54683301 167 168 162
1.26581746 0.48436403 1.51317030 167 168 159
1.27544525 0.48716682 1.53437517 159 159 151
1.27601085 0.48955991 1.54669789 159 158 153
1.26454103 0.48105219 1.93683386 163 158 156
1.26529280 0.51478718 1.47421533 135 135 133
1.26651251 0.51680483 1.48335905 138 138 134
1.26132649 0.51109141 1.51484400 168 170 162
1.27316618 0.51196825 1.52993079 168 169 160
1.27750194 0.51846367 1.54066324 168 168 159
1.27030638 0.53065908 1.47288567 143 146 142
1.27349073 0.52661485 1.48643452 131 132 131
1.26011753 0.52082938 1.51653659 166 167 163
1.26943038 0.52364873 1.53093481 163 164 161
1.27641201 0.52097881 1.54418075 166 168 161
1.29335272 0.16192504 1.41522926 129 130 132
1.29890341 0.16523428 1.42264968 128 129 129
1.28123741 0.49547452 1.54453332 164 165 159
1.29017341 0.49222745 1.56738210 166 166 161
1.29933357 0.49761771 1.58016741 163 163 155
1.28538603 0.50914101 1.54630743 170 173 163
1.29559290 0.50712818 1.56739879 164 167 159
1.28173864 0.53999829 1.48987222 147 153 144
1.28359079 0.52202290 1.55123997 167 169 161
1.31641313 0.13671259 1.43168442 137 137 134
1.31448667 0.14973524 1.41559932 123 128 128
1.31172883 0.14994709 1.42775385 127 129 129
1.30557752 0.16070384 1.41522300 114 114 117
1.30518711 0.16356317 1.42414564 122 124 126
1.30086029 0.51602143 1.56557012 171 173 165
1.31025839 0.51810163 1.58016741 169 174 164
1.30281901 0.52521226 1.57283485 173 174 165
1.31482944 0.52625902 1.58832445 170 172 164
1.32901943 0.13687621 1.42828253 134 136 137
1.32832596 0.15062285 1.41368165 122 128 129
1.33166532 0.14568802 1.42534683 130 132 132
1.32156438 0.53111982 1.59880149 171 173 165
1.32525573 0.53033249 1.60561926 167 169 161
1.34141773 0.13876844 1.42864615 126 128 129
1.34599364 0.14586828 1.42564791 129 134 134
1.51696119 0.35330000 1.36550140 156 157 154
1.51526141 0.36234424 1.36396754 157 158 152
