ply
format ascii 1.0
element vertex 1053
property float x
property float y
property float z
property uchar red
property uchar green
property uchar blue
end_header
0.77261376 0.06865062 1.25303483 140 144 141
0.77050686 0.06827203 1.24612474 144 146 143
0.77124298 0.06814676 1.24383819 152 153 151
0.77339286 0.06814676 1.24383819 157 158 153
0.77554274 0.06814676 1.24383819 158 159 152
0.77769256 0.06814676 1.24383819 157 158 151
0.77841419 0.06802195 1.24156010 153 153 146
0.78056014 0.06802195 1.24156010 147 147 140
0.78127515 0.06789760 1.23929036 147 147 140
0.78198755 0.06777369 1.23702896 158 158 152
0.78412569 0.06777369 1.23702896 156 155 152
0.78626376 0.06777369 1.23702896 142 141 139
0.78840190 0.06777369 1.23702896 136 135 132
0.78909999 0.06765024 1.23477566 140 139 137
0.79123420 0.06765024 1.23477566 143 142 140
0.80390316 0.05821314 1.06252635 142 142 139
0.80322170 0.05803123 1.05920601 150 150 147
-0.35507616 0.03694471 0.65370476 135 136 138
-0.34954545 0.03683814 0.65181905 112 116 117
-0.34808415 0.03680275 0.65119290 115 119 120
-0.34662563 0.03676743 0.65056801 124 128 128
-0.25504941 0.08401681 1.48660493 119 120 124
-0.25192747 0.08383296 1.48335195 122 123 127
-0.24881914 0.08364992 1.48011315 129 130 134
-0.24626088 0.08364992 1.48011315 129 130 135
-0.24317169 0.08346768 1.47688854 134 135 138
-0.24061900 0.08346768 1.47688854 132 132 134
-0.23754878 0.08328623 1.47367787 132 132 134
-0.23500165 0.08328623 1.47367787 150 150 151
-0.23245452 0.08328623 1.47367787 161 162 162
-0.22990739 0.08328623 1.47367787 151 155 156
-0.22785559 0.08346768 1.47688854 131 135 137
-0.22481312 0.08328623 1.47367787 119 123 125
-0.22130381 0.08292568 1.46729839 129 130 134
-0.21829519 0.08274657 1.46412921 136 137 141
-0.21623158 0.08292568 1.46729839 129 130 136
-0.21369548 0.08292568 1.46729839 124 124 133
-0.21070331 0.08274657 1.46412921 120 122 130
-0.20817268 0.08274657 1.46412921 146 150 154
-0.20564204 0.08274657 1.46412921 149 153 154
-0.20223783 0.08239067 1.45783186 132 136 135
-0.19928950 0.08221387 1.45470357 125 128 128
-0.19593424 0.08186253 1.44848680 131 134 134
-0.19343065 0.08186253 1.44848680 126 126 127
-0.19092706 0.08186253 1.44848680 116 114 121
-0.18762167 0.08151418 1.44232309 110 107 116
0.05856510 0.05512470 0.97538394 177 173 168
0.06033779 0.05520413 0.97678941 100 100 104
0.06184785 0.05504549 0.97398251 108 107 113
0.06353130 0.05504549 0.97398251 123 122 128
0.06521475 0.05504549 0.97398251 125 125 128
0.06689820 0.05504549 0.97398251 126 126 130
0.06848326 0.05496652 0.97258514 138 138 142
0.07016429 0.05496652 0.97258514 131 132 136
0.07163976 0.05480925 0.96980232 136 137 141
0.07331599 0.05480925 0.96980232 135 136 141
0.07520740 0.05496652 0.97258514 127 128 132
0.07677828 0.05488777 0.97119176 122 123 125
0.07834466 0.05480925 0.96980232 142 143 143
0.08013552 0.05488777 0.97119176 144 145 145
0.13443826 0.03610902 0.63891786 128 129 132
0.13554259 0.03610902 0.63891786 130 130 131
0.13677582 0.03614308 0.63952059 132 131 132
0.13788117 0.03614308 0.63952059 125 124 125
0.13924927 0.03621140 0.64072955 142 142 143
0.14088938 0.03634883 0.64316112 149 149 151
0.14213589 0.03638335 0.64377195 154 155 156
0.77113301 0.07107915 1.25768435 144 144 144
0.77187479 0.07094753 1.25535524 137 140 139
0.77118826 0.07068573 1.25072300 128 132 131
0.76909310 0.07029663 1.24383819 136 138 136
0.76983041 0.07016788 1.24156010 150 150 148
0.77197635 0.07016788 1.24156010 150 150 147
0.77412230 0.07016788 1.24156010 143 143 139
0.77626824 0.07016788 1.24156010 143 143 138
0.77699113 0.07003961 1.23929036 142 142 136
0.77913314 0.07003961 1.23929036 135 135 129
0.78127515 0.07003961 1.23929036 133 133 127
0.78198755 0.06991179 1.23702896 136 136 130
0.78555918 0.07003961 1.23929036 140 140 136
0.78626376 0.06991179 1.23702896 139 139 135
0.78840190 0.06991179 1.23702896 140 139 134
0.78909999 0.06978445 1.23477566 146 146 140
0.79123420 0.06978445 1.23477566 145 144 140
-0.36029056 0.03814816 0.65496796 122 125 125
-0.35846579 0.03807459 0.65370476 127 128 128
-0.35439268 0.03800130 0.65244645 130 131 131
-0.35179868 0.03796475 0.65181905 122 123 125
-0.35033521 0.03792828 0.65119290 116 117 119
-0.34887454 0.03789189 0.65056801 115 116 118
-0.34741667 0.03785555 0.64994425 119 120 122
-0.34596160 0.03781930 0.64932168 124 126 128
-0.25449130 0.08639681 1.48335195 120 121 125
-0.25192747 0.08639681 1.48335195 133 134 138
-0.24881914 0.08620817 1.48011315 146 147 151
-0.24626088 0.08620817 1.48011315 132 133 137
-0.24264306 0.08583336 1.47367787 137 137 142
-0.24061900 0.08602036 1.47688854 152 153 156
-0.23806633 0.08602036 1.47688854 161 162 164
-0.23500165 0.08583336 1.47367787 159 160 162
-0.23245452 0.08583336 1.47367787 147 148 149
-0.22990739 0.08583336 1.47367787 133 137 140
-0.22785559 0.08602036 1.47688854 134 136 139
-0.22481312 0.08583336 1.47367787 135 136 138
-0.22130381 0.08546179 1.46729839 137 137 139
-0.21876769 0.08546179 1.46729839 137 138 140
-0.21670064 0.08564717 1.47048128 121 122 126
-0.21415903 0.08564717 1.47048128 105 105 113
-0.21115938 0.08546179 1.46729839 109 109 117
-0.20862328 0.08546179 1.46729839 130 130 136
-0.20608716 0.08546179 1.46729839 132 133 136
-0.20267367 0.08509342 1.46097374 138 139 141
-0.19971807 0.08491042 1.45783186 133 134 137
-0.19593424 0.08436612 1.44848680 118 119 123
-0.19343065 0.08436612 1.44848680 103 102 110
-0.19092706 0.08436612 1.44848680 104 99 114
-0.18722332 0.08382875 1.43926084 112 108 123
0.06033779 0.05689243 0.97678941 106 106 105
0.06184785 0.05672894 0.97398251 149 149 149
0.06353130 0.05672894 0.97398251 154 154 155
0.06521475 0.05672894 0.97398251 152 152 152
0.06680222 0.05664755 0.97258514 146 146 148
0.06848326 0.05664755 0.97258514 145 145 148
0.07016429 0.05664755 0.97258514 137 138 142
0.07174239 0.05656639 0.97119176 136 137 141
0.07342102 0.05656639 0.97119176 127 128 135
0.07531545 0.05672894 0.97398251 102 102 111
0.07677828 0.05656639 0.97119176 148 148 157
0.13567045 0.03724844 0.63952059 130 129 135
0.13703437 0.03731885 0.64072955 126 126 129
0.13840345 0.03738953 0.64194304 130 130 132
0.13977773 0.03746048 0.64316112 149 150 152
0.14129154 0.03756741 0.64499700 161 161 161
0.14240636 0.03756741 0.64499700 138 138 136
0.77050686 0.07257967 1.24612474 108 109 109
0.77626824 0.07231382 1.24156010 127 127 127
0.78056014 0.07231382 1.24156010 134 133 132
0.78127515 0.07218162 1.23929036 137 137 136
0.78198755 0.07204990 1.23702896 134 134 133
0.78555918 0.07218162 1.23929036 141 142 140
0.78626376 0.07204990 1.23702896 151 152 150
0.78696579 0.07191866 1.23477566 159 159 155
0.78766531 0.07178790 1.23253059 161 161 156
-0.36177215 0.03931821 0.65560138 127 129 128
-0.35994276 0.03924230 0.65433574 121 124 124
-0.35812047 0.03916669 0.65307498 113 117 116
-0.35699168 0.03916669 0.65307498 109 115 113
-0.35586289 0.03916669 0.65307498 111 119 116
-0.35405192 0.03909137 0.65181905 119 125 124
-0.35258627 0.03905382 0.65119290 120 121 123
-0.35146073 0.03905382 0.65119290 115 118 120
-0.34999898 0.03901634 0.65056801 118 123 123
-0.34854004 0.03897893 0.64994425 124 128 129
-0.34708390 0.03894160 0.64932168 125 126 128
-0.34596160 0.03894160 0.64932168 123 124 126
-0.25649390 0.08876643 1.48011315 127 128 128
-0.25449130 0.08896067 1.48335195 125 126 130
-0.25137740 0.08876643 1.48011315 130 130 136
-0.24827705 0.08857304 1.47688854 140 140 147
-0.24572437 0.08857304 1.47688854 143 143 150
-0.24264306 0.08838049 1.47367787 140 140 146
-0.24061900 0.08857304 1.47688854 133 133 135
-0.23754878 0.08838049 1.47367787 129 129 131
-0.23500165 0.08838049 1.47367787 117 117 120
-0.23245452 0.08838049 1.47367787 116 117 121
-0.22940868 0.08818877 1.47048128 127 131 134
-0.22736026 0.08838049 1.47367787 159 160 163
-0.22432546 0.08818877 1.47048128 169 169 171
-0.22082582 0.08780783 1.46412921 176 175 175
-0.21876769 0.08799789 1.46729839 174 173 174
-0.21623158 0.08799789 1.46729839 156 156 158
-0.21369548 0.08799789 1.46729839 132 132 139
-0.21115938 0.08799789 1.46729839 127 127 134
-0.20862328 0.08799789 1.46729839 132 133 139
-0.20564204 0.08780783 1.46412921 134 135 139
-0.20223783 0.08743016 1.45783186 135 136 138
-0.19886276 0.08705573 1.45158851 123 124 127
-0.19510049 0.08650006 1.44232309 122 123 127
-0.19051996 0.08668449 1.44539833 122 117 126
-0.18722332 0.08631640 1.43926084 128 122 131
-0.18473567 0.08631640 1.43926084 129 125 132
0.06033779 0.05858073 0.97678941 126 126 125
0.06184785 0.05841239 0.97398251 141 141 142
0.06353130 0.05841239 0.97398251 132 132 134
0.06848326 0.05832859 0.97258514 148 149 154
0.07016429 0.05832859 0.97258514 145 146 151
0.07174239 0.05824502 0.97119176 142 142 149
0.07542382 0.05849644 0.97538394 114 114 124
0.13729391 0.03849908 0.64194304 137 137 140
0.13853464 0.03853557 0.64255148 137 137 139
0.13991047 0.03860876 0.64377195 137 137 139
0.14254199 0.03871907 0.64561129 119 119 120
0.14365788 0.03871907 0.64561129 110 108 111
0.33260956 0.03532148 0.58895904 154 148 144
0.33362755 0.03532148 0.58895904 156 152 149
0.33435503 0.03529082 0.58844781 158 155 153
0.33479086 0.03522966 0.58742791 152 152 150
0.33901191 0.03535220 0.58947116 160 162 160
0.34003076 0.03535220 0.58947116 158 162 161
0.34104961 0.03535220 0.58947116 149 151 150
0.76976806 0.07487113 1.24841964 138 138 138
0.76628107 0.07432363 1.23929036 124 125 125
0.77343512 0.07418800 1.23702896 150 151 154
0.77629477 0.07405287 1.23477566 133 133 133
0.77842897 0.07405287 1.23477566 135 136 136
0.77914399 0.07391823 1.23253059 123 124 124
0.78269738 0.07405287 1.23477566 119 120 119
0.78340465 0.07391823 1.23253059 129 130 128
0.78553498 0.07391823 1.23253059 147 147 145
0.78623575 0.07378408 1.23029375 151 150 148
-0.36403847 0.04045136 0.65560138 129 133 132
-0.36290529 0.04045136 0.65560138 128 132 131
-0.36177215 0.04045136 0.65560138 128 131 130
-0.35994276 0.04037327 0.65433574 121 126 124
-0.35812047 0.04029548 0.65307498 112 118 116
-0.35699168 0.04029548 0.65307498 111 119 117
-0.35552037 0.04025669 0.65244645 112 123 121
-0.35405192 0.04021799 0.65181905 118 128 126
-0.35224789 0.04014079 0.65056801 123 131 130
-0.35078681 0.04010231 0.64994425 125 132 132
-0.34966344 0.04010231 0.64994425 129 133 134
-0.34820619 0.04006390 0.64932168 132 134 135
-0.34675175 0.04002556 0.64870036 127 128 130
-0.34596160 0.04006390 0.64932168 121 123 125
-0.34417996 0.03998729 0.64808017 119 123 124
-0.34305978 0.03998729 0.64808017 122 127 129
-0.34049398 0.03994910 0.64746118 118 127 128
-0.25649390 0.09132469 1.48011315 134 135 138
-0.25449130 0.09152452 1.48335195 136 136 142
-0.25137740 0.09132469 1.48011315 136 136 143
-0.24881914 0.09132469 1.48011315 138 138 145
-0.24626088 0.09132469 1.48011315 143 143 146
-0.24264306 0.09092762 1.47367787 151 151 152
-0.24061900 0.09112572 1.47688854 147 147 147
-0.23754878 0.09092762 1.47367787 136 136 138
-0.23500165 0.09092762 1.47367787 128 128 131
-0.23245452 0.09092762 1.47367787 131 132 135
-0.22940868 0.09073038 1.47048128 123 123 127
-0.22686706 0.09073038 1.47048128 144 145 148
-0.22383991 0.09053399 1.46729839 159 159 161
-0.22082582 0.09033846 1.46412921 150 150 150
-0.21876769 0.09053399 1.46729839 147 146 148
-0.21576457 0.09033846 1.46412921 141 140 143
-0.21369548 0.09053399 1.46729839 122 121 128
-0.21115938 0.09053399 1.46729839 108 107 116
-0.20817268 0.09033846 1.46412921 120 120 128
-0.20564204 0.09033846 1.46412921 135 135 142
-0.20223783 0.08994991 1.45783186 139 138 140
-0.19843784 0.08937331 1.44848680 136 135 137
-0.19011460 0.08899299 1.44232309 131 127 132
-0.18682666 0.08861590 1.43621159 132 128 133
0.06033779 0.06026903 0.97678941 108 107 111
0.06184785 0.06009584 0.97398251 108 107 112
0.06353130 0.06009584 0.97398251 122 122 129
0.07016429 0.06000962 0.97258514 139 139 146
0.07184532 0.06000962 0.97258514 132 132 139
0.07542382 0.06018231 0.97538394 115 115 124
0.13755442 0.03968378 0.64316112 149 149 150
0.13879776 0.03972147 0.64377195 140 140 141
0.14004347 0.03975923 0.64438391 136 136 136
0.14142610 0.03983496 0.64561129 136 136 137
0.14254199 0.03983496 0.64561129 136 136 138
0.14365788 0.03983496 0.64561129 125 124 129
0.33216879 0.03640270 0.58998418 154 145 144
0.33260956 0.03633945 0.58895904 163 157 155
0.33333793 0.03630790 0.58844781 162 161 157
0.33406502 0.03627641 0.58793741 157 157 154
0.33479086 0.03624498 0.58742791 142 143 143
0.33551544 0.03621360 0.58691937 128 129 129
0.33652988 0.03621360 0.58691937 127 128 128
0.33812985 0.03627641 0.58793741 130 131 131
0.33973536 0.03633945 0.58895904 133 133 133
0.34075332 0.03633945 0.58895904 139 140 137
0.34088281 0.03624498 0.58742791 148 150 141
0.34160212 0.03621360 0.58691937 154 155 147
0.76895922 0.07760057 1.25768435 160 158 157
0.76970500 0.07745686 1.25535524 151 150 149
0.76902652 0.07717104 1.25072300 141 140 139
0.76694322 0.07674625 1.24383819 138 137 136
0.76488274 0.07632611 1.23702896 145 146 145
0.76562369 0.07618708 1.23477566 149 153 153
0.76775789 0.07618708 1.23477566 153 157 156
0.76849234 0.07604856 1.23253059 170 173 173
0.77202636 0.07618708 1.23477566 170 174 173
0.77275300 0.07604856 1.23253059 165 166 166
0.77488333 0.07604856 1.23253059 154 155 155
0.77842897 0.07618708 1.23477566 142 143 143
0.77914399 0.07604856 1.23253059 131 132 132
0.78269738 0.07618708 1.23477566 125 125 124
0.78340465 0.07604856 1.23253059 137 136 134
0.78553498 0.07604856 1.23253059 146 145 144
0.78623575 0.07591054 1.23029375 141 140 140
-0.36481878 0.04154434 0.65496796 129 133 132
-0.36403847 0.04158451 0.65560138 128 132 131
-0.36290529 0.04158451 0.65560138 127 131 130
-0.36142260 0.04154434 0.65496796 126 130 129
-0.35959569 0.04146421 0.65370476 123 127 126
-0.35777578 0.04138440 0.65244645 114 118 117
-0.35630515 0.04134461 0.65181905 116 122 121
-0.35517853 0.04134461 0.65181905 119 128 128
-0.35371181 0.04130489 0.65119290 116 124 124
-0.35224789 0.04126525 0.65056801 120 128 127
-0.35078681 0.04122568 0.64994425 124 131 131
-0.34932849 0.04118619 0.64932168 127 132 133
-0.34820619 0.04118619 0.64932168 126 132 132
-0.34675175 0.04114678 0.64870036 119 128 127
-0.34563053 0.04114678 0.64870036 121 130 129
-0.34385121 0.04106819 0.64746118 118 127 128
-0.34273213 0.04106819 0.64746118 122 131 132
-0.34193963 0.04110745 0.64808017 130 139 140
-0.34049398 0.04106819 0.64746118 123 131 133
-0.33937487 0.04106819 0.64746118 121 128 130
-0.25449130 0.09408838 1.48335195 134 136 139
-0.25192747 0.09408838 1.48335195 143 144 148
-0.24881914 0.09388294 1.48011315 147 148 150
-0.24679975 0.09408838 1.48335195 153 153 152
-0.24317169 0.09367841 1.47688854 146 146 145
-0.24114437 0.09388294 1.48011315 136 136 137
-0.23806633 0.09367841 1.47688854 120 120 122
-0.23551364 0.09367841 1.47688854 122 122 126
-0.23245452 0.09347475 1.47367787 116 116 124
-0.22990739 0.09347475 1.47367787 92 92 96
-0.22736026 0.09347475 1.47367787 122 122 126
-0.22432546 0.09327199 1.47048128 130 130 134
-0.22130381 0.09307010 1.46729839 128 128 132
-0.21876769 0.09307010 1.46729839 121 121 126
-0.21623158 0.09307010 1.46729839 117 117 123
-0.21415903 0.09327199 1.47048128 111 110 123
-0.21115938 0.09307010 1.46729839 113 111 121
-0.20862328 0.09307010 1.46729839 135 134 142
-0.20608716 0.09307010 1.46729839 156 155 160
-0.20267367 0.09266894 1.46097374 163 162 164
-0.19301821 0.09168100 1.44539833 120 120 123
-0.19092706 0.09187689 1.44848680 111 110 116
-0.18722332 0.09129170 1.43926084 108 106 115
-0.18512872 0.09148593 1.44232309 123 121 131
-0.18224803 0.09129170 1.43926084 131 127 136
0.06344015 0.06169066 0.97258514 140 138 145
0.07026510 0.06177929 0.97398251 136 137 139
0.07184532 0.06169066 0.97258514 123 123 129
0.07542382 0.06186818 0.97538394 119 120 125
0.07710969 0.06186818 0.97538394 144 145 147
0.08397400 0.06195733 0.97678941 135 134 137
0.08566231 0.06195733 0.97678941 126 125 130
0.13075560 0.04041202 0.63711637 134 131 134
0.13358577 0.04060282 0.64012450 145 145 148
0.13481948 0.04064120 0.64072955 147 147 150
0.13755442 0.04079543 0.64316112 143 143 143
0.13879776 0.04083418 0.64377195 137 137 137
0.14004347 0.04087299 0.64438391 137 137 137
0.14142610 0.04095085 0.64561129 139 139 140
0.14254199 0.04095085 0.64561129 139 139 141
0.14352119 0.04091188 0.64499700 133 133 136
0.14477377 0.04095085 0.64561129 130 130 136
0.33159161 0.03735742 0.58895904 137 131 133
0.33232084 0.03732499 0.58844781 138 133 135
0.33276021 0.03726030 0.58742791 142 140 141
0.33377555 0.03726030 0.58742791 151 149 150
0.33450100 0.03722804 0.58691937 154 154 154
0.33522522 0.03719584 0.58641165 157 157 157
0.33594817 0.03716369 0.58590478 150 151 151
0.33725235 0.03719584 0.58641165 143 143 143
0.33885217 0.03726030 0.58742791 143 143 141
0.33986747 0.03726030 0.58742791 146 146 143
0.34029305 0.03719584 0.58641165 152 151 144
0.34101161 0.03716369 0.58590478 142 141 134
0.34232017 0.03719584 0.58641165 144 143 134
0.76611644 0.07947946 1.25303483 148 148 147
0.76686472 0.07933282 1.25072300 136 136 134
0.76761025 0.07918672 1.24841964 129 129 127
0.76553857 0.07875162 1.24156010 136 136 134
0.76348948 0.07832129 1.23477566 157 157 155
0.76423168 0.07817889 1.23253059 170 170 168
0.76775789 0.07832129 1.23477566 175 175 173
0.76849234 0.07817889 1.23253059 176 176 174
0.77202636 0.07832129 1.23477566 176 176 174
0.77275300 0.07817889 1.23253059 175 175 173
0.77488333 0.07817889 1.23253059 175 175 173
0.77842897 0.07832129 1.23477566 174 174 169
0.77914399 0.07817889 1.23253059 169 170 163
0.78269738 0.07832129 1.23477566 159 160 153
0.78340465 0.07817889 1.23253059 150 151 144
0.78553498 0.07817889 1.23253059 141 143 137
-0.36672857 0.04263520 0.65433574 125 128 129
-0.36595085 0.04267640 0.65496796 129 135 133
-0.36446664 0.04263520 0.65433574 129 134 133
-0.36368671 0.04267640 0.65496796 126 129 128
-0.36255467 0.04267640 0.65496796 123 127 126
-0.36107373 0.04263520 0.65433574 127 132 130
-0.35924923 0.04255305 0.65307498 129 133 132
-0.35743177 0.04247122 0.65181905 121 125 125
-0.35562125 0.04238970 0.65056801 121 126 126
-0.35449681 0.04238970 0.65056801 117 126 127
-0.35303354 0.04234906 0.64994425 109 118 118
-0.35157311 0.04230849 0.64932168 109 118 119
-0.35045078 0.04230849 0.64932168 121 130 131
-0.34899420 0.04226801 0.64870036 122 131 132
-0.34787297 0.04226801 0.64870036 121 130 131
-0.34642026 0.04222760 0.64808017 124 133 133
-0.34530011 0.04222760 0.64808017 123 132 132
-0.34352311 0.04214701 0.64684337 117 126 127
-0.34161305 0.04218727 0.64746118 123 129 131
-0.34016907 0.04214701 0.64684337 133 137 139
-0.25560996 0.09707707 1.48987222 131 134 137
-0.25247994 0.09686419 1.48660493 149 152 154
-0.24936360 0.09665223 1.48335195 149 150 150
-0.24679975 0.09665223 1.48335195 136 136 134
-0.24370264 0.09644120 1.48011315 106 106 106
-0.24114437 0.09644120 1.48011315 79 77 86
-0.23806633 0.09623109 1.47688854 71 70 79
-0.23551364 0.09623109 1.47688854 78 77 87
-0.23296095 0.09623109 1.47688854 107 106 117
-0.23040828 0.09623109 1.47688854 102 101 109
-0.22736026 0.09602189 1.47367787 127 126 133
-0.22432546 0.09581360 1.47048128 141 140 145
-0.22178385 0.09581360 1.47048128 140 140 143
-0.21924224 0.09581360 1.47048128 119 119 122
-0.21670064 0.09581360 1.47048128 101 101 104
-0.21462460 0.09602189 1.47367787 104 102 118
-0.21161743 0.09581360 1.47048128 126 125 135
-0.20862328 0.09560621 1.46729839 136 135 144
-0.20608716 0.09560621 1.46729839 130 128 139
-0.20267367 0.09519412 1.46097374 123 122 128
-0.19886276 0.09458259 1.45158851 116 115 123
-0.19510049 0.09397887 1.44232309 115 115 124
-0.19051996 0.09417925 1.44539833 89 87 100
-0.18722332 0.09377934 1.43926084 89 87 101
-0.18473567 0.09377934 1.43926084 123 121 132
-0.18224803 0.09377934 1.43926084 131 130 139
0.06353130 0.06346274 0.97398251 147 148 151
0.06858166 0.06346274 0.97398251 126 126 133
0.07026510 0.06346274 0.97398251 124 124 129
0.07184532 0.06337169 0.97258514 123 124 127
0.07363200 0.06346274 0.97398251 128 129 131
0.07542382 0.06355406 0.97538394 130 131 133
0.07699890 0.06346274 0.97398251 124 124 126
0.07879557 0.06355406 0.97538394 102 100 103
0.08059740 0.06364563 0.97678941 93 89 93
0.08228570 0.06364563 0.97678941 104 99 108
0.08409518 0.06373747 0.97819889 135 130 134
0.08566231 0.06364563 0.97678941 144 140 143
0.12965439 0.04151322 0.63711637 161 160 162
0.13075560 0.04151322 0.63711637 161 160 161
0.13210513 0.04159140 0.63831621 153 153 155
0.13358577 0.04170923 0.64012450 135 136 137
0.13481948 0.04174865 0.64072955 133 133 135
0.13592692 0.04174865 0.64072955 140 140 141
0.13742404 0.04186736 0.64255148 138 138 139
0.13866608 0.04190709 0.64316112 135 135 136
0.13991047 0.04194688 0.64377195 134 135 136
0.14115722 0.04198676 0.64438391 132 132 134
0.14227100 0.04198676 0.64438391 125 125 129
0.14338477 0.04198676 0.64438391 139 138 145
0.14449853 0.04198676 0.64438391 145 144 152
0.14575084 0.04202671 0.64499700 121 120 129
0.33174491 0.03827562 0.58742791 126 121 122
0.33247212 0.03824249 0.58691937 125 120 122
0.33319807 0.03820940 0.58641165 134 129 131
0.33392277 0.03817638 0.58590478 138 137 137
0.33493549 0.03817638 0.58590478 141 140 140
0.33565804 0.03814341 0.58539885 142 142 141
0.33666986 0.03814341 0.58539885 145 144 143
0.33826590 0.03820940 0.58641165 145 145 143
0.33927947 0.03820940 0.58641165 147 146 144
0.33999893 0.03817638 0.58590478 157 153 151
0.34071714 0.03814341 0.58539885 156 152 150
0.34202430 0.03817638 0.58590478 154 151 145
0.76611644 0.08164523 1.25303483 141 141 141
0.76404536 0.08119498 1.24612474 146 146 146
0.76413906 0.08074967 1.23929036 144 144 143
0.77062267 0.08030922 1.23253059 140 140 142
0.77135050 0.08016346 1.23029375 143 142 141
0.77347696 0.08016346 1.23029375 146 144 143
0.77842897 0.08045550 1.23477566 148 147 142
0.78056318 0.08045550 1.23477566 152 151 145
0.78412569 0.08060232 1.23702896 157 157 151
0.78340465 0.08030922 1.23253059 158 159 152
-0.36376441 0.04368184 0.65307498 120 125 124
-0.36037803 0.04368184 0.65307498 125 131 132
-0.35855839 0.04359784 0.65181905 131 137 138
-0.35674572 0.04351415 0.65056801 127 132 134
-0.35494000 0.04343079 0.64932168 123 129 131
-0.35381770 0.04343079 0.64932168 117 123 125
-0.35235789 0.04338923 0.64870036 118 125 127
-0.35123667 0.04338923 0.64870036 120 128 129
-0.34978071 0.04334775 0.64808017 122 130 131
-0.34866056 0.04334775 0.64808017 124 132 133
-0.34754041 0.04334775 0.64808017 124 132 133
-0.34608939 0.04330635 0.64746118 125 132 134
-0.34497032 0.04330635 0.64746118 124 131 133
-0.34319565 0.04322378 0.64622670 120 125 128
-0.25730649 0.10031360 1.49976075 147 149 152
-0.25359216 0.09987170 1.49315381 149 150 150
-0.25045970 0.09965220 1.48987222 130 131 132
-0.24788459 0.09965220 1.48987222 94 93 100
-0.24477150 0.09943366 1.48660493 102 101 110
-0.24220203 0.09943366 1.48660493 124 121 131
-0.23858611 0.09899946 1.48011315 134 133 139
-0.23602787 0.09899946 1.48011315 138 137 142
-0.23346961 0.09899946 1.48011315 136 135 138
-0.23091136 0.09899946 1.48011315 122 121 123
-0.22785559 0.09878377 1.47688854 130 129 130
-0.22530292 0.09878377 1.47688854 130 129 131
-0.22226599 0.09856902 1.47367787 132 132 134
-0.21971886 0.09856902 1.47367787 148 149 151
-0.21670064 0.09835520 1.47048128 159 160 162
-0.21509218 0.09878377 1.47688854 148 149 152
-0.21161743 0.09835520 1.47048128 136 136 141
-0.20907581 0.09835520 1.47048128 119 118 126
-0.20608716 0.09814232 1.46729839 111 109 125
-0.20267367 0.09771929 1.46097374 110 107 126
-0.19051996 0.09667750 1.44539833 131 130 140
-0.18722332 0.09626698 1.43926084 132 132 139
-0.18473567 0.09626698 1.43926084 126 127 128
-0.18186191 0.09606303 1.43621159 132 132 134
0.06858166 0.06514619 0.97398251 116 115 122
0.07026510 0.06514619 0.97398251 109 109 118
0.07184532 0.06505273 0.97258514 113 114 119
0.07363200 0.06514619 0.97398251 127 127 131
0.07542382 0.06523993 0.97538394 125 126 128
0.07699890 0.06514619 0.97398251 126 126 130
0.07879557 0.06523993 0.97538394 120 117 124
0.08059740 0.06533393 0.97678941 116 110 120
0.08409518 0.06542821 0.97819889 122 117 123
0.12977637 0.04265451 0.63771576 169 169 167
0.13087861 0.04265451 0.63771576 167 167 165
0.13235438 0.04277524 0.63952059 155 156 156
0.13371202 0.04285610 0.64072955 136 137 138
0.13507481 0.04293726 0.64194304 139 140 143
0.13618436 0.04293726 0.64194304 140 141 144
0.13755442 0.04301874 0.64316112 137 138 141
0.13866608 0.04301874 0.64316112 137 138 140
0.13991047 0.04305959 0.64377195 130 131 133
0.14129154 0.04314153 0.64499700 126 127 130
0.14227100 0.04310052 0.64438391 125 126 130
0.14352119 0.04314153 0.64499700 140 139 146
0.14463602 0.04314153 0.64499700 141 140 148
0.14575084 0.04314153 0.64499700 121 121 130
0.14714567 0.04322378 0.64622670 125 124 131
0.14826262 0.04322378 0.64622670 151 150 154
0.14952211 0.04326503 0.64684337 169 169 169
0.33072957 0.03929095 0.58742791 134 132 131
0.33117095 0.03922297 0.58641165 126 124 123
0.33464622 0.03915523 0.58539885 151 150 143
0.33536845 0.03912144 0.58489376 160 159 157
0.33637938 0.03912144 0.58489376 154 153 151
0.33768168 0.03915523 0.58539885 138 137 135
0.33869350 0.03915523 0.58539885 141 140 138
0.33970532 0.03915523 0.58539885 159 155 154
0.34042314 0.03912144 0.58489376 162 158 157
0.34143409 0.03912144 0.58489376 148 148 148
0.34214982 0.03908772 0.58438951 131 131 131
0.78412569 0.08274042 1.23702896 148 148 144
-0.35968500 0.04472445 0.65181905 125 131 133
-0.35821393 0.04468149 0.65119290 126 132 134
-0.35640368 0.04459581 0.64994425 123 129 131
-0.35494000 0.04455309 0.64932168 121 127 129
-0.35381770 0.04455309 0.64932168 122 127 129
-0.35235789 0.04451046 0.64870036 122 127 129
-0.35090086 0.04446791 0.64808017 130 134 137
-0.34978071 0.04446791 0.64808017 129 133 136
-0.34899420 0.04451046 0.64870036 127 131 134
-0.34754041 0.04446791 0.64808017 125 130 132
-0.34642026 0.04446791 0.64808017 118 126 127
-0.34530011 0.04446791 0.64808017 117 125 127
-0.34385121 0.04442544 0.64746118 114 118 121
-0.26280585 0.10405689 1.51653659 136 137 141
-0.25787699 0.10313399 1.50308609 140 141 144
-0.25415197 0.10267866 1.49644995 130 131 134
-0.25156549 0.10267866 1.49644995 104 105 108
-0.24843058 0.10245249 1.49315381 96 96 102
-0.24477150 0.10200314 1.48660493 122 121 128
-0.24220203 0.10200314 1.48660493 150 149 154
-0.23910819 0.10177994 1.48335195 160 160 162
-0.23654434 0.10177994 1.48335195 154 154 156
-0.23346961 0.10155771 1.48011315 143 143 144
-0.23091136 0.10155771 1.48011315 131 131 132
-0.22785559 0.10133645 1.47688854 121 121 122
-0.22481312 0.10111616 1.47367787 108 108 110
-0.22178385 0.10089681 1.47048128 115 116 118
-0.21924224 0.10089681 1.47048128 144 145 147
-0.21576457 0.10046098 1.46412921 151 152 153
-0.19011460 0.09896475 1.44232309 163 167 165
-0.18186191 0.09854540 1.43621159 132 133 133
0.07026510 0.06682964 0.97398251 130 133 137
0.07194855 0.06682964 0.97398251 128 130 133
0.07373795 0.06692580 0.97538394 135 136 138
0.07553250 0.06702223 0.97678941 135 136 139
0.07710969 0.06692580 0.97538394 132 132 136
0.07890910 0.06702223 0.97678941 126 124 130
0.08059740 0.06702223 0.97678941 121 116 126
0.13383852 0.04400514 0.64133573 111 111 113
0.13507481 0.04404681 0.64194304 118 118 122
0.13618436 0.04404681 0.64194304 134 134 138
0.13755442 0.04413039 0.64316112 145 146 150
0.13866608 0.04413039 0.64316112 153 154 156
0.13991047 0.04417230 0.64377195 141 142 144
0.14115722 0.04421429 0.64438391 124 125 126
0.14227100 0.04421429 0.64438391 123 124 126
0.14338477 0.04421429 0.64438391 132 131 138
0.14449853 0.04421429 0.64438391 136 135 143
0.14575084 0.04425636 0.64499700 125 125 133
0.14700554 0.04429851 0.64561129 122 121 126
0.14812142 0.04429851 0.64561129 145 144 148
0.14937958 0.04434074 0.64622670 150 150 152
0.33507934 0.04009778 0.58438951 160 160 151
0.33608940 0.04009778 0.58438951 161 161 153
0.33739033 0.04013238 0.58489376 156 156 151
0.33840126 0.04013238 0.58489376 162 162 157
0.33941221 0.04013238 0.58489376 163 163 160
0.34012967 0.04009778 0.58438951 154 154 151
0.34113976 0.04009778 0.58438951 146 146 146
0.34185511 0.04006325 0.58388615 142 142 142
0.78412569 0.08487853 1.23702896 137 140 138
-0.34754041 0.04558806 0.64808017 109 122 122
-0.34608939 0.04554452 0.64746118 106 117 117
-0.34497032 0.04554452 0.64746118 96 106 106
-0.26985940 0.10739890 1.52678347 114 114 124
-0.26602218 0.10691729 1.51993692 115 115 125
-0.26221922 0.10643999 1.51315141 117 118 122
-0.25787699 0.10573196 1.50308609 123 124 128
-0.25415197 0.10526515 1.49644995 110 111 115
-0.25156549 0.10526515 1.49644995 120 121 125
-0.24843058 0.10503329 1.49315381 123 124 127
-0.24530946 0.10480244 1.48987222 120 120 123
-0.24273434 0.10480244 1.48987222 121 121 125
-0.23963255 0.10457262 1.48660493 121 121 125
-0.23654434 0.10434379 1.48335195 127 127 131
-0.23398048 0.10434379 1.48335195 130 130 133
-0.23141663 0.10434379 1.48335195 131 131 133
-0.22835310 0.10411596 1.48011315 119 120 122
-0.22481312 0.10366329 1.47367787 117 118 120
-0.22178385 0.10343842 1.47048128 118 119 121
-0.21924224 0.10343842 1.47048128 136 137 139
-0.21529956 0.10276964 1.46097374 141 141 143
0.07564149 0.06880969 0.97819889 133 134 136
0.07902297 0.06880969 0.97819889 111 110 118
0.08071370 0.06880969 0.97819889 108 107 117
0.13371202 0.04507099 0.64072955 156 156 158
0.13494702 0.04511363 0.64133573 149 148 151
0.13605551 0.04511363 0.64133573 142 142 145
0.13742404 0.04519916 0.64255148 140 140 143
0.13840345 0.04515636 0.64194304 151 151 153
0.13977773 0.04524204 0.64316112 170 170 170
0.14102317 0.04528501 0.64377195 168 169 169
0.14200103 0.04524204 0.64316112 155 156 154
0.14311269 0.04524204 0.64316112 143 143 145
0.14422433 0.04524204 0.64316112 136 136 139
0.14547402 0.04528501 0.64377195 120 120 127
0.14686567 0.04537118 0.64499700 108 108 113
0.14798050 0.04537118 0.64499700 120 120 123
0.14923730 0.04541439 0.64561129 143 144 146
0.15021014 0.04537118 0.64499700 172 172 172
0.33608940 0.04110786 0.58438951 163 163 161
0.33739033 0.04114332 0.58489376 167 167 162
0.33810955 0.04110786 0.58438951 173 174 167
0.33911961 0.04110786 0.58438951 176 176 171
0.34012967 0.04110786 0.58438951 172 172 168
0.34113976 0.04110786 0.58438951 166 166 164
0.34185511 0.04107245 0.58388615 154 154 153
0.34286430 0.04107245 0.58388615 149 149 147
-0.34754041 0.04670822 0.64808017 112 124 122
-0.26661998 0.10979055 1.52335250 140 140 151
-0.26339510 0.10954438 1.51993692 152 153 155
-0.25902569 0.10881246 1.50978136 152 153 155
-0.25527903 0.10832992 1.50308609 145 146 147
-0.25268108 0.10832992 1.50308609 136 137 138
-0.24952984 0.10809025 1.49976075 136 136 137
-0.24639250 0.10785164 1.49644995 132 132 133
-0.24326900 0.10761409 1.49315381 134 134 137
-0.24015921 0.10737757 1.48987222 132 132 136
-0.23758408 0.10737757 1.48987222 135 135 139
-0.23500897 0.10737757 1.48987222 127 128 132
-0.23192412 0.10714209 1.48660493 129 130 132
-0.22885278 0.10690764 1.48335195 125 126 128
-0.22579484 0.10667422 1.48011315 131 133 134
-0.22226599 0.10621042 1.47367787 135 136 138
-0.21971886 0.10621042 1.47367787 126 126 129
-0.21576457 0.10552223 1.46412921 109 108 113
0.13358577 0.04613484 0.64012450 151 151 151
0.13481948 0.04617845 0.64072955 146 145 147
0.13729391 0.04626590 0.64194304 136 135 142
0.13814183 0.04617845 0.64072955 153 153 155
0.13951300 0.04626590 0.64194304 171 172 173
0.14088938 0.04635369 0.64316112 178 178 178
0.14186643 0.04630976 0.64255148 175 175 173
0.14284164 0.04626590 0.64194304 162 162 159
0.14408763 0.04630976 0.64255148 149 149 147
0.14519823 0.04630976 0.64255148 144 143 142
0.14658672 0.04639772 0.64377195 137 137 137
0.14769943 0.04639772 0.64377195 137 137 137
0.14895359 0.04644182 0.64438391 141 142 140
0.15006736 0.04644182 0.64438391 153 153 150
0.33406925 0.04211793 0.58438951 139 139 139
0.33507934 0.04211793 0.58438951 149 149 149
0.33579993 0.04208165 0.58388615 163 163 163
0.33709946 0.04211793 0.58438951 164 163 162
0.33810955 0.04211793 0.58438951 158 157 156
0.33911961 0.04211793 0.58438951 155 154 152
0.33983672 0.04208165 0.58388615 151 150 147
0.34084591 0.04208165 0.58388615 154 153 151
0.34156093 0.04204543 0.58338368 162 161 159
0.34256926 0.04204543 0.58338368 166 166 162
-0.34720847 0.04778269 0.64746118 121 129 128
-0.26458156 0.11267675 1.52678347 154 155 157
-0.26076800 0.11217147 1.51993692 147 148 149
-0.25641614 0.11142199 1.50978136 140 141 141
-0.25437313 0.11167070 1.51315141 139 140 142
-0.25063887 0.11117439 1.50642633 138 139 140
-0.24748516 0.11092788 1.50308609 142 143 143
-0.24434541 0.11068247 1.49976075 139 140 142
-0.24068820 0.11019488 1.49315381 130 130 133
-0.23863302 0.11043813 1.49644995 129 130 134
-0.23552661 0.11019488 1.49315381 121 122 126
-0.23243384 0.10995269 1.48987222 126 130 131
-0.22935465 0.10971157 1.48660493 124 130 130
-0.22678517 0.10971157 1.48660493 122 128 128
0.13371202 0.04728589 0.64072955 133 133 133
0.13494702 0.04733063 0.64133573 129 128 136
0.13814183 0.04728589 0.64072955 137 137 144
0.14088938 0.04746535 0.64316112 145 146 146
0.14186643 0.04742036 0.64255148 146 146 145
0.14284164 0.04737545 0.64194304 149 148 146
0.14395119 0.04737545 0.64194304 147 146 143
0.14519823 0.04742036 0.64255148 154 153 149
0.14644764 0.04746535 0.64316112 150 148 146
0.14755930 0.04746535 0.64316112 145 142 140
0.14881213 0.04751042 0.64377195 137 133 132
0.14992484 0.04751042 0.64377195 138 137 135
0.33479071 0.04309085 0.58388615 143 142 143
0.33579993 0.04309085 0.58388615 136 135 135
0.33709946 0.04312799 0.58438951 129 128 128
0.33810955 0.04312799 0.58438951 125 124 124
0.33911961 0.04312799 0.58438951 131 130 130
0.33954427 0.04305376 0.58338368 138 137 137
0.34084591 0.04309085 0.58388615 139 138 137
0.34156093 0.04305376 0.58338368 146 145 144
0.34227470 0.04301675 0.58288205 159 158 155
-0.26135400 0.11505653 1.52335250 128 128 130
-0.25698850 0.11428607 1.51315141 121 120 122
-0.25494221 0.11454174 1.51653659 125 126 128
-0.25175777 0.11428607 1.51315141 138 139 141
-0.24858753 0.11403153 1.50978136 152 153 154
-0.24543139 0.11377812 1.50642633 145 146 148
-0.24175319 0.11327468 1.49976075 131 132 135
-0.23969127 0.11352585 1.50308609 128 129 133
-0.23656876 0.11327468 1.49976075 129 130 134
-0.23346004 0.11302463 1.49644995 124 127 129
-0.22985873 0.11252782 1.48987222 116 120 121
0.13827251 0.04843913 0.64133573 152 155 156
0.14173210 0.04848500 0.64194304 137 137 137
0.14644764 0.04857700 0.64316112 117 113 115
0.14992484 0.04862313 0.64377195 146 143 145
0.33579993 0.04410005 0.58388615 120 111 113
0.33709946 0.04413807 0.58438951 135 127 129
0.33810955 0.04413807 0.58438951 139 131 133
0.33882752 0.04410005 0.58388615 138 133 134
0.34055260 0.04406210 0.58338368 148 147 147
0.34126723 0.04402421 0.58288205 143 142 142
0.34227470 0.04402421 0.58288205 147 146 145
-0.24121952 0.11561112 1.49644995 142 143 147
-0.23969127 0.11612381 1.50308609 134 135 139
-0.23656876 0.11586690 1.49976075 135 136 140
-0.23346004 0.11561112 1.49644995 132 134 139
0.33739033 0.04518709 0.58489376 133 128 126
0.33810955 0.04514813 0.58438951 137 133 131
0.33911961 0.04514813 0.58438951 141 138 136
0.33983672 0.04510925 0.58388615 152 151 149
0.34084591 0.04510925 0.58388615 158 157 156
0.34156093 0.04507043 0.58338368 151 150 150
0.34227470 0.04503167 0.58288205 136 135 135
-0.24228923 0.11872177 1.50308609 143 143 150
0.33608940 0.04615821 0.58438951 147 146 140
0.33739033 0.04619803 0.58489376 141 139 134
0.33840126 0.04619803 0.58489376 143 142 140
0.33911961 0.04615821 0.58438951 141 141 138
0.34012967 0.04615821 0.58438951 149 148 146
0.34113976 0.04615821 0.58438951 152 151 149
0.34185511 0.04611845 0.58388615 149 148 148
0.34256926 0.04607876 0.58338368 131 130 130
0.33637938 0.04720897 0.58489376 135 135 131
0.33768168 0.04724974 0.58539885 124 124 120
0.33840126 0.04720897 0.58489376 118 119 119
0.33941221 0.04720897 0.58489376 127 128 127
0.34244505 0.04720897 0.58489376 145 144 144
-0.18846077 0.04745987 0.52105445 154 154 147
-0.18741611 0.04742341 0.52065426 148 147 141
1.32029009 0.13109402 1.43926084 174 176 169
-0.19445845 0.04873506 0.52509052 169 167 163
-0.19355087 0.04873506 0.52509052 172 171 165
-0.19053297 0.04865968 0.52427828 177 177 168
-0.18904199 0.04850961 0.52266139 175 172 164
-0.18784894 0.04843492 0.52185667 174 171 164
-0.18651620 0.04832332 0.52065426 171 168 161
1.31780243 0.13358167 1.43926084 157 158 151
1.31749284 0.13329867 1.43621159 152 153 146
1.31380594 0.13217850 1.42414248 145 146 139
-0.19551748 0.04968112 0.52549756 129 122 123
-0.19370091 0.04968112 0.52549756 177 171 170
-0.19097607 0.04968112 0.52549756 177 177 168
-0.18962680 0.04956585 0.52427828 181 177 168
-0.18828377 0.04945112 0.52306467 182 179 170
-0.18680315 0.04929896 0.52145529 177 174 167
1.31780243 0.13606931 1.43926084 149 149 142
1.31749284 0.13578103 1.43621159 141 142 135
1.31718457 0.13549396 1.43317509 133 134 128
1.31687760 0.13520811 1.43015158 124 125 122
1.31380594 0.13464002 1.42414248 118 119 117
1.31596434 0.13435775 1.42115688 133 133 133
1.32857513 0.13464002 1.42414248 123 125 124
-0.19551748 0.05058940 0.52549756 141 136 137
-0.19476017 0.05062865 0.52590525 164 159 160
-0.19385119 0.05062865 0.52590525 172 169 167
-0.19294220 0.05062865 0.52590525 165 166 159
-0.19203322 0.05062865 0.52590525 162 163 155
-0.19112423 0.05062865 0.52590525 150 150 142
-0.18962680 0.05047202 0.52427828 151 149 145
-0.18842916 0.05039408 0.52346861 149 147 144
-0.18680315 0.05020025 0.52145529 146 145 143
1.31282711 0.13855696 1.43926084 158 158 149
1.31531477 0.13855696 1.43926084 161 161 152
1.31501043 0.13826340 1.43621159 158 158 149
1.31749284 0.13826340 1.43621159 149 149 141
1.31718457 0.13797110 1.43317509 137 137 132
1.31687760 0.13768002 1.43015158 121 122 124
1.31657195 0.13739017 1.42714071 116 117 119
1.31903863 0.13739017 1.42714071 119 120 123
1.32150531 0.13739017 1.42714071 130 131 134
1.33418083 0.13768002 1.43015158 127 131 132
1.33383882 0.13739017 1.42714071 127 130 131
1.34159660 0.13768002 1.43015158 125 126 127
1.33842111 0.13710153 1.42414248 125 127 128
-0.19551748 0.05149768 0.52549756 148 148 143
-0.19476017 0.05153763 0.52590525 150 150 146
-0.19385119 0.05153763 0.52590525 148 149 143
-0.19294220 0.05153763 0.52590525 145 146 139
-0.19188435 0.05149768 0.52549756 138 138 134
-0.19097607 0.05149768 0.52549756 132 132 130
-0.18948026 0.05133849 0.52387315 145 144 142
-0.18813860 0.05121975 0.52266139 142 141 139
-0.18680315 0.05110155 0.52145529 149 150 147
1.30727601 0.14044823 1.43317509 153 156 148
1.30975318 0.14044823 1.43317509 153 156 148
1.30946183 0.14015192 1.43015158 158 159 153
1.31470740 0.14044823 1.43317509 154 155 149
1.31440568 0.14015192 1.43015158 144 144 140
1.31410515 0.13985686 1.42714071 124 125 127
1.31657195 0.13985686 1.42714071 122 123 126
1.31903863 0.13985686 1.42714071 127 128 131
1.32150531 0.13985686 1.42714071 133 134 138
1.33418083 0.14015192 1.43015158 133 135 138
1.33383882 0.13985686 1.42714071 136 137 140
1.34123886 0.13985686 1.42714071 128 130 132
-0.19385119 0.05244662 0.52590525 153 154 146
-0.19188435 0.05240596 0.52549756 139 139 135
-0.19112423 0.05244662 0.52590525 145 145 141
-0.18933395 0.05220362 0.52346861 160 160 157
-0.18770444 0.05200284 0.52145529 157 158 153
1.30451810 0.14262383 1.43015158 140 144 142
1.30423844 0.14232357 1.42714071 149 153 150
1.30670512 0.14232357 1.42714071 147 151 148
1.31193376 0.14262383 1.43015158 144 147 144
1.31163847 0.14232357 1.42714071 140 143 140
1.31410515 0.14232357 1.42714071 131 133 133
1.31380594 0.14202456 1.42414248 128 129 130
1.31626749 0.14202456 1.42414248 127 128 130
1.31872904 0.14202456 1.42414248 122 123 126
1.31842077 0.14172682 1.42115688 117 118 122
1.33418083 0.14262383 1.43015158 131 132 133
1.33103657 0.14202456 1.42414248 136 136 137
1.33912468 0.14262383 1.43015158 139 140 141
1.33877218 0.14232357 1.42714071 130 131 132
1.33842111 0.14202456 1.42414248 123 125 126
-0.19339231 0.05348007 0.52713209 141 142 133
-0.19142124 0.05343852 0.52672249 147 148 139
-0.19006780 0.05331424 0.52549756 165 165 157
-0.18886670 0.05323171 0.52468407 173 173 165
1.30451810 0.14509572 1.43015158 147 151 148
1.30698991 0.14509572 1.43015158 153 157 155
1.31223023 0.14540248 1.43317509 148 152 150
1.31749284 0.14571054 1.43621159 142 146 143
1.31440568 0.14509572 1.43015158 136 140 137
1.31410515 0.14479026 1.42714071 134 136 135
1.31657195 0.14479026 1.42714071 128 129 129
1.31903863 0.14479026 1.42714071 116 117 117
1.32150531 0.14479026 1.42714071 116 117 118
1.31842077 0.14418317 1.42115688 118 119 120
1.31811380 0.14388153 1.41818380 122 123 123
1.33170903 0.14509572 1.43015158 129 130 130
1.33137202 0.14479026 1.42714071 136 137 137
1.33103657 0.14448608 1.42414248 141 142 142
1.33630550 0.14479026 1.42714071 144 145 144
1.33877218 0.14479026 1.42714071 134 135 134
1.33842111 0.14448608 1.42414248 123 124 123
1.34654033 0.14509572 1.43015158 121 125 124
1.34901226 0.14509572 1.43015158 126 130 130
1.34863901 0.14479026 1.42714071 132 137 137
1.35110569 0.14479026 1.42714071 134 140 142
-0.19445461 0.05443351 0.52754229 149 150 141
-0.19354279 0.05443351 0.52754229 133 133 128
-0.19248119 0.05439118 0.52713209 121 122 117
-0.19157009 0.05439118 0.52713209 128 128 124
-0.19036293 0.05430672 0.52631354 151 151 143
1.30727601 0.14787960 1.43317509 137 138 136
1.30698991 0.14756763 1.43015158 143 144 142
1.31223023 0.14787960 1.43317509 144 145 144
1.31749284 0.14819291 1.43621159 141 142 142
1.31718457 0.14787960 1.43317509 136 138 137
1.31687760 0.14756763 1.43015158 132 133 133
1.31657195 0.14725696 1.42714071 126 127 127
1.31903863 0.14725696 1.42714071 115 116 116
1.32150531 0.14725696 1.42714071 125 126 127
1.31842077 0.14663953 1.42115688 133 134 136
1.31536198 0.14602725 1.41522300 136 137 139
1.32890534 0.14725696 1.42714071 131 133 135
1.32857513 0.14694759 1.42414248 133 136 137
1.32824612 0.14663953 1.42115688 142 146 147
1.33349812 0.14694759 1.42414248 148 152 151
1.33595967 0.14694759 1.42414248 144 147 146
1.33561528 0.14663953 1.42115688 133 136 135
1.34088266 0.14694759 1.42414248 127 132 130
1.34334421 0.14694759 1.42414248 128 133 132
1.34298432 0.14663953 1.42115688 133 139 137
1.34544063 0.14663953 1.42115688 138 144 144
-0.19475774 0.05543159 0.52836466 153 152 148
-0.19369353 0.05538842 0.52795315 139 139 137
-0.19263099 0.05534532 0.52754229 139 139 137
-0.19157009 0.05530228 0.52713209 136 136 134
-0.19036293 0.05521641 0.52631354 138 138 132
-0.18945324 0.05521641 0.52631354 149 149 142
1.30727601 0.15035674 1.43317509 110 110 110
1.30698991 0.15003952 1.43015158 113 114 114
1.31223023 0.15035674 1.43317509 116 117 119
1.31749284 0.15067528 1.43621159 119 120 124
1.31440568 0.15003952 1.43015158 121 122 126
1.31410515 0.14972365 1.42714071 120 121 124
1.31380594 0.14940910 1.42414248 116 117 119
1.31626749 0.14940910 1.42414248 121 122 124
1.32150531 0.14972365 1.42714071 125 128 129
1.31566250 0.14878397 1.41818380 127 131 132
1.31262159 0.14816403 1.41227472 122 126 127
1.32333350 0.14909588 1.42115688 111 116 116
1.32578981 0.14909588 1.42115688 103 109 109
1.32546735 0.14878397 1.41818380 106 112 112
1.32791865 0.14878397 1.41818380 112 116 117
1.33036983 0.14878397 1.41818380 119 123 123
1.33282101 0.14878397 1.41818380 126 130 131
1.33807158 0.14909588 1.42115688 127 133 133
1.33772349 0.14878397 1.41818380 127 133 133
1.33737683 0.14847335 1.41522300 126 132 132
1.33703160 0.14816403 1.41227472 123 128 129
-0.19916868 0.05630095 0.52795315 129 128 127
-0.19918694 0.05656527 0.53043181 135 134 134
-0.19780579 0.05643280 0.52918959 139 139 139
-0.19658421 0.05634483 0.52836466 137 136 136
-0.19612958 0.05647689 0.52960300 138 138 138
-0.19521420 0.05647689 0.52960300 149 149 149
-0.19399571 0.05638878 0.52877676 144 144 143
-0.19278102 0.05630095 0.52795315 147 147 146
-0.19171917 0.05625713 0.52754229 147 147 146
-0.19051084 0.05616971 0.52672249 145 144 140
-0.18960045 0.05616971 0.52672249 145 144 139
-0.18869005 0.05616971 0.52672249 138 138 131
1.30727601 0.15283386 1.43317509 128 132 133
1.30423844 0.15219036 1.42714071 128 132 133
1.30946183 0.15251143 1.43015158 124 128 130
1.31470740 0.15283386 1.43317509 111 116 118
1.31440568 0.15251143 1.43015158 98 104 106
1.31134450 0.15187062 1.42414248 94 98 100
1.31105173 0.15155223 1.42115688 98 99 99
1.31350803 0.15155223 1.42115688 120 121 121
1.31872904 0.15187062 1.42414248 127 131 131
1.31566250 0.15123518 1.41818380 123 132 131
1.30989265 0.15029192 1.40933859 119 128 127
1.32578981 0.15155223 1.42115688 117 123 123
1.32546735 0.15123518 1.41818380 119 125 125
1.32238567 0.15060504 1.41227472 120 126 126
1.32482660 0.15060504 1.41227472 121 127 127
1.32726765 0.15060504 1.41227472 127 133 133
1.33248460 0.15091945 1.41522300 130 136 136
1.32905293 0.14998011 1.40641463 126 132 132
-0.19901368 0.05716895 0.52754229 164 165 163
-0.19887571 0.05739226 0.52960300 153 154 151
-0.19765151 0.05730273 0.52877676 151 152 150
-0.19658421 0.05725807 0.52836466 145 146 145
-0.19612958 0.05739226 0.52960300 145 146 146
-0.19521420 0.05739226 0.52960300 143 144 144
-0.19399571 0.05730273 0.52877676 128 129 129
-0.19293126 0.05725807 0.52836466 133 134 134
-0.19186848 0.05721347 0.52795315 139 139 141
-0.19065899 0.05712449 0.52713209 137 137 132
-0.18960045 0.05708011 0.52672249 135 135 129
1.30451810 0.15498333 1.43015158 143 147 148
1.30149841 0.15433213 1.42414248 140 144 145
1.30670512 0.15465705 1.42714071 137 140 141
1.31193376 0.15498333 1.43015158 134 135 137
1.31163847 0.15465705 1.42714071 131 132 134
1.31134450 0.15433213 1.42414248 129 130 131
1.31105173 0.15400860 1.42115688 127 128 128
1.31350803 0.15400860 1.42115688 126 127 127
1.31872904 0.15433213 1.42414248 125 128 127
1.31566250 0.15368639 1.41818380 123 130 128
1.32546735 0.15368639 1.41818380 125 134 135
1.32238567 0.15304604 1.41227472 127 135 136
1.32207227 0.15272786 1.40933859 128 134 136
1.32450819 0.15272786 1.40933859 128 134 136
1.32694411 0.15272786 1.40933859 126 132 134
1.32662201 0.15241098 1.40641463 121 127 129
-0.19885893 0.05803560 0.52713209 166 167 164
-0.19856545 0.05821668 0.52877676 158 159 156
-0.19749744 0.05817130 0.52836466 157 158 155
-0.19643110 0.05812600 0.52795315 162 163 161
-0.19612958 0.05830764 0.52960300 167 168 166
-0.19521420 0.05830764 0.52960300 163 164 162
-0.19414715 0.05826212 0.52918959 149 153 148
-0.19293126 0.05817130 0.52836466 137 139 135
-0.19186848 0.05812600 0.52795315 129 130 126
-0.19065899 0.05803560 0.52713209 117 117 114
0.31538802 0.05965929 0.54187995 109 111 113
0.31632462 0.05965929 0.54187995 97 99 101
0.31650221 0.05951657 0.54058361 82 82 91
1.30451810 0.15745524 1.43015158 127 129 131
1.30149841 0.15679365 1.42414248 123 124 127
1.30670512 0.15712374 1.42714071 121 122 125
1.31193376 0.15745524 1.43015158 122 123 125
1.31163847 0.15712374 1.42714071 124 125 127
1.31134450 0.15679365 1.42414248 126 127 129
1.31105173 0.15646495 1.42115688 120 121 122
1.31350803 0.15646495 1.42115688 116 117 118
1.31872904 0.15679365 1.42414248 115 117 117
1.31291580 0.15581165 1.41522300 116 124 122
-0.19749744 0.05908453 0.52836466 137 137 137
-0.19612958 0.05922301 0.52960300 152 153 152
-0.19521420 0.05922301 0.52960300 146 147 145
-0.19399571 0.05913062 0.52877676 150 152 149
-0.19278102 0.05903852 0.52795315 146 148 145
-0.19171917 0.05899258 0.52754229 140 141 138
-0.19065899 0.05894670 0.52713209 141 142 141
0.31538802 0.06059589 0.54187995 120 124 126
0.31632462 0.06059589 0.54187995 117 121 124
0.31650221 0.06045093 0.54058361 112 116 120
0.31768993 0.06049917 0.54101503 108 112 117
1.30451810 0.15992713 1.43015158 107 110 112
1.30149841 0.15925516 1.42414248 109 110 114
1.30670512 0.15959044 1.42714071 113 114 118
1.31193376 0.15992713 1.43015158 114 114 118
1.31163847 0.15959044 1.42714071 113 113 117
1.31134450 0.15925516 1.42414248 110 110 114
1.31105173 0.15892130 1.42115688 105 106 108
-0.19551970 0.06023251 0.53043181 134 134 136
-0.19445074 0.06018541 0.53001708 145 144 146
-0.19308177 0.06004457 0.52877676 152 152 154
-0.19186848 0.05995104 0.52795315 154 155 157
