ply
format ascii 1.0
element vertex 1075
property float x
property float y
property float z
property uchar red
property uchar green
property uchar blue
end_header
-0.06964659 -0.41009856 0.94228087 110 120 126
-0.06977753 -0.39023435 0.94202694 108 118 128
-0.06957848 -0.36996933 0.94186776 108 117 128
-0.06950292 -0.34982015 0.94184132 106 115 125
-0.06961977 -0.33016736 0.94191791 104 113 126
-0.06968810 -0.31011946 0.94284441 104 111 126
-0.06968254 -0.28973009 0.94276886 103 111 125
-0.06134135 -0.26040268 0.93984780 102 110 127
-0.06970538 -0.26994937 0.94153623 102 110 127
-0.06358861 -0.25032786 0.93938802 115 119 131
-0.07135859 -0.25023092 0.94134489 106 110 125
-0.07013555 -0.22438245 0.89652311 171 149 135
-0.06107853 -0.23987658 0.93581903 166 156 153
-0.07010262 -0.20956101 0.89610211 157 133 118
-0.07009505 -0.18940545 0.89600400 164 140 123
-0.07009676 -0.17005125 0.89602627 159 135 119
-0.07009578 -0.15069049 0.89601418 159 135 118
-0.07009110 -0.13054885 0.89595446 160 135 119
-0.07008865 -0.11041332 0.89592300 158 132 117
-0.07008678 -0.09028000 0.89589919 159 134 118
-0.07008432 -0.07014722 0.89586773 159 134 116
-0.07008033 -0.05001474 0.89581641 158 133 115
-0.07007741 -0.02988495 0.89577932 158 132 116
-0.07007528 -0.00975699 0.89575233 155 129 113
-0.07003367 0.01036094 0.89522150 137 127 125
-0.06989811 0.03041733 0.89348980 133 132 136
-0.06980097 0.05042434 0.89224826 131 131 135
-0.06973481 0.07040642 0.89140261 130 130 134
-0.06968623 0.09037307 0.89078171 134 135 139
-0.06964813 0.11032830 0.89029474 182 180 179
-0.06961803 0.13027657 0.88991002 194 193 189
-0.06959374 0.15022006 0.88959959 197 195 192
-0.06957382 0.17016025 0.88934503 198 196 192
-0.06955706 0.19009760 0.88913079 199 198 193
-0.06954272 0.21003263 0.88894749 198 198 192
-0.06953034 0.22996588 0.88878924 199 199 194
-0.06951957 0.24989779 0.88865152 198 198 192
-0.06951017 0.26982883 0.88853130 199 200 193
-0.06950189 0.28975917 0.88842556 200 200 193
-0.06949471 0.30968960 0.88833370 198 199 191
-0.06948857 0.32962091 0.88825531 195 196 188
-0.06948343 0.34955367 0.88818959 190 190 183
-0.06947939 0.36948931 0.88813785 153 154 148
-0.06947696 0.38943175 0.88810692 0 0 0
-0.06947547 0.40937824 0.88808785 0 0 0
-0.06947415 0.42932494 0.88807099 0 0 0
-0.06947289 0.44927124 0.88805487 0 0 0
-0.06947146 0.46998312 0.88803658 0 0 0
-0.06946981 0.49069264 0.88801555 0 0 0
-0.06946871 0.50296364 0.88800151 0 0 0
-0.04973255 -0.60090255 0.89188932 0 0 0
-0.04973709 -0.58939443 0.89197085 0 0 0
-0.04974651 -0.56946014 0.89213981 0 0 0
-0.04975953 -0.54955804 0.89237357 0 0 0
-0.04977809 -0.52970453 0.89270697 0 0 0
-0.04980286 -0.50989972 0.89315203 0 0 0
-0.04983730 -0.49016990 0.89377044 0 0 0
-0.04628351 -0.48136887 0.91521722 109 122 126
-0.05039804 -0.48385050 0.92995304 112 123 128
-0.05012200 -0.47618540 0.89487974 8 9 10
-0.05155178 -0.47904863 0.91006301 104 118 124
-0.04953884 -0.47033660 0.93348987 110 122 126
-0.04991915 -0.45002925 0.93700414 111 121 126
-0.04742953 -0.43143822 0.93930537 110 120 125
-0.05594863 -0.42679805 0.94041831 108 120 125
-0.04410634 -0.41034095 0.93962073 108 119 126
-0.05362956 -0.40984192 0.94065800 109 119 126
-0.04539652 -0.38907805 0.93943569 108 118 125
-0.05513746 -0.39048688 0.94050587 108 117 128
-0.04618210 -0.37008568 0.93936825 108 117 125
-0.05592195 -0.36992732 0.94041289 107 117 127
-0.04580956 -0.35045695 0.93938933 105 114 124
-0.05547520 -0.34960246 0.94042174 105 116 125
-0.04444473 -0.33092214 0.93957983 104 113 124
-0.05405111 -0.32905899 0.94051644 104 114 123
-0.04168633 -0.31758983 0.93986719 102 113 126
-0.05051242 -0.30980120 0.94111411 102 111 126
-0.04103829 -0.28153860 0.93990809 102 109 125
-0.05007079 -0.29001046 0.94107270 103 110 127
-0.04622655 -0.26765692 0.93940964 103 110 124
-0.05384258 -0.27206369 0.94053244 103 110 124
-0.04969388 -0.25049363 0.93815979 104 109 124
-0.04998542 -0.22435605 0.89641784 168 145 130
-0.04966882 -0.23944833 0.93414833 149 142 141
-0.04996068 -0.20953131 0.89597416 156 132 117
-0.04995211 -0.18936641 0.89581910 164 140 125
-0.04995282 -0.17001398 0.89583002 159 135 119
-0.04995358 -0.15066196 0.89584501 158 134 117
-0.04995175 -0.13052833 0.89581374 159 135 118
-0.04995022 -0.11039657 0.89578719 159 133 117
-0.04994886 -0.09026627 0.89576290 159 134 117
-0.04994739 -0.07013696 0.89573678 158 133 116
-0.04994477 -0.05000772 0.89569057 159 133 118
-0.04994281 -0.02988075 0.89565465 158 133 116
-0.04994266 -0.00975587 0.89565319 155 130 113
-0.04991581 0.01036056 0.89517345 135 125 123
-0.04982101 0.03041682 0.89347441 133 132 135
-0.04975190 0.05042360 0.89223507 131 130 134
-0.04970484 0.07040551 0.89139108 139 138 142
-0.04967020 0.09037186 0.89076985 183 181 180
-0.04964326 0.11032733 0.89028682 196 193 190
-0.04962201 0.13027599 0.88990602 190 189 190
-0.04960485 0.15021983 0.88959820 198 197 192
-0.04959071 0.17016020 0.88934472 198 196 192
-0.04957876 0.19009750 0.88913032 196 195 191
-0.04956851 0.21003240 0.88894652 198 198 193
-0.04955966 0.22996552 0.88878783 199 199 194
-0.04955198 0.24989738 0.88865006 197 197 190
-0.04954529 0.26982846 0.88853011 198 198 191
-0.04953941 0.28975889 0.88842469 191 192 185
-0.04953429 0.30968930 0.88833285 175 174 168
-0.04952992 0.32962057 0.88825439 163 161 155
-0.04952623 0.34955312 0.88818821 159 159 156
-0.04952332 0.36948861 0.88813616 127 125 122
-0.04952171 0.38943194 0.88810735 0 0 0
-0.04952069 0.40937878 0.88808903 0 0 0
-0.04951978 0.42932573 0.88807263 0 0 0
-0.04951888 0.44927208 0.88805653 0 0 0
-0.04951785 0.46998392 0.88803808 0 0 0
-0.04951667 0.49069343 0.88801698 0 0 0
-0.04951589 0.50296445 0.88800294 0 0 0
-0.02969317 -0.60092014 0.89191543 0 0 0
-0.02969589 -0.58941178 0.89199711 0 0 0
-0.02970159 -0.56947852 0.89216863 0 0 0
-0.02970964 -0.54958109 0.89241104 0 0 0
-0.02972120 -0.52973520 0.89275872 0 0 0
-0.02973658 -0.50993961 0.89322198 0 0 0
-0.02975802 -0.49022264 0.89386674 0 0 0
-0.03530888 -0.48432590 0.91782320 106 122 125
-0.02992753 -0.48467794 0.92889187 111 123 124
-0.02980408 -0.47705549 0.89525356 6 7 7
-0.03016602 -0.47012015 0.93263860 112 121 125
-0.03033879 -0.45000004 0.93552088 111 121 126
-0.03041659 -0.43007545 0.93790093 110 119 125
-0.03043167 -0.41001479 0.93836150 109 118 126
-0.03057143 -0.39022233 0.93808338 108 117 124
-0.03027091 -0.36987474 0.93782144 107 116 124
-0.03041768 -0.34984791 0.93794064 104 114 124
-0.03057553 -0.32993223 0.93839205 104 113 123
-0.02933206 -0.31068443 0.93912962 103 111 125
-0.03780179 -0.30447810 0.94021814 103 111 126
-0.02922109 -0.28953199 0.93909971 102 111 126
-0.03772527 -0.29463928 0.94023974 103 110 126
-0.03041050 -0.27033967 0.93767925 101 110 123
-0.03035290 -0.25041022 0.93588909 102 109 124
-0.03334044 -0.22404943 0.89630764 163 143 133
-0.02659930 -0.22662305 0.90937846 129 127 128
-0.02505874 -0.23272257 0.93262379 110 113 124
-0.03300842 -0.20983522 0.89606730 154 132 119
-0.02542023 -0.21225983 0.90950866 115 114 118
-0.02389136 -0.20839880 0.92738856 105 106 120
-0.03419852 -0.18984272 0.89606447 164 142 129
-0.02877813 -0.18529812 0.90765209 109 106 106
-0.02443310 -0.19020807 0.92629673 103 107 122
-0.03523826 -0.16999192 0.89571399 161 139 126
-0.03007217 -0.17064932 0.90329855 139 128 123
-0.02512504 -0.16994087 0.92426041 104 105 121
-0.03157609 -0.14886713 0.89601847 167 134 127
-0.02662121 -0.15534722 0.90911002 162 138 142
-0.02439040 -0.15868184 0.92452854 100 97 112
-0.02982568 -0.13054653 0.89593794 163 125 122
-0.02982487 -0.11041153 0.89590989 159 123 118
-0.02982666 -0.09028700 0.89596945 158 122 115
-0.02982747 -0.07015698 0.89599390 162 126 120
-0.02982742 -0.05002427 0.89598699 158 122 118
-0.02982476 -0.02988906 0.89589905 157 122 120
-0.02982260 -0.00975783 0.89582487 159 125 123
-0.02980309 0.01036081 0.89522187 127 117 119
-0.02974494 0.03041663 0.89346926 127 127 130
-0.02970354 0.05042304 0.89222502 140 140 143
-0.02967549 0.07040483 0.89138251 185 183 181
-0.02965479 0.09037097 0.89076095 195 192 189
-0.02963881 0.11032666 0.89028132 196 194 191
-0.02962627 0.13027579 0.88990463 194 193 192
-0.02961606 0.15021979 0.88959798 196 194 191
-0.02960759 0.17015999 0.88934364 197 196 192
-0.02960046 0.19009729 0.88912932 198 198 193
-0.02959435 0.21003223 0.88894582 197 196 190
-0.02958906 0.22996529 0.88878697 197 197 190
-0.02958448 0.24989720 0.88864941 180 180 175
-0.02958050 0.26982840 0.88852990 166 166 163
-0.02957699 0.28975885 0.88842458 148 148 148
-0.02957393 0.30968920 0.88833254 158 158 155
-0.02957131 0.32962039 0.88825391 133 132 131
-0.02956909 0.34955269 0.88818710 150 149 146
-0.02956735 0.36948812 0.88813499 121 122 119
-0.02956643 0.38943192 0.88810729 0 0 0
-0.02956584 0.40937904 0.88808958 0 0 0
-0.02956531 0.42932625 0.88807370 0 0 0
-0.02956478 0.44927265 0.88805765 0 0 0
-0.02956416 0.46998448 0.88803914 0 0 0
-0.02956346 0.49069407 0.88801814 0 0 0
-0.02956300 0.50296516 0.88800420 0 0 0
-0.00965252 -0.60093232 0.89193351 0 0 0
-0.00965342 -0.58942410 0.89201575 0 0 0
-0.00965531 -0.56949280 0.89219101 0 0 0
-0.00965801 -0.54959954 0.89244103 0 0 0
-0.00966185 -0.52975831 0.89279768 0 0 0
-0.00966700 -0.50996941 0.89327424 0 0 0
-0.00967420 -0.49026604 0.89394601 0 0 0
-0.01004505 -0.48487692 0.92799622 110 121 123
-0.00968919 -0.47711172 0.89535935 23 26 27
-0.01022400 -0.47044066 0.93155839 111 121 125
-0.01007427 -0.45001869 0.93400531 111 121 125
-0.01008310 -0.43012350 0.93609651 109 119 125
-0.01022599 -0.41009782 0.93643024 109 117 125
-0.00998277 -0.38986073 0.93622192 108 117 123
-0.01019617 -0.37014742 0.93614885 106 116 124
-0.01007793 -0.34998639 0.93629764 106 113 124
-0.01013935 -0.32992837 0.93661886 104 112 123
-0.01020498 -0.30997054 0.93728754 103 111 123
-0.01008547 -0.28974856 0.93734211 103 110 123
-0.01013312 -0.26992339 0.93623549 101 109 124
-0.01011196 -0.24998258 0.93428409 101 108 125
-0.01008675 -0.23004767 0.93202218 101 108 124
-0.01004862 -0.20994189 0.92858486 102 107 124
-0.01002040 -0.19015346 0.92602592 100 105 125
-0.00999804 -0.16975651 0.92391499 102 104 124
-0.00970527 -0.14616994 0.89676915 161 113 118
-0.00997292 -0.15740280 0.92171141 134 118 130
-0.00969892 -0.13058336 0.89619184 138 109 103
-0.00969882 -0.11044669 0.89619443 140 115 110
-0.00969905 -0.09031204 0.89621736 151 128 118
-0.00969884 -0.07017338 0.89620210 159 134 130
-0.00969816 -0.05003284 0.89613855 167 145 137
-0.00969681 -0.02989306 0.89601705 170 149 141
-0.00969521 -0.00975854 0.89586855 179 155 150
-0.00968815 0.01036075 0.89521494 143 122 127
-0.00966907 0.03041616 0.89345590 144 143 145
-0.00965559 0.05042226 0.89221129 185 181 181
-0.00964650 0.07040396 0.89137142 196 192 190
-0.00963981 0.09037029 0.89075419 195 192 190
-0.00963464 0.11032618 0.89027743 195 194 192
-0.00963058 0.13027540 0.88990193 198 196 194
-0.00962727 0.15021963 0.88959702 198 196 193
-0.00962453 0.17015997 0.88934356 198 196 192
-0.00962221 0.19009741 0.88912986 188 188 182
-0.00962023 0.21003229 0.88894609 173 172 169
-0.00961850 0.22996519 0.88878658 164 163 161
-0.00961701 0.24989710 0.88864904 157 155 153
-0.00961572 0.26982837 0.88852980 159 159 155
-0.00961458 0.28975885 0.88842459 150 150 149
-0.00961359 0.30968930 0.88833284 149 149 146
-0.00961274 0.32962038 0.88825390 158 158 156
-0.00961201 0.34955245 0.88818649 152 152 150
-0.00961145 0.36948803 0.88813476 113 113 110
-0.00961115 0.38943181 0.88810705 0 0 0
-0.00961096 0.40937920 0.88808992 0 0 0
-0.00961079 0.42932664 0.88807452 0 0 0
-0.00961062 0.44927310 0.88805854 0 0 0
-0.00961042 0.46998492 0.88803998 0 0 0
-0.00961019 0.49069456 0.88801901 0 0 0
-0.00961004 0.50296569 0.88800513 0 0 0
0.01038880 -0.60093767 0.89194146 0 0 0
0.01038977 -0.58943003 0.89202474 0 0 0
0.01039187 -0.56950194 0.89220534 0 0 0
0.01039486 -0.54961168 0.89246074 0 0 0
0.01039906 -0.52977211 0.89282096 0 0 0
0.01040478 -0.50998997 0.89331034 0 0 0
0.01041347 -0.49031725 0.89403970 0 0 0
0.01393149 -0.48222694 0.90917519 109 122 122
0.01020633 -0.48454003 0.92654964 110 122 122
0.00942466 -0.47794102 0.89491322 16 19 19
0.00894989 -0.47872315 0.90214040 109 119 122
0.01008420 -0.47001750 0.93018875 110 121 125
0.01005260 -0.45014916 0.93247814 109 120 123
0.01007308 -0.43008118 0.93439019 108 119 124
0.01007551 -0.41000071 0.93463193 109 118 124
0.00988730 -0.39008552 0.93452799 107 117 123
0.01026352 -0.36990662 0.93447983 107 116 123
0.00996513 -0.35009931 0.93466948 106 114 123
0.01018437 -0.33003205 0.93497681 104 111 124
0.01008368 -0.31009833 0.93540265 103 112 122
0.01002747 -0.28998943 0.93552193 103 110 122
0.01014616 -0.26976551 0.93544452 101 109 124
0.01007089 -0.24989592 0.93395743 100 107 125
0.01004794 -0.22997339 0.93172327 101 107 125
0.01002393 -0.21011299 0.92935554 100 106 125
0.01006837 -0.19043029 0.92772709 99 105 123
0.00992822 -0.17001196 0.92563817 99 104 123
0.00991650 -0.14532114 0.89638275 153 113 116
0.01292751 -0.15152311 0.90310088 201 152 155
0.00996768 -0.15778175 0.92393288 129 114 124
0.01043671 -0.13056572 0.89607140 134 109 102
0.01043745 -0.11043836 0.89612730 140 119 112
0.01043789 -0.09030646 0.89616222 149 128 123
0.01043784 -0.07017004 0.89615946 161 142 135
0.01043693 -0.05002977 0.89608344 167 148 141
0.01043552 -0.02989123 0.89596276 171 154 145
0.01043376 -0.00975801 0.89581118 174 153 149
0.01042629 0.01036042 0.89517114 145 126 130
0.01040618 0.03041554 0.89343732 184 181 180
0.01039175 0.05042153 0.89219827 193 189 189
0.01038199 0.07040302 0.89135941 196 192 191
0.01037485 0.09036947 0.89074603 193 191 189
0.01036934 0.11032556 0.89027239 195 194 191
0.01036500 0.13027502 0.88989935 195 193 191
0.01036147 0.15021952 0.88959633 177 175 173
0.01035850 0.17015971 0.88934217 164 163 163
0.01035601 0.19009703 0.88912810 167 166 166
0.01035388 0.21003201 0.88894487 162 162 162
0.01035204 0.22996519 0.88878658 160 160 158
0.01035045 0.24989734 0.88864991 153 152 152
0.01034906 0.26982868 0.88853081 160 160 158
0.01034783 0.28975899 0.88842503 150 150 147
0.01034675 0.30968915 0.88833242 135 135 134
0.01034583 0.32962010 0.88825313 138 138 138
0.01034504 0.34955201 0.88818537 142 144 145
0.01034445 0.36948788 0.88813442 85 86 87
0.01034412 0.38943163 0.88810664 0 0 0
0.01034393 0.40937922 0.88808997 0 0 0
0.01034375 0.42932686 0.88807497 0 0 0
0.01034357 0.44927346 0.88805925 0 0 0
0.01034336 0.46998532 0.88804073 0 0 0
0.01034311 0.49069506 0.88801993 0 0 0
0.01034295 0.50296624 0.88800611 0 0 0
0.03043026 -0.60093867 0.89194294 0 0 0
0.03043306 -0.58943025 0.89202507 0 0 0
0.03043927 -0.56950288 0.89220682 0 0 0
0.03044809 -0.54961445 0.89246525 0 0 0
0.03046043 -0.52977567 0.89282697 0 0 0
0.03047756 -0.51000017 0.89332832 0 0 0
0.03050583 -0.49038018 0.89415509 0 0 0
0.03069142 -0.48332866 0.90891423 112 122 123
0.03022222 -0.48527340 0.92530047 110 122 123
0.02956864 -0.47901689 0.89549784 31 34 35
0.02991943 -0.47030598 0.92884867 111 121 124
0.03032167 -0.44974394 0.93109934 110 119 124
0.03006180 -0.43002590 0.93294828 108 119 124
0.03036494 -0.40996465 0.93310988 109 117 122
0.03021383 -0.38991135 0.93294615 108 117 123
0.03000262 -0.37006790 0.93283900 108 116 123
0.03042149 -0.34997091 0.93290734 105 113 122
0.03002780 -0.33008083 0.93339673 104 112 123
0.03043458 -0.31004278 0.93369233 104 111 123
0.03024462 -0.29022998 0.93389600 102 110 122
0.03025046 -0.27010462 0.93407680 102 108 123
0.03023961 -0.24982126 0.93368619 101 107 125
0.03019762 -0.23012464 0.93234148 100 106 125
0.03014444 -0.21041007 0.93067421 100 106 123
0.03010462 -0.19004706 0.92942234 97 103 122
0.03003907 -0.16959382 0.92738550 98 103 121
0.03049407 -0.14500349 0.89635056 151 111 113
0.03019094 -0.15200710 0.90676668 200 150 155
0.02998863 -0.15811060 0.92585903 122 110 122
0.03056808 -0.13055309 0.89598513 137 113 107
0.03057074 -0.11043058 0.89606436 140 118 111
0.03057226 -0.09030106 0.89610889 150 132 124
0.03057221 -0.07016596 0.89610712 161 140 135
0.03056942 -0.05002653 0.89602526 167 150 143
0.03056515 -0.02988915 0.89590023 167 150 144
0.03056032 -0.00975741 0.89575732 175 155 151
0.03053840 0.01035987 0.89511391 189 166 168
0.03048047 0.03041480 0.89341533 193 188 187
0.03043846 0.05042070 0.89218339 194 190 189
0.03041000 0.07040224 0.89134949 196 191 190
0.03038911 0.09036857 0.89073713 180 179 178
0.03037304 0.11032477 0.89026598 153 153 154
0.03036038 0.13027435 0.88989474 152 151 153
0.03035005 0.15021876 0.88959183 169 168 168
0.03034141 0.17015901 0.88933852 163 160 161
0.03033416 0.19009657 0.88912594 155 154 153
0.03032794 0.21003172 0.88894364 156 155 156
0.03032260 0.22996526 0.88878684 153 152 152
0.03031794 0.24989751 0.88865052 148 149 150
0.03031387 0.26982873 0.88853098 158 159 158
0.03031024 0.28975892 0.88842482 140 141 140
0.03030705 0.30968873 0.88833119 159 160 158
0.03030436 0.32961980 0.88825232 150 150 149
0.03030205 0.34955175 0.88818471 160 161 160
0.03030033 0.36948777 0.88813413 90 89 88
0.03029938 0.38943146 0.88810623 0 0 0
0.03029881 0.40937910 0.88808972 0 0 0
0.03029831 0.42932692 0.88807508 0 0 0
0.03029779 0.44927367 0.88805966 0 0 0
0.03029716 0.46998566 0.88804136 0 0 0
0.03029646 0.49069550 0.88802071 0 0 0
0.03029599 0.50296671 0.88800693 0 0 0
0.05047134 -0.60093404 0.89193606 0 0 0
0.05047592 -0.58942506 0.89201721 0 0 0
0.05048608 -0.56949658 0.89219696 0 0 0
0.05050068 -0.54960816 0.89245504 0 0 0
0.05052097 -0.52976780 0.89281370 0 0 0
0.05054910 -0.50999059 0.89331151 0 0 0
0.05069204 -0.48984452 0.89429971 3 4 4
0.04999389 -0.48881605 0.91633214 108 125 125
0.05020657 -0.48605843 0.92511340 111 122 125
0.04515787 -0.47978218 0.89658633 72 82 83
0.05009428 -0.47034784 0.92780835 112 121 124
0.05006684 -0.45026881 0.92983582 111 120 124
0.05044053 -0.43021818 0.93160093 108 119 124
0.05019373 -0.41018521 0.93170804 108 118 123
0.05039830 -0.38999342 0.93151664 109 117 122
0.05029054 -0.36996835 0.93145522 108 116 123
0.05029925 -0.34990323 0.93161342 106 113 122
0.05031895 -0.32990513 0.93197973 105 112 122
0.05033690 -0.30987894 0.93231123 104 111 121
0.05035301 -0.28982927 0.93260656 102 110 122
0.05016176 -0.27012554 0.93257732 102 108 122
0.05053185 -0.24998228 0.93247838 100 107 123
0.05031856 -0.23003101 0.93196543 100 106 124
0.05025111 -0.21041678 0.93070423 99 105 121
0.05020083 -0.19011378 0.92975711 97 103 121
0.05011281 -0.16972826 0.92811695 99 103 120
0.05087125 -0.14553805 0.89629909 152 114 114
0.04640435 -0.15185355 0.90293037 214 166 172
0.04998748 -0.15810605 0.92583098 129 116 127
0.05069652 -0.13054335 0.89591812 136 112 105
0.05070011 -0.11042036 0.89598144 142 121 116
0.05070309 -0.09029349 0.89603392 150 129 126
0.05070346 -0.07016071 0.89604021 164 145 140
0.05069956 -0.05002344 0.89597061 169 150 145
0.05069312 -0.02988767 0.89585613 171 154 147
0.05068500 -0.00975692 0.89571295 173 152 149
0.05064849 0.01035929 0.89506813 191 169 171
0.05055326 0.03041381 0.89338474 193 188 186
0.05048435 0.05041976 0.89216657 173 170 170
0.05043729 0.07040107 0.89133474 145 144 147
0.05040278 0.09036731 0.89072473 131 130 134
0.05037629 0.11032360 0.89025655 130 131 135
0.05035547 0.13027342 0.88988837 142 141 144
0.05033844 0.15021802 0.88958746 157 155 156
0.05032421 0.17015852 0.88933592 156 156 158
0.05031226 0.19009630 0.88912467 154 153 155
0.05030200 0.21003164 0.88894330 156 155 155
0.05029317 0.22996538 0.88878728 155 155 156
0.05028546 0.24989766 0.88865105 150 149 148
0.05027868 0.26982880 0.88853124 158 158 155
0.05027266 0.28975892 0.88842482 144 144 144
0.05026740 0.30968894 0.88833181 147 146 143
0.05026289 0.32961977 0.88825226 146 146 144
0.05025910 0.34955192 0.88818514 148 147 143
0.05025623 0.36948791 0.88813448 87 87 86
0.05025465 0.38943160 0.88810655 0 0 0
0.05025371 0.40937918 0.88808988 0 0 0
0.05025287 0.42932697 0.88807518 0 0 0
0.05025201 0.44927376 0.88805984 0 0 0
0.05025098 0.46998584 0.88804170 0 0 0
0.05024982 0.49069574 0.88802116 0 0 0
0.05024903 0.50296692 0.88800731 0 0 0
0.07051150 -0.60092444 0.89192182 0 0 0
0.07051784 -0.58941504 0.89200203 0 0 0
0.07053182 -0.56948509 0.89217894 0 0 0
0.07055185 -0.54959432 0.89243253 0 0 0
0.07057930 -0.52974784 0.89278003 0 0 0
0.07061791 -0.50996611 0.89326857 0 0 0
0.07043826 -0.49068941 0.89411493 3 4 4
0.07123284 -0.48611862 0.90564734 108 122 123
0.06999215 -0.48718162 0.92486293 113 123 123
0.07007104 -0.46988716 0.92689944 112 122 123
0.07021487 -0.44998408 0.92880794 111 120 124
0.07032998 -0.42982297 0.93033545 111 119 123
0.07033906 -0.40977550 0.93045211 109 118 123
0.07013034 -0.39010189 0.93033175 109 117 123
0.07052945 -0.37004776 0.93037235 109 116 123
0.07019646 -0.35011802 0.93056918 107 114 122
0.07051519 -0.33013744 0.93085617 105 113 122
0.06954547 -0.31003898 0.93129627 103 111 122
0.06982455 -0.28997542 0.93173042 102 109 122
0.06963131 -0.27023118 0.93172765 101 108 122
0.06960269 -0.24999991 0.93134855 101 107 123
0.07019321 -0.22965529 0.93102374 101 106 122
0.07033553 -0.21034426 0.93038784 98 104 120
0.07030066 -0.19014444 0.92991161 98 103 120
0.07020488 -0.16982362 0.92863397 99 102 118
0.06984866 -0.14618463 0.89630637 158 116 118
0.06988591 -0.15787526 0.92447666 138 124 133
0.07004547 -0.13052925 0.89582156 137 113 108
0.07005131 -0.11040980 0.89589597 141 121 115
0.07005576 -0.09028530 0.89595270 154 135 132
0.07005679 -0.07015487 0.89596587 165 146 142
0.07005280 -0.05002025 0.89591449 170 154 149
0.07004583 -0.02988661 0.89582481 170 153 149
0.07003393 -0.00975651 0.89567275 175 158 154
0.07017142 0.01050448 0.89500671 180 157 160
0.07062402 0.03041251 0.89334590 145 144 145
0.07052837 0.05041804 0.89213581 131 131 136
0.07046350 0.07039952 0.89131488 129 130 135
0.07041577 0.09036591 0.89071080 130 130 136
0.07037925 0.11032264 0.89024867 135 134 138
0.07035047 0.13027287 0.88988460 145 145 148
0.07032681 0.15021765 0.88958524 163 161 162
0.07030704 0.17015835 0.88933507 167 166 165
0.07029036 0.19009620 0.88912418 156 154 154
0.07027611 0.21003178 0.88894388 164 162 162
0.07026381 0.22996565 0.88878832 145 144 144
0.07025306 0.24989801 0.88865227 137 137 137
0.07024358 0.26982915 0.88853237 147 145 143
0.07023508 0.28975895 0.88842490 163 162 159
0.07022770 0.30968887 0.88833159 160 158 155
0.07022141 0.32961969 0.88825202 147 147 143
0.07021617 0.34955212 0.88818566 134 134 133
0.07021220 0.36948830 0.88813541 76 76 74
0.07021000 0.38943207 0.88810763 0 0 0
0.07020865 0.40937949 0.88809055 0 0 0
0.07020745 0.42932705 0.88807537 0 0 0
0.07020623 0.44927381 0.88805994 0 0 0
0.07020480 0.46998594 0.88804190 0 0 0
0.07020318 0.49069586 0.88802137 0 0 0
0.07020208 0.50296699 0.88800744 0 0 0
0.09055064 -0.60091226 0.89190374 0 0 0
0.09055859 -0.58940182 0.89198202 0 0 0
0.09057585 -0.56946800 0.89215214 0 0 0
0.09060065 -0.54957218 0.89239655 0 0 0
0.09063470 -0.52971949 0.89273221 0 0 0
0.09068328 -0.50993326 0.89321103 0 0 0
0.09001055 -0.49184219 0.89424942 5 6 6
0.09186123 -0.49322969 0.91550432 111 122 127
0.09004689 -0.48735191 0.92326138 111 123 124
0.09003330 -0.46955385 0.92624077 113 122 124
0.09019346 -0.44954057 0.92789121 113 121 124
0.09032190 -0.43010885 0.92921610 110 119 122
0.09034580 -0.41014157 0.92945959 110 118 124
0.09033985 -0.39003351 0.92939581 110 117 123
0.09035446 -0.37001242 0.92954454 109 116 123
0.09037210 -0.34999824 0.92972660 106 114 123
0.09039411 -0.32999174 0.92995354 105 113 120
0.08975691 -0.30993718 0.93038238 104 110 121
0.08971205 -0.29019772 0.93120639 103 109 122
0.08970947 -0.27007615 0.93118970 102 109 120
0.08943559 -0.25003850 0.93039555 101 107 122
0.09036054 -0.22999197 0.92984123 100 106 120
0.09033740 -0.21011687 0.92938608 99 104 119
0.09033483 -0.19002922 0.92935488 97 102 120
0.09025958 -0.16981308 0.92857098 98 102 118
0.08952247 -0.14611819 0.89604151 154 112 115
0.09567616 -0.15539409 0.91148081 186 149 153
0.08716309 -0.15781223 0.92328331 159 130 137
0.08938744 -0.13051108 0.89569731 134 109 104
0.08939746 -0.11039761 0.89579713 140 120 116
0.08940298 -0.09027521 0.89585248 151 135 132
0.08940442 -0.07014710 0.89586692 165 150 146
0.08940144 -0.05001586 0.89583675 169 154 150
0.08939448 -0.02988464 0.89576665 172 159 154
0.08937930 -0.00975592 0.89561450 175 159 157
0.08948221 0.01021843 0.89496625 148 127 131
0.09052261 0.03054979 0.89327825 134 132 135
0.09056977 0.05041561 0.89209231 129 129 133
0.09048824 0.07039750 0.89128900 127 127 131
0.09042822 0.09036460 0.89069773 129 129 132
0.09038186 0.11032168 0.89024094 126 125 130
0.09034513 0.13027208 0.88987914 133 133 136
0.09031501 0.15021718 0.88958245 151 149 151
0.09028986 0.17015827 0.88933463 146 144 144
0.09026850 0.19009620 0.88912420 149 149 150
0.09025026 0.21003196 0.88894462 149 148 148
0.09023453 0.22996599 0.88878966 135 134 138
0.09022068 0.24989827 0.88865322 128 129 132
0.09020847 0.26982934 0.88853298 131 131 133
0.09019764 0.28975939 0.88842627 140 140 140
0.09018811 0.30968916 0.88833243 150 151 149
0.09018000 0.32961986 0.88825250 131 129 125
0.09017325 0.34955226 0.88818600 153 154 154
0.09016821 0.36948872 0.88813641 69 70 71
0.09016543 0.38943268 0.88810902 0 0 0
0.09016367 0.40938000 0.88809166 0 0 0
0.09016206 0.42932725 0.88807578 0 0 0
0.09016046 0.44927389 0.88806010 0 0 0
0.09015862 0.46998598 0.88804198 0 0 0
0.09015654 0.49069590 0.88802144 0 0 0
0.09015512 0.50296699 0.88800744 0 0 0
0.11058793 -0.60089435 0.89187716 0 0 0
0.11059756 -0.58938389 0.89195487 0 0 0
0.11061775 -0.56944612 0.89211784 0 0 0
0.11064647 -0.54954338 0.89234973 0 0 0
0.11068652 -0.52968428 0.89267283 0 0 0
0.11040028 -0.51007728 0.89311480 0 0 0
0.10922273 -0.49291311 0.89396818 4 5 5
0.10924635 -0.49326435 0.91091461 110 120 123
0.11022610 -0.48861666 0.92268021 113 123 124
0.10991532 -0.47028916 0.92539030 112 122 123
0.11016219 -0.45027772 0.92699067 113 122 124
0.11042334 -0.43027073 0.92820911 112 120 123
0.11032813 -0.40977347 0.92862642 110 118 123
0.11033971 -0.38975105 0.92872299 109 117 122
0.11036513 -0.36977044 0.92893702 109 116 121
0.11007580 -0.34998018 0.92918485 108 113 122
0.10963030 -0.32983286 0.92950601 104 112 121
0.10968407 -0.30990072 0.92996098 104 110 119
0.10980235 -0.29012376 0.93096702 103 109 120
0.10986227 -0.26969972 0.93026580 102 108 120
0.11030047 -0.25001584 0.92841356 101 107 121
0.11025565 -0.22986073 0.92803305 101 105 118
0.11019322 -0.20969357 0.92750989 98 104 119
0.10997518 -0.19005137 0.92742914 98 103 118
0.11033540 -0.16996514 0.92696942 99 101 116
0.10950659 -0.14675984 0.89564928 153 112 114
0.10953086 -0.15597355 0.90874921 174 152 156
0.10949686 -0.13049146 0.89556320 130 104 100
0.10951216 -0.11038413 0.89568792 135 113 108
0.10951906 -0.09026433 0.89574434 148 133 129
0.10951979 -0.07013800 0.89575071 161 148 143
0.10951702 -0.05000976 0.89572806 166 153 148
0.10951099 -0.02988168 0.89567844 167 155 151
0.10949490 -0.00975512 0.89554585 173 160 157
0.10941360 0.01035713 0.89488116 143 122 127
0.11016604 0.03046476 0.89323135 133 133 136
0.11061051 0.05041379 0.89205939 134 133 136
0.11051250 0.07039592 0.89126874 130 130 134
0.11044034 0.09036349 0.89068664 129 129 135
0.11038426 0.11032087 0.89023430 124 124 131
0.11033947 0.13027119 0.88987304 147 147 150
0.11030281 0.15021634 0.88957740 152 151 153
0.11027244 0.17015786 0.88933247 148 147 149
0.11024656 0.19009610 0.88912371 165 164 164
0.11022435 0.21003193 0.88894450 167 166 164
0.11020518 0.22996607 0.88878993 153 152 152
0.11018831 0.24989846 0.88865389 148 148 147
0.11017331 0.26982932 0.88853294 161 161 160
0.11016019 0.28975968 0.88842712 145 145 146
0.11014854 0.30968940 0.88833312 158 156 154
0.11013873 0.32962043 0.88825404 128 127 127
0.11013044 0.34955272 0.88818718 163 163 159
0.11012434 0.36948936 0.88813796 64 64 62
0.11012095 0.38943338 0.88811062 0 0 0
0.11011878 0.40938068 0.88809315 0 0 0
0.11011672 0.42932762 0.88807654 0 0 0
0.11011473 0.44927407 0.88806045 0 0 0
0.11011244 0.46998602 0.88804205 0 0 0
0.11010986 0.49069576 0.88802119 0 0 0
0.11010809 0.50296673 0.88800698 0 0 0
0.13062287 -0.60087126 0.89184288 0 0 0
0.13063408 -0.58936047 0.89191942 0 0 0
0.13065702 -0.56941953 0.89207616 0 0 0
0.13068909 -0.54950985 0.89229525 0 0 0
0.13056670 -0.52978176 0.89260211 0 0 0
0.12965615 -0.50964126 0.89304989 0 0 0
0.13719815 -0.50002643 0.92044279 115 124 124
0.12906882 -0.49413398 0.89401178 10 11 12
0.13056396 -0.49712839 0.91298101 114 125 125
0.13009809 -0.49040900 0.92269792 114 123 124
0.12987212 -0.47048486 0.92492370 113 121 124
0.13009161 -0.45046247 0.92648697 112 121 125
0.13024459 -0.43015232 0.92757849 111 119 123
0.13024812 -0.41024317 0.92803639 110 118 122
0.13038244 -0.39025209 0.92815352 109 117 123
0.13019270 -0.36981366 0.92840956 109 115 122
0.13024941 -0.34975382 0.92884221 107 113 120
0.12968596 -0.32976517 0.92931531 104 112 119
0.12974570 -0.30982916 0.92974629 104 110 119
0.12982669 -0.28992774 0.93033522 103 109 119
0.13852302 -0.26247794 0.91868308 132 131 131
0.12938941 -0.26996865 0.92931838 103 109 119
0.13656575 -0.24672229 0.89529797 147 135 126
0.13458836 -0.25029112 0.90295032 117 117 118
0.12846484 -0.24945102 0.92631748 102 108 118
0.13652467 -0.22945598 0.89516580 157 140 131
0.13379196 -0.22985895 0.90282546 106 104 111
0.12842665 -0.23016791 0.92604321 103 106 119
0.13651600 -0.20932903 0.89510946 158 140 132
0.13378782 -0.20956624 0.90279756 104 105 115
0.12839408 -0.21010787 0.92580519 101 105 117
0.13657375 -0.18999268 0.89527998 154 137 128
0.13455792 -0.18846822 0.90601733 101 100 109
0.12851789 -0.18994302 0.92565728 101 103 118
0.13735352 -0.17043566 0.89526323 158 137 129
0.13642504 -0.17034147 0.90998003 102 101 114
0.12909662 -0.17037761 0.92625313 101 102 116
0.13063411 -0.14802375 0.89538819 160 123 121
0.12971693 -0.15624863 0.90852597 155 132 137
0.13510925 -0.15992357 0.92247361 110 103 113
0.12957195 -0.13044452 0.89523934 157 120 113
0.12958398 -0.11033901 0.89532173 156 120 114
0.12959068 -0.09022648 0.89536882 161 128 122
0.12959567 -0.07011067 0.89540219 161 128 123
0.12959686 -0.04999200 0.89540997 164 131 126
0.12958582 -0.02987027 0.89533430 164 132 126
0.12956974 -0.00975139 0.89522311 166 131 128
0.12950321 0.01035602 0.89475880 135 120 122
0.12974438 0.03031383 0.89319304 134 132 134
0.13065038 0.05041218 0.89203052 137 136 138
0.13053609 0.07039447 0.89125009 136 136 138
0.13045208 0.09036246 0.89067641 125 126 132
0.13038624 0.11031995 0.89022686 119 119 126
0.13033355 0.13027032 0.88986707 140 140 143
0.13029048 0.15021559 0.88957298 166 164 164
0.13025475 0.17015721 0.88932905 141 141 143
0.13022451 0.19009586 0.88912255 157 156 156
0.13019867 0.21003230 0.88894607 142 140 141
0.13017602 0.22996645 0.88879141 142 141 142
0.13015608 0.24989885 0.88865528 136 135 134
0.13013843 0.26982989 0.88853481 142 141 140
0.13012284 0.28976006 0.88842832 164 165 162
0.13010923 0.30969021 0.88833543 146 145 142
0.13009766 0.32962131 0.88825640 148 149 147
0.13008788 0.34955369 0.88818964 146 143 140
0.13008068 0.36949039 0.88814045 55 54 53
0.13007665 0.38943441 0.88811298 0 0 0
0.13007404 0.40938159 0.88809513 0 0 0
0.13007148 0.42932817 0.88807769 0 0 0
0.13006903 0.44927433 0.88806097 0 0 0
0.13006626 0.46998604 0.88804209 0 0 0
0.13006312 0.49069546 0.88802065 0 0 0
0.13006099 0.50296621 0.88800606 0 0 0
0.15065501 -0.60084309 0.89180108 0 0 0
0.15066761 -0.58933160 0.89187572 0 0 0
0.15069282 -0.56938687 0.89202497 0 0 0
0.15072774 -0.54947079 0.89223179 0 0 0
0.14981854 -0.52945752 0.89253589 0 0 0
0.14930793 -0.50979215 0.89296372 0 0 0
0.15123804 -0.50146262 0.91821986 113 125 126
0.14867393 -0.49552374 0.89397750 14 16 16
0.15434770 -0.49812715 0.91374604 114 124 125
0.14965861 -0.48990481 0.92255342 115 124 125
0.14977461 -0.47023171 0.92442648 113 122 125
0.15002638 -0.45021673 0.92598123 113 121 123
0.15018839 -0.42987597 0.92698244 112 120 124
0.15026233 -0.41005087 0.92743888 110 117 123
0.15029177 -0.39008981 0.92762045 109 116 122
0.15034362 -0.37017515 0.92793945 108 115 121
0.14988686 -0.35050411 0.92846228 107 113 120
0.14961757 -0.32979777 0.92905442 105 112 119
0.14986093 -0.30980340 0.92923681 104 111 118
0.14958035 -0.29011385 0.92926016 103 109 118
0.14087943 -0.26242929 0.91851282 138 132 128
0.15015700 -0.27244930 0.92894648 108 111 117
0.14965034 -0.24643284 0.89501085 156 132 113
0.15057520 -0.25573797 0.90054081 158 137 128
0.14964689 -0.22941143 0.89499153 156 132 114
0.14949755 -0.20945561 0.89493341 156 131 111
0.14977678 -0.19013397 0.89489428 157 132 112
0.14962724 -0.17060573 0.89487266 156 130 111
0.14962506 -0.15049625 0.89485994 155 128 108
0.14963454 -0.13039750 0.89491759 157 129 108
0.14964617 -0.11029804 0.89498834 157 129 110
0.14965391 -0.09019271 0.89503429 159 131 112
0.14966422 -0.07008666 0.89509612 155 127 109
0.14966513 -0.04997477 0.89510150 153 126 107
0.14965658 -0.02986069 0.89505005 151 122 103
0.14964612 -0.00974872 0.89498686 151 123 105
0.14958923 0.01035494 0.89464608 133 120 117
0.14944943 0.03030425 0.89314644 142 139 139
0.15057810 0.05051215 0.89200160 143 142 144
0.15055919 0.07039317 0.89123354 130 129 134
0.15046305 0.09036124 0.89066440 123 123 129
0.15038758 0.11031881 0.89021761 124 124 129
0.15032732 0.13026941 0.88986087 145 145 147
0.15027794 0.15021484 0.88956852 158 156 157
0.15023686 0.17015651 0.88932538 147 147 149
0.15020231 0.19009549 0.88912081 155 155 155
0.15017270 0.21003218 0.88894554 142 142 144
0.15014670 0.22996650 0.88879161 148 148 148
0.15012374 0.24989896 0.88865568 131 131 132
0.15010354 0.26983030 0.88853615 138 139 140
0.15008574 0.28976085 0.88843072 140 141 141
0.15007021 0.30969138 0.88833879 124 125 126
0.15005671 0.32962225 0.88825893 120 120 121
0.15004551 0.34955486 0.88819260 128 128 128
0.15003726 0.36949176 0.88814373 53 54 54
0.15003260 0.38943582 0.88811618 0 0 0
0.15002948 0.40938278 0.88809771 0 0 0
0.15002635 0.42932888 0.88807916 0 0 0
0.15002338 0.44927464 0.88806159 0 0 0
0.15002008 0.46998605 0.88804211 0 0 0
0.15001634 0.49069506 0.88801993 0 0 0
0.15001378 0.50296550 0.88800480 0 0 0
0.17068354 -0.60080880 0.89175017 0 0 0
0.17069762 -0.58929728 0.89182376 0 0 0
0.17072529 -0.56935078 0.89196840 0 0 0
0.17024243 -0.54960305 0.89216485 0 0 0
0.16927581 -0.52955496 0.89245474 0 0 0
0.16935225 -0.50973177 0.89285790 0 0 0
0.17063966 -0.50337477 0.91842915 116 124 125
0.17618823 -0.50085696 0.92050755 115 125 125
0.16880603 -0.49709701 0.89396268 25 27 27
0.16429489 -0.49865622 0.91239970 116 124 124
0.17029316 -0.49005605 0.92249148 116 124 124
0.17010969 -0.47020726 0.92397418 114 122 124
0.16994153 -0.44997590 0.92548546 113 121 123
0.17010932 -0.42960573 0.92639979 111 119 122
0.17020282 -0.40981619 0.92690826 109 118 122
0.17023903 -0.38987331 0.92710578 108 116 121
0.17030549 -0.36998711 0.92746803 107 114 120
0.16983579 -0.34997723 0.92800830 106 112 118
0.16972309 -0.33033775 0.92866725 105 111 117
0.16973453 -0.31029466 0.92873038 105 110 117
0.16971554 -0.29019803 0.92862683 103 109 117
0.16970013 -0.27245469 0.92813344 106 109 116
0.16975802 -0.24642913 0.89499547 155 131 112
0.17020401 -0.25599078 0.90143102 143 133 126
0.16973534 -0.22938219 0.89487759 157 131 109
0.16973156 -0.21004343 0.89485757 156 130 108
0.16972833 -0.19070612 0.89484034 156 130 108
0.16972804 -0.17059928 0.89483879 155 128 106
0.16972197 -0.15048744 0.89480700 157 129 109
0.16972051 -0.13038042 0.89479944 158 131 112
0.16972609 -0.11027833 0.89482884 158 130 110
0.16973698 -0.09017779 0.89488625 158 131 109
0.16974740 -0.07007454 0.89494122 155 126 107
0.16974835 -0.04996609 0.89494625 153 123 105
0.16974246 -0.02985614 0.89491510 151 122 102
0.16973607 -0.00974753 0.89488131 151 123 105
0.16967503 0.01035405 0.89455957 135 123 118
0.16939800 0.03040434 0.89309858 143 140 140
0.17031923 0.05049307 0.89198226 145 142 143
0.17058190 0.07039202 0.89121877 132 132 136
0.17047357 0.09036007 0.89065278 127 127 133
0.17038868 0.11031777 0.89020926 126 127 132
0.17032088 0.13026856 0.88985501 129 129 133
0.17026520 0.15021409 0.88956409 160 158 159
0.17021883 0.17015583 0.88932181 151 151 152
0.17017987 0.19009495 0.88911826 152 151 152
0.17014638 0.21003165 0.88894329 153 152 152
0.17011709 0.22996615 0.88879025 145 145 147
0.17009115 0.24989868 0.88865468 148 148 148
0.17006844 0.26983027 0.88853606 153 152 151
0.17004842 0.28976109 0.88843144 142 142 141
0.17003064 0.30969130 0.88833856 157 157 155
0.17001554 0.32962251 0.88825964 135 134 133
0.17000299 0.34955545 0.88819411 146 148 150
0.16999378 0.36949268 0.88814593 57 58 59
0.16998867 0.38943717 0.88811927 0 0 0
0.16998502 0.40938391 0.88810017 0 0 0
0.16998128 0.42932960 0.88808065 0 0 0
0.16997776 0.44927497 0.88806225 0 0 0
0.16997389 0.46998603 0.88804207 0 0 0
0.16996949 0.49069459 0.88801907 0 0 0
0.16996648 0.50296469 0.88800337 0 0 0
0.18900570 -0.60105648 0.89169640 0 0 0
0.19090697 -0.58968522 0.89176149 0 0 0
0.19047239 -0.56950018 0.89190794 0 0 0
0.18947918 -0.54922540 0.89210642 0 0 0
0.18931330 -0.52951164 0.89238170 0 0 0
0.18946187 -0.50964828 0.89282367 0 0 0
0.19179826 -0.50555414 0.91759864 115 123 124
0.18805181 -0.50120479 0.92047232 114 123 122
0.18665604 -0.49901495 0.89477514 49 53 54
0.18787834 -0.49996938 0.90028697 115 124 125
0.19013026 -0.48992832 0.92227232 114 124 123
0.18997367 -0.46962845 0.92364778 113 123 124
0.18983943 -0.44974575 0.92501159 112 120 123
0.18989934 -0.43001793 0.92584717 110 118 122
0.19022475 -0.41026624 0.92637590 109 117 122
0.19009903 -0.38969907 0.92655546 107 116 120
0.19028897 -0.36982842 0.92690375 106 114 119
0.19032448 -0.34991366 0.92737610 106 111 117
0.18981589 -0.33024925 0.92810999 103 109 117
0.19016949 -0.30987321 0.92805225 103 109 118
0.19035887 -0.28994910 0.92784803 104 108 118
0.19036567 -0.27206467 0.92722221 104 108 115
0.18956435 -0.24608180 0.89494677 159 134 116
0.18996931 -0.25654119 0.90506456 153 138 133
0.18982282 -0.22935813 0.89478389 157 132 110
0.18982655 -0.21003007 0.89480090 156 130 107
0.18982548 -0.19069663 0.89479578 155 128 106
0.18982110 -0.17058724 0.89477532 156 128 107
0.18981411 -0.15047652 0.89474229 156 128 108
0.18981246 -0.13037096 0.89473444 159 132 112
0.18981994 -0.11027103 0.89476971 159 132 112
0.18983161 -0.09017161 0.89482479 158 132 111
0.18984130 -0.07006902 0.89487057 155 127 105
0.18984113 -0.04996182 0.89486981 153 125 103
0.18983661 -0.02985389 0.89484845 151 121 102
0.18983099 -0.00974687 0.89482189 152 124 103
0.18975875 0.01035318 0.89448152 139 128 121
0.18945713 0.03040306 0.89305945 147 143 142
0.19005616 0.05041789 0.89196740 138 136 138
0.19060467 0.07039113 0.89120745 139 140 142
0.19048399 0.09035910 0.89064316 130 130 134
0.19038915 0.11031659 0.89019974 118 119 126
0.19031383 0.13026747 0.88984752 138 138 143
0.19025196 0.15021311 0.88955824 161 161 162
0.19020038 0.17015493 0.88931707 155 154 156
0.19015712 0.19009420 0.88911477 151 150 152
0.19011988 0.21003103 0.88894065 150 148 148
0.19008731 0.22996565 0.88878835 156 156 155
0.19005844 0.24989832 0.88865336 156 155 152
0.19003329 0.26983018 0.88853573 148 148 146
0.19001127 0.28976152 0.88843276 141 141 139
0.18999156 0.30969201 0.88834061 144 144 141
0.18997446 0.32962289 0.88826067 147 148 146
0.18996049 0.34955593 0.88819533 140 141 140
0.18995035 0.36949350 0.88814791 67 67 66
0.18994478 0.38943832 0.88812188 0 0 0
0.18994056 0.40938483 0.88810216 0 0 0
0.18993622 0.42933019 0.88808187 0 0 0
0.18993212 0.44927520 0.88806270 0 0 0
0.18992765 0.46998589 0.88804181 0 0 0
0.18992258 0.49069405 0.88801811 0 0 0
0.18991915 0.50296396 0.88800208 0 0 0
0.21072896 -0.60149719 0.89162821 0 0 0
0.21061621 -0.59015244 0.89169766 0 0 0
0.20979772 -0.56921814 0.89184952 0 0 0
0.20928496 -0.54935397 0.89204207 0 0 0
0.20934911 -0.52947240 0.89231554 0 0 0
0.20911523 -0.51031680 0.89293463 6 6 6
0.21050554 -0.50637477 0.91698560 115 122 123
0.21501070 -0.49969675 0.91983593 114 123 124
0.20970234 -0.49004896 0.92179773 113 123 123
0.21021611 -0.46961767 0.92321989 112 121 122
0.20989164 -0.44986268 0.92446100 110 119 121
0.21001854 -0.43007016 0.92521988 110 117 120
0.21000669 -0.41013238 0.92581414 108 116 120
0.21005741 -0.39022475 0.92603798 107 114 118
0.21011003 -0.37031048 0.92627101 106 112 118
0.21013096 -0.34968880 0.92661519 104 111 116
0.20972360 -0.32980889 0.92728295 104 109 117
0.21001328 -0.31000738 0.92727182 103 108 116
0.21024204 -0.28974738 0.92716941 104 108 117
0.21019976 -0.27116757 0.92666264 104 108 115
0.20990685 -0.24557252 0.89469339 158 135 113
0.20966023 -0.25600521 0.90700218 153 140 131
0.20990247 -0.22932995 0.89467439 157 132 111
0.20991807 -0.21001587 0.89474061 155 129 106
0.20991943 -0.19068611 0.89474641 155 126 105
0.20991462 -0.17057778 0.89472575 157 130 108
0.20990660 -0.15046802 0.89469159 158 131 109
0.20990652 -0.13036463 0.89469123 158 130 109
0.20991498 -0.11026582 0.89472729 157 131 110
0.20992457 -0.09016595 0.89476831 158 131 111
0.20993142 -0.07006333 0.89479760 155 126 106
0.20993144 -0.04995778 0.89479766 153 124 102
0.20992798 -0.02985170 0.89478289 151 122 102
0.20992325 -0.00974620 0.89476267 150 121 101
0.20984093 0.01035243 0.89441179 144 131 124
0.20951514 0.03040186 0.89302299 151 148 147
0.20979256 0.05035195 0.89194966 149 148 148
0.21062659 0.07039012 0.89119466 135 134 138
0.21049373 0.09035802 0.89063250 128 129 133
0.21038920 0.11031542 0.89019020 127 128 133
0.21030607 0.13026615 0.88983846 150 150 151
0.21023821 0.15021195 0.88955135 162 162 161
0.21018166 0.17015397 0.88931203 161 160 161
0.21013407 0.19009332 0.88911067 163 163 161
0.21009316 0.21003030 0.88893755 154 153 153
0.21005697 0.22996465 0.88878446 157 157 158
0.21002534 0.24989756 0.88865064 140 140 142
0.20999822 0.26983022 0.88853587 122 122 122
0.20997413 0.28976188 0.88843389 129 131 130
0.20995254 0.30969269 0.88834256 127 127 128
0.20993359 0.32962352 0.88826234 156 156 154
0.20991816 0.34955662 0.88819708 149 149 147
0.20990701 0.36949432 0.88814987 60 59 58
0.20990088 0.38943923 0.88812397 0 0 0
0.20989608 0.40938551 0.88810364 0 0 0
0.20989113 0.42933060 0.88808272 0 0 0
0.20988645 0.44927531 0.88806291 0 0 0
0.20988134 0.46998562 0.88804131 0 0 0
0.20987563 0.49069353 0.88801716 0 0 0
0.20987182 0.50296337 0.88800104 0 0 0
0.23074712 -0.60145486 0.89156547 0 0 0
0.23036413 -0.59090978 0.89162947 0 0 0
0.22926197 -0.57000290 0.89178271 0 0 0
0.22931301 -0.54931652 0.89198126 0 0 0
0.22938539 -0.52944102 0.89226271 0 0 0
0.22912163 -0.51219103 0.89288991 7 8 8
0.23025163 -0.50839444 0.91766907 113 122 121
0.22919410 -0.49906454 0.91978721 112 123 123
0.23024757 -0.48934955 0.92125250 113 122 122
0.23021768 -0.46978146 0.92273066 112 120 122
0.22986068 -0.44983882 0.92393982 110 118 120
0.22972077 -0.43039424 0.92465406 109 116 120
0.22986285 -0.40987217 0.92522660 107 115 119
0.22989859 -0.38994366 0.92537078 106 113 117
0.22994885 -0.37003182 0.92557350 106 111 117
0.22999342 -0.35010230 0.92575378 103 110 116
0.23011674 -0.33027849 0.92625131 103 109 116
0.23014380 -0.31030348 0.92635915 103 108 116
0.23017481 -0.29032741 0.92648256 103 108 116
0.23018069 -0.27111960 0.92650316 104 107 116
0.22998605 -0.24554664 0.89459905 158 135 112
0.23003422 -0.25600016 0.90698429 157 144 140
0.22998842 -0.22931295 0.89460830 156 132 109
0.23000905 -0.21000366 0.89468853 155 130 107
0.23001007 -0.19067461 0.89469253 154 127 106
0.23000952 -0.17057099 0.89469031 158 132 111
0.23000198 -0.15046285 0.89466091 158 131 109
0.23000277 -0.13036068 0.89466400 157 130 109
0.23000933 -0.11026120 0.89468958 158 131 108
0.23001722 -0.09016113 0.89472033 157 131 109
0.23002358 -0.07005921 0.89474505 154 125 105
0.23002442 -0.04995502 0.89474825 153 122 102
0.23002025 -0.02985000 0.89473208 152 122 102
0.23001379 -0.00974560 0.89470708 149 119 98
0.22992365 0.01035184 0.89435646 143 127 122
0.22957267 0.03040081 0.89299105 153 148 147
0.22953128 0.05032367 0.89193260 153 149 147
0.23064811 0.07038917 0.89118255 143 143 145
0.23050298 0.09035694 0.89062179 128 128 133
0.23038906 0.11031436 0.89018162 128 128 132
0.23029839 0.13026509 0.88983127 150 150 152
0.23022429 0.15021087 0.88954496 161 160 161
0.23016248 0.17015284 0.88930614 159 158 159
0.23011067 0.19009231 0.88910593 156 155 155
0.23006597 0.21002927 0.88893323 155 155 155
0.23002662 0.22996380 0.88878118 158 156 156
0.22999182 0.24989645 0.88864671 169 168 166
0.22996266 0.26982967 0.88853403 145 141 135
0.22993659 0.28976170 0.88843330 132 132 130
0.22991310 0.30969267 0.88834251 149 149 147
0.22989272 0.32962404 0.88826376 140 141 140
0.22987597 0.34955740 0.88819905 130 130 129
0.22986378 0.36949519 0.88815195 58 58 59
0.22985697 0.38943996 0.88812564 0 0 0
0.22985152 0.40938595 0.88810459 0 0 0
0.22984597 0.42933080 0.88808314 0 0 0
0.22984067 0.44927518 0.88806266 0 0 0
0.22983493 0.46998518 0.88804048 0 0 0
0.22982861 0.49069294 0.88801610 0 0 0
0.22982448 0.50296284 0.88800010 0 0 0
0.25076164 -0.60141061 0.89149989 0 0 0
0.24964414 -0.59052906 0.89156910 0 0 0
0.24909646 -0.57036155 0.89171686 0 0 0
0.24952092 -0.54970526 0.89191564 0 0 0
0.24941828 -0.52940757 0.89220635 0 0 0
0.24878701 -0.51383386 0.89309926 17 19 19
0.25039591 -0.51016367 0.91745245 112 122 121
0.25139176 -0.49932504 0.91973710 111 120 121
0.24995899 -0.48958840 0.92081668 111 120 121
0.24966342 -0.47039826 0.92225262 110 118 120
0.25035021 -0.45026357 0.92339301 109 116 119
0.25034991 -0.43014102 0.92410990 107 114 117
0.24986408 -0.40992849 0.92466882 106 113 117
0.24983142 -0.38982117 0.92474213 104 112 116
0.24976484 -0.36976315 0.92490135 104 110 115
0.24979129 -0.34981720 0.92499938 102 109 115
0.24991484 -0.32999516 0.92545694 102 109 115
0.24996931 -0.31006877 0.92565911 102 108 116
0.24998630 -0.29008945 0.92572347 102 106 114
0.25006317 -0.27083068 0.92571967 104 106 114
0.25008423 -0.24554373 0.89458828 158 134 114
0.25040773 -0.25599334 0.90696012 139 124 123
0.25008368 -0.22930733 0.89458629 156 132 108
0.25010344 -0.20999627 0.89465703 157 130 109
0.25010433 -0.19066772 0.89466022 153 127 106
0.25010113 -0.17056311 0.89464895 162 135 112
0.25009342 -0.15045620 0.89462136 159 131 109
0.25009545 -0.13035552 0.89462859 157 131 109
0.25010145 -0.11025635 0.89465009 157 131 110
0.25010764 -0.09015630 0.89467230 157 130 108
0.25011421 -0.07005535 0.89469585 154 126 105
0.25011660 -0.04995256 0.89470436 153 123 101
0.25011258 -0.02984859 0.89468996 150 123 101
0.25010349 -0.00974508 0.89465743 148 119 98
0.25000752 0.01035136 0.89431408 137 124 120
0.24962976 0.03039986 0.89296268 155 152 150
0.24939119 0.05035058 0.89191236 152 149 148
0.25066896 0.07038819 0.89117003 149 148 149
0.25051180 0.09035587 0.89061127 126 125 131
0.25038855 0.11031330 0.89017309 122 123 129
0.25029056 0.13026413 0.88982470 138 137 139
0.25021018 0.15020985 0.88953893 166 165 164
0.25014322 0.17015183 0.88930086 166 165 165
0.25008693 0.19009120 0.88910074 164 162 163
0.25003845 0.21002813 0.88892839 165 165 164
0.24999616 0.22996299 0.88877804 163 162 162
0.24995944 0.24989667 0.88864747 143 140 141
0.24992721 0.26982933 0.88853292 149 149 148
0.24989875 0.28976119 0.88843174 133 132 131
0.24987369 0.30969271 0.88834261 137 136 133
0.24985164 0.32962422 0.88826422 155 154 151
0.24983357 0.34955776 0.88819998 141 142 141
0.24982038 0.36949566 0.88815308 77 77 74
0.24981287 0.38944029 0.88812638 0 0 0
0.24980682 0.40938607 0.88810486 0 0 0
0.24980064 0.42933070 0.88808293 0 0 0
0.24979473 0.44927480 0.88806191 0 0 0
0.24978835 0.46998452 0.88803924 0 0 0
0.24978146 0.49069220 0.88801475 0 0 0
0.24977701 0.50296216 0.88799890 0 0 0
0.27000359 -0.60136797 0.89143667 0 0 0
0.26930888 -0.59057260 0.89150512 0 0 0
0.26929773 -0.57068893 0.89165039 0 0 0
0.26935985 -0.55001006 0.89185600 0 0 0
0.26945352 -0.52938359 0.89216607 0 0 0
0.27267635 -0.52167921 0.91558553 112 121 120
0.26832642 -0.51628388 0.89319463 18 20 20
0.26988480 -0.51030727 0.91795892 110 120 120
0.26839114 -0.49940368 0.91988186 109 119 120
0.27017559 -0.48956768 0.92041726 109 118 120
0.27011812 -0.47063601 0.92170848 108 117 118
0.26994166 -0.45028191 0.92283224 107 114 118
0.27015499 -0.42988572 0.92356155 105 112 117
0.26976246 -0.40999833 0.92408790 105 112 115
0.26953426 -0.39023625 0.92416972 104 111 116
