ply
format ascii 1.0
element vertex 1087
property float x
property float y
property float z
property uchar red
property uchar green
property uchar blue
end_header
0.56977323 -0.50755720 0.76438910 192 197 199
0.56347919 -0.51885911 0.87698263 150 149 158
0.56170072 -0.51195226 0.88734573 151 156 157
0.56456653 -0.50821421 0.91210516 93 94 102
0.56511862 -0.51354300 0.92553171 38 38 46
0.56974391 -0.49007954 0.76855262 195 201 202
0.56086811 -0.49992492 0.91733730 92 91 95
0.56983627 -0.47006105 0.77305641 197 202 202
0.57002490 -0.44996663 0.77712868 189 197 197
0.57186256 -0.43765736 0.77941364 164 173 178
0.56943497 -0.42795935 0.78201504 160 165 172
0.56998875 -0.41020091 0.78618019 189 194 197
0.56989619 -0.39031581 0.79019365 190 194 197
0.56826071 -0.38009474 0.89648241 67 71 78
0.57017346 -0.38247511 0.90902422 53 55 66
0.56975760 -0.37006374 0.79412023 187 192 196
0.56943950 -0.36788834 0.86416979 110 115 128
0.56399632 -0.37827386 0.89218771 75 82 88
0.57004884 -0.37022848 0.90639074 33 33 41
0.57088085 -0.35135976 0.79812724 187 193 195
0.56597411 -0.34348695 0.80164286 182 188 189
0.56960820 -0.34550626 0.89829723 31 30 39
0.57071433 -0.35538151 0.90161946 30 30 37
0.57452441 -0.33052182 0.80462636 172 176 180
0.57856990 -0.32648332 0.82197303 166 172 176
0.56985931 -0.33009950 0.89362298 33 32 41
0.57374047 -0.31001224 0.80929752 178 183 185
0.57405407 -0.30613768 0.82331089 171 174 179
0.56993186 -0.30970222 0.88782423 34 34 45
0.57209576 -0.28961169 0.81522763 180 184 188
0.56953280 -0.28882771 0.82714262 171 172 181
0.57708487 -0.28624351 0.84369802 137 143 155
0.56283191 -0.28106009 0.87965570 37 37 46
0.57044357 -0.29014806 0.88274019 37 37 48
0.57211224 -0.27196442 0.81879037 173 177 179
0.56560211 -0.26526157 0.82250537 147 150 152
0.57524681 -0.26962605 0.84771129 126 133 136
0.56947273 -0.26915637 0.87776153 39 40 50
0.57667368 -0.27796112 0.88054173 40 40 51
0.57821613 -0.25878439 0.81979328 168 170 177
0.56962935 -0.24976998 0.82379760 157 158 159
0.57458035 -0.25042799 0.85077933 113 113 114
0.57034086 -0.24994277 0.87394361 44 44 56
0.57141370 -0.23036612 0.82922114 141 134 135
0.57046558 -0.22997083 0.84700263 101 98 101
0.57032460 -0.23003088 0.87037824 51 53 69
0.57081543 -0.21053047 0.83414300 113 98 98
0.57172455 -0.21003797 0.85090280 103 92 101
0.57077394 -0.21032930 0.86774655 60 63 82
0.57110295 -0.19048389 0.83563958 108 94 91
0.57273622 -0.18927226 0.85186781 101 96 101
0.57105302 -0.19017811 0.86626646 70 74 94
0.57187938 -0.17071259 0.83659986 109 94 92
0.57058946 -0.16874261 0.84646357 98 97 106
0.57091130 -0.17031476 0.86583667 68 71 89
0.57443236 -0.15192121 0.83838225 110 96 95
0.57498095 -0.14891486 0.84643170 103 99 107
0.57037511 -0.15022848 0.86609430 56 56 74
0.57811823 -0.13980036 0.83989322 97 89 89
0.57808457 -0.13581367 0.84123610 100 93 96
0.56975634 -0.13012397 0.86632951 52 54 73
0.56993122 -0.10981731 0.86791014 61 64 86
0.57008557 -0.09006064 0.87101777 75 84 107
0.56521657 -0.06386853 0.83406768 104 92 93
0.56889386 -0.07152175 0.85218430 98 88 88
0.57138196 -0.07776274 0.87017851 84 78 83
0.56322901 -0.04709053 0.81872307 116 97 91
0.57263086 -0.04649582 0.82314598 109 94 88
0.57824941 -0.05859271 0.84113991 97 88 91
0.56413343 -0.02922346 0.81832094 121 98 91
0.57420172 -0.03020172 0.82205254 119 97 88
0.56586267 -0.00890941 0.81779462 121 99 88
0.57570148 -0.01008931 0.82151661 116 95 84
0.56705651 0.00999685 0.81730889 120 97 92
0.57713248 0.00982775 0.82112122 116 95 89
0.56790128 0.03026311 0.81723917 120 97 89
0.57743887 0.02907595 0.82089908 117 93 87
0.56818135 0.04971829 0.81723861 122 97 86
0.57785461 0.04994455 0.82095658 120 98 87
0.56781069 0.06937316 0.81721416 123 99 90
0.57747240 0.07081022 0.82094671 120 100 90
0.56705227 0.09018083 0.81731554 124 102 88
0.57726338 0.08991917 0.82121780 122 100 91
0.56620623 0.11003858 0.81753299 123 102 89
0.57663064 0.10974592 0.82146288 121 100 88
0.56564421 0.12992858 0.81805319 125 101 89
0.57508387 0.13018605 0.82154066 123 101 92
0.56404578 0.14970693 0.81848252 125 103 89
0.57417210 0.15047030 0.82211264 126 101 89
0.56234812 0.16902411 0.81925727 127 103 92
0.57199174 0.17037386 0.82255114 128 104 90
0.56075756 0.18236390 0.81981810 128 106 94
0.57033845 0.19015364 0.82349198 127 103 92
0.57006852 0.20997122 0.82503543 128 101 92
0.56972606 0.23002026 0.82671827 125 101 93
0.56997240 0.25018760 0.82833846 127 104 95
0.56974559 0.26988848 0.82942521 132 117 116
0.56931981 0.29023620 0.83110423 139 134 131
0.57001322 0.30989989 0.83408729 142 139 138
0.56951187 0.32803556 0.83765462 142 140 139
0.57231732 0.33767398 0.84084236 128 120 121
0.57098489 0.35094459 0.86882928 137 129 129
0.57030401 0.39290098 0.95693547 158 148 143
0.56282717 0.40099836 0.95988771 166 156 151
0.57047744 0.41025600 0.96160776 136 125 124
0.56998896 0.42944383 0.96229211 29 25 23
0.57003167 0.45012457 0.96456872 0 0 0
0.56987318 0.47008051 0.96592411 0 0 0
0.57002605 0.48998963 0.96744959 0 0 0
0.57011042 0.51029550 0.96935390 0 0 0
0.56992009 0.53036077 0.97186142 0 0 0
0.56993886 0.54788504 0.97455196 0 0 0
0.59123518 -0.64162866 0.95226631 0 0 0
0.58857097 -0.63373265 0.95242526 3 3 3
0.59058135 -0.62718849 0.96572575 30 30 36
0.59164531 -0.60136962 0.95940568 32 31 38
0.58975879 -0.61149520 0.96271601 30 29 37
0.58972202 -0.58973698 0.95573937 32 31 38
0.58491642 -0.56064337 0.85407856 170 173 184
0.59514694 -0.56919283 0.87342329 157 163 172
0.59017388 -0.56984350 0.94842109 34 33 41
0.58267839 -0.55532506 0.85837311 173 174 180
0.58447244 -0.54643739 0.88818705 153 156 163
0.59316454 -0.55078589 0.91339010 142 145 156
0.59004568 -0.54663105 0.93689072 46 47 59
0.58832884 -0.55477485 0.94225606 37 37 45
0.58095569 -0.53663373 0.90175676 129 130 147
0.58315559 -0.53434537 0.93182237 60 61 73
0.58993836 -0.50723840 0.76308725 194 201 203
0.59008091 -0.49001219 0.76696244 195 202 202
0.58995784 -0.46986021 0.77167322 195 201 201
0.58996551 -0.44976517 0.77606072 196 200 202
0.59016469 -0.43614223 0.77915675 196 200 202
0.58978378 -0.42653387 0.78143694 192 198 201
0.59004544 -0.41016090 0.78517543 189 193 195
0.58997007 -0.38999595 0.78939714 186 191 193
0.59035024 -0.38385521 0.91154470 49 49 61
0.58990470 -0.37000100 0.79338598 187 192 195
0.59876255 -0.36258260 0.85170662 140 147 161
0.59076895 -0.36862317 0.86589590 87 95 107
0.59003205 -0.37029163 0.90748881 35 35 43
0.58981932 -0.34982630 0.79731891 185 191 194
0.58447036 -0.34527293 0.82731443 173 182 185
0.59516308 -0.35033522 0.84347212 171 179 183
0.58907650 -0.34322228 0.89889715 34 35 44
0.59022120 -0.35346973 0.90205702 34 33 42
0.59083969 -0.33853823 0.79974427 180 185 190
0.58977415 -0.32905247 0.80320155 172 175 180
0.58364790 -0.33432764 0.82851145 167 174 177
0.59306661 -0.32517854 0.84724897 165 168 172
0.59013154 -0.33000845 0.89525274 37 36 46
0.58987440 -0.30991575 0.80804055 180 183 186
0.58232957 -0.31339570 0.83450260 171 176 179
0.58918082 -0.31136068 0.84850667 174 177 184
0.59682475 -0.30847538 0.86599433 149 151 157
0.59001356 -0.31025000 0.88979967 41 41 52
0.59005733 -0.29003106 0.81280018 176 182 186
0.58445540 -0.29273365 0.85339230 146 151 159
0.59315882 -0.28991688 0.87182003 109 115 127
0.58991339 -0.29048245 0.88426440 48 50 62
0.59002933 -0.27008601 0.81679861 175 181 184
0.58625911 -0.26789978 0.87648022 66 69 79
0.58728364 -0.27657125 0.88091688 50 54 67
0.59102277 -0.25346982 0.81906736 170 175 178
0.58800692 -0.24403491 0.82063920 169 172 176
0.58414229 -0.25059969 0.87411390 73 74 92
0.58959148 -0.22946120 0.82363675 165 167 171
0.58191403 -0.23080970 0.87055201 80 85 103
0.59032583 -0.21002545 0.83138630 149 145 146
0.58062225 -0.21390631 0.86906424 82 87 107
0.59041547 -0.19092445 0.83791394 114 101 97
0.59813334 -0.18251398 0.84029394 106 91 87
0.58665588 -0.17017478 0.83865924 107 90 87
0.59667613 -0.16946144 0.84051188 104 87 83
0.58104412 -0.16616962 0.86562384 95 101 116
0.58608546 -0.15039810 0.83924378 107 88 85
0.59423912 -0.14946719 0.84238709 103 85 83
0.58386607 -0.14818619 0.86690341 99 105 120
0.58539405 -0.13980455 0.83991837 103 86 84
0.58954510 -0.13019554 0.84245860 103 89 87
0.58839025 -0.12878102 0.86793562 78 82 101
0.59477729 -0.11353712 0.84497447 102 89 90
0.59007748 -0.11047329 0.86955206 64 68 90
0.58999990 -0.09022897 0.87200603 76 83 105
0.58285133 -0.06430943 0.85516121 97 91 92
0.59170861 -0.07302395 0.87120772 79 79 88
0.58985928 -0.04359143 0.82949031 105 90 87
0.59180026 -0.05355816 0.84871165 91 85 88
0.59853801 -0.05870089 0.86413449 88 82 85
0.58993999 -0.02970265 0.82786802 114 91 84
0.59011800 -0.00995384 0.82678585 112 91 81
0.58988076 0.01027340 0.82586026 112 91 84
0.58962094 0.03024501 0.82549614 113 93 82
0.58961726 0.05022059 0.82549054 114 93 83
0.58979084 0.07021691 0.82573336 117 96 86
0.59014217 0.09025179 0.82622522 117 96 86
0.59036832 0.11024554 0.82673635 122 98 86
0.58978127 0.12987827 0.82702795 121 100 87
0.58973277 0.15007611 0.82771439 127 99 90
0.59001318 0.17020836 0.82877978 126 101 91
0.58997468 0.19006091 0.82998084 126 102 89
0.58996496 0.20979139 0.83143074 127 101 91
0.58986477 0.22979927 0.83324529 128 102 89
0.58998622 0.25002105 0.83503056 127 103 89
0.58962807 0.26989960 0.83643016 126 102 90
0.59913090 0.27695124 0.84024874 125 106 90
0.58792786 0.28940793 0.83747829 127 105 95
0.59742100 0.29128418 0.84083954 127 104 92
0.58552693 0.30980665 0.83786051 130 123 119
0.59533256 0.31023759 0.84165222 124 104 95
0.58328764 0.32569522 0.83886824 153 151 149
0.59136856 0.33103899 0.84236672 138 131 127
0.59452120 0.34273538 0.84923013 115 101 98
0.59077856 0.35245500 0.87256859 82 68 72
0.59722448 0.35582935 0.88092241 99 85 89
0.59002006 0.37003123 0.91217860 141 134 134
0.58218417 0.37721340 0.92988366 146 145 145
0.58107358 0.38068735 0.93844742 134 131 129
0.58876978 0.39327438 0.95747742 155 144 139
0.59308740 0.39915217 0.96016321 160 150 143
0.58988461 0.41003254 0.96194829 142 132 130
0.59002031 0.42971758 0.96252627 41 33 34
0.58990249 0.44975737 0.96482459 0 0 0
0.59005081 0.46971568 0.96643180 0 0 0
0.58986017 0.48985419 0.96800803 0 0 0
0.59005507 0.50979057 0.96985187 0 0 0
0.58998218 0.53050405 0.97243411 0 0 0
0.58998492 0.54794713 0.97509552 0 0 0
0.61050350 -0.64330428 0.95713125 0 0 0
0.61808299 -0.64096535 0.96196644 18 16 23
0.60486948 -0.63780775 0.95710460 2 1 2
0.61044720 -0.63051195 0.96574369 31 29 36
0.61150529 -0.60359394 0.95852736 35 35 41
0.60932589 -0.61332004 0.96251606 32 31 39
0.60410221 -0.58380910 0.87363015 150 154 163
0.61154028 -0.58932432 0.88960473 158 160 178
0.61446445 -0.58376265 0.91374570 141 144 152
0.61790400 -0.58347577 0.92919320 136 136 147
0.61021190 -0.58982899 0.95330257 39 39 45
0.60595651 -0.57577506 0.89838466 160 161 171
0.60598940 -0.57129589 0.91081057 157 159 167
0.60840399 -0.56762568 0.93259805 128 132 142
0.60691291 -0.57203576 0.94613705 45 45 56
0.60182797 -0.55740814 0.93668744 80 81 97
0.60196724 -0.55898397 0.94067985 40 42 58
0.61004434 -0.50715455 0.76253747 193 198 201
0.60990243 -0.48990364 0.76641650 197 204 205
0.60998585 -0.46961499 0.77114431 197 201 202
0.60990565 -0.44963574 0.77583004 196 202 203
0.61005801 -0.43605569 0.77917949 193 201 205
0.61004492 -0.42653511 0.78139644 193 199 201
0.60999217 -0.41019458 0.78502348 193 197 198
0.60994242 -0.38991999 0.78937852 185 189 191
0.60992443 -0.38400880 0.91315536 47 46 59
0.60999320 -0.37008286 0.79353724 187 193 195
0.60217563 -0.36391552 0.85656974 125 132 144
0.60779685 -0.36625224 0.86560698 137 146 157
0.60994591 -0.36933043 0.90828734 39 38 48
0.60998330 -0.34987919 0.79768538 182 185 189
0.60305836 -0.34845342 0.85676289 161 169 170
0.61369916 -0.34619221 0.87424190 146 154 158
0.60886447 -0.34199692 0.89780690 48 50 59
0.61041440 -0.35095965 0.90234867 39 41 51
0.60586763 -0.33913128 0.79986696 178 184 188
0.61002890 -0.32931229 0.80229914 177 180 184
0.60734526 -0.33022271 0.87036134 154 156 161
0.60994683 -0.33027461 0.89616246 50 50 62
0.60998064 -0.30992439 0.80671664 178 181 184
0.60366664 -0.31269818 0.87591846 142 144 157
0.60534048 -0.31162856 0.89017724 55 55 69
0.60981561 -0.28996223 0.81121450 176 180 184
0.60103454 -0.29796637 0.88541573 43 50 61
0.61000880 -0.26967649 0.81550288 177 180 185
0.60977682 -0.25248830 0.81869619 176 181 187
0.61060880 -0.24242984 0.82058239 175 183 187
0.60999745 -0.22946940 0.82309991 168 174 179
0.60994473 -0.20938169 0.82812254 162 164 168
0.61002652 -0.19017041 0.83575665 144 143 145
0.60292421 -0.18249467 0.84040820 105 97 96
0.61457332 -0.17687655 0.83931134 149 148 148
0.60935804 -0.16853433 0.84159929 118 107 104
0.60972835 -0.14968948 0.84244373 97 82 81
0.61001422 -0.12988745 0.84266286 98 79 77
0.60940696 -0.10991871 0.84407352 103 85 85
0.60469958 -0.10696179 0.86912777 92 95 112
0.61240903 -0.09143203 0.84623149 100 87 91
0.61030324 -0.09024832 0.87204835 94 104 127
0.61711014 -0.07417420 0.84679872 102 88 92
0.61006075 -0.07019720 0.87343238 89 96 118
0.61034157 -0.04307827 0.83629368 109 84 84
0.61042928 -0.04766458 0.84638302 94 82 85
0.61292879 -0.05575503 0.87078503 88 91 105
0.60993731 -0.02985612 0.83508631 106 87 79
0.61008983 -0.00980719 0.83397350 107 89 76
0.60941503 0.01036315 0.83305063 108 88 79
0.60920950 0.03044667 0.83283322 109 88 78
0.60930045 0.05018085 0.83300249 110 90 81
0.60974539 0.06985889 0.83344412 111 90 80
0.61020758 0.08979696 0.83401881 115 92 82
0.61051846 0.10991417 0.83455764 119 95 84
0.61002311 0.13002878 0.83477989 119 97 83
0.60934187 0.15003498 0.83503072 121 96 84
0.61012711 0.16989872 0.83610891 122 97 85
0.61965806 0.17889322 0.84011930 116 93 84
0.60882437 0.18969567 0.83668544 119 98 85
0.61840158 0.19223039 0.84038499 118 97 84
0.60720822 0.20968006 0.83740091 125 101 87
0.61727319 0.21092100 0.84114685 125 98 91
0.60485812 0.22920125 0.83827405 127 101 90
0.61459019 0.23092807 0.84188623 125 99 87
0.60266395 0.24800443 0.83915328 123 101 84
0.61226736 0.25069661 0.84277570 124 101 87
0.60066301 0.26390466 0.83966425 126 104 86
0.61026997 0.27006944 0.84345358 124 103 84
0.61002122 0.28994322 0.84484410 126 100 88
0.61000208 0.31026169 0.84637696 125 101 89
0.60989958 0.32997661 0.84860014 122 102 93
0.61140185 0.34297614 0.85262011 122 100 92
0.60156098 0.35390299 0.87615335 72 49 57
0.60132235 0.35600274 0.88135167 107 90 96
0.61923134 0.36131158 0.89068346 95 78 82
0.61042507 0.36995628 0.91199385 102 89 92
0.61000508 0.39231602 0.95707326 148 140 135
0.60969562 0.39878057 0.96053966 155 145 139
0.60981369 0.41044310 0.96251605 142 130 129
0.60976517 0.42974878 0.96285865 54 46 44
0.60992413 0.45001595 0.96532366 0 0 0
0.61017985 0.46982482 0.96708922 0 0 0
0.60991776 0.49013165 0.96869080 0 0 0
0.60975024 0.50969206 0.97042285 0 0 0
0.61005414 0.52951406 0.97288008 0 0 0
0.61014540 0.54767069 0.97562776 0 0 0
0.62237993 -0.64597096 0.95919276 0 0 0
0.63118241 -0.64441887 0.96498298 23 23 28
0.62985546 -0.63005099 0.96480715 36 35 43
0.62308061 -0.60534263 0.89732850 146 150 155
0.63026142 -0.60902274 0.91449898 136 140 151
0.63161684 -0.60581602 0.92693113 144 146 160
0.63101191 -0.60852609 0.95626812 47 47 57
0.62629460 -0.61670979 0.96142823 37 37 45
0.62842044 -0.59695923 0.93648767 137 138 146
0.62453839 -0.59337176 0.95050562 59 59 68
0.62985647 -0.50707581 0.76238081 194 201 202
0.62999226 -0.49008305 0.76632433 197 204 205
0.62975303 -0.46983275 0.77108733 196 202 204
0.62994015 -0.44970887 0.77591977 195 201 201
0.62975721 -0.43657566 0.77920791 192 195 199
0.63034749 -0.42665697 0.78162038 193 199 201
0.62987189 -0.40986376 0.78536128 186 191 194
0.62994805 -0.39013832 0.78969524 185 189 190
0.63254111 -0.38148217 0.89975476 100 107 129
0.63031126 -0.38457259 0.91432019 51 56 71
0.63004586 -0.37026459 0.79396440 187 191 194
0.62912546 -0.36487934 0.89489903 130 140 143
0.62920766 -0.37042221 0.90893307 56 59 70
0.62953662 -0.35099557 0.79803722 183 186 190
0.63428301 -0.34154413 0.80023551 184 186 190
0.62444988 -0.34577035 0.89657403 86 87 98
0.62567025 -0.35209418 0.90300435 55 60 72
0.62996265 -0.32987692 0.80260349 182 186 190
0.62183395 -0.33594450 0.89747073 65 64 78
0.63000707 -0.31007937 0.80693172 173 175 179
0.62993312 -0.28997256 0.81127602 178 180 185
0.63003391 -0.26966913 0.81557942 178 182 185
0.62960910 -0.25351251 0.81881781 179 182 188
0.63061379 -0.24360513 0.82076603 174 176 182
0.62993396 -0.22959597 0.82342956 168 170 175
0.62976637 -0.20938681 0.82794865 155 158 162
0.63007316 -0.18977182 0.83545037 151 151 155
0.62877622 -0.17681636 0.83939408 153 155 160
0.63040566 -0.16734832 0.84148738 155 154 156
0.62989244 -0.15018943 0.84400576 136 134 134
0.63027444 -0.12991072 0.84571824 108 98 95
0.62991085 -0.10975959 0.84623785 95 81 76
0.62950553 -0.09026735 0.84668215 100 81 79
0.62214200 -0.08419591 0.87081737 98 99 126
0.62941626 -0.06991850 0.84741832 97 84 83
0.62733417 -0.06876103 0.87293575 98 104 128
0.62077728 -0.04180039 0.83966908 103 82 81
0.63012846 -0.05045241 0.84544244 96 82 83
0.63066070 -0.05532180 0.87249231 93 97 117
0.62231711 -0.02906423 0.83926611 105 82 79
0.63224438 -0.03089138 0.84273785 103 82 80
0.62343726 -0.00916553 0.83871620 104 85 78
0.63332367 -0.01029182 0.84232378 103 82 78
0.62402221 0.01078673 0.83835070 105 82 77
0.63393858 0.01014589 0.84196280 105 81 78
0.62413959 0.02999149 0.83833381 106 84 78
0.63413466 0.03012227 0.84198532 106 82 78
0.62360138 0.04914766 0.83833748 108 86 79
0.63359257 0.05006913 0.84205150 106 84 78
0.62345595 0.06930485 0.83861509 110 90 79
0.63347868 0.07050751 0.84238624 107 88 77
0.62308073 0.08975741 0.83895893 113 89 81
0.63305170 0.09028423 0.84274203 111 90 82
0.62261200 0.11018192 0.83924356 116 92 82
0.63254731 0.10950730 0.84302828 113 90 81
0.62160264 0.13064339 0.83926879 116 93 80
0.63134236 0.13012394 0.84298540 114 91 82
0.62104755 0.14799068 0.83944562 118 92 83
0.63091650 0.15038936 0.84327711 115 93 83
0.62092014 0.16287065 0.83986232 116 95 80
0.63061291 0.17013494 0.84388342 115 94 79
0.62961768 0.19019459 0.84449919 117 95 82
0.63006548 0.20998318 0.84583936 120 97 88
0.62997598 0.22998203 0.84738856 121 96 85
0.62999436 0.24993427 0.84911448 122 98 85
0.62971535 0.27008137 0.85041942 119 98 84
0.63026393 0.29003183 0.85174783 118 96 86
0.62988651 0.30996730 0.85296708 120 96 83
0.62999103 0.33010218 0.85492392 122 97 87
0.62999497 0.34359523 0.85707081 119 100 88
0.63229259 0.35172252 0.86747636 100 79 74
0.62455924 0.35862758 0.88406703 75 54 57
0.62642769 0.37085404 0.91420695 79 57 66
0.62541290 0.37326725 0.92015585 105 90 94
0.62985302 0.39193263 0.95609635 136 125 122
0.62975556 0.39886767 0.96074913 152 141 136
0.63000700 0.41070543 0.96310027 148 136 134
0.62983321 0.42994502 0.96340691 66 57 56
0.63002595 0.45041314 0.96614511 0 0 0
0.62967277 0.47028869 0.96787217 0 0 0
0.63033131 0.48986274 0.96938143 0 0 0
0.62993160 0.50983630 0.97104208 0 0 0
0.62997841 0.52969439 0.97348197 0 0 0
0.62994237 0.54794546 0.97620627 0 0 0
0.65890696 -0.64090040 0.95248219 105 109 122
0.65079617 -0.64705275 0.96672332 37 37 41
0.64559392 -0.62548314 0.93557207 133 136 151
0.64889190 -0.62626427 0.95729506 69 69 82
0.64756024 -0.63341207 0.96303790 42 41 48
0.64260244 -0.61655913 0.95557992 68 68 81
0.65010838 -0.50720726 0.76340901 194 198 199
0.64977607 -0.48990992 0.76723279 195 200 201
0.64988735 -0.46989561 0.77169794 193 199 201
0.64996829 -0.44991523 0.77633949 194 201 203
0.64958350 -0.43725374 0.77937128 192 196 198
0.65016503 -0.42714950 0.78181813 193 198 203
0.64996588 -0.40992747 0.78579455 190 198 201
0.65006198 -0.39026453 0.79022664 189 195 199
0.64151730 -0.38379948 0.91334186 80 91 111
0.65008324 -0.37022633 0.79468913 191 197 200
0.64002181 -0.37905796 0.91263944 78 84 103
0.64913448 -0.35325724 0.79845393 184 191 195
0.65136058 -0.34363809 0.80070643 182 187 191
0.65002643 -0.33020720 0.80356712 181 187 190
0.65010245 -0.31009728 0.80776833 176 179 183
0.64984223 -0.28997230 0.81187441 183 185 187
0.64997179 -0.26983147 0.81606935 175 176 179
0.64932604 -0.25514969 0.81902359 179 184 189
0.65045136 -0.24522354 0.82104776 176 184 186
0.65000313 -0.22975764 0.82403339 169 173 176
0.64996268 -0.20973797 0.82897237 142 141 144
0.64995157 -0.18939065 0.83558715 136 133 136
0.64851110 -0.17869478 0.83975736 161 164 165
0.65017293 -0.16912146 0.84203832 159 161 166
0.65004872 -0.15031519 0.84563953 153 155 161
0.65017773 -0.13045445 0.84878963 154 154 155
0.64982512 -0.11017946 0.85052292 121 114 112
0.64958684 -0.09006672 0.85071306 100 85 83
0.64952353 -0.06999145 0.85039358 91 79 74
0.65024322 -0.05001176 0.84968955 97 78 76
0.64036182 -0.05473104 0.87227714 85 85 105
0.65032203 -0.03002407 0.84900866 96 78 74
0.64997479 -0.00997616 0.84840367 98 78 75
0.64930831 0.00988967 0.84759934 103 82 76
0.64934440 0.02965602 0.84751944 103 81 76
0.64955810 0.05011678 0.84786025 103 83 77
0.64990012 0.07002097 0.84837228 106 85 75
0.65050291 0.08976235 0.84915681 107 88 81
0.64952684 0.11029835 0.84938221 107 87 75
0.64981474 0.12992074 0.84993471 113 89 80
0.64995051 0.14994595 0.85045985 114 91 81
0.65009418 0.17001443 0.85128906 113 91 78
0.64991287 0.19009625 0.85223290 113 92 82
0.64996386 0.21013780 0.85339037 116 93 82
0.64989658 0.22980543 0.85480716 118 94 85
0.64957558 0.24957806 0.85632268 119 94 83
0.65907592 0.25456376 0.86029748 118 91 82
0.64779372 0.26965877 0.85703087 117 99 84
0.65782865 0.27219679 0.86093491 118 95 84
0.64665806 0.28960911 0.85766365 119 97 86
0.65627729 0.29035509 0.86127471 118 96 86
0.64489536 0.30924332 0.85809533 118 95 82
0.65506288 0.31076065 0.86189212 117 95 83
0.64329222 0.32831477 0.85899551 119 98 86
0.65277954 0.33081207 0.86258088 119 96 86
0.64077888 0.34279497 0.85968903 118 98 88
0.65014688 0.34731487 0.86568806 117 98 86
0.65343750 0.35888901 0.88095789 95 78 68
0.64430637 0.36223385 0.88916841 65 44 48
0.65344685 0.37091951 0.91048894 60 42 46
0.65704465 0.37750148 0.92664558 75 54 61
0.65803189 0.38131945 0.93601745 99 75 79
0.65055955 0.39126041 0.95425539 112 98 99
0.64890866 0.39893185 0.96072182 149 138 133
0.65004234 0.41082525 0.96362011 148 139 136
0.65008879 0.43006339 0.96408365 81 71 70
0.64999484 0.45072719 0.96715635 0 0 0
0.65005744 0.46999465 0.96872983 0 0 0
0.64985706 0.49015099 0.97012242 0 0 0
0.65007291 0.50987476 0.97168695 0 0 0
0.65003590 0.52965591 0.97403768 0 0 0
0.64999022 0.54807567 0.97672463 0 0 0
0.66183249 -0.64509066 0.95870616 51 54 68
0.66124563 -0.64708637 0.96308205 45 47 56
0.67013593 -0.50784587 0.76493939 194 200 200
0.66992975 -0.49009687 0.76879914 194 198 199
0.66992734 -0.47000456 0.77305259 187 195 197
0.66980531 -0.45014687 0.77728150 194 202 204
0.66686018 -0.43862624 0.77967193 197 203 203
0.67037364 -0.42903647 0.78209601 192 198 200
0.67006247 -0.41006580 0.78647729 190 197 200
0.66989703 -0.38993045 0.79114165 190 196 199
0.66999181 -0.36970812 0.79577432 184 191 192
0.66916537 -0.35539226 0.79903321 178 184 187
0.67055819 -0.34546101 0.80135117 180 183 187
0.67005964 -0.33007948 0.80466918 183 188 191
0.66997485 -0.31004040 0.80872232 178 181 183
0.66994928 -0.28979413 0.81275597 174 177 183
0.66988158 -0.27009403 0.81677952 183 188 190
0.66857835 -0.25713031 0.81937721 182 184 188
0.67053998 -0.24739390 0.82148218 182 187 191
0.66992192 -0.22994089 0.82489263 177 181 185
0.67013215 -0.20989780 0.83060680 134 129 134
0.66992732 -0.18965112 0.83606619 131 130 132
0.67192009 -0.17804603 0.83932716 144 145 151
0.66971977 -0.16877251 0.84253181 159 162 167
0.67000160 -0.15047234 0.84678508 146 148 151
0.67007162 -0.13062580 0.85078291 169 170 172
0.67000568 -0.11042630 0.85384264 155 157 158
0.66992053 -0.09010506 0.85546939 149 147 147
0.67002251 -0.07018773 0.85588007 116 110 108
0.67026110 -0.05025256 0.85623600 98 82 82
0.67019343 -0.03005265 0.85644079 95 76 72
0.66999194 -0.00987553 0.85596306 97 76 74
0.66997753 0.00989945 0.85521844 98 78 75
0.66967517 0.02984279 0.85483309 104 80 76
0.66977185 0.04996006 0.85507082 100 83 76
0.67043278 0.06994584 0.85569111 104 84 76
0.66990816 0.08995862 0.85610688 107 84 79
0.66927549 0.10978742 0.85651922 108 87 77
0.67906492 0.11477592 0.86018998 108 86 75
0.66844138 0.12978682 0.85676127 112 88 77
0.67884486 0.13132785 0.86059610 110 86 78
0.66809370 0.14973398 0.85720472 115 90 80
0.67756553 0.15024189 0.86072435 113 87 80
0.66647976 0.16977041 0.85742768 115 90 81
0.67660327 0.17074300 0.86126073 114 88 82
0.66540107 0.18920665 0.85804983 114 92 79
0.67519730 0.19039170 0.86179430 116 89 78
0.66364625 0.20943781 0.85855355 117 92 80
0.67376017 0.21032806 0.86243413 116 91 78
0.66184857 0.22880381 0.85924626 116 92 81
0.67175037 0.23053742 0.86312508 114 90 79
0.66097366 0.24031668 0.85986471 117 92 83
0.67008122 0.25019265 0.86410499 116 92 79
0.66993612 0.26973051 0.86534147 115 92 80
0.66994114 0.29021844 0.86636843 115 93 83
0.67006519 0.30973321 0.86737901 116 93 82
0.66997917 0.32995807 0.86869450 117 94 87
0.67033600 0.34737216 0.87098528 116 94 86
0.66284760 0.35978317 0.88315278 77 65 51
0.67272313 0.36098496 0.88610280 95 82 73
0.67963411 0.38371512 0.93791875 62 53 54
0.67019596 0.39260439 0.95412735 119 107 105
0.66965241 0.39972349 0.96081126 147 140 131
0.66972457 0.41052306 0.96407031 148 138 134
0.67037333 0.42946858 0.96528457 99 85 84
0.66989761 0.44972253 0.96800591 2 1 1
0.67009444 0.46976597 0.96969365 0 0 0
0.66980226 0.49009792 0.97093078 0 0 0
0.67010942 0.51031818 0.97242990 0 0 0
0.67004941 0.53015868 0.97467423 0 0 0
0.67003680 0.54848547 0.97725502 0 0 0
0.68970412 -0.50839847 0.76730781 185 190 193
0.68991347 -0.49006123 0.77097468 189 195 197
0.68992622 -0.47006024 0.77503848 188 194 195
0.68886358 -0.45237501 0.77838466 194 200 202
0.69257175 -0.44320766 0.78063326 194 200 203
0.69005178 -0.42994305 0.78317963 186 192 195
0.68980460 -0.40997513 0.78760957 185 189 194
0.68995697 -0.39001678 0.79223637 187 193 197
0.68999288 -0.37026202 0.79681846 189 195 199
0.68751007 -0.35798530 0.79950190 183 192 194
0.69058871 -0.34845369 0.80189205 184 189 191
0.69005901 -0.32988223 0.80595796 183 189 194
0.68991823 -0.30986115 0.81002060 177 182 186
0.68995300 -0.29025147 0.81392100 166 168 173
0.68965669 -0.27075439 0.81782168 184 188 192
0.69706300 -0.26145138 0.82030752 187 191 195
0.68339001 -0.25931741 0.81977193 183 189 191
0.69016727 -0.25008735 0.82219228 182 183 186
0.69000598 -0.23037075 0.82626115 173 174 176
0.68997263 -0.21020029 0.83219487 129 123 126
0.68990832 -0.18997047 0.83696110 140 138 139
0.68840919 -0.17796948 0.83961737 130 129 130
0.69028198 -0.16865891 0.84255215 155 156 161
0.69006536 -0.15035463 0.84735938 159 160 162
0.69008924 -0.13006934 0.85208432 166 168 169
0.68979381 -0.11015066 0.85583117 166 166 167
0.68920495 -0.09114572 0.85840685 157 158 160
0.69661730 -0.08325963 0.86041282 160 163 166
0.68338481 -0.07303053 0.85932384 149 150 152
0.69281842 -0.06915633 0.86147162 156 161 162
0.68121281 -0.05617547 0.85977338 121 113 115
0.69037904 -0.04965477 0.86252645 134 133 133
0.69008273 -0.03042682 0.86357841 98 84 79
0.68021339 -0.00787922 0.85976238 95 77 70
0.69029165 -0.01042416 0.86348575 94 76 69
0.68188223 0.01152336 0.85955190 98 75 71
0.69126787 0.00981314 0.86301163 97 76 72
0.68204709 0.02999727 0.85926391 103 78 75
0.69244579 0.03012620 0.86296091 103 80 76
0.68216975 0.04970241 0.85945590 104 83 77
0.69235856 0.05019576 0.86305987 107 84 77
0.68156862 0.06938260 0.85959742 103 83 73
0.69070317 0.06993552 0.86282991 106 84 75
0.68021720 0.09020008 0.85976721 105 80 78
0.69051229 0.09026443 0.86342692 104 83 77
0.69014170 0.10988239 0.86400505 107 87 75
0.68983911 0.12989546 0.86451932 111 87 76
0.68990400 0.15017370 0.86518774 113 88 80
0.69018882 0.16980712 0.86616293 113 86 81
0.68999520 0.19028828 0.86722841 114 86 77
0.68995787 0.21018244 0.86843239 115 89 78
0.69001292 0.22981135 0.86984680 115 90 78
0.68997111 0.24994141 0.87145920 113 90 79
0.69014669 0.27042218 0.87291506 113 90 76
0.68989846 0.29002517 0.87380320 113 92 80
0.69007977 0.31025461 0.87480934 114 91 79
0.68968248 0.33001039 0.87577460 115 90 80
0.68812688 0.34740357 0.87731825 114 93 81
0.69632608 0.35222239 0.88134167 111 93 81
0.68930665 0.36245506 0.88971141 104 88 83
0.68917608 0.38226352 0.93437060 78 67 66
0.69025771 0.39466033 0.95668861 118 108 101
0.68966883 0.39977460 0.96093410 141 131 122
0.69006540 0.41047833 0.96462108 152 143 137
0.68980052 0.42963046 0.96672668 105 91 89
0.69005393 0.45001845 0.96900269 12 12 11
0.68998026 0.47011944 0.97071650 0 0 0
0.69000653 0.48990145 0.97181943 0 0 0
0.68992059 0.50990810 0.97318581 0 0 0
0.68997693 0.53056775 0.97535401 0 0 0
0.68993514 0.54875168 0.97778776 0 0 0
0.71308706 -0.52226933 0.77664695 92 92 122
0.71958720 -0.52350916 0.78001982 82 86 118
0.70883786 -0.50979874 0.77335482 137 138 153
0.70920930 -0.48935128 0.77367083 182 188 190
0.70974842 -0.47029580 0.77747273 189 194 196
0.71806386 -0.46124150 0.78024792 191 195 196
0.70524602 -0.45652509 0.77936751 191 193 195
0.71115537 -0.44826289 0.78168015 191 196 197
0.70980384 -0.43001416 0.78501325 188 193 195
0.71003600 -0.41003733 0.78921491 187 193 196
0.70999016 -0.39000573 0.79365917 188 192 196
0.70929287 -0.37120125 0.79795422 187 193 198
0.71382672 -0.36170649 0.80048016 185 191 196
0.70064781 -0.35990933 0.79995692 193 197 202
0.71009436 -0.34984190 0.80292359 188 194 196
0.70982570 -0.33013301 0.80729363 185 190 194
0.71013579 -0.31018484 0.81143764 186 192 195
0.70995489 -0.28996407 0.81547935 174 177 180
0.70895422 -0.27341932 0.81867681 179 181 185
0.71140722 -0.26373421 0.82086574 179 185 189
0.70997383 -0.24962358 0.82376438 184 188 191
0.70996646 -0.22936649 0.82815862 173 176 177
0.70999149 -0.21017474 0.83356668 133 126 129
0.70959827 -0.19109837 0.83790044 148 145 146
0.71376194 -0.18133370 0.84026261 138 139 139
0.71004221 -0.17012152 0.84282446 151 152 157
0.71001196 -0.14996168 0.84807949 167 168 168
0.71011288 -0.12947016 0.85308899 172 174 176
0.70999489 -0.11014145 0.85727139 171 174 176
0.70753008 -0.09679129 0.85940626 167 169 171
0.71120952 -0.08744471 0.86121496 165 169 172
0.71006516 -0.06987667 0.86366068 164 170 171
0.71012141 -0.04991755 0.86611006 162 164 166
0.71016213 -0.03027731 0.86826395 137 137 137
0.70996765 -0.01020095 0.86958736 104 92 88
0.70981032 0.00999597 0.86954776 97 79 73
0.71029435 0.02968658 0.86934812 100 80 74
0.71038484 0.05010982 0.86948324 104 84 75
0.70986967 0.07019683 0.86968353 107 84 76
0.70976714 0.08960819 0.87025103 105 88 75
0.70990819 0.11000580 0.87102710 110 86 76
0.71003822 0.13002120 0.87170854 110 88 74
0.71001172 0.14991919 0.87229746 112 89 78
0.71001976 0.17034046 0.87316455 112 86 78
0.71004627 0.18976281 0.87429939 113 87 77
0.70985756 0.20982322 0.87549661 113 88 75
0.70932590 0.22984463 0.87670732 111 90 75
0.71889844 0.23592432 0.88044765 113 89 75
0.70714435 0.24964269 0.87751224 113 91 79
0.71684674 0.25181964 0.88098754 112 89 78
0.70539045 0.26909508 0.87827910 113 89 77
0.71501363 0.27039659 0.88166180 114 89 79
0.70330218 0.28926363 0.87864846 117 92 80
0.71364183 0.29027598 0.88231075 117 91 79
0.70252607 0.30772389 0.87924046 114 91 80
0.71193262 0.31051253 0.88270145 113 91 80
0.70071752 0.32592735 0.87952995 115 89 75
0.71081269 0.33023459 0.88337813 113 91 77
0.70981764 0.34985541 0.88509379 112 91 79
0.71103427 0.36349543 0.89352374 101 83 78
0.71073776 0.38300537 0.93618389 67 53 50
0.70995622 0.39450483 0.95620316 97 89 81
0.71017190 0.39963001 0.96058655 137 125 111
0.71000624 0.41053005 0.96485559 154 145 138
0.70985856 0.43039698 0.96790364 107 95 93
0.71009360 0.45046948 0.96986176 26 23 22
0.70990450 0.46992520 0.97168911 0 0 0
0.71018267 0.48992131 0.97275387 0 0 0
0.70984674 0.50973642 0.97402507 0 0 0
0.70983548 0.52964216 0.97596372 0 0 0
0.71005834 0.54852332 0.97836621 0 0 0
0.71866098 0.55681486 0.98008707 0 0 0
0.73125731 -0.52568047 0.78577177 87 94 119
0.72130800 -0.50594822 0.77954874 122 123 142
0.73099463 -0.51058546 0.78463634 95 96 121
0.72489377 -0.48583348 0.77764088 170 173 177
0.73448221 -0.49188115 0.78327077 128 129 147
0.72524005 -0.47430998 0.77906297 186 194 195
0.73198195 -0.46738207 0.78137220 183 191 192
0.72988976 -0.44998592 0.78386806 189 194 197
0.72989946 -0.42987159 0.78736179 188 195 197
0.72984002 -0.41001452 0.79116602 189 195 199
0.73000592 -0.39015275 0.79535959 189 194 196
0.72904453 -0.37471991 0.79870711 184 186 191
0.73101829 -0.36509142 0.80109693 187 194 197
0.72996405 -0.35016238 0.80438945 185 190 195
0.73018491 -0.33000105 0.80890562 185 191 195
0.72986043 -0.30988534 0.81304017 182 187 190
0.72992262 -0.28990337 0.81704321 176 180 183
0.72773790 -0.27684422 0.81941370 176 178 181
0.73078430 -0.26750106 0.82152877 179 180 182
0.72993544 -0.25000114 0.82520238 185 190 192
0.73002139 -0.22986677 0.82967225 182 188 189
0.72993960 -0.20955555 0.83451044 158 159 161
0.72948103 -0.19276179 0.83849036 152 151 150
0.73103892 -0.18319215 0.84077643 163 167 168
0.73011372 -0.17028461 0.84384418 165 169 173
0.73002336 -0.15002112 0.84874907 172 176 179
0.73004979 -0.12955354 0.85374461 176 178 180
0.72964351 -0.11010048 0.85810964 172 176 180
0.73435751 -0.10046948 0.86020349 172 176 180
0.72050377 -0.09854962 0.85996240 170 172 175
0.73004613 -0.08980930 0.86198823 169 171 173
0.72999439 -0.07011594 0.86533767 159 161 165
0.73008635 -0.04994443 0.86844035 157 159 164
0.72999201 -0.02981065 0.87115469 162 167 168
0.73009495 -0.00953318 0.87375612 149 149 150
0.73017753 0.00990583 0.87550818 118 109 108
0.73014216 0.02959284 0.87630045 103 87 84
0.72928654 0.04943675 0.87642418 105 86 76
0.73898407 0.05430994 0.88020386 108 86 76
0.72919934 0.06983623 0.87674828 108 85 77
0.73916715 0.07020366 0.88055134 111 87 81
0.72808339 0.09040812 0.87691092 109 87 76
0.73830964 0.08833570 0.88069522 108 89 79
0.72735141 0.11012768 0.87723799 112 86 77
0.73717655 0.11062605 0.88083530 112 87 77
0.72703027 0.13000909 0.87770630 110 87 76
0.73674347 0.13052079 0.88116214 110 87 78
0.72579521 0.14992226 0.87778206 110 89 77
0.73622789 0.15053991 0.88140213 108 89 78
0.72508687 0.16897122 0.87825866 113 86 77
0.73498177 0.17031714 0.88166599 112 86 78
0.72343891 0.18870457 0.87881124 113 88 79
0.73350517 0.19086108 0.88229543 113 88 80
0.72181087 0.20762441 0.87946383 111 88 76
0.73126587 0.21054775 0.88280791 110 89 76
0.72045719 0.22081579 0.87987345 113 92 77
0.73014516 0.22983103 0.88374696 113 90 79
0.72990580 0.24978930 0.88513805 113 88 77
0.73003884 0.27021165 0.88661374 113 89 80
0.73016649 0.29001320 0.88784561 111 89 79
0.72986082 0.30980641 0.88873809 113 91 82
0.73017349 0.32998944 0.88999635 115 91 80
0.72992930 0.34999199 0.89170445 113 91 78
0.73024396 0.36242270 0.89475417 122 99 90
0.73230425 0.36705235 0.90099629 122 102 98
0.72905363 0.38158289 0.93270691 71 56 56
0.73000416 0.39413094 0.95550625 89 75 75
0.73063779 0.39947215 0.96020710 126 116 110
0.73001102 0.41051971 0.96493903 152 140 132
0.72986317 0.42982782 0.96868297 111 96 95
0.73013737 0.45004861 0.97039624 43 37 38
0.72996653 0.47019939 0.97248429 0 0 0
0.73005002 0.48990620 0.97360975 0 0 0
0.72995420 0.51000834 0.97490248 0 0 0
0.73002129 0.52973664 0.97675741 0 0 0
0.72958493 0.54728878 0.97885671 0 0 0
0.73188212 0.55623957 0.98039981 0 0 0
0.75069364 -0.52787166 0.79351725 85 97 122
0.75017409 -0.50985114 0.79230209 85 93 114
0.75066348 -0.49067576 0.79040100 96 98 121
0.74899947 -0.46853181 0.78585933 160 161 170
0.74958359 -0.44970874 0.78706133 186 193 195
0.74997153 -0.42991885 0.79004106 190 195 196
0.74985847 -0.40991365 0.79342746 188 195 198
0.74990012 -0.38989481 0.79733999 186 191 192
0.75881612 -0.38069769 0.80005872 184 192 196
0.74563029 -0.37740171 0.79950321 186 187 188
0.75072293 -0.36845858 0.80195529 188 192 195
0.74999547 -0.34995818 0.80601343 189 193 197
0.74993032 -0.33003926 0.81043008 186 188 193
0.74996930 -0.31017591 0.81457798 188 193 195
0.74925356 -0.29160861 0.81823002 181 185 187
0.75477919 -0.28257136 0.82044390 174 181 185
0.74079736 -0.27960578 0.81990904 182 183 187
0.75006065 -0.27027832 0.82250923 176 178 182
0.74984238 -0.25038801 0.82669851 182 186 189
0.75002345 -0.23028425 0.83117953 185 191 195
0.74999719 -0.20988011 0.83573953 173 179 183
0.74923273 -0.19525703 0.83897419 173 179 179
0.75068934 -0.18579792 0.84125438 173 178 180
0.75022238 -0.16994018 0.84488703 172 178 183
0.74981403 -0.14964125 0.84949418 177 183 186
0.74991062 -0.12965978 0.85420781 173 176 178
0.74957259 -0.11187385 0.85831006 175 178 179
0.75107970 -0.10186192 0.86049825 169 177 180
0.74994800 -0.08996124 0.86285288 168 170 172
0.75003040 -0.07006906 0.86654115 163 166 170
0.75008052 -0.05017168 0.86998169 157 158 162
0.75004308 -0.02998645 0.87313331 159 161 166
0.75008107 -0.00957713 0.87620692 168 170 172
0.74897008 0.00878696 0.87865588 158 161 163
0.75556702 0.01678982 0.88055131 166 168 171
0.74181431 0.02726621 0.87963349 106 94 94
0.75138744 0.03038464 0.88194362 128 119 120
0.74031512 0.04060691 0.87997764 108 84 83
0.75021325 0.04970481 0.88374445 108 92 87
0.75052342 0.06975303 0.88495407 111 88 83
0.74963289 0.09009183 0.88512400 107 89 78
0.74948904 0.10972535 0.88541348 112 89 79
0.74982538 0.12977736 0.88587260 110 90 78
0.75017525 0.14982106 0.88622539 107 88 74
0.75008612 0.17015719 0.88669864 112 88 75
0.75013598 0.18974504 0.88765419 112 89 77
0.74982685 0.20977339 0.88878455 108 89 75
0.74986999 0.23018368 0.89011579 110 87 78
0.74988487 0.25003108 0.89149549 108 86 76
0.75015139 0.26973293 0.89287252 113 87 78
0.74995476 0.29009872 0.89408396 111 89 80
0.74995102 0.31001747 0.89522611 115 90 80
0.74989333 0.32981986 0.89650362 111 91 78
0.74807268 0.34938377 0.89750030 114 89 77
0.75752673 0.35220013 0.90075794 114 89 77
0.74523096 0.36245043 0.89827496 111 96 79
0.75343958 0.36648728 0.90342547 111 93 84
0.75951848 0.37828736 0.92465162 103 85 83
0.75096634 0.38206578 0.93388724 83 65 65
0.75001077 0.39413728 0.95530755 79 65 66
0.75074629 0.39957435 0.96045276 117 104 100
0.75003304 0.41065503 0.96507912 151 141 134
0.74998100 0.43011125 0.96931854 114 100 97
0.75002486 0.45009933 0.97089431 61 54 53
0.75009585 0.47023052 0.97309451 0 0 0
0.74977500 0.49007155 0.97439559 0 0 0
0.75024618 0.51001371 0.97574744 0 0 0
0.74998329 0.52990668 0.97754057 0 0 0
0.74915038 0.54526785 0.97930134 0 0 0
0.75123149 0.55432800 0.98068072 0 0 0
0.77545922 -0.54087665 0.80235536 63 71 95
0.76506729 -0.52966338 0.79839531 69 80 108
0.77502696 -0.52981826 0.80151338 68 73 102
0.76670654 -0.50974841 0.79796835 88 100 122
0.77651451 -0.51052853 0.80098893 80 93 117
0.76926078 -0.48955057 0.79700330 80 87 111
0.77829038 -0.49532957 0.80043509 90 104 125
0.77100181 -0.47035419 0.79530213 98 97 124
0.76918713 -0.44915182 0.79206186 164 166 174
0.76988894 -0.42992787 0.79314291 187 191 193
0.76999189 -0.40991073 0.79593962 182 188 191
0.76830532 -0.39304378 0.79870249 182 186 189
0.77292048 -0.38439291 0.80081435 179 183 188
0.76988635 -0.37016836 0.80336376 185 190 193
0.76997753 -0.35000757 0.80765872 189 195 196
0.77006676 -0.33006657 0.81190456 184 188 192
0.76991307 -0.31002932 0.81607678 183 186 192
0.76855032 -0.29492807 0.81904165 187 190 193
0.77096855 -0.28544125 0.82110068 177 181 183
0.77002279 -0.26961042 0.82414640 176 178 181
0.77005268 -0.24962804 0.82830809 183 189 192
0.76991928 -0.23008740 0.83257612 181 186 191
0.77000871 -0.21017065 0.83692487 175 180 184
0.76825450 -0.19766498 0.83953283 149 152 155
0.77040589 -0.18826247 0.84165946 168 172 177
0.77005511 -0.17002552 0.84564949 177 181 187
0.76992505 -0.14957797 0.85011292 177 182 186
0.76999496 -0.12969545 0.85467835 174 179 182
0.76964008 -0.11307440 0.85853769 173 176 178
0.77050342 -0.10303858 0.86081173 171 179 179
0.76992966 -0.09001273 0.86352189 166 169 173
0.77004799 -0.07017915 0.86739154 163 167 170
0.77000829 -0.05011142 0.87101931 158 160 166
0.77000178 -0.02993049 0.87445344 151 151 155
0.76992991 -0.00962257 0.87783721 162 163 168
0.77917320 -0.00045933 0.88006043 176 180 183
0.76528691 0.00325760 0.87960756 162 166 172
0.77111126 0.01164751 0.88128916 159 161 166
0.76994299 0.03005828 0.88409551 162 165 165
0.77009403 0.05012038 0.88758909 150 150 151
0.77044826 0.07018305 0.89057748 113 100 99
0.77001946 0.09007926 0.89233789 118 105 99
0.76950229 0.11011670 0.89269990 111 91 84
0.76978508 0.13003949 0.89298126 111 91 82
0.76975431 0.15001243 0.89294583 112 88 77
0.77000665 0.16995782 0.89322389 109 90 76
0.77015718 0.19013177 0.89400558 110 89 77
0.76992967 0.21005740 0.89509579 109 87 77
0.76989597 0.22969817 0.89633037 109 87 75
0.76880187 0.24957478 0.89730712 109 87 79
0.77855691 0.25333955 0.90051889 113 87 76
0.76693548 0.26963500 0.89798636 112 86 75
0.77647232 0.27150966 0.90099227 108 85 72
0.76488699 0.28891436 0.89852789 111 87 77
0.77469104 0.29032155 0.90158431 112 87 76
0.76265972 0.30876251 0.89904297 111 89 77
0.77274063 0.31035338 0.90221628 109 89 78
0.76084910 0.32689407 0.89976411 111 92 76
0.77048849 0.33046781 0.90296427 109 87 75
0.76985530 0.35021379 0.90440099 111 88 77
0.76998558 0.36621060 0.90716555 105 88 80
0.76042058 0.37993526 0.92867959 100 80 80
0.77192190 0.38371798 0.93509980 96 75 74
0.77021678 0.39381427 0.95473267 80 68 69
0.76998464 0.39965123 0.96063756 114 105 101
0.76991522 0.41080922 0.96526013 148 138 134
0.77010263 0.43029101 0.96972375 116 107 102
0.77026762 0.45010239 0.97077049 71 67 67
0.76992899 0.47064430 0.97345400 0 0 0
0.77010083 0.48968747 0.97499839 0 0 0
0.77002953 0.51004516 0.97648497 0 0 0
0.76997718 0.53054715 0.97837585 0 0 0
0.76766613 0.54290866 0.97968273 0 0 0
0.77075285 0.55154694 0.98099913 0 0 0
0.79122398 -0.54282124 0.80738903 57 67 86
0.78997886 -0.53004903 0.80600604 63 69 95
0.79002578 -0.51018910 0.80476060 67 76 103
0.78106227 -0.48219734 0.79982831 81 89 111
0.79026672 -0.49023715 0.80321977 88 99 123
0.78337239 -0.46814481 0.79906294 80 80 110
0.79284173 -0.47082626 0.80202691 85 93 114
0.78676045 -0.44947742 0.79812872 102 101 125
0.79621984 -0.45151275 0.80108190 78 82 103
0.78893280 -0.42898219 0.79735254 162 165 170
0.79885032 -0.43450432 0.80041674 101 102 121
0.78807971 -0.41107883 0.79843999 189 194 196
0.79632377 -0.40512402 0.80050825 192 198 200
0.78309952 -0.39782888 0.79959480 180 183 187
0.79050984 -0.38928625 0.80200064 184 188 189
0.78991085 -0.36993548 0.80542395 182 187 188
0.79017035 -0.34997956 0.80945413 191 198 200
0.78977243 -0.32996244 0.81346038 186 192 194
0.78995861 -0.30991178 0.81753995 187 191 194
0.78579008 -0.29799715 0.81966046 183 188 192
0.79056786 -0.28893299 0.82176848 179 183 187
0.79001727 -0.27006771 0.82543369 178 182 184
0.78998751 -0.24995874 0.82948289 178 182 186
0.79018148 -0.22989956 0.83369513 186 190 193
0.78971181 -0.21016478 0.83780850 178 184 187
0.79827402 -0.20082786 0.84013011 164 173 173
0.78349106 -0.19930910 0.83984919 168 175 177
0.79013673 -0.19008662 0.84205189 158 163 167
0.78999505 -0.17008767 0.84624978 177 182 186
0.78997924 -0.14969610 0.85062658 172 176 179
0.79006549 -0.12972530 0.85511064 173 179 182
0.78995679 -0.11398770 0.85871254 171 178 180
0.78995059 -0.10390208 0.86099231 165 170 174
0.78994069 -0.09006400 0.86393372 163 167 169
0.79003633 -0.07023101 0.86793811 170 173 175
0.79004177 -0.05016939 0.87171856 161 164 168
0.78997263 -0.02993971 0.87535550 150 153 155
0.78946781 -0.01165656 0.87856049 157 158 161
0.79207716 -0.00211521 0.88042938 163 168 170
0.79010075 0.01013747 0.88244818 166 170 171
0.79004862 0.03009530 0.88574653 170 172 174
0.79012302 0.05024203 0.88921806 168 171 175
0.78995063 0.07041169 0.89274531 142 140 144
0.79007765 0.09007905 0.89601129 151 154 153
0.78906794 0.10876570 0.89812104 113 103 100
0.79785834 0.11537463 0.90039579 81 71 72
0.78568811 0.12936555 0.89821288 111 93 82
0.79592097 0.13110422 0.90115105 115 98 88
0.78509237 0.15023787 0.89805932 111 90 81
0.79517808 0.15012071 0.90125465 114 93 84
0.78565137 0.16987591 0.89819506 110 90 76
0.79627637 0.16993962 0.90150843 111 90 78
0.78506246 0.18965245 0.89851187 109 88 78
0.79458343 0.19014621 0.90136934 111 88 79
0.78324966 0.20854326 0.89899653 108 84 79
0.79318107 0.21056838 0.90199958 110 87 79
0.78149498 0.22681884 0.89966073 110 88 76
0.79070836 0.23069953 0.90260883 108 85 75
0.79010249 0.24999618 0.90371285 112 85 77
0.78987852 0.26975460 0.90490228 111 86 76
0.79010380 0.29030879 0.90622085 110 87 73
0.78989931 0.31013402 0.90739819 111 89 78
0.79010635 0.32970097 0.90893322 113 91 78
0.79001853 0.34983345 0.91060790 110 88 77
0.78984308 0.36649210 0.91285887 108 91 81
0.79170681 0.37723586 0.92337708 110 106 98
0.78950503 0.38404504 0.93548789 62 49 48
0.79060377 0.39585863 0.95778944 75 67 67
0.78925946 0.39974256 0.96085710 103 98 95
0.78990231 0.41077734 0.96529998 143 132 124
0.79017949 0.43036794 0.96986832 117 106 104
0.79016443 0.44981524 0.97021797 84 78 79
0.79002748 0.47045369 0.97331852 0 0 0
0.78995728 0.49018371 0.97542985 0 0 0
0.79005067 0.50945326 0.97704488 0 0 0
0.78956742 0.52894820 0.97892479 0 0 0
0.79308266 0.53889579 0.98015496 0 0 0
0.79022790 0.54966161 0.98153383 0 0 0
0.81062485 -0.54459929 0.81290355 64 71 83
0.81007231 -0.52998487 0.81183140 60 66 86
0.80998187 -0.50977015 0.81025003 58 63 86
0.81008106 -0.48997638 0.80846174 66 73 100
0.80992827 -0.46999153 0.80642725 91 105 126
0.81002004 -0.44994730 0.80471031 85 96 114
0.81002932 -0.42966230 0.80320039 89 91 113
0.80989145 -0.40982594 0.80293032 153 156 165
0.80989217 -0.38992822 0.80465428 186 190 191
0.81007809 -0.36997746 0.80770409 184 189 190
0.80989329 -0.34997410 0.81137536 190 197 201
0.80991320 -0.33012178 0.81515639 188 195 198
0.80926353 -0.31236426 0.81849527 184 193 193
0.81297515 -0.30304847 0.82054131 179 183 186
0.81000676 -0.29032591 0.82277132 178 182 186
0.80980219 -0.27036959 0.82655581 178 184 187
0.80997169 -0.25012719 0.83044647 180 183 186
0.81000283 -0.22971847 0.83457409 185 191 194
0.80978725 -0.21129597 0.83832974 183 189 192
0.81117064 -0.20180855 0.84032736 180 182 187
0.81014868 -0.18996630 0.84274800 174 178 180
0.80994812 -0.16960525 0.84693102 175 182 186
0.80995573 -0.14970420 0.85105111 173 178 181
0.80994301 -0.12983337 0.85534946 176 181 183
0.80967718 -0.11438887 0.85879831 169 176 181
0.81036135 -0.10429737 0.86102537 156 162 172
0.80996033 -0.09002378 0.86404387 148 151 157
0.80999802 -0.07025007 0.86808435 158 163 166
0.81010215 -0.05025708 0.87202972 155 158 162
0.81002641 -0.03002550 0.87581705 163 165 167
0.80969327 -0.01351136 0.87888362 155 160 163
0.81050428 -0.00370761 0.88073964 156 159 161
0.81009611 0.01022311 0.88328401 164 167 170
0.81003439 0.03019961 0.88681607 165 168 172
0.81007900 0.05035349 0.89049871 164 168 171
0.81005306 0.06984643 0.89413438 155 157 161
0.80975671 0.08924341 0.89779037 168 173 176
0.81835323 0.09871489 0.90015076 172 182 183
0.80477385 0.10289072 0.89954584 169 175 176
0.81106789 0.11142544 0.90148429 155 155 156
0.81017094 0.12969925 0.90385917 133 125 123
0.81000757 0.14958497 0.90529599 120 105 96
0.81033903 0.17016109 0.90578435 113 94 84
0.80980703 0.18994982 0.90593374 113 91 80
0.80998310 0.21016144 0.90688416 111 89 80
0.80974621 0.22974345 0.90809072 107 89 79
0.81006920 0.24998752 0.90957551 110 85 76
0.81001740 0.27027703 0.91091888 112 88 76
0.81007769 0.28997020 0.91219070 112 87 78
0.80976573 0.30973587 0.91332898 109 90 77
0.80996388 0.32992638 0.91490917 114 91 80
0.81001485 0.34978503 0.91666052 112 90 79
0.81869399 0.35897360 0.92020732 111 91 80
0.80732421 0.36596674 0.91780045 112 88 81
0.81469209 0.37095596 0.92185267 122 101 93
0.80755159 0.38364149 0.93773878 81 75 68
0.81090438 0.39365326 0.95424341 72 64 67
0.80979235 0.39963135 0.96058977 126 122 120
0.81004524 0.41074020 0.96532560 148 142 135
0.81020562 0.43027962 0.96992891 121 112 110
0.81013002 0.44974835 0.96974643 109 102 102
0.80991944 0.47016458 0.97276929 6 6 6
0.80994930 0.49028983 0.97569215 0 0 0
0.81000622 0.50991207 0.97761812 0 0 0
0.80894106 0.52598475 0.97929134 0 0 0
0.81148972 0.53526916 0.98044151 0 0 0
0.81002064 0.54966005 0.98238041 0 0 0
0.82911356 -0.54602922 0.81781556 65 70 83
0.83848139 -0.54913803 0.82045906 71 74 86
0.82991683 -0.52993545 0.81713318 68 73 86
