ply
format ascii 1.0
element vertex 589
property float x
property float y
property float z
property uchar red
property uchar green
property uchar blue
end_header
-0.56208399 0.59590009 1.57284337 131 126 123
-0.56202888 0.60136676 1.57649267 127 121 114
-0.56739277 0.60143936 1.58385944 131 127 122
-0.54523669 0.51886460 1.51654416 142 141 133
-0.54951774 0.52641571 1.51569787 141 137 132
-0.54858933 0.53039007 1.52707325 140 137 131
-0.54476299 0.55535777 1.49425252 132 130 122
-0.54852804 0.54809434 1.51654871 138 135 128
-0.54727567 0.54784509 1.53100967 140 135 130
-0.55185895 0.55569195 1.54347405 138 135 128
-0.54245013 0.56172788 1.49976075 130 130 121
-0.54711986 0.56208099 1.51268077 131 131 123
-0.54295243 0.56664828 1.53413257 131 130 127
-0.55195829 0.57032900 1.54682595 133 131 126
-0.55566525 0.58369116 1.55361732 130 128 125
-0.55684888 0.59042478 1.56196272 131 127 126
-0.52430463 0.51247579 1.49976075 144 141 133
-0.53043327 0.51677449 1.50980474 143 141 133
-0.52851988 0.52953180 1.51519160 141 139 131
-0.53490075 0.53341714 1.52403870 141 140 131
-0.53661221 0.54564095 1.51993692 140 137 131
-0.53842375 0.54747999 1.52506799 140 136 130
-0.53902942 0.56921017 1.52678347 127 124 122
-0.51652795 0.51247579 1.49976075 142 140 134
-0.51824844 0.51808551 1.50475621 141 140 132
-0.51660657 0.52816163 1.50755461 141 139 131
-0.38470222 -0.22327235 1.73080524 29 25 28
-0.38438408 -0.21060975 1.72580463 31 27 30
-0.38369490 -0.19397368 1.71618187 31 28 31
-0.38439837 -0.19419566 1.72053766 30 29 31
-0.36984479 -0.22057475 1.69472957 30 26 29
-0.37749267 -0.22336684 1.71618187 30 26 29
-0.37845075 -0.22095995 1.72053766 31 27 30
-0.36389618 -0.20932590 1.69262174 32 28 30
-0.37432337 -0.21244206 1.71185356 32 28 31
-0.36166293 -0.18530782 1.67381722 35 27 30
-0.36604311 -0.19161701 1.68823058 33 27 31
-0.37742726 -0.18937341 1.71185248 33 29 33
-0.36149320 -0.17979814 1.66968429 38 29 32
-0.36861659 -0.17605254 1.68910162 36 31 34
-0.34835476 -0.20074150 1.67587858 31 30 31
-0.35768144 -0.20421101 1.69261646 30 28 30
-0.35046924 -0.19056213 1.67274039 33 29 32
-0.35691571 -0.19712727 1.68211377 31 28 32
-0.35572138 -0.17979814 1.66968429 37 29 31
-0.33068732 -0.18714933 1.64972258 33 31 34
-0.33961880 -0.19183973 1.66149962 34 30 33
-0.32400864 -0.16319393 1.63347435 36 33 36
-0.32790896 -0.17306166 1.64404445 34 32 34
-0.32132220 -0.15972871 1.64138460 35 34 43
-0.31355083 -0.18657932 1.61595428 32 31 34
-0.31730805 -0.18395209 1.62565241 31 30 34
-0.31058895 -0.16847946 1.61141523 33 32 35
-0.31933492 -0.17002253 1.63123325 34 33 34
-0.31618842 -0.15857682 1.62954772 36 35 43
-0.22588848 0.17745002 0.48759707 36 33 36
-0.22738462 0.19029515 0.48755438 32 30 33
-0.22951629 0.20090577 0.48594423 27 26 28
-0.23115727 0.90652233 1.95922494 0 0 0
-0.23182729 0.90575379 1.96490383 0 0 0
-0.21399448 0.17166886 0.47480357 59 54 57
-0.21705260 0.17449582 0.48066109 53 53 54
-0.21072253 0.18950544 0.47752453 63 60 61
-0.21655779 0.19054486 0.48326092 55 51 53
-0.20566142 0.82932624 1.79574311 0 0 0
-0.21800521 0.86603233 1.87522310 0 0 0
-0.19456838 0.79512733 1.72491562 0 0 0
-0.12461234 -0.32130324 0.83773111 163 159 152
-0.12050541 -0.32511533 0.85037930 163 161 155
-0.12491062 -0.31797472 0.83779059 163 160 153
-0.12232603 -0.31526542 0.84897236 164 160 155
-0.12594987 0.15614972 0.79508309 24 22 25
-0.12625898 0.16404117 0.79662467 23 21 24
-0.12282860 0.16849329 0.80103300 24 23 25
-0.11279664 -0.34259835 0.83848148 165 160 154
-0.10758182 -0.34193509 0.84502164 161 155 150
-0.11848829 -0.33955139 0.83845654 167 159 157
-0.11202679 -0.33222891 0.85202370 162 158 152
-0.10893251 -0.32013357 0.86026883 165 156 155
-0.11553860 -0.31423744 0.85458657 164 158 154
-0.10925580 0.11839423 0.83558703 34 31 36
-0.11064765 0.13779454 0.78778857 27 23 26
-0.11023110 0.12263485 0.83811149 34 27 31
-0.11061565 0.13270307 0.84417406 31 27 29
-0.10220380 0.13673858 0.87333339 86 68 63
-0.10488345 0.13508287 0.88657641 77 57 57
-0.11457434 0.15298788 0.79571649 25 22 25
-0.11071427 0.15536684 0.80906049 25 22 25
-0.10682610 0.14894024 0.82951419 28 24 27
-0.11044689 0.14171159 0.84105837 31 26 29
-0.10249618 0.14291545 0.87053878 75 61 56
-0.11546958 0.16511443 0.79758974 25 22 24
-0.10944619 0.16952855 0.81215158 26 23 25
-0.10380593 0.16976194 0.82423998 29 24 28
-0.10954346 0.18694961 0.79162775 24 22 25
-0.10573599 0.18938251 0.81105567 25 23 25
-0.10237506 0.18203838 0.82440088 27 24 26
-0.10573090 0.20528886 0.79518642 26 23 25
-0.10548192 0.20352103 0.80701902 26 23 25
-0.09812268 -0.34162150 0.84508569 133 112 109
-0.09888188 -0.33930491 0.85055572 131 107 105
-0.08294375 -0.22409549 0.70643633 133 114 106
-0.08323585 -0.20956871 0.71045186 123 104 96
-0.08337021 -0.18997646 0.71099622 118 100 92
-0.08353083 -0.17347725 0.71363304 118 95 91
-0.08210231 -0.10322938 0.71033069 114 90 81
-0.08255037 -0.08968771 0.70929887 110 84 77
-0.08329415 -0.07146112 0.71433863 105 83 77
-0.08327090 -0.06180556 0.72164225 118 93 91
-0.08268389 -0.05787190 0.71924926 116 89 89
-0.08306629 -0.05900232 0.72167355 117 90 90
-0.09794033 0.13757454 0.87163401 121 88 72
-0.09242250 0.13637942 0.89538990 118 91 76
-0.09602607 0.13293165 0.90419149 119 90 75
-0.09703037 0.15272980 0.82845057 49 40 39
-0.09807182 0.14402710 0.85202408 92 71 62
-0.09656348 0.14184628 0.86666788 118 91 71
-0.09114032 0.14464018 0.89011963 117 89 75
-0.09814710 0.16949912 0.82917801 53 42 42
-0.08735078 0.19341396 0.77116973 70 54 51
-0.09215289 0.19657157 0.78873632 48 40 41
-0.09741259 0.19347886 0.81167572 32 28 30
-0.09695175 0.18494897 0.82509341 52 43 42
-0.08859076 0.20429159 0.77153752 60 48 46
-0.09339650 0.20648381 0.78755880 37 30 32
-0.09823213 0.20326363 0.80887059 28 25 27
-0.06357760 -0.24738844 0.73694124 94 96 104
-0.06812795 -0.25045576 0.74005657 97 97 100
-0.07237101 -0.22725568 0.70839956 118 107 104
-0.06384138 -0.23818240 0.73632023 92 95 105
-0.06782885 -0.23708033 0.75453748 90 96 105
-0.06663144 -0.22917337 0.76592262 89 92 104
-0.07312650 -0.21054464 0.71049965 116 105 99
-0.06792227 -0.21042662 0.76660407 88 91 103
-0.07381890 -0.19094910 0.71305958 116 104 98
-0.06755310 -0.19775847 0.76243268 85 91 101
-0.07782108 -0.17656481 0.71410992 128 107 96
-0.07636026 -0.17737503 0.72116154 128 111 95
-0.06900966 -0.16240453 0.77888783 82 85 102
-0.06972202 -0.16378063 0.78141758 84 86 103
-0.06852612 -0.14492089 0.77675850 80 82 100
-0.06996343 -0.15581927 0.78218548 82 84 102
-0.06499631 -0.13912296 0.77918601 79 81 102
-0.06989200 -0.13049993 0.79066279 78 83 99
-0.07882510 -0.10340904 0.70968621 119 93 83
-0.06870167 -0.10375919 0.77710817 79 84 99
-0.07020278 -0.11429563 0.78688133 78 81 99
-0.07754765 -0.08958898 0.71116092 117 90 81
-0.07631969 -0.08446784 0.72077835 116 89 76
-0.06788622 -0.08899637 0.77396439 57 57 65
-0.06997404 -0.09053697 0.78062187 47 48 52
-0.07851033 -0.07202338 0.71302001 116 89 78
-0.06668224 -0.07019864 0.76853730 47 46 51
-0.06850311 -0.05927467 0.76761873 46 45 53
-0.06341669 0.13199578 0.65357031 106 85 75
-0.06207192 0.14140419 0.65782946 127 99 94
-0.06221403 0.15169414 0.67056746 126 109 98
-0.06466630 0.15891016 0.68319188 104 84 75
-0.06442946 0.16677037 0.69330901 127 107 98
-0.06752668 0.17482772 0.70639999 124 105 97
-0.06568330 0.18608597 0.70700022 141 125 117
-0.07160290 0.18469049 0.72347051 125 92 88
-0.05891684 -0.24427423 0.73683983 91 93 103
-0.05999470 -0.23522733 0.73444402 94 98 108
-0.05342640 0.11781403 0.64804550 140 134 130
-0.05539360 0.13027307 0.65355484 144 133 125
-0.05403845 0.13004589 0.66291847 143 134 128
-0.05710577 0.14321062 0.65734548 141 129 123
-0.05319779 0.15169829 0.67482895 144 137 128
-0.05513243 0.15924388 0.68110329 146 139 128
-0.05462132 0.16140937 0.67942169 147 138 130
-0.05584520 0.16405909 0.68690833 145 138 129
-0.05967585 0.17650064 0.70088083 142 138 127
-0.05952814 0.18452294 0.69914603 146 136 127
-0.05955009 0.18139606 0.70421708 145 137 127
0.06516562 -0.06077786 0.59902151 45 44 47
0.06497981 -0.05787984 0.59922015 46 43 47
0.06717735 -0.05182492 0.60255025 45 44 46
0.17106000 0.11772961 1.33129289 100 99 103
0.17108810 0.12940499 1.33478203 93 92 97
0.17572609 0.13850902 1.34236014 79 75 74
0.16913846 0.14099015 1.33838731 87 86 86
0.17590041 0.14213127 1.34369183 92 89 88
0.18805806 0.11742105 1.33560483 105 103 105
0.19428736 0.11762757 1.34236014 97 98 100
0.18839163 0.12793628 1.33725421 100 96 102
0.19323894 0.13450051 1.34455726 96 93 98
0.18000995 0.14055087 1.33970726 128 121 120
0.18920015 0.14223747 1.35578370 102 99 100
0.20167150 0.13545172 1.35038575 88 86 88
0.21303929 0.45668131 1.69157831 89 81 77
0.21307085 0.45517014 1.70647173 86 77 77
0.21622220 0.46779883 1.67380702 81 78 76
0.21359668 0.46600468 1.69163434 81 77 75
0.21024792 0.46688353 1.70755243 79 72 70
0.21036361 0.46004254 1.72053766 96 87 86
0.21642336 0.48373820 1.70969212 68 60 67
0.22057931 0.45656615 1.70753610 93 84 83
0.22321945 0.46852370 1.71078101 105 98 96
0.23300738 0.46815693 1.72775562 118 107 106
0.23445349 0.46806218 1.74489820 124 111 112
0.23962782 0.46471012 1.76075804 101 96 95
0.23969746 0.47390810 1.78392589 115 106 107
0.23625318 0.48367158 1.73596150 98 97 90
0.23505619 0.48818021 1.74941286 98 95 92
0.23781992 0.49466980 1.76995254 95 95 87
0.23723839 0.50607359 1.78863287 91 87 88
0.25402764 -0.12478066 0.52501773 77 77 84
0.25314914 -0.11940747 0.52481997 74 76 83
0.24666911 -0.09252815 0.47448119 75 76 79
0.25350574 0.45216620 1.73596713 109 99 95
0.25689910 0.45173464 1.74883980 113 104 97
0.25414702 0.45554417 1.76650766 117 106 99
0.25404584 0.46393282 1.72870335 121 113 107
0.24988484 0.47220796 1.75091386 125 111 107
0.24881599 0.47022595 1.77203469 118 107 105
0.24752779 0.47104173 1.78865778 108 100 99
0.24289341 0.47085345 1.80771160 83 74 75
0.24886622 0.47923049 1.85216355 102 91 91
0.25327703 0.47097629 1.90955448 106 104 96
0.25616339 0.47968167 1.93131578 112 106 102
0.24747224 0.48047411 1.75165856 125 114 112
0.24995054 0.48732532 1.76920042 122 111 108
0.25142634 0.49659143 1.78510264 114 107 104
0.25162361 0.48757244 1.89708873 106 96 95
0.25327906 0.48252727 1.90956962 126 111 108
0.25169559 0.49241685 1.93545434 107 97 96
0.25369091 0.49237093 1.95078808 114 103 100
0.25430620 0.48782725 1.96872290 107 102 99
0.24925477 0.49411880 1.98942292 94 88 87
0.24150972 0.50209922 1.77458596 103 96 94
0.24178539 0.50696850 1.79179577 97 93 90
0.24811298 0.50209218 1.97348845 101 91 88
0.24894057 0.50209737 1.99381679 100 95 89
0.27719427 -0.26833786 0.48472514 88 90 90
0.26104678 -0.12454105 0.52702984 74 78 81
0.26196009 -0.11951187 0.52795337 76 76 81
0.26276608 0.45691958 1.74265254 95 86 86
0.26224959 0.46537867 1.72931588 111 107 97
0.26344331 0.46111700 1.74714386 103 89 92
0.28269128 -0.26618737 0.48511260 88 91 90
0.33976161 0.11583973 0.47975361 129 127 113
0.33917242 0.11675157 0.48009336 120 113 105
0.33936696 0.36652719 0.90870657 113 113 110
0.34775522 -0.22839684 0.64477894 81 84 87
0.34867824 0.11775063 0.48302422 129 122 112
0.34888286 0.12139146 0.48414629 114 107 102
0.35757344 0.17043392 0.45160926 112 102 101
0.34129498 0.35861129 0.91422148 130 128 124
0.34874022 0.36531726 0.91150360 129 124 116
0.35608212 0.36696407 0.92769353 137 131 122
0.36856446 0.15321278 0.63269063 133 128 118
0.36977409 0.15185977 0.64687121 126 119 112
0.36158293 0.17170576 0.45161678 98 91 88
0.36717298 0.16471145 0.63214179 132 123 117
0.36836535 0.16004588 0.64438391 129 126 116
0.37390974 0.16051921 0.66006994 120 115 110
0.36277592 0.36659549 0.91149702 104 100 94
0.36596774 0.36923942 0.93099678 122 116 109
0.36621245 0.37049921 0.94348555 128 120 111
0.43808299 -0.33332305 0.56303466 94 95 94
0.42392695 0.11293748 0.47975361 88 87 84
0.42606903 0.11382601 0.48724076 104 100 91
0.43877848 0.13974833 0.54742285 112 109 91
0.43819871 0.14479470 0.55286897 94 90 83
0.43930893 0.14574283 0.56140119 104 97 88
0.44852704 -0.32897896 0.56285412 93 98 96
0.44708997 0.13867009 0.54747149 114 109 97
0.44616907 0.14280565 0.55025833 120 118 108
0.44800312 0.15682713 0.57019313 114 111 103
0.45051973 0.16366377 0.57105503 119 113 111
0.47896828 0.35270006 1.06586900 120 116 110
0.49642558 -0.34554567 1.04838649 82 83 86
0.49089915 -0.32759256 1.03176690 81 82 84
0.49782082 -0.33678975 1.04170904 80 83 85
0.49342624 0.35033303 1.05265048 113 106 103
0.48646203 0.35557138 1.06488453 120 114 111
0.49343948 0.36256763 1.05837977 124 109 108
0.49011656 0.36503784 1.06892147 123 115 110
0.48350766 0.37037463 1.08116722 107 105 104
0.51091003 -0.34500594 1.04845400 80 83 86
0.50121132 -0.33210844 1.03785708 81 82 84
0.51321742 -0.33346127 1.04918799 81 83 86
0.51195504 -0.20707039 0.86847789 76 77 81
0.50793732 -0.19830217 0.86718690 76 76 78
0.50573480 0.18973227 0.45056679 91 87 81
0.51108897 0.23836402 0.57113826 109 101 100
0.51825160 0.23986104 0.58138239 106 97 99
0.51383857 0.24196832 0.57575044 106 100 96
0.51733578 0.24549680 0.58569145 86 79 78
0.50411248 0.35427906 1.05456579 92 86 87
0.50167045 0.35766803 1.06420624 98 87 90
0.50586483 0.36504481 1.07084410 91 84 85
0.51024750 0.37591752 1.08637631 88 72 74
0.52557505 -0.34317073 1.05520836 83 84 85
0.53343987 -0.34516804 1.06336039 82 83 83
0.52230188 -0.32683073 1.05755615 77 83 83
0.52743186 -0.20962835 0.87570173 77 77 82
0.53357160 -0.20184175 0.88267317 80 81 84
0.52220303 -0.19813561 0.87639579 72 76 80
0.53149565 -0.19899833 0.88133504 77 78 81
0.53524006 0.21200905 0.51087804 108 100 95
0.53367552 0.23760681 0.60608447 97 94 90
0.52318453 0.24852179 0.59486209 81 73 76
0.53026770 0.24537742 0.60667836 111 102 98
0.54281786 0.21636425 0.52491806 120 113 101
0.61296537 -0.16541077 0.61578609 78 80 82
0.61546360 -0.15722536 0.61555920 78 81 81
0.61624513 0.19114050 0.61567626 117 111 104
0.61896436 0.18695186 0.62092312 97 99 91
0.61228260 0.21414633 0.59592164 90 85 83
0.61662731 0.21068880 0.60990160 111 107 100
0.61885256 0.21768805 0.62134957 71 75 73
0.61631276 0.22214143 0.59955068 74 73 72
0.61793928 0.22276434 0.60413922 78 77 73
0.63174245 0.17942161 0.63265446 118 112 106
0.62243984 0.19332031 0.61783916 120 115 107
0.62521436 0.18354596 0.62685854 100 98 92
0.62135012 0.20873854 0.61704025 112 109 102
0.62374226 0.21886940 0.62226472 76 81 80
0.62036708 0.22418208 0.60553101 75 73 69
0.63332710 0.22696958 0.63239423 106 104 95
0.63578995 0.22940786 0.64057857 102 104 85
0.65903866 -0.26249632 1.64536858 77 79 84
0.65559698 -0.24855072 1.63348319 75 75 83
0.65744293 -0.25902373 1.64138460 78 78 84
0.65333549 -0.23636372 1.63348382 75 75 84
0.65388002 -0.23377121 1.64671270 75 75 83
0.67767861 -0.28211230 1.63544714 73 76 84
0.66996316 -0.28269632 1.64893357 75 75 84
0.66151518 -0.26122820 1.63741994 75 76 82
0.67099738 -0.26938083 1.65043321 74 75 83
0.67143861 -0.25140109 1.63446785 74 74 83
0.67038657 -0.25518361 1.64475863 75 75 82
0.66980526 -0.23707147 1.63347751 75 75 83
0.66879094 -0.23727339 1.64138460 74 74 82
0.68059778 -0.28023982 1.64937186 75 75 84
0.68119377 -0.27705064 1.64737022 74 74 83
0.68269459 -0.25092333 1.63663082 73 74 82
0.68411075 -0.24881052 1.64138460 73 75 83
0.68415636 -0.23858702 1.63741994 72 75 83
0.68447417 -0.23746459 1.64271259 73 75 82
0.73772299 0.14749056 0.62884218 132 127 113
0.75236573 0.14927553 0.63120600 103 100 93
0.76035638 0.14746698 0.63248186 117 116 105
0.79944760 0.43169990 1.16877902 130 128 116
0.80342019 0.43306133 1.17385367 130 129 117
0.80749652 0.42943558 1.18409528 122 118 108
0.83752006 0.25891738 1.12887979 107 99 93
0.83773792 0.26385782 1.12961225 112 104 99
0.83322966 0.41385008 1.19698966 128 120 117
0.83711463 0.41663988 1.20407081 126 118 114
0.83551186 0.42859533 1.17689562 110 98 97
0.83377858 0.43051401 1.19536743 95 93 87
0.83488803 0.43437822 1.20536468 99 99 91
0.83726203 0.44108719 1.19980860 97 98 89
0.83483464 0.44291806 1.20478874 125 125 110
0.84882206 0.25711204 1.11679351 128 123 110
0.84995868 0.25884742 1.12857481 120 113 101
0.85142196 0.26829712 1.13138447 119 115 107
0.85424642 0.27753068 1.14123201 118 115 110
0.85626855 0.28197493 1.13361332 129 126 117
0.85451062 0.28549211 1.14439368 124 121 115
0.84575966 0.43494235 1.19716629 103 96 94
0.84805299 0.43110520 1.20744961 106 100 97
0.84889112 0.43352117 1.22586101 93 91 85
0.85995972 0.43175812 1.24156010 109 102 100
0.84170139 0.44069754 1.19874871 75 75 73
0.85042588 0.44555304 1.20967965 82 80 78
0.86192816 0.27171723 1.13404589 133 128 119
0.86439105 0.27649005 1.14509149 124 120 116
0.87354076 0.29883957 0.92608178 92 92 88
0.86220140 0.28580196 1.13569348 137 134 121
0.86780057 0.29089762 1.14552539 127 124 113
0.86793874 0.31037278 0.91762376 96 85 83
0.87564997 0.30923422 0.92577433 101 91 88
0.87754571 0.32037342 0.92355835 96 84 85
0.86153764 0.43577516 1.24383819 103 98 96
0.86085781 0.44742005 1.21704495 89 85 83
0.86340365 0.45090273 1.22363150 78 77 76
0.86895424 0.44279990 1.25768435 94 95 86
0.87381780 0.44309226 1.26472354 99 95 91
0.88277191 0.29928318 0.93245095 107 107 100
0.88112128 0.30314361 0.91730964 82 83 80
0.88416186 0.30928929 0.92817758 91 85 84
0.88114119 0.32081109 0.92482007 95 81 83
0.89160798 0.45324001 1.29370864 96 93 85
0.92636941 0.37423123 1.01558477 120 120 112
0.93571264 0.37702114 1.02712925 114 112 109
0.93298599 0.38116881 1.02478039 125 123 118
0.94080776 0.37722065 1.03337169 105 100 99
0.95259015 0.38944617 1.04992540 116 115 111
0.95883566 0.40038180 1.05920601 123 118 111
0.96376039 0.39353912 1.06918807 102 101 100
0.97440343 0.39552345 1.08783132 89 87 86
0.96687283 0.40565073 1.07149711 113 109 103
0.97748293 0.40252766 1.08812571 106 105 104
0.97876102 0.42523076 1.10226321 80 79 76
0.99527660 -0.28645203 0.97890568 82 82 84
0.99908032 -0.28762760 0.98292861 81 81 83
0.98128539 0.39726642 1.09869015 83 78 77
0.98591758 0.39711206 1.10515790 77 74 73
0.98308818 0.40925166 1.09435905 104 102 98
0.98872202 0.41109903 1.10794373 99 95 92
0.99533484 0.40796591 1.12708252 96 89 85
0.99758339 0.40771747 1.14123201 106 97 90
0.98984316 0.42335856 1.10888800 100 93 88
1.01308066 -0.28752964 0.98893002 79 81 84
1.01892781 -0.28262606 1.00131738 78 80 81
1.01945194 -0.27820675 0.99788145 80 81 83
1.00221495 0.39841840 1.12795436 76 72 73
1.00477230 0.40602904 1.13456368 84 81 79
1.01245521 0.40796497 1.14607273 88 84 81
1.00546551 0.42827995 1.12798977 101 95 93
1.02628540 -0.28457681 0.98992667 78 81 83
1.02065849 -0.28262606 1.00131738 78 81 82
1.02849638 -0.27601294 0.99294036 78 81 82
1.02145588 0.41058347 1.15484130 88 83 84
1.04721145 0.57118769 1.65206687 75 75 72
1.05484793 0.57596083 1.66867900 77 75 72
1.05549061 0.58208317 1.66968429 80 74 72
1.04267597 0.58496046 1.68629813 128 128 116
1.05742544 0.59158728 1.70539099 122 121 109
1.06126237 0.57919729 1.66968429 76 76 74
1.06243628 0.58207390 1.67380702 77 74 72
1.06793666 0.58913438 1.68871910 79 74 72
1.07062474 0.59463090 1.71107401 98 94 89
1.06849511 0.59744380 1.72229331 117 115 107
1.07895148 0.60125941 1.71618187 83 77 74
1.07188278 0.61006027 1.73210736 124 120 105
1.07170022 0.61086316 1.74789631 134 131 119
1.07790444 0.61489894 1.76381888 132 131 119
1.07265464 0.63123340 1.73479007 114 109 102
1.07463685 0.62913978 1.74580580 123 118 106
1.07940605 0.62797822 1.76420298 134 128 116
1.07703459 0.64396453 1.75165856 119 109 104
1.07958627 0.64426649 1.76075804 130 122 116
1.09177887 0.47116413 1.49480675 92 87 86
1.08236992 0.59823036 1.70753610 79 73 71
1.08361953 0.60417938 1.71185899 79 72 72
1.08629117 0.61265015 1.73010303 106 98 93
1.08426861 0.62605135 1.73750030 109 101 95
1.08397023 0.62663293 1.74414965 110 104 97
1.08499833 0.63245262 1.77459407 134 127 116
1.08792170 0.63386019 1.78864113 136 128 121
1.08790207 0.64906871 1.77807927 132 125 116
1.09300417 0.64731171 1.79021426 135 126 116
1.11548144 0.39782074 1.36436510 142 137 128
1.11700264 0.40582677 1.36589692 131 130 117
1.10627365 0.45753084 1.49810535 117 115 110
1.11869061 0.45689818 1.51315141 123 124 115
1.10664372 0.46718353 1.50979630 99 92 94
1.11551398 0.47210231 1.52850670 82 69 73
1.12661881 0.39309577 1.37062725 133 127 124
1.13287663 0.38904433 1.38063514 133 125 119
1.13010162 0.40369250 1.37435240 135 131 119
1.13822973 0.40993723 1.38133955 131 128 115
1.12734127 0.46694222 1.53111103 111 108 103
1.13256398 0.47051083 1.55085993 99 93 89
1.14974153 0.19819805 1.23702896 62 62 62
1.15822029 0.19498931 1.24383819 84 83 79
1.14311571 0.39336955 1.37601349 131 126 114
1.14850520 0.39116502 1.38157435 122 116 108
1.14486289 0.40174857 1.37782896 119 111 103
1.14657057 0.40811130 1.38356822 120 113 105
1.15723460 0.43806955 1.58906639 120 120 106
1.15987778 0.43958271 1.60258114 135 136 120
1.15849278 0.44826611 1.59451228 134 131 121
1.15875859 0.44886972 1.60410020 133 132 122
1.14146423 0.46697090 1.55243675 112 107 100
1.14543869 0.47122203 1.57138872 109 100 94
1.15626037 0.46959474 1.59075999 126 119 107
1.15931256 0.46994985 1.60410380 129 123 109
1.14288231 0.77354489 1.73670240 102 94 97
1.15050012 0.76812579 1.74827838 84 78 80
1.15871274 0.76599956 1.76075804 76 76 75
1.14963996 0.78526324 1.75619650 94 90 89
1.15564070 0.78834244 1.76444068 95 90 89
1.16534101 0.19739589 1.25459325 81 80 78
1.17764580 0.19752634 1.26002204 80 78 74
1.16305383 0.40664502 1.38912650 106 106 96
1.16444087 0.43738724 1.59084921 126 124 112
1.17026490 0.43645921 1.60638329 136 137 118
1.16513702 0.45167651 1.59130590 136 133 123
1.16500201 0.44771927 1.60912495 133 134 119
1.17563903 0.44777133 1.62564615 132 133 115
1.16006994 0.47329932 1.57649267 112 107 100
1.16783849 0.46808907 1.59334645 135 128 119
1.16884980 0.47255652 1.61117104 126 121 106
1.17433331 0.47120290 1.62957033 133 130 114
1.17945099 0.47859636 1.64138460 122 118 101
1.17943215 0.48027048 1.63741994 129 123 106
1.16857380 0.77199934 1.77807927 76 75 74
1.17230448 0.77201580 1.79046431 77 76 71
1.17711377 0.77705276 1.80771160 87 88 79
1.16350749 0.79289887 1.77738547 89 85 84
1.17135011 0.78701225 1.79045850 79 76 77
1.17633113 0.80619793 1.80650967 77 74 73
1.19117504 0.17739351 1.27184993 76 77 78
1.18609238 0.18891761 1.26686934 84 82 79
1.18493247 0.43818647 1.61788034 137 138 125
1.19353008 0.44240993 1.63347435 138 139 126
1.19079900 0.44455236 1.64138460 143 144 127
1.18300533 0.47392201 1.64238060 133 131 114
1.18936762 0.75566301 1.80772151 96 87 85
1.19293074 0.75670044 1.82392720 98 91 90
1.18330085 0.76982260 1.79812157 81 75 71
1.18951350 0.76858123 1.81279708 84 76 73
1.19205242 0.77068006 1.82968959 92 84 78
1.19632065 0.77273017 1.84209740 104 94 88
1.18078852 0.79045052 1.81335495 78 76 76
1.18985838 0.78914399 1.83214679 80 80 75
1.19878447 0.78681521 1.84712359 89 77 73
1.18026114 0.80106032 1.81254506 74 74 74
1.19795048 0.80407351 1.84460706 77 74 75
1.19996572 0.80981302 1.87262940 108 98 97
1.21080529 -0.46410807 1.23674984 88 89 88
1.21120262 -0.46588606 1.24231946 87 91 89
1.21195989 -0.45657536 1.23570686 85 86 84
1.21754050 -0.45367599 1.24338427 86 86 87
1.21682147 0.15374592 1.30113602 119 120 111
1.21304214 0.17638620 1.29026124 79 79 80
1.20472527 0.19278262 1.27543485 85 83 76
1.21318710 0.18765250 1.28694293 84 84 81
1.21263727 0.20103508 1.28714983 82 80 74
1.20541406 0.76394248 1.81740439 95 84 84
1.21200970 0.77383031 1.83152950 85 77 78
1.21860802 0.76636231 1.84209740 102 91 91
1.20624816 0.77800280 1.86234021 104 94 87
1.21077567 0.79029882 1.84966767 81 75 73
1.20920546 0.78916936 1.86878523 98 84 80
1.21639621 0.79966599 1.88303292 93 79 75
1.20401335 0.80690213 1.85723794 79 74 75
1.20997979 0.81074692 1.87311137 88 81 80
1.21282254 0.80800609 1.88478458 97 88 84
1.20351696 0.82542098 1.85317843 73 70 70
1.21464950 0.82179323 1.87781680 79 76 76
1.21811713 0.82945663 1.88697416 85 78 79
1.21821141 0.84223235 1.89094484 97 85 87
1.22713612 -0.46303787 1.23853656 85 89 86
1.23102569 -0.46697866 1.24384203 85 88 87
1.22674855 -0.45617229 1.23785276 87 88 87
1.22863751 -0.45031350 1.24589090 85 86 86
1.22921896 -0.43855022 1.24498147 85 90 88
1.22683479 0.15444035 1.30700884 120 120 112
1.22342006 0.17759708 1.29740342 74 74 75
1.23119504 0.16899421 1.30742710 90 90 88
1.22035170 0.18664760 1.29533581 74 75 72
1.22526705 0.78495601 1.85216355 78 71 72
1.22333598 0.79982179 1.89885676 105 89 86
1.22333598 0.80474481 1.89885676 99 83 79
1.22244337 0.83229274 1.89620471 87 81 81
1.22348106 0.83498091 1.90419054 96 89 88
1.22214584 0.84473903 1.89532069 83 73 73
1.22819307 0.84423297 1.91023633 98 87 87
1.23423338 0.85021332 1.93131578 113 102 101
1.24029315 -0.47300027 1.25072300 84 86 87
1.24469717 0.15791400 1.31715178 111 111 103
1.24873972 0.15918882 1.32142663 116 116 107
1.24713402 0.16680185 1.31544779 95 93 90
1.25351285 0.16644815 1.32466287 97 95 92
1.25253260 0.44824824 1.81740439 130 122 121
1.25589967 0.44630352 1.82228994 115 111 110
1.24130630 0.85508561 1.94238353 113 102 102
1.26250966 0.16987016 1.33355884 99 94 94
1.26611018 0.44675672 1.83710527 95 92 91
1.27648818 0.44721735 1.85216355 88 87 84
1.29648232 0.43961877 1.88827813 115 106 98
1.28895865 0.44511637 1.87025501 93 94 88
1.29468387 0.44226739 1.88565552 101 96 89
1.30603409 0.41748554 1.86234021 110 107 100
1.31396255 0.42192923 1.87135395 105 104 95
1.30958765 0.43627929 1.89357626 115 109 94
1.31714535 0.43687024 1.90956457 127 124 104
1.30931441 0.44692019 1.87781680 116 113 106
1.30936170 0.44492361 1.88904001 114 108 103
1.31892705 0.44496904 1.90419054 113 109 103
1.32337892 0.42744625 1.87781680 111 109 95
1.32952003 0.43261191 1.89092685 116 112 99
1.32842689 0.43360631 1.91110434 120 117 100
1.33032176 0.43563862 1.92255569 135 132 115
1.32175606 0.44692019 1.87781680 129 126 119
1.33062843 0.44568583 1.89275255 125 121 114
1.33201663 0.44508461 1.90822107 119 115 107
1.33357248 0.44408466 1.92173734 119 118 103
1.34312975 0.43879959 1.89885676 133 124 120
1.35141993 0.44609101 1.91135255 128 122 115
1.34152696 0.44701385 1.92720073 116 113 102
1.36000896 0.45041025 1.92037344 134 131 123
