ply
format ascii 1.0
element vertex 1082
property float x
property float y
property float z
property uchar red
property uchar green
property uchar blue
end_header
-0.07019556 0.01016674 0.87789542 161 159 160
-0.07009061 0.02797200 0.87940099 159 157 159
-0.07127000 0.03779578 0.88014169 159 158 163
-0.07043791 0.04978858 0.88092465 155 154 155
-0.07053352 0.06967670 0.88211920 156 154 157
-0.07062550 0.08961424 0.88327098 145 142 144
-0.07013601 0.10975812 0.88463064 160 156 158
-0.06945012 0.12963272 0.88616258 161 157 157
-0.06943113 0.14987203 0.88752097 154 153 156
-0.06953204 0.17006092 0.88881092 151 149 151
-0.06963011 0.19029985 0.89006450 147 146 147
-0.06972580 0.21058823 0.89128848 152 149 149
-0.06981422 0.23013604 0.89241925 150 149 150
-0.06990294 0.24973431 0.89355358 155 154 155
-0.06999446 0.27016509 0.89472344 158 155 154
-0.07007877 0.28984421 0.89580116 157 153 151
-0.07016101 0.30956114 0.89685216 152 151 151
-0.07024065 0.33008702 0.89787025 149 149 150
-0.07030730 0.34981677 0.89872196 155 155 154
-0.07036432 0.36953303 0.89945030 153 152 152
-0.07002411 0.38481756 0.89989187 57 56 56
-0.07077687 0.39496153 0.90009833 0 0 0
-0.07044437 0.41041902 0.90047243 0 0 0
-0.07049095 0.43015828 0.90106807 0 0 0
-0.07054612 0.44997835 0.90177319 0 0 0
-0.07060721 0.46986782 0.90255427 0 0 0
-0.06989117 0.48981636 0.90338111 0 0 0
-0.06994593 0.50738830 0.90408887 0 0 0
-0.05056190 -0.52444919 0.78230967 0 0 0
-0.04865574 -0.50671125 0.77858469 0 0 0
-0.05294257 -0.51561616 0.78096760 0 0 0
-0.04996702 -0.49015001 0.77543803 0 0 0
-0.04963425 -0.46990768 0.77059327 0 0 0
-0.04986526 -0.45008559 0.76634728 0 0 0
-0.04749111 -0.42321118 0.75898326 0 0 0
-0.05133684 -0.43240462 0.76215984 0 0 0
-0.04991391 -0.41012454 0.75469001 0 0 0
-0.04993643 -0.38846113 0.74768509 128 128 127
-0.04939161 -0.37432645 0.75536302 156 156 155
-0.05087204 -0.36444621 0.76384182 161 160 158
-0.04946354 -0.35311597 0.77392877 155 155 155
-0.05071791 -0.34321681 0.78236524 161 159 160
-0.04993934 -0.33021459 0.79236356 165 165 166
-0.04639636 -0.31946868 0.79962978 164 165 166
-0.05013344 -0.30976751 0.80566271 165 165 166
-0.05032888 -0.29006493 0.81575115 157 156 158
-0.04963219 -0.27033470 0.82372663 161 160 161
-0.04989289 -0.25016825 0.83042960 155 154 156
-0.05017030 -0.22992413 0.83508420 153 151 153
-0.05058217 -0.21235023 0.83835153 159 152 158
-0.04969347 -0.20321234 0.84062564 181 159 166
-0.05951130 -0.18146318 0.83955419 153 92 115
-0.05001777 -0.19019863 0.84279592 170 137 149
-0.05716677 -0.16802498 0.83802715 154 94 122
-0.04790500 -0.17080397 0.84370920 155 101 125
-0.05366678 -0.14927132 0.83572894 149 110 132
-0.04424950 -0.15160226 0.84226594 152 96 120
-0.05046388 -0.12958641 0.83219228 146 135 148
-0.04193801 -0.13688541 0.84071159 154 92 116
-0.05805816 -0.10650219 0.81760859 146 145 152
-0.04882772 -0.11063424 0.82757227 149 148 157
-0.05489313 -0.08901872 0.81482930 146 144 151
-0.04508068 -0.09073468 0.82460991 151 150 159
-0.05183805 -0.06921222 0.81146711 146 141 148
-0.04207113 -0.07250461 0.82204565 151 148 157
-0.05913011 -0.04842253 0.79926076 146 139 140
-0.04941916 -0.05039043 0.80871788 149 145 148
-0.04007112 -0.05997921 0.82033467 154 152 159
-0.05981832 -0.03913378 0.79999286 151 141 144
-0.05072797 -0.03293889 0.80685022 153 145 147
-0.05130010 -0.02604963 0.82859920 167 151 156
-0.04848502 -0.02683281 0.85211105 176 157 163
-0.04940368 -0.02310759 0.87296003 173 160 166
-0.05035541 -0.00953705 0.87591076 166 161 161
-0.05046497 0.01016587 0.87781260 159 153 155
-0.05039878 0.02860924 0.87937822 149 147 149
-0.05158799 0.03842960 0.88009013 158 158 161
-0.05057500 0.04983605 0.88081452 152 150 152
-0.04994207 0.06966508 0.88197270 149 148 151
-0.05001132 0.08960710 0.88319816 150 148 151
-0.04951381 0.10949568 0.88462169 158 155 156
-0.04941454 0.12973469 0.88618607 159 157 158
-0.04948941 0.14987313 0.88752766 154 153 155
-0.04956031 0.17005862 0.88879900 148 146 147
-0.04963098 0.19030050 0.89006718 148 148 150
-0.04970097 0.21059656 0.89132348 157 156 158
-0.04976533 0.23015141 0.89247868 155 154 154
-0.04982964 0.24975645 0.89363277 154 152 153
-0.04989471 0.27018810 0.89479965 156 156 156
-0.04995447 0.28986679 0.89587098 158 158 158
-0.05001272 0.30958296 0.89691538 152 151 151
-0.05006934 0.33010922 0.89793069 151 150 150
-0.05011636 0.34983682 0.89877354 150 149 149
-0.05015587 0.36954577 0.89948144 146 145 145
-0.05017849 0.38582475 0.89988594 24 24 25
-0.05019003 0.39597267 0.90009235 0 0 0
-0.05021050 0.41041339 0.90045999 0 0 0
-0.05024400 0.43015479 0.90106078 0 0 0
-0.05028315 0.44997320 0.90176286 0 0 0
-0.05032708 0.46986596 0.90255068 0 0 0
-0.05037343 0.48981673 0.90338180 0 0 0
-0.05041276 0.50738733 0.90408716 0 0 0
-0.02791031 -0.52290541 0.77883370 0 0 0
-0.03734339 -0.52431009 0.78047210 0 0 0
-0.02984542 -0.50990452 0.77679994 0 0 0
-0.03945707 -0.51955705 0.78015870 0 0 0
-0.02974328 -0.49004757 0.77287883 0 0 0
-0.02955036 -0.46977248 0.76804816 0 0 0
-0.02970416 -0.44982280 0.76367900 0 0 0
-0.02913190 -0.42790829 0.75776199 0 0 0
-0.03359631 -0.43660696 0.76081945 0 0 0
-0.03027436 -0.41002545 0.75196118 0 0 0
-0.02992810 -0.38821926 0.74406898 122 123 122
-0.02985002 -0.37256274 0.75340395 154 154 153
-0.03097059 -0.36271782 0.76258985 152 150 150
-0.02940821 -0.35191671 0.77269071 152 151 150
-0.03165103 -0.34180815 0.78158026 150 148 146
-0.02991249 -0.33017457 0.79053659 156 154 155
-0.02908914 -0.31835021 0.79906533 165 164 165
-0.03058128 -0.30855270 0.80529214 168 167 168
-0.02984637 -0.29009036 0.81501970 167 166 167
-0.02941853 -0.27956511 0.81978978 168 167 167
-0.02955818 -0.26948962 0.82368755 169 168 169
-0.02979948 -0.25016406 0.83041877 169 169 171
-0.03000168 -0.23019826 0.83608894 162 161 163
-0.03126321 -0.21630984 0.83924611 155 154 156
-0.02930988 -0.20666290 0.84122139 160 159 161
-0.03042321 -0.18986890 0.84396218 161 159 161
-0.03035137 -0.16962249 0.84724513 165 152 157
-0.03032557 -0.14985840 0.84844537 155 109 128
-0.03912508 -0.12310091 0.83914661 151 130 143
-0.02995286 -0.13019539 0.84607310 153 95 118
-0.03580228 -0.10815319 0.83711053 152 150 159
-0.02666883 -0.11114628 0.84402380 152 109 129
-0.03200548 -0.08912720 0.83434033 154 153 162
-0.02290066 -0.09320011 0.84197173 153 150 159
-0.02989798 -0.06992108 0.83054181 153 149 160
-0.03873548 -0.04657774 0.81863532 154 152 158
-0.02882079 -0.05010431 0.82686218 155 154 162
-0.03808610 -0.03516375 0.81723123 154 148 155
-0.03010217 -0.03598408 0.82715066 166 152 164
-0.02878641 -0.03413369 0.85000795 189 153 170
-0.02893746 -0.02668586 0.87298456 180 159 170
-0.02991808 -0.00953774 0.87592644 160 157 160
-0.02998112 0.01016533 0.87777356 165 163 166
-0.02982512 0.02952170 0.87934328 161 159 162
-0.03462204 0.03908904 0.88004762 138 130 132
-0.03002570 0.04972416 0.88067779 151 148 149
-0.02935951 0.06965858 0.88188929 150 147 149
-0.02940347 0.08960920 0.88321607 153 149 151
-0.02945373 0.10964210 0.88472782 162 161 162
-0.02950399 0.12974184 0.88623536 161 158 160
-0.02954738 0.14987465 0.88753703 152 151 154
-0.02958964 0.17005992 0.88880571 154 153 154
-0.02963261 0.19030706 0.89009767 156 155 158
-0.02967497 0.21060746 0.89136945 156 155 157
-0.02971416 0.23016932 0.89254796 155 153 154
-0.02975337 0.24978289 0.89372726 150 149 149
-0.02979225 0.27021723 0.89489610 159 158 158
-0.02982782 0.28989683 0.89596389 153 151 150
-0.02986222 0.30961099 0.89699660 155 154 155
-0.02989558 0.33013374 0.89799747 152 152 152
-0.02992341 0.34985982 0.89883263 159 158 157
-0.02994686 0.36956884 0.89953758 144 143 145
-0.03015129 0.38516661 0.89990173 4 4 4
-0.02975162 0.39533100 0.90009629 0 0 0
-0.02997831 0.41042295 0.90048091 0 0 0
-0.02999839 0.43016592 0.90108413 0 0 0
-0.03002143 0.44997941 0.90177531 0 0 0
-0.03004769 0.46987294 0.90256409 0 0 0
-0.03007511 0.48981978 0.90338745 0 0 0
-0.03009829 0.50738498 0.90408299 0 0 0
-0.01082262 -0.52224658 0.77627284 0 0 0
-0.00962765 -0.51004147 0.77414872 0 0 0
-0.00967284 -0.48999765 0.77028078 0 0 0
-0.00958584 -0.46982717 0.76553855 0 0 0
-0.00666971 -0.44325473 0.75917443 0 0 0
-0.01058356 -0.45235870 0.76184673 0 0 0
-0.00981797 -0.42987054 0.75582351 0 0 0
-0.01016555 -0.40997670 0.74908296 0 0 0
-0.00752170 -0.38735582 0.73839291 150 154 154
-0.01209130 -0.38866638 0.74225828 90 92 92
-0.00963488 -0.37105496 0.75112310 156 156 157
-0.01222580 -0.36125159 0.76124795 155 155 153
-0.00945399 -0.35055726 0.77119627 154 153 153
-0.01406734 -0.34055942 0.78043455 147 145 144
-0.00102576 -0.33995460 0.77956301 149 148 144
-0.00996103 -0.33004795 0.78840952 154 153 153
-0.00928004 -0.31767274 0.79811138 168 167 167
-0.01027561 -0.30785053 0.80459962 165 165 166
-0.00964440 -0.29033354 0.81395071 165 165 167
-0.00882300 -0.27852686 0.81942565 164 164 166
-0.00974528 -0.26855617 0.82344312 167 167 169
-0.00970123 -0.25005763 0.83006638 167 167 169
-0.00977070 -0.23018113 0.83603103 159 157 159
-0.00988096 -0.21755422 0.83941374 161 161 164
-0.00981446 -0.20731885 0.84181275 155 155 158
-0.00987797 -0.18966225 0.84540914 160 160 162
-0.00991447 -0.16985447 0.84864667 155 154 159
-0.00994954 -0.14983979 0.85161265 161 152 156
-0.00980497 -0.12994471 0.85463024 165 130 146
-0.01007943 -0.10994513 0.85353723 156 97 120
-0.00986071 -0.08999753 0.84984141 154 110 130
-0.01744854 -0.06664238 0.83835026 156 154 165
-0.00819518 -0.07062261 0.84597886 151 141 155
-0.01529638 -0.05046448 0.83659953 158 156 166
-0.00607414 -0.05104955 0.84545618 165 154 168
-0.00513679 -0.04259460 0.86956815 202 152 174
-0.01918840 -0.03950466 0.83715379 174 155 167
-0.01801759 -0.03937377 0.85006046 189 155 173
-0.00962856 -0.02996278 0.87340123 164 139 151
-0.00947783 -0.00953579 0.87577246 159 155 158
-0.00949844 0.01016404 0.87766809 165 163 167
-0.00951534 0.02993723 0.87922796 155 152 154
-0.00724170 0.04060620 0.87996226 164 162 161
-0.00967377 0.05034558 0.88062062 152 150 151
-0.00954365 0.06965722 0.88187002 149 143 143
-0.00955892 0.08961761 0.88329775 158 154 155
-0.00957544 0.10965457 0.88482840 161 157 158
-0.00959120 0.12974548 0.88626123 150 149 151
-0.00960513 0.14987703 0.88755094 146 143 144
-0.00961890 0.17006459 0.88882984 151 150 152
-0.00963313 0.19031847 0.89015093 157 153 154
-0.00984526 0.21027357 0.89139716 153 150 149
-0.00945969 0.22980926 0.89259115 156 154 153
-0.00967272 0.24980582 0.89380924 159 159 160
-0.00968536 0.27024211 0.89497853 150 148 147
-0.00969687 0.28992081 0.89603810 150 149 149
-0.00970796 0.30963318 0.89706093 157 156 156
-0.00971869 0.33015425 0.89805329 152 151 151
-0.00972774 0.34988250 0.89889092 150 150 151
-0.00973532 0.36958952 0.89958795 139 138 137
-0.01051672 0.38386705 0.89992431 0 0 0
-0.00924262 0.39392880 0.90011861 0 0 0
-0.00974544 0.41044354 0.90052604 0 0 0
-0.00975193 0.43018502 0.90112420 0 0 0
-0.00975925 0.44999029 0.90179717 0 0 0
-0.00976775 0.46988150 0.90258055 0 0 0
-0.00977658 0.48982352 0.90339439 0 0 0
-0.00978401 0.50738195 0.90407762 0 0 0
0.00871108 -0.52123286 0.77333792 0 0 0
0.01035349 -0.51027168 0.77147510 0 0 0
0.01027498 -0.49012385 0.76762856 0 0 0
0.01804398 -0.46095021 0.75986534 0 0 0
0.01012436 -0.47007747 0.76303792 0 0 0
0.01133294 -0.44855349 0.75801804 0 0 0
0.00491485 -0.45683410 0.76073363 0 0 0
0.01006842 -0.43000765 0.75319192 0 0 0
0.00991032 -0.41020202 0.74629266 0 0 0
0.01052466 -0.38637776 0.73487768 131 132 133
0.00766886 -0.39774802 0.74126501 5 5 5
0.01390104 -0.37808932 0.73821060 161 162 163
0.00951013 -0.36877055 0.74897955 163 163 163
0.00097059 -0.36038539 0.76013231 147 146 146
0.01470776 -0.35888437 0.75862807 159 160 160
0.01007605 -0.34961280 0.76955214 153 153 153
0.01189267 -0.33886694 0.77909651 155 155 153
0.00989879 -0.32910355 0.78713207 147 145 145
0.01042597 -0.31633547 0.79735251 174 174 174
0.00984921 -0.30644158 0.80399805 162 161 161
0.01016919 -0.28986351 0.81297689 163 162 163
0.01109167 -0.27733023 0.81893628 163 162 163
0.01004779 -0.26746741 0.82317507 166 166 167
0.01037846 -0.24991640 0.82959839 165 164 167
0.01045489 -0.23008087 0.83566707 150 149 154
0.01106441 -0.21689405 0.83924572 158 158 160
0.01008637 -0.20679275 0.84173210 160 158 159
0.00984898 -0.18970957 0.84562589 158 156 159
0.00989669 -0.17004722 0.84961746 160 159 162
0.00993737 -0.15008220 0.85298749 155 153 156
0.00997490 -0.12993426 0.85623155 163 159 163
0.00969001 -0.11271332 0.85896550 168 144 153
0.01100048 -0.10416384 0.86065671 174 144 158
0.00453887 -0.08883347 0.85796417 157 96 120
0.01405091 -0.09061676 0.86190971 166 110 132
0.00726998 -0.06944670 0.85615712 160 107 128
0.01676137 -0.07154866 0.86127122 161 99 121
0.00656238 -0.05525051 0.85365157 163 142 159
0.01192064 -0.04787155 0.87115960 183 135 158
0.01017718 -0.02990232 0.87379026 153 140 146
0.01020031 -0.00953573 0.87576484 167 165 167
0.01022089 0.01016235 0.87754372 159 156 160
0.01023896 0.02993286 0.87909400 161 161 163
0.01185909 0.04096192 0.87991554 163 162 163
0.01007658 0.05075135 0.88060106 152 147 149
0.01027224 0.06966162 0.88192201 156 153 155
0.01029019 0.08963330 0.88345207 161 158 159
0.01030754 0.10966867 0.88494378 160 158 160
0.01032303 0.12974891 0.88628514 155 151 152
0.01033799 0.14988080 0.88757295 152 150 152
0.01035335 0.17007578 0.88888799 159 158 160
0.01036877 0.19033156 0.89021223 158 155 157
0.01038295 0.20985104 0.89142993 152 149 150
0.01039705 0.22942157 0.89263820 161 158 158
0.01041158 0.24982684 0.89388445 150 148 149
0.01042521 0.27026513 0.89505475 149 148 149
0.01043734 0.28994071 0.89609972 156 153 153
0.01044902 0.30964874 0.89710609 153 153 153
0.01046048 0.33016837 0.89809166 149 148 147
0.01047020 0.34989723 0.89892873 157 156 156
0.01047836 0.36960556 0.89962705 127 126 127
0.00975618 0.38259398 0.89994557 0 0 0
0.01074807 0.39272180 0.90015860 0 0 0
0.01048968 0.41047352 0.90059181 0 0 0
0.01049647 0.43021030 0.90117721 0 0 0
0.01050398 0.45000464 0.90182602 0 0 0
0.01051288 0.46988829 0.90259363 0 0 0
0.01052219 0.48982372 0.90339481 0 0 0
0.01052997 0.50737419 0.90406380 0 0 0
0.02231185 -0.52025726 0.77120237 0 0 0
0.03013163 -0.50999385 0.76852317 0 0 0
0.03007261 -0.49004801 0.76481727 0 0 0
0.03204191 -0.46495084 0.75877698 0 0 0
0.02826951 -0.47381113 0.76152708 0 0 0
0.02988134 -0.45005469 0.75566274 0 0 0
0.03009088 -0.43004982 0.75007538 0 0 0
0.03358732 -0.40248212 0.73889983 0 0 0
0.02908690 -0.41163679 0.74371575 0 0 0
0.02990910 -0.38789413 0.73027581 106 108 107
0.03106876 -0.37533503 0.73466622 165 167 168
0.02912712 -0.36564705 0.74668750 165 168 169
0.03093039 -0.35714552 0.75650865 162 163 165
0.02978479 -0.34741506 0.76859575 159 159 159
0.03163324 -0.33790284 0.77815316 151 150 152
0.02958783 -0.32805470 0.78640258 155 153 153
0.03030997 -0.31511799 0.79636168 160 159 160
0.02945011 -0.30505397 0.80317856 156 156 157
0.02985521 -0.29023666 0.81133895 153 153 154
0.03069136 -0.27628560 0.81811178 155 155 157
0.02963008 -0.26621875 0.82264184 162 162 164
0.03058166 -0.25002464 0.82873651 159 159 161
0.03023639 -0.23013524 0.83516277 162 162 164
0.03045473 -0.21627459 0.83907329 166 166 168
0.02972934 -0.20595949 0.84166107 165 164 165
0.02957366 -0.18966576 0.84543218 160 157 159
0.02972453 -0.17007125 0.84974198 150 149 153
0.02986431 -0.15020910 0.85371606 162 161 163
0.02999022 -0.13009364 0.85728340 165 162 164
0.02800715 -0.11490422 0.85935736 158 153 156
0.03172343 -0.10566644 0.86082240 159 153 156
0.03019671 -0.08996471 0.86322011 174 155 162
0.02968252 -0.07016844 0.86632102 177 128 148
0.02977362 -0.05023107 0.87268811 166 118 138
0.02980350 -0.02989453 0.87358219 159 152 154
0.02987455 -0.00953463 0.87566231 165 163 164
0.02993482 0.01016101 0.87742708 160 157 160
0.02998917 0.02993027 0.87901611 160 156 157
0.03001930 0.04136370 0.87989800 163 159 159
0.03004490 0.05129464 0.88064654 156 154 158
0.03009191 0.06966950 0.88202033 161 160 162
0.03014521 0.08964658 0.88358312 166 164 165
0.03019401 0.10967770 0.88501794 161 158 160
0.03023869 0.12975514 0.88632762 150 149 151
0.03028312 0.14988991 0.88762654 151 148 150
0.03032899 0.17009137 0.88896957 154 151 153
0.03037387 0.19034724 0.89028556 156 155 157
0.03041578 0.20987075 0.89151345 154 153 154
0.03045705 0.22944348 0.89272358 156 154 155
0.03049928 0.24984850 0.89396206 157 156 156
0.03053907 0.27028752 0.89512902 156 153 152
0.03057403 0.28995831 0.89615418 153 152 153
0.03060777 0.30966174 0.89714387 146 146 147
0.03064096 0.33017786 0.89811748 148 147 148
0.03048634 0.34976658 0.89894531 152 151 151
0.02991571 0.36961444 0.89964869 125 125 126
0.02958390 0.38150177 0.89996217 0 0 0
0.02999897 0.39167729 0.90018767 0 0 0
0.02994929 0.41050294 0.90065634 0 0 0
0.02996849 0.43023742 0.90123407 0 0 0
0.02998934 0.45002254 0.90186198 0 0 0
0.03001408 0.46989526 0.90260708 0 0 0
0.03004027 0.48982386 0.90339512 0 0 0
0.03006231 0.50737104 0.90405821 0 0 0
0.04963657 -0.50891939 0.76507227 0 0 0
0.05616535 -0.48328612 0.75919037 0 0 0
0.04870974 -0.49110169 0.76200239 0 0 0
0.05044299 -0.46950026 0.75693896 0 0 0
0.04266908 -0.47807950 0.76039668 0 0 0
0.04987890 -0.45008766 0.75230012 0 0 0
0.05015549 -0.42977264 0.74631676 0 0 0
0.05145246 -0.40642992 0.73739643 0 0 0
0.04835514 -0.41554288 0.74188656 0 0 0
0.05354643 -0.38220617 0.71725431 151 154 155
0.04808735 -0.39067995 0.72767442 71 71 72
0.05666106 -0.37877130 0.71824370 133 133 137
0.05036584 -0.37211684 0.73047103 158 159 160
0.04865079 -0.36292592 0.74398374 163 165 166
0.05067619 -0.35537399 0.75386572 161 160 160
0.04945501 -0.34548625 0.76651876 162 163 164
0.05072617 -0.33668174 0.77662225 161 161 161
0.04955444 -0.32663897 0.78557980 153 152 152
0.05046779 -0.31358022 0.79545335 158 157 156
0.04967982 -0.30363742 0.80223188 153 151 152
0.04986376 -0.29027958 0.80981379 158 157 158
0.05023718 -0.27460717 0.81753342 163 162 162
0.04950618 -0.26481938 0.82192686 156 153 155
0.05040439 -0.25002518 0.82759574 160 159 161
0.04975793 -0.22964989 0.83446239 159 158 161
0.05022674 -0.21493076 0.83873993 162 162 163
0.04897216 -0.20534876 0.84128670 161 161 164
0.05011908 -0.19014026 0.84495984 160 159 161
0.05027442 -0.17003039 0.84953973 158 156 157
0.04989467 -0.15030085 0.85369262 158 156 159
0.05001413 -0.13014923 0.85765698 164 162 164
0.04955206 -0.11842645 0.85974572 172 170 171
0.05033042 -0.10826304 0.86125485 167 166 167
0.05038319 -0.09004414 0.86397283 167 164 166
0.04994083 -0.07007891 0.86759478 167 156 160
0.05004355 -0.05013993 0.87113993 152 142 146
0.04995919 -0.03003800 0.87318353 158 153 155
0.04953570 -0.00953169 0.87541242 164 160 161
0.04964138 0.01015944 0.87727470 161 158 160
0.04973734 0.02992870 0.87896639 158 157 159
0.04978940 0.04136310 0.87988526 162 161 163
0.04983393 0.05129617 0.88067120 162 159 161
0.04991401 0.06967469 0.88208532 162 160 160
0.05000195 0.08965232 0.88363996 163 160 163
0.05007989 0.10967766 0.88501834 154 152 155
0.05015402 0.12975531 0.88632804 152 151 152
0.05023054 0.14989878 0.88767874 157 157 159
0.05030738 0.17010419 0.88903660 163 161 161
0.05038188 0.19036169 0.89035305 158 156 157
0.05045187 0.20988871 0.89158966 160 158 159
0.05051975 0.22946044 0.89278963 154 154 155
0.05058898 0.24986281 0.89401332 151 149 150
0.05065453 0.27030054 0.89517222 156 154 155
0.05027493 0.28978523 0.89618154 153 153 154
0.04999260 0.30967296 0.89717639 152 151 151
0.05004623 0.33018587 0.89813932 152 152 152
0.04988655 0.35005735 0.89897347 153 152 152
0.04935372 0.36962101 0.89966465 113 113 114
0.04772370 0.38100223 0.89997528 0 0 0
0.04956795 0.39107550 0.90021124 0 0 0
0.04920845 0.41011722 0.90069578 0 0 0
0.04964260 0.42982088 0.90127226 0 0 0
0.04947634 0.45004106 0.90189917 0 0 0
0.04951610 0.46990440 0.90262468 0 0 0
0.04955863 0.48982672 0.90340042 0 0 0
0.04959522 0.50737617 0.90406733 0 0 0
0.07648185 -0.50542657 0.75923949 0 0 0
0.06685100 -0.50821588 0.76168784 0 0 0
0.07070821 -0.48933583 0.75749970 0 0 0
0.06269198 -0.49698586 0.76055294 0 0 0
0.07006770 -0.46986725 0.75331909 0 0 0
0.07017577 -0.45001902 0.74824142 0 0 0
0.07475812 -0.42333980 0.73852928 0 0 0
0.06857205 -0.43179976 0.74308171 0 0 0
0.07020027 -0.40993215 0.73445382 0 0 0
0.06235346 -0.41915812 0.74018141 0 0 0
0.07016111 -0.38322824 0.71339749 150 153 153
0.06983932 -0.39571230 0.72729317 6 6 6
0.07131742 -0.37591495 0.71551017 155 158 158
0.06968861 -0.36669287 0.72934171 157 158 160
0.06405082 -0.36085312 0.74156138 164 165 166
0.07741075 -0.35942157 0.73890807 163 163 163
0.07042155 -0.35368184 0.75066524 163 163 164
0.06900268 -0.34391241 0.76466799 161 160 161
0.07049565 -0.33555729 0.77493665 157 156 156
0.06990388 -0.32548241 0.78440315 160 159 159
0.07014306 -0.31210958 0.79458510 154 153 155
0.06870181 -0.30214920 0.80143141 161 160 160
0.07015592 -0.28976028 0.80847645 159 158 158
0.07018790 -0.27290855 0.81686015 161 159 160
0.06908030 -0.26301830 0.82128558 164 164 165
0.07016034 -0.24998791 0.82632722 163 161 162
0.06987591 -0.22981960 0.83337866 154 152 154
0.07031776 -0.21344009 0.83830781 156 155 157
0.06936659 -0.20404870 0.84093486 157 156 158
0.07022001 -0.19032416 0.84442931 160 159 161
0.07007498 -0.16997668 0.84927268 162 160 162
0.06978776 -0.15008577 0.85353499 162 160 161
0.07001022 -0.13012066 0.85746929 163 162 165
0.07132378 -0.11794871 0.85966438 167 163 165
0.06972268 -0.10801629 0.86127032 166 163 164
0.06980947 -0.09006204 0.86414994 166 164 166
0.07006724 -0.07015557 0.86734071 167 165 167
0.07030262 -0.05008803 0.87026447 154 150 151
0.07027064 -0.02970127 0.87268371 161 156 156
0.06993330 -0.00952728 0.87505136 168 164 165
0.06998542 0.01006465 0.87707013 164 160 162
0.06948114 0.02992628 0.87888994 167 164 167
0.06955791 0.04136191 0.87985978 161 158 161
0.06962217 0.05129628 0.88067189 160 158 160
0.06973677 0.06967755 0.88212135 162 159 160
0.06985613 0.08965138 0.88363207 161 159 160
0.06996312 0.10967366 0.88498564 155 153 155
0.07006989 0.12975643 0.88633512 157 156 158
0.07018016 0.14990734 0.88772925 155 153 155
0.07028764 0.17011415 0.88908871 160 157 157
0.07039208 0.19037387 0.89040990 164 162 162
0.07049010 0.20990284 0.89164987 163 161 161
0.07058413 0.22947323 0.89283940 159 158 159
0.07062444 0.24981722 0.89404788 153 152 153
0.06999655 0.27030690 0.89519327 156 154 153
0.06961052 0.29016144 0.89622715 154 153 152
0.06937802 0.30968076 0.89719908 150 146 145
0.06945198 0.33019186 0.89815561 154 154 155
0.06951717 0.34992434 0.89899835 153 153 152
0.06957072 0.36963173 0.89969079 108 108 108
0.06648277 0.38064279 0.89999083 0 0 0
0.06978693 0.39060306 0.90022398 0 0 0
0.06964971 0.40974997 0.90071249 0 0 0
0.06969512 0.42948989 0.90129948 0 0 0
0.06974412 0.45005799 0.90193315 0 0 0
0.06979914 0.46991488 0.90264486 0 0 0
0.06985833 0.48983224 0.90341061 0 0 0
0.06990995 0.50738219 0.90407805 0 0 0
0.08982248 -0.50573340 0.75638422 0 0 0
0.09017957 -0.48996580 0.75343272 0 0 0
0.08974759 -0.47015335 0.74923309 0 0 0
0.09810104 -0.44197473 0.73962304 0 0 0
0.09000439 -0.45033803 0.74384568 0 0 0
0.09108350 -0.42867756 0.73649233 0 0 0
0.08454795 -0.43682872 0.74113466 0 0 0
0.08995434 -0.40986722 0.72919984 0 0 0
0.09029942 -0.38548472 0.71058431 123 126 126
0.08938055 -0.39677201 0.72326330 0 0 0
0.09074148 -0.37273960 0.71124987 156 157 158
0.08896032 -0.36344192 0.72653806 160 162 163
0.09163430 -0.35811672 0.73623003 160 160 160
0.08996339 -0.35033930 0.74991799 166 167 168
0.08886037 -0.34198680 0.76269812 161 161 163
0.09034991 -0.33394716 0.77287671 156 156 158
0.08941169 -0.32392584 0.78335150 155 155 156
0.09026862 -0.31099901 0.79334723 156 156 158
0.08803014 -0.30102993 0.80046498 153 153 153
0.08991804 -0.29052425 0.80644700 161 160 161
0.09033475 -0.27135728 0.81599883 152 151 153
0.08664387 -0.26132756 0.82067187 160 161 162
0.09028833 -0.25012156 0.82484726 156 154 156
0.08969977 -0.23032975 0.83203980 162 161 163
0.09058061 -0.21243460 0.83771748 166 165 166
0.08937049 -0.20259179 0.84060453 155 154 155
0.08995108 -0.18998612 0.84391405 157 155 157
0.08984800 -0.16989447 0.84886289 159 158 160
0.09015199 -0.15023411 0.85314350 162 162 164
0.08997833 -0.13006326 0.85708967 158 156 159
0.09070676 -0.11679723 0.85947666 166 162 164
0.08980935 -0.10653051 0.86121645 164 160 163
0.08994533 -0.09003476 0.86388766 164 162 163
0.08995726 -0.07031478 0.86696152 163 162 165
0.08979466 -0.05005320 0.86966189 154 148 151
0.09004261 -0.02984253 0.87206350 158 152 153
0.09030681 -0.00952167 0.87462065 170 167 168
0.09041794 0.01025317 0.87689427 164 162 163
0.08998210 0.02992416 0.87882306 163 159 161
0.09008536 0.04136055 0.87983102 165 164 166
0.08948359 0.05124309 0.88066501 161 158 161
0.08955576 0.06967621 0.88210471 156 153 155
0.08970594 0.08964649 0.88358416 159 157 158
0.08984534 0.10967019 0.88495679 156 151 152
0.08998590 0.12975730 0.88634074 152 147 149
0.09012901 0.14991092 0.88775020 158 154 155
0.09026786 0.17011967 0.88911767 156 155 157
0.09040043 0.19037680 0.89042366 157 154 156
0.09052617 0.20990572 0.89166210 156 153 154
0.09064751 0.22947784 0.89285730 158 157 158
0.09006100 0.24982999 0.89406964 154 152 153
0.08933852 0.27031031 0.89520463 155 152 152
0.08944038 0.28998131 0.89622530 149 148 151
0.08953766 0.30968112 0.89720017 152 151 150
0.08963227 0.33018931 0.89814869 152 152 151
0.08971746 0.34992589 0.89900226 156 156 157
0.08978781 0.36963828 0.89970668 103 103 106
0.08983807 0.39007220 0.90021068 0 0 0
0.08988808 0.40974959 0.90071159 0 0 0
0.08994851 0.42949819 0.90131682 0 0 0
0.09001251 0.45007030 0.90195782 0 0 0
0.09008299 0.46992489 0.90266412 0 0 0
0.09015845 0.48983751 0.90342035 0 0 0
0.09022483 0.50738639 0.90408553 0 0 0
0.10956514 -0.50384134 0.75140364 0 0 0
0.11030463 -0.48987662 0.74869345 0 0 0
0.11986577 -0.46072591 0.73982149 0 0 0
0.10976910 -0.47008627 0.74460426 0 0 0
0.11205756 -0.44759139 0.73788161 0 0 0
0.10610853 -0.45488947 0.74133980 0 0 0
0.11002583 -0.43013492 0.73255072 0 0 0
0.11541130 -0.40219688 0.71885901 0 0 0
0.10932614 -0.41104327 0.72464551 0 0 0
0.11168481 -0.38136496 0.69740691 152 155 155
0.10990391 -0.39271384 0.71270860 37 38 39
0.10251519 -0.39857563 0.72059220 0 0 0
0.11312868 -0.37576613 0.69625142 154 156 157
0.10943755 -0.36870749 0.70926043 154 155 155
0.10838268 -0.36158088 0.72340360 157 158 159
0.11060096 -0.35670580 0.73308040 161 162 163
0.11004705 -0.34719294 0.75007313 166 167 168
0.10452626 -0.34075977 0.76115513 164 164 166
0.11030009 -0.33241345 0.77074707 161 161 162
0.10882983 -0.32223305 0.78209460 154 154 156
0.10998705 -0.31012905 0.79195848 153 153 155
0.11626987 -0.29907747 0.79935604 166 165 165
0.10983067 -0.28946205 0.80554524 160 159 161
0.11003958 -0.27005511 0.81512071 153 152 153
0.11389968 -0.25928393 0.81958091 142 141 145
0.10969401 -0.24959241 0.82371295 158 158 158
0.10991497 -0.23021468 0.83087367 162 161 163
0.11049225 -0.21109494 0.83717933 162 161 164
0.10719117 -0.20125083 0.84027958 167 165 165
0.10975414 -0.18981958 0.84328872 163 160 163
0.11016976 -0.16991145 0.84832154 159 156 157
0.10999348 -0.14991206 0.85277894 162 161 163
0.10992426 -0.13000072 0.85667760 159 157 160
0.11096243 -0.11547563 0.85925347 145 143 147
0.10926363 -0.10546548 0.86096838 157 154 157
0.11004713 -0.08998924 0.86344978 159 158 160
0.11009701 -0.06989461 0.86647080 160 158 160
0.11002332 -0.05002408 0.86915753 147 146 149
0.10974344 -0.02995913 0.87154559 152 150 152
0.10988723 -0.00951519 0.87405086 159 156 158
0.11022711 0.01015461 0.87674723 161 159 161
0.11048913 0.02992434 0.87882923 164 163 165
0.11121281 0.04152362 0.87983318 165 163 163
0.10990166 0.05144624 0.88065159 164 162 165
0.10961766 0.06951427 0.88206319 163 160 162
0.10955375 0.08964170 0.88353702 158 155 157
0.10972671 0.10966709 0.88493149 149 146 148
0.10990101 0.12975672 0.88633678 156 155 157
0.11007524 0.14990955 0.88774211 158 157 159
0.11024599 0.17012000 0.88911928 158 157 159
0.11040855 0.19037814 0.89043000 154 151 152
0.11056199 0.20990700 0.89166755 161 159 159
0.11048356 0.22930665 0.89284642 152 151 152
0.10942601 0.24998154 0.89407415 154 153 154
0.10945232 0.27030800 0.89519699 149 148 149
0.10957679 0.28997804 0.89621522 149 147 149
0.10969514 0.30967522 0.89718312 154 154 154
0.10980911 0.33017711 0.89811559 152 152 152
0.10991250 0.34990996 0.89896136 152 151 152
0.10999910 0.36962318 0.89966984 99 99 101
0.11149551 0.38093023 0.89998082 0 0 0
0.10991129 0.39101261 0.90019866 0 0 0
0.11012360 0.40973874 0.90068771 0 0 0
0.11020003 0.42949614 0.90131243 0 0 0
0.11028076 0.45007757 0.90197236 0 0 0
0.11036740 0.46993362 0.90268090 0 0 0
0.11045962 0.48984552 0.90343512 0 0 0
0.11054127 0.50739617 0.90410294 0 0 0
0.12878058 -0.50215482 0.74628085 0 0 0
0.13861772 -0.48160287 0.73980786 0 0 0
0.13005216 -0.49023011 0.74395206 0 0 0
0.13305290 -0.46745690 0.73822208 0 0 0
0.12559472 -0.47366508 0.74157980 0 0 0
0.13006958 -0.44974734 0.73410087 0 0 0
0.13005679 -0.43010254 0.72792032 0 0 0
0.13107271 -0.40628034 0.71710510 0 0 0
0.12828527 -0.41557005 0.72218778 0 0 0
0.13059780 -0.38378041 0.69463875 141 144 146
0.12959088 -0.39531997 0.71048178 9 9 9
0.13908861 -0.37481387 0.67914927 154 155 153
0.13067972 -0.37244518 0.69126864 152 153 154
0.12966646 -0.36448299 0.70969786 157 157 158
0.12614102 -0.36043549 0.72108433 164 165 167
0.13838769 -0.35990919 0.71976793 160 160 162
0.13023946 -0.35572438 0.73084433 161 163 164
0.12978963 -0.34577828 0.74899317 164 165 167
0.13268007 -0.33909857 0.75875600 169 170 172
0.12995648 -0.33013193 0.77041634 163 164 166
0.12769861 -0.32064530 0.78072333 167 166 167
0.12998917 -0.31024485 0.78944381 158 157 158
0.13079689 -0.29823504 0.79877582 152 151 152
0.12966370 -0.28839341 0.80466993 155 154 155
0.13013750 -0.27012865 0.81358890 155 154 157
0.13138551 -0.25737658 0.81903301 153 153 155
0.12951240 -0.24757397 0.82308781 156 154 156
0.12993667 -0.22989107 0.82973156 158 157 159
0.13013101 -0.21014498 0.83647652 160 159 162
0.13424300 -0.19892485 0.83975935 159 158 164
0.12969560 -0.18918791 0.84272167 161 160 163
0.13003353 -0.16968318 0.84781107 163 162 165
0.12998728 -0.14996036 0.85230630 160 158 161
0.13001289 -0.13006403 0.85622496 158 156 158
0.13064369 -0.11405040 0.85901646 157 155 157
0.12923305 -0.10400032 0.86074152 157 152 153
0.13007376 -0.08999238 0.86300486 155 151 152
0.12982357 -0.07004412 0.86595243 162 160 163
0.13024183 -0.04999925 0.86874097 163 161 162
0.13002188 -0.02968769 0.87128164 141 134 137
0.12987398 -0.00969013 0.87355705 159 156 159
0.12991102 0.01015416 0.87663753 168 164 166
0.13022850 0.02992256 0.87878095 163 161 164
0.13038150 0.04212015 0.87981325 159 156 157
0.13050139 0.05205405 0.88062229 160 158 161
0.13017114 0.06982484 0.88203539 155 151 152
0.12952411 0.08953853 0.88348797 148 146 149
0.12960769 0.10966466 0.88491146 157 155 156
0.12981628 0.12975654 0.88633541 156 154 156
0.13002027 0.14990714 0.88772819 157 154 155
0.13022239 0.17011789 0.88910812 157 155 157
0.13041472 0.19037631 0.89042147 159 154 153
0.13059509 0.20990358 0.89165302 158 156 157
0.13005778 0.22945451 0.89283922 158 157 157
0.12940042 0.24987216 0.89404682 154 151 152
0.12956481 0.27030367 0.89518261 150 148 149
0.12971092 0.28997057 0.89619221 154 153 154
0.12985040 0.30966583 0.89715599 156 156 156
0.12998222 0.33015916 0.89806689 149 149 149
0.13010137 0.34988235 0.89889047 155 157 159
0.13020263 0.36959047 0.89959027 98 97 99
0.13177206 0.38260927 0.89993613 0 0 0
0.12976725 0.39255863 0.90016473 0 0 0
0.13052696 0.41027687 0.90065699 0 0 0
0.13027622 0.43001995 0.90130843 0 0 0
0.13054814 0.45007957 0.90197632 0 0 0
0.13014500 0.46976841 0.90268749 0 0 0
0.12998134 0.48985600 0.90345442 0 0 0
0.13007887 0.50741259 0.90413217 0 0 0
0.14531040 -0.50085342 0.74243911 0 0 0
0.15228824 -0.48768606 0.73820551 0 0 0
0.14542573 -0.49434526 0.74119986 0 0 0
0.15001503 -0.47022775 0.73471291 0 0 0
0.15004412 -0.45015257 0.72918735 0 0 0
0.15554885 -0.42307255 0.71868082 0 0 0
0.14902204 -0.43158196 0.72361733 0 0 0
0.15023064 -0.40990405 0.71382855 0 0 0
0.14212735 -0.41877006 0.72043898 0 0 0
0.15801664 -0.38032940 0.67851782 176 176 174
0.15059817 -0.38649401 0.69164196 95 97 95
0.14911561 -0.39657991 0.70611778 0 0 0
0.15189554 -0.37242115 0.67447995 158 161 161
0.14966398 -0.36799746 0.68947791 156 157 157
0.14924684 -0.36251243 0.70817510 162 163 164
0.15267955 -0.35926115 0.71787114 153 153 156
0.14996716 -0.35450681 0.73030676 163 164 165
0.14974494 -0.34501567 0.74787191 167 167 169
0.15125978 -0.33835046 0.75772649 169 170 171
0.14983025 -0.32871974 0.76975160 166 168 170
0.15165496 -0.31946782 0.77943878 158 160 161
0.14979972 -0.30951187 0.78797407 162 162 164
0.15037707 -0.29713938 0.79813484 153 151 152
0.14984724 -0.28737024 0.80398130 149 148 150
0.14988424 -0.27004430 0.81226190 154 153 155
0.15114032 -0.25572428 0.81829823 151 151 154
0.14926617 -0.24618485 0.82226313 153 152 154
0.15005941 -0.23007846 0.82840169 158 157 158
0.15004837 -0.20981900 0.83551402 159 158 161
0.15106594 -0.19767087 0.83935953 160 160 163
0.14968851 -0.18807711 0.84224223 164 163 166
0.15001212 -0.16986272 0.84712924 164 163 166
0.15010795 -0.15005286 0.85176543 165 164 167
0.14990890 -0.12974998 0.85585777 153 150 155
0.15032712 -0.11305020 0.85880281 162 161 164
0.14934649 -0.10283364 0.86057643 165 165 167
0.15014537 -0.08985557 0.86267208 161 160 162
0.14996765 -0.07001510 0.86559457 163 161 163
0.14983267 -0.05007812 0.86843833 165 163 165
0.15016277 -0.02980895 0.87106417 153 147 149
0.15020526 -0.00932679 0.87341193 155 150 151
0.14961570 0.01015395 0.87667862 170 168 170
0.14994951 0.02991771 0.87863623 165 162 164
0.15031873 0.04283287 0.87975100 156 153 156
0.15020159 0.05274692 0.88056606 161 158 160
0.15051182 0.06966252 0.88193038 159 156 157
0.14995202 0.08959870 0.88345312 153 151 155
0.14948905 0.10966305 0.88489859 159 156 157
0.14972937 0.12975451 0.88632136 160 158 160
0.14996643 0.14990655 0.88772461 154 150 152
0.15020014 0.17011782 0.88910788 157 156 156
0.15042043 0.19037424 0.89041186 156 154 155
0.15062699 0.20989934 0.89163498 154 153 154
0.14969359 0.22955303 0.89282445 159 159 160
0.14948458 0.24986456 0.89401962 155 153 154
0.14967613 0.27029842 0.89516515 143 141 143
0.14984421 0.28996348 0.89617035 154 152 152
0.15000313 0.30965368 0.89712086 151 151 152
0.15015343 0.33014188 0.89802000 151 151 153
0.15028692 0.34985434 0.89881861 147 147 149
0.15040001 0.36955138 0.89949525 97 96 97
0.15114548 0.38468044 0.89988348 0 0 0
0.14989314 0.39475321 0.90012239 0 0 0
0.15058451 0.41047669 0.90059835 0 0 0
0.15005885 0.43015434 0.90128314 0 0 0
0.15003521 0.45007862 0.90197434 0 0 0
0.14962411 0.47011407 0.90271202 0 0 0
0.14950493 0.48986987 0.90347996 0 0 0
0.14961947 0.50743497 0.90417202 0 0 0
0.16976856 -0.48906440 0.73492658 0 0 0
0.16989166 -0.46994822 0.73013091 0 0 0
0.17700247 -0.44195581 0.71912794 0 0 0
0.16953455 -0.45058255 0.72451431 0 0 0
0.17104811 -0.42898865 0.71605312 0 0 0
0.16350227 -0.43646663 0.72108577 0 0 0
0.17762667 -0.40112508 0.69899071 0 0 0
0.16965248 -0.41057695 0.70814079 0 0 0
0.17232389 -0.38288833 0.67682297 104 107 107
0.17096866 -0.39344002 0.69381945 11 12 12
0.16466137 -0.39816896 0.70211813 0 0 0
0.17745762 -0.36112114 0.63756685 158 164 163
0.17279925 -0.36625649 0.65239430 163 167 166
0.16958737 -0.36840309 0.67069786 159 160 160
0.16987672 -0.36444919 0.68989356 155 155 155
0.16897715 -0.36132312 0.70550098 159 160 160
0.17107951 -0.35864780 0.71516221 165 167 168
0.17003013 -0.35304630 0.73030110 166 167 168
0.16974822 -0.34424894 0.74699150 164 164 165
0.17067137 -0.33760103 0.75678765 167 168 169
0.16973277 -0.32785253 0.76880862 164 164 166
0.17167142 -0.31849298 0.77853086 166 166 168
0.16981307 -0.30883840 0.78703263 165 165 168
0.17032125 -0.29618233 0.79701568 157 157 159
0.16973653 -0.28615781 0.80344573 152 152 152
0.17002632 -0.27027693 0.81096630 144 142 143
0.17038236 -0.25442963 0.81756642 152 151 153
0.16942378 -0.24440181 0.82163743 153 152 155
0.16994625 -0.22987189 0.82723144 157 156 159
0.17001926 -0.20958626 0.83453391 161 161 164
0.17068485 -0.19613098 0.83894581 160 160 163
0.16979660 -0.18678326 0.84181946 161 161 164
0.16999755 -0.17017435 0.84637415 163 162 165
0.16986714 -0.14960058 0.85131983 167 165 167
0.17006374 -0.12998522 0.85534582 159 157 161
0.17025474 -0.11186830 0.85866030 165 164 166
0.16918060 -0.10189286 0.86042382 164 163 167
0.16995203 -0.09005762 0.86239979 162 160 162
0.17011985 -0.06999621 0.86536273 162 161 163
0.17005965 -0.04988340 0.86832228 164 163 166
0.16971103 -0.02980469 0.87093995 151 148 151
0.17020288 -0.00950756 0.87346278 158 156 160
0.16988484 0.01002497 0.87656798 165 161 163
0.16966903 0.02991377 0.87851712 160 158 160
0.17004040 0.04358807 0.87970166 155 153 155
0.16997062 0.05350465 0.88052845 161 162 164
0.17031860 0.06965860 0.88187979 159 158 161
0.17043705 0.08976713 0.88345859 154 152 155
0.16955979 0.10953028 0.88490323 160 158 161
0.16964504 0.12975482 0.88632380 156 154 154
0.16991350 0.14990688 0.88772634 156 155 156
0.17017963 0.17011958 0.88911701 161 159 160
0.17042757 0.19037429 0.89041255 153 149 150
0.17059558 0.20983692 0.89160224 158 154 154
0.16945062 0.22956254 0.89279166 154 154 155
0.16956588 0.24985453 0.89398372 153 151 151
0.16978300 0.27028734 0.89512842 152 151 152
0.16997480 0.28995351 0.89613956 154 153 153
0.17015338 0.30963995 0.89708113 155 154 154
0.17032138 0.33012230 0.89796688 148 148 150
0.17046999 0.34982781 0.89875055 148 146 146
0.17059429 0.36951472 0.89940609 95 95 98
0.17066108 0.38651234 0.89983324 0 0 0
0.16910575 0.39672647 0.90008146 0 0 0
0.17002865 0.41044412 0.90052679 0 0 0
0.16950817 0.43034754 0.90125240 0 0 0
0.16952079 0.45007395 0.90196489 0 0 0
0.16966208 0.46995217 0.90271641 0 0 0
0.16981154 0.48988697 0.90351144 0 0 0
0.16994520 0.50746331 0.90422247 0 0 0
0.18966365 -0.48742537 0.73090797 0 0 0
0.18996618 -0.46997303 0.72613831 0 0 0
0.19181610 -0.44596662 0.71747314 0 0 0
0.18799736 -0.45483470 0.72192937 0 0 0
0.18984142 -0.42977001 0.71028391 0 0 0
0.19200974 -0.40539633 0.69659183 0 0 0
0.18833970 -0.41421763 0.70348914 0 0 0
0.19201130 -0.38509613 0.67278058 61 63 63
0.18958578 -0.39622837 0.69029893 1 1 1
0.19126745 -0.36218290 0.63566455 161 162 163
0.19074764 -0.36440511 0.65023736 164 166 167
0.18977989 -0.36455126 0.67019016 155 155 156
0.18990935 -0.36264038 0.69017690 160 161 163
0.18870076 -0.36070902 0.70344382 164 165 166
0.18109499 -0.35980565 0.63408202 162 165 165
0.19086407 -0.35818595 0.71331448 163 164 165
0.18997840 -0.35195458 0.73025106 165 166 168
0.18970769 -0.34373428 0.74584384 166 167 169
0.19030598 -0.33700085 0.75585162 164 165 166
0.18984240 -0.32712094 0.76792496 166 167 169
0.19036214 -0.31775799 0.77773409 162 163 164
0.18987897 -0.30780638 0.78653189 162 162 164
0.19036607 -0.29478580 0.79618046 166 166 168
0.18958876 -0.28495109 0.80322462 152 152 153
0.19001419 -0.26995612 0.81009974 148 147 149
0.19016583 -0.25290039 0.81712059 151 150 151
0.18964059 -0.24268306 0.82107676 150 149 152
0.18988958 -0.23015360 0.82582016 152 151 155
0.18987800 -0.21009564 0.83336669 160 160 162
0.19078578 -0.19504223 0.83848527 162 162 164
0.18957130 -0.18540556 0.84153515 165 165 169
0.19005753 -0.17014802 0.84577886 163 163 166
0.18998357 -0.14973065 0.85072430 164 164 167
0.18990190 -0.12954591 0.85492570 165 163 167
0.19018004 -0.11115934 0.85837160 163 162 163
0.18900137 -0.10095393 0.86028001 167 166 167
0.19003159 -0.08969304 0.86232719 167 166 168
0.18991323 -0.07017598 0.86518828 159 157 158
0.19020094 -0.04997165 0.86826915 165 164 166
0.18998096 -0.02985483 0.87092915 151 149 151
0.18982712 -0.00950817 0.87345487 159 158 161
0.19029336 0.01028315 0.87645196 162 160 161
0.18974852 0.02972773 0.87840324 163 161 163
0.18965117 0.04363256 0.87964026 155 152 152
0.18983077 0.05356649 0.88047354 148 146 151
0.19012442 0.06965517 0.88183564 159 158 159
0.19047096 0.08963240 0.88344267 161 159 161
0.18991264 0.10962310 0.88493120 158 155 155
0.18956572 0.12975855 0.88634925 160 157 158
0.18986331 0.14990930 0.88774091 155 153 155
0.19015502 0.17011723 0.88910511 162 159 160
0.19042711 0.19036678 0.89037746 160 157 158
0.19049197 0.20983794 0.89156441 148 147 149
0.18938968 0.22944809 0.89274161 147 146 148
0.18964509 0.24984379 0.89394536 158 156 156
0.18988836 0.27027637 0.89509205 161 158 158
0.19010464 0.28994442 0.89611147 156 153 152
0.19030015 0.30962338 0.89703323 152 152 154
0.19048520 0.33009978 0.89790564 147 147 148
0.19046514 0.34966050 0.89867291 147 145 144
0.19000794 0.36947922 0.89931977 96 96 96
0.18996371 0.38859172 0.89979380 0 0 0
0.18732930 0.39839878 0.90004182 0 0 0
0.18946944 0.41041104 0.90045408 0 0 0
0.18962831 0.43022566 0.90120883 0 0 0
0.18978501 0.45006820 0.90195328 0 0 0
0.18994803 0.46995817 0.90272786 0 0 0
0.19012016 0.48990557 0.90354567 0 0 0
0.19027221 0.50748897 0.90426817 0 0 0
0.20961969 -0.48633837 0.72766487 0 0 0
0.21685910 -0.46174796 0.71949607 0 0 0
0.20948509 -0.47049666 0.72312820 0 0 0
0.21038972 -0.44973665 0.71560453 0 0 0
0.20306544 -0.45842141 0.72045728 0 0 0
0.21639975 -0.42207904 0.69863560 0 0 0
0.20912828 -0.43048625 0.70556391 0 0 0
0.21019973 -0.41006980 0.69303975 0 0 0
0.20301596 -0.41853831 0.70076541 0 0 0
0.21217009 -0.38153546 0.65735948 72 76 76
0.21213206 -0.39043728 0.67244422 14 15 15
0.20794068 -0.39737137 0.68418345 0 0 0
0.21103119 -0.36403468 0.63361274 161 163 164
0.21014660 -0.36403186 0.64937281 161 164 164
0.20993652 -0.36257621 0.66999263 158 159 160
0.20989238 -0.36141144 0.69017839 160 161 162
0.20656231 -0.36019414 0.70170128 157 157 158
0.21059105 -0.35785201 0.71109288 161 162 163
0.20990137 -0.35107719 0.73011969 166 167 169
0.20996422 -0.34311486 0.74543632 166 166 167
0.21021302 -0.33640031 0.75543731 163 165 166
0.20980696 -0.32653741 0.76737358 164 165 167
0.21003047 -0.31685280 0.77734822 163 164 166
0.20975389 -0.30712794 0.78582952 163 163 166
0.21047110 -0.29375638 0.79557796 165 165 167
0.20955622 -0.28365718 0.80292449 153 153 154
0.20996476 -0.26981547 0.80955942 152 151 153
0.21012929 -0.25159212 0.81692865 140 140 142
0.20965831 -0.24144329 0.82062261 151 149 150
0.20997209 -0.22999236 0.82488208 152 150 151
0.20991479 -0.21047234 0.83239270 160 160 163
0.21029012 -0.19465109 0.83800663 165 165 167
0.20963760 -0.18443597 0.84126834 167 167 169
0.20996681 -0.16990385 0.84534575 165 165 168
0.21009410 -0.14973956 0.85026386 165 165 167
0.21000749 -0.12970726 0.85442016 165 164 168
0.20999045 -0.10997440 0.85816698 163 162 166
0.20922900 -0.10005460 0.86012231 172 173 175
0.20995105 -0.09000299 0.86210025 170 170 172
0.21005886 -0.06978348 0.86512752 162 160 162
0.20993543 -0.05012306 0.86819609 165 165 169
0.21029398 -0.02975095 0.87092392 146 143 146
0.20984777 -0.00968734 0.87334860 157 154 156
0.21016108 0.01015036 0.87640664 166 163 166
0.21020768 0.03008976 0.87836464 163 158 159
0.20955016 0.04434474 0.87963765 161 157 157
0.20962006 0.05432857 0.88049675 156 153 153
0.20992977 0.06965218 0.88179782 156 151 154
0.21031574 0.08963007 0.88341908 161 160 162
0.21031585 0.10979237 0.88494281 156 152 153
0.20948396 0.12976013 0.88635999 158 154 155
0.20981131 0.14990993 0.88774500 158 156 157
0.21012472 0.17011073 0.88907135 158 155 156
0.21042232 0.19035679 0.89033064 154 152 152
0.21032179 0.20981099 0.89151491 145 144 147
0.20943651 0.22943432 0.89268797 152 151 153
0.20972228 0.24983283 0.89390601 154 154 156
0.20999421 0.27026816 0.89506487 155 153 154
0.21023451 0.28993720 0.89608913 159 155 153
0.21044921 0.30961335 0.89700428 147 147 148
0.21042286 0.32991163 0.89785447 143 142 142
0.20984647 0.34992116 0.89862396 142 141 142
0.20941927 0.36944614 0.89923938 95 95 96
0.20963711 0.38975445 0.89973494 0 0 0
0.20104260 0.39931708 0.90000784 0 0 0
0.21815131 0.40086753 0.89999631 0 0 0
0.20958562 0.41049533 0.90039356 0 0 0
0.20987060 0.43021053 0.90117706 0 0 0
0.21004989 0.45006498 0.90194673 0 0 0
0.21023610 0.46996772 0.90274612 0 0 0
0.21043086 0.48992545 0.90358229 0 0 0
0.21035192 0.50738527 0.90430330 0 0 0
0.22968197 -0.48515586 0.72455937 0 0 0
0.23177832 -0.46552830 0.71825614 0 0 0
0.22826501 -0.47461446 0.72165973 0 0 0
0.22992591 -0.45028757 0.71259776 0 0 0
0.23117921 -0.42480811 0.69642060 0 0 0
0.22878696 -0.43435637 0.70366736 0 0 0
0.23420119 -0.40265691 0.67767695 0 0 0
0.22893255 -0.41155600 0.68702820 0 0 0
0.22970995 -0.38389964 0.65437381 92 95 96
0.22980166 -0.39545023 0.67207107 2 2 2
0.23463226 -0.36292835 0.61659545 157 158 159
0.23017619 -0.36410987 0.63059514 162 165 166
0.22985633 -0.36338624 0.64997705 163 166 167
0.22989927 -0.36193901 0.66944418 157 159 160
0.22973174 -0.36083273 0.68782629 160 163 164
0.23172524 -0.35968466 0.69798954 158 159 161
0.22985230 -0.35722446 0.71054256 163 164 165
0.23011939 -0.35046061 0.73016139 165 167 168
0.22952954 -0.34299067 0.74499042 161 161 164
0.23029844 -0.33612539 0.75520773 166 168 171
0.22989360 -0.32630270 0.76682239 165 165 168
0.23022426 -0.31655735 0.77662347 163 164 166
0.22987894 -0.30657939 0.78529531 164 164 166
0.23010773 -0.29294623 0.79523678 168 168 170
0.22947720 -0.28298483 0.80221255 159 158 160
0.23007150 -0.27015524 0.80913914 149 148 150
0.22996305 -0.25099022 0.81685215 155 153 154
0.23010870 -0.24083564 0.82059586 150 148 150
0.23006582 -0.22983953 0.82452349 143 141 143
0.22990523 -0.21033267 0.83184219 159 158 161
0.23015709 -0.19387053 0.83782270 164 164 167
0.22979683 -0.18373109 0.84108644 166 166 168
0.22998435 -0.16976504 0.84500480 164 164 167
0.22999338 -0.14945142 0.84996398 165 165 167
0.23006582 -0.12971159 0.85407343 160 159 161
0.22995645 -0.10961067 0.85797411 163 162 165
0.23000672 -0.08968269 0.86196171 168 167 170
0.22996221 -0.07006321 0.86498715 161 160 163
0.23007240 -0.04990988 0.86823771 168 168 171
0.22990922 -0.02980256 0.87087984 155 153 155
0.23016135 -0.00937794 0.87341347 160 157 159
0.22983294 0.01014937 0.87632859 163 160 162
0.23034246 0.02990550 0.87827113 163 160 162
0.23005018 0.04443680 0.87960128 166 164 166
0.22962312 0.05424436 0.88045753 163 160 161
0.22972937 0.06964793 0.88174451 159 157 160
0.23015075 0.08962427 0.88336186 156 155 159
0.23048714 0.10971665 0.88489479 154 153 156
0.22957797 0.12962156 0.88632563 152 150 153
0.22975450 0.14990740 0.88772986 150 147 148
0.23009396 0.17010500 0.88904154 148 146 146
0.23041780 0.19034870 0.89029277 147 145 146
0.23014754 0.20984723 0.89147711 149 148 150
0.22948654 0.22942608 0.89265591 150 149 150
0.22980002 0.24982424 0.89387528 156 155 154
0.23009692 0.27025770 0.89503028 155 154 154
0.23036061 0.28992656 0.89605614 149 147 148
0.23059473 0.30960041 0.89696681 148 148 149
0.22978749 0.33024508 0.89782606 145 144 145
0.22955862 0.35042644 0.89857984 136 137 140
0.22950385 0.37007483 0.89918981 93 91 91
0.22973579 0.38983999 0.89967432 0 0 0
0.22981096 0.40085522 0.89996867 0 0 0
0.22991498 0.41115348 0.90037600 0 0 0
0.23011426 0.43020063 0.90115626 0 0 0
0.23031687 0.45006642 0.90194952 0 0 0
0.23052719 0.46998172 0.90277295 0 0 0
0.22996316 0.48994717 0.90362232 0 0 0
0.22987461 0.50766367 0.90435365 0 0 0
0.25517998 -0.48261095 0.71902434 0 0 0
0.24560296 -0.48397502 0.72138931 0 0 0
0.25058082 -0.46931280 0.71613672 0 0 0
0.24358060 -0.47831599 0.72050225 0 0 0
0.25012178 -0.45038346 0.70900452 0 0 0
0.25068132 -0.42781972 0.69391615 0 0 0
0.24781647 -0.43729196 0.70185010 0 0 0
0.25108394 -0.40566772 0.67446180 0 0 0
0.24902147 -0.41529340 0.68407367 0 0 0
0.25290308 -0.38150462 0.63829964 87 91 91
0.24977204 -0.38829023 0.65197034 27 28 28
0.24875977 -0.39702021 0.66616540 0 0 0
0.25886057 -0.36021219 0.59493124 165 169 170
0.24965873 -0.36261907 0.61390845 158 161 162
0.24940768 -0.36344728 0.62938963 162 165 166
0.24997664 -0.36252706 0.64967446 167 170 171
0.25002615 -0.36184633 0.66928155 163 167 167
0.25010443 -0.36087077 0.68727060 159 160 162
0.25269484 -0.35570025 0.59307163 164 167 168
0.25324896 -0.35879365 0.60506715 164 167 167
0.24983788 -0.35961824 0.69749182 164 166 168
0.24992687 -0.35702175 0.71030243 166 167 168
0.24998094 -0.35050425 0.72995676 167 168 169
0.25000245 -0.34329601 0.74441016 161 161 163
0.25000878 -0.33632022 0.75479060 162 163 165
