ply
format ascii 1.0
element vertex 1060
property float x
property float y
property float z
property uchar red
property uchar green
property uchar blue
end_header
1.17103255 0.39643043 1.43621159 160 160 156
1.17103398 0.39559233 1.43317509 160 160 155
1.18100154 0.39811739 1.44232309 163 164 157
1.17598820 0.39559233 1.43317509 172 173 166
1.17846537 0.39559233 1.43317509 179 180 171
1.18094242 0.39559233 1.43317509 179 180 171
1.18341959 0.39559233 1.43317509 177 177 169
1.17842257 0.39309910 1.42414248 175 176 168
1.17348814 0.39063710 1.41522300 173 174 166
1.18086481 0.39227498 1.42115688 164 165 158
1.17838037 0.39063710 1.41522300 153 154 147
1.18329680 0.39145434 1.41818380 145 146 139
1.18574798 0.39145434 1.41818380 146 147 144
0.40052280 0.12824892 0.46462771 170 172 165
0.59805560 0.16617689 0.60203540 155 161 155
0.59750420 0.16573532 0.60043561 156 160 155
0.60115010 0.16588224 0.60096794 160 161 156
0.60165542 0.16573532 0.60043561 160 161 155
0.60269326 0.16573532 0.60043561 161 161 156
0.60426629 0.16588224 0.60096794 164 164 159
0.60638011 0.16617689 0.60203540 165 165 159
0.60313553 0.16500455 0.59778821 164 165 159
0.59732115 0.16313441 0.59101295 164 165 159
1.10053647 0.26884362 0.97398251 158 159 156
1.08660769 0.26503566 0.96018672 159 159 156
1.07909656 0.26280221 0.95209527 161 160 156
1.08074212 0.26280221 0.95209527 161 160 156
1.08391011 0.26317182 0.95343435 162 162 157
1.08555806 0.26317182 0.95343435 163 164 157
1.08720601 0.26317182 0.95343435 163 164 157
1.08732462 0.26280221 0.95209527 163 164 157
1.09050190 0.26317182 0.95343435 164 164 157
1.09214985 0.26317182 0.95343435 164 164 157
1.09072959 0.26243362 0.95075995 158 158 151
1.09237289 0.26243362 0.95075995 152 152 145
1.09555280 0.26280221 0.95209527 146 147 140
1.09874153 0.26317182 0.95343435 137 137 135
1.10038948 0.26317182 0.95343435 129 129 127
-0.00617855 0.13673700 0.49229619 198 198 196
-0.00533541 0.13693589 0.49301225 196 196 194
-0.00447676 0.13673700 0.49229619 195 195 191
-0.00362061 0.13653868 0.49158219 184 184 181
-0.00277699 0.13683638 0.49265397 178 178 177
-0.00192969 0.13713536 0.49373040 171 172 172
-0.00107710 0.13723531 0.49409026 172 173 173
-0.00022278 0.13703555 0.49337107 173 174 174
0.00062951 0.13693589 0.49301225 173 174 174
0.00148057 0.13683638 0.49265397 173 174 174
0.00234230 0.13743566 0.49481156 174 174 174
0.00319987 0.13753605 0.49517301 174 174 172
0.00405278 0.13743566 0.49481156 174 174 172
0.00491520 0.13763659 0.49553499 174 173 173
0.00582276 0.13885461 0.49992025 175 174 174
0.00666227 0.13834448 0.49808365 177 176 176
0.00751213 0.13814148 0.49735278 178 177 177
0.01186252 0.13875228 0.49955183 169 169 167
0.11065046 0.23477164 0.84525168 140 139 143
0.11141679 0.23331703 0.84001470 145 145 146
0.11176077 0.23102681 0.83176911 147 147 147
0.11305970 0.23074369 0.83074981 150 149 149
0.12227438 0.23188035 0.83484215 120 123 129
0.12265993 0.22989847 0.82770675 118 121 129
0.12333757 0.22850345 0.82268429 115 118 126
0.12475952 0.22850345 0.82268429 114 117 125
0.12633479 0.22878110 0.82368392 111 114 120
0.12760341 0.22850345 0.82268429 122 124 129
0.12886895 0.22822648 0.82168710 133 134 136
0.13013144 0.22795019 0.82069230 138 141 141
0.13123219 0.22739957 0.81870997 148 152 151
0.19244397 0.18772368 0.67586422 154 156 158
0.19246082 0.18660738 0.67184526 163 166 167
1.00010240 0.43584919 1.56919408 130 132 139
0.99134076 0.43086237 1.55123997 127 127 133
0.99175251 0.42987865 1.54769826 130 131 136
0.98542821 0.42598835 1.53369200 139 139 142
1.04601347 0.44617736 1.60637879 166 167 161
1.05378413 0.44830203 1.61402822 170 171 164
1.05909550 0.44937196 1.61788034 171 173 166
1.06443238 0.45044699 1.62175083 173 174 168
1.06979477 0.45152721 1.62563992 174 175 170
1.07518291 0.45261261 1.62954772 174 176 171
1.16534269 0.45044699 1.62175083 173 173 169
1.15433788 0.44512257 1.60258114 173 173 169
1.15166259 0.44302788 1.59503961 173 173 169
1.15170956 0.44198790 1.59129536 173 173 168
1.15717638 0.44302788 1.59503961 173 174 167
1.15721047 0.44198790 1.59129536 173 174 165
1.14650428 0.43686044 1.57283485 173 174 165
1.13604355 0.43185058 1.55479777 174 175 167
1.13873088 0.43185058 1.55479777 175 176 169
1.13880634 0.43086237 1.55123997 173 174 168
1.11823213 0.38583371 1.38912261 169 173 168
1.16856349 0.39722964 1.43015158 171 172 166
1.17849410 0.39975977 1.43926084 172 173 166
1.17598820 0.39806944 1.43317509 174 175 168
1.17597914 0.39722964 1.43015158 177 178 171
1.17845106 0.39722964 1.43015158 178 179 171
1.18092299 0.39722964 1.43015158 174 175 168
1.17595208 0.39473134 1.42115688 167 167 162
1.17104340 0.39226428 1.41227472 164 164 159
1.17839444 0.39390555 1.41818380 158 159 153
1.17592537 0.39226428 1.41227472 151 152 146
1.18082643 0.39308318 1.41522300 150 151 145
1.18574798 0.39390555 1.41818380 155 155 150
1.19570363 0.39639336 1.42714071 157 157 153
0.39650744 0.12905198 0.46462771 156 157 154
0.39785591 0.12922913 0.46526551 161 162 158
0.39866006 0.12922913 0.46526551 163 164 160
0.39973861 0.12931789 0.46558505 164 166 162
0.39889953 0.12878717 0.46367431 167 171 166
0.39942774 0.12869914 0.46335739 169 172 168
0.40022862 0.12869914 0.46335739 167 172 165
0.40075555 0.12861124 0.46304089 164 169 161
0.59858716 0.16736609 0.60257053 155 157 154
0.59803391 0.16692096 0.60096794 157 159 155
0.59801233 0.16662553 0.59990430 157 159 155
0.60117728 0.16721745 0.60203540 157 159 155
0.60115010 0.16692096 0.60096794 157 158 155
0.60165542 0.16677311 0.60043561 156 157 154
0.60269326 0.16677311 0.60043561 155 155 152
0.60373104 0.16677311 0.60043561 158 158 155
0.60584205 0.16706908 0.60150117 159 159 156
0.60101557 0.16545418 0.59568703 159 159 155
0.59628147 0.16387019 0.58998418 160 161 157
1.10053647 0.27052709 0.97398251 158 159 155
1.08814907 0.26707354 0.96154869 158 159 155
1.08061433 0.26481977 0.95343435 157 158 154
1.08226216 0.26481977 0.95343435 157 158 153
1.08543682 0.26519275 0.95477724 158 158 153
1.08862031 0.26556680 0.95612389 159 159 153
1.08873725 0.26519275 0.95477724 159 159 152
1.09038758 0.26519275 0.95477724 160 159 152
1.09203780 0.26519275 0.95477724 161 158 151
1.09368801 0.26519275 0.95477724 162 159 151
1.09379780 0.26481977 0.95343435 158 155 150
1.09544563 0.26481977 0.95343435 155 151 148
1.09709358 0.26481977 0.95343435 154 150 147
1.10028911 0.26519275 0.95477724 144 143 140
1.10193932 0.26519275 0.95477724 138 138 136
1.10203743 0.26481977 0.95343435 136 137 135
-0.00533929 0.13788830 0.49337107 197 197 193
-0.00448002 0.13768789 0.49265397 191 190 186
-0.00361799 0.13728879 0.49122596 186 185 181
-0.00277699 0.13768789 0.49265397 178 177 175
-0.00192828 0.13788830 0.49337107 174 174 172
-0.00107631 0.13798873 0.49373040 174 175 173
-0.00022262 0.13778803 0.49301225 175 175 175
0.00062906 0.13768789 0.49265397 176 176 176
0.00147949 0.13758789 0.49229619 176 176 176
0.00234230 0.13829090 0.49481156 177 177 177
0.00319987 0.13839191 0.49517301 175 175 173
0.00405278 0.13829090 0.49481156 175 175 173
0.00491520 0.13849308 0.49553499 175 175 173
0.00580991 0.13941026 0.49881667 175 175 173
0.00666227 0.13920538 0.49808365 176 176 174
0.00750662 0.13889922 0.49698815 178 178 176
0.00835950 0.13879746 0.49662405 177 177 175
0.00927221 0.13961571 0.49955183 176 176 174
0.01014312 0.13971868 0.49992025 174 174 172
0.01182765 0.13920538 0.49808365 165 165 163
0.11037521 0.23564494 0.84314907 140 139 140
0.11127890 0.23447838 0.83897507 141 140 140
0.11162382 0.23217957 0.83074981 140 139 138
0.11292131 0.23189539 0.82973295 149 148 148
0.11880323 0.23217957 0.83074981 117 117 124
0.12053455 0.23275004 0.83279097 114 114 122
0.12212399 0.23303632 0.83381528 116 119 127
0.12251034 0.23104699 0.82669735 119 122 130
0.12333757 0.22992539 0.82268429 118 121 129
0.12460829 0.22964670 0.82168710 115 118 126
0.12760341 0.22992539 0.82268429 122 124 131
0.12871294 0.22936869 0.82069230 131 132 136
0.12997408 0.22909133 0.81969994 137 138 139
0.13091597 0.22826329 0.81673717 142 142 144
0.19263601 0.18908037 0.67653877 163 164 166
0.19265176 0.18795489 0.67251176 168 169 171
0.99819332 0.43654040 1.56196272 114 114 123
1.05882621 0.45325008 1.62175083 169 169 165
1.06954980 0.45542917 1.62954772 173 173 169
1.16253960 0.45325008 1.62175083 167 167 165
1.16534269 0.45325008 1.62175083 172 172 169
1.15433788 0.44789252 1.60258114 173 173 169
1.15166259 0.44578478 1.59503961 173 173 168
1.14901233 0.44369680 1.58756876 173 174 168
1.15717638 0.44578478 1.59503961 173 174 168
1.15721047 0.44473833 1.59129536 172 173 165
1.14917052 0.44060123 1.57649267 171 172 164
1.13865519 0.43553686 1.55837202 172 173 165
1.14134872 0.43553686 1.55837202 174 175 168
1.17599738 0.40139520 1.43621159 169 170 163
1.17350721 0.39970154 1.43015158 167 168 161
1.17597914 0.39970154 1.43015158 170 171 164
1.17597008 0.39886007 1.42714071 173 174 167
1.17843676 0.39886007 1.42714071 169 170 163
1.17104208 0.39552930 1.41522300 162 162 157
1.16618431 0.39306748 1.40641463 157 157 153
1.17348444 0.39470527 1.41227472 155 155 151
1.17104602 0.39306748 1.40641463 152 152 149
1.17347693 0.39306748 1.40641463 157 157 154
0.39705172 0.13003331 0.46526551 152 153 151
0.39840278 0.13021205 0.46590504 157 158 156
0.39893389 0.13012262 0.46558505 160 161 159
0.40001333 0.13021205 0.46590504 162 163 160
0.39889953 0.12958860 0.46367431 162 163 161
0.39942774 0.12950002 0.46335739 165 166 164
0.40022862 0.12950002 0.46335739 166 168 165
0.40185353 0.12976612 0.46430948 164 168 163
0.40320837 0.12994412 0.46494639 164 168 163
0.60290486 0.16991797 0.60797477 151 152 148
0.60233504 0.16946201 0.60634333 156 157 153
0.60016215 0.16855741 0.60310662 158 159 156
0.60013670 0.16825803 0.60203540 156 157 155
0.60224700 0.16855741 0.60310662 154 155 153
0.60168350 0.16810872 0.60150117 153 154 152
0.60218883 0.16795969 0.60096794 153 154 152
0.60322756 0.16795969 0.60096794 152 153 151
0.60373104 0.16781092 0.60043561 152 153 151
0.60530502 0.16795969 0.60096794 152 152 150
0.59943533 0.16604604 0.59412080 151 152 150
0.59472865 0.16446052 0.58844781 155 156 154
0.59061885 0.16304521 0.58338368 158 159 157
1.10201979 0.27299500 0.97678941 158 159 154
1.10053647 0.27221054 0.97398251 158 159 154
1.08969474 0.26911724 0.96291453 158 159 154
1.08366251 0.26721936 0.95612389 155 156 150
1.08531511 0.26721936 0.95612389 153 155 148
1.08696771 0.26721936 0.95612389 153 155 148
1.09015787 0.26759678 0.95747435 155 156 150
1.09181285 0.26759678 0.95747435 155 156 149
1.09192550 0.26721936 0.95612389 155 155 148
1.09357810 0.26721936 0.95612389 156 153 148
1.09677756 0.26759678 0.95747435 158 155 149
1.09533834 0.26684299 0.95477724 153 151 147
1.09698856 0.26684299 0.95477724 145 144 142
1.10018837 0.26721936 0.95612389 144 143 141
1.10184097 0.26721936 0.95612389 140 139 139
1.10349357 0.26721936 0.95612389 140 139 139
1.10514617 0.26721936 0.95612389 144 143 143
-0.01037276 0.13763914 0.48945260 200 200 198
-0.00954746 0.13793792 0.49051508 200 200 198
-0.00871225 0.13813783 0.49122596 200 200 198
-0.00702435 0.13833833 0.49193892 200 200 197
-0.00618304 0.13853940 0.49265397 199 199 195
-0.00533929 0.13874106 0.49337107 197 196 192
-0.00448002 0.13853940 0.49265397 191 188 184
-0.00361799 0.13813783 0.49122596 186 183 180
-0.00277498 0.13843879 0.49229619 176 174 172
-0.00192828 0.13874106 0.49337107 174 174 172
-0.00107631 0.13884211 0.49373040 175 175 173
-0.00022278 0.13874106 0.49337107 176 176 174
0.00062997 0.13874106 0.49337107 176 176 175
0.00148165 0.13864015 0.49301225 176 176 175
0.00234572 0.13934956 0.49553499 176 176 176
0.00320455 0.13945150 0.49589747 176 176 176
0.00405870 0.13934956 0.49553499 176 176 176
0.00491879 0.13945150 0.49589747 175 175 175
0.00580991 0.14027241 0.49881667 174 174 173
0.00665738 0.13996345 0.49771795 174 174 173
0.00750112 0.13965583 0.49662405 174 173 172
0.00835338 0.13955359 0.49626049 174 174 173
0.00926539 0.14037570 0.49918398 172 172 171
0.01014312 0.14058276 0.49992025 170 170 167
0.01099098 0.14037570 0.49918398 165 165 161
0.01181030 0.13986076 0.49735278 158 154 153
0.11127890 0.23592848 0.83897507 160 158 156
0.11148719 0.23332952 0.82973295 164 160 159
0.11278327 0.23304427 0.82871866 162 160 157
0.11477689 0.23418945 0.83279097 149 148 145
0.11635926 0.23447751 0.83381528 139 139 135
0.11736735 0.23361546 0.83074981 123 121 127
0.11865782 0.23332952 0.82973295 117 117 123
0.12023912 0.23361546 0.83074981 117 117 124
0.12167500 0.23361546 0.83074981 117 118 126
0.12236112 0.23219271 0.82569045 119 121 128
0.12333757 0.23134734 0.82268429 120 122 129
0.12445744 0.23078719 0.82069230 119 122 130
0.12602851 0.23106693 0.82168710 120 122 130
0.12744874 0.23106693 0.82168710 120 121 130
0.12855729 0.23050812 0.81969994 125 126 132
0.12950429 0.22967495 0.81673717 132 132 137
0.13013203 0.22829965 0.81184649 137 137 141
0.19282846 0.19043978 0.67721462 156 157 159
0.19303477 0.18949325 0.67384875 159 160 162
0.25817478 0.12700213 0.45162681 156 157 158
1.06391668 0.45824569 1.62954772 164 164 160
1.15700376 0.45388144 1.61402822 158 158 156
1.15979338 0.45388144 1.61402822 164 164 162
1.15161538 0.44959956 1.59880149 171 171 169
1.14895916 0.44748875 1.59129536 174 174 171
1.14632773 0.44539770 1.58385944 174 174 169
1.15445995 0.44748875 1.59129536 174 174 169
1.15450037 0.44644079 1.58756876 173 174 168
1.14650428 0.44229749 1.57283485 173 174 167
1.13865519 0.43823037 1.55837202 173 174 166
1.14134872 0.43823037 1.55837202 173 174 165
1.17350721 0.40217343 1.43015158 170 171 164
1.17597914 0.40217343 1.43015158 169 170 163
1.17597008 0.40132678 1.42714071 168 169 162
1.17596102 0.40048364 1.42414248 155 156 149
1.17104208 0.39797539 1.41522300 152 153 148
1.16860878 0.39632061 1.40933859 151 151 149
1.17593431 0.39797539 1.41522300 149 149 146
1.17104602 0.39549837 1.40641463 148 148 146
1.17347693 0.39549837 1.40641463 152 152 150
0.39787096 0.13110743 0.46622548 149 150 149
0.39895117 0.13119766 0.46654636 154 155 155
0.39975756 0.13119766 0.46654636 156 157 157
0.40056396 0.13119766 0.46654636 156 157 157
0.39999390 0.13074775 0.46494639 158 159 158
0.40024847 0.13056864 0.46430948 160 161 159
0.40077651 0.13047926 0.46399167 161 163 161
0.40268093 0.13083749 0.46526551 164 167 164
0.40376225 0.13092734 0.46558505 167 171 168
0.40318242 0.13047926 0.46399167 170 173 169
0.60453141 0.17143005 0.60961497 145 146 143
0.60395569 0.17096880 0.60797477 151 152 148
0.60284382 0.17035764 0.60580146 156 157 153
0.60551429 0.17081560 0.60742998 152 153 151
0.60385871 0.17005371 0.60472065 150 151 149
0.60275316 0.16944908 0.60257053 148 149 147
0.60325843 0.16929859 0.60203540 147 150 147
0.60429901 0.16929859 0.60203540 148 151 148
0.60480243 0.16914837 0.60150117 150 152 150
0.60530502 0.16899842 0.60096794 153 155 152
0.60048789 0.16736630 0.59516406 155 157 154
0.59628147 0.16590968 0.58998418 157 158 155
0.59112751 0.16419484 0.58388615 158 158 156
1.10520482 0.27547717 0.97961247 159 160 154
1.10053647 0.27389398 0.97398251 159 160 154
1.09124482 0.27116674 0.96428424 159 160 154
1.08519316 0.26925170 0.95747435 157 158 151
1.08684802 0.26925170 0.95747435 154 155 148
1.09004259 0.26963255 0.95882863 152 153 147
1.09324622 0.27001446 0.96018672 152 152 147
1.09335709 0.26963255 0.95882863 152 152 148
1.09501433 0.26963255 0.95882863 151 151 147
1.09667158 0.26963255 0.95882863 150 149 145
1.09832883 0.26963255 0.95882863 147 146 142
1.09843254 0.26925170 0.95747435 142 141 139
1.10008740 0.26925170 0.95747435 136 135 135
1.10330069 0.26963255 0.95882863 134 133 133
1.10495794 0.26963255 0.95882863 136 135 135
1.10661519 0.26963255 0.95882863 139 138 138
-0.01036528 0.13838521 0.48909944 200 200 198
-0.00954056 0.13868539 0.49016041 200 200 198
-0.00870594 0.13888624 0.49087027 200 200 198
-0.00786891 0.13908766 0.49158219 200 200 198
-0.00701925 0.13908766 0.49158219 200 200 198
-0.00617407 0.13918860 0.49193892 199 199 197
-0.00533153 0.13939092 0.49265397 195 196 190
-0.00447352 0.13918860 0.49193892 186 187 181
-0.00361537 0.13888624 0.49087027 180 181 175
-0.00277095 0.13908766 0.49158219 171 171 169
-0.00192548 0.13939092 0.49265397 173 173 171
-0.00107475 0.13949229 0.49301225 174 174 172
-0.00022246 0.13939092 0.49265397 174 175 173
0.00062906 0.13939092 0.49265397 174 175 175
0.00148057 0.13939092 0.49265397 174 175 175
0.00234401 0.14010365 0.49517301 175 175 174
0.00320455 0.14030863 0.49589747 175 175 173
0.00405574 0.14010365 0.49517301 174 173 171
0.00491161 0.14010365 0.49517301 173 173 171
0.00578861 0.14061722 0.49698815 172 171 169
0.00664275 0.14051421 0.49662405 168 167 165
0.00749015 0.14030863 0.49589747 165 164 161
0.00834116 0.14020607 0.49553499 163 160 159
0.00922463 0.14061722 0.49698815 159 159 157
0.01011329 0.14103080 0.49844989 160 160 157
0.01095066 0.14072040 0.49735278 159 158 154
0.01178436 0.14041135 0.49626049 157 154 153
0.01262362 0.14020607 0.49553499 152 150 150
0.11477689 0.23562886 0.83279097 159 158 149
0.11621631 0.23562886 0.83279097 141 141 132
0.11708039 0.23447664 0.82871866 128 128 130
0.11851276 0.23447664 0.82871866 118 119 124
0.12023912 0.23505133 0.83074981 117 117 125
0.12167500 0.23505133 0.83074981 117 117 125
0.12236112 0.23361984 0.82569045 117 118 126
0.12333757 0.23276928 0.82268429 116 119 126
0.12445744 0.23220567 0.82069230 118 121 129
0.12602851 0.23248714 0.82168710 121 122 131
0.12744874 0.23248714 0.82168710 122 122 131
0.12855729 0.23192491 0.81969994 120 120 127
0.12934846 0.23080854 0.81575429 128 128 132
0.12982109 0.22915399 0.80990660 136 136 140
0.25869182 0.12803864 0.45253128 161 162 164
0.25843886 0.12752785 0.45072597 158 158 160
1.15429676 0.45450684 1.60637879 156 155 150
1.15161538 0.45236295 1.59880149 159 160 153
1.14626837 0.44918475 1.58756876 166 167 160
1.14365566 0.44709066 1.58016741 172 173 166
1.14906538 0.44813526 1.58385944 174 174 168
1.15180290 0.44813526 1.58385944 174 174 168
1.14385033 0.44398585 1.56919408 173 174 167
1.13344395 0.43890592 1.55123997 172 173 166
1.13873088 0.43991259 1.55479777 171 172 163
1.17846537 0.40550083 1.43317509 171 171 165
1.17845106 0.40464535 1.43015158 156 156 151
1.17843676 0.40379345 1.42714071 142 141 137
1.17595208 0.40210041 1.42115688 138 137 134
1.17594314 0.40125918 1.41818380 146 146 144
1.18086481 0.40210041 1.42115688 145 145 143
1.17592537 0.39958727 1.41227472 144 144 142
1.18082643 0.40042150 1.41522300 146 147 145
0.39814478 0.13200405 0.46654636 141 142 142
0.39895117 0.13200405 0.46654636 145 147 147
0.40003288 0.13209496 0.46686766 146 148 148
0.40111607 0.13218601 0.46718940 149 151 151
0.40137035 0.13200405 0.46654636 151 153 153
0.40134805 0.13173208 0.46558505 155 156 156
0.40160114 0.13155137 0.46494639 160 161 161
0.40403974 0.13182260 0.46590504 162 166 165
0.40373510 0.13146120 0.46462771 168 171 170
0.60453141 0.17248371 0.60961497 142 143 143
0.60395569 0.17201963 0.60797477 145 146 145
0.60338306 0.17155804 0.60634333 148 149 148
0.60605735 0.17201963 0.60797477 143 144 143
0.60439789 0.17125168 0.60526055 142 143 143
0.60328943 0.17064226 0.60310662 143 145 144
0.60325843 0.17033915 0.60203540 143 145 144
0.60429901 0.17033915 0.60203540 144 146 145
0.60533959 0.17033915 0.60203540 146 148 147
0.60530502 0.17003714 0.60096794 149 152 150
0.60207367 0.16883969 0.59673578 151 154 151
0.59784240 0.16736640 0.59152865 152 155 152
0.59265894 0.16563202 0.58539885 154 155 153
1.11163044 0.27878183 0.98530793 160 160 156
1.10053647 0.27557743 0.97398251 160 160 157
1.09124482 0.27283341 0.96428424 160 160 156
1.08672810 0.27128980 0.95882863 159 159 156
1.08838534 0.27128980 0.95882863 159 159 155
1.09158659 0.27167407 0.96018672 158 158 154
1.09479690 0.27205941 0.96154869 157 157 154
1.09490573 0.27167407 0.96018672 157 157 153
1.09656537 0.27167407 0.96018672 155 155 151
1.09822500 0.27167407 0.96018672 155 155 151
1.10144472 0.27205941 0.96154869 154 154 150
-0.01036528 0.13923058 0.48909944 200 200 198
-0.00954056 0.13953260 0.49016041 200 200 198
-0.00870594 0.13973467 0.49087027 200 200 198
-0.00786321 0.13983592 0.49122596 200 200 198
-0.00701417 0.13983592 0.49122596 199 199 197
-0.00616959 0.13993733 0.49158219 200 200 198
-0.00532379 0.14003888 0.49193892 192 193 188
-0.00447027 0.13993733 0.49158219 182 183 180
-0.00361275 0.13963355 0.49051508 171 171 169
-0.00276694 0.13973467 0.49087027 168 168 166
-0.00192129 0.13993733 0.49158219 169 169 168
-0.00107163 0.13993733 0.49158219 172 172 170
-0.00022197 0.13993733 0.49158219 173 173 172
0.00062723 0.13983592 0.49122596 174 174 173
0.00147628 0.13983592 0.49122596 174 174 173
0.00233718 0.14054886 0.49373040 174 174 173
0.00319520 0.14075388 0.49445066 174 174 172
0.00404687 0.14065129 0.49409026 174 173 171
0.00490087 0.14065129 0.49409026 172 171 169
0.00576747 0.14095952 0.49517301 168 167 165
0.00662818 0.14106256 0.49553499 164 161 161
0.00746829 0.14075388 0.49445066 161 157 158
0.00832291 0.14075388 0.49445066 157 153 154
0.00919094 0.14095952 0.49517301 154 153 153
0.01006887 0.14126909 0.49626049 153 152 152
0.01091862 0.14116575 0.49589747 151 150 149
0.01175854 0.14095952 0.49517301 145 144 143
0.01260520 0.14085662 0.49481156 140 139 139
0.01346044 0.14085662 0.49481156 141 141 142
0.01427400 0.14044656 0.49337107 138 138 141
0.01505008 0.13973467 0.49087027 138 138 140
0.11607371 0.23677740 0.83176911 141 142 133
0.11693743 0.23562098 0.82770675 128 129 133
0.11836806 0.23562098 0.82770675 120 121 127
0.12053455 0.23706827 0.83279097 116 116 125
0.12197395 0.23706827 0.83279097 111 111 120
0.12265993 0.23562098 0.82770675 111 110 119
0.12348744 0.23447579 0.82368392 114 112 121
0.12475952 0.23419122 0.82268429 114 113 122
0.12618147 0.23419122 0.82268429 113 112 121
0.12760341 0.23419122 0.82268429 112 112 121
0.12855729 0.23334168 0.81969994 112 112 119
0.12950429 0.23249829 0.81673717 123 123 130
0.12997638 0.23082963 0.81087542 126 126 132
0.25869182 0.12882081 0.45253128 174 175 177
0.25826713 0.12822165 0.45042646 165 166 168
1.14614880 0.45405546 1.59503961 148 148 141
1.14620876 0.45298961 1.59129536 147 147 140
1.13827121 0.44877574 1.57649267 146 146 139
1.13571358 0.44669810 1.56919408 147 148 141
1.14106715 0.44773450 1.57283485 152 153 146
1.14644563 0.44877574 1.57649267 158 159 152
1.13857913 0.44463956 1.56196272 163 164 157
1.13085616 0.44057894 1.54769826 167 168 161
1.13353121 0.44057894 1.54769826 166 167 159
1.13361812 0.43957534 1.54417276 165 166 158
1.17845106 0.40711725 1.43015158 156 155 150
1.17843676 0.40626016 1.42714071 144 143 139
1.17595208 0.40455675 1.42115688 140 139 135
1.17594314 0.40371040 1.41818380 143 144 142
1.18334568 0.40540665 1.42414248 144 144 142
1.17838037 0.40286759 1.41522300 144 144 142
1.18329680 0.40371040 1.41818380 145 146 144
1.19073021 0.40540665 1.42414248 150 151 149
0.39922592 0.13290191 0.46686766 134 137 137
0.40030858 0.13299350 0.46718940 134 138 138
0.40139270 0.13308522 0.46751162 137 142 142
0.40220076 0.13308522 0.46751162 140 145 145
0.40484503 0.13262789 0.46590504 159 163 162
0.40506360 0.13217369 0.46430948 160 164 163
0.60398823 0.17338146 0.60906726 131 132 135
0.60341448 0.17291538 0.60742998 131 132 136
0.60284382 0.17245181 0.60580146 132 133 136
0.60497218 0.17276059 0.60688615 132 133 135
0.60385871 0.17214413 0.60472065 134 135 136
0.60275316 0.17153206 0.60257053 138 139 140
0.60325843 0.17137973 0.60203540 139 140 141
0.60429901 0.17137973 0.60203540 141 142 143
0.60533959 0.17137973 0.60203540 143 144 145
0.60584205 0.17122766 0.60150117 146 147 147
0.60260415 0.17002077 0.59726155 148 149 148
0.59784240 0.16838881 0.59152865 150 151 149
0.59368432 0.16693215 0.58641165 153 154 152
0.59418386 0.16678788 0.58590478 154 155 153
1.11976826 0.28253818 0.99252099 160 160 159
1.10370803 0.27805990 0.97678941 161 161 160
1.09435821 0.27528328 0.96703541 161 161 160
1.08826733 0.27333367 0.96018672 161 161 159
1.09147298 0.27372137 0.96154869 160 160 158
1.09468770 0.27411020 0.96291453 160 160 158
1.09968066 0.27411020 0.96291453 158 158 156
1.10134494 0.27411020 0.96291453 156 156 153
1.10457826 0.27450010 0.96428424 154 154 150
-0.01037276 0.14017709 0.48945260 200 200 198
-0.00954746 0.14048137 0.49051508 200 200 198
-0.00870594 0.14058310 0.49087027 200 200 198
-0.00786891 0.14078699 0.49158219 196 196 194
-0.00701925 0.14078699 0.49158219 199 199 197
-0.00616959 0.14078699 0.49158219 200 200 198
-0.00532766 0.14099146 0.49229619 185 185 183
-0.00447027 0.14078699 0.49158219 182 181 179
-0.00361275 0.14048137 0.49051508 157 157 155
-0.00276494 0.14048137 0.49051508 160 159 159
-0.00191990 0.14068496 0.49122596 161 161 161
-0.00107086 0.14068496 0.49122596 164 164 164
-0.00022165 0.14058310 0.49087027 169 169 167
0.00062678 0.14058310 0.49087027 174 173 171
0.00147521 0.14058310 0.49087027 175 174 171
0.00232870 0.14088915 0.49193892 173 173 170
0.00318591 0.14119655 0.49301225 174 173 171
0.00403511 0.14109394 0.49265397 173 172 171
0.00487953 0.14088915 0.49193892 168 167 167
0.00575486 0.14150529 0.49409026 166 162 163
0.00661368 0.14160851 0.49445066 161 157 157
0.00744657 0.14119655 0.49301225 152 149 149
0.00828665 0.14099146 0.49229619 147 145 146
0.00913754 0.14099146 0.49229619 144 143 143
0.01002484 0.14150529 0.49409026 143 142 142
0.01087883 0.14150529 0.49409026 143 142 142
0.01172428 0.14140223 0.49373040 142 141 141
0.01255023 0.14109394 0.49265397 136 136 137
0.01339201 0.14099146 0.49229619 135 135 137
0.01422225 0.14078699 0.49158219 131 130 136
0.01503919 0.14048137 0.49051508 129 128 133
0.01586405 0.14027837 0.48980623 133 132 136
0.01668653 0.14007594 0.48909944 136 135 137
0.11909513 0.23850769 0.83279097 133 133 137
0.12127951 0.23998177 0.83793801 112 111 120
0.12257630 0.23968551 0.83690351 105 103 112
0.12326194 0.23821504 0.83176911 99 97 106
0.12378826 0.23647413 0.82569045 99 98 107
0.12506308 0.23618644 0.82468593 98 97 106
0.12664254 0.23647413 0.82569045 99 98 107
0.12775846 0.23589946 0.82368392 103 103 112
0.12871294 0.23504268 0.82069230 109 109 118
0.25809562 0.12891451 0.45012739 174 175 174
1.13811505 0.45361042 1.58385944 148 146 140
1.13819325 0.45255303 1.58016741 146 145 139
1.12778020 0.44733930 1.56196272 145 144 138
1.12529421 0.44528729 1.55479777 145 145 141
1.12798154 0.44528729 1.55479777 147 147 145
1.13850260 0.44837242 1.56557012 151 151 148
1.13335621 0.44528729 1.55479777 149 149 146
1.12571597 0.44123921 1.54066324 157 157 154
1.13094914 0.44224432 1.54417276 159 160 156
1.13104177 0.44123921 1.54066324 159 160 156
1.12602723 0.43825114 1.53022993 160 161 156
1.17595208 0.40701312 1.42115688 151 151 147
1.17594314 0.40616164 1.41818380 148 148 146
1.18334568 0.40786818 1.42414248 145 145 143
1.17838037 0.40531367 1.41522300 142 142 140
0.39735243 0.13389328 0.46751162 116 119 128
0.39706513 0.13352494 0.46622548 121 124 129
0.39841899 0.13370885 0.46686766 127 131 131
0.40111607 0.13380100 0.46718940 135 141 139
0.40192357 0.13380100 0.46718940 136 142 140
0.40459588 0.13361683 0.46654636 152 158 156
0.40484503 0.13343316 0.46590504 151 157 155
0.40481561 0.13315861 0.46494639 151 155 154
0.40450948 0.13279429 0.46367431 151 153 152
0.60233504 0.17365408 0.60634333 116 117 121
0.60069656 0.17288090 0.60364366 121 122 126
0.60173994 0.17288090 0.60364366 125 126 129
0.60224700 0.17272709 0.60310662 129 130 132
0.60168350 0.17226730 0.60150117 134 135 137
0.60218883 0.17211458 0.60096794 136 137 139
0.60322756 0.17211458 0.60096794 137 138 140
0.60426629 0.17211458 0.60096794 140 141 143
0.60530502 0.17211458 0.60096794 141 142 143
0.60101557 0.17060216 0.59568703 142 143 144
0.59732115 0.16926351 0.59101295 144 145 146
0.59522903 0.16838270 0.58793741 148 149 148
0.59572858 0.16823679 0.58742791 152 152 150
1.12305689 0.28508848 0.99543589 160 161 161
1.10530066 0.28015187 0.97819889 161 162 162
1.09435821 0.27695471 0.96703541 161 162 162
1.08981097 0.27538335 0.96154869 162 163 162
1.09302330 0.27577451 0.96291453 164 164 162
1.09624481 0.27616680 0.96428424 164 164 162
1.10124493 0.27616680 0.96428424 159 159 155
1.10291159 0.27616680 0.96428424 157 157 153
1.10457826 0.27616680 0.96428424 154 154 150
0.68453097 0.16232881 0.56679922 139 142 141
-0.01037276 0.14102305 0.48945260 199 199 197
-0.00954056 0.14122699 0.49016041 199 199 197
-0.00869965 0.14132918 0.49051508 199 199 197
-0.00786891 0.14163664 0.49158219 196 196 194
-0.00701925 0.14163664 0.49158219 197 197 195
-0.00616959 0.14163664 0.49158219 194 194 192
-0.00532379 0.14173943 0.49193892 179 179 177
-0.00446703 0.14153402 0.49122596 171 171 169
-0.00361275 0.14132918 0.49051508 146 145 144
-0.00276494 0.14132918 0.49051508 155 150 151
-0.00191712 0.14132918 0.49051508 157 152 154
-0.00106931 0.14132918 0.49051508 162 157 158
-0.00022149 0.14132918 0.49051508 165 162 160
0.00062633 0.14132918 0.49051508 170 168 165
0.00147308 0.14122699 0.49016041 173 172 168
0.00232364 0.14143153 0.49087027 174 173 169
0.00317437 0.14153402 0.49122596 174 173 169
0.00402633 0.14163664 0.49158219 173 172 169
0.00486893 0.14143153 0.49087027 169 167 165
0.00573396 0.14184237 0.49229619 166 162 161
0.00659924 0.14215207 0.49337107 158 154 153
0.00743036 0.14173943 0.49193892 147 143 142
0.00826863 0.14153402 0.49122596 145 142 143
0.00911768 0.14153402 0.49122596 142 139 140
0.00996672 0.14153402 0.49122596 142 138 139
0.01082361 0.14163664 0.49158219 142 138 139
0.01169872 0.14194545 0.49265397 140 139 139
0.01252293 0.14163664 0.49158219 138 137 138
0.01336290 0.14153402 0.49122596 131 131 133
0.01421194 0.14153402 0.49122596 130 129 132
0.01503919 0.14132918 0.49051508 129 128 131
0.01587552 0.14122699 0.49016041 128 128 131
0.01669857 0.14102305 0.48945260 133 132 134
0.01750663 0.14071825 0.48839471 134 134 135
0.11924162 0.24024223 0.83381528 150 150 151
0.12127951 0.24143009 0.83793801 132 132 136
0.12257630 0.24113202 0.83690351 112 111 119
0.12341337 0.23994710 0.83279097 87 85 95
0.12393922 0.23819138 0.82669735 78 78 88
0.12506308 0.23761185 0.82468593 77 77 87
0.12679698 0.23819138 0.82669735 83 83 93
0.12791388 0.23761185 0.82468593 95 95 104
0.12886895 0.23674780 0.82168710 108 108 114
0.26573130 0.13038513 0.45253128 147 147 149
0.26545024 0.12986499 0.45072597 149 150 152
1.12249410 0.44900444 1.55837202 147 146 142
1.11748087 0.44592908 1.54769826 143 142 139
1.12015593 0.44592908 1.54769826 140 139 137
1.12027323 0.44491330 1.54417276 140 139 137
1.13066888 0.44797462 1.55479777 137 136 134
1.12818110 0.44592908 1.54769826 131 131 130
1.12316322 0.44289556 1.53716969 139 139 139
1.13104177 0.44390213 1.54066324 151 154 153
1.12096643 0.43891448 1.52335250 152 155 153
1.12108016 0.43793035 1.51993692 154 156 154
0.39735243 0.13470134 0.46751162 122 125 133
0.39733839 0.13442321 0.46654636 132 135 141
0.39841899 0.13451579 0.46686766 137 141 142
0.40030858 0.13460851 0.46718940 140 145 145
0.40111607 0.13460851 0.46718940 143 148 146
0.40192357 0.13460851 0.46718940 144 149 147
0.40190011 0.13433076 0.46622548 145 150 149
0.40351179 0.13433076 0.46622548 144 148 148
0.40459588 0.13442321 0.46654636 142 143 143
0.40456697 0.13414624 0.46558505 139 140 140
0.40398437 0.13368715 0.46399167 139 140 140
0.40450948 0.13359572 0.46367431 140 141 141
0.40475720 0.13341321 0.46304089 141 142 142
0.60341448 0.17501518 0.60742998 99 102 107
0.60176831 0.17423455 0.60472065 105 108 113
0.60389090 0.17454597 0.60580146 114 117 121
0.60224700 0.17376952 0.60310662 126 129 130
0.60115010 0.17315331 0.60096794 131 134 135
0.60165542 0.17299995 0.60043561 133 136 137
0.60269326 0.17299995 0.60043561 134 136 138
0.60373104 0.17299995 0.60043561 135 137 139
0.60476887 0.17299995 0.60043561 135 138 140
0.59996116 0.17133065 0.59464198 136 140 141
0.59680086 0.17013671 0.59049815 142 145 147
0.59574574 0.16954595 0.58844781 146 148 148
0.59624523 0.16939890 0.58793741 148 149 149
0.59519655 0.16881326 0.58590478 150 151 151
1.12305689 0.28680900 0.99543589 160 161 161
1.10849988 0.28265837 0.98103017 161 162 162
1.09592152 0.27902418 0.96841693 162 163 163
1.09135902 0.27743882 0.96291453 162 163 163
1.09457815 0.27783349 0.96428424 163 163 162
1.09937251 0.27862614 0.96703541 162 162 160
1.10104394 0.27862614 0.96703541 161 161 159
1.10596454 0.27902418 0.96841693 159 159 157
1.10448265 0.27822927 0.96565789 157 158 156
1.10457826 0.27783349 0.96428424 154 155 155
1.10154414 0.27665287 0.96018672 151 152 152
0.68118185 0.16344513 0.56727350 155 155 154
0.68216234 0.16344513 0.56727350 152 152 152
0.68428808 0.16371915 0.56822449 148 148 148
0.68527019 0.16371915 0.56822449 143 143 143
0.68510377 0.16344513 0.56727350 144 144 144
-0.01037276 0.14186904 0.48945260 198 198 196
-0.00954056 0.14207420 0.49016041 198 198 196
-0.00869336 0.14207420 0.49016041 198 198 196
-0.00786321 0.14238305 0.49122596 199 199 197
-0.00701417 0.14238305 0.49122596 195 195 192
-0.00616512 0.14238305 0.49122596 189 189 186
-0.00532379 0.14258970 0.49193892 175 175 173
-0.00446380 0.14227995 0.49087027 160 159 158
-0.00361014 0.14207420 0.49016041 141 137 138
-0.00276294 0.14207420 0.49016041 146 137 144
-0.00191573 0.14207420 0.49016041 149 140 144
-0.00106776 0.14197154 0.48980623 159 150 153
-0.00022117 0.14197154 0.48980623 160 155 155
0.00062542 0.14197154 0.48980623 164 163 162
0.00147201 0.14197154 0.48980623 170 170 168
0.00232028 0.14207420 0.49016041 172 172 171
0.00316748 0.14207420 0.49016041 174 173 172
0.00402050 0.14227995 0.49087027 171 169 169
0.00486540 0.14217700 0.49051508 169 165 165
0.00572150 0.14238305 0.49122596 166 162 161
0.00657054 0.14238305 0.49122596 160 156 155
0.00741422 0.14227995 0.49087027 151 147 146
0.00825667 0.14217700 0.49051508 144 140 139
0.00909790 0.14207420 0.49016041 142 138 137
0.00993792 0.14197154 0.48980623 142 138 137
0.01080011 0.14217700 0.49051508 142 138 137
0.01168174 0.14258970 0.49193892 133 133 132
0.01250479 0.14227995 0.49087027 133 133 133
0.01335322 0.14227995 0.49087027 132 132 132
0.01421194 0.14238305 0.49122596 129 129 129
0.01503919 0.14217700 0.49051508 126 126 127
0.01588701 0.14217700 0.49051508 120 120 123
0.01671064 0.14197154 0.48980623 122 121 126
0.01753189 0.14176668 0.48909944 125 125 128
0.11968326 0.24257854 0.83690351 156 155 153
0.12158007 0.24348032 0.84001470 149 148 147
0.26406774 0.13073096 0.45102584 139 139 142
0.26651347 0.13116731 0.45253128 148 148 151
1.11735678 0.44963071 1.55123997 151 149 142
1.11493528 0.44758227 1.54417276 147 143 139
1.11772716 0.44656503 1.54066324 136 135 132
1.12550604 0.44860414 1.54769826 137 136 134
1.12818110 0.44860414 1.54769826 138 138 136
1.12062216 0.44454437 1.53369200 141 141 139
1.12582016 0.44555241 1.53716969 147 148 147
1.11595094 0.43957186 1.51653659 152 156 155
1.11607528 0.43859068 1.51315141 153 157 156
0.39654437 0.13550939 0.46751162 151 153 155
0.39707857 0.13541600 0.46718940 155 159 160
0.39651969 0.13495098 0.46558505 154 158 159
0.39787096 0.13513660 0.46622548 153 156 156
0.39975756 0.13522960 0.46654636 150 154 153
0.40083981 0.13532273 0.46686766 151 154 153
0.40109429 0.13513660 0.46622548 153 155 155
0.40079752 0.13476585 0.46494639 154 156 155
0.40050235 0.13439713 0.46367431 154 155 155
0.40185353 0.13458124 0.46430948 150 151 151
0.40376225 0.13495098 0.46558505 141 142 142
0.40401199 0.13476585 0.46494639 137 138 138
0.40343210 0.13430527 0.46335739 136 137 137
0.40395686 0.13421354 0.46304089 135 136 136
0.40448090 0.13412192 0.46272480 135 136 136
0.60500652 0.17622298 0.60797477 122 129 133
0.60660136 0.17638117 0.60852051 126 133 137
0.60439789 0.17543626 0.60526055 131 139 139
0.60168350 0.17434660 0.60150117 133 141 140
0.60165542 0.17403775 0.60043561 134 140 140
0.60322756 0.17419204 0.60096794 134 141 140
0.60476887 0.17403775 0.60043561 134 141 140
0.59943533 0.17220737 0.59412080 136 145 143
0.59628147 0.17100836 0.58998418 140 149 148
0.59471321 0.17026743 0.58742791 144 152 150
0.59572858 0.17026743 0.58742791 148 153 150
0.59519655 0.16982594 0.58590478 149 154 151
1.12305689 0.28852955 0.99543589 156 157 157
1.11010635 0.28476611 0.98245192 156 157 157
1.09748936 0.28109959 0.96980232 157 157 156
1.09602964 0.28029761 0.96703541 157 157 157
1.09926915 0.28069803 0.96841693 157 157 157
1.10922289 0.28109959 0.96980232 158 158 158
1.10931218 0.28069803 0.96841693 154 155 155
1.10310662 0.27870727 0.96154869 151 152 152
0.67544889 0.16470127 0.56822449 155 156 152
0.67643106 0.16470127 0.56822449 157 158 154
0.67741317 0.16470127 0.56822449 161 161 157
0.67839527 0.16470127 0.56822449 163 163 159
0.67937744 0.16470127 0.56822449 162 162 158
0.68175238 0.16456333 0.56774861 157 157 155
0.68330592 0.16470127 0.56822449 154 154 152
0.68428808 0.16470127 0.56822449 149 149 148
0.68527019 0.16470127 0.56822449 145 145 145
0.68567759 0.16456333 0.56774861 143 143 143
-0.01037276 0.14271502 0.48945260 196 195 193
-0.00952678 0.14271502 0.48945260 196 195 192
-0.00868707 0.14281814 0.48980623 196 196 193
-0.00785752 0.14312838 0.49087027 197 198 192
-0.00700909 0.14312838 0.49087027 194 195 189
-0.00616066 0.14312838 0.49087027 186 186 182
-0.00531608 0.14323211 0.49122596 172 171 169
-0.00446057 0.14302482 0.49051508 149 146 148
-0.00360753 0.14281814 0.48980623 134 127 136
-0.00276094 0.14281814 0.48980623 138 131 140
-0.00191573 0.14292140 0.49016041 146 139 146
-0.00106699 0.14271502 0.48945260 157 151 156
-0.00022101 0.14271502 0.48945260 158 158 158
0.00062497 0.14271502 0.48945260 163 163 163
0.00147095 0.14271502 0.48945260 167 167 167
0.00231693 0.14271502 0.48945260 169 169 169
0.00316291 0.14271502 0.48945260 172 169 170
0.01078451 0.14281814 0.48980623 140 137 137
0.01168174 0.14343998 0.49193892 137 136 136
0.01251385 0.14323211 0.49122596 135 135 135
0.01337259 0.14333597 0.49158219 134 134 134
0.01424291 0.14354415 0.49229619 134 134 134
0.01506099 0.14323211 0.49122596 134 133 136
0.01591003 0.14323211 0.49122596 132 131 138
0.01672272 0.14292140 0.49016041 136 135 142
0.01754455 0.14271502 0.48945260 145 145 150
0.12012818 0.24493222 0.84001470 157 156 153
0.12203373 0.24584614 0.84314907 147 145 143
0.26363897 0.13168575 0.45162681 140 140 143
0.26662120 0.13239136 0.45404679 126 124 131
0.26704827 0.13221425 0.45343935 125 123 130
1.11480570 0.45127922 1.54769826 147 144 136
1.11772716 0.44922796 1.54066324 134 131 127
1.12550604 0.45127922 1.54769826 136 133 130
1.12561119 0.45025125 1.54417276 141 139 136
1.11557436 0.44518086 1.52678347 144 144 140
1.11821330 0.44518086 1.52678347 147 147 143
1.12847698 0.44820929 1.53716969 149 152 149
1.10851121 0.43924510 1.50642633 154 158 155
1.10619855 0.43730155 1.49976075 158 162 160
0.39627108 0.13622350 0.46718940 165 172 166
0.39625928 0.13594243 0.46622548 166 176 164
0.39597577 0.13556948 0.46494639 162 172 161
0.39732444 0.13575570 0.46558505 162 171 160
0.39840278 0.13584900 0.46590504 161 170 160
0.39920807 0.13584900 0.46590504 160 167 160
0.39973861 0.13575570 0.46558505 159 161 160
0.39971974 0.13547656 0.46462771 160 161 161
0.39997452 0.13529110 0.46399167 159 160 160
0.39968222 0.13492170 0.46272480 156 157 157
0.40075555 0.13501386 0.46304089 151 152 152
0.40210521 0.13519856 0.46367431 142 143 143
0.40318242 0.13529110 0.46399167 134 135 135
0.40315655 0.13501386 0.46304089 134 135 135
0.40368113 0.13492170 0.46272480 135 136 136
0.40392947 0.13473776 0.46209395 136 137 137
0.60446441 0.17711496 0.60742998 137 146 146
0.60660136 0.17743294 0.60852051 139 148 148
0.60385871 0.17632498 0.60472065 142 146 146
0.60168350 0.17538625 0.60150117 143 146 145
0.60165542 0.17507555 0.60043561 141 145 144
0.60322756 0.17523076 0.60096794 142 146 144
0.60373104 0.17507555 0.60043561 143 147 145
0.60476887 0.17507555 0.60043561 143 148 146
0.59996116 0.17338623 0.59464198 145 153 150
0.59680086 0.17217796 0.59049815 146 154 151
0.59626329 0.17172919 0.58895904 146 154 152
0.59676278 0.17158012 0.58844781 145 154 151
0.59519655 0.17083864 0.58590478 149 158 155
1.12470841 0.29067692 0.99689978 154 156 153
1.11333346 0.28729695 0.98530793 155 156 154
1.10063851 0.28358722 0.97258514 155 156 154
0.67461562 0.16596162 0.56917870 154 155 150
0.67559940 0.16596162 0.56917870 155 157 152
0.67658317 0.16596162 0.56917870 157 158 154
0.67756695 0.16596162 0.56917870 158 159 155
0.67855072 0.16596162 0.56917870 160 160 156
0.67953449 0.16596162 0.56917870 159 160 156
0.67994738 0.16582240 0.56870121 159 159 155
0.67978972 0.16554464 0.56774861 158 158 154
0.68134171 0.16568340 0.56822449 158 158 154
0.68289626 0.16582240 0.56870121 156 156 153
0.68625236 0.16568340 0.56822449 144 144 144
-0.00951991 0.14345741 0.48909944 194 194 192
-0.00868080 0.14356099 0.48945260 194 194 192
-0.00784615 0.14376861 0.49016041 193 194 188
-0.00700401 0.14387263 0.49051508 187 187 180
-0.00615620 0.14387263 0.49051508 180 180 173
-0.00531223 0.14397681 0.49087027 161 161 157
-0.00445734 0.14376861 0.49016041 141 141 141
-0.00360493 0.14356099 0.48945260 132 131 136
-0.00275895 0.14356099 0.48945260 140 136 144
-0.00191435 0.14366472 0.48980623 143 141 145
-0.00106699 0.14356099 0.48945260 154 152 153
-0.00022085 0.14345741 0.48909944 162 162 162
0.00062452 0.14345741 0.48909944 164 164 164
0.00146989 0.14345741 0.48909944 164 164 164
0.00514579 0.18427432 0.62825936 168 166 166
0.00623168 0.18427432 0.62825936 167 163 163
0.00731080 0.18410368 0.62767762 164 160 159
0.00838018 0.18376338 0.62651742 158 154 153
0.00944560 0.18342434 0.62536150 152 150 148
0.01048779 0.18274999 0.62306237 147 146 144
0.01079230 0.14376861 0.49016041 138 137 135
0.01171575 0.14471032 0.49337107 137 136 136
0.01256850 0.14471032 0.49337107 133 133 133
0.01345062 0.14502697 0.49445066 138 138 138
0.01429481 0.14492127 0.49409026 141 142 144
0.01513777 0.14481571 0.49373040 145 146 148
0.01596789 0.14460507 0.49301225 144 145 149
0.01675908 0.14408115 0.49122596 150 150 156
0.01756992 0.14376861 0.49016041 155 155 159
0.26120767 0.13202655 0.45012739 169 170 164
0.26268336 0.13237815 0.45132613 162 162 157
0.26583642 0.13317615 0.45404679 136 136 137
0.26715803 0.13344428 0.45496097 122 121 126
0.26740599 0.13317615 0.45404679 107 105 112
0.26819077 0.13317615 0.45404679 98 97 102
0.26915583 0.13326541 0.45435110 113 112 116
1.12550604 0.45395428 1.54769826 131 131 127
1.12561119 0.45292023 1.54417276 136 136 133
1.11809254 0.44883066 1.53022993 133 134 130
1.11570048 0.44681343 1.52335250 150 150 146
0.39545345 0.13674827 0.46622548 165 172 165
0.39544338 0.13646670 0.46526551 167 177 165
0.39516270 0.13609308 0.46399167 166 176 164
0.39650744 0.13627963 0.46462771 164 174 162
0.39866006 0.13646670 0.46526551 163 173 161
0.39919028 0.13637310 0.46494639 164 169 161
0.39917254 0.13609308 0.46399167 165 166 161
0.39942774 0.13590702 0.46335739 164 165 161
0.39940959 0.13562891 0.46240917 159 160 158
0.40020883 0.13562891 0.46240917 152 153 152
0.40155590 0.13581419 0.46304089 146 146 146
0.40263122 0.13590702 0.46335739 139 140 140
0.40315655 0.13581419 0.46304089 138 139 139
0.40368113 0.13572149 0.46272480 139 140 140
0.40365431 0.13544413 0.46177918 139 140 140
0.60284382 0.17768720 0.60580146 148 151 147
0.60497218 0.17800535 0.60688615 149 151 148
0.60224700 0.17689678 0.60310662 150 152 148
0.60061765 0.17611335 0.60043561 151 151 147
0.60112298 0.17595750 0.59990430 151 152 148
0.60215986 0.17595750 0.59990430 152 152 148
0.60319674 0.17595750 0.59990430 153 153 149
0.60423362 0.17595750 0.59990430 154 155 151
0.59996116 0.17441402 0.59464198 156 159 156
0.59732115 0.17334959 0.59101295 155 160 158
0.59782147 0.17319860 0.59049815 151 156 154
0.59832096 0.17304786 0.58998418 142 150 147
0.59622723 0.17214890 0.58691937 143 152 149
1.12470841 0.29239997 0.99689978 156 159 156
1.11657929 0.28984255 0.98818052 157 161 157
0.67518252 0.16708569 0.56965703 155 156 152
0.67616713 0.16708569 0.56965703 156 157 153
0.67870665 0.16722623 0.57013613 157 158 154
0.68035954 0.16666554 0.56822449 157 157 153
0.68289626 0.16680536 0.56870121 154 154 150
-0.00867454 0.14430279 0.48909944 193 193 190
-0.00784048 0.14451131 0.48980623 190 191 185
-0.00699895 0.14461581 0.49016041 181 181 176
-0.00614730 0.14451131 0.48980623 172 173 168
-0.00530455 0.14461581 0.49016041 146 147 145
-0.00445412 0.14451131 0.48980623 129 130 129
-0.00360233 0.14430279 0.48909944 127 128 130
-0.00275696 0.14430279 0.48909944 136 136 139
-0.00191297 0.14440697 0.48945260 141 141 143
-0.00106699 0.14440697 0.48945260 157 157 157
-0.00022069 0.14419875 0.48874682 160 160 156
0.00062407 0.14419875 0.48874682 161 161 159
0.00406366 0.18553215 0.62884218 161 159 158
0.00514579 0.18536021 0.62825936 163 161 159
0.00623168 0.18536021 0.62825936 164 159 158
0.00731080 0.18518858 0.62767762 159 157 155
0.00837244 0.18467559 0.62593889 154 153 151
0.00944560 0.18450522 0.62536150 148 147 145
0.01049744 0.18399601 0.62363553 145 144 142
0.01152234 0.18315354 0.62078005 140 140 137
0.01167327 0.14503528 0.49158219 136 136 134
0.01255023 0.14535150 0.49265397 136 136 135
0.01346044 0.14598808 0.49481156 142 143 145
0.01430524 0.14588159 0.49445066 144 145 147
0.01515986 0.14588159 0.49445066 155 156 158
0.01599115 0.14566909 0.49373040 160 161 163
0.01679559 0.14524594 0.49229619 162 163 165
0.26138124 0.13289280 0.45042646 179 180 174
0.26268336 0.13315824 0.45132613 178 179 172
0.26583642 0.13396092 0.45404679 159 160 156
0.26733747 0.13432080 0.45526651 148 149 147
0.26794440 0.13423064 0.45496097 135 135 136
0.26963559 0.13468260 0.45649281 120 120 122
0.27060682 0.13477336 0.45680043 116 115 117
1.12305307 0.45455378 1.54066324 129 129 129
1.10315144 0.44544244 1.50978136 119 119 120
1.09599710 0.44150919 1.49644995 133 134 134
1.10837054 0.44544244 1.50978136 149 150 149
1.10117006 0.44150919 1.49644995 155 156 154
0.39409822 0.13708270 0.46462771 166 171 165
0.39490131 0.13708270 0.46462771 165 174 165
0.39489239 0.13680141 0.46367431 164 174 164
0.39623588 0.13698880 0.46430948 164 173 163
0.39785591 0.13727087 0.46526551 165 172 161
0.39811358 0.13708270 0.46462771 164 172 160
0.39891666 0.13708270 0.46462771 165 170 160
0.39889953 0.13680141 0.46367431 167 169 160
0.39942774 0.13670790 0.46335739 166 168 159
0.39913732 0.13633515 0.46209395 163 164 158
0.39966357 0.13624227 0.46177918 161 161 156
0.40100807 0.13642815 0.46240917 158 158 154
0.40235621 0.13661452 0.46304089 153 154 151
0.40260655 0.13642815 0.46240917 148 149 147
0.40313077 0.13633515 0.46209395 145 147 145
0.60287428 0.17905430 0.60688615 149 151 147
0.60069656 0.17809765 0.60364366 151 152 148
0.60227627 0.17825638 0.60418171 152 153 149
0.60171169 0.17778103 0.60257053 154 155 150
0.60061765 0.17715116 0.60043561 154 155 148
0.60059148 0.17683789 0.59937388 156 157 150
0.60215986 0.17699438 0.59990430 157 158 151
0.60319674 0.17699438 0.59990430 158 159 152
0.60423362 0.17699438 0.59990430 159 160 153
0.60048789 0.17559583 0.59516406 159 160 155
0.59784240 0.17452326 0.59152865 157 159 155
0.59886479 0.17452326 0.59152865 153 154 151
0.59988719 0.17452326 0.59152865 146 149 147
0.59829926 0.17376512 0.58895904 145 148 147
1.12802613 0.29499066 0.99984050 158 159 154
1.12148368 0.29283112 0.99252099 159 160 155
0.67876101 0.16920784 0.57351255 153 154 152
0.67688894 0.16849507 0.57109678 154 155 153
0.67787606 0.16849507 0.57109678 154 155 153
0.68166298 0.16821165 0.57013613 155 156 152
0.68150204 0.16792919 0.56917870 157 158 154
0.68248582 0.16792919 0.56917870 154 155 151
0.68346959 0.16792919 0.56917870 152 153 150
-0.00784048 0.14535791 0.48980623 187 186 184
-0.00699895 0.14546300 0.49016041 175 174 172
-0.00614730 0.14535791 0.48980623 159 159 157
-0.00530071 0.14535791 0.48980623 124 124 125
-0.00445091 0.14525296 0.48945260 119 119 121
-0.00359973 0.14504351 0.48874682 125 124 127
-0.00275497 0.14504351 0.48874682 130 128 130
-0.00191297 0.14525296 0.48945260 139 137 138
-0.00106622 0.14514816 0.48909944 149 147 145
-0.00022069 0.14504351 0.48874682 157 155 150
0.00062407 0.14504351 0.48874682 154 152 149
0.00514102 0.18627347 0.62767762 156 156 154
0.00622591 0.18627347 0.62767762 155 154 153
0.00730404 0.18610115 0.62709701 152 152 150
0.00836471 0.18558611 0.62536150 147 147 145
