ply
format ascii 1.0
element vertex 1058
property float x
property float y
property float z
property uchar red
property uchar green
property uchar blue
end_header
-1.00133836 0.09131066 1.94238353 180 180 180
-0.98292959 0.07686374 1.95922494 179 188 187
-0.99050504 0.09829554 1.91494870 165 161 164
-0.98930918 0.09352787 1.93201728 176 176 176
-0.98205410 0.08664483 1.95078808 172 174 175
-0.98281682 0.10218350 1.92584461 169 168 167
-0.97166725 0.07750602 1.95118214 155 162 164
-0.97726566 0.09829554 1.91494870 188 187 185
-0.97141025 0.09532703 1.93096876 176 176 177
-0.97067816 0.08948559 1.94437692 158 159 160
-0.96680196 0.11219964 1.91225538 172 172 172
-0.96842771 0.10815194 1.92547990 169 168 169
-0.97181833 0.10691561 1.94377890 176 176 180
-0.95558304 0.07743375 1.93133146 148 149 155
-0.94562130 0.09228433 1.91386986 167 171 173
-0.95432596 0.09173295 1.92766315 166 168 170
-0.76232934 -0.28435292 1.41699948 188 189 189
-0.76640191 -0.28449024 1.42414707 189 190 190
-0.76469573 -0.27534703 1.41729556 190 191 191
-0.76590094 -0.27697969 1.42414388 190 191 191
-0.75067898 -0.28620636 1.41603501 188 192 191
-0.75212820 -0.28517120 1.42329126 187 191 190
-0.75302052 -0.26656679 1.41314432 191 192 192
-0.75260609 -0.27581233 1.42479757 186 189 189
-0.75021861 -0.25787166 1.40350282 192 193 193
-0.73872244 -0.28817502 1.40933859 186 190 189
-0.50264142 0.00833044 0.79908689 182 181 181
-0.50480190 0.01506810 0.80263835 172 172 170
-0.50509883 0.03040954 0.79504270 172 173 174
-0.50521031 0.02351979 0.80253090 172 172 172
-0.49865204 0.01377659 0.79940075 175 173 173
-0.49712474 0.01347790 0.80076101 165 164 165
-0.49381379 0.02508573 0.79553229 178 179 180
-0.49870632 0.02067807 0.80034459 183 184 184
-0.46130818 0.01271169 0.62400262 162 163 161
-0.46158816 0.03420849 0.62431610 172 175 173
-0.46114119 0.04279260 0.63036699 170 171 172
-0.45860200 0.01728541 0.62129303 164 167 167
-0.45616485 0.03390938 0.62614393 170 173 174
-0.45674253 0.04212724 0.63084187 172 177 177
-0.44234341 0.31634135 1.11532466 174 177 177
-0.44593844 0.31896457 1.12048233 176 179 178
-0.44678910 0.33258577 1.13223270 175 176 176
-0.45616910 0.33769275 1.14123201 163 164 164
-0.42268585 0.11256235 0.83190155 181 180 180
-0.42203615 0.29588444 1.10480978 159 160 162
-0.42580376 0.30229988 1.09655912 162 161 162
-0.42743936 0.31070433 1.10519908 167 168 168
-0.42901885 0.32177268 1.11477543 166 167 168
-0.43396330 0.32871785 1.12533225 169 169 170
-0.41399163 0.11363702 0.82987738 178 179 180
-0.40499666 0.12152456 0.82428904 179 179 178
-0.41570109 0.29601321 1.10926612 174 174 174
-0.41495183 0.29959795 1.12048233 172 172 172
-0.41460318 0.30698216 1.10791452 174 174 175
-0.41048653 0.30574592 1.12350309 178 178 177
-0.41923374 0.32019171 1.11129808 164 165 169
-0.39942053 0.11985397 0.81870997 182 181 179
-0.39893872 0.12112276 0.81772238 174 173 173
-0.38195974 0.22978612 1.35524898 120 109 124
-0.38348150 0.23261023 1.37053068 122 106 125
-0.38707105 0.22887128 1.38995096 133 130 138
-0.38917902 0.22776154 1.40827405 135 135 141
-0.39694697 0.22817759 1.42414248 136 135 142
-0.38801241 0.24169911 1.37503421 123 101 124
-0.38663154 0.24382904 1.38714573 123 102 122
-0.38995944 0.25329849 1.40955944 129 119 132
-0.39065850 0.25680645 1.42364699 131 125 134
-0.39100527 0.26174247 1.41596633 136 132 140
-0.39203399 0.26240822 1.42671781 136 132 140
-0.36463211 0.19763548 0.89759712 162 161 163
-0.36577878 0.19350137 0.90362659 169 170 173
-0.36509240 0.20161967 0.89594278 172 174 177
-0.36654367 0.22786922 1.33575916 129 99 125
-0.36768544 0.23048374 1.35275806 131 115 134
-0.36590458 0.22916320 1.37074003 135 126 137
-0.37418193 0.22845518 1.38895737 135 129 138
-0.37906492 0.22487067 1.40350282 135 134 141
-0.36383171 0.24241779 1.37573570 135 131 141
-0.36858872 0.25013669 1.38996092 134 131 138
-0.37867332 0.25493130 1.40205288 134 134 139
-0.36260608 0.37596612 0.91607255 161 161 160
-0.36310520 0.37925001 0.92440522 167 168 167
-0.36447906 0.38107145 0.91979897 161 161 160
-0.36263027 0.38609870 0.92748519 158 158 157
-0.34726835 0.19617133 0.89723950 171 172 173
-0.35182914 0.19242989 0.90195936 175 176 179
-0.34865832 0.20074601 0.89549780 170 169 166
-0.34274310 0.21839675 1.35578370 138 136 139
-0.35109352 0.21766508 1.36775979 137 136 139
-0.35182559 0.23183633 1.35518775 138 132 140
-0.35041152 0.23017548 1.36886673 137 134 142
-0.35151002 0.24158714 1.37169850 131 131 138
-0.35440167 0.24668464 1.38298698 127 127 133
-0.35849690 0.38721951 0.91554882 150 148 149
-0.35055797 0.39309761 0.92908598 157 156 155
-0.34434792 0.40622289 0.93136793 157 157 156
-0.34006581 0.40740383 0.94021058 178 178 179
-0.33787654 0.21869364 1.35038221 138 137 140
-0.33696911 0.22841068 1.35612468 138 135 140
-0.33823764 0.23064558 1.36122859 137 135 139
-0.33344758 0.39525372 0.93366730 156 154 156
-0.32797498 0.39875948 0.94282591 165 165 167
-0.33695429 0.40428376 0.93609100 163 163 164
-0.33023598 0.40311331 0.94348614 151 150 151
-0.31454654 0.25914872 0.89620851 174 170 171
-0.30742898 0.26887121 0.88786716 157 159 163
-0.29507498 0.25676217 0.87282340 177 177 178
-0.29868142 0.26725863 0.87881045 169 169 171
-0.29669695 0.26880182 0.88393311 165 166 166
-0.28003609 0.74332148 1.99379957 147 147 149
-0.26125242 -0.24309456 1.05509031 192 192 193
-0.26152894 -0.25160145 1.06683363 193 193 195
-0.26369074 -0.23030304 1.04757107 191 192 194
-0.26202474 0.03502488 1.39771509 178 177 184
-0.26208195 0.02831893 1.40060294 183 184 187
-0.26508703 0.04981688 1.39730425 170 169 171
-0.26254108 0.04942464 1.40176289 177 175 179
-0.26179542 0.09946928 0.45966575 140 141 143
-0.26179897 0.10196631 0.45946323 154 154 152
-0.26385626 0.10490014 0.46083742 146 146 146
-0.26003870 0.19320497 1.05755353 136 135 135
-0.26170399 0.20738345 1.06308327 131 131 133
-0.27417082 0.73682016 1.97636104 153 152 152
-0.27578121 0.73598894 1.98796976 159 158 158
-0.27921486 0.74457771 1.98795259 151 152 152
-0.25336848 -0.24285375 1.05667811 193 193 193
-0.25517680 -0.25109863 1.06580592 192 193 194
-0.25274030 -0.23237938 1.04975071 190 191 192
-0.24395147 0.01525046 1.39555962 166 163 166
-0.24271531 0.01621478 1.40060294 165 158 162
-0.25031135 0.02659033 1.39460147 177 177 179
-0.24579731 0.03059964 1.40883015 177 176 177
-0.25749015 0.04592228 1.39611736 178 177 182
-0.25153025 0.04810864 1.40758798 173 172 176
-0.25543886 0.09883832 0.45899148 165 162 164
-0.25435747 0.10342952 0.45874227 164 163 160
-0.24835517 0.19309362 1.05242007 134 133 135
-0.24740609 0.19931053 1.06086361 133 133 135
-0.24761845 0.20512796 1.05828884 129 128 131
-0.25156932 0.20700234 1.06469652 128 126 129
-0.23905993 0.01493099 1.39340711 169 167 166
-0.23833820 0.02175906 1.39388446 180 180 179
-0.23507988 0.02712382 1.40978501 172 172 174
-0.23670013 0.03245438 1.42264968 175 175 178
-0.22871522 0.08581551 0.46341717 174 176 176
-0.23486654 0.19058654 1.04859993 135 134 138
-0.23884921 0.20114414 1.06086361 134 134 138
-0.20288007 -0.06231519 0.59690706 189 190 192
-0.20234403 -0.05731455 0.59422688 183 184 188
-0.19378167 -0.06310687 0.59599334 185 185 187
-0.18689053 -0.04124461 0.54478484 174 174 176
-0.19418642 -0.05796708 0.59397989 182 183 184
-0.18793804 -0.03743622 0.54344227 179 180 180
-0.18311177 0.90707004 1.88303292 0 0 0
-0.19503465 0.94925940 1.97061586 0 0 0
-0.16768799 -0.20366063 0.47465680 195 196 197
-0.16892048 -0.19629051 0.47491732 191 192 191
-0.17945042 -0.03762956 0.54405454 174 178 178
-0.14334194 -0.25004992 0.79896617 192 191 189
-0.14770650 -0.25226476 0.80187770 189 188 187
-0.14248365 0.41294358 1.21835594 152 147 149
-0.14420327 0.41255154 1.22222846 165 147 155
-0.14306927 0.42145559 1.21616859 155 152 155
-0.13244593 -0.25172054 0.79848810 189 189 188
-0.13180350 -0.25246497 0.80050225 188 187 186
-0.12088709 -0.22375844 0.57206064 195 195 194
-0.12125098 -0.21953569 0.57222170 196 198 197
-0.12205916 -0.06135202 0.45546015 187 188 190
-0.12132764 -0.05603271 0.45463567 186 187 189
-0.12887812 0.39792958 1.20728832 154 152 152
-0.12820835 0.40916560 1.21573415 164 150 154
-0.13534018 0.41428906 1.22230864 172 151 158
-0.13132113 0.42401813 1.21394792 154 152 154
-0.13723625 0.42068731 1.22289658 162 155 158
-0.11469160 -0.22270069 0.57253382 194 195 193
-0.11397864 -0.21732057 0.57182929 193 194 191
-0.11838145 -0.06100736 0.45581807 190 190 192
-0.11731183 -0.05444178 0.45532773 184 184 186
-0.10112326 -0.04088495 0.63413644 188 187 189
-0.10201431 -0.03433195 0.63371701 180 181 185
-0.11097077 0.16994447 0.67585095 126 119 117
-0.11500424 0.18393276 0.67778096 125 118 116
-0.11459922 0.39961177 1.19980860 174 153 162
-0.11006208 0.40026864 1.19557643 176 149 159
-0.11535626 0.40610575 1.20772248 164 146 153
-0.09934006 -0.04082767 0.63324800 170 170 171
-0.09445185 -0.03249614 0.63370664 181 181 184
-0.04524163 -0.44729191 0.94648539 196 197 197
-0.04748422 -0.43728391 0.94665339 195 196 195
-0.03769101 -0.44864425 0.95180115 191 192 192
-0.03827916 -0.43987736 0.95209527 196 197 196
-0.02028658 0.17964548 0.46462771 155 154 153
-0.02047693 0.18135929 0.46438904 153 155 155
-0.01587235 0.17560248 0.46547459 152 152 152
-0.01646192 0.18196433 0.46585531 150 151 152
-0.00130184 0.23634230 0.81136173 149 140 140
0.00686010 0.03564542 0.64742332 169 104 130
0.00755377 0.04482082 0.64764755 167 100 125
0.00884792 0.23331377 0.81608377 150 145 142
0.01594217 0.23787968 0.82069230 159 158 156
0.01228860 0.24260372 0.81328329 159 154 153
0.02851856 -0.02534007 0.63306688 175 174 175
0.03129015 -0.01738966 0.63457975 175 173 174
0.03092113 0.10741052 0.91793282 168 116 136
0.02937894 0.11439777 0.92311910 165 123 142
0.02567787 0.13100503 0.45182441 160 157 158
0.03297043 0.12431907 0.91979897 167 123 141
0.03692887 0.12965725 0.92446952 166 117 135
0.03911815 0.14110080 0.92734861 164 121 136
0.03917500 0.32625219 0.95477724 145 145 143
0.05657400 -0.48493929 1.30867414 187 185 185
0.05978873 -0.46577004 1.29368675 191 191 191
0.05692249 -0.47657125 1.30489403 194 194 192
0.05684258 -0.16222022 0.49793259 185 184 184
0.04720410 -0.16175886 0.50416293 189 188 189
0.05680877 -0.15915106 0.49771870 190 190 190
0.04723303 -0.15799049 0.50336650 189 189 189
0.05939691 0.11910431 0.46393878 156 156 153
0.05916220 0.12348776 0.46419610 161 154 153
0.04273435 0.13123559 0.92586798 164 113 131
0.05457679 0.15751142 0.89609633 161 111 131
0.04780239 0.15150891 0.90867322 165 114 134
0.04305853 0.14145999 0.92482384 163 121 137
0.05950475 0.16331387 0.57220112 167 139 147
0.05620149 0.16315020 0.89727772 166 118 138
0.05228554 0.16878834 0.90846554 161 121 137
0.04775202 0.17656381 0.92280649 157 148 159
0.04978670 0.31190251 0.95017747 154 154 155
0.05304950 0.30704069 0.96703541 153 152 155
0.05472692 0.32392595 0.93847551 91 92 100
0.04983328 0.32378123 0.94935884 130 129 133
0.04105656 0.32312182 0.96018672 156 155 155
0.07462914 -0.50218612 1.31885576 196 196 196
0.07263222 -0.50185937 1.32400751 188 187 186
0.06968927 -0.48826227 1.31312560 190 190 190
0.07249064 -0.49859709 1.32142663 187 186 184
0.06975250 -0.46776070 1.29751557 193 192 192
0.06928436 -0.47437061 1.30404428 191 191 191
0.07719715 -0.22290927 1.09632360 171 170 174
0.07875642 -0.22755590 1.10047376 179 179 180
0.07449477 -0.20990922 1.09047423 183 181 181
0.07287487 -0.19903536 1.08840140 175 173 172
0.06079830 -0.16313113 0.49726169 184 182 183
0.06075002 -0.15827764 0.49686678 181 180 180
0.06404514 0.11921655 0.46700030 154 152 150
0.06619326 0.12661992 0.46607223 148 145 145
0.06670975 0.15925356 0.56981699 164 129 139
0.06843882 0.16532426 0.57279468 155 145 147
0.07157396 0.21855035 0.89235571 162 122 137
0.07406947 0.22722782 0.89464467 158 122 137
0.07165254 0.23422914 0.90524444 157 147 154
0.07400703 0.24324356 0.91324555 160 150 156
0.07398470 0.25389933 0.92847669 160 159 163
0.07876743 0.26213178 0.93502501 160 159 163
0.07906613 0.26847602 0.94502797 162 161 165
0.06028866 0.31786039 0.94942838 157 158 160
0.06076640 0.32368610 0.94727428 146 146 151
0.07679069 0.37962127 1.00428426 151 151 152
0.07334759 0.39736624 0.99930503 127 127 128
0.07389356 0.39143926 1.00789067 149 147 145
0.07213055 0.40083943 0.99984050 114 114 118
0.07166019 0.40388333 1.00131738 117 117 126
0.08396055 -0.22475056 1.09753148 184 184 184
0.08292182 -0.21191321 1.09398736 179 178 177
0.08874897 0.23395449 0.89455791 162 108 126
0.08525844 0.23900655 0.90115345 166 108 129
0.08670573 0.24627030 0.89387036 165 115 131
0.08463771 0.24557366 0.90285606 166 115 135
0.08038339 0.26455432 0.93502325 163 159 162
0.08755470 0.37911052 0.99836797 152 151 151
0.08503096 0.38801979 0.99910532 144 144 145
0.08313915 0.38894235 1.00707559 142 141 141
0.11135255 0.25942570 0.63952059 138 138 138
0.11494530 0.25795767 0.64251445 132 131 132
0.11382123 0.26414387 0.63281471 14 14 14
0.11800049 0.26267887 0.64362921 128 127 126
0.12296977 0.25870734 0.64485239 134 133 133
0.12583696 0.26515011 0.64701127 101 100 98
0.15829680 -0.10649741 0.94934134 173 171 170
0.15837831 -0.09872586 0.94721895 177 176 176
0.17606886 -0.14034767 0.47218163 137 124 127
0.17141597 -0.13298413 0.46978009 128 124 127
0.17970985 -0.12220208 0.93890840 176 176 176
0.17535851 -0.12095755 0.94612224 175 175 175
0.17704634 -0.10792749 0.93671456 172 171 171
0.16977740 -0.10956139 0.94615613 172 169 171
0.17064222 -0.09190640 0.93639568 179 178 180
0.16727070 -0.09313608 0.94317308 181 181 182
0.18020904 -0.12091419 0.94151646 169 169 169
0.18322272 -0.10904688 0.93590884 170 170 169
0.18211405 -0.09821767 0.93459394 155 155 156
0.18466592 0.87452334 1.88303292 0 0 0
0.18984897 0.91519886 1.97061586 0 0 0
0.21691491 -0.24138658 0.53424642 43 44 61
0.21545224 -0.23276045 0.53498826 52 53 75
0.21406838 -0.22845457 0.54354796 72 74 94
0.21312815 -0.21571928 0.53657045 65 71 98
0.21253352 -0.21811457 0.54136225 81 86 106
0.22066135 -0.23200878 0.53565308 73 75 93
0.25980437 -0.31444573 0.76990041 73 83 111
0.26624789 -0.32412997 0.77098301 67 72 98
0.26585793 -0.31107755 0.77266999 68 76 110
0.26224820 -0.29943201 0.77120866 153 167 193
0.27385435 0.29651624 0.81114262 100 101 100
0.26999483 0.29591810 0.82232453 98 98 96
0.27654350 0.30447463 0.80811046 116 114 112
0.26733989 0.30065812 0.82168829 97 94 93
0.29400833 0.09873151 0.50653905 102 103 106
0.29794430 0.10401530 0.51015208 99 98 100
0.28723635 0.29813359 0.80648392 96 94 94
0.28195943 0.29231369 0.82152170 72 73 73
0.28520262 0.30420728 0.80541868 112 108 107
0.31481710 -0.26417261 0.46793066 63 67 77
0.31075507 -0.25765974 0.46789090 56 60 78
0.30432765 0.09657435 0.50500476 55 53 69
0.30762520 0.10551775 0.51258705 63 61 69
0.31523054 0.11544077 0.52898013 69 68 73
0.31567880 0.12237070 0.53323013 90 89 91
0.32934455 0.08540066 0.57537423 74 73 79
0.33210586 0.08215951 0.58148304 77 74 79
0.32006201 0.11937528 0.53251517 61 60 69
0.32314265 0.12226279 0.53536340 61 61 71
0.33014788 0.13572217 0.55443992 93 92 94
0.32836387 0.14164831 0.55470571 91 90 94
0.35801829 0.35711317 0.96910962 92 91 90
0.37685494 -0.24801965 0.59796875 93 93 95
0.37883160 -0.25235918 0.60257338 91 92 96
0.36808198 0.33386867 0.95609892 82 78 80
0.36673040 0.34427421 0.95603848 84 84 84
0.36896898 0.35620002 0.96598513 94 94 94
0.37047037 0.36121307 0.96688390 102 99 98
0.39440070 -0.34196960 0.87767375 68 68 73
0.39046381 -0.34377377 0.88850415 85 86 92
0.39364398 -0.33272322 0.87417004 55 55 61
0.38993549 -0.33774019 0.88821371 84 85 91
0.38363254 -0.26338613 0.60282348 92 93 96
0.38249984 -0.25018580 0.59837075 92 92 94
0.38398516 -0.25620173 0.60176503 90 91 96
0.39322311 0.31244394 1.04748044 35 33 35
0.39008135 0.31849563 1.06086361 39 38 40
0.39584368 0.32214244 1.05181279 38 38 40
0.40130143 -0.34064874 0.87866771 43 41 48
0.40379643 -0.34503416 0.88455113 46 45 52
0.40161392 -0.33782284 0.87658658 42 42 50
0.41671726 0.29953461 1.05865518 32 32 34
0.40891906 0.30897590 1.05149395 31 28 30
0.41442060 0.30387388 1.06531342 30 29 31
0.40668883 0.32595775 1.05755614 35 34 35
0.40934483 0.32636667 1.06148714 35 34 36
0.43835603 0.09400679 0.69428191 38 37 46
0.43936710 0.09464667 0.70117232 36 36 46
0.42884192 0.11808339 0.67654917 38 36 53
0.43554484 0.10665194 0.68988438 37 36 49
0.42969776 0.12320002 0.67755815 38 39 52
0.43373003 0.13351214 0.69225152 43 44 62
0.43301213 0.13156965 0.70030147 48 50 67
0.43381235 0.14102821 0.69182381 43 46 63
0.42132603 0.30362353 1.06336039 31 32 34
0.45991266 -0.19542366 0.61347675 74 73 76
0.45955698 -0.02090711 0.58858742 95 52 60
0.45870132 -0.01903422 0.58960844 95 51 58
0.44012102 0.09013622 0.69813782 37 37 47
0.44075926 0.09248097 0.70568230 35 36 46
0.44011495 0.10017099 0.69243294 40 39 48
0.44750959 0.13461356 0.69296039 35 35 49
0.46802502 -0.20471527 0.61842710 71 71 74
0.47005613 -0.21163398 0.62508812 71 73 77
0.46470269 -0.19720125 0.61610439 72 72 75
0.46324188 -0.19989607 0.62078005 74 74 77
0.47525842 -0.10613726 0.46621045 46 46 51
0.47889518 -0.07235966 0.71439922 121 136 150
0.47860429 -0.06185579 0.73526494 104 112 127
0.47948417 -0.06444821 0.74127069 123 132 144
0.47170356 -0.05380286 0.72958538 98 104 121
0.46801797 -0.02881747 0.59327874 92 51 62
0.47872182 -0.03564083 0.60114568 83 51 61
0.46021870 -0.01975175 0.59204525 93 51 59
0.47696728 0.11908845 0.79471493 54 53 65
0.47829195 0.12932187 0.79419877 53 52 70
0.47959282 0.12349837 0.80255646 54 54 69
0.48405256 -0.11217060 0.47175852 45 45 50
0.48818235 -0.08186106 0.73448081 120 133 148
0.49064615 -0.08229288 0.74836809 135 149 163
0.48502979 -0.07120986 0.73397954 113 123 140
0.48598123 -0.07325372 0.74522872 128 139 153
0.48052603 -0.05770616 0.73697463 94 97 116
0.48136356 -0.03621687 0.59695034 113 50 63
0.49750143 -0.03477636 0.64793311 105 110 126
0.49457577 -0.02863195 0.67054044 131 147 155
0.49692136 0.07749534 0.81969994 36 35 51
0.49870701 0.08799354 0.51194108 98 36 45
0.49297750 0.09395414 0.81088237 40 41 57
0.49861125 0.08984993 0.82248751 40 40 55
0.48404473 0.11964952 0.79845917 49 48 64
0.48222312 0.13225266 0.79217592 48 48 67
0.48378609 0.12445211 0.80218115 50 50 67
0.48275261 0.14228584 0.79439847 51 50 68
0.48502995 0.14413831 0.80160745 53 52 69
0.50477701 -0.04015792 0.65814739 127 138 151
0.50976807 -0.04073896 0.66767017 133 144 161
0.51780798 -0.04084967 0.69713465 137 152 164
0.51845113 -0.04132011 0.70441885 137 153 163
0.50226072 -0.03430764 0.65644276 112 120 134
0.50615533 -0.03533891 0.66644097 127 136 151
0.50947041 -0.03399444 0.69238188 128 144 155
0.51322234 -0.03391155 0.70737885 112 125 133
0.51736799 -0.03188935 0.72348006 66 72 80
0.50465798 0.07892691 0.83484215 36 35 52
0.51441479 0.06641479 0.85342276 37 38 50
0.51986080 0.06215877 0.86245781 39 38 47
0.50116690 0.08820334 0.51583198 96 36 45
0.50451259 0.08656566 0.52664455 76 34 40
0.50565649 0.09124853 0.83632535 40 40 57
0.51338046 0.09071922 0.85170678 41 41 58
0.51462293 0.10137555 0.85376805 42 44 63
0.52514065 -0.04201107 0.69727219 135 151 169
0.52749548 -0.04574411 0.70608344 137 153 165
0.53553625 -0.04143190 0.74908097 97 106 118
0.52096617 -0.03981560 0.69172639 137 150 168
0.52514462 -0.03598841 0.73343676 88 95 105
0.53161325 -0.03562203 0.75001751 61 65 80
0.53783203 -0.03346944 0.76339755 62 65 80
0.52344784 0.05624907 0.87381061 35 36 52
0.52943270 0.05254500 0.88523067 36 36 52
0.52256535 0.06407749 0.87012700 37 37 49
0.53115240 0.06977613 0.88784631 37 37 53
0.53778189 0.07209608 0.90097371 38 39 52
0.53482586 0.09570291 0.56947944 44 29 31
0.52153653 0.08954215 0.86772601 41 40 59
0.53005679 0.08973076 0.88444539 42 41 59
0.53897784 0.08620327 0.90193207 42 40 59
0.53611803 0.10202062 0.57282467 37 29 31
0.52403742 0.10126697 0.87188697 43 44 64
0.53141582 0.10145637 0.88671306 44 44 64
0.53845572 0.51264429 1.85723794 31 28 32
0.53872802 0.51236289 1.86453896 32 30 34
0.53801049 0.52819879 1.86889050 34 33 35
0.53691700 0.53515694 1.88565552 36 36 39
0.53725152 0.54588492 1.86821571 37 36 39
0.53691700 0.54167083 1.88565552 38 37 41
0.54149365 -0.04308683 0.75996846 93 101 111
0.54370674 -0.04201752 0.76997091 66 70 83
0.54690278 -0.04234616 0.78874969 76 82 97
0.55155548 -0.04099482 0.80943725 113 125 139
0.54353396 -0.03216523 0.77405492 70 74 89
0.54457372 -0.03708691 0.78912800 93 101 116
0.55415328 -0.03007722 0.81067386 121 132 142
0.55940077 -0.03064649 0.82268671 121 133 142
0.55431798 -0.01552274 0.81285184 116 128 140
0.54330779 0.07204713 0.91211123 39 38 55
0.55205358 0.07335060 0.93023827 40 38 56
0.55775180 0.07843561 0.94151825 40 40 60
0.54082215 0.09916324 0.57545996 37 30 32
0.54514762 0.08468742 0.91432028 42 40 59
0.55347137 0.08907950 0.93281411 45 43 62
0.55850795 0.09042253 0.94348432 45 43 63
0.54293049 0.10385073 0.57650608 36 30 32
0.54804136 0.10761345 0.58171562 36 29 32
0.54166579 0.51264429 1.85723794 31 29 32
0.55135319 0.50998944 1.86943231 34 33 36
0.55015114 0.53098236 1.87175075 33 32 34
0.55009628 0.54732208 1.87052418 39 38 39
0.56322493 -0.03004652 0.83060435 118 131 140
0.57392770 0.03294456 1.01938617 48 51 71
0.57539377 0.05641510 1.02668172 59 57 74
0.57907099 0.05525085 1.04130852 61 61 73
0.56634915 0.07821929 0.95882863 41 40 62
0.57503010 0.06253137 1.02448825 59 59 71
0.56262178 0.08651786 0.95151150 43 42 63
0.56715131 0.08330890 0.96018672 42 43 65
0.57231805 0.19309321 0.71867692 17 17 30
0.57344366 0.19010627 0.72738550 22 23 37
0.57509017 0.20105506 0.72657619 17 17 27
0.56599669 0.51209215 1.87134686 34 34 37
0.56546229 0.50511834 1.88303292 32 32 36
0.56561157 0.53128357 1.87616626 34 34 36
0.57685363 0.53115570 1.88303292 34 34 37
0.56716428 0.54798254 1.87587152 33 32 34
0.57664708 0.55006350 1.88368857 34 34 36
0.57683307 0.56363600 1.88829279 44 43 43
0.58297823 0.03356620 1.03864992 48 50 71
0.58837094 0.03523249 1.05011650 50 51 72
0.59619879 0.03287106 1.06713715 50 52 72
0.58097541 0.05849249 1.01938617 50 51 67
0.58538795 0.05306059 1.03230791 50 52 69
0.58667228 0.04842224 1.04814448 56 55 72
0.59551798 0.04279633 1.06756604 54 54 76
0.58097541 0.06113538 1.01938617 51 54 70
0.58070497 0.06424031 1.02543469 56 57 71
0.58254585 0.53515694 1.88565552 36 35 38
0.59001298 0.54770420 1.89455827 38 37 39
0.59724920 0.55023513 1.90717051 40 39 41
0.58116186 0.56465195 1.89532069 42 41 42
0.59653011 0.56009007 1.90955448 43 42 42
0.59825030 0.56492302 1.92037344 44 43 44
0.61561676 -0.28524730 0.53789647 116 126 133
0.61359152 -0.28717731 0.54228228 96 103 109
0.60731743 -0.27853107 0.53712894 63 66 76
0.60071027 0.02828720 1.07687414 50 52 73
0.60188919 0.04443946 1.06252635 50 51 70
0.60303426 0.54710627 1.89885676 39 38 41
0.60363110 0.55522555 1.90419054 44 43 44
0.60481215 0.57051839 1.91255127 44 43 46
0.60961956 0.57575124 1.93011387 43 42 44
0.60979962 0.58153129 1.91494870 47 47 49
0.62108522 -0.28324994 0.53794987 172 182 178
0.66318890 0.19138430 1.15706092 96 91 93
0.66642734 0.19787004 1.16578573 101 100 101
0.66830599 0.20266371 1.16731721 108 107 109
0.67707631 0.20383685 1.19320030 112 112 114
0.67565374 0.20439005 1.20624391 118 118 119
0.67698773 0.22990413 1.20568050 92 90 93
0.68112695 0.20967716 1.19874871 121 120 121
0.68376913 0.21207244 1.21219907 112 112 113
0.68512112 0.21322692 1.22631414 108 108 109
0.68465877 0.22524855 1.21367716 100 99 101
0.68255572 0.22723855 1.22502445 94 93 98
0.71466670 0.13486976 1.23099577 58 56 71
0.71898696 0.13359447 1.24269915 59 58 71
0.70835137 0.14556245 1.21704495 59 57 76
0.71366594 0.14764806 1.22892506 58 57 73
0.71898696 0.14541286 1.24269915 59 57 72
0.71523410 0.16339207 1.23253059 59 57 67
0.71342617 0.43825114 1.53022993 36 36 38
0.71782548 0.43255340 1.54770150 43 42 47
0.71765705 0.44359929 1.54888960 36 35 38
0.71655111 0.47638458 1.65339753 28 26 30
0.71607494 0.47701538 1.66558194 28 27 30
0.71830285 0.48327702 1.65743732 30 28 31
0.71839881 0.48336872 1.66764322 29 26 29
0.73870549 -0.20673530 0.63450160 31 31 52
0.73989481 -0.20833793 0.64012450 36 36 61
0.72430052 0.12808643 1.25188318 57 55 73
0.73127541 0.13185731 1.26842060 59 58 73
0.73698241 0.13443996 1.28145909 61 60 73
0.72363296 0.15608155 1.25072935 59 58 70
0.72947158 0.14911316 1.26498122 59 57 70
0.73113525 0.15887912 1.31885576 124 124 127
0.73729859 0.15882003 1.32791957 117 117 121
0.73866761 0.15970671 1.34502351 118 120 128
0.72631186 0.16425264 1.25535959 59 57 65
0.73572105 0.16356925 1.27543259 59 58 65
0.73639037 0.16886778 1.33175029 123 124 127
0.73750585 0.16203211 1.34502882 126 126 132
0.73341483 0.18851307 1.31885576 106 106 108
0.73665755 0.18503144 1.32988117 110 111 113
0.73506700 0.18822017 1.34609523 120 120 122
0.72455703 0.43270773 1.57011274 43 43 49
0.72884336 0.43635765 1.58684080 41 40 46
0.73296672 0.43993288 1.61402822 39 38 45
0.72115964 0.44631094 1.55837202 35 34 36
0.72514421 0.44772431 1.57284337 36 35 39
0.73206364 0.45009732 1.59086239 37 35 39
0.73569134 0.44791331 1.60693683 38 36 41
0.73647374 0.44764394 1.62175083 40 38 42
0.73157877 0.46065316 1.59880149 30 29 33
0.73147984 0.46807370 1.61076030 31 30 33
0.73414956 0.47626219 1.62695503 32 30 34
0.73251368 0.47679558 1.65287274 30 27 30
0.72948124 0.48335775 1.65040204 33 32 35
0.72261505 0.49148575 1.67072517 30 29 31
0.72642815 0.49333494 1.69194011 28 25 28
0.73411208 0.50378758 1.70753610 28 27 29
0.75519931 -0.51175157 0.97369203 33 34 48
0.75565580 -0.48832007 0.95511864 36 38 50
0.75010841 -0.22246335 0.63712105 17 17 26
0.75230016 -0.22412244 0.64828850 27 26 41
0.74486327 -0.20807618 0.63453182 26 25 42
0.74822326 -0.21419800 0.64508905 32 31 52
0.74456419 -0.19966739 0.63281287 28 28 52
0.74402553 0.13236639 1.29370558 60 58 77
0.74965060 0.13602777 1.30741557 61 59 73
0.75916409 0.13203846 1.32400751 61 60 77
0.74373235 0.15132182 1.29319580 61 57 67
0.75230218 0.15177146 1.31154975 59 55 66
0.74376680 0.15782822 1.32920309 104 105 107
0.75959051 0.15970671 1.34502351 84 73 79
0.75025016 0.15959860 1.36396754 119 119 128
0.74482930 0.17117263 1.29122257 60 56 66
0.75022037 0.16729808 1.30447702 59 56 64
0.75067295 0.17107901 1.33132042 92 90 93
0.75329794 0.16234946 1.34774033 88 85 90
0.74837655 0.16757289 1.37133412 127 128 136
0.75512871 0.16728068 1.38458669 105 106 111
0.74001348 0.18044813 1.32659853 115 116 118
0.74297735 0.19750301 1.35714221 100 99 104
0.74544042 0.19319168 1.36813140 127 126 129
0.75499004 0.19774637 1.38345277 125 124 130
0.74059892 0.45450684 1.60637879 37 36 39
0.74237905 0.45303540 1.62858960 38 35 39
0.74642764 0.45609636 1.64618087 36 33 38
0.74310517 0.46055746 1.61788034 33 32 36
0.74513985 0.46655143 1.63151577 31 30 33
0.74689584 0.47075563 1.65147520 29 26 30
0.74701628 0.46812725 1.66468147 29 25 29
0.75516373 0.47012043 1.68211377 30 26 31
0.74046469 0.48235069 1.64937186 34 32 36
0.76584971 -0.52306920 0.98962313 32 32 46
0.76962547 -0.50282464 0.97633437 38 37 50
0.77141759 -0.50739441 0.99321750 41 41 56
0.77143824 -0.50588584 1.00131738 50 52 65
0.77140652 -0.49355575 0.97609274 40 41 57
0.77657102 -0.49289097 0.98316592 43 44 62
0.77018096 -0.24143946 0.65612531 13 13 21
0.77435774 -0.24449229 0.66006994 15 14 22
0.76641160 -0.23160435 0.65323004 17 16 25
0.77548218 -0.23719904 0.66200376 16 15 24
0.76223538 -0.21820483 0.64973672 25 23 35
0.76590231 0.12974387 1.33575916 59 60 74
0.77145352 0.12911073 1.34950868 59 57 74
0.76471831 0.14959226 1.33772668 61 57 68
0.76566726 0.15864101 1.35578370 82 75 81
0.77558231 0.15889740 1.36812025 73 65 72
0.77970189 0.15677625 1.38063514 73 68 74
0.76250498 0.17174291 1.33552137 67 63 70
0.76449817 0.16324274 1.34547716 72 68 74
0.77813530 0.16024344 1.36947846 71 62 71
0.78247129 -0.50592138 0.99729474 41 42 58
0.78595701 -0.51142324 1.00463512 40 40 53
0.78271088 -0.49753996 0.99463073 45 46 63
0.78366601 0.11857798 1.36673963 58 56 74
0.79236921 0.11536182 1.38959801 59 57 73
0.78129101 0.12212420 1.36671746 59 57 76
0.78895603 0.12968614 1.38431662 60 58 73
0.78168717 0.15717053 1.37364244 65 58 67
0.78775341 0.14906879 1.38671012 61 59 68
0.79669835 0.14754548 1.40642671 61 60 68
0.80412734 0.11667407 1.41522300 59 57 73
0.80129418 0.14740817 1.41670340 63 61 70
0.80509345 0.14613096 1.42414669 64 61 70
0.81453961 0.14383765 1.44232309 68 58 70
0.81148291 0.15699500 1.49644995 98 99 102
0.81528455 0.15598168 1.51172861 112 112 115
0.81817240 0.15981738 1.52335250 111 112 116
0.80809379 0.16511898 1.49976075 101 99 106
0.81402097 0.16257147 1.50980542 107 108 111
0.81817240 0.16245037 1.52335250 114 115 115
0.83846319 -0.00857840 1.50308609 42 44 65
0.83109206 0.12540343 1.48987222 66 64 77
0.83527502 0.13056356 1.53543085 110 116 117
0.83419385 0.13308799 1.54935404 123 124 124
0.83620977 0.13417107 1.56196272 124 126 124
0.82228321 0.14654217 1.51315141 131 131 131
0.82686290 0.14713737 1.53279325 128 128 129
0.82816854 0.14361487 1.54418166 117 117 118
0.84596622 -0.00603395 1.51653659 42 43 64
0.84219795 0.10750769 1.50978136 62 61 72
0.85352973 0.11062129 1.53485123 64 63 73
0.85853120 0.10979506 1.55243489 72 71 78
0.85612223 0.11529993 1.58890470 120 122 124
0.84523588 0.12793399 1.51993692 72 71 80
0.84927637 0.12982958 1.53197136 78 79 84
0.85020859 0.12691191 1.54912462 93 94 97
0.84875434 0.12774217 1.56920755 116 117 116
0.85241275 0.12655257 1.58609776 121 122 120
0.85822982 0.12563952 1.60828662 112 112 110
0.86532468 -0.00080964 1.55123997 45 43 66
0.87263091 -0.00895362 1.56919968 42 44 66
0.87873012 -0.00355593 1.58016741 43 44 65
0.87872982 0.09428043 1.59503961 67 68 77
0.86272663 0.11376762 1.55623076 71 70 79
0.86608139 0.11052550 1.57119069 79 77 84
0.86816848 0.10991953 1.58963988 99 96 101
0.87595079 0.10213547 1.61021864 108 106 112
0.86130437 0.12252586 1.55124801 71 72 76
0.86516900 0.12321118 1.56973580 84 84 89
0.86699355 0.12264826 1.58757452 96 96 100
0.88491833 -0.00083055 1.59129536 45 44 67
0.89477032 -0.00502699 1.61402822 44 45 66
0.89905149 -0.01486177 1.62175083 42 44 70
0.88522325 0.00861683 1.59185525 46 48 69
0.89094183 0.01072912 1.60670882 47 49 71
0.88355371 0.02909061 1.59450723 50 51 74
0.88736231 0.02970900 1.60639431 52 53 75
0.89505486 0.03214022 1.62467232 53 54 75
0.89079800 0.04416340 1.61021564 53 54 75
0.89828418 0.04565596 1.63053408 57 57 76
0.88080227 0.09450280 1.59880149 68 68 75
0.88197504 0.09116174 1.60766070 72 72 80
0.88788465 0.10054555 1.62955713 98 97 104
0.89007694 0.10127532 1.64138460 113 111 118
0.91934508 -0.45624629 0.95882863 27 25 35
0.91898763 -0.45689252 0.96018672 26 25 35
0.90120751 -0.01489741 1.62563992 42 45 71
0.91541176 -0.00516166 1.65642667 45 46 67
0.91821533 -0.01522602 1.66149962 43 45 70
0.90131751 0.01186269 1.63348383 50 52 71
0.90852111 0.00956905 1.64739295 49 52 72
0.91375020 0.01349994 1.66252020 52 55 73
0.90207767 0.02461671 1.63741994 54 54 77
0.90573580 0.03300548 1.64988938 57 58 77
0.91256112 0.02647797 1.66559705 58 57 80
0.91797799 0.02819603 1.68211377 62 59 80
0.90507857 0.04471813 1.64803743 57 57 75
0.92529680 -0.46434519 0.97304677 25 24 33
0.93010896 -0.46239287 0.98245192 28 30 43
0.93421676 -0.45191964 0.95695699 26 26 35
0.93113411 -0.45622481 0.96714461 29 28 39
0.92730653 -0.02117718 1.67795014 45 45 72
0.92047137 -0.01526344 1.66558194 43 46 71
0.93365043 -0.00088453 1.69472957 51 50 72
0.93834215 -0.00530486 1.70324588 47 50 68
0.92295626 0.00637473 1.67795014 52 53 73
0.92578456 0.01371736 1.68840075 53 57 74
0.92088538 0.02238123 1.68211377 55 56 79
0.93304014 0.02422042 1.70971388 60 57 78
0.92273200 0.53568980 1.39483917 27 27 32
0.92651524 0.53693356 1.40546016 28 26 33
0.93230419 0.54799943 1.40953134 30 29 34
0.93670242 0.55403708 1.42339924 30 28 34
0.93850751 0.56430991 1.42866095 32 30 35
0.94171804 -0.44713137 0.95882863 30 30 41
0.94449993 -0.45117098 0.96817394 32 32 42
0.94878793 -0.45560053 0.98245192 35 37 47
0.94365704 -0.04220995 1.70753610 45 44 66
0.94484854 -0.03782878 1.70969212 43 44 67
0.95759016 -0.02193739 1.73818421 45 45 72
0.94308725 -0.01125304 1.71185899 42 46 69
0.95289911 -0.00688485 1.73375571 48 51 71
0.95827311 -0.01146836 1.74489820 45 48 71
0.94012243 0.00502412 1.71184814 52 55 73
0.95402777 0.00511452 1.74265254 54 57 75
0.94322403 0.55581446 1.41229105 32 32 35
0.94433327 0.55819663 1.42565423 31 30 34
0.94798011 0.56303942 1.41818380 33 32 36
0.94644976 0.56966565 1.43233953 32 31 35
0.94551508 0.57468705 1.44437546 32 31 34
0.94372023 0.58385483 1.42955194 32 32 34
0.95090373 0.58832491 1.44726865 32 31 34
0.95718184 0.58760700 1.46412921 32 31 33
0.95321453 0.60386148 1.44848680 32 32 34
0.97046349 -0.34714646 0.84934319 21 20 29
0.96335526 -0.04322884 1.74864876 44 43 66
0.96751338 -0.03734193 1.75619650 44 44 69
0.97636813 -0.03002563 1.77226925 44 44 71
0.97205910 -0.01775797 1.77000087 45 46 73
0.97662318 -0.00093109 1.78392589 51 54 73
0.96645004 0.00212987 1.76534331 52 55 74
0.96306235 0.59395662 1.46730524 31 31 33
0.96672279 0.60385078 1.47288224 31 31 34
0.97253168 0.61516172 1.48173255 32 32 35
0.99357772 -0.36189884 0.87132627 21 21 30
0.98824751 -0.35427408 0.86665190 21 20 29
0.98995847 -0.22756605 1.05920601 51 50 57
0.99792336 -0.23186829 1.06401197 51 50 57
0.99012893 -0.04456742 1.80290389 45 44 68
0.99720291 -0.03337356 1.81578461 46 46 72
0.98309261 -0.00559500 1.79574311 52 55 73
0.99495125 -0.01979598 1.81740439 48 48 75
1.01313742 -0.36620478 0.89056020 22 21 30
1.00107884 -0.35150734 0.87923717 19 18 27
1.01318014 -0.35062791 0.89083584 19 18 26
1.01707637 -0.24195303 1.07431352 52 51 57
1.01368864 -0.23244671 1.07014426 52 51 57
1.00212425 -0.03091256 1.82474583 46 46 73
1.01955163 -0.02350434 1.86234021 48 48 75
1.00528562 -0.00096145 1.84209740 52 55 74
1.01913261 -0.01173393 1.86747062 52 54 76
1.01801165 0.47305508 1.24766028 32 31 47
1.01987123 0.48294145 1.23253059 31 33 48
1.01971090 0.48863497 1.26946032 28 28 37
1.02074182 -0.37292355 0.89787000 22 21 30
1.03500080 -0.37308574 0.91156953 21 21 30
1.02345300 -0.34434974 0.90025479 18 17 26
1.02350392 -0.24165767 1.07773025 50 50 56
1.03272386 -0.24304104 1.08754444 52 51 57
1.02177129 -0.23675222 1.07261581 51 50 57
1.02332830 -0.23639879 1.08289433 55 53 60
1.02660447 -0.04797348 1.87522310 46 46 67
1.02477872 -0.02045402 1.87781680 52 51 78
1.03009343 -0.02062542 1.89355266 56 53 81
1.03009343 -0.01571614 1.89355266 55 55 80
1.03842306 -0.00430930 1.91494870 57 60 76
1.03804553 -0.00100230 1.92037344 59 60 78
1.02929795 0.00229738 1.90419054 58 61 78
1.02356857 0.47669453 1.25536102 32 31 47
1.03261542 0.47856036 1.27184212 32 32 46
1.03391016 0.47608942 1.30113602 30 29 45
1.02359331 0.48684213 1.23702896 31 33 46
1.03394639 0.48981600 1.25403666 31 32 47
1.03079742 0.48669233 1.26842189 30 30 45
1.03445028 0.48842163 1.28975621 29 28 40
1.03804636 0.48462518 1.31205634 28 27 42
1.03871131 0.50463498 1.27663243 29 31 44
1.03834120 0.50200703 1.29451128 27 26 35
1.03887248 0.50308895 1.31885576 26 25 34
1.04125631 -0.38258317 0.91730964 24 23 32
1.05251899 -0.38671657 0.92848943 23 22 31
1.05509138 -0.37699242 0.93091534 22 21 30
1.05373680 -0.24427548 1.09603001 51 51 57
1.05687163 -0.24901158 1.10226550 50 50 55
1.04518235 -0.23941785 1.08810890 50 50 57
1.04209900 -0.02740074 1.90955448 49 49 75
1.04966251 -0.02770920 1.92950769 53 51 78
1.05723925 -0.02462925 1.95172910 55 53 80
1.04173291 -0.01092897 1.91494870 54 57 78
1.04516804 -0.01264845 1.92585245 55 57 80
1.05510223 -0.00889331 1.94985783 57 59 78
1.04269249 0.49506518 1.27074228 31 32 47
1.04706796 0.49502477 1.28934962 31 30 44
1.04547556 0.49259631 1.30847152 29 27 41
1.05005649 0.49566636 1.32746897 27 26 39
1.04572850 0.50333486 1.27543935 30 31 45
1.04864697 0.50669365 1.29124566 30 30 40
1.04888359 0.50925730 1.31090175 27 26 35
1.05070664 0.50949888 1.32711709 25 24 33
1.04067111 0.52106214 1.27904117 27 27 36
1.05235946 0.52803618 1.29616034 26 26 35
1.05249000 0.52301002 1.31314784 26 25 34
1.05468114 0.52469282 1.33242793 24 23 30
1.07443285 -0.40090197 0.94942838 24 23 32
1.06203791 -0.38816668 0.93847551 21 21 29
1.06828943 -0.38718957 0.94399967 22 21 30
1.07179332 -0.30227491 1.47209346 80 83 95
1.07635725 -0.30648409 1.48011315 80 85 98
1.07068695 -0.29087400 1.47231584 88 91 105
1.07732990 -0.28920579 1.48498200 94 101 115
1.07585943 -0.29142553 1.50810385 130 145 154
1.06413736 -0.26433555 1.11385522 49 50 54
1.07542584 -0.26471425 1.12545341 49 50 53
1.07422459 -0.27076524 1.47367787 72 74 93
1.07878025 -0.27405172 1.48227235 74 75 95
1.06737169 -0.25556218 1.11235736 49 50 54
1.07021713 -0.25880285 1.12326813 52 52 56
1.06461012 -0.04317305 1.95080423 51 48 74
1.06194107 -0.03131574 1.94797579 49 50 75
1.06211615 -0.01800643 1.96490383 57 57 84
1.07113898 -0.00790960 1.98795259 58 61 81
1.06181366 0.51123620 1.31171687 30 30 42
1.07269505 0.51397858 1.32848425 30 30 40
1.06602321 0.52785256 1.31579058 28 27 36
1.06994596 0.52844397 1.33182681 27 26 35
1.06272833 0.53406219 1.34324793 23 22 29
1.07863700 0.54354456 1.33706474 25 24 33
1.09426779 -0.40474646 0.96843469 22 21 30
1.08144798 -0.39255834 0.95708905 22 21 30
1.09046555 -0.32033390 1.50308609 74 80 94
1.08366309 -0.30752589 1.49513735 92 98 111
1.09446888 -0.30538334 1.51655474 113 120 132
1.09333975 -0.30401865 1.52816827 134 144 153
1.09297719 -0.30716980 1.55000896 142 156 170
1.09521312 -0.31064819 1.56557840 141 157 170
1.08189513 -0.28847529 1.49207278 94 100 115
1.08995315 -0.29231018 1.51268505 111 120 134
1.09464399 -0.29375691 1.52943274 123 136 147
1.09812963 -0.29623207 1.54681689 136 149 159
1.08452141 -0.27234590 1.13931406 52 52 56
1.08177207 -0.27621428 1.48933482 76 79 100
1.09393287 -0.27640352 1.51146638 79 84 108
1.08139244 0.53277634 1.33904663 27 26 36
1.08344603 0.53668323 1.34302598 26 26 35
1.08094800 0.54123354 1.33706474 26 25 34
1.08290887 0.54221696 1.34236014 26 25 34
1.10490546 -0.40595901 0.97904786 22 21 30
1.11489177 -0.41500474 0.98819868 22 21 31
1.10281485 -0.39839263 0.97749415 23 22 31
1.10876590 -0.32516520 1.53196096 85 91 106
1.11493995 -0.32696488 1.54417915 91 100 111
1.10006344 -0.31604382 1.51993692 89 100 112
1.10381551 -0.31341698 1.53024552 111 120 131
1.10792241 -0.31131364 1.55214563 129 141 153
1.10797296 -0.30632166 1.57346137 143 157 170
1.11321883 -0.30715335 1.59131944 142 158 170
1.11832881 -0.30737555 1.60258114 143 158 169
1.10505028 -0.28842353 1.53369981 106 113 130
1.10789783 -0.28708169 1.54790681 113 122 140
1.11256404 -0.29021677 1.56485863 125 136 150
1.11895204 -0.29922211 1.58385944 136 150 161
1.10862339 -0.27812909 1.53543085 81 88 114
1.11206827 -0.27732458 1.54947920 95 105 129
1.13474488 -0.64107251 1.10947931 39 45 61
1.12736646 -0.63499683 1.10226512 40 45 60
1.12358832 -0.42188711 0.99641756 24 23 32
1.13355339 -0.42665206 1.00628126 24 23 32
1.12216165 -0.41289297 0.99616855 22 21 30
1.13969862 -0.41823582 1.01329124 22 22 31
1.12003803 -0.33327752 1.55123997 87 94 105
1.13031340 -0.32765540 1.56922770 108 119 129
1.12542496 -0.30653942 1.61275335 142 157 167
1.13441980 -0.30149567 1.62563992 142 159 167
1.12464702 -0.28420618 1.57649267 109 122 139
1.12999289 -0.29128023 1.59131815 123 135 150
1.12821765 -0.29722664 1.60562286 139 153 164
1.13714683 -0.29940388 1.62954772 144 158 167
1.15745401 -0.66480553 1.13359845 37 42 56
1.15361598 -0.65304776 1.13022461 39 44 54
1.14410746 -0.63862807 1.11863339 39 47 58
1.14408664 -0.42988374 1.01667228 23 22 31
1.15175241 -0.43681988 1.02400815 24 23 32
1.14350454 -0.33494473 1.58881096 103 112 122
1.14980990 -0.30117297 1.63152993 141 150 166
1.14033997 -0.29307044 1.61020048 126 139 153
1.15312346 -0.29354162 1.62825139 123 137 150
1.17371011 -0.67011597 1.15253712 36 40 52
1.17713857 -0.65618521 1.15287733 40 45 54
1.16584933 -0.44575091 1.03654152 24 23 30
1.17437813 -0.44608971 1.04573140 24 23 31
1.16476212 -0.43257676 1.03716877 23 23 32
1.16941118 -0.43969893 1.04130852 24 23 32
1.16813731 -0.34364247 1.62563992 107 116 124
1.19349015 -0.69306274 1.17485825 34 33 48
1.19972551 -0.68647853 1.18099630 34 36 48
1.18117225 -0.66355604 1.15878952 41 45 54
1.19001750 -0.66928174 1.16878947 37 42 51
1.19027388 -0.65612370 1.16426316 33 38 47
1.18489945 -0.44951794 1.05591270 24 23 31
1.19704667 -0.45095505 1.06797248 23 23 32
1.18076167 -0.43646035 1.05303636 23 23 32
1.20944676 -0.68629242 1.19097151 37 39 50
1.20166230 -0.66375321 1.17689562 33 40 46
1.21192095 -0.67089777 1.18895812 32 36 46
1.20486140 -0.62959762 1.17012481 25 27 41
1.20526103 -0.46316927 1.07488557 24 24 31
1.21230459 -0.46961048 1.08116722 25 25 32
1.20081353 -0.45775521 1.07091916 23 23 32
1.21430933 -0.45799041 1.08462691 24 23 32
1.21797895 -0.13602172 1.81740439 116 132 142
1.21810341 -0.13166285 1.82228994 114 125 135
1.21860802 -0.13627789 1.84209740 98 105 120
1.23145146 -0.68505195 1.21343236 31 33 44
1.23868608 -0.68675709 1.22142673 29 28 41
1.22210207 -0.66933209 1.19853821 25 26 38
1.23207951 -0.67230878 1.20873324 24 24 36
1.22900517 -0.64536459 1.19557943 25 25 39
1.22707486 -0.46943931 1.09602919 23 23 31
1.23205078 -0.47609431 1.10047376 25 25 32
1.23368514 -0.15486914 1.81740439 145 151 169
1.23435736 -0.14384679 1.83710527 120 138 150
1.23082024 -0.14252497 1.85091561 104 117 131
1.23508726 -0.14703528 1.87190466 95 100 119
1.23924156 -0.14648893 1.88478132 90 94 114
1.22527130 -0.13380440 1.83018079 116 128 139
1.23010476 -0.13133392 1.85318394 107 115 126
1.23377821 -0.12660334 1.87105525 109 116 129
1.23936689 -0.13643059 1.88827813 98 104 121
1.23807240 -0.11941534 1.85216355 116 122 138
1.23892991 -0.11663327 1.87608767 115 123 138
1.23917890 -0.11815093 1.88303292 115 122 137
1.24300775 -0.68240151 1.22308227 23 24 36
1.24521706 -0.66592934 1.21769848 23 22 35
1.25185848 -0.66976016 1.22689501 23 23 36
1.25459528 -0.65884990 1.22252911 25 26 41
1.25875688 -0.48327366 1.12606621 24 24 32
1.25385439 -0.16378625 1.84711671 144 155 168
1.25630208 -0.16218092 1.87781680 126 143 153
1.25894964 -0.16416844 1.88828546 115 132 144
1.24210948 -0.15452978 1.83215350 140 153 164
1.24900441 -0.15086732 1.85319495 127 142 155
1.25094721 -0.14980651 1.87190331 114 129 141
1.25109754 -0.15326420 1.88793824 101 111 128
1.25168133 -0.14786936 1.90955448 89 94 115
1.24334842 -0.12890507 1.87042868 109 118 128
1.24405165 -0.12652655 1.89144871 109 117 131
1.24953232 -0.12965418 1.90879253 105 112 128
1.25340401 -0.12745775 1.92534157 98 104 119
1.25632770 -0.12289817 1.94799087 76 76 96
1.24689770 -0.11749817 1.87262940 115 123 137
1.24843602 -0.11195253 1.88829445 114 123 136
1.25157130 -0.11470062 1.90687251 108 118 132
1.25711346 -0.11053624 1.92037344 104 113 128
1.26961466 -0.68209831 1.24767152 23 23 34
1.26281363 -0.66377971 1.23365313 28 29 44
1.27665591 -0.66833633 1.24612474 29 31 46
1.26190197 -0.48740874 1.12887979 24 24 31
1.26874053 -0.18049102 1.88827813 129 147 153
1.26370398 -0.16188107 1.87436807 135 149 160
1.26878973 -0.17052572 1.88909864 129 145 154
1.26362058 -0.15310173 1.87262940 130 149 158
1.26119339 -0.12933788 1.93683386 99 105 124
1.26144981 -0.12691076 1.94238353 94 97 114
1.26616061 -0.12024027 1.97061586 72 74 94
1.26272023 -0.10929774 1.89885676 118 121 133
1.26626718 -0.11289599 1.90419054 118 122 134
1.26351082 -0.11541861 1.93270314 102 107 125
1.26725708 -0.11531491 1.95319630 79 80 101
1.27292581 -0.11167066 1.96966938 66 67 86
1.27699113 -0.11409149 1.98213995 63 64 87
1.28503418 -0.67220238 1.25535959 29 32 46
1.29333317 -0.50132322 1.15878952 25 25 32
1.29554784 -0.50418800 1.16077375 26 25 32
1.29333317 -0.49932036 1.15878952 24 24 31
1.29513619 -0.48521302 1.19558390 56 57 60
1.29994023 -0.48675035 1.20193589 52 55 58
1.29729974 -0.18408033 1.92582905 136 150 158
1.28963721 -0.16932268 1.90955448 137 152 162
1.29694390 -0.17692044 1.92037344 144 156 163
1.28209845 -0.11235639 1.99185057 69 70 87
1.31627703 -0.50128174 1.21704102 56 56 63
1.31818646 -0.50309922 1.23311228 46 48 56
1.30975712 -0.49131959 1.20996776 53 54 59
1.31644821 -0.49654234 1.22437972 47 49 55
1.30062842 -0.18075170 1.92582905 143 155 162
1.31557822 -0.18619619 1.94796503 140 153 161
1.30433393 -0.17459041 1.93131578 137 156 165
1.32997930 -0.52251607 1.19347155 26 25 33
1.32647735 -0.51805505 1.19032902 26 25 32
1.32248392 -0.50277050 1.23340663 48 49 56
1.33277553 -0.50419397 1.24901561 35 37 45
1.33755350 -0.50437474 1.26708758 30 32 45
1.32658110 -0.49144224 1.23031233 41 42 50
1.33891284 -0.49757826 1.24460598 40 41 50
1.32715213 -0.47929215 1.22808105 36 35 48
1.35414398 -0.53073519 1.21704364 25 24 32
1.34857538 -0.50210802 1.25593969 39 39 48
1.35227377 -0.50522754 1.27001187 33 34 46
1.34827683 -0.49299590 1.25331259 35 35 45
1.35420514 -0.49324978 1.26370803 33 33 45
1.34875739 -0.32375175 1.97061586 139 155 167
1.35715873 -0.31690881 1.98213995 140 158 166
1.36147392 -0.53783542 1.22363150 26 25 33
1.37220776 -0.50303525 1.28796502 31 30 46
1.36337552 -0.49676732 1.27567618 32 32 46
1.37081981 -0.49996606 1.28388608 33 31 49
1.36888194 -0.34009629 1.94238353 124 137 151
1.37796068 -0.34403944 1.96490383 131 145 157
1.37603915 -0.33662203 1.94657773 119 130 146
1.37065578 -0.32325295 1.99379957 141 158 168
1.36721560 -0.31377494 1.99380818 139 153 163
1.39202380 -0.54642785 1.25303483 25 24 32
1.38209040 -0.34456384 1.97177815 131 145 158
1.38662207 -0.34020540 1.98213995 128 143 158
1.38846828 -0.33387901 1.97226208 118 133 148
1.38990057 -0.32644115 1.98388374 117 133 149
1.39456395 -0.31662411 1.99185057 121 129 146
1.41679096 -0.34087051 1.98601504 111 124 143
1.40884149 -0.32905477 1.94656965 111 126 139
1.41089505 -0.33312616 1.97063243 116 131 144
1.40763034 -0.33328439 1.98943582 116 131 146
1.40234935 -0.31556576 1.99968100 119 128 145
1.42848456 -0.34120306 1.98795259 106 119 138
1.42357123 -0.33579756 1.97636104 109 125 139
1.42862221 -0.33433442 1.99089573 117 131 144
1.42625453 -0.28980095 1.99284228 141 157 167
1.61563176 0.54746103 1.53240153 15 14 23
1.62163520 0.53997540 1.53369200 16 15 24
1.62163520 0.54527716 1.53369200 16 14 24
1.63211365 0.54524592 1.54771847 16 15 24
1.64287184 0.54971252 1.54619426 15 14 23
1.65331098 0.54918484 1.56558260 15 14 23
1.65013182 0.56692107 1.55302700 15 14 23
1.67190453 0.53663567 1.57388481 16 15 24
1.67636156 0.53706173 1.58545903 16 15 24
1.66767599 0.54578141 1.57466376 16 15 24
1.67357841 0.54863801 1.58729289 16 15 24
1.67233992 0.56185660 1.57649267 16 15 24
1.67180117 0.56306913 1.58634384 15 14 23
1.68729119 0.53584856 1.58758034 16 15 24
1.68643053 0.54982487 1.59055357 16 15 24
1.68801218 0.55651042 1.60830468 16 15 24
1.68439466 0.57575050 1.58850473 15 14 23
1.69666910 0.56961608 1.61788034 16 15 24
1.69600511 0.58776951 1.59880149 16 15 24
1.70090854 0.53325674 1.59692055 16 15 24
1.70887572 0.53843662 1.60830468 16 15 24
1.71624374 0.54165232 1.61788034 16 15 24
1.70208768 0.56675897 1.62304719 16 14 24
1.70404303 0.59471989 1.60637879 16 15 24
