ply
format ascii 1.0
element vertex 1100
property float x
property float y
property float z
property uchar red
property uchar green
property uchar blue
end_header
-0.45881271 0.04067225 0.62420982 166 169 169
-0.45938307 0.04101213 0.62942606 172 176 177
-0.45829514 0.04101213 0.62942606 174 180 180
-0.45763215 0.04105025 0.63001102 173 181 180
-0.45654324 0.04105025 0.63001102 174 182 181
-0.45545429 0.04105025 0.63001102 177 183 183
-0.45436537 0.04105025 0.63001102 177 183 183
-0.45412055 0.04112669 0.63118422 178 184 183
-0.45302960 0.04112669 0.63118422 179 184 183
-0.45320457 0.04124190 0.63295221 181 186 185
0.00306782 0.04222760 0.64808017 158 87 111
0.00418798 0.04222760 0.64808017 158 85 112
0.00530306 0.04218727 0.64746118 161 87 116
0.00641602 0.04214701 0.64684337 164 91 119
0.00752685 0.04210683 0.64622670 167 100 124
0.00863557 0.04206673 0.64561129 173 107 131
0.00974218 0.04202671 0.64499700 174 110 133
0.01087771 0.04210683 0.64622670 177 115 138
0.01200610 0.04214701 0.64684337 160 99 124
0.01314921 0.04222760 0.64808017 190 132 157
0.86698526 0.10417469 1.59880149 113 109 112
0.86974871 0.10417469 1.59880149 111 107 110
0.87045914 0.10392957 1.59503961 104 95 100
0.87116623 0.10368561 1.59129536 97 88 93
0.87186998 0.10344279 1.58756876 88 85 92
0.86851203 0.10272109 1.57649267 78 75 82
0.87326771 0.10296053 1.58016741 69 68 76
0.86590677 0.10177435 1.56196272 66 65 73
0.58005095 0.06692435 1.02710891 58 58 74
0.52018201 0.05721512 0.87809825 39 37 56
0.53078038 0.05804214 0.89079088 35 37 52
0.52815586 0.05758810 0.88382250 35 37 52
0.52354026 0.05692019 0.87357193 34 36 51
0.52370042 0.05677387 0.87132627 34 34 49
0.52453220 0.05670099 0.87020773 36 35 49
-0.45862469 0.04163614 0.62249023 168 170 170
-0.45881271 0.04175115 0.62420982 174 178 179
-0.46066624 0.04221765 0.63118422 176 179 180
-0.45914778 0.04217837 0.63059705 175 179 179
-0.45848435 0.04221765 0.63118422 173 178 178
-0.45739341 0.04221765 0.63118422 172 177 178
-0.45630246 0.04221765 0.63118422 170 175 175
-0.45563573 0.04225699 0.63177246 171 177 177
-0.45496780 0.04229641 0.63236177 171 177 176
-0.45387480 0.04229641 0.63236177 168 174 172
0.00194953 0.04338923 0.64870036 160 89 109
0.00306782 0.04334775 0.64808017 159 88 114
0.00419199 0.04338923 0.64870036 158 85 113
0.00530813 0.04334775 0.64808017 160 86 115
0.00641602 0.04326503 0.64684337 164 91 120
0.00752685 0.04322378 0.64622670 168 100 127
0.00864380 0.04322378 0.64622670 173 106 132
0.00974218 0.04314153 0.64499700 174 109 134
0.01087771 0.04322378 0.64622670 176 112 137
0.01200610 0.04326503 0.64684337 167 103 132
0.01314921 0.04334775 0.64808017 184 121 150
0.86016452 0.10643604 1.59129536 115 117 119
0.86770225 0.10668647 1.59503961 109 108 110
0.86841577 0.10643604 1.59129536 106 99 103
0.86912602 0.10618677 1.58756876 101 95 99
0.86780536 0.10569172 1.58016741 86 80 85
0.86649692 0.10520127 1.57283485 84 78 83
0.86921543 0.10520127 1.57283485 73 72 79
0.86391616 0.10423391 1.55837202 66 65 72
0.52018201 0.05873284 0.87809825 37 38 57
0.52815586 0.05911571 0.88382250 35 36 54
0.52354026 0.05843009 0.87357193 35 36 54
0.52370042 0.05827988 0.87132627 35 36 53
0.52453220 0.05820507 0.87020773 36 36 53
-0.46152571 0.04338939 0.63236177 179 180 180
-0.46000361 0.04334896 0.63177246 175 176 177
-0.45933974 0.04338939 0.63236177 170 172 174
-0.45824674 0.04338939 0.63236177 164 166 167
-0.45758060 0.04342991 0.63295221 163 168 169
-0.45691323 0.04347050 0.63354379 172 178 178
-0.45581821 0.04347050 0.63354379 177 183 183
-0.45472318 0.04347050 0.63354379 174 180 178
0.00082831 0.04451046 0.64870036 157 86 106
0.00194767 0.04446791 0.64808017 158 87 108
0.00306782 0.04446791 0.64808017 158 87 113
0.00419199 0.04451046 0.64870036 158 86 113
0.00530813 0.04446791 0.64808017 158 87 115
0.00641602 0.04438305 0.64684337 161 92 120
0.00752685 0.04434074 0.64622670 168 99 126
0.00864380 0.04434074 0.64622670 171 104 129
0.00974218 0.04425636 0.64499700 174 110 133
0.01087771 0.04434074 0.64622670 178 114 139
0.01201757 0.04442544 0.64746118 178 113 140
0.01316179 0.04451046 0.64870036 170 105 133
0.85741407 0.10918646 1.59129536 118 121 124
0.85815006 0.10893075 1.58756876 117 119 123
0.86089408 0.10893075 1.58756876 112 112 116
0.86507416 0.10842292 1.58016741 95 93 97
0.86177891 0.10766998 1.56919408 81 78 82
0.85655999 0.10668218 1.55479777 80 77 81
0.85924739 0.10668218 1.55479777 72 71 79
0.85996228 0.10643806 1.55123997 67 66 74
0.53358507 0.06144443 0.89549780 36 37 55
0.52953666 0.06080187 0.88613313 36 37 55
0.52354026 0.05993999 0.87357193 36 37 54
0.52235758 0.05963260 0.86909211 36 36 52
0.52318901 0.05955625 0.86797929 37 36 51
-0.46129334 0.04456552 0.63354379 171 172 172
-0.46062881 0.04460721 0.63413644 166 167 168
-0.45996302 0.04464898 0.63473016 171 172 172
-0.45886594 0.04464898 0.63473016 175 176 176
0.00082831 0.04563169 0.64870036 160 90 110
0.00194953 0.04563169 0.64870036 161 90 114
0.00306782 0.04558806 0.64808017 158 89 114
0.00419199 0.04563169 0.64870036 159 90 117
0.00530813 0.04558806 0.64808017 161 91 121
0.00641602 0.04550106 0.64684337 161 92 119
0.00753404 0.04550106 0.64684337 164 97 124
0.00864380 0.04545769 0.64622670 169 104 129
0.00975146 0.04541439 0.64561129 174 109 135
0.01088808 0.04550106 0.64684337 177 112 137
0.01202906 0.04558806 0.64808017 179 114 139
0.01318703 0.04571919 0.64994425 171 107 132
0.01426936 0.04558806 0.64808017 188 126 151
0.85540611 0.11167473 1.58756876 117 119 123
0.85614502 0.11141381 1.58385944 116 117 121
0.86841577 0.11193688 1.59129536 100 100 104
0.86709535 0.11141381 1.58385944 94 93 97
0.86177891 0.11038221 1.56919408 83 82 86
0.85655999 0.10936952 1.55479777 79 78 82
0.85924739 0.10936952 1.55479777 73 72 80
0.85799891 0.10887012 1.54769826 67 66 75
0.85288507 0.10788487 1.53369200 62 61 72
0.84219795 0.10620292 1.50978136 62 61 72
0.53641951 0.06332684 0.90025479 37 38 55
0.53022981 0.06241507 0.88729298 37 38 52
0.52354026 0.06144989 0.87357193 37 38 48
0.52168876 0.06105648 0.86797929 37 37 47
0.52185261 0.06090053 0.86576223 38 37 47
-0.45996302 0.04574606 0.63473016 171 172 174
0.00082910 0.04679770 0.64932168 162 93 114
0.00194953 0.04675291 0.64870036 162 92 115
0.00307076 0.04675291 0.64870036 160 91 114
0.00419199 0.04675291 0.64870036 158 89 113
0.00530813 0.04670822 0.64808017 158 88 114
0.00642215 0.04666360 0.64746118 168 99 126
0.00753404 0.04661908 0.64684337 165 97 124
0.00864380 0.04657464 0.64622670 171 103 129
0.00975146 0.04653028 0.64561129 173 105 132
0.01089848 0.04666360 0.64746118 173 107 131
0.01204057 0.04675291 0.64870036 178 113 139
0.01319969 0.04688752 0.65056801 171 108 136
0.01428302 0.04675291 0.64870036 179 120 144
0.85466367 0.11468731 1.59129536 124 125 127
0.85741407 0.11468731 1.59129536 119 119 122
0.85815006 0.11441872 1.58756876 114 115 119
0.86291492 0.11468731 1.59129536 114 114 117
0.86841577 0.11468731 1.59129536 101 100 104
0.86912602 0.11441872 1.58756876 94 93 97
0.86578721 0.11362045 1.57649267 86 84 90
0.85852915 0.11231447 1.55837202 80 78 85
0.86122262 0.11231447 1.55837202 74 73 82
0.85996228 0.11180044 1.55123997 69 68 77
0.85288507 0.11053573 1.53369200 64 63 73
0.84219795 0.10881246 1.50978136 62 61 72
0.54573470 0.06620162 0.91855264 37 39 53
0.53784806 0.06505565 0.90265226 37 40 50
0.53092474 0.06403250 0.88845587 37 39 49
0.52421582 0.06304102 0.87469918 38 38 47
0.52168876 0.06255671 0.86797929 38 38 47
0.51986080 0.06215877 0.86245781 39 38 47
0.00082990 0.04796594 0.64994425 161 87 109
0.00194953 0.04787414 0.64870036 161 90 113
0.00307076 0.04787414 0.64870036 159 89 112
0.00419600 0.04792000 0.64932168 160 90 114
0.00530813 0.04782837 0.64808017 160 91 116
0.00642215 0.04778269 0.64746118 164 94 120
0.00753404 0.04773710 0.64684337 169 98 125
0.00864380 0.04769159 0.64622670 173 103 130
0.00975146 0.04764616 0.64561129 174 105 130
0.01089848 0.04778269 0.64746118 179 113 137
0.01202906 0.04782837 0.64808017 180 116 140
0.01321237 0.04805809 0.65119290 173 114 138
0.85593170 0.11799169 1.59880149 116 119 120
0.85266209 0.11716270 1.58756876 133 134 135
0.85540611 0.11716270 1.58756876 122 122 123
0.85815006 0.11716270 1.58756876 111 111 111
0.86291492 0.11743774 1.59129536 114 113 114
0.86363804 0.11716270 1.58756876 111 107 111
0.87045914 0.11771405 1.59503961 102 99 104
0.87116623 0.11743774 1.59129536 94 93 98
0.86983293 0.11688896 1.58385944 87 86 93
0.86449111 0.11580665 1.56919408 81 80 88
0.86520058 0.11553920 1.56557012 77 76 85
0.86193472 0.11474421 1.55479777 72 71 80
0.85481906 0.11344326 1.53716969 67 66 76
0.55620569 0.06929152 0.93890840 40 39 55
0.54721767 0.06797347 0.92104870 39 38 54
0.54000521 0.06688299 0.90627253 39 38 52
0.53162146 0.06565417 0.88962185 38 37 51
0.52489311 0.06463628 0.87582928 38 37 51
0.52102166 0.06397503 0.86686939 38 37 51
0.51722860 0.06332719 0.85809094 38 38 49
0.00419199 0.04899536 0.64870036 161 92 113
0.00530813 0.04894852 0.64808017 162 93 114
0.00975146 0.04876205 0.64561129 174 107 133
0.01089848 0.04890177 0.64746118 177 115 140
0.01202906 0.04894852 0.64808017 180 122 146
0.01322507 0.04923092 0.65181905 171 120 141
0.85391772 0.12047096 1.59503961 112 115 113
0.85266209 0.11990669 1.58756876 132 133 133
0.85540611 0.11990669 1.58756876 132 133 133
0.85815006 0.11990669 1.58756876 122 123 123
0.86089408 0.11990669 1.58756876 119 119 120
0.86363804 0.11990669 1.58756876 111 109 113
0.86841577 0.12018816 1.59129536 98 97 103
0.87116623 0.12018816 1.59129536 92 91 100
0.86983293 0.11962653 1.58385944 88 87 96
0.86851203 0.11907013 1.57649267 84 83 92
0.86921543 0.11879387 1.57283485 79 78 87
0.86391616 0.11770151 1.55837202 74 73 84
0.85871345 0.11662906 1.54417276 67 66 77
0.55620569 0.07091434 0.93890840 40 38 56
0.54796219 0.06966008 0.92230183 39 38 55
0.54145294 0.06863292 0.90870219 39 38 53
0.53232002 0.06728010 0.89079088 38 37 52
0.52625293 0.06632145 0.87809825 38 37 51
0.52102166 0.06547335 0.86686939 38 37 51
0.01090890 0.05006868 0.64808017 172 122 142
0.85924786 0.12439866 1.61019444 113 114 112
0.85391772 0.12322785 1.59503961 122 123 121
0.85266209 0.12265068 1.58756876 132 132 131
0.85540611 0.12265068 1.58756876 136 136 134
0.85815006 0.12265068 1.58756876 122 122 120
0.86089408 0.12265068 1.58756876 107 107 107
0.86363804 0.12265068 1.58756876 97 97 101
0.86841577 0.12293859 1.59129536 94 94 98
0.86912602 0.12265068 1.58756876 92 93 97
0.86983293 0.12236410 1.58385944 88 89 94
0.86851203 0.12179497 1.57649267 85 85 92
0.86921543 0.12151238 1.57283485 80 80 87
0.86590677 0.12067243 1.56196272 74 74 82
0.86264348 0.11984402 1.55123997 69 68 77
0.55543637 0.07243684 0.93760973 41 39 57
0.54796219 0.07125420 0.92230183 40 38 56
0.54217970 0.07029777 0.90992194 39 37 55
0.53372276 0.06900110 0.89313811 39 37 55
0.52761978 0.06801537 0.88037902 38 37 51
0.52102166 0.06697166 0.86686939 38 37 51
0.85721177 0.12688038 1.60637879 111 111 109
0.85191321 0.12568901 1.59129536 123 123 121
0.84868699 0.12481006 1.58016741 129 129 125
0.85141820 0.12481006 1.58016741 122 122 119
0.85614502 0.12510167 1.58385944 111 111 110
0.85688055 0.12481006 1.58016741 109 109 107
0.85961175 0.12481006 1.58016741 108 108 109
0.86435777 0.12510167 1.58385944 104 104 105
0.86709535 0.12510167 1.58385944 94 95 99
0.86578721 0.12451981 1.57649267 89 90 94
0.86249459 0.12365709 1.56557012 83 84 88
0.86320704 0.12337216 1.56196272 80 81 85
0.86193472 0.12280624 1.55479777 74 75 79
0.86067402 0.12224548 1.54769826 69 69 74
0.79169810 0.10972033 1.38912261 58 57 73
0.55543637 0.07405742 0.93760973 42 40 59
0.54870874 0.07294757 0.92355835 40 38 57
0.54290843 0.07196710 0.91114497 39 37 56
0.53442687 0.07063789 0.89431643 39 37 56
0.52830589 0.06962746 0.88152385 37 39 53
0.52102166 0.06846997 0.86686939 36 38 51
0.51332992 0.06726573 0.85162294 36 39 50
0.84991813 0.12813865 1.58756876 135 135 133
0.84474880 0.12694941 1.57283485 127 127 125
0.84550554 0.12665555 1.56919408 120 121 119
0.85216296 0.12724465 1.57649267 119 119 119
0.84896481 0.12636305 1.56557012 116 116 116
0.85167080 0.12636305 1.56557012 116 116 118
0.85635448 0.12665555 1.56919408 105 105 107
0.86105990 0.12694941 1.57283485 97 97 100
0.85780758 0.12607189 1.56196272 90 90 93
0.85459995 0.12520641 1.55123997 86 87 91
0.85728115 0.12520641 1.55123997 79 80 84
0.85799891 0.12492055 1.54769826 73 73 77
0.85676187 0.12435272 1.54066324 70 70 75
0.80412734 0.11422797 1.41522300 59 58 74
0.79169810 0.11212131 1.38912261 59 57 74
0.56634915 0.07739066 0.95882863 42 40 61
0.55620569 0.07578283 0.93890840 40 38 58
0.55020791 0.07474754 0.92608178 39 37 56
0.54363912 0.07364091 0.91237128 39 37 56
0.53584069 0.07237460 0.89668232 39 37 56
0.52830589 0.07115111 0.88152385 39 38 55
0.51268584 0.06865145 0.85055441 37 38 51
0.84398848 0.12996949 1.57649267 133 134 131
0.83698094 0.12847559 1.55837202 120 121 120
0.83774865 0.12818092 1.55479777 112 113 113
0.84625888 0.12906902 1.56557012 112 113 114
0.84119397 0.12788759 1.55123997 119 119 121
0.84194851 0.12759562 1.54769826 126 127 130
0.85118532 0.12818092 1.55479777 95 99 102
0.84997374 0.12759562 1.54769826 85 89 92
0.85070652 0.12730497 1.54417276 82 85 88
0.85095984 0.12615548 1.53022993 72 71 78
0.80412734 0.11667407 1.41522300 59 57 73
0.79332376 0.11475746 1.39197505 59 57 73
0.56634915 0.07904792 0.95882863 41 42 63
0.55697715 0.07751301 0.94021058 40 40 60
0.55096060 0.07645264 0.92734861 39 38 59
0.54437178 0.07531925 0.91360086 39 38 57
0.53726202 0.07412053 0.89906079 38 38 57
0.52830589 0.07267474 0.88152385 37 38 56
0.84717417 0.13362661 1.58756876 125 126 122
0.84008110 0.13208000 1.56919408 129 130 126
0.83124822 0.13027069 1.54769826 127 128 126
0.83202368 0.12997395 1.54417276 125 126 124
0.84043598 0.13086826 1.55479777 116 117 118
0.83736163 0.12997395 1.54417276 112 113 115
0.83622098 0.12938449 1.53716969 109 114 116
0.84758335 0.12909177 1.53369200 80 86 87
0.85023421 0.12909177 1.53369200 79 78 87
0.84523588 0.12793399 1.51993692 72 71 80
0.83109206 0.12540343 1.48987222 66 64 77
0.80412734 0.11912017 1.41522300 60 58 74
0.79169810 0.11692328 1.38912261 60 58 74
0.56634915 0.08070518 0.95882863 42 43 65
0.55852646 0.07935822 0.94282591 42 42 61
0.55171531 0.07816242 0.92861897 41 41 59
0.54437178 0.07689833 0.91360086 41 41 58
0.53797549 0.07577498 0.90025479 40 40 57
0.52899379 0.07429500 0.88267165 38 38 55
0.84519476 0.13605197 1.58385944 121 122 121
0.83620977 0.13417107 1.56196272 124 126 124
0.82935470 0.13264292 1.54417276 128 129 127
0.83013272 0.13234146 1.54066324 133 133 132
0.83851278 0.13324998 1.55123997 129 132 130
0.83432907 0.13174263 1.53369200 112 119 118
0.84758335 0.13174263 1.53369200 84 87 86
0.85216218 0.13204136 1.53716969 80 80 87
0.84713531 0.13085447 1.52335250 75 74 83
0.79169810 0.11932427 1.38912261 59 58 74
0.79409909 0.11932427 1.38912261 59 57 74
0.78682595 0.11787499 1.37225068 58 57 74
0.56715131 0.08247910 0.96018672 42 43 65
0.56008440 0.08121373 0.94545585 43 42 60
0.55247217 0.07987688 0.92989278 43 42 56
0.54510647 0.07858332 0.91483378 43 42 55
0.53797549 0.07733100 0.90025479 39 39 49
0.52968347 0.07591948 0.88382250 34 34 45
0.84519476 0.13878953 1.58385944 120 122 123
0.83428746 0.13655615 1.55837202 121 124 123
0.82746983 0.13500437 1.54066324 124 125 125
0.83851278 0.13593118 1.55123997 125 127 127
0.79007906 0.12147633 1.38628185 59 57 76
0.78924716 0.12098151 1.38063514 59 57 76
0.78050607 0.11928097 1.36122859 58 56 75
0.56715131 0.08413870 0.96018672 43 43 66
0.56086665 0.08296358 0.94677633 42 42 62
0.55247217 0.08148412 0.92989278 43 41 58
0.54584306 0.08027287 0.91607004 41 40 55
0.53869092 0.07899192 0.90145195 39 39 51
0.52968347 0.07744709 0.88382250 38 38 49
0.83237392 0.13893029 1.55479777 122 123 123
0.83851278 0.13861237 1.55123997 125 127 127
0.78846663 0.12361960 1.38345277 59 57 76
0.78129101 0.12212420 1.36671746 59 57 76
0.56554919 0.08555594 0.95747435 44 42 65
0.56086665 0.08460001 0.94677633 43 41 62
0.55323106 0.08320550 0.93117011 42 40 59
0.54658169 0.08196699 0.91730964 40 39 57
0.53940821 0.08065727 0.90265226 40 39 55
0.53037500 0.07907781 0.88497627 39 38 54
0.82857317 0.14097098 1.54769826 117 117 117
0.82746983 0.14033020 1.54066324 118 117 118
0.82825035 0.14001198 1.53716969 116 115 117
0.83469266 0.14064986 1.54417276 118 116 118
0.78686082 0.12575415 1.38063514 60 57 74
0.77504069 0.12349057 1.35578370 59 57 75
0.56475151 0.08708785 0.95612389 43 43 63
0.56008440 0.08611616 0.94545585 42 41 62
0.55323106 0.08481495 0.93117011 42 40 61
0.54732233 0.08366570 0.91855264 42 40 60
0.54012740 0.08232705 0.90385580 41 39 57
0.53106827 0.08071280 0.88613313 40 38 56
0.82778800 0.14397475 1.55123997 110 111 113
0.82668573 0.14331883 1.54417276 115 115 116
0.82559347 0.14266886 1.53716969 121 121 122
0.82825035 0.14266886 1.53716969 118 118 120
0.83279562 0.14299311 1.54066324 122 121 123
0.82980084 0.14202476 1.53022993 132 130 132
0.78846663 0.12840198 1.38345277 58 57 74
0.77195287 0.12533261 1.35038221 58 56 74
0.56395608 0.08861545 0.95477724 45 44 65
0.55930436 0.08762809 0.94413906 44 43 63
0.55247217 0.08630586 0.92989278 43 41 60
0.54658169 0.08513798 0.91730964 43 41 60
0.54012740 0.08388929 0.90385580 42 40 59
0.53106827 0.08224440 0.88613313 40 38 57
0.52168876 0.08055950 0.86797929 39 37 56
0.82589805 0.14632112 1.54769826 118 121 122
0.82480693 0.14565602 1.54066324 112 112 114
0.82559347 0.14532574 1.53716969 134 135 137
0.82637650 0.14499694 1.53369200 134 135 137
0.83090723 0.14532574 1.53716969 136 136 138
0.82793188 0.14434381 1.52678347 134 134 134
0.82315499 0.14305502 1.51315141 132 131 131
0.78846663 0.13079315 1.38345277 58 57 73
0.56316292 0.09013875 0.95343435 46 44 65
0.55852646 0.08913581 0.94282591 45 43 64
0.55247217 0.08791310 0.92989278 44 42 63
0.54658169 0.08672348 0.91730964 43 41 62
0.53940821 0.08533775 0.90265226 41 39 58
0.53037500 0.08366664 0.88497627 40 38 57
0.52102166 0.08195479 0.86686939 39 37 56
0.51268584 0.08041236 0.85055441 38 36 55
0.50465798 0.07892691 0.83484215 36 35 52
0.49692136 0.07749534 0.81969994 36 35 51
0.82480693 0.14831893 1.54066324 124 126 126
0.82559347 0.14798261 1.53716969 131 132 133
0.82637650 0.14764780 1.53369200 132 133 131
0.83090723 0.14798261 1.53716969 134 135 134
0.82793188 0.14698273 1.52678347 137 137 137
0.82315499 0.14567038 1.51315141 132 132 132
0.78846663 0.13318434 1.38345277 58 60 75
0.76816607 0.12897298 1.33970726 58 60 75
0.73780262 0.12313270 1.27904117 58 59 76
0.56237197 0.09165777 0.95209527 46 44 65
0.55775070 0.09063935 0.94151646 45 43 64
0.55247217 0.08952034 0.92989278 45 43 64
0.54658169 0.08830897 0.91730964 44 42 63
0.53869092 0.08678235 0.90145195 43 42 60
0.52968347 0.08508518 0.88382250 43 41 59
0.52102166 0.08345310 0.86686939 40 39 57
0.82559347 0.15063947 1.53716969 135 136 136
0.82637650 0.15029867 1.53369200 131 132 131
0.82902735 0.15029867 1.53369200 127 128 126
0.82607138 0.14928542 1.52335250 116 116 116
0.78846663 0.13557553 1.38345277 62 61 71
0.76363856 0.13051476 1.33181107 61 60 74
0.73641318 0.12510736 1.27663243 59 58 72
0.56079668 0.09304203 0.94942838 46 44 64
0.55620569 0.09201109 0.93890840 46 44 64
0.55247217 0.09112759 0.92989278 46 44 64
0.54658169 0.08989447 0.91730964 45 43 63
0.53869092 0.08834044 0.90145195 44 42 61
0.52968347 0.08661279 0.88382250 43 42 60
0.52102166 0.08495142 0.86686939 42 40 58
0.51268584 0.08335259 0.85055441 40 39 56
0.50465798 0.08181282 0.83484215 39 38 54
0.82186621 0.15260427 1.53022993 126 127 127
0.82265407 0.15226057 1.52678347 124 125 124
0.82529300 0.15226057 1.52678347 124 125 124
0.82053965 0.15090109 1.51315141 130 130 130
0.81453961 0.14383765 1.44232309 68 58 70
0.80504256 0.14172682 1.42115688 65 59 70
0.79417932 0.13938905 1.39771509 64 59 69
0.78686082 0.13768573 1.38063514 63 60 73
0.75916409 0.13203846 1.32400751 61 60 77
0.73364991 0.12683620 1.27184212 58 57 75
0.72630936 0.12519202 1.25535524 57 56 74
0.55845028 0.09428688 0.94545585 46 44 63
0.55543637 0.09350441 0.93760973 47 45 64
0.53869092 0.08989853 0.90145195 42 42 62
0.52968347 0.08814041 0.88382250 42 42 60
0.52035624 0.08633932 0.86576223 41 41 60
0.51268584 0.08482270 0.85055441 40 40 58
0.50528026 0.08335844 0.83587158 39 39 55
0.81713289 0.15385990 1.51653659 116 116 117
0.81975412 0.15385990 1.51653659 120 120 121
0.80168122 0.14358115 1.41522300 63 60 71
0.79254520 0.14151311 1.39483917 62 59 70
0.78686082 0.14007205 1.38063514 62 59 74
0.75182211 0.13302781 1.31120276 62 59 78
0.74686533 0.13175359 1.29864335 62 59 78
0.73090726 0.12855209 1.26708758 59 57 76
0.72496682 0.12712638 1.25303483 57 55 74
0.55381584 0.09512500 0.93760973 50 48 67
0.55390418 0.09486258 0.93502325 49 47 66
0.52899379 0.08955127 0.88267165 41 42 60
0.52035624 0.08783573 0.86576223 40 41 59
0.51204336 0.08618468 0.84948850 40 41 59
0.50528026 0.08480317 0.83587158 38 39 56
0.49752295 0.08326317 0.82069230 39 38 52
0.81633794 0.15683196 1.51993692 111 111 112
0.81168532 0.15543790 1.50642633 113 113 116
0.81248355 0.15509325 1.50308609 113 112 116
0.80596548 0.14725696 1.42714071 65 63 72
0.79834783 0.14542007 1.40933859 63 61 71
0.79254520 0.14392398 1.39483917 61 59 70
0.78686082 0.14245836 1.38063514 61 59 72
0.76736701 0.13850902 1.34236014 62 59 73
0.75037068 0.13503292 1.30867147 61 58 75
0.74118572 0.13297918 1.28876781 60 57 76
0.72954363 0.13049823 1.26472354 59 56 75
0.72362930 0.12905361 1.25072300 57 55 74
0.71653688 0.12740812 1.23477566 56 54 73
0.52899379 0.09107690 0.88267165 43 41 61
0.52035624 0.08933213 0.86576223 42 40 60
0.51268584 0.08776293 0.85055441 40 38 57
0.50528026 0.08624791 0.83587158 40 38 57
0.49752295 0.08468166 0.82069230 39 38 54
0.81817240 0.15981738 1.52335250 111 112 116
0.81530893 0.15874718 1.51315141 110 111 115
0.81428909 0.15804164 1.50642633 106 107 111
0.81148291 0.15699500 1.49644995 98 99 102
0.80427229 0.14940910 1.42414248 62 63 70
0.79834783 0.14785600 1.40933859 61 61 68
0.79254520 0.14633484 1.39483917 61 60 68
0.78686082 0.14484468 1.38063514 60 59 69
0.76585048 0.14055087 1.33970726 61 60 70
0.74892491 0.13703032 1.30614996 61 60 71
0.73698241 0.13443996 1.28145909 61 60 73
0.72818506 0.13243712 1.26236844 60 58 73
0.72229660 0.13097373 1.24841964 58 56 73
0.71523410 0.12930679 1.23253059 57 55 72
0.52899379 0.09260252 0.88267165 42 42 61
0.52102166 0.09094468 0.86686939 42 41 61
0.51332992 0.08934514 0.85162294 42 40 59
0.50590408 0.08780091 0.83690351 41 39 58
0.49752295 0.08610016 0.82069230 40 39 54
0.81817240 0.16245037 1.52335250 114 115 115
0.81530893 0.16136254 1.51315141 112 113 114
0.81428909 0.16064537 1.50642633 109 111 113
0.80090714 0.15123518 1.41818380 63 63 69
0.79339939 0.14936036 1.40060294 60 60 67
0.79091781 0.14844029 1.39197505 61 60 67
0.76433992 0.14258465 1.33706474 61 61 70
0.74748468 0.13902003 1.30363810 61 61 70
0.73420662 0.13614014 1.27663243 61 61 71
0.72683156 0.13436881 1.26002204 61 60 71
0.71964598 0.13264297 1.24383819 59 58 70
0.71393603 0.13119859 1.23029375 57 57 69
0.52968347 0.09425087 0.88382250 43 42 62
0.52168876 0.09256135 0.86797929 42 41 61
0.51397562 0.09093134 0.85269415 43 41 60
0.50652939 0.08935775 0.83793801 42 40 59
0.49812603 0.08762474 0.82168710 41 39 55
0.81633794 0.16471322 1.51993692 106 107 108
0.81168532 0.16324911 1.50642633 106 107 109
0.81248355 0.16288714 1.50308609 105 106 111
0.78851193 0.15084620 1.39197505 61 59 68
0.76283532 0.14461043 1.33443272 61 59 74
0.74748468 0.14127326 1.30363810 62 59 74
0.73282653 0.13808665 1.27423275 62 59 74
0.72683156 0.13654666 1.26002204 61 58 73
0.71832794 0.13454597 1.24156010 60 58 73
0.71393603 0.13332504 1.23029375 59 57 72
0.71606249 0.13332504 1.23029375 59 57 72
0.53037500 0.09590352 0.88497627 44 42 61
0.52235758 0.09418218 0.86909211 44 42 61
0.51397562 0.09240516 0.85269415 43 43 56
0.50652939 0.09080605 0.83793801 42 42 54
0.49812603 0.08904497 0.82168710 42 42 52
0.80809379 0.16511898 1.49976075 101 99 106
0.78528690 0.15262531 1.38628185 62 60 68
0.78768301 0.15262531 1.38628185 59 57 66
0.76433992 0.14720666 1.33706474 60 57 71
0.74892491 0.14380305 1.30614996 61 58 72
0.73420662 0.14055325 1.27663243 61 58 72
0.72683156 0.13872449 1.26002204 61 58 72
0.71701473 0.13644201 1.23929036 60 58 74
0.71393603 0.13545151 1.23029375 59 57 73
0.71476525 0.13520612 1.22806489 58 57 73
0.53106827 0.09756050 0.88613313 44 43 61
0.52302814 0.09580716 0.87020773 44 42 61
0.51397562 0.09387897 0.85269415 43 43 57
0.50652939 0.09225436 0.83793801 42 43 54
0.49873054 0.09057497 0.82268429 42 42 52
0.78368431 0.15470502 1.38345277 65 62 67
0.78768301 0.15502138 1.38628185 61 58 65
0.72683156 0.14090234 1.26002204 60 59 70
0.71701473 0.13858402 1.23929036 59 58 71
0.71264267 0.13732873 1.22806489 58 57 70
0.71347272 0.13708040 1.22584414 57 56 71
0.53106827 0.09909210 0.88613313 44 44 62
0.52302814 0.09731124 0.87020773 43 43 61
0.51397562 0.09535278 0.85269415 42 43 59
0.50652939 0.09370267 0.83793801 41 43 56
0.49933654 0.09210870 0.82368392 41 43 55
0.49121055 0.09035216 0.80797595 41 41 53
0.77970189 0.15677625 1.38063514 73 68 74
0.78208816 0.15677625 1.38063514 67 61 67
0.78447449 0.15677625 1.38063514 64 58 67
0.78208232 0.15582417 1.37225068 63 57 66
0.76585048 0.15212874 1.33970726 62 58 67
0.75474179 0.14947018 1.31629479 62 58 67
0.74259752 0.14662312 1.29122257 62 58 68
0.72683156 0.14308019 1.26002204 62 58 68
0.71832794 0.14098378 1.24156010 59 57 70
0.71264267 0.13945134 1.22806489 59 57 70
0.71347272 0.13919917 1.22584414 58 56 71
0.53106827 0.10062371 0.88613313 44 44 64
0.52302814 0.09881533 0.87020773 43 43 64
0.51397562 0.09682659 0.85269415 42 43 62
0.50652939 0.09515098 0.83793801 42 43 59
0.49933654 0.09353237 0.82368392 41 42 58
0.02971021 0.10574942 0.91730964 171 118 138
0.03125341 0.10560652 0.91607004 171 117 139
0.77496684 0.15819600 1.37225068 78 71 77
0.77891541 0.15851688 1.37503421 72 64 71
0.78129202 0.15851688 1.37503421 68 59 68
0.76585048 0.15444431 1.33970726 64 57 68
0.75474179 0.15174529 1.31629479 63 56 67
0.74259752 0.14885490 1.29122257 61 57 71
0.72683156 0.14525804 1.26002204 60 57 72
0.71701473 0.14286804 1.23929036 59 56 74
0.71135396 0.14131795 1.22584414 58 55 74
0.71218491 0.14106286 1.22363150 57 55 74
0.53176337 0.10228904 0.88729298 44 45 65
0.52370042 0.10044836 0.87132627 43 44 64
0.51397562 0.09830040 0.85269415 42 43 63
0.50652939 0.09659929 0.83793801 41 42 62
0.49994400 0.09507156 0.82468593 41 42 61
0.02823935 0.10777242 0.92104870 169 117 137
0.02975046 0.10748035 0.91855264 168 116 135
0.75738126 0.16187857 1.38345277 100 100 109
0.74907142 0.15959860 1.36396754 116 116 125
0.75142890 0.15959860 1.36396754 123 123 132
0.76566726 0.15864101 1.35578370 82 75 81
0.77264649 0.15959860 1.36396754 77 68 75
0.77813530 0.16024344 1.36947846 71 62 71
0.77580053 0.15927812 1.36122859 67 57 67
0.76433992 0.15645070 1.33706474 64 55 65
0.75474179 0.15402040 1.31629479 64 55 65
0.74401468 0.15137501 1.29368675 64 57 67
0.72818506 0.14771043 1.26236844 63 58 68
0.71701473 0.14501005 1.23929036 61 57 73
0.71006995 0.14317781 1.22363150 59 56 75
0.70962310 0.14266278 1.21922994 58 56 75
0.71559155 0.14343672 1.22584414 58 56 75
0.52437443 0.10208559 0.87244767 43 44 64
0.51397562 0.09977422 0.85269415 42 43 63
0.50652939 0.09804759 0.83793801 41 42 62
0.49994400 0.09649696 0.82468593 41 42 62
0.49297327 0.09488098 0.81087542 40 41 59
0.02672000 0.10966238 0.92355835 167 120 138
0.02827777 0.10951318 0.92230183 168 119 137
0.02983131 0.10936438 0.92104870 168 118 135
0.75345242 0.16393520 1.38063514 93 93 99
0.74372107 0.16130698 1.35850072 100 101 108
0.73866761 0.15970671 1.34502351 118 120 128
0.73891884 0.15876171 1.33706474 123 123 130
0.73542768 0.15751895 1.32659853 119 121 126
0.74001348 0.15751895 1.32659853 111 114 117
0.74376190 0.15782781 1.32919967 105 108 109
0.74752504 0.15813789 1.33181107 98 94 97
0.75959051 0.15970671 1.34502351 84 73 79
0.76495081 0.16034299 1.35038221 81 70 75
0.76728481 0.16034299 1.35038221 73 63 71
0.76961887 0.16034299 1.35038221 67 59 67
0.76433992 0.15876171 1.33706474 60 54 62
0.75474179 0.15629551 1.31629479 57 53 61
0.74401468 0.15361103 1.29368675 60 57 67
0.72818506 0.14989233 1.26236844 61 59 69
0.71701473 0.14715208 1.23929036 60 58 72
0.71006995 0.14529276 1.22363150 59 57 76
0.70707965 0.14425123 1.21485996 59 57 76
0.71429986 0.14529276 1.22363150 58 56 75
0.51462293 0.10137555 0.85376805 42 44 63
0.50652939 0.09949590 0.83793801 41 42 61
0.50055295 0.09804164 0.82569045 40 41 61
0.49474868 0.09662927 0.81379575 40 41 59
0.02519235 0.11156265 0.92608178 168 121 140
0.02672000 0.11125867 0.92355835 168 121 140
0.02827777 0.11110730 0.92230183 167 120 138
0.02983131 0.11095634 0.92104870 168 118 137
0.03142327 0.11095634 0.92104870 168 118 136
0.03297043 0.11080579 0.91979897 165 115 133
0.75413793 0.16700177 1.38628185 99 100 104
0.74887675 0.16531147 1.37225068 113 114 120
0.73780680 0.16235361 1.34769750 122 122 129
0.73720491 0.16171062 1.34236014 130 130 137
0.73806357 0.16139103 1.33970726 130 130 136
0.73601544 0.16043982 1.33181107 126 126 129
0.73113525 0.15887912 1.31885576 124 124 127
0.73627973 0.15949973 1.32400751 121 121 123
0.73856813 0.15949973 1.32400751 106 106 108
0.74752504 0.16043982 1.33181107 94 90 94
0.74982697 0.16043982 1.33181107 91 82 88
0.75808638 0.16171062 1.34236014 84 75 80
0.76191527 0.16203149 1.34502351 80 70 76
0.76575941 0.16235361 1.34769750 74 68 73
0.76808882 0.16235361 1.34769750 68 66 70
0.76433992 0.16107272 1.33706474 60 58 63
0.75474179 0.15857062 1.31629479 53 52 56
0.74543732 0.15614505 1.29616034 59 57 66
0.72954363 0.15235795 1.26472354 58 56 73
0.71964598 0.14984195 1.24383819 60 58 75
0.71135396 0.14767426 1.22584414 60 58 77
0.70707965 0.14635101 1.21485996 60 58 77
0.71429986 0.14740770 1.22363150 59 57 76
0.02519235 0.11316331 0.92608178 168 120 143
0.02672000 0.11285497 0.92355835 167 120 142
0.02827777 0.11270142 0.92230183 166 119 140
0.02987189 0.11270142 0.92230183 166 119 139
0.03146602 0.11270142 0.92230183 166 119 139
0.03301523 0.11254830 0.92104870 165 117 136
0.75413793 0.16939785 1.38628185 117 118 124
0.74585712 0.16700715 1.36671746 134 134 143
0.73429680 0.16338372 1.33706474 138 139 141
0.73660785 0.16338372 1.33706474 129 130 133
0.73601544 0.16274174 1.33181107 122 122 124
0.73256052 0.16147280 1.32142663 119 119 121
0.73772055 0.16210479 1.32659853 121 121 123
0.74001348 0.16210479 1.32659853 109 108 110
0.74752504 0.16274174 1.33181107 94 93 96
0.74982697 0.16274174 1.33181107 88 86 90
0.75808638 0.16403079 1.34236014 81 80 84
0.76040655 0.16403079 1.34236014 76 75 79
0.76272666 0.16403079 1.34236014 73 71 76
0.76504683 0.16403079 1.34236014 67 65 73
0.76433992 0.16338372 1.33706474 59 58 67
0.75768423 0.16147280 1.32142663 54 53 65
0.74829888 0.15899338 1.30113602 57 56 69
0.72954363 0.15454394 1.26472354 58 56 75
0.72096890 0.15227123 1.24612474 58 56 75
0.71264267 0.15006439 1.22806489 59 57 76
0.70962310 0.14898479 1.21922994 60 58 77
0.02519235 0.11476398 0.92608178 169 121 148
0.02675645 0.11460741 0.92481834 166 119 144
0.02831630 0.11445127 0.92355835 166 118 143
0.02987189 0.11429555 0.92230183 166 119 143
0.03150889 0.11445127 0.92355835 163 115 138
0.03310518 0.11445127 0.92355835 163 115 136
0.75039577 0.17040005 1.37503421 136 137 145
0.73574799 0.16602220 1.33970726 128 128 132
0.73660785 0.16569473 1.33706474 123 123 127
0.73746425 0.16536856 1.33443272 123 123 123
0.73686969 0.16472006 1.32919967 124 124 124
0.74061930 0.16504367 1.33181107 129 129 130
0.74292123 0.16504367 1.33181107 118 118 119
0.74899656 0.16536856 1.33443272 97 95 98
0.75130302 0.16536856 1.33443272 87 86 90
0.75658816 0.16602220 1.33970726 83 82 86
0.76040655 0.16635095 1.34236014 77 76 80
0.76272666 0.16635095 1.34236014 73 72 77
0.76504683 0.16635095 1.34236014 67 65 74
0.76433992 0.16569473 1.33706474 61 60 68
0.75768423 0.16375677 1.32142663 57 56 65
0.74829888 0.16124228 1.30113602 58 57 66
0.73090726 0.15702285 1.26708758 57 56 72
0.72362930 0.15499489 1.25072300 59 58 74
0.71393603 0.15246321 1.23029375 59 58 74
0.02519235 0.11636463 0.92608178 163 134 155
0.02672000 0.11604756 0.92355835 165 129 150
0.02827777 0.11588967 0.92230183 163 121 141
0.02987189 0.11588967 0.92230183 165 126 144
0.03150889 0.11604756 0.92355835 172 131 149
0.03310518 0.11604756 0.92355835 162 120 137
0.75653398 0.17419000 1.38628185 118 119 123
0.73429680 0.16800573 1.33706474 121 121 125
0.73660785 0.16800573 1.33706474 124 124 128
0.73746425 0.16767502 1.33443272 125 125 129
0.73686969 0.16701747 1.32919967 125 125 129
0.73916709 0.16701747 1.32919967 129 128 128
0.74292123 0.16734560 1.33181107 118 117 118
0.74669009 0.16767502 1.33443272 111 107 108
0.74899656 0.16767502 1.33443272 101 97 98
0.75130302 0.16767502 1.33443272 86 82 83
0.75658816 0.16833776 1.33970726 90 86 87
0.75890374 0.16833776 1.33970726 80 76 80
0.76121932 0.16833776 1.33970726 76 72 76
0.76353490 0.16833776 1.33970726 66 63 71
0.76283532 0.16767502 1.33443272 62 60 67
0.75768423 0.16604076 1.32142663 59 57 64
0.74973792 0.16380559 1.30363810 59 57 64
0.73364991 0.15981033 1.27184212 59 58 65
0.72496682 0.15744714 1.25303483 59 59 66
0.71393603 0.15458967 1.23029375 60 60 68
0.43936682 0.08781331 0.69885755 38 38 47
-0.41852459 0.10517734 0.82569045 163 163 162
-0.41608384 0.10492174 0.82368392 155 155 153
-0.41424316 0.10517734 0.82569045 181 182 180
-0.41331947 0.10530560 0.82669735 186 186 185
-0.41390967 0.10582180 0.83074981 184 184 183
-0.41348723 0.10608181 0.83279097 184 185 183
0.02519235 0.11796529 0.92608178 170 151 166
0.02668365 0.11748379 0.92230183 163 141 154
0.02823935 0.11732417 0.92104870 148 122 135
0.02983131 0.11732417 0.92104870 164 134 148
0.03150889 0.11764386 0.92355835 171 135 150
0.03310518 0.11764386 0.92355835 163 124 139
0.03474882 0.11780435 0.92481834 167 127 140
0.73429680 0.17031674 1.33706474 120 120 124
0.73515779 0.16998148 1.33443272 128 128 132
0.73601544 0.16964753 1.33181107 126 127 131
0.73542768 0.16898355 1.32659853 121 121 125
0.73627973 0.16865350 1.32400751 115 115 118
0.74001348 0.16898355 1.32659853 110 109 112
0.74522310 0.16964753 1.33181107 107 105 107
0.74982697 0.16964753 1.33181107 90 87 89
0.75360948 0.16998148 1.33443272 90 86 88
0.75591594 0.16998148 1.33443272 81 79 81
0.75971788 0.17031674 1.33706474 76 73 76
0.76202893 0.17031674 1.33706474 69 64 71
0.76283532 0.16998148 1.33443272 64 59 67
0.75768423 0.16832474 1.32142663 60 57 64
0.74973792 0.16605882 1.30363810 59 57 64
0.73502892 0.16231313 1.27423275 60 59 66
0.72496682 0.15961292 1.25303483 60 59 66
0.71393603 0.15671614 1.23029375 58 59 68
0.44120124 0.09013631 0.70761150 36 37 48
0.44012716 0.08966832 0.70393753 36 37 48
0.43906420 0.08920515 0.70030147 36 37 48
0.43982026 0.08911309 0.69957876 36 37 48
0.44012102 0.08892955 0.69813782 37 38 48
-0.42177853 0.10634541 0.82368392 170 169 169
-0.41984472 0.10621635 0.82268429 174 173 172
-0.41944084 0.10647478 0.82468593 181 180 178
-0.41903499 0.10673448 0.82669735 184 184 182
-0.41659003 0.10647478 0.82468593 183 182 180
-0.41567031 0.10660447 0.82569045 182 182 180
-0.41474834 0.10673448 0.82669735 178 178 176
-0.41382414 0.10686480 0.82770675 178 179 177
-0.41441754 0.10738929 0.83176911 183 184 182
-0.41348723 0.10752122 0.83279097 181 182 180
-0.41154224 0.10738929 0.83176911 180 182 180
0.03146602 0.11907792 0.92230183 170 133 149
0.03306014 0.11907792 0.92230183 164 126 142
0.03470148 0.11924015 0.92355835 165 125 140
0.73429680 0.17262775 1.33706474 118 119 123
0.73515779 0.17228794 1.33443272 126 127 131
0.73601544 0.17194945 1.33181107 128 129 133
0.73399127 0.17094193 1.32400751 118 118 122
0.73484445 0.17060871 1.32142663 104 104 108
0.74001348 0.17127647 1.32659853 104 103 107
0.74376190 0.17161229 1.32919967 105 104 108
0.74752504 0.17194945 1.33181107 101 100 103
0.74835676 0.17161229 1.32919967 95 93 97
0.75360948 0.17228794 1.33443272 90 88 92
0.75443083 0.17194945 1.33181107 83 82 86
0.75822240 0.17228794 1.33443272 76 76 80
0.76202893 0.17262775 1.33706474 70 67 74
0.76283532 0.17228794 1.33443272 65 60 68
0.75768423 0.17060871 1.32142663 60 57 65
0.75118250 0.16863637 1.30614996 59 57 64
0.73641318 0.16482536 1.27663243 59 57 64
0.72496682 0.16177869 1.25303483 59 58 65
0.71393603 0.15884259 1.23029375 59 59 67
0.44120124 0.09135936 0.70761150 34 37 47
0.43967059 0.09079074 0.70320731 33 36 46
0.43861109 0.09032226 0.69957876 34 36 46
0.43891433 0.09013622 0.69813782 35 37 46
0.43966821 0.09004349 0.69741958 36 38 47
0.43906680 0.08967446 0.69456130 38 38 47
-0.42448103 0.10882694 0.83176911 183 182 181
-0.42460635 0.10922901 0.83484215 188 187 185
-0.42160577 0.10882694 0.83176911 190 189 187
-0.41862714 0.10842782 0.82871866 189 188 186
-0.41770542 0.10856053 0.82973295 183 182 182
-0.41678143 0.10869357 0.83074981 176 175 175
-0.41585517 0.10882694 0.83176911 174 174 174
-0.41594863 0.10922901 0.83484215 177 177 177
-0.41450566 0.10922901 0.83484215 176 178 178
-0.41357204 0.10936369 0.83587158 177 180 180
0.03297043 0.12034458 0.91979897 169 124 143
0.03470148 0.12083644 0.92355835 164 123 138
0.03629778 0.12083644 0.92355835 171 125 146
0.73746425 0.17459439 1.33443272 131 130 136
0.73686969 0.17390971 1.32919967 129 128 135
0.73772055 0.17356938 1.32659853 126 125 130
0.74146450 0.17390971 1.32919967 119 118 122
0.74522310 0.17425138 1.33181107 111 110 114
0.74899656 0.17459439 1.33443272 102 101 105
0.74982697 0.17425138 1.33181107 94 93 96
0.75212890 0.17425138 1.33181107 90 89 91
0.75443083 0.17425138 1.33181107 86 85 86
0.75822240 0.17459439 1.33443272 80 79 79
0.76052886 0.17459439 1.33443272 69 65 70
0.76283532 0.17459439 1.33443272 63 58 66
0.75916409 0.17323038 1.32400751 62 57 65
0.75118250 0.17089394 1.30614996 61 56 64
0.44166225 0.09267916 0.70835096 32 35 46
0.44012716 0.09210172 0.70393753 32 35 45
0.43861109 0.09153143 0.69957876 34 36 46
0.43891433 0.09134290 0.69813782 37 37 47
0.44012102 0.09134290 0.69813782 37 37 47
0.43996835 0.09106155 0.69598752 38 38 47
0.43847027 0.09050404 0.69172639 38 38 47
-0.42618093 0.11108237 0.83793801 187 186 186
-0.42316341 0.11067196 0.83484215 190 189 188
-0.42068428 0.11040004 0.83279097 183 182 180
-0.41976056 0.11053584 0.83381528 171 170 171
-0.41831937 0.11053584 0.83381528 165 164 166
-0.41739157 0.11067196 0.83484215 169 169 170
-0.41646150 0.11080842 0.83587158 173 173 174
-0.41552913 0.11094522 0.83690351 181 181 183
-0.41459447 0.11108237 0.83793801 181 182 184
0.03301523 0.12210005 0.92104870 167 120 140
0.03474882 0.12259977 0.92481834 166 120 137
0.03639695 0.12276726 0.92608178 167 120 139
0.03794577 0.12259977 0.92481834 166 119 137
0.04303474 0.12344181 0.93117011 163 114 134
0.73831737 0.17655331 1.33181107 123 123 127
0.73916709 0.17620713 1.32919967 121 121 125
0.74292123 0.17655331 1.33181107 119 119 123
0.74669009 0.17690085 1.33443272 114 114 118
0.74899656 0.17690085 1.33443272 104 104 108
0.74982697 0.17655331 1.33181107 95 94 97
0.75360948 0.17690085 1.33443272 91 88 90
0.75443083 0.17655331 1.33181107 87 83 86
0.75673276 0.17655331 1.33181107 83 77 81
0.76052886 0.17690085 1.33443272 76 70 75
0.76283532 0.17690085 1.33443272 69 63 69
0.75916409 0.17551881 1.32400751 64 59 66
0.75118250 0.17315151 1.30614996 61 57 66
0.74482930 0.17117263 1.29122257 60 56 66
0.72765690 0.16672659 1.25768435 59 57 66
0.71523410 0.16339207 1.23253059 59 57 67
0.44012716 0.09331842 0.70393753 35 38 48
0.43861109 0.09274060 0.69957876 33 36 46
0.43846276 0.09245436 0.69741958 35 35 46
0.43921635 0.09235933 0.69670284 37 37 48
0.43996835 0.09226451 0.69598752 38 38 47
0.43891814 0.09179329 0.69243294 39 39 48
0.43832406 0.09141977 0.68961531 39 39 48
0.43773478 0.09104928 0.68682051 40 40 49
-0.42512992 0.11225316 0.83587158 182 181 181
-0.42212370 0.11183945 0.83279097 183 182 182
-0.42016810 0.11170223 0.83176911 175 175 175
-0.41873047 0.11170223 0.83176911 163 163 165
-0.41780546 0.11183945 0.83279097 161 161 163
-0.41687819 0.11197702 0.83381528 164 165 167
-0.41646150 0.11225316 0.83587158 172 173 176
-0.41501677 0.11225316 0.83587158 188 188 194
-0.41357204 0.11225316 0.83587158 191 191 198
-0.41161975 0.11211492 0.83484215 187 188 190
-0.40766653 0.11142878 0.82973295 186 187 189
0.03301523 0.12369201 0.92104870 167 120 140
0.03470148 0.12402904 0.92355835 166 119 137
0.03634730 0.12419824 0.92481834 166 119 137
0.03794577 0.12419824 0.92481834 163 116 134
0.04125528 0.12453805 0.92734861 164 114 135
0.04297571 0.12487972 0.92989278 163 113 134
0.73831737 0.17885524 1.33181107 126 127 131
0.73916709 0.17850454 1.32919967 122 123 127
0.74146450 0.17850454 1.32919967 116 116 119
0.74522310 0.17885524 1.33181107 115 116 119
0.74752504 0.17885524 1.33181107 106 108 110
0.74982697 0.17885524 1.33181107 94 95 98
0.75212890 0.17885524 1.33181107 88 87 91
0.75443083 0.17885524 1.33181107 83 80 85
0.75673276 0.17885524 1.33181107 82 76 81
0.76052886 0.17920731 1.33443272 80 74 79
0.76433992 0.17956078 1.33706474 76 70 76
0.76064974 0.17815521 1.32659853 67 62 68
0.44058469 0.09463339 0.70466930 38 37 46
0.43861109 0.09394976 0.69957876 36 35 45
0.43756244 0.09346747 0.69598752 37 35 44
0.43831539 0.09337161 0.69527370 39 37 46
0.43906680 0.09327593 0.69456130 40 38 47
0.43847027 0.09289522 0.69172639 41 39 48
0.43832406 0.09261172 0.68961531 40 39 47
0.43817872 0.09232993 0.68751711 41 40 46
-0.42356309 0.11327887 0.83279097 182 182 182
-0.42057368 0.11286291 0.82973295 182 182 182
-0.41913953 0.11286291 0.82973295 175 176 176
-0.41770542 0.11286291 0.82973295 168 170 172
-0.41729280 0.11313988 0.83176911 168 171 174
-0.41585517 0.11313988 0.83176911 165 168 173
-0.41543701 0.11341820 0.83381528 167 170 176
-0.41450566 0.11355788 0.83484215 178 179 185
-0.41255465 0.11341820 0.83381528 186 187 193
-0.41111344 0.11341820 0.83381528 188 190 194
-0.40716815 0.11272493 0.82871866 184 187 190
-0.40425321 0.11231302 0.82569045 181 185 188
0.03470148 0.12562534 0.92355835 166 119 137
0.03634730 0.12579672 0.92481834 166 119 136
0.03789407 0.12562534 0.92355835 166 119 136
0.03949037 0.12562534 0.92355835 163 116 134
0.04119892 0.12596858 0.92608178 162 113 131
0.04291684 0.12631369 0.92861897 162 112 131
0.04440024 0.12596858 0.92608178 162 112 133
0.73891884 0.18187179 1.33706474 115 115 121
0.73686969 0.18080196 1.32919967 120 121 124
0.73772055 0.18044813 1.32659853 119 120 122
0.74001348 0.18044813 1.32659853 115 116 118
0.44104314 0.09595109 0.70540255 37 37 47
0.43861109 0.09515892 0.69957876 38 37 48
0.43756244 0.09467043 0.69598752 39 37 47
0.43786630 0.09447643 0.69456130 39 37 46
0.43861738 0.09437973 0.69385040 39 37 46
0.43847027 0.09409081 0.69172639 39 38 47
0.43877041 0.09389918 0.69031757 40 39 45
-0.42304340 0.11457752 0.83176911 186 186 185
-0.41954663 0.11401792 0.82770675 186 186 186
-0.41862714 0.11415730 0.82871866 178 179 179
-0.41770542 0.11429703 0.82973295 173 176 178
-0.41729280 0.11457752 0.83176911 179 183 186
-0.41585517 0.11457752 0.83176911 179 182 187
-0.41543701 0.11485938 0.83381528 176 179 184
-0.41399583 0.11485938 0.83381528 179 183 187
-0.41204780 0.11471827 0.83279097 183 187 190
-0.41060841 0.11471827 0.83279097 184 189 191
-0.40716815 0.11415730 0.82871866 182 188 190
-0.40425321 0.11374017 0.82569045 182 188 190
0.03470148 0.12722163 0.92355835 165 120 137
0.03629778 0.12722163 0.92355835 166 119 136
0.03784252 0.12704854 0.92230183 166 119 135
0.03943664 0.12704854 0.92230183 162 111 128
0.04108666 0.12722163 0.92355835 163 111 128
0.04279958 0.12756923 0.92608178 164 112 129
0.04427925 0.12722163 0.92355835 162 112 131
0.73401809 0.18527912 1.34502351 121 122 124
0.73285133 0.18382023 1.33443272 86 87 89
0.73891884 0.18418279 1.33706474 97 97 104
0.73686969 0.18309936 1.32919967 111 112 116
0.73627973 0.18238413 1.32400751 121 122 126
0.73712844 0.18202861 1.32142663 128 128 126
0.33248594 0.08036203 0.58338368 81 79 82
0.43906420 0.09646764 0.70030147 37 37 46
0.43801215 0.09597192 0.69670284 38 38 47
0.43831539 0.09577505 0.69527370 39 38 47
0.43816891 0.09548126 0.69314092 39 38 47
0.43847027 0.09528641 0.69172639 39 38 47
0.43921769 0.09518927 0.69102126 40 39 46
-0.42356309 0.11615769 0.83279097 175 175 173
-0.41954663 0.11544854 0.82770675 182 182 182
-0.41862714 0.11558968 0.82871866 180 181 181
-0.41821730 0.11587299 0.83074981 177 178 180
-0.41729280 0.11601517 0.83176911 182 183 185
-0.41534555 0.11587299 0.83074981 187 188 190
-0.41492665 0.11615769 0.83279097 184 186 187
-0.41348723 0.11615769 0.83279097 187 189 191
-0.41154224 0.11601517 0.83176911 185 187 189
-0.41010460 0.11601517 0.83176911 183 187 188
-0.40667102 0.11544854 0.82770675 183 186 187
-0.40376142 0.11502720 0.82468593 180 183 186
0.03297043 0.12829356 0.91979897 165 122 140
0.03465427 0.12864266 0.92230183 165 120 139
0.03629778 0.12881793 0.92355835 166 119 138
0.03784252 0.12864266 0.92230183 166 118 136
0.03943664 0.12864266 0.92230183 166 114 130
0.04103076 0.12864266 0.92230183 165 114 129
0.04274119 0.12899366 0.92481834 164 113 129
0.04421901 0.12864266 0.92230183 164 114 131
0.73314798 0.18797685 1.34769750 123 122 124
0.73547739 0.18797685 1.34769750 114 113 115
0.73488474 0.18723239 1.34236014 108 108 109
0.73429680 0.18649380 1.33706474 101 102 102
0.73660785 0.18649380 1.33706474 99 101 103
0.73891884 0.18649380 1.33706474 105 107 109
0.73686969 0.18539678 1.32919967 102 102 104
0.73484445 0.18431258 1.32142663 115 115 117
0.73712844 0.18431258 1.32142663 126 125 125
0.32961828 0.08116082 0.58188140 96 94 95
0.33090806 0.08123055 0.58238131 94 88 92
0.33134535 0.08109122 0.58138239 84 78 82
0.33263549 0.08116082 0.58188140 77 71 75
0.33392787 0.08123055 0.58238131 72 66 70
0.33435994 0.08109122 0.58138239 63 61 66
0.33336350 0.08060730 0.57791293 57 56 60
0.33493346 0.08074497 0.57889998 57 56 66
0.33507559 0.08053864 0.57742065 57 56 67
0.43951824 0.09777907 0.70102566 37 37 48
0.43801215 0.09717611 0.69670284 37 37 48
0.43741813 0.09677826 0.69385040 38 38 48
0.43772134 0.09658055 0.69243294 38 38 48
0.43847027 0.09648200 0.69172639 39 39 48
0.43877041 0.09628550 0.69031757 39 39 48
-0.42252496 0.11730887 0.83074981 174 174 176
-0.41903499 0.11673664 0.82669735 177 178 180
-0.41811600 0.11687917 0.82770675 177 178 180
-0.41770542 0.11716529 0.82973295 172 173 175
-0.41678143 0.11730887 0.83074981 175 175 177
-0.41483715 0.11716529 0.82973295 180 180 181
-0.41390967 0.11730887 0.83074981 174 174 174
-0.41297987 0.11745281 0.83176911 177 177 177
-0.41103789 0.11730887 0.83074981 177 177 177
-0.41060841 0.11759710 0.83279097 177 177 177
-0.40667102 0.11687917 0.82770675 179 179 179
-0.40376142 0.11645260 0.82468593 179 180 182
0.03470148 0.13041422 0.92355835 164 116 136
0.03629778 0.13041422 0.92355835 167 117 136
0.03789407 0.13041422 0.92355835 165 114 131
0.03949037 0.13041422 0.92355835 166 114 131
0.04108666 0.13041422 0.92355835 165 114 130
0.04279958 0.13077055 0.92608178 164 114 129
0.04427925 0.13041422 0.92355835 163 113 130
0.74801916 0.19416641 1.37503421 124 123 127
0.74286169 0.19221695 1.36122859 130 129 132
0.73429680 0.18880481 1.33706474 142 142 142
0.73891884 0.18880481 1.33706474 106 109 109
0.73686969 0.18769419 1.32919967 97 98 98
0.73484445 0.18659657 1.32142663 108 108 108
0.73712844 0.18659657 1.32142663 121 120 120
0.32905337 0.08202574 0.58088416 93 89 92
0.33062401 0.08216656 0.58188140 88 83 87
0.33134535 0.08209608 0.58138239 82 77 81
0.33235019 0.08209608 0.58138239 76 72 77
0.33364123 0.08216656 0.58188140 70 66 72
0.33407345 0.08202574 0.58088416 63 62 69
0.33336350 0.08160617 0.57791293 58 58 65
0.33493346 0.08174555 0.57889998 56 56 66
0.33536124 0.08160617 0.57791293 56 56 67
0.33521703 0.08132884 0.57594889 56 55 69
0.43951824 0.09899073 0.70102566 37 37 46
0.43756244 0.09827930 0.69598752 37 37 46
0.43607908 0.09767759 0.69172639 38 37 46
0.43638408 0.09747866 0.69031757 38 37 46
0.43757725 0.09747866 0.69031757 40 38 45
-0.42097726 0.11830980 0.82770675 178 179 181
-0.41801545 0.11787800 0.82468593 178 178 180
-0.41760612 0.11816552 0.82669735 177 177 179
-0.41668537 0.11830980 0.82770675 177 177 178
-0.41525474 0.11830980 0.82770675 178 178 179
