ply
format ascii 1.0
element vertex 1094
property float x
property float y
property float z
property uchar red
property uchar green
property uchar blue
end_header
0.22899790 0.10951492 1.07944560 98 86 90
0.85605133 0.09686672 0.95477724 80 74 76
0.85891128 0.09700335 0.95612389 80 74 76
0.85935181 0.09686672 0.95477724 80 75 76
0.85979110 0.09673049 0.95343435 81 76 76
0.86022913 0.09659462 0.95209527 83 78 78
0.85946053 0.09632405 0.94942838 83 77 77
0.86110157 0.09632405 0.94942838 82 75 75
0.86395258 0.09645915 0.95075995 83 77 77
0.87255388 0.09686672 0.95477724 83 76 77
0.87543714 0.09700335 0.95612389 82 76 76
0.87585437 0.09686672 0.95477724 82 75 75
0.29219836 0.16496947 1.59880149 102 91 95
0.22475599 0.11300009 1.09514034 102 89 93
0.22447303 0.11191529 1.08462691 102 89 93
0.22562571 0.11155830 1.08116722 100 87 91
0.22713217 0.11138066 1.07944560 103 90 94
0.22936313 0.11155830 1.08116722 99 88 92
0.36673206 0.04700743 0.45557249 87 78 81
0.36604348 0.04681864 0.45374286 87 78 80
0.36584824 0.04669363 0.45253128 86 77 80
0.85891128 0.09865593 0.95612389 78 74 75
0.85935181 0.09851698 0.95477724 79 75 76
0.85979110 0.09837842 0.95343435 79 75 76
0.86022913 0.09824024 0.95209527 80 76 77
0.86066598 0.09810246 0.95075995 80 76 76
0.86230928 0.09810246 0.95075995 80 76 75
0.86395258 0.09810246 0.95075995 80 75 75
0.86681163 0.09824024 0.95209527 80 76 75
0.86845726 0.09824024 0.95209527 82 78 77
0.87255388 0.09851698 0.95477724 81 76 76
0.87543714 0.09865593 0.95612389 81 76 75
0.87462252 0.09837842 0.95343435 81 75 75
0.22214538 0.11452293 1.09161329 105 91 96
0.22439349 0.11470763 1.09337389 103 90 94
0.22375700 0.11342701 1.08116722 103 90 94
0.22490831 0.11306635 1.07772946 103 90 94
0.22641112 0.11288688 1.07601881 103 90 95
0.23496926 0.11342701 1.08116722 98 87 91
0.23683797 0.11342701 1.08116722 100 90 94
0.36574885 0.04766671 0.45435110 87 79 80
0.36604348 0.04760290 0.45374286 87 79 78
0.36584824 0.04747579 0.45253128 86 78 78
0.85858351 0.09988587 0.95209527 79 75 76
0.85902268 0.09974577 0.95075995 79 75 76
0.86066598 0.09974577 0.95075995 79 75 76
0.86230928 0.09974577 0.95075995 80 76 77
0.86395258 0.09974577 0.95075995 79 75 76
0.86559594 0.09974577 0.95075995 79 75 75
0.86723924 0.09974577 0.95075995 79 75 74
0.87132663 0.10002635 0.95343435 79 75 74
0.87420410 0.10016723 0.95477724 79 75 74
0.87462252 0.10002635 0.95343435 79 75 74
0.87381244 0.09974577 0.95075995 81 77 76
0.87300694 0.09946676 0.94810051 82 76 76
0.86736709 0.09863903 0.94021058 82 73 76
0.21955152 0.11603598 1.08810890 108 92 97
0.22072364 0.11566467 1.08462691 108 92 97
0.22331293 0.11603598 1.08810890 106 91 96
0.22304553 0.11492912 1.07772946 105 91 96
0.22419544 0.11456484 1.07431352 104 91 95
0.22569463 0.11438357 1.07261372 102 89 93
0.23199055 0.11474669 1.07601881 98 87 91
0.23385036 0.11474669 1.07601881 97 86 90
0.23533662 0.11456484 1.07431352 100 89 93
0.36471909 0.04841957 0.45404679 87 81 81
0.36550388 0.04841957 0.45404679 86 80 80
0.36604348 0.04838716 0.45374286 86 80 80
0.36609262 0.04829019 0.45283356 85 79 79
0.36468282 0.04800161 0.45012739 85 79 79
0.86230928 0.10138908 0.95075995 80 74 76
0.86395258 0.10138908 0.95075995 80 74 76
0.86559594 0.10138908 0.95075995 80 74 76
0.86723924 0.10138908 0.95075995 80 74 76
0.87132663 0.10167428 0.95343435 80 74 76
0.87420410 0.10181749 0.95477724 80 74 76
0.87585437 0.10181749 0.95477724 80 74 76
0.87381244 0.10138908 0.95075995 81 75 77
0.87300694 0.10110547 0.94810051 82 75 77
0.86977977 0.10054300 0.94282591 83 74 77
0.86658829 0.09998675 0.93760973 85 76 79
0.21955152 0.11791669 1.08810890 108 92 97
0.22037105 0.11735159 1.08289433 107 91 96
0.22367196 0.11810627 1.08985829 107 91 96
0.22304553 0.11679189 1.07772946 106 91 96
0.22419544 0.11642171 1.07431352 103 90 94
0.22569463 0.11623750 1.07261372 96 85 87
0.22790916 0.11642171 1.07431352 98 86 88
0.22976603 0.11642171 1.07431352 98 86 88
0.23199055 0.11660650 1.07601881 98 87 88
0.23385036 0.11660650 1.07601881 98 86 88
0.23496425 0.11623750 1.07261372 98 86 89
0.23901328 0.11550644 1.06586766 97 86 89
0.24085556 0.11550644 1.06586766 98 86 89
0.36545342 0.04930342 0.45496097 86 81 80
0.36599416 0.04927035 0.45465583 85 81 80
0.36653417 0.04923733 0.45435110 85 80 79
0.36633733 0.04910568 0.45313627 84 79 79
0.36614156 0.04897473 0.45192790 84 79 79
0.86516601 0.10317710 0.95209527 80 74 76
0.86559594 0.10303240 0.95075995 80 74 76
0.86723924 0.10303240 0.95075995 81 73 76
0.87132663 0.10332222 0.95343435 82 73 76
0.87420410 0.10346774 0.95477724 82 73 76
0.87381244 0.10303240 0.95075995 84 76 78
0.87300694 0.10274419 0.94810051 85 77 79
0.86977977 0.10217260 0.94282591 83 75 77
0.86778855 0.10174806 0.93890840 82 74 76
0.22025861 0.12018322 1.09161329 108 93 98
0.22178823 0.11999000 1.08985829 108 93 97
0.22439349 0.12037706 1.09337389 105 92 96
0.22375700 0.11903314 1.08116722 104 91 95
0.22455131 0.11846632 1.07601881 104 91 95
0.22605230 0.11827857 1.07431352 103 90 93
0.22827093 0.11846632 1.07601881 104 91 93
0.23013073 0.11846632 1.07601881 103 90 91
0.23272938 0.11884360 1.07944560 100 87 88
0.23422214 0.11865465 1.07772946 99 86 88
0.23533662 0.11827857 1.07431352 97 86 88
0.23794767 0.11865465 1.07772946 99 86 88
0.23901328 0.11734871 1.06586766 99 86 90
0.24010052 0.11698084 1.06252635 101 85 88
0.36693102 0.05029230 0.45680043 87 82 83
0.36747292 0.05025844 0.45649281 86 81 82
0.36776662 0.05019084 0.45587885 85 80 81
0.36707345 0.04998913 0.45404679 84 79 80
0.36736611 0.04992226 0.45343935 84 78 80
0.36913750 0.05005619 0.45465583 85 79 80
0.36942780 0.04998913 0.45404679 86 80 81
0.36971730 0.04992226 0.45343935 86 80 82
0.36951238 0.04978905 0.45222938 87 81 82
0.86516601 0.10482273 0.95209527 81 75 75
0.86559594 0.10467570 0.95075995 80 74 74
0.86723924 0.10467570 0.95075995 80 75 74
0.87132663 0.10497015 0.95343435 79 75 74
0.87420410 0.10511800 0.95477724 79 75 74
0.87381244 0.10467570 0.95075995 80 79 77
0.87178767 0.10423712 0.94677633 82 80 79
0.86941135 0.10337088 0.93890840 79 74 75
0.87103420 0.10337088 0.93890840 82 76 76
0.21872406 0.12226687 1.09337389 105 93 97
0.21990450 0.12187373 1.08985829 106 94 98
0.22178823 0.12187373 1.08985829 105 94 98
0.22403213 0.12206998 1.09161329 104 93 98
0.22375700 0.12090185 1.08116722 103 92 98
0.22490831 0.12051743 1.07772946 103 92 98
0.22641112 0.12032612 1.07601881 104 91 95
0.22863384 0.12051743 1.07772946 104 91 95
0.23049660 0.12051743 1.07772946 104 91 93
0.23347291 0.12109499 1.08289433 103 90 90
0.23534462 0.12109499 1.08289433 103 90 91
0.23683797 0.12090185 1.08116722 101 88 90
0.23947054 0.12128874 1.08462691 101 88 90
0.23942979 0.12032612 1.07601881 101 88 90
0.23901328 0.11919098 1.06586766 100 87 90
0.24047744 0.11900386 1.06419444 102 86 89
0.36713102 0.05121991 0.45803502 87 81 83
0.36742619 0.05115078 0.45741689 87 81 83
0.36796850 0.05111629 0.45710847 87 81 83
0.36826193 0.05104745 0.45649281 86 80 82
0.36781251 0.05087615 0.45496097 86 80 82
0.36785823 0.05077392 0.45404679 85 79 81
0.36963332 0.05091032 0.45526651 85 79 81
0.36992335 0.05084202 0.45465583 86 80 82
0.36996478 0.05073993 0.45374286 86 80 82
0.37025338 0.05067210 0.45313627 86 80 82
0.36930856 0.05043610 0.45102584 86 80 82
0.86516601 0.10646834 0.95209527 83 77 77
0.86559594 0.10631902 0.95075995 81 75 75
0.86723924 0.10631902 0.95075995 81 75 75
0.86888254 0.10631902 0.95075995 81 75 75
0.87297457 0.10661808 0.95343435 82 76 76
0.87462252 0.10661808 0.95343435 82 77 76
0.87258863 0.10617011 0.94942838 82 78 77
0.87178767 0.10587355 0.94677633 82 78 77
0.86977977 0.10543180 0.94282591 81 77 76
0.86658829 0.10484849 0.93760973 79 75 74
0.87061721 0.10513934 0.94021058 78 74 73
0.21872406 0.12415668 1.09337389 104 93 97
0.21955152 0.12355881 1.08810890 105 94 98
0.22143222 0.12355881 1.08810890 105 94 100
0.22403213 0.12395675 1.09161329 104 93 99
0.22340070 0.12257507 1.07944560 103 92 98
0.22455131 0.12218594 1.07601881 103 92 98
0.22605230 0.12199230 1.07431352 102 92 95
0.22827093 0.12218594 1.07601881 102 91 94
0.22976603 0.12199230 1.07431352 102 91 93
0.23272938 0.12257507 1.07944560 102 91 93
0.23496926 0.12277056 1.08116722 102 91 93
0.23608491 0.12238019 1.07772946 102 91 93
0.23832658 0.12257507 1.07944560 104 91 93
0.23905034 0.12199230 1.07431352 104 90 93
0.23863807 0.12084324 1.06419444 104 89 92
0.23972477 0.12046501 1.06086361 105 89 92
0.24080470 0.12008914 1.05755353 106 90 93
0.24187791 0.11971562 1.05426419 106 90 93
0.36713102 0.05201158 0.45803502 86 80 84
0.36717844 0.05190637 0.45710847 89 80 85
0.36796850 0.05190637 0.45710847 89 80 85
0.36826193 0.05183646 0.45649281 88 80 84
0.36781251 0.05166251 0.45496097 88 79 82
0.36810479 0.05159326 0.45435110 87 78 81
0.36963332 0.05169721 0.45526651 87 79 82
0.37017161 0.05166251 0.45496097 88 79 82
0.37021258 0.05155870 0.45404679 88 79 82
0.37025338 0.05145531 0.45313627 88 79 82
0.37029403 0.05135233 0.45222938 87 79 81
0.86941135 0.10661654 0.93890840 78 74 73
0.87103420 0.10661654 0.93890840 78 76 74
0.21837184 0.12584351 1.09161329 106 96 98
0.21955152 0.12543952 1.08810890 104 94 96
0.22107737 0.12523849 1.08636510 104 95 97
0.22367196 0.12564120 1.08985829 104 94 96
0.22304553 0.12424296 1.07772946 103 93 96
0.22384070 0.12365320 1.07261372 104 93 96
0.22754855 0.12365320 1.07261372 107 92 93
0.22904007 0.12345786 1.07091916 107 92 93
0.23125640 0.12365320 1.07261372 107 91 92
0.23347975 0.12384916 1.07431352 107 91 92
0.23791920 0.12326313 1.06923008 107 91 93
0.23789117 0.12229863 1.06086361 107 91 94
0.23897681 0.12191704 1.05755353 106 90 93
0.24005570 0.12153783 1.05426419 106 90 93
0.24150231 0.12134910 1.05262709 107 92 95
0.36737928 0.05283896 0.45834473 88 79 84
0.36742619 0.05273200 0.45741689 89 80 85
0.36796850 0.05269644 0.45710847 89 80 85
0.36875859 0.05269644 0.45710847 88 79 84
0.36830691 0.05251937 0.45557249 87 78 83
0.36835167 0.05241370 0.45465583 88 79 84
0.37013048 0.05255469 0.45587885 89 80 84
0.37066916 0.05251937 0.45557249 89 80 83
0.37046072 0.05237857 0.45435110 89 80 83
0.37050104 0.05227346 0.45343935 88 79 82
0.37078875 0.05220362 0.45283356 87 78 81
0.37132338 0.05216877 0.45253128 87 78 80
0.86820889 0.10808966 0.93760973 79 75 74
0.87103420 0.10823937 0.93890840 79 77 74
0.00422229 0.06031977 0.51550710 119 103 106
0.21884896 0.12691280 1.08462691 104 93 95
0.22295506 0.12711619 1.08636510 105 94 97
0.22269149 0.12590556 1.07601881 105 94 98
0.22831869 0.12491418 1.06754625 109 93 96
0.23237497 0.12511121 1.06923008 108 93 95
0.24005570 0.12336004 1.05426419 108 92 94
0.36742619 0.05352261 0.45741689 89 80 85
0.36796850 0.05348651 0.45710847 89 80 85
0.36875859 0.05348651 0.45710847 88 80 85
0.36855459 0.05334264 0.45587885 86 81 84
0.36859888 0.05323524 0.45496097 89 84 88
0.37037957 0.05337853 0.45618564 89 84 87
0.37091842 0.05334264 0.45587885 86 83 83
0.37070918 0.05319953 0.45465583 86 82 83
0.37099737 0.05312827 0.45404679 85 81 82
0.37103659 0.05302173 0.45313627 84 81 81
0.87103420 0.10986219 0.93890840 80 77 75
0.87145001 0.10971024 0.93760973 81 79 76
0.87549245 0.11001457 0.94021058 81 79 76
0.87469119 0.10971024 0.93760973 82 78 77
-0.00291913 0.06149136 0.51787001 115 94 99
-0.00202249 0.06144442 0.51747471 116 95 100
-0.00112636 0.06135075 0.51668584 112 96 99
-0.00023313 0.06130403 0.51629233 114 98 101
0.00065874 0.06125737 0.51589942 114 100 102
0.00154807 0.06116427 0.51511538 116 102 104
0.00421908 0.06116427 0.51511538 116 100 103
0.36772054 0.05424002 0.45680043 89 80 84
0.36851010 0.05424002 0.45680043 89 81 85
0.36830691 0.05409421 0.45557249 88 83 86
0.36859888 0.05402160 0.45496097 89 85 88
0.37013048 0.05413059 0.45587885 88 85 86
0.37091842 0.05413059 0.45587885 83 82 80
0.37070918 0.05398537 0.45465583 84 83 81
0.37099737 0.05391305 0.45404679 84 83 81
0.87711751 0.11163965 0.94021058 82 78 77
-0.00651944 0.06257767 0.51945734 120 101 103
-0.00561300 0.06248192 0.51866245 121 101 103
-0.00471653 0.06248192 0.51866245 120 101 103
-0.00382006 0.06248192 0.51866245 118 99 102
-0.00292136 0.06243415 0.51826596 118 99 104
-0.00202403 0.06238645 0.51787001 117 100 103
-0.00112722 0.06229128 0.51707995 114 101 103
-0.00023349 0.06229128 0.51707995 114 101 103
0.00065974 0.06224380 0.51668584 114 101 103
0.00155043 0.06214906 0.51589942 113 100 102
0.00333635 0.06219639 0.51629233 111 98 100
0.00422229 0.06210180 0.51550710 108 97 101
0.36722565 0.05495549 0.45618564 89 80 83
0.36801413 0.05495549 0.45618564 90 81 84
0.36830691 0.05488163 0.45557249 89 84 85
0.36835167 0.05477120 0.45465583 89 85 85
0.37013048 0.05491854 0.45587885 89 86 85
0.37116805 0.05495549 0.45618564 86 85 83
0.37120712 0.05484477 0.45526651 85 84 82
0.37124601 0.05473449 0.45435110 83 82 80
-0.00741728 0.06347551 0.51945734 121 103 105
-0.00651445 0.06342691 0.51905960 121 103 105
-0.00560870 0.06332993 0.51826596 121 103 105
-0.00471292 0.06332993 0.51826596 120 102 104
-0.00382006 0.06337839 0.51866245 120 103 105
-0.00292136 0.06332993 0.51826596 120 104 105
-0.00202403 0.06328155 0.51787001 119 103 104
-0.00112808 0.06323324 0.51747471 116 103 105
-0.00023366 0.06323324 0.51747471 116 103 105
0.00066025 0.06318501 0.51707995 115 103 105
0.00155161 0.06308877 0.51629233 112 101 103
0.00333889 0.06313685 0.51668584 108 96 98
0.00422550 0.06304075 0.51589942 109 98 100
0.36668393 0.05578151 0.45649281 87 80 82
0.36722565 0.05574397 0.45618564 89 80 83
0.36826193 0.05578151 0.45649281 89 80 83
0.36830691 0.05566905 0.45557249 88 82 83
0.36835167 0.05555704 0.45465583 89 83 83
0.37013048 0.05570649 0.45587885 90 86 85
0.37141797 0.05578151 0.45649281 90 86 85
0.37145656 0.05566905 0.45557249 89 86 84
0.37149501 0.05555704 0.45465583 86 83 82
-0.00830875 0.06432407 0.51905960 122 104 106
-0.00741160 0.06432407 0.51905960 120 104 107
-0.00650946 0.06427485 0.51866245 120 104 107
-0.00560442 0.06417664 0.51787001 120 104 105
-0.00470932 0.06417664 0.51787001 121 105 108
-0.00381714 0.06422571 0.51826596 121 105 108
-0.00291913 0.06417664 0.51787001 123 107 110
-0.00202403 0.06417664 0.51787001 120 104 107
-0.00112808 0.06412765 0.51747471 118 103 106
-0.00023366 0.06412765 0.51747471 118 103 106
0.00066025 0.06407874 0.51707995 117 104 106
0.00155161 0.06398113 0.51629233 114 103 105
0.00244212 0.06393244 0.51589942 111 100 102
0.00333635 0.06398113 0.51629233 109 98 100
0.00422229 0.06388383 0.51550710 117 96 102
0.00600431 0.06388383 0.51550710 117 97 101
0.36668393 0.05657052 0.45649281 87 79 81
0.36697868 0.05649444 0.45587885 88 79 82
0.36801413 0.05653245 0.45618564 89 80 83
0.36830691 0.05645647 0.45557249 89 81 83
0.36835167 0.05634288 0.45465583 88 82 82
0.37013048 0.05649444 0.45587885 89 83 83
0.37141797 0.05657052 0.45649281 89 84 82
0.37170637 0.05649444 0.45587885 89 84 82
0.37149501 0.05634288 0.45465583 88 84 83
-0.00830239 0.06517132 0.51866245 121 105 108
-0.00740593 0.06517132 0.51866245 120 104 107
-0.00650449 0.06512149 0.51826596 119 103 106
-0.00559587 0.06497247 0.51707995 119 103 106
-0.00470214 0.06497247 0.51707995 119 103 106
-0.00381132 0.06502207 0.51747471 119 103 107
-0.00291468 0.06497247 0.51707995 122 106 111
-0.00201941 0.06492295 0.51668584 122 106 110
-0.00112550 0.06487350 0.51629233 120 104 108
-0.00023313 0.06487350 0.51629233 119 104 107
0.00065924 0.06487350 0.51629233 117 104 106
0.00154925 0.06477483 0.51550710 115 104 106
0.00244026 0.06477483 0.51550710 115 100 102
0.00333381 0.06482413 0.51589942 117 99 99
0.00421908 0.06472562 0.51511538 122 97 101
0.00510166 0.06462739 0.51433372 122 97 101
0.00599975 0.06472562 0.51511538 121 97 101
0.36697868 0.05728239 0.45587885 88 79 79
0.36801413 0.05732093 0.45618564 91 82 81
0.36830691 0.05724389 0.45557249 92 83 83
0.36835167 0.05712871 0.45465583 92 83 83
0.36988175 0.05724389 0.45557249 90 82 81
0.37141797 0.05735954 0.45649281 89 82 80
0.37170637 0.05728239 0.45587885 87 82 80
0.37174433 0.05716705 0.45496097 87 81 79
-0.00829605 0.06601727 0.51826596 121 105 108
-0.00740027 0.06601727 0.51826596 120 104 107
-0.00649455 0.06591648 0.51747471 120 104 107
-0.00559160 0.06581600 0.51668584 119 103 106
-0.00469498 0.06576587 0.51629233 119 103 108
-0.00380261 0.06576587 0.51629233 119 104 108
-0.00291024 0.06576587 0.51629233 121 107 111
-0.00201633 0.06571582 0.51589942 122 107 111
-0.00112379 0.06566585 0.51550710 120 106 109
-0.00023277 0.06566585 0.51550710 120 105 108
0.00065824 0.06566585 0.51550710 119 104 108
0.00154807 0.06561595 0.51511538 117 105 107
0.00243841 0.06561595 0.51511538 116 104 106
0.00333127 0.06566585 0.51550710 117 104 105
0.00421268 0.06551638 0.51433372 122 101 104
0.00509779 0.06546671 0.51394379 122 100 102
0.00599064 0.06551638 0.51433372 122 100 101
0.36643717 0.05810941 0.45618564 86 77 78
0.36697868 0.05807034 0.45587885 88 80 77
0.36801413 0.05810941 0.45618564 91 83 79
0.36855459 0.05807034 0.45587885 93 85 81
0.36859888 0.05795342 0.45496097 93 85 81
0.37013048 0.05807034 0.45587885 93 85 81
0.37141797 0.05814854 0.45649281 93 84 82
0.37195653 0.05810941 0.45618564 92 83 82
0.37199399 0.05799234 0.45526651 90 81 80
-0.00827706 0.06675993 0.51707995 124 106 110
-0.00738897 0.06681089 0.51747471 123 105 109
-0.00648465 0.06670905 0.51668584 123 105 109
-0.00557885 0.06655686 0.51550710 122 104 108
-0.00468784 0.06655686 0.51550710 121 104 108
-0.00379682 0.06655686 0.51550710 122 105 109
-0.00290581 0.06655686 0.51550710 123 105 109
-0.00201174 0.06645579 0.51472425 122 104 108
-0.00112208 0.06645579 0.51472425 123 105 109
-0.00023260 0.06650628 0.51511538 122 104 108
0.00065774 0.06650628 0.51511538 121 105 108
0.00154690 0.06645579 0.51472425 121 105 108
0.00243656 0.06645579 0.51472425 119 104 107
0.00332874 0.06650628 0.51511538 117 104 106
0.00420948 0.06635502 0.51394379 119 104 104
0.36722565 0.05889789 0.45618564 89 80 77
0.36826193 0.05893756 0.45649281 89 81 77
0.36880261 0.05889789 0.45618564 90 82 78
0.36884645 0.05877923 0.45526651 92 84 81
0.37062898 0.05893756 0.45649281 93 85 81
0.37166825 0.05897727 0.45680043 93 85 82
0.37220699 0.05893756 0.45649281 93 84 83
0.37249434 0.05885829 0.45587885 90 81 80
-0.00915682 0.06755061 0.51629233 124 111 112
-0.00826446 0.06755061 0.51629233 126 110 113
-0.00738333 0.06765366 0.51707995 124 107 110
-0.00647972 0.06755061 0.51629233 122 106 109
-0.00557885 0.06744787 0.51550710 122 106 109
-0.00468784 0.06744787 0.51550710 122 106 109
-0.00379394 0.06739662 0.51511538 123 107 110
-0.00290360 0.06739662 0.51511538 123 107 110
-0.00201174 0.06734545 0.51472425 123 107 110
-0.00112208 0.06734545 0.51472425 123 107 110
-0.00023260 0.06739662 0.51511538 122 106 109
0.00065774 0.06739662 0.51511538 120 106 108
0.00154572 0.06729435 0.51433372 121 106 109
0.00243471 0.06729435 0.51433372 120 106 107
0.00332622 0.06734545 0.51472425 118 105 105
0.00420948 0.06724333 0.51394379 120 105 103
0.36668393 0.05972657 0.45649281 87 82 77
0.36722565 0.05968637 0.45618564 88 82 77
0.36851010 0.05976681 0.45680043 89 82 78
0.36880261 0.05968637 0.45618564 92 85 81
0.36909431 0.05960615 0.45557249 93 84 82
0.37087873 0.05976681 0.45680043 93 84 83
0.37191889 0.05980711 0.45710847 92 83 82
0.37270895 0.05980711 0.45710847 90 81 80
0.37299600 0.05972657 0.45649281 90 81 80
-0.00738333 0.06854739 0.51707995 126 110 113
-0.00647972 0.06844298 0.51629233 124 108 111
-0.00557885 0.06833889 0.51550710 124 108 110
-0.00468784 0.06833889 0.51550710 122 108 110
-0.00379682 0.06833889 0.51550710 121 108 110
-0.00290581 0.06833889 0.51550710 124 108 111
-0.00201327 0.06828696 0.51511538 125 109 112
-0.00112208 0.06823511 0.51472425 123 108 111
-0.00023277 0.06833889 0.51550710 121 107 109
0.00065774 0.06828696 0.51511538 120 107 109
0.00154572 0.06818333 0.51433372 122 107 109
0.00243471 0.06818333 0.51433372 122 106 109
0.00332622 0.06823511 0.51472425 120 104 107
0.00420948 0.06813164 0.51394379 119 104 102
0.36589491 0.06051558 0.45649281 86 80 79
0.36643717 0.06047485 0.45618564 87 81 79
0.36722565 0.06047485 0.45618564 87 82 79
0.36851010 0.06055636 0.45680043 88 83 78
0.36880261 0.06047485 0.45618564 89 85 80
0.36909431 0.06039357 0.45557249 91 85 82
0.37087873 0.06055636 0.45680043 91 84 82
0.37191889 0.06059719 0.45710847 89 81 80
0.37270895 0.06059719 0.45710847 89 81 80
0.37324736 0.06055636 0.45680043 89 81 80
0.37353349 0.06047485 0.45618564 87 80 79
-0.00647972 0.06933535 0.51629233 126 110 111
-0.00558309 0.06928258 0.51589942 124 110 111
-0.00468784 0.06922989 0.51550710 123 110 111
-0.00379971 0.06928258 0.51589942 123 110 112
-0.00290581 0.06922989 0.51550710 124 111 113
-0.00201327 0.06917729 0.51511538 124 111 113
-0.00112293 0.06917729 0.51511538 122 109 110
0.00154572 0.06907232 0.51433372 119 106 107
0.00243471 0.06907232 0.51433372 118 105 106
0.00332622 0.06912477 0.51472425 117 105 103
0.00420948 0.06901995 0.51394379 118 105 102
0.36614147 0.06134590 0.45680043 86 80 80
0.36668393 0.06130459 0.45649281 87 81 81
0.36747292 0.06130459 0.45649281 87 82 81
0.36875859 0.06138727 0.45710847 86 82 80
0.36929965 0.06134590 0.45680043 86 82 80
0.36959109 0.06126333 0.45618564 88 84 81
0.37112880 0.06138727 0.45710847 88 84 82
0.37216985 0.06142869 0.45741689 87 83 81
0.37296045 0.06142869 0.45741689 86 82 81
0.37349904 0.06138727 0.45710847 86 82 81
0.37403688 0.06134590 0.45680043 85 81 80
-0.00558309 0.07017428 0.51589942 127 109 113
0.00332369 0.06996130 0.51433372 117 105 102
0.36589491 0.06209360 0.45649281 87 80 80
0.36643717 0.06205181 0.45618564 87 81 81
0.36722565 0.06205181 0.45618564 88 82 82
0.36875859 0.06217734 0.45710847 87 82 82
0.36929965 0.06213544 0.45680043 86 82 81
0.36959109 0.06205181 0.45618564 86 82 81
0.37112880 0.06217734 0.45710847 87 83 82
0.37216985 0.06221930 0.45741689 87 83 82
0.37296045 0.06221930 0.45741689 87 83 82
0.37375104 0.06221930 0.45741689 86 82 81
0.37428910 0.06217734 0.45710847 86 82 81
0.36589491 0.06288261 0.45649281 87 80 80
0.36697868 0.06279803 0.45587885 88 82 82
0.36851010 0.06292498 0.45680043 87 83 82
0.36905095 0.06288261 0.45649281 87 83 82
0.36934254 0.06279803 0.45587885 87 83 82
0.37087873 0.06292498 0.45680043 87 83 82
0.37216985 0.06300990 0.45741689 88 84 83
0.37296045 0.06300990 0.45741689 89 83 83
0.37375104 0.06300990 0.45741689 89 82 82
0.37428910 0.06296741 0.45710847 89 82 82
0.36697868 0.06358598 0.45587885 91 79 81
0.36826193 0.06367162 0.45649281 89 81 82
0.37037957 0.06362877 0.45618564 90 85 84
0.37321228 0.06384359 0.45772576 90 84 84
0.37375104 0.06380051 0.45741689 90 81 82
0.37428910 0.06375749 0.45710847 90 81 82
0.37013048 0.06437393 0.45587885 94 85 88
0.37296045 0.06459112 0.45741689 92 84 86
0.37349904 0.06454757 0.45710847 89 82 84
0.37403688 0.06450407 0.45680043 88 82 84
0.59679139 0.09186568 0.65056801 80 77 78
0.59677041 0.09168969 0.64932168 79 78 78
0.59732056 0.09160195 0.64870036 82 81 81
0.36619073 0.06516188 0.45587885 91 84 87
0.36751947 0.06511809 0.45557249 89 80 84
0.36938524 0.06503069 0.45496097 82 76 79
0.59511358 0.09307946 0.65119290 85 79 81
0.59679139 0.09299014 0.65056801 83 78 79
0.59677041 0.09281199 0.64932168 81 78 79
0.59674948 0.09263453 0.64808017 82 80 80
0.59615982 0.09236961 0.64622670 82 80 80
0.36619073 0.06594983 0.45587885 85 83 85
0.36673206 0.06590551 0.45557249 89 85 88
0.36751947 0.06590551 0.45557249 92 88 91
0.36830691 0.06590551 0.45557249 83 79 82
0.36810479 0.06572882 0.45435110 85 81 84
0.36913750 0.06577291 0.45465583 87 83 85
0.59284908 0.09402435 0.64994425 88 81 83
0.59397244 0.09402435 0.64994425 86 80 82
0.59566689 0.09411459 0.65056801 85 79 81
0.59621918 0.09402435 0.64994425 84 78 80
0.59619933 0.09384441 0.64870036 84 78 80
0.59674948 0.09375469 0.64808017 84 78 80
0.01420135 0.11200799 0.76511496 130 119 119
0.01548882 0.11175572 0.76339173 131 120 119
0.36589491 0.06682766 0.45649281 81 80 82
0.36619073 0.06673779 0.45587885 83 80 83
0.36648577 0.06664814 0.45526651 87 83 86
0.36727265 0.06664814 0.45526651 92 88 91
0.36830691 0.06669293 0.45557249 87 83 85
0.36810479 0.06651413 0.45435110 86 82 83
0.36913750 0.06655874 0.45465583 88 84 85
0.59228116 0.09505659 0.64932168 90 84 86
0.59397244 0.09514773 0.64994425 87 81 83
0.59509581 0.09514773 0.64994425 86 80 82
0.59564811 0.09505659 0.64932168 84 79 81
0.59619933 0.09496563 0.64870036 83 79 80
0.59674948 0.09487484 0.64808017 83 79 80
0.59672868 0.09469378 0.64684337 83 79 80
0.59841770 0.09478422 0.64746118 84 80 81
0.01420135 0.11333043 0.76511496 129 120 121
0.01550629 0.11320266 0.76425236 130 121 121
0.01682723 0.11320266 0.76425236 130 120 120
0.01816867 0.11333043 0.76511496 129 120 119
0.36594462 0.06748036 0.45557249 81 78 81
0.36623979 0.06738977 0.45496097 84 80 83
0.36727265 0.06743503 0.45526651 88 84 87
0.36830691 0.06748036 0.45557249 88 82 85
0.36810479 0.06729944 0.45435110 87 81 83
0.59002858 0.09599499 0.64808017 92 83 86
0.59171444 0.09608685 0.64870036 90 81 84
0.59340352 0.09617889 0.64932168 90 81 84
0.59452581 0.09617889 0.64932168 89 81 83
0.59507811 0.09608685 0.64870036 88 80 83
0.59562933 0.09599499 0.64808017 86 80 82
0.59617954 0.09590331 0.64746118 85 79 81
0.01423348 0.11491227 0.76684600 128 118 118
0.01554133 0.11478242 0.76597947 129 118 119
0.01686526 0.11478242 0.76597947 128 117 119
0.01818919 0.11478242 0.76597947 130 119 121
0.58946502 0.09702239 0.64746118 95 91 90
0.59114873 0.09711515 0.64808017 92 88 87
0.59226888 0.09711515 0.64808017 92 86 85
0.59338903 0.09711515 0.64808017 92 86 84
0.59450918 0.09711515 0.64808017 93 86 85
0.59449261 0.09692981 0.64684337 91 85 84
0.59504288 0.09683741 0.64622670 89 83 82
0.59615982 0.09683741 0.64622670 87 81 80
0.01289346 0.11610635 0.76597947 130 114 115
0.01424960 0.11636934 0.76771444 130 116 116
0.01554133 0.11610635 0.76597947 129 116 117
0.01688434 0.11623770 0.76684600 125 114 116
0.01818919 0.11610635 0.76597947 129 113 116
0.58946502 0.09814148 0.64746118 91 90 90
0.59058410 0.09814148 0.64746118 91 90 90
0.59170318 0.09814148 0.64746118 92 90 88
0.59282225 0.09814148 0.64746118 93 89 86
0.59337461 0.09804783 0.64684337 93 89 86
0.59392589 0.09795436 0.64622670 92 88 85
0.59447616 0.09786107 0.64561129 92 87 85
0.59502536 0.09776796 0.64499700 91 87 84
0.00896217 0.11796346 0.76945728 129 113 116
0.01024559 0.11743029 0.76597947 130 114 117
0.01156953 0.11743029 0.76597947 130 114 117
0.01289346 0.11743029 0.76597947 130 113 116
0.01423348 0.11756313 0.76684600 128 112 115
0.01554133 0.11743029 0.76597947 128 112 115
0.01688434 0.11756313 0.76684600 127 112 115
0.01818919 0.11743029 0.76597947 128 110 114
0.01944721 0.11703356 0.76339173 128 110 114
0.58834594 0.09926056 0.64746118 91 90 91
0.58946502 0.09926056 0.64746118 90 90 90
0.59058410 0.09926056 0.64746118 90 90 90
0.59170318 0.09926056 0.64746118 90 90 89
0.59225661 0.09916585 0.64684337 91 90 88
0.59337461 0.09916585 0.64684337 91 90 88
0.59392589 0.09907132 0.64622670 91 89 88
0.59447616 0.09897696 0.64561129 92 88 87
0.59502536 0.09888279 0.64499700 91 87 86
0.00894187 0.11902320 0.76771444 129 111 115
0.01023403 0.11862019 0.76511496 130 112 116
0.01154344 0.11848646 0.76425236 131 113 117
0.01286439 0.11848646 0.76425236 131 113 117
0.01421739 0.11875422 0.76597947 128 111 115
0.01554133 0.11875422 0.76597947 127 111 114
0.01686526 0.11875422 0.76597947 128 112 115
0.01816867 0.11862019 0.76511496 128 108 112
0.01944721 0.11835302 0.76339173 130 109 114
0.02072000 0.11808707 0.76167625 129 109 114
0.02208613 0.11835302 0.76339173 129 109 114
0.02337926 0.11821990 0.76253301 128 109 113
0.02469724 0.11821990 0.76253301 126 108 112
0.02604451 0.11835302 0.76339173 128 108 113
0.58947194 0.10057176 0.64870036 93 88 89
0.59002858 0.10047561 0.64808017 91 89 89
0.59114873 0.10047561 0.64808017 91 89 89
0.59226888 0.10047561 0.64808017 91 89 89
0.59282225 0.10037965 0.64746118 91 90 90
0.59337461 0.10028386 0.64684337 91 90 90
0.59336025 0.10009284 0.64561129 91 89 89
0.59391052 0.09999761 0.64499700 91 87 86
0.59445977 0.09990256 0.64438391 88 84 83
0.00894187 0.12035014 0.76771444 127 111 112
0.01023403 0.11994263 0.76511496 128 112 113
0.01154344 0.11980741 0.76425236 130 114 117
0.01286439 0.11980741 0.76425236 131 113 116
0.01420135 0.11994263 0.76511496 128 111 114
0.01552379 0.11994263 0.76511496 128 110 113
0.01684623 0.11994263 0.76511496 127 109 113
0.01814818 0.11980741 0.76425236 127 109 113
0.01942533 0.11953788 0.76253301 128 110 114
0.02072000 0.11940356 0.76167625 128 110 114
0.02208613 0.11967248 0.76339173 129 111 115
0.02337926 0.11953788 0.76253301 128 110 114
0.02469724 0.11953788 0.76253301 128 110 114
0.02604451 0.11967248 0.76339173 128 110 114
0.59116912 0.10198577 0.65056801 92 86 88
0.59059316 0.10169298 0.64870036 93 87 89
0.59171444 0.10169298 0.64870036 93 87 89
0.59170318 0.10149873 0.64746118 93 87 89
0.59225661 0.10140188 0.64684337 92 88 89
0.59280896 0.10130522 0.64622670 92 88 89
0.59279573 0.10111243 0.64499700 91 88 88
0.59334600 0.10101632 0.64438391 89 87 86
0.59220803 0.10063368 0.64194304 86 85 83
0.00894187 0.12167707 0.76771444 127 112 111
0.01023403 0.12126507 0.76511496 127 112 111
0.01154344 0.12112836 0.76425236 129 114 113
0.01286439 0.12112836 0.76425236 128 112 112
0.01418534 0.12112836 0.76425236 127 111 111
0.01552379 0.12126507 0.76511496 126 110 111
0.01684623 0.12126507 0.76511496 126 109 111
0.01814818 0.12112836 0.76425236 127 111 112
0.01942533 0.12085585 0.76253301 127 111 112
0.02208613 0.12099195 0.76339173 129 113 114
0.02340559 0.12099195 0.76339173 130 114 115
0.02472505 0.12099195 0.76339173 129 113 116
0.02607387 0.12112836 0.76425236 129 113 116
0.59287602 0.10340794 0.65244645 92 86 88
0.59172571 0.10301136 0.64994425 93 87 89
0.59284908 0.10301136 0.64994425 93 87 89
0.59283566 0.10281421 0.64870036 93 87 89
0.59282225 0.10261782 0.64746118 92 87 88
0.59337461 0.10251989 0.64684337 91 86 88
0.59392589 0.10242216 0.64622670 90 86 87
0.59391052 0.10222726 0.64499700 90 85 85
0.59445977 0.10213009 0.64438391 88 84 83
0.00893175 0.12286486 0.76684600 129 114 112
0.01023403 0.12258751 0.76511496 127 112 110
0.01154344 0.12244930 0.76425236 125 113 108
0.01286439 0.12244930 0.76425236 127 112 108
0.01418534 0.12244930 0.76425236 127 112 109
0.01552379 0.12258751 0.76511496 126 111 109
0.01684623 0.12258751 0.76511496 126 111 109
0.01814818 0.12244930 0.76425236 125 110 108
0.01942533 0.12217382 0.76253301 125 110 108
0.02072000 0.12203655 0.76167625 125 110 109
0.02208613 0.12231141 0.76339173 128 112 112
0.02340559 0.12231141 0.76339173 129 114 114
0.02472505 0.12231141 0.76339173 129 113 114
0.02604451 0.12231141 0.76339173 128 112 113
0.02727184 0.12189959 0.76082134 127 111 112
0.02868343 0.12231141 0.76339173 129 113 114
0.59344721 0.10463635 0.65307498 93 86 87
0.59343261 0.10443512 0.65181905 94 86 88
0.59455919 0.10443512 0.65181905 94 87 88
0.59397244 0.10413474 0.64994425 94 87 88
0.59338903 0.10383607 0.64808017 93 86 88
0.59337461 0.10363791 0.64684337 92 85 87
0.59392589 0.10353912 0.64622670 92 85 87
0.59447616 0.10344051 0.64561129 89 83 83
0.59559202 0.10344051 0.64561129 87 81 81
0.01023403 0.12390995 0.76511496 127 116 113
0.01154344 0.12377025 0.76425236 126 114 109
0.01286439 0.12377025 0.76425236 126 112 108
0.01418534 0.12377025 0.76425236 127 112 108
0.01552379 0.12390995 0.76511496 129 113 110
0.01682723 0.12377025 0.76425236 129 112 110
0.01814818 0.12377025 0.76425236 127 110 110
0.01942533 0.12349180 0.76253301 126 109 110
0.02072000 0.12335305 0.76167625 126 110 111
0.02208613 0.12363087 0.76339173 127 111 112
0.02340559 0.12363087 0.76339173 129 113 114
0.02472505 0.12363087 0.76339173 128 112 113
0.02607387 0.12377025 0.76425236 127 111 112
0.02733319 0.12349180 0.76253301 127 111 112
0.02874818 0.12390995 0.76511496 127 111 112
0.03003672 0.12377025 0.76425236 128 112 113
0.03142853 0.12404996 0.76597947 127 111 111
0.03271550 0.12390995 0.76511496 127 112 111
0.59401947 0.10586713 0.65370476 93 86 84
0.59457600 0.10576513 0.65307498 93 85 84
0.59570479 0.10576513 0.65307498 94 85 85
0.59511358 0.10546034 0.65119290 94 85 85
0.59395689 0.10505667 0.64870036 94 85 85
0.59394139 0.10485598 0.64746118 93 85 86
0.59447616 0.10455640 0.64561129 89 82 83
0.59615982 0.10465606 0.64622670 86 80 80
0.01023403 0.12523238 0.76511496 130 118 113
0.01155647 0.12523238 0.76511496 129 117 112
0.01287891 0.12523238 0.76511496 129 115 110
0.01421739 0.12537389 0.76597947 130 115 111
0.01555891 0.12551571 0.76684600 131 116 114
0.01684623 0.12523238 0.76511496 130 115 113
0.01816867 0.12523238 0.76511496 129 113 111
0.01944721 0.12495033 0.76339173 128 111 110
0.02079008 0.12509120 0.76425236 127 111 110
0.02213598 0.12523238 0.76511496 128 111 112
0.02345842 0.12523238 0.76511496 129 113 114
0.02478086 0.12523238 0.76511496 129 112 113
0.02613280 0.12537389 0.76597947 129 112 113
0.02742574 0.12523238 0.76511496 128 111 112
0.02884585 0.12565787 0.76771444 128 111 111
0.03013865 0.12551571 0.76684600 126 111 110
0.03149971 0.12565787 0.76771444 127 112 110
0.03275246 0.12537389 0.76597947 127 112 110
0.03403794 0.12523238 0.76511496 130 113 112
0.59401947 0.10699701 0.65370476 93 86 84
0.59514934 0.10699701 0.65370476 93 85 84
0.59627920 0.10699701 0.65370476 91 83 82
0.59625912 0.10679104 0.65244645 91 84 82
0.59452581 0.10627959 0.64932168 92 85 84
0.59394139 0.10597507 0.64746118 91 85 85
0.59449261 0.10587394 0.64684337 91 85 85
0.59447616 0.10567228 0.64561129 90 84 84
0.01024559 0.12669782 0.76597947 128 117 119
0.01156953 0.12669782 0.76597947 129 117 112
0.01289346 0.12669782 0.76597947 128 116 111
0.01424960 0.12698479 0.76771444 131 118 113
0.01559419 0.12712876 0.76858485 133 118 114
0.01686526 0.12669782 0.76597947 133 116 115
0.01818919 0.12669782 0.76597947 130 112 111
0.01949110 0.12655483 0.76511496 129 110 110
0.02081354 0.12655483 0.76511496 131 111 113
0.02218606 0.12684114 0.76684600 132 112 114
0.02348493 0.12669782 0.76597947 132 112 115
0.02480886 0.12669782 0.76597947 131 113 115
0.02619199 0.12698479 0.76771444 130 115 113
0.02748779 0.12684114 0.76684600 130 116 114
0.02891134 0.12727307 0.76945728 126 114 111
0.03017278 0.12698479 0.76771444 125 113 110
0.03153543 0.12712876 0.76858485 126 112 110
0.03278951 0.12684114 0.76684600 127 113 111
0.03403794 0.12655483 0.76511496 128 114 112
0.59572381 0.10823125 0.65433574 94 86 85
0.59685481 0.10823125 0.65433574 92 85 84
0.59683359 0.10802271 0.65307498 91 85 84
0.59509581 0.10750487 0.64994425 92 86 85
0.59450918 0.10719653 0.64808017 92 86 86
0.59562933 0.10719653 0.64808017 92 86 86
0.59561068 0.10699196 0.64684337 91 85 85
0.01025718 0.12816659 0.76684600 131 117 117
0.01690346 0.12831172 0.76771444 133 116 115
0.01820977 0.12816659 0.76684600 131 113 113
0.01951313 0.12802176 0.76597947 132 112 112
0.02083706 0.12802176 0.76597947 132 112 112
0.02221119 0.12831172 0.76771444 133 112 114
0.02353812 0.12831172 0.76771444 135 114 117
0.02486505 0.12831172 0.76771444 133 115 117
0.02625145 0.12860301 0.76945728 130 114 115
0.02755012 0.12845720 0.76858485 131 117 117
0.02894419 0.12874916 0.77033162 128 116 114
0.03017278 0.12831172 0.76771444 126 114 112
0.03157122 0.12860301 0.76945728 126 114 113
0.03282665 0.12831172 0.76771444 128 115 114
0.03403794 0.12787727 0.76511496 127 115 114
0.59740913 0.10925676 0.65370476 91 87 86
0.59677041 0.10852419 0.64932168 91 86 86
0.02228691 0.13008061 0.77033162 133 115 118
0.02359156 0.12993295 0.76945728 132 116 118
0.02494982 0.13008061 0.77033162 133 116 119
0.02631118 0.13022859 0.77120799 131 119 119
0.02764415 0.13022859 0.77120799 130 120 119
0.02901012 0.13037692 0.77208638 128 117 117
0.03020699 0.12978564 0.76858485 126 115 115
0.03164306 0.13022859 0.77120799 126 115 115
0.03286387 0.12978564 0.76858485 126 115 115
0.03411495 0.12949201 0.76684600 128 115 115
0.23742175 0.11006821 0.65181905 124 112 109
0.23923849 0.11038663 0.65370476 127 112 110
0.24436820 0.10964649 0.64932168 124 109 108
0.24502110 0.10943684 0.64808017 126 109 108
0.02231226 0.13156156 0.77120799 133 118 116
0.02361836 0.13141207 0.77033162 132 117 115
0.02500665 0.13171141 0.77208638 131 119 116
0.02634114 0.13171141 0.77208638 132 121 118
0.02767563 0.13171141 0.77208638 130 120 117
0.02901012 0.13171141 0.77208638 129 119 116
0.03017278 0.13096559 0.76771444 129 118 115
0.03164306 0.13156156 0.77120799 130 118 115
0.03290117 0.13126290 0.76945728 130 118 116
0.03411495 0.13081744 0.76684600 128 115 115
0.23538980 0.11076880 0.64932168 124 109 106
0.23673885 0.11087500 0.64994425 126 110 108
0.23831922 0.11108801 0.65119290 128 111 109
0.23990567 0.11130185 0.65244645 127 110 108
0.24010898 0.11087500 0.64994425 126 107 108
0.24077067 0.11066280 0.64870036 124 106 107
0.24189189 0.11066280 0.64870036 123 106 108
0.24278079 0.11055700 0.64808017 118 109 108
0.24436820 0.11076880 0.64932168 119 109 108
0.24502110 0.11055700 0.64808017 122 110 107
0.24590616 0.11045140 0.64746118 125 111 108
0.24726140 0.11055700 0.64808017 124 109 107
0.24885739 0.11076880 0.64932168 122 105 103
0.02361836 0.13274352 0.77033162 132 120 117
0.02497821 0.13289455 0.77120799 133 121 118
0.02634114 0.13304590 0.77208638 132 120 116
0.02764415 0.13289455 0.77120799 131 119 115
0.02897712 0.13289455 0.77120799 131 119 115
0.23404332 0.11178402 0.64870036 126 111 107
0.23516454 0.11178402 0.64870036 127 111 108
0.23651209 0.11189109 0.64932168 128 111 108
0.23763439 0.11189109 0.64932168 128 111 108
0.23944475 0.11221354 0.65119290 127 110 107
0.23987900 0.11189109 0.64932168 127 110 109
0.24054049 0.11167715 0.64808017 125 109 109
0.24166064 0.11167715 0.64808017 123 110 110
0.24254891 0.11157048 0.64746118 121 111 108
0.24413435 0.11178402 0.64870036 121 111 108
0.24502110 0.11167715 0.64808017 123 111 106
0.24590616 0.11157048 0.64746118 126 110 107
0.24726140 0.11167715 0.64808017 129 109 107
0.24885739 0.11189109 0.64932168 127 108 106
0.02228691 0.13407497 0.77033162 133 119 118
0.02356481 0.13377096 0.76858485 133 121 118
0.02494982 0.13407497 0.77033162 133 121 118
0.02631118 0.13422751 0.77120799 132 121 118
0.02761273 0.13407497 0.77033162 130 120 117
0.02894419 0.13407497 0.77033162 130 120 117
0.23449136 0.11258204 0.64684337 128 111 110
0.23583440 0.11268957 0.64746118 127 110 108
0.23695350 0.11268957 0.64746118 127 110 108
0.23875669 0.11301339 0.64932168 128 111 108
0.23942032 0.11279730 0.64808017 126 111 107
0.24031074 0.11268957 0.64746118 126 111 108
0.24119945 0.11258204 0.64684337 126 111 109
0.24231747 0.11258204 0.64684337 124 112 109
0.24390095 0.11279730 0.64808017 124 112 109
0.24478708 0.11268957 0.64746118 126 111 107
0.24590616 0.11268957 0.64746118 127 111 107
0.24702525 0.11268957 0.64746118 129 109 107
0.24838157 0.11279730 0.64808017 128 108 106
0.25021937 0.11312175 0.64994425 125 105 103
0.25110200 0.11301339 0.64932168 125 103 102
0.02233768 0.13571487 0.77208638 135 120 118
0.02361836 0.13540643 0.77033162 133 121 118
0.02497821 0.13556048 0.77120799 127 114 110
0.02634114 0.13571487 0.77208638 131 119 115
0.02767563 0.13571487 0.77208638 131 119 115
0.02894419 0.13540643 0.77033162 133 120 116
0.03020699 0.13509940 0.76858485 132 120 117
0.23449136 0.11370006 0.64684337 128 109 112
0.23560937 0.11370006 0.64684337 125 108 109
0.23672739 0.11370006 0.64684337 125 109 109
0.23852822 0.11402647 0.64870036 126 110 110
0.23919167 0.11380865 0.64746118 124 112 109
0.24008144 0.11370006 0.64684337 124 112 109
0.24096952 0.11359167 0.64622670 124 113 110
0.24231747 0.11370006 0.64684337 124 112 109
0.24390095 0.11391746 0.64808017 124 112 109
0.24478708 0.11380865 0.64746118 125 111 109
0.24590616 0.11380865 0.64746118 126 112 109
0.24678954 0.11370006 0.64684337 126 109 107
0.24838157 0.11391746 0.64808017 124 105 103
0.25021937 0.11424512 0.64994425 126 106 104
0.25110200 0.11413569 0.64932168 126 106 104
0.02236315 0.13720563 0.77296674 134 119 117
0.02364524 0.13689345 0.77120799 133 118 116
0.02500665 0.13704936 0.77208638 132 117 115
0.02634114 0.13704936 0.77208638 133 118 116
0.02767563 0.13704936 0.77208638 133 118 116
0.02897712 0.13689345 0.77120799 134 119 117
0.03020699 0.13642782 0.76858485 134 119 117
0.03164306 0.13689345 0.77120799 134 119 117
0.03293855 0.13673788 0.77033162 133 118 116
0.23449136 0.11481807 0.64684337 128 110 112
0.23560937 0.11481807 0.64684337 127 109 112
0.23650172 0.11470862 0.64622670 125 108 110
0.23830017 0.11503761 0.64808017 124 108 109
0.23896343 0.11481807 0.64684337 125 110 110
0.24008144 0.11481807 0.64684337 126 111 111
0.24119945 0.11481807 0.64684337 125 113 110
0.24231747 0.11481807 0.64684337 125 113 110
0.24390095 0.11503761 0.64808017 124 112 109
0.24478708 0.11492774 0.64746118 125 111 108
0.24590616 0.11492774 0.64746118 125 110 107
0.24702525 0.11492774 0.64746118 123 108 106
0.24838157 0.11503761 0.64808017 122 106 103
0.25021937 0.11536850 0.64994425 125 107 104
0.25110200 0.11525799 0.64932168 129 109 107
0.02233768 0.13838385 0.77208638 135 118 117
0.02361836 0.13806935 0.77033162 134 117 116
0.02497821 0.13822642 0.77120799 133 116 115
0.02631118 0.13822642 0.77120799 133 116 115
0.02761273 0.13806935 0.77033162 132 117 115
0.02891134 0.13791263 0.76945728 133 118 116
0.03017278 0.13760026 0.76771444 133 118 116
0.03160710 0.13806935 0.77033162 133 118 116
0.03290117 0.13791263 0.76945728 133 118 116
0.03419230 0.13775626 0.76858485 133 118 116
0.23381956 0.11615777 0.64808017 128 107 109
0.23471533 0.11604682 0.64746118 128 107 110
0.23583440 0.11604682 0.64746118 128 107 110
0.23672739 0.11593609 0.64684337 127 107 109
0.23852822 0.11626893 0.64870036 125 107 109
0.23919167 0.11604682 0.64746118 127 109 111
0.24031074 0.11604682 0.64746118 128 110 112
0.24142982 0.11604682 0.64746118 127 111 112
0.24278079 0.11615777 0.64808017 127 111 111
0.24413435 0.11626893 0.64870036 127 112 110
0.24502110 0.11615777 0.64808017 126 111 108
0.24614125 0.11615777 0.64808017 124 108 105
0.24726140 0.11615777 0.64808017 123 108 106
0.24861924 0.11626893 0.64870036 123 109 107
0.25045949 0.11660367 0.65056801 124 111 109
0.25134274 0.11649188 0.64994425 127 111 108
0.42723462 0.11982349 0.66853237 111 101 96
0.42839012 0.11982349 0.66853237 110 100 95
0.02228691 0.13940080 0.77033162 134 117 116
0.02353812 0.13892719 0.76771444 134 117 117
0.02489325 0.13908470 0.76858485 133 116 116
0.02625145 0.13924257 0.76945728 133 116 116
0.02751892 0.13892719 0.76771444 132 117 115
0.02881322 0.13877003 0.76684600 133 118 116
0.03010460 0.13861322 0.76597947 133 118 116
0.03153543 0.13908470 0.76858485 134 119 117
0.03286387 0.13908470 0.76858485 134 119 117
0.23493971 0.11727792 0.64808017 125 105 108
0.23583440 0.11716591 0.64746118 125 105 108
0.23695350 0.11716591 0.64746118 125 105 109
0.23852822 0.11739015 0.64870036 127 107 110
0.23942032 0.11727792 0.64808017 127 108 111
0.24054049 0.11727792 0.64808017 127 109 112
0.24166064 0.11727792 0.64808017 128 110 111
0.24301311 0.11739015 0.64870036 128 111 111
0.24413435 0.11739015 0.64870036 127 111 111
0.24525557 0.11739015 0.64870036 128 110 111
0.24637680 0.11739015 0.64870036 128 109 110
0.24749802 0.11739015 0.64870036 126 109 111
0.24885739 0.11750259 0.64932168 126 109 111
0.25070009 0.11784121 0.65119290 125 109 110
0.41848591 0.12145812 0.67118007 112 102 99
0.42261261 0.12097900 0.66853237 112 103 98
0.42335060 0.12085981 0.66787374 108 100 94
0.42692116 0.12121809 0.66985363 110 102 96
0.42723462 0.12097900 0.66853237 109 101 95
0.42839012 0.12097900 0.66853237 109 101 95
0.02348493 0.13993716 0.76597947 133 115 117
0.02480886 0.13993716 0.76597947 134 116 118
0.02622168 0.14041314 0.76858485 134 116 118
0.02745673 0.13993716 0.76597947 135 117 119
0.02881322 0.14009546 0.76684600 134 118 119
0.23471533 0.11828499 0.64746118 120 106 108
0.23560937 0.11817212 0.64684337 122 106 109
0.23672739 0.11817212 0.64684337 122 106 109
0.23852822 0.11851137 0.64870036 122 106 109
0.23942032 0.11839808 0.64808017 124 107 111
0.24054049 0.11839808 0.64808017 126 109 113
0.24189189 0.11851137 0.64870036 127 110 114
0.24324588 0.11862489 0.64932168 129 111 115
0.24436820 0.11862489 0.64932168 128 110 113
0.24525557 0.11851137 0.64870036 128 110 114
0.24661279 0.11862489 0.64932168 129 110 114
0.24773510 0.11862489 0.64932168 129 111 115
0.41890067 0.12273973 0.67184526 114 104 101
0.41964599 0.12261821 0.67118007 112 102 98
0.42038986 0.12249692 0.67051619 112 102 97
0.42071649 0.12225507 0.66919231 111 102 97
0.42145711 0.12213451 0.66853237 111 101 97
0.42302978 0.12225507 0.66919231 110 101 96
0.42376810 0.12213451 0.66853237 110 100 95
0.42492363 0.12213451 0.66853237 110 101 96
0.42649972 0.12225507 0.66919231 110 102 96
0.42723462 0.12213451 0.66853237 109 101 95
0.42796806 0.12201417 0.66787374 109 101 95
0.42912242 0.12201417 0.66787374 109 101 95
0.43027681 0.12201417 0.66787374 108 100 94
0.02616236 0.14142089 0.76684600 134 116 120
0.02739482 0.14094257 0.76425236 134 118 119
0.24054049 0.11951823 0.64808017 121 110 110
0.24189189 0.11963260 0.64870036 126 111 113
0.24324588 0.11974719 0.64932168 127 111 114
0.24460249 0.11986201 0.64994425 127 111 114
0.24549049 0.11974719 0.64932168 127 111 114
0.24684924 0.11986201 0.64994425 128 112 115
0.24797261 0.11986201 0.64994425 129 113 116
0.41856912 0.12414704 0.67317957 116 103 103
0.41931623 0.12402388 0.67251176 114 101 101
0.42006189 0.12390096 0.67184526 113 102 98
0.42080608 0.12377828 0.67118007 111 101 96
0.42113224 0.12353367 0.66985363 111 101 96
0.42145711 0.12329001 0.66853237 110 100 95
0.42344782 0.12353367 0.66985363 110 100 95
0.42418644 0.12341172 0.66919231 110 100 95
0.42492363 0.12329001 0.66853237 110 100 95
0.42692116 0.12353367 0.66985363 111 101 96
0.42723462 0.12329001 0.66853237 110 101 96
0.42796806 0.12316854 0.66787374 110 102 96
0.42912242 0.12316854 0.66787374 111 103 97
0.43027681 0.12316854 0.66787374 112 104 98
0.43100652 0.12304731 0.66721636 111 103 97
0.24077067 0.12075382 0.64870036 123 112 109
0.24371277 0.12110148 0.65056801 127 112 109
0.24507242 0.12121782 0.65119290 127 113 110
0.24596168 0.12110148 0.65056801 127 113 110
0.24708614 0.12110148 0.65056801 128 111 111
0.24844903 0.12121782 0.65119290 128 111 111
0.41940209 0.12555996 0.67451924 114 101 103
0.41973266 0.12531057 0.67317957 114 101 103
0.42089617 0.12531057 0.67317957 115 101 102
0.42122313 0.12506218 0.67184526 115 101 102
0.42154878 0.12481479 0.67051619 115 100 101
0.42229003 0.12469145 0.66985363 115 99 100
0.42428631 0.12493837 0.67118007 114 98 99
0.42460561 0.12469145 0.66985363 114 98 99
0.42534310 0.12456836 0.66919231 114 99 99
0.42692116 0.12469145 0.66985363 114 102 99
0.42765638 0.12456836 0.66919231 116 104 101
0.42839012 0.12444551 0.66853237 116 105 100
0.42954564 0.12444551 0.66853237 116 105 100
0.43070114 0.12444551 0.66853237 115 106 100
0.43143117 0.12432291 0.66787374 114 106 100
0.24394690 0.12234335 0.65119290 126 113 108
0.24530807 0.12246099 0.65181905 124 113 108
0.24619795 0.12234335 0.65119290 125 114 109
0.41981980 0.12685202 0.67519110 115 101 103
0.42014986 0.12659983 0.67384875 115 101 102
0.42173380 0.12672581 0.67451924 116 101 103
0.42205971 0.12647411 0.67317957 118 102 104
0.42196617 0.12609844 0.67118007 118 102 104
0.42312625 0.12609844 0.67118007 118 102 103
0.42512816 0.12634864 0.67251176 116 100 101
0.42460561 0.12584923 0.66985363 115 100 99
0.42534310 0.12572500 0.66919231 116 101 99
0.42734346 0.12597372 0.67051619 118 103 99
0.42807895 0.12584923 0.66985363 121 106 102
0.42881301 0.12572500 0.66919231 120 105 101
0.42954564 0.12560101 0.66853237 120 105 101
0.43070114 0.12560101 0.66853237 119 106 102
0.43185663 0.12560101 0.66853237 119 107 102
0.43301216 0.12560101 0.66853237 119 108 103
0.41981980 0.12801903 0.67519110 122 105 105
0.42056793 0.12789166 0.67451924 122 103 105
0.42215383 0.12801903 0.67519110 121 103 104
0.42247927 0.12776452 0.67384875 120 104 104
0.42280340 0.12751102 0.67251176 120 104 104
0.42555034 0.12763765 0.67317957 119 103 104
0.42502558 0.12713265 0.67051619 118 102 103
0.42534310 0.12688164 0.66919231 119 103 104
0.42776656 0.12725852 0.67118007 119 103 101
0.42807895 0.12700702 0.66985363 120 105 102
0.42881301 0.12688164 0.66919231 120 105 101
