ply
format ascii 1.0
element vertex 1080
property float x
property float y
property float z
property uchar red
property uchar green
property uchar blue
end_header
-0.13001962 0.21298404 0.89464116 192 193 192
-0.12984575 0.20304015 0.90226306 181 183 184
-0.13006873 0.23592383 0.87676215 195 196 195
-0.13003088 0.22583080 0.88467058 193 194 193
-0.13024655 0.25852675 0.85864545 192 192 190
-0.12997851 0.24884892 0.86642193 195 196 194
-0.12995901 0.26968098 0.84971331 195 195 193
-0.12996063 0.29100577 0.83275957 196 196 191
-0.13044405 0.28076085 0.84078586 195 195 192
-0.12998173 0.31389870 0.81551245 195 197 191
-0.13009575 0.30391569 0.82283293 193 194 190
-0.13024124 0.33879366 0.79941005 194 195 190
-0.12996863 0.32877694 0.80550628 198 199 192
-0.12998527 0.34973117 0.79465495 67 67 67
-0.12987491 0.36997632 0.78811283 0 0 0
-0.13235459 0.39885636 0.77958533 0 0 0
-0.12986228 0.38921679 0.78259454 0 0 0
-0.13006205 0.41027904 0.77651945 0 0 0
-0.12034273 0.40001067 0.78002381 0 0 0
-0.12990321 0.42868812 0.77087747 0 0 0
-0.10961851 -0.66585563 0.99467691 0 0 0
-0.10982085 -0.64985723 0.99651225 0 0 0
-0.11022779 -0.62991153 0.99870381 0 0 0
-0.10243597 -0.62107139 1.00007570 0 0 0
-0.11681955 -0.61894377 0.99989645 0 0 0
-0.11003488 -0.60947098 1.00145783 0 0 0
-0.10971570 -0.58990714 1.00484247 0 0 0
-0.11002521 -0.57000213 1.00887358 0 0 0
-0.11037445 -0.56211066 1.07758309 104 118 121
-0.11014122 -0.54992202 1.01431376 0 0 0
-0.10966845 -0.55199076 1.05294945 103 117 122
-0.11038531 -0.55005593 1.07768404 104 118 122
-0.11006589 -0.53858951 1.01890817 0 0 0
-0.10915076 -0.53722964 1.02114485 55 63 67
-0.11038531 -0.52956634 1.07768404 104 118 124
-0.11038531 -0.51000810 1.07768404 104 117 125
-0.11038531 -0.49044986 1.07768404 104 116 123
-0.11038531 -0.46996027 1.07768404 104 115 125
-0.11038531 -0.44947069 1.07768404 102 115 126
-0.11038531 -0.42991245 1.07768404 102 112 126
-0.11038531 -0.41035420 1.07768404 99 111 127
-0.11038531 -0.38986462 1.07768404 98 110 126
-0.11038531 -0.36937503 1.07768404 97 109 124
-0.11038531 -0.34981679 1.07768404 96 108 125
-0.11038531 -0.33025855 1.07768404 97 106 125
-0.11038531 -0.30976896 1.07768404 92 106 125
-0.11038531 -0.29021072 1.07768404 92 104 127
-0.11038515 -0.27065208 1.07768241 93 103 126
-0.11036480 -0.25011679 1.07748323 91 103 126
-0.11032676 -0.22955202 1.07711160 91 101 124
-0.11028242 -0.20991959 1.07667859 87 100 125
-0.11023518 -0.19029826 1.07621700 87 99 125
-0.11017385 -0.16974229 1.07561765 87 98 123
-0.11009048 -0.15010814 1.07480306 83 92 118
-0.10996375 -0.13045176 1.07356407 55 58 70
-0.10987187 -0.10994835 1.07266715 54 55 66
-0.10977541 -0.08947560 1.07172491 52 53 63
-0.10966411 -0.06995479 1.07063834 54 55 66
-0.10949185 -0.05044781 1.06895910 62 64 78
-0.11007526 -0.02430208 1.05682690 140 142 153
-0.11030977 -0.03442889 1.06328695 113 116 134
-0.10997044 -0.00961683 1.04715738 157 158 163
-0.10982938 0.01036360 1.03402156 156 156 158
-0.10984003 0.03648082 1.01725351 129 130 137
-0.11019111 0.02600511 1.02395037 143 143 145
-0.10995939 0.04982035 1.00871703 134 135 141
-0.10966629 0.07181555 0.99455009 122 123 133
-0.11139305 0.06136281 1.00130219 122 123 132
-0.10948671 0.09669771 0.97812943 125 131 138
-0.11009734 0.08717034 0.98446773 127 129 136
-0.11001549 0.11012379 0.96896659 126 128 135
-0.11009089 0.13140513 0.95406234 123 126 133
-0.10965778 0.12161071 0.96096236 120 123 131
-0.10984820 0.15579296 0.93668333 133 134 141
-0.11004799 0.14546371 0.94405992 130 133 141
-0.11009829 0.17914485 0.91968469 176 179 181
-0.11003708 0.16925174 0.92695885 145 146 152
-0.11001168 0.19016321 0.91150465 189 190 190
-0.11008924 0.21288882 0.89433381 193 194 193
-0.10971454 0.20291893 0.90192796 196 196 196
-0.10981749 0.23598073 0.87655412 196 197 197
-0.11012615 0.22577713 0.88445988 195 196 195
-0.10936887 0.25807736 0.85889499 196 197 195
-0.11022150 0.24859792 0.86650448 197 197 196
-0.11003653 0.26976173 0.84950562 197 198 195
-0.10992543 0.29097351 0.83260244 195 195 191
-0.11008098 0.28071531 0.84064949 194 194 190
-0.10991980 0.31392756 0.81540103 196 197 191
-0.11016801 0.30386892 0.82270617 195 195 191
-0.11126391 0.33937404 0.79955624 197 198 192
-0.10992103 0.32948308 0.80525667 198 199 192
-0.11004577 0.35026015 0.79523711 45 45 44
-0.11007042 0.36997140 0.78910856 0 0 0
-0.10993537 0.38980445 0.78357999 0 0 0
-0.11062058 0.41111827 0.77749216 0 0 0
-0.10715376 0.40137032 0.78043207 0 0 0
-0.10973153 0.42883415 0.77202507 0 0 0
-0.08989082 -0.66617449 0.99515319 0 0 0
-0.09005688 -0.65016971 0.99699148 0 0 0
-0.09056557 -0.63190918 0.99901272 0 0 0
-0.08868935 -0.62247959 1.00028131 0 0 0
-0.08964640 -0.61016039 1.00203781 0 0 0
-0.08996583 -0.58973875 1.00560951 0 0 0
-0.09007782 -0.56964888 1.00968844 0 0 0
-0.08881108 -0.56235231 1.07705738 100 116 121
-0.08994834 -0.54974517 1.01521805 0 0 0
-0.08709720 -0.54230944 1.02906346 43 53 54
-0.09317128 -0.55362365 1.05490965 95 118 121
-0.08975182 -0.55044556 1.07700152 102 116 121
-0.09120866 -0.53974302 1.01950225 0 0 0
-0.09441944 -0.53891002 1.02217763 18 24 25
-0.08989573 -0.52956634 1.07768404 103 116 121
-0.08989573 -0.51000810 1.07768404 102 114 123
-0.08989573 -0.49044986 1.07768404 103 114 122
-0.08989573 -0.46996027 1.07768404 103 113 122
-0.08989573 -0.44947069 1.07768404 101 113 123
-0.08989573 -0.42991245 1.07768404 100 112 123
-0.08989573 -0.41035420 1.07768404 99 110 124
-0.08989573 -0.38986462 1.07768404 98 110 125
-0.08989573 -0.36937503 1.07768404 97 108 126
-0.08989573 -0.34981679 1.07768404 96 106 124
-0.08989573 -0.33025855 1.07768404 95 105 123
-0.08989573 -0.30976896 1.07768404 92 105 126
-0.08989573 -0.29021072 1.07768404 90 105 125
-0.08989485 -0.27064986 1.07767328 92 102 125
-0.08987381 -0.25010207 1.07741962 91 101 125
-0.08984195 -0.22953618 1.07703729 89 101 123
-0.08980486 -0.20990284 1.07659246 88 99 124
-0.08976258 -0.19027495 1.07608481 90 97 123
-0.08971009 -0.16971664 1.07545492 88 98 124
-0.08963901 -0.15008022 1.07460222 83 92 113
-0.08952487 -0.13041145 1.07323184 55 57 71
-0.08945192 -0.10991659 1.07235779 54 56 67
-0.08937326 -0.08944973 1.07141506 53 53 64
-0.08945590 -0.07007321 1.07035440 54 54 66
-0.09007653 -0.05043859 1.06877574 61 63 76
-0.08999984 -0.02430691 1.05703274 155 157 164
-0.09056297 -0.03457182 1.06364939 109 114 131
-0.08990360 -0.00960278 1.04721957 153 154 158
-0.08983462 0.01016426 1.03409571 147 148 152
-0.09012003 0.03638432 1.01714220 125 126 135
-0.09019287 0.02587254 1.02389211 137 138 143
-0.08990572 0.05018499 1.00828180 127 128 136
-0.09014697 0.07183752 0.99433756 127 129 137
-0.08958580 0.06091827 1.00134438 125 126 133
-0.08980722 0.09662873 0.97800209 121 122 131
-0.08976590 0.08709632 0.98434126 134 136 143
-0.09003157 0.10999527 0.96889141 124 125 133
-0.09021201 0.13132907 0.95396140 129 131 138
-0.08928211 0.12156019 0.96082565 123 124 132
-0.09026076 0.15570981 0.93651656 149 151 157
-0.08975053 0.14562169 0.94375812 127 128 135
-0.09019795 0.17908481 0.91937645 203 203 203
-0.08992691 0.16937067 0.92658324 187 188 188
-0.08997673 0.19022542 0.91112578 194 194 194
-0.09004598 0.21280256 0.89419965 194 195 193
-0.09001659 0.20290255 0.90165181 197 197 195
-0.08978610 0.23588968 0.87657508 197 197 195
-0.09016027 0.22574011 0.88441604 196 196 194
-0.09021290 0.25789024 0.85899929 195 196 193
-0.09004671 0.24808825 0.86687110 197 197 196
-0.09003082 0.26970295 0.84946603 197 197 194
-0.08999302 0.29098845 0.83246743 196 196 192
-0.08972950 0.28068627 0.84056255 196 196 193
-0.08992329 0.31386794 0.81533812 196 197 191
-0.09014504 0.30381616 0.82260208 192 192 189
-0.09021161 0.33963357 0.79976038 196 197 191
-0.09002284 0.32937280 0.80540803 199 200 193
-0.09004790 0.35003695 0.79585149 28 29 28
-0.09006321 0.37023318 0.78979382 0 0 0
-0.08984608 0.39009465 0.78451045 0 0 0
-0.09064227 0.41321372 0.77798272 0 0 0
-0.08899937 0.40325755 0.78088331 0 0 0
-0.08985896 0.42910496 0.77295762 0 0 0
-0.06996710 -0.66582185 0.99572093 0 0 0
-0.07039410 -0.64979784 0.99750685 0 0 0
-0.07085414 -0.63395634 0.99923395 0 0 0
-0.06913698 -0.62411316 1.00056596 0 0 0
-0.06996071 -0.61007172 1.00263978 0 0 0
-0.07002013 -0.59009561 1.00621797 0 0 0
-0.07030490 -0.56979255 1.01030955 0 0 0
-0.06970117 -0.56268368 1.07513144 97 115 118
-0.06993321 -0.55004900 1.01577934 0 0 0
-0.06958112 -0.54155351 1.02432229 13 15 15
-0.06940614 -0.55005593 1.07768404 100 114 118
-0.06940614 -0.52956634 1.07768404 100 114 120
-0.06940614 -0.51000810 1.07768404 100 113 122
-0.06940614 -0.49044986 1.07768404 102 112 122
-0.06940614 -0.46996027 1.07768404 98 113 123
-0.06940614 -0.44947069 1.07768404 98 111 124
-0.06940614 -0.42991245 1.07768404 98 111 122
-0.06940614 -0.41035420 1.07768404 100 109 122
-0.06940614 -0.38986462 1.07768404 98 108 123
-0.06940614 -0.36937503 1.07768404 97 108 122
-0.06940614 -0.34981679 1.07768404 97 105 123
-0.06940614 -0.33025855 1.07768404 95 104 124
-0.06940614 -0.30976896 1.07768404 93 104 124
-0.06940614 -0.29021072 1.07768404 93 103 125
-0.06940449 -0.27064610 1.07765790 92 102 124
-0.06938455 -0.25008527 1.07734706 92 101 123
-0.06935727 -0.22951170 1.07692221 88 100 123
-0.06932815 -0.20987890 1.07646959 89 98 122
-0.06995305 -0.19044904 1.07595221 88 98 123
-0.07018161 -0.16969109 1.07529280 88 97 123
-0.07012296 -0.15005112 1.07439242 82 90 114
-0.07002832 -0.13037611 1.07294111 55 57 70
-0.06997243 -0.10988857 1.07208497 53 56 66
-0.06991273 -0.08942935 1.07117124 52 54 65
-0.07004450 -0.06977678 1.07013578 54 55 67
-0.07066776 -0.05042982 1.06859006 61 62 74
-0.06991031 -0.02430953 1.05714340 158 160 168
-0.07035765 -0.03458018 1.06390985 113 116 130
-0.06983075 -0.00958821 1.04722662 150 151 157
-0.07016804 0.01016329 1.03401214 136 137 144
-0.06989043 0.03637804 1.01696667 125 128 135
-0.06985633 0.02612781 1.02356303 133 134 140
-0.07007617 0.04992064 1.00824467 128 130 137
-0.07004740 0.07163847 0.99424398 124 126 134
-0.06966862 0.06090643 1.00114978 126 127 135
-0.07037855 0.09671612 0.97776967 125 125 132
-0.06974908 0.08694034 0.98424960 130 131 138
-0.06992336 0.10997560 0.96871840 124 126 134
-0.07026409 0.13131834 0.95379267 133 136 142
-0.06934181 0.12153959 0.96066279 117 121 129
-0.06963157 0.15525525 0.93659652 189 189 189
-0.07008638 0.14507217 0.94394610 180 181 182
-0.07031818 0.17904353 0.91916452 203 203 202
-0.07007494 0.16923041 0.92646257 195 195 194
-0.06990702 0.18988276 0.91122112 196 195 195
-0.06995049 0.21279330 0.89416081 196 196 194
-0.07034542 0.20292682 0.90155541 199 199 197
-0.07009038 0.23589138 0.87658141 196 197 195
-0.07003215 0.22574660 0.88438953 195 195 193
-0.07016812 0.25788592 0.85898493 197 197 193
-0.06993901 0.24826318 0.86672655 198 198 196
-0.06990862 0.26982349 0.84934590 198 198 196
-0.07007180 0.29097624 0.83242374 198 198 194
-0.07011394 0.28067729 0.84053564 196 196 192
-0.07012415 0.31381508 0.81531823 193 193 189
-0.06993120 0.30380993 0.82250767 194 194 192
-0.07018408 0.33971012 0.79994064 197 197 192
-0.06996606 0.32947693 0.80540684 199 199 194
-0.07003733 0.34995557 0.79621366 11 11 10
-0.07003481 0.36982802 0.79046273 0 0 0
-0.06988739 0.39005278 0.78529674 0 0 0
-0.07063551 0.41490032 0.77833979 0 0 0
-0.06959600 0.40482954 0.78127500 0 0 0
-0.06988073 0.42948101 0.77363529 0 0 0
-0.04951860 -0.66597052 0.99613501 0 0 0
-0.04960744 -0.64991362 0.99792010 0 0 0
-0.05013449 -0.63568093 0.99943927 0 0 0
-0.04941120 -0.62537293 1.00080823 0 0 0
-0.04986768 -0.60997512 1.00315649 0 0 0
-0.05004598 -0.59040475 1.00674526 0 0 0
-0.05025198 -0.57012196 1.01089364 0 0 0
-0.04979266 -0.56308471 1.07555807 98 114 116
-0.04970692 -0.55112255 1.01600203 0 0 0
-0.05093059 -0.54300092 1.02520649 16 20 19
-0.04477763 -0.55220985 1.04646689 87 113 111
-0.04984790 -0.55005593 1.07768404 100 113 119
-0.04984790 -0.52956634 1.07768404 101 112 120
-0.04984790 -0.51000810 1.07768404 102 111 122
-0.04984790 -0.49044986 1.07768404 102 111 121
-0.04984790 -0.46996027 1.07768404 97 112 122
-0.04984790 -0.44947069 1.07768404 100 110 121
-0.04984790 -0.42991245 1.07768404 99 110 121
-0.04984790 -0.41035420 1.07768404 99 108 122
-0.04984790 -0.38986462 1.07768404 99 106 125
-0.04984790 -0.36937503 1.07768404 97 106 123
-0.04984790 -0.34981679 1.07768404 96 105 120
-0.04984790 -0.33025855 1.07768404 91 105 122
-0.04984790 -0.30976896 1.07768404 92 103 124
-0.04984790 -0.29021072 1.07768404 91 103 125
-0.04984481 -0.27063577 1.07761598 91 103 123
-0.04982819 -0.25006397 1.07725508 91 101 123
-0.04980788 -0.22948906 1.07681587 88 100 123
-0.04978578 -0.20985318 1.07633748 89 99 121
-0.05045346 -0.19003244 1.07578244 89 98 121
-0.05065881 -0.16966408 1.07512138 90 98 123
-0.05061210 -0.15001440 1.07412785 81 89 111
-0.05054261 -0.13034112 1.07265374 55 57 69
-0.05050406 -0.10986308 1.07183681 54 56 67
-0.05046306 -0.08941226 1.07096756 53 54 65
-0.05041612 -0.06991117 1.06997291 54 55 66
-0.05034303 -0.05042173 1.06842145 62 62 72
-0.04981260 -0.02431015 1.05716802 157 158 164
-0.05013650 -0.03458454 1.06404265 119 123 135
-0.04959971 -0.00944208 1.04709902 146 147 154
-0.05041983 0.01008962 1.03400125 134 134 142
-0.04966803 0.03637200 1.01679830 121 121 130
-0.04999708 0.02599440 1.02353606 133 134 141
-0.05003513 0.05004608 1.00798445 124 125 133
-0.04987056 0.07142836 0.99416766 132 133 139
-0.04975929 0.06089463 1.00095583 117 119 129
-0.05028786 0.09664510 0.97759731 125 126 135
-0.05020268 0.08720211 0.98386509 128 128 137
-0.04981988 0.10995072 0.96849959 139 141 147
-0.04999793 0.13064361 0.95400204 187 188 188
-0.05061160 0.12097041 0.96085006 154 154 157
-0.04980117 0.15492311 0.93666528 188 188 190
-0.05018983 0.14471097 0.94397411 192 192 191
-0.04966298 0.17903706 0.91913132 204 203 200
-0.04999419 0.16926334 0.92632465 196 196 195
-0.05012155 0.19010309 0.91104894 196 196 195
-0.04986208 0.21280561 0.89421263 196 196 194
-0.05027451 0.20289291 0.90160848 195 195 193
-0.05039559 0.23589814 0.87660660 196 196 195
-0.04974495 0.22583011 0.88436735 196 195 193
-0.05012446 0.25788366 0.85897738 196 196 193
-0.04994768 0.24828974 0.86669437 197 197 195
-0.04990846 0.26949038 0.84961740 197 197 193
-0.05001469 0.29089123 0.83244139 197 197 194
-0.05050005 0.28067223 0.84052049 198 198 194
-0.05032651 0.31376876 0.81531605 193 194 189
-0.04962593 0.30383770 0.82242939 194 195 191
-0.05013098 0.33967440 0.79985651 103 103 100
-0.04994779 0.32958190 0.80530098 188 188 183
-0.04990922 0.34985904 0.79632137 0 0 0
-0.04991489 0.36980726 0.79084519 0 0 0
-0.05010712 0.39020813 0.78581292 0 0 0
-0.05033398 0.41550410 0.77876850 0 0 0
-0.05021354 0.40557453 0.78164424 0 0 0
-0.04986719 0.42918524 0.77431109 0 0 0
-0.02972920 -0.66619905 0.99647676 0 0 0
-0.02978180 -0.65012330 0.99824203 0 0 0
-0.03052978 -0.63711957 0.99961435 0 0 0
-0.02954884 -0.62684860 1.00096865 0 0 0
-0.02979386 -0.60962530 1.00364240 0 0 0
-0.03020568 -0.59009931 1.00727894 0 0 0
-0.03017477 -0.57042111 1.01142446 0 0 0
-0.03027214 -0.56466591 1.07713129 100 113 115
-0.03049174 -0.55157747 1.01655930 0 0 0
-0.02966884 -0.54292247 1.02173171 0 0 0
-0.02930563 -0.55210180 1.04284634 46 52 53
-0.03028966 -0.55005593 1.07768404 99 113 118
-0.03028966 -0.52956634 1.07768404 101 112 119
-0.03028966 -0.51000810 1.07768404 99 112 119
-0.03028966 -0.49044986 1.07768404 100 111 121
-0.03028966 -0.46996027 1.07768404 100 110 121
-0.03028966 -0.44947069 1.07768404 99 110 120
-0.03028966 -0.42991245 1.07768404 99 109 121
-0.03028966 -0.41035420 1.07768404 98 108 120
-0.03028966 -0.38986462 1.07768404 97 106 123
-0.03028966 -0.36937503 1.07768404 96 105 123
-0.03028966 -0.34981679 1.07768404 93 104 122
-0.03028966 -0.33025855 1.07768404 93 104 123
-0.03028966 -0.30976896 1.07768404 92 104 121
-0.03028966 -0.29021072 1.07768403 91 103 124
-0.03028627 -0.27062139 1.07755823 90 101 123
-0.03027554 -0.25004563 1.07717612 89 100 121
-0.03026258 -0.22946734 1.07671378 91 100 123
-0.03024853 -0.20982884 1.07621259 89 99 122
-0.03023307 -0.19020059 1.07566379 88 98 121
-0.03021361 -0.16964045 1.07497142 88 98 121
-0.03018373 -0.14998305 1.07390286 82 88 108
-0.03014274 -0.13031560 1.07244437 56 57 69
-0.03011986 -0.10984184 1.07162950 55 55 64
-0.03009590 -0.08939648 1.07077896 54 55 63
-0.03006861 -0.06990038 1.06980825 55 54 63
-0.03002461 -0.05041336 1.06824211 60 61 71
-0.02971218 -0.02430938 1.05713393 153 154 159
-0.02990253 -0.03457977 1.06390151 128 131 141
-0.02943186 -0.00961743 1.04715962 145 146 153
-0.02987580 0.01022997 1.03385229 136 136 143
-0.03033297 0.03636833 1.01669665 124 124 133
-0.03053466 0.02599247 1.02345943 124 125 133
-0.03007038 0.04997499 1.00789516 127 128 137
-0.03013478 0.07180747 0.99377384 126 126 133
-0.02985962 0.06088702 1.00083075 127 129 138
-0.02966979 0.09646646 0.97750285 160 160 163
-0.03038362 0.08692663 0.98385099 138 138 143
-0.02972528 0.10992533 0.96827560 183 183 185
-0.02970756 0.13073711 0.95378486 192 192 192
-0.02949608 0.12072890 0.96081454 191 191 190
-0.03037157 0.15491328 0.93660530 181 182 190
-0.03012702 0.14459645 0.94395251 193 193 193
-0.02980589 0.17904298 0.91916170 202 202 200
-0.03003915 0.16921128 0.92635342 198 198 198
-0.03023209 0.19013808 0.91106700 197 196 195
-0.02977186 0.21282222 0.89428230 195 195 193
-0.03001751 0.20290447 0.90165986 195 195 193
-0.02994112 0.23589910 0.87661018 195 195 193
-0.02953358 0.22581702 0.88441359 197 197 194
-0.03008199 0.25789029 0.85899944 194 194 193
-0.03029282 0.24816909 0.86679367 196 196 195
-0.03010207 0.26987315 0.84937216 195 195 191
-0.02987399 0.29091797 0.83251794 176 176 173
-0.03016421 0.28069999 0.84060362 188 188 184
-0.02990028 0.31384943 0.81529548 153 152 146
-0.02951507 0.30379714 0.82251185 163 160 153
-0.03007764 0.33959051 0.79965899 0 0 0
-0.03029081 0.32944607 0.80533419 153 152 149
-0.02994932 0.34983072 0.79625535 0 0 0
-0.03012207 0.37025154 0.79094028 0 0 0
-0.03024829 0.39023612 0.78615679 0 0 0
-0.02996889 0.41625759 0.77889379 0 0 0
-0.03008013 0.40631324 0.78178513 0 0 0
-0.02980446 0.42935756 0.77462189 0 0 0
-0.00992486 -0.66637104 0.99673400 0 0 0
-0.00994245 -0.65028600 0.99849183 0 0 0
-0.01066191 -0.63829762 0.99973702 0 0 0
-0.00977861 -0.62798923 1.00109495 0 0 0
-0.00999708 -0.60961196 1.00398821 0 0 0
-0.00996766 -0.59000997 1.00768885 0 0 0
-0.00994456 -0.57028255 1.01197531 0 0 0
-0.00979976 -0.56494607 1.07766248 101 111 117
-0.01060507 -0.55241847 1.01703159 0 0 0
-0.00915819 -0.54360636 1.02108683 7 8 9
-0.00949949 -0.55322268 1.04496353 95 108 115
-0.00980007 -0.55005593 1.07768404 99 113 118
-0.00980007 -0.52956634 1.07768404 99 112 119
-0.00980007 -0.51000810 1.07768404 99 111 119
-0.00980007 -0.49044986 1.07768404 100 111 120
-0.00980007 -0.46996027 1.07768404 100 110 120
-0.00980007 -0.44947069 1.07768404 99 109 121
-0.00980007 -0.42991245 1.07768404 100 108 120
-0.00980007 -0.41035420 1.07768404 97 108 119
-0.00980007 -0.38986462 1.07768404 96 106 120
-0.00980007 -0.36937503 1.07768404 94 105 121
-0.00980007 -0.34981679 1.07768404 92 105 123
-0.00980007 -0.33025855 1.07768404 94 103 121
-0.00980007 -0.30976896 1.07768404 93 102 122
-0.00980002 -0.29020851 1.07767562 91 101 122
-0.00979807 -0.27059400 1.07744903 92 101 121
-0.00979449 -0.25001839 1.07705863 90 100 121
-0.00979013 -0.22943772 1.07657470 89 99 122
-0.00978549 -0.20979863 1.07605758 90 98 122
-0.00978048 -0.19017285 1.07550671 87 97 121
-0.00977417 -0.16961482 1.07480918 89 97 121
-0.00976382 -0.14994925 1.07366020 82 88 108
-0.00975085 -0.13029126 1.07224472 56 57 68
-0.00974350 -0.10982208 1.07143675 54 55 64
-0.00973594 -0.08938211 1.07060740 54 55 64
-0.00972715 -0.06988960 1.06964272 54 54 62
-0.00971289 -0.05040534 1.06807210 61 61 71
-0.00961196 -0.02430505 1.05694836 146 148 153
-0.00967302 -0.03457168 1.06365235 127 129 142
-0.00952174 -0.00961631 1.04705121 145 146 152
-0.00940156 0.01016157 1.03385327 133 134 142
-0.01012364 0.03636685 1.01665601 124 125 132
-0.01019119 0.02599184 1.02343383 126 127 135
-0.01003583 0.04997161 1.00782718 122 124 134
-0.00989612 0.07160534 0.99378680 143 145 150
-0.00996539 0.06088237 1.00075438 125 126 135
-0.00973659 0.09581583 0.97777031 189 188 188
-0.00980011 0.08622973 0.98413334 184 184 186
-0.00964078 0.10991051 0.96814481 190 190 191
-0.00949834 0.13054742 0.95384361 191 191 192
-0.00956672 0.12071523 0.96070574 191 191 192
-0.01013583 0.15490931 0.93658129 193 193 194
-0.00976290 0.14479164 0.94376673 193 193 193
-0.00994726 0.17904515 0.91917286 202 202 200
-0.01002486 0.16920785 0.92633471 196 196 195
-0.00986052 0.19005076 0.91115905 197 197 196
-0.00967840 0.21283259 0.89432562 196 195 193
-0.00975798 0.20290939 0.90168171 197 197 195
-0.00948768 0.23592869 0.87672018 186 186 184
-0.00957239 0.22579773 0.88454024 194 193 190
-0.01003456 0.25853623 0.85867695 165 163 163
-0.01007430 0.24890183 0.86639009 178 177 176
-0.00992886 0.26972652 0.84963728 163 163 161
-0.00972928 0.29092911 0.83254971 156 156 157
-0.00982408 0.28072187 0.84066916 136 135 134
-0.00952830 0.31382572 0.81534632 140 141 141
-0.00961247 0.30381678 0.82256499 154 153 151
-0.00865256 0.33932138 0.79956789 0 0 0
-0.01020580 0.32929378 0.80528536 137 137 137
-0.00999257 0.34979358 0.79617015 0 0 0
-0.00992783 0.37009177 0.79102397 0 0 0
-0.00986823 0.39030226 0.78628991 0 0 0
-0.00977697 0.41632780 0.77902516 0 0 0
-0.00981333 0.40638276 0.78191889 0 0 0
-0.00972339 0.42943523 0.77476198 0 0 0
0.00988832 -0.66647780 0.99689366 0 0 0
0.00990596 -0.65040008 0.99866711 0 0 0
0.00882615 -0.63921791 0.99985726 0 0 0
0.01009852 -0.62894785 1.00121454 0 0 0
0.00996131 -0.60976257 1.00423629 0 0 0
0.00999983 -0.58946538 1.00811524 0 0 0
0.01004560 -0.56938421 1.01269143 0 0 0
0.01293640 -0.56168341 1.05806621 103 111 117
0.01032159 -0.56536388 1.07709478 102 112 116
0.00966866 -0.55336587 1.01757193 0 0 0
0.01054681 -0.54581583 1.02185499 11 13 14
0.00451810 -0.55603816 1.04942399 98 109 114
0.00975817 -0.55005593 1.07768404 101 111 117
0.00975817 -0.52956634 1.07768404 101 111 118
0.00975817 -0.51000810 1.07768404 101 111 118
0.00975817 -0.49044986 1.07768404 100 111 119
0.00975817 -0.46996027 1.07768404 100 109 120
0.00975817 -0.44947069 1.07768404 99 108 120
0.00975817 -0.42991245 1.07768404 99 108 120
0.00975817 -0.41035420 1.07768404 98 107 119
0.00975817 -0.38986462 1.07768404 98 106 120
0.00975817 -0.36937503 1.07768404 96 104 120
0.00975817 -0.34981679 1.07768404 93 104 121
0.00975817 -0.33025855 1.07768404 93 103 121
0.00975817 -0.30976896 1.07768404 92 103 120
0.00975786 -0.29020292 1.07765442 92 101 121
0.01068635 -0.27057618 1.07737802 91 101 122
0.01068250 -0.25000293 1.07699205 91 99 121
0.01067758 -0.22942097 1.07649595 90 99 122
0.01067224 -0.20977921 1.07595786 90 98 121
0.01066664 -0.19015359 1.07539784 88 97 121
0.01065936 -0.16959312 1.07467082 90 97 120
0.01064718 -0.14992079 1.07345623 81 86 106
0.01063409 -0.13027545 1.07211559 56 57 66
0.01062586 -0.10980679 1.07128688 54 55 64
0.01061749 -0.08936859 1.07044573 54 55 64
0.01060778 -0.06987842 1.06947085 54 55 63
0.01059163 -0.05039526 1.06785508 61 62 71
0.01048078 -0.02429887 1.05668362 146 147 156
0.01054618 -0.03456002 1.06329400 124 126 135
0.01038403 -0.00961479 1.04691321 141 143 148
0.01025445 0.01016149 1.03382847 136 137 144
0.01008472 0.03636856 1.01670406 124 126 133
0.01015185 0.02599286 1.02347404 128 129 137
0.00999669 0.04997181 1.00783352 140 141 147
0.00985692 0.07160216 0.99374256 186 186 187
0.00992612 0.06088063 1.00072572 164 165 167
0.01054336 0.09581444 0.97775604 190 190 190
0.01038241 0.08632589 0.98404571 189 189 189
0.01043950 0.10990811 0.96812451 190 190 191
0.01028468 0.13053854 0.95377902 191 191 192
0.01035882 0.12070834 0.96065087 193 193 193
0.01009908 0.15490531 0.93655673 195 195 195
0.01017693 0.14468123 0.94378000 193 193 193
0.00991236 0.17905724 0.91923493 201 200 198
0.00998904 0.16921071 0.92635037 197 197 196
0.01009995 0.19025232 0.91110694 192 191 190
0.01041649 0.21283472 0.89433485 170 170 169
0.01050264 0.20291775 0.90171889 183 183 182
0.01021037 0.23590719 0.87664025 153 152 153
0.01030168 0.22578428 0.88448797 166 167 166
0.01000226 0.25855739 0.85874721 141 141 142
0.01009150 0.24886199 0.86642492 162 161 160
0.00994294 0.26980181 0.84970865 155 155 154
0.01041772 0.29095980 0.83263789 147 147 144
0.01051963 0.28075674 0.84077359 148 148 150
0.01020022 0.31380452 0.81529185 153 153 152
0.01029211 0.30383578 0.82261659 151 152 152
0.01000364 0.33886674 0.79958237 0 0 0
0.01007593 0.32876486 0.80536433 127 127 128
0.00995864 0.34971781 0.79599780 0 0 0
0.00989520 0.37004013 0.79091282 0 0 0
0.01001556 0.39042684 0.78625265 0 0 0
0.01042117 0.41636428 0.77909340 0 0 0
0.01045941 0.40640512 0.78196183 0 0 0
0.01036446 0.42948681 0.77485490 0 0 0
0.02970672 -0.66655390 0.99700743 0 0 0
0.02975876 -0.65045718 0.99875475 0 0 0
0.02979210 -0.63995475 0.99987150 0 0 0
0.02983312 -0.62958191 1.00124727 0 0 0
0.02992654 -0.60985127 1.00438245 0 0 0
0.03004359 -0.58957708 1.00830636 0 0 0
0.03018957 -0.56966219 1.01318802 0 0 0
0.03976610 -0.56396831 1.05835009 105 113 122
0.02938400 -0.56568186 1.07567942 102 112 118
0.02940290 -0.55566809 1.01803813 0 0 0
0.02976878 -0.54870912 1.02289821 15 17 18
0.03751636 -0.55771765 1.04662001 103 114 121
0.02931641 -0.55005593 1.07768404 101 112 118
0.02931641 -0.52956634 1.07768404 100 112 118
0.02931641 -0.51000810 1.07768404 101 111 119
0.02931641 -0.49044986 1.07768404 101 111 117
0.02931641 -0.46996027 1.07768404 99 109 121
0.02931641 -0.44947069 1.07768404 99 109 121
0.02931641 -0.42991245 1.07768404 99 108 120
0.02931641 -0.41035420 1.07768404 98 107 120
0.02931641 -0.38986462 1.07768404 98 106 118
0.02931641 -0.36937503 1.07768404 93 104 120
0.02931641 -0.34981679 1.07768404 94 104 118
0.02931641 -0.33025855 1.07768404 94 104 120
0.02931641 -0.30976896 1.07768404 93 103 121
0.02931455 -0.29019301 1.07761710 92 102 120
0.03023704 -0.27055772 1.07730447 92 100 122
0.03022576 -0.24998237 1.07690336 93 99 120
0.03021181 -0.22940187 1.07640639 89 99 120
0.03019699 -0.20976361 1.07587781 90 98 120
0.03018061 -0.19013541 1.07529468 89 97 120
0.03015909 -0.16957084 1.07452925 89 97 121
0.03012406 -0.14989622 1.07328061 80 85 102
0.03008988 -0.13026846 1.07205920 57 58 66
0.03006695 -0.10980214 1.07124117 55 56 64
0.03004273 -0.08936315 1.07038027 54 55 64
0.03001445 -0.06987222 1.06937509 54 54 64
0.02996634 -0.05038674 1.06766575 61 61 71
0.03098536 -0.02491948 1.05671391 150 150 156
0.03015586 -0.03502844 1.06311897 122 122 133
0.03028227 -0.00961247 1.04669947 139 139 145
0.02990957 0.01016142 1.03380581 139 139 146
0.02995906 0.03645871 1.01668203 144 145 151
0.02961136 0.02599343 1.02349551 122 124 132
0.03002964 0.04997240 1.00784660 179 179 181
0.02961087 0.07160578 0.99379247 188 188 189
0.02981807 0.06088170 1.00074324 189 189 188
0.02997904 0.09581770 0.97778898 189 189 189
0.02991638 0.08612746 0.98419635 189 189 189
0.03052063 0.10991244 0.96816279 191 190 191
0.03006842 0.13054365 0.95381632 190 190 190
0.03028524 0.12071368 0.96069336 192 192 192
0.02976795 0.15499671 0.93654090 187 187 187
0.02975347 0.14468787 0.94382330 192 192 192
0.02977151 0.17905328 0.91921459 179 179 178
0.03000412 0.16921763 0.92638891 171 170 171
0.02976282 0.18987508 0.91130880 161 161 164
0.03050876 0.21281467 0.89424995 158 157 158
0.02998051 0.20289214 0.90160525 164 166 167
0.02990412 0.23587721 0.87652884 156 157 160
0.03017176 0.22575474 0.88437252 160 159 159
0.03063455 0.25841380 0.85876391 161 162 163
0.02978824 0.24891814 0.86631022 148 148 149
0.02976449 0.26971075 0.84974257 157 156 156
0.03030112 0.29110728 0.83249333 135 137 138
0.03013725 0.28075409 0.84076563 145 142 141
0.03014028 0.31347795 0.81527078 136 138 140
0.02982785 0.30356211 0.82262736 124 125 128
0.03078841 0.33858375 0.79935949 0 0 0
0.02979978 0.32871233 0.80509327 127 129 131
0.02989696 0.34958933 0.79570543 0 0 0
0.02970874 0.36993738 0.79069248 0 0 0
0.02970116 0.39012220 0.78620451 0 0 0
0.02994719 0.41637177 0.77910737 0 0 0
0.03005548 0.40638699 0.78192672 0 0 0
0.03045400 0.42949612 0.77487185 0 0 0
0.05038578 -0.66655581 0.99701032 0 0 0
0.05027134 -0.65061806 0.99874793 0 0 0
0.04966668 -0.63996205 0.99988291 0 0 0
0.04973570 -0.62959739 1.00127199 0 0 0
0.04989300 -0.60988446 1.00443712 0 0 0
0.05009096 -0.58964401 1.00842118 0 0 0
0.05033947 -0.56979636 1.01342682 0 0 0
0.04989059 -0.56740228 1.07716896 101 113 118
0.05002648 -0.55651750 1.01812394 0 0 0
0.04984241 -0.55131434 1.02454378 18 21 21
0.04980600 -0.55005593 1.07768404 102 112 117
0.04980600 -0.52956634 1.07768404 101 112 117
0.04980600 -0.51000810 1.07768404 101 111 119
0.04980600 -0.49044986 1.07768404 101 111 119
0.04980600 -0.46996027 1.07768404 100 110 119
0.04980600 -0.44947069 1.07768404 100 110 120
0.04980600 -0.42991245 1.07768404 101 109 119
0.04980600 -0.41035420 1.07768404 99 108 120
0.04980600 -0.38986462 1.07768404 98 106 120
0.04980600 -0.36937503 1.07768404 96 105 121
0.04980600 -0.34981679 1.07768404 95 105 121
0.04980600 -0.33025855 1.07768404 95 104 122
0.04980600 -0.30976896 1.07768404 95 103 122
0.04980164 -0.29018612 1.07759121 93 102 120
0.04978629 -0.27054644 1.07725946 93 101 120
0.04976779 -0.24997208 1.07685897 91 100 119
0.04974490 -0.22939269 1.07636337 91 99 121
0.04972014 -0.20975404 1.07582854 90 97 120
0.04969220 -0.19012310 1.07522501 90 97 120
0.04965655 -0.16955888 1.07445320 89 98 120
0.04959977 -0.14988836 1.07322435 79 84 101
0.04954607 -0.13026837 1.07205968 57 58 66
0.04950985 -0.10980553 1.07127399 57 57 67
0.04946847 -0.08936314 1.07037879 55 56 65
0.04941810 -0.06986695 1.06929240 55 55 64
0.04933373 -0.05037790 1.06747111 61 61 71
0.05064990 -0.02520816 1.05644899 142 143 150
0.04984162 -0.03553576 1.06288844 123 123 131
0.05016972 -0.00960962 1.04642867 145 145 150
0.04964656 0.01023347 1.03368800 145 145 151
0.05013476 0.03627824 1.01676552 185 185 186
0.04995409 0.02599295 1.02347644 170 172 174
0.05006441 0.04997457 1.00788714 188 188 188
0.05022455 0.07160771 0.99381936 189 189 190
0.04971134 0.06088390 1.00077947 188 188 188
0.04941536 0.09581951 0.97780759 190 190 190
0.04973674 0.08623264 0.98416679 191 190 190
0.05035386 0.11010230 0.96808495 182 182 183
0.04985528 0.13055377 0.95389027 154 155 158
0.05021464 0.12072257 0.96076415 172 172 175
0.04998022 0.15482628 0.93662884 164 164 166
0.04980943 0.14479620 0.94380435 133 134 140
0.05041593 0.17901787 0.91903280 166 165 164
0.05001303 0.16919724 0.92627863 167 166 167
0.04997659 0.19002282 0.91102486 160 159 161
0.05048552 0.21249483 0.89441718 156 156 157
0.04876212 0.20250538 0.90177343 156 155 157
0.04970952 0.23590316 0.87644178 151 151 152
0.05004054 0.22574170 0.88432162 145 145 148
0.05008962 0.25787787 0.85895801 141 140 145
0.05006963 0.24804649 0.86676997 152 152 156
0.05001583 0.26984962 0.84936609 159 160 160
0.05001849 0.29086410 0.83233999 153 153 153
0.04974631 0.28070388 0.84061527 140 137 137
0.04977979 0.31317296 0.81527379 146 146 146
0.05010364 0.30312748 0.82261940 152 152 150
0.05006636 0.33806783 0.79932818 0 0 0
0.05006404 0.32791722 0.80542398 132 132 131
0.04994364 0.35022780 0.79532518 0 0 0
0.05018671 0.37046051 0.79034770 0 0 0
0.04991132 0.39016458 0.78601156 0 0 0
0.04947069 0.41635132 0.77906907 0 0 0
0.04964634 0.40634010 0.78183628 0 0 0
0.05031019 0.42961604 0.77476807 0 0 0
0.07020112 -0.66653864 0.99698459 0 0 0
0.07009367 -0.65026749 0.99872858 0 0 0
0.07109497 -0.63959966 0.99985679 0 0 0
0.06947056 -0.62937900 1.00124654 0 0 0
0.06985550 -0.60986302 1.00440188 0 0 0
0.07013612 -0.58965227 1.00843549 0 0 0
0.06982009 -0.56995154 1.01338279 0 0 0
0.07205839 -0.56405210 1.05206263 98 113 118
0.07051607 -0.56834230 1.07748243 101 114 117
0.06994051 -0.55668870 1.01827105 0 0 0
0.06993269 -0.55154174 1.02197146 10 11 12
0.06265750 -0.55877975 1.04353565 85 101 102
0.07029558 -0.55005593 1.07768404 103 113 118
0.07029558 -0.52956634 1.07768404 103 112 118
0.07029558 -0.51000810 1.07768404 101 112 120
0.07029558 -0.49044986 1.07768404 102 111 119
0.07029558 -0.46996027 1.07768404 101 110 120
0.07029558 -0.44947069 1.07768404 100 111 117
0.07029558 -0.42991245 1.07768404 101 109 120
0.07029558 -0.41035420 1.07768404 100 108 120
0.07029558 -0.38986462 1.07768404 98 108 120
0.07029558 -0.36937503 1.07768404 97 108 118
0.07029558 -0.34981679 1.07768404 97 105 120
0.07029558 -0.33025855 1.07768404 95 104 123
0.07029558 -0.30976895 1.07768401 96 103 119
0.07028659 -0.29017426 1.07754711 92 102 120
0.07026489 -0.27053504 1.07721403 91 101 121
0.07023903 -0.24996246 1.07681770 92 99 119
0.07020679 -0.22938424 1.07632375 90 98 121
0.07017255 -0.20974803 1.07579771 89 98 119
0.07013194 -0.19011437 1.07517526 90 97 119
0.07008038 -0.16954821 1.07438569 90 97 119
0.07000129 -0.14988109 1.07317255 79 83 98
0.06992916 -0.13026909 1.07206649 58 58 67
0.06988114 -0.10981117 1.07132931 58 58 67
0.06982269 -0.08936784 1.07043399 57 56 65
0.06974660 -0.06986552 1.06926929 56 56 65
0.06961666 -0.05036962 1.06728196 62 61 73
0.07082298 -0.02541611 1.05613974 143 143 151
0.06888155 -0.03566235 1.06249990 125 124 132
0.07004589 -0.00960679 1.04614244 151 151 154
0.06977805 0.01030075 1.03348587 174 175 176
0.06983212 0.03636838 1.01669874 183 183 185
0.07029341 0.02599147 1.02341475 183 184 185
0.06994492 0.05009200 1.00781612 187 187 187
0.07014159 0.07172934 0.99376804 179 179 180
0.06960620 0.06088604 1.00081458 186 186 187
0.06969201 0.09581443 0.97775593 146 147 151
0.07014815 0.08623140 0.98415328 161 162 164
0.07010110 0.10993358 0.96815794 131 132 139
0.06977756 0.13065095 0.95377749 128 130 137
0.07013910 0.12071824 0.96072963 131 131 139
0.06999139 0.15490110 0.93653217 151 151 153
0.07017776 0.14459168 0.94393015 121 123 132
0.06869736 0.17865944 0.91923356 157 154 156
0.07004417 0.16907232 0.92628624 156 156 158
0.07013029 0.19020650 0.91082586 157 156 159
0.07007756 0.21217938 0.89458922 157 157 159
0.06950852 0.20225909 0.90190540 146 145 147
0.06993134 0.23585578 0.87633016 149 148 153
0.06990350 0.22571898 0.88423279 160 160 164
0.07013461 0.25788394 0.85897826 139 138 139
0.07006087 0.24819076 0.86649900 146 146 147
0.07000746 0.26965599 0.84955753 143 143 142
0.07005595 0.29075822 0.83240250 149 148 148
0.06941869 0.28065283 0.84062972 129 129 132
0.06991517 0.31314848 0.81526502 152 152 151
0.07001463 0.30315145 0.82268489 153 154 154
0.07010467 0.33809232 0.79938606 0 0 0
0.07002988 0.32815184 0.80535243 115 115 114
0.06986958 0.35002776 0.79540282 0 0 0
0.06998653 0.37041671 0.79025480 0 0 0
0.07027693 0.39009312 0.78586751 0 0 0
0.06966259 0.41631256 0.77899651 0 0 0
0.06990736 0.40628720 0.78173438 0 0 0
0.07007021 0.42944419 0.77475022 0 0 0
0.09001053 -0.66648258 0.99690080 0 0 0
0.09016635 -0.65037449 0.99862763 0 0 0
0.09027222 -0.63904546 0.99980092 0 0 0
0.09025166 -0.62880541 1.00119681 0 0 0
0.08980937 -0.60979344 1.00428728 0 0 0
0.09017481 -0.58961528 1.00837261 0 0 0
0.08995247 -0.56970536 1.01357077 0 0 0
0.08321007 -0.56515330 1.05261528 103 112 121
0.09026505 -0.56949926 1.07663769 104 115 119
0.09000046 -0.55681508 1.01855522 0 0 0
0.08911268 -0.55387276 1.02469125 22 25 26
0.08985383 -0.55005593 1.07768404 103 114 118
0.08985383 -0.52956634 1.07768404 103 113 118
0.08985383 -0.51000810 1.07768404 103 112 118
0.08985383 -0.49044986 1.07768404 103 112 119
0.08985383 -0.46996027 1.07768404 101 111 119
0.08985383 -0.44947069 1.07768404 101 110 119
0.08985383 -0.42991245 1.07768404 101 110 120
0.08985383 -0.41035420 1.07768404 101 109 119
0.08985383 -0.38986462 1.07768404 99 108 121
0.08985383 -0.36937503 1.07768404 98 107 119
0.08985383 -0.34981679 1.07768404 94 106 120
0.08985383 -0.33025855 1.07768404 94 105 120
0.08985318 -0.30976691 1.07767670 95 103 118
0.08983713 -0.29015767 1.07748555 94 102 121
0.08981109 -0.27052464 1.07717273 91 101 120
0.09004928 -0.24975391 1.07677058 94 100 120
0.09066764 -0.22937698 1.07628984 91 99 119
0.09062438 -0.20974385 1.07577636 89 98 118
0.09057070 -0.19010808 1.07513936 90 98 118
0.09050129 -0.16953729 1.07431627 90 96 118
0.09039980 -0.14987246 1.07311112 78 82 98
0.09030915 -0.13026515 1.07203396 57 57 66
0.09024823 -0.10980928 1.07131106 57 56 65
0.09017245 -0.08936599 1.07041123 57 57 66
0.09006898 -0.06985998 1.06918326 57 56 65
0.08989047 -0.05035981 1.06706366 63 63 72
0.09014971 -0.02609291 1.05619317 138 139 146
0.08950593 -0.03636765 1.06250436 119 120 125
0.08991226 -0.00960413 1.04586695 168 168 173
0.09013328 0.01001633 1.03349569 180 180 182
0.09004131 0.03636855 1.01670281 179 179 180
0.08974814 0.02599063 1.02337989 183 184 185
0.08996721 0.04985035 1.00796054 159 160 163
0.08987920 0.07149087 0.99384480 130 130 138
0.09035951 0.06088314 1.00076707 137 139 144
0.08996125 0.09580309 0.97764040 122 123 134
0.09019856 0.08634331 0.98399239 125 126 134
0.09004212 0.10991068 0.96805156 124 126 133
0.08989513 0.13061606 0.95372849 135 136 141
0.09005431 0.12070303 0.96060863 140 141 146
0.08988629 0.15499908 0.93645706 157 157 160
0.09011232 0.14468822 0.94382539 127 128 136
0.09130235 0.17882232 0.91911732 157 157 157
0.08997747 0.16910887 0.92623646 159 159 160
0.09001718 0.18997597 0.91100215 161 160 160
0.08998146 0.21211120 0.89457756 151 152 155
0.09001119 0.20219041 0.90194621 162 161 161
0.09025365 0.23573679 0.87631184 147 147 149
0.08977085 0.22571675 0.88422340 164 163 163
0.09017484 0.25787791 0.85895820 123 123 126
0.08991943 0.24821656 0.86632138 134 134 137
0.08990974 0.26967108 0.84945901 137 137 138
0.09001616 0.29036927 0.83278802 145 145 144
0.09098738 0.28020185 0.84074302 145 145 146
0.09006144 0.31310723 0.81540333 136 134 131
0.08993571 0.30319662 0.82280755 157 158 157
0.08957647 0.33860997 0.79930271 0 0 0
0.09003852 0.32868080 0.80522349 104 105 105
0.08992808 0.34989496 0.79563943 0 0 0
0.08991381 0.36995907 0.79046172 0 0 0
0.09014368 0.39020386 0.78580312 0 0 0
0.08985403 0.41628859 0.77895166 0 0 0
0.09017036 0.40626606 0.78169371 0 0 0
0.08999246 0.42939763 0.77470460 0 0 0
0.10981029 -0.66638986 0.99676211 0 0 0
0.11000126 -0.65028813 0.99849505 0 0 0
0.11083021 -0.63831801 0.99974436 0 0 0
0.10993364 -0.62792539 1.00115968 0 0 0
0.10975137 -0.60968276 1.00410506 0 0 0
0.11013949 -0.58959512 1.00822275 0 0 0
0.11300726 -0.58103980 1.07642085 106 117 120
0.10989273 -0.56978805 1.01341349 0 0 0
0.11080909 -0.56317206 1.03833079 23 32 30
0.11043778 -0.56573664 1.04506178 76 87 89
0.10943429 -0.57042810 1.07743749 107 116 118
0.11024414 -0.55777548 1.01853451 0 0 0
0.10929667 -0.55570367 1.02263778 4 5 5
0.10941207 -0.55005593 1.07768404 106 115 120
0.10941207 -0.52956634 1.07768404 105 114 120
0.10941207 -0.51000810 1.07768404 105 114 118
0.10941207 -0.49044986 1.07768404 103 113 119
0.10941207 -0.46996027 1.07768404 104 112 118
0.10941207 -0.44947069 1.07768404 104 110 121
0.10941207 -0.42991245 1.07768404 102 110 119
0.10941207 -0.41035420 1.07768404 101 109 120
0.10941207 -0.38986462 1.07768404 100 109 120
0.10941207 -0.36937503 1.07768404 99 107 122
0.10941207 -0.34981679 1.07768404 96 107 120
0.10941207 -0.33025855 1.07768404 95 105 119
0.10940927 -0.30976132 1.07765684 96 103 120
0.10938467 -0.29013872 1.07741507 93 102 120
0.10935174 -0.27050417 1.07709114 93 101 119
0.10954773 -0.25012245 1.07669178 92 100 118
0.11019495 -0.22936518 1.07623479 92 98 119
0.11014544 -0.20973879 1.07575052 89 98 119
0.11008079 -0.19010450 1.07511895 90 97 118
0.10999233 -0.16952775 1.07425528 90 96 119
0.10986989 -0.14986515 1.07305970 78 82 95
0.11068924 -0.13026277 1.07201372 58 58 66
0.11061326 -0.10980587 1.07127798 57 57 66
0.11051821 -0.08936157 1.07035794 57 57 65
0.11039408 -0.06985805 1.06915537 58 58 66
0.11017506 -0.05035882 1.06703454 67 67 75
0.11007399 -0.02611126 1.05597329 163 163 169
0.10966417 -0.03635354 1.06209139 141 142 148
0.10987019 -0.00952878 1.04572042 174 175 178
0.11018510 0.01008456 1.03339060 160 161 164
0.11029381 0.03550233 1.01710923 136 137 143
0.10971253 0.02530287 1.02370039 142 143 148
0.10991020 0.05012285 1.00760552 132 133 140
0.11001759 0.07177556 0.99353915 125 127 134
0.11023681 0.06087505 1.00063396 119 123 132
0.11023406 0.09579917 0.97760031 124 125 135
0.10985639 0.08615827 0.98403904 126 128 136
0.10998607 0.10989500 0.96800905 124 126 134
0.11001283 0.13053268 0.95373313 124 126 134
0.10997148 0.12069543 0.96054810 128 129 135
0.11009443 0.15478763 0.93652161 139 140 142
0.10980094 0.14473040 0.94372567 116 117 125
0.11002894 0.17829626 0.91940956 146 143 143
0.10995273 0.16851475 0.92655057 151 150 153
0.10995831 0.18999024 0.91094498 141 141 143
0.10999983 0.21208100 0.89442920 154 154 157
0.11026553 0.20216893 0.90185043 149 150 155
0.11050161 0.23544443 0.87631755 141 143 148
0.10946337 0.22548750 0.88422349 140 141 144
0.11016724 0.25776219 0.85857257 150 150 152
0.10994438 0.24800201 0.86632653 138 139 142
0.10991182 0.27016768 0.84867038 151 153 155
0.11005608 0.29025799 0.83262907 152 153 154
0.10999605 0.31317158 0.81553835 125 125 125
0.10993295 0.30319786 0.82265145 157 156 155
0.11018709 0.33882427 0.79948212 0 0 0
0.10995805 0.32870380 0.80545433 117 118 118
0.11000965 0.34957631 0.79609828 0 0 0
0.11007764 0.37014920 0.79073535 0 0 0
0.10984423 0.39000776 0.78597425 0 0 0
0.11005384 0.41630482 0.77898208 0 0 0
0.11020651 0.40640119 0.78172763 0 0 0
0.10995318 0.42936867 0.77466226 0 0 0
0.12960207 -0.66628380 0.99660351 0 0 0
0.12982473 -0.65017175 0.99831619 0 0 0
0.13051259 -0.63737350 0.99961836 0 0 0
0.12996411 -0.62706990 1.00100487 0 0 0
0.13001829 -0.60971645 1.00377462 0 0 0
0.12997894 -0.58949583 1.00791410 0 0 0
0.13132589 -0.58233411 1.07747722 108 118 121
0.13005216 -0.56977102 1.01285166 0 0 0
0.13927748 -0.56218899 1.02996212 47 57 59
0.13011581 -0.57385779 1.05668795 89 106 107
0.12986252 -0.57061263 1.07761060 106 118 119
0.12922360 -0.55837406 1.01792556 0 0 0
0.12925627 -0.55662486 1.02105482 25 29 29
0.12990165 -0.55005593 1.07768404 107 115 119
0.12990165 -0.52956634 1.07768404 107 116 120
0.12990165 -0.51000810 1.07768404 106 116 121
0.12990165 -0.49044986 1.07768404 105 114 120
0.12990165 -0.46996027 1.07768404 103 112 119
0.12990165 -0.44947069 1.07768404 104 111 120
0.12990165 -0.42991245 1.07768404 102 110 119
0.12990165 -0.41035420 1.07768404 101 109 121
0.12990165 -0.38986462 1.07768404 101 109 120
0.12990165 -0.36937503 1.07768404 99 109 118
0.12990165 -0.34981679 1.07768404 99 106 122
0.12990165 -0.33025855 1.07768404 97 106 119
0.12989315 -0.30974935 1.07761457 97 104 121
0.12985773 -0.29011346 1.07732125 95 103 121
0.12981755 -0.27047834 1.07698816 95 102 118
0.12976736 -0.24990540 1.07657198 93 100 121
0.12949397 -0.22966490 1.07614969 90 99 118
0.12989084 -0.21008799 1.07570117 90 98 117
0.12958589 -0.19009507 1.07506565 90 98 116
0.12948190 -0.16951945 1.07420277 90 97 116
0.12934003 -0.14986031 1.07302526 77 81 94
0.13013980 -0.13025810 1.07197476 57 58 67
0.13004883 -0.10980049 1.07122563 57 57 65
0.12993808 -0.08935779 1.07031285 58 57 66
0.13046023 -0.06967541 1.06913691 59 58 66
0.13047073 -0.05036214 1.06710262 68 68 76
0.13001031 -0.02610910 1.05588825 166 167 172
0.12983275 -0.03634653 1.06188658 171 171 174
0.13973885 -0.00054280 1.03999329 120 120 129
0.12983087 -0.00961776 1.04575042 147 147 153
0.13006388 0.01028585 1.03314970 129 129 136
0.12990483 0.03559564 1.01682404 125 127 134
0.13015919 0.02501198 1.02370298 125 126 134
0.13006307 0.04991313 1.00749578 128 130 136
0.12998299 0.07071416 0.99407765 130 131 137
0.13017305 0.06003234 1.00099391 121 122 131
0.13033374 0.09584280 0.97746064 127 127 133
0.12976616 0.08615005 0.98392423 130 131 137
0.12998495 0.10988326 0.96790366 129 129 137
0.12998811 0.13050470 0.95365449 122 122 130
0.12988370 0.12068580 0.96047149 122 124 130
0.12997821 0.15492335 0.93632239 156 157 160
0.12994311 0.14469834 0.94364845 127 129 135
0.12988087 0.17827977 0.91932450 133 133 137
0.13002363 0.16841479 0.92650563 153 154 156
0.12988652 0.19003823 0.91082056 147 148 151
0.13002358 0.21205223 0.89437144 163 162 162
0.13027019 0.20218917 0.90175763 162 163 164
0.12963731 0.23541584 0.87624076 155 155 156
0.13014928 0.22535521 0.88420536 155 154 155
0.13025421 0.25786410 0.85891199 128 128 132
0.13001268 0.24817459 0.86641823 124 124 129
0.12997040 0.26975919 0.84926580 145 145 146
0.13005117 0.29034140 0.83271017 157 157 158
0.13042361 0.28006110 0.84086536 151 151 152
0.13006903 0.31390022 0.81542185 140 141 141
0.12972035 0.30382190 0.82257825 135 134 133
0.12829964 0.33952176 0.79974754 0 0 0
0.13010675 0.32957688 0.80538049 102 101 100
0.13001838 0.35014831 0.79656840 0 0 0
0.12995606 0.36999854 0.79124483 0 0 0
0.13005090 0.39027770 0.78615466 0 0 0
0.12991568 0.41649505 0.77904494 0 0 0
0.13013150 0.40651692 0.78187617 0 0 0
0.12995160 0.42934071 0.77462241 0 0 0
0.15023400 -0.66611282 0.99634783 0 0 0
0.15021914 -0.65019451 0.99804835 0 0 0
0.15036009 -0.63604550 0.99949451 0 0 0
0.14970802 -0.62576238 1.00086290 0 0 0
0.14968657 -0.60953697 1.00342765 0 0 0
0.15035376 -0.59041612 1.00735530 0 0 0
0.15154984 -0.58355860 1.07661990 107 117 120
0.14999288 -0.57013477 1.01260851 0 0 0
0.15053228 -0.56418476 1.03109153 60 68 67
0.14727112 -0.57293979 1.05133180 105 118 120
0.15032905 -0.57060139 1.07756206 106 118 120
0.14825414 -0.55901572 1.01727653 0 0 0
0.15039124 -0.55005593 1.07768404 107 117 118
0.15039124 -0.52956634 1.07768404 106 116 120
0.15039124 -0.51000810 1.07768404 108 116 121
0.15039124 -0.49044986 1.07768404 105 115 119
0.15039124 -0.46996027 1.07768404 104 113 118
0.15039124 -0.44947069 1.07768404 103 112 120
0.15039124 -0.42991245 1.07768404 103 111 118
0.15039124 -0.41035420 1.07768404 102 111 119
0.15039124 -0.38986462 1.07768404 101 109 119
0.15039124 -0.36937503 1.07768404 100 108 120
0.15039124 -0.34981679 1.07768404 100 107 124
0.15039062 -0.33025727 1.07767975 98 105 119
0.15036517 -0.30971617 1.07749864 96 104 119
0.15032392 -0.29008158 1.07720302 94 103 120
0.15027784 -0.27044936 1.07687279 95 103 117
0.15022251 -0.24988303 1.07647573 95 101 120
0.15016561 -0.23025933 1.07606773 91 99 117
0.15010562 -0.21064648 1.07563777 91 98 117
0.15001868 -0.19008599 1.07501461 91 97 117
0.14989814 -0.16951125 1.07415075 90 97 117
0.14973285 -0.14985216 1.07296688 76 80 92
0.14958387 -0.13024897 1.07189957 58 58 66
0.14947937 -0.10979278 1.07115056 57 57 65
0.14935556 -0.08935362 1.07026345 57 57 65
0.14983155 -0.07004752 1.06917480 58 58 66
0.15018860 -0.05013485 1.06707626 67 67 75
0.14994675 -0.02610758 1.05582929 126 127 137
0.15001710 -0.03634528 1.06185078 131 130 135
0.15051074 -0.00054276 1.03990290 129 130 137
0.14988541 -0.01045062 1.04617007 137 138 144
0.15000371 0.01022662 1.03300425 128 129 136
0.15007163 0.03538952 1.01675276 123 124 131
0.14989515 0.02510941 1.02342808 119 120 130
0.14998000 0.05001154 1.00722893 126 127 134
0.14992279 0.07070454 0.99384462 127 128 133
0.15003780 0.06001964 1.00078209 120 122 131
0.15006190 0.09579397 0.97725105 117 120 127
0.15001740 0.08618624 0.98363680 129 130 135
0.15002939 0.10986081 0.96770573 122 123 131
0.14987537 0.13046800 0.95346946 117 118 127
0.14977520 0.12066200 0.96028206 118 120 129
0.14996039 0.15489056 0.93624490 153 153 156
0.15018597 0.14455689 0.94358758 119 121 130
0.15013238 0.17828345 0.91917969 156 155 155
0.15002696 0.16844847 0.92639135 164 165 167
0.14996757 0.18996968 0.91073221 139 140 143
0.15005732 0.21206840 0.89437595 146 145 147
0.15000058 0.20215077 0.90176948 152 153 155
0.14997583 0.23584267 0.87621913 136 136 140
0.14994620 0.22569560 0.88408901 136 137 140
0.15005255 0.25788871 0.85887338 134 134 134
0.14999113 0.24813482 0.86639427 147 147 148
0.14998758 0.26968756 0.84953540 131 132 136
0.14994670 0.29085632 0.83270787 139 140 141
0.15096001 0.28062057 0.84062680 141 143 146
0.15006529 0.31406878 0.81581297 116 117 120
0.14981422 0.30403110 0.82302849 124 127 127
0.14994599 0.33022530 0.80563733 81 82 83
0.14993007 0.35028471 0.79718361 0 0 0
0.15703050 0.34091987 0.80018426 0 0 0
0.14997656 0.36991996 0.79177675 0 0 0
0.15008054 0.38987535 0.78658173 0 0 0
0.15032828 0.41704160 0.77903198 0 0 0
0.14983302 0.40698432 0.78197611 0 0 0
