ply
format ascii 1.0
element vertex 1051
property float x
property float y
property float z
property uchar red
property uchar green
property uchar blue
end_header
-0.26999018 -0.08980231 0.86896859 205 206 207
-0.26977137 -0.07046142 0.87658494 205 205 205
-0.27573920 -0.06130834 0.88012469 203 203 203
-0.26996050 -0.05008383 0.88361780 205 204 204
-0.26997747 -0.02962533 0.88968362 201 200 201
-0.27008113 -0.00965680 0.89533035 203 202 203
-0.27185500 0.00173986 0.89932349 215 197 199
-0.26942141 0.01047031 0.91720550 189 137 151
-0.26802543 0.02881933 0.91948140 190 130 147
-0.27685176 0.03321703 0.92016291 190 128 144
-0.26665437 0.04370298 0.91968702 189 131 148
-0.27126229 0.05202586 0.92152540 181 160 175
-0.27002076 0.06967047 0.92316287 185 184 192
-0.26966460 0.08980096 0.92448290 184 184 188
-0.27007596 0.10994247 0.92589336 182 182 184
-0.27040834 0.13020098 0.92727946 178 177 178
-0.26970775 0.15000482 0.92804904 176 175 175
-0.27013599 0.17001688 0.92878050 178 174 170
-0.27006505 0.19028235 0.93137734 171 165 160
-0.26990740 0.21027096 0.93519521 172 167 164
-0.27002102 0.22717182 0.93870942 162 156 155
-0.27022906 0.23637755 0.94074895 177 169 167
-0.27040575 0.24925927 0.94420397 174 170 168
-0.27300886 0.26084033 0.95295080 180 169 172
-0.26954441 0.27224752 0.97704619 196 178 183
-0.27091885 0.28464646 0.97944938 192 192 191
-0.26979195 0.29496499 0.98062754 187 189 188
-0.26961168 0.31024791 0.98226997 185 185 185
-0.27007855 0.32951483 0.98423057 182 184 184
-0.27024691 0.34951756 0.98607357 182 185 186
-0.26981885 0.37021041 0.98787744 182 183 183
-0.26981628 0.39028602 0.98950705 181 183 183
-0.27025218 0.41061631 0.99110579 172 172 173
-0.27004172 0.42992643 0.99256697 168 170 171
-0.27020805 0.44941451 0.99602139 89 89 89
-0.26404336 0.45925136 1.00003007 0 0 0
-0.26984960 0.47048478 1.00151567 0 0 0
-0.27021351 0.49042633 1.00368905 0 0 0
-0.26984719 0.51045634 1.00555584 0 0 0
-0.27011337 0.53055753 1.00718092 0 0 0
-0.26980667 0.55038228 1.00865303 0 0 0
-0.27010995 0.56758040 1.00978674 0 0 0
-0.24962816 -0.66499794 0.99083537 0 0 0
-0.24962564 -0.65021072 0.99029949 0 0 0
-0.25016002 -0.62993119 0.98955282 0 0 0
-0.24988493 -0.61044554 0.98846478 0 0 0
-0.25050036 -0.59063696 0.98702186 0 0 0
-0.24975291 -0.56989867 0.98505009 0 0 0
-0.24984841 -0.55007317 0.98265566 0 0 0
-0.24966147 -0.52655960 0.97832625 0 0 0
-0.25079731 -0.53703349 0.98056079 0 0 0
-0.24403511 -0.50424419 0.95556942 166 171 167
-0.25025499 -0.51583143 0.97286579 4 4 4
-0.24732498 -0.48322156 0.91573042 212 220 213
-0.24915151 -0.49311527 0.93447953 213 220 214
-0.24765139 -0.49820921 0.94413280 212 219 212
-0.24439148 -0.47445382 0.89911509 214 221 215
-0.24151610 -0.41038692 0.77516592 204 212 202
-0.25224081 -0.39901987 0.75124246 214 216 214
-0.25553595 -0.33527955 0.62312639 208 213 209
-0.25644242 -0.30253844 0.55514294 204 213 214
-0.24117245 -0.28241029 0.51820880 211 216 214
-0.24307992 -0.29242951 0.53830081 209 219 215
-0.25149754 -0.29559868 0.54240882 211 216 215
-0.25011337 -0.24151765 0.55121702 212 212 211
-0.24936511 -0.24510959 0.56985064 211 212 212
-0.25027380 -0.24816307 0.58974784 211 212 211
-0.24952494 -0.25027874 0.60985555 212 212 212
-0.24977028 -0.25139539 0.63023517 211 212 212
-0.25008789 -0.25128418 0.65013769 213 214 212
-0.24997460 -0.25024273 0.67086186 207 207 206
-0.24994862 -0.24748400 0.69066993 204 204 203
-0.24997694 -0.24304093 0.71077164 205 205 204
-0.25643110 -0.22047251 0.45768548 199 203 202
-0.24986455 -0.22328431 0.47008220 202 203 203
-0.25013743 -0.22828923 0.49044693 205 207 206
-0.24973421 -0.23271169 0.50980667 206 206 205
-0.25029793 -0.23706031 0.52976964 209 211 210
-0.25008909 -0.23957673 0.54170146 210 211 209
-0.25004858 -0.23654837 0.73068698 211 212 211
-0.24984036 -0.22783515 0.75026101 206 207 208
-0.25064986 -0.22154181 0.76191219 210 213 213
-0.24879728 -0.21916941 0.45419115 200 204 203
-0.25009705 -0.21521026 0.77195233 209 210 212
-0.24999280 -0.20495854 0.78619427 208 210 211
-0.24999836 -0.19652772 0.79609844 207 208 209
-0.25001540 -0.18652767 0.80654541 205 206 206
-0.24966289 -0.17578217 0.81663657 201 201 202
-0.25025103 -0.16613071 0.82464094 202 202 203
-0.25002463 -0.15263338 0.83446972 200 200 200
-0.24999217 -0.14220757 0.84149732 201 200 200
-0.25003401 -0.12958271 0.84896101 202 202 202
-0.24972462 -0.11413619 0.85736476 209 210 211
-0.25039589 -0.10437180 0.86211580 209 209 211
-0.25005474 -0.08973226 0.86848920 207 208 209
-0.24992308 -0.07013260 0.87616760 204 205 206
-0.24751349 -0.05976699 0.87982846 207 208 209
-0.25008615 -0.04948676 0.88323630 201 202 203
-0.24996753 -0.02963919 0.88897685 201 201 203
-0.25032975 -0.01041269 0.89465679 204 201 203
-0.24667156 -0.00093486 0.90892601 211 173 182
-0.25034189 0.00951947 0.91798459 188 132 147
-0.24970948 0.02969066 0.91867456 192 129 145
-0.24875469 0.04518749 0.91927992 187 164 176
-0.25086772 0.05444464 0.92072041 185 182 192
-0.24988276 0.06975324 0.92186044 187 187 194
-0.25016040 0.08968280 0.92326691 186 186 189
-0.25016834 0.11001016 0.92471657 181 179 183
-0.25007176 0.12992057 0.92612157 180 177 179
-0.24949757 0.15008492 0.92673271 178 176 177
-0.24976513 0.17029228 0.92772812 182 178 174
-0.25015648 0.19034518 0.93073785 172 166 162
-0.24998813 0.21044022 0.93483056 173 166 164
-0.24979992 0.22769835 0.93842079 183 177 175
-0.25028572 0.23717811 0.94053601 181 175 174
-0.25064797 0.24688179 0.94376838 178 174 171
-0.25118320 0.25893320 0.96590453 192 177 182
-0.24951313 0.27040546 0.97785617 197 185 188
-0.25072885 0.28347758 0.97954749 188 188 190
-0.25015773 0.29393184 0.98077701 186 187 187
-0.24990183 0.31033913 0.98246284 185 185 185
-0.24969871 0.32955979 0.98436522 179 179 179
-0.25016144 0.34977311 0.98618892 177 178 179
-0.25022855 0.36981810 0.98791151 179 180 179
-0.24997805 0.38955090 0.98949505 178 177 175
-0.24969471 0.40975877 0.99110211 169 169 170
-0.25009301 0.43014299 0.99268338 176 176 176
-0.25038959 0.44862412 0.99668898 61 62 62
-0.24867076 0.45870231 1.00022129 0 0 0
-0.25002655 0.47025808 1.00173268 0 0 0
-0.24999096 0.49074008 1.00393345 0 0 0
-0.24990321 0.51054480 1.00573024 0 0 0
-0.25014904 0.53037888 1.00731261 0 0 0
-0.24979146 0.55045622 1.00878860 0 0 0
-0.25006815 0.56764734 1.00990586 0 0 0
-0.22987721 -0.66483596 0.99059403 0 0 0
-0.22990516 -0.64980135 0.99005403 0 0 0
-0.23044049 -0.62979343 0.98933647 0 0 0
-0.23019306 -0.61032793 0.98827438 0 0 0
-0.22986339 -0.59069225 0.98685926 0 0 0
-0.22990120 -0.57041609 0.98498124 0 0 0
-0.23005024 -0.54996665 0.98254812 0 0 0
-0.22969549 -0.52738273 0.97846050 0 0 0
-0.23008382 -0.53775351 0.98053049 0 0 0
-0.23936150 -0.50656388 0.95996535 132 133 134
-0.22978845 -0.51393757 0.97083395 24 25 25
-0.23900088 -0.46105689 0.87372720 208 216 209
-0.23028085 -0.44144572 0.83656299 214 218 216
-0.23493839 -0.36533598 0.68559414 206 211 211
-0.23718889 -0.37328766 0.70279592 207 208 206
-0.23974914 -0.34289492 0.64140052 213 214 210
-0.23010907 -0.31419038 0.58581340 212 216 213
-0.22317373 -0.26036702 0.47776049 211 215 213
-0.23545439 -0.25206443 0.45673144 200 210 204
-0.22963024 -0.24157539 0.55160570 210 213 212
-0.23031481 -0.24512145 0.57084052 211 213 212
-0.22992451 -0.24811214 0.59126842 211 213 212
-0.23010186 -0.25025660 0.61123998 212 213 212
-0.22949889 -0.25144443 0.63019380 210 211 212
-0.22992006 -0.25184840 0.64982812 207 208 207
-0.23004344 -0.25076711 0.66988364 207 207 205
-0.22992019 -0.24766623 0.69024320 208 208 207
-0.22999870 -0.24293162 0.71064813 210 210 210
-0.23371528 -0.22024508 0.45951978 211 213 210
-0.23044996 -0.22251793 0.47021708 209 211 210
-0.23042353 -0.22759422 0.49026910 209 212 212
-0.23022324 -0.23245269 0.50960734 210 211 211
-0.22967771 -0.23691855 0.52884091 213 214 213
-0.23033135 -0.23938389 0.54047944 210 212 210
-0.23003981 -0.23641310 0.73020000 212 213 213
-0.22996320 -0.22732643 0.75024056 209 211 213
-0.22979934 -0.22097458 0.76182587 208 209 210
-0.22947235 -0.21852548 0.45472591 208 211 209
-0.22328130 -0.21986336 0.46149862 206 210 208
-0.23010989 -0.21507829 0.77142573 207 209 210
-0.23002974 -0.20488595 0.78604368 206 206 207
-0.23013418 -0.19647573 0.79604719 205 206 206
-0.23001192 -0.18651528 0.80645690 202 201 202
-0.23006822 -0.17549256 0.81673006 201 200 201
-0.22992107 -0.16575227 0.82461729 199 199 199
-0.22988550 -0.15199131 0.83457818 200 200 201
-0.23054634 -0.14168381 0.84146226 201 201 202
-0.23001620 -0.13020345 0.84813946 206 206 207
-0.22983387 -0.11436232 0.85672030 209 209 211
-0.23025895 -0.10395200 0.86180618 212 212 213
-0.23001987 -0.08974224 0.86812161 208 208 210
-0.22996919 -0.07006215 0.87583745 207 206 208
-0.22852243 -0.05917345 0.87961957 207 208 210
-0.23016642 -0.04883106 0.88294769 200 199 199
-0.22998749 -0.02963164 0.88849619 194 194 197
-0.23055180 -0.01213418 0.89413240 202 196 198
-0.22872922 -0.00269375 0.91374374 193 151 164
-0.23015379 0.00996827 0.91741970 190 129 146
-0.22965422 0.02966372 0.91784701 191 134 150
-0.22941321 0.04980003 0.91883893 187 185 194
-0.23740912 0.05837057 0.92023998 185 185 191
-0.22455813 0.06469642 0.91972095 189 189 196
-0.23163384 0.07175067 0.92078523 187 187 194
-0.22970179 0.08994799 0.92204476 186 186 191
-0.23011815 0.10981043 0.92349960 186 186 189
-0.22980206 0.12979562 0.92482407 185 185 187
-0.23002817 0.14992383 0.92573609 183 181 181
-0.23006443 0.17033614 0.92701847 183 177 174
-0.22995004 0.18985311 0.93021649 182 176 173
-0.23006585 0.21045762 0.93460713 183 178 173
-0.22993906 0.22740752 0.93844114 183 180 177
-0.23020961 0.23694156 0.94071272 178 175 174
-0.23109226 0.24465763 0.94416651 180 171 170
-0.22830819 0.25657842 0.97250925 203 183 189
-0.22955481 0.27003170 0.97827544 191 187 187
-0.23055031 0.28259469 0.97963260 190 190 190
-0.22990460 0.29304986 0.98087869 186 185 185
-0.23035324 0.31013120 0.98260629 180 179 179
-0.22983120 0.32978640 0.98447324 181 181 182
-0.22971601 0.34978683 0.98622777 181 181 183
-0.23011827 0.37003599 0.98795472 178 179 180
-0.23033200 0.38930685 0.98949397 175 175 176
-0.23000049 0.40976876 0.99112629 170 169 167
-0.22973511 0.43032484 0.99273425 171 170 171
-0.23024386 0.44771354 0.99750772 32 32 33
-0.22928575 0.45773991 1.00039581 0 0 0
-0.22992981 0.47055954 1.00201831 0 0 0
-0.23011194 0.49044333 1.00411259 0 0 0
-0.22995227 0.51063292 1.00590395 0 0 0
-0.23014378 0.53071780 1.00748522 0 0 0
-0.22977070 0.55052995 1.00892376 0 0 0
-0.23002200 0.56771553 1.01002719 0 0 0
-0.21015812 -0.66474371 0.99045656 0 0 0
-0.21003761 -0.64982037 0.98988840 0 0 0
-0.20988156 -0.62967644 0.98915274 0 0 0
-0.20965721 -0.61021736 0.98809534 0 0 0
-0.20988862 -0.59079468 0.98671133 0 0 0
-0.21015343 -0.57059397 0.98488356 0 0 0
-0.21018081 -0.55075851 0.98255947 0 0 0
-0.20952523 -0.52772327 0.97847992 0 0 0
-0.21057912 -0.53792730 0.98046121 0 0 0
-0.20386949 -0.50330406 0.95692217 174 178 178
-0.20968091 -0.51492434 0.97316852 13 13 13
-0.20228852 -0.48753514 0.92694104 203 204 202
-0.20381707 -0.49713592 0.94519481 190 193 191
-0.20009841 -0.47846726 0.90970045 209 209 209
-0.21568869 -0.41089273 0.77866346 214 218 217
-0.21739724 -0.34039628 0.64087069 207 208 206
-0.20270829 -0.26472097 0.49120903 205 212 209
-0.21035344 -0.24163485 0.55196563 213 214 213
-0.20999848 -0.24504186 0.57088772 212 214 213
-0.20998394 -0.24806484 0.58991975 212 212 212
-0.20994540 -0.25066115 0.60983769 215 216 215
-0.21008140 -0.25221188 0.63024861 215 215 215
-0.20992108 -0.25252464 0.65037615 207 208 206
-0.20991592 -0.25122319 0.67012326 206 206 203
-0.21002167 -0.24796294 0.69015983 207 207 205
-0.21009992 -0.24315078 0.71026146 210 210 209
-0.20321601 -0.24060876 0.72015520 214 215 213
-0.21006068 -0.22241874 0.47170254 212 216 216
-0.20982175 -0.22772117 0.49092271 211 215 213
-0.21032364 -0.23250949 0.50975479 211 214 212
-0.21000339 -0.23681625 0.52846177 211 213 212
-0.20963186 -0.23946845 0.54084099 213 213 214
-0.21002536 -0.23647978 0.73045432 212 213 213
-0.21006022 -0.22743240 0.75035458 209 211 212
-0.20919999 -0.22110476 0.76192320 210 211 212
-0.20992091 -0.21782485 0.45529528 208 213 212
-0.21003520 -0.21964124 0.46158907 210 216 215
-0.21001718 -0.21509155 0.77155769 210 211 212
-0.21002816 -0.20482979 0.78596840 210 211 212
-0.21015875 -0.19645237 0.79595367 210 211 212
-0.20998985 -0.18646580 0.80631090 208 209 209
-0.21004580 -0.17538341 0.81655400 205 206 207
-0.20993203 -0.16572486 0.82448202 208 208 207
-0.20996269 -0.15187866 0.83449936 210 210 211
-0.21027345 -0.14152568 0.84131491 208 208 209
-0.21002013 -0.13014162 0.84796350 210 210 211
-0.20992954 -0.11372425 0.85677922 208 209 210
-0.21013250 -0.10317354 0.86191427 212 212 212
-0.20997828 -0.08968409 0.86790823 209 209 210
-0.20998925 -0.07005740 0.87555202 208 208 210
-0.21015171 -0.05897719 0.87939260 209 209 211
-0.20998039 -0.04852297 0.88266505 199 198 199
-0.21002866 -0.02962319 0.88827666 200 199 200
-0.21057441 -0.01387832 0.89364013 211 201 205
-0.21000380 -0.00427022 0.91539297 192 140 156
-0.21031951 0.00981925 0.91654893 192 131 147
-0.21040825 0.02963408 0.91693451 191 144 158
-0.20986420 0.05034226 0.91777330 189 188 196
-0.20909595 0.06875514 0.91917002 189 188 196
-0.21491499 0.07693037 0.92027879 179 166 180
-0.20202127 0.08124343 0.91988773 190 189 196
-0.21001307 0.09056153 0.92107342 186 185 191
-0.21011975 0.11035206 0.92263009 188 188 192
-0.21008929 0.12987190 0.92402777 184 181 186
-0.20985111 0.14979713 0.92496054 185 182 182
-0.20995296 0.16990529 0.92652773 190 182 179
-0.21000733 0.19017799 0.93013829 181 175 171
-0.20995949 0.21013235 0.93457335 186 182 178
-0.21039874 0.22695476 0.93858395 184 177 173
-0.20952452 0.23626168 0.94100939 185 181 178
-0.21290206 0.24289807 0.94755808 185 174 177
-0.20935459 0.25455106 0.97476608 203 183 191
-0.20976943 0.27020155 0.97820340 187 186 187
-0.20956149 0.28226538 0.97966524 184 183 183
-0.20982419 0.29279347 0.98089315 185 185 186
-0.21020604 0.31031203 0.98267861 186 186 186
-0.21029264 0.32940224 0.98445113 182 183 183
-0.20995834 0.34991082 0.98621871 179 179 179
-0.20961945 0.37002230 0.98791818 174 174 175
-0.20994896 0.38941644 0.98947135 178 178 179
-0.21029523 0.40975930 0.99110350 178 178 178
-0.21002469 0.42998445 0.99269915 162 164 164
-0.21055568 0.44710640 0.99855695 0 0 1
-0.20941784 0.45648000 1.00052618 0 0 0
-0.21006247 0.47067062 1.00225490 0 0 0
-0.20978206 0.49087311 1.00435791 0 0 0
-0.20999494 0.51072268 1.00608084 0 0 0
-0.21016934 0.53054207 1.00762263 0 0 0
-0.20974485 0.55060426 1.00906000 0 0 0
-0.20997161 0.56778500 1.01015081 0 0 0
-0.18959992 -0.66469098 0.99037797 0 0 0
-0.18948440 -0.64974555 0.98977429 0 0 0
-0.19019142 -0.62958095 0.98900270 0 0 0
-0.18998585 -0.61011744 0.98793353 0 0 0
-0.19027569 -0.59030973 0.98653204 0 0 0
-0.19023125 -0.57072697 0.98478409 0 0 0
-0.18976477 -0.55065170 0.98236858 0 0 0
-0.19022100 -0.52792428 0.97831581 0 0 0
-0.18937551 -0.53850362 0.98035386 0 0 0
-0.19011617 -0.51493352 0.97432270 31 33 33
-0.19638692 -0.46593129 0.88586605 219 219 219
-0.18429618 -0.44795113 0.85355274 215 218 216
-0.18094644 -0.45636673 0.87054193 208 217 213
-0.18120153 -0.42330304 0.80481780 215 217 213
-0.18948585 -0.35873716 0.67982590 215 219 220
-0.19742912 -0.33362303 0.63016921 202 211 201
-0.19689372 -0.30388370 0.57027200 214 216 215
-0.18533558 -0.28111274 0.52753973 208 214 209
-0.19059878 -0.29314351 0.55072129 209 212 211
-0.18198600 -0.27335192 0.51297567 209 216 209
-0.19003619 -0.24155851 0.55157355 213 214 213
-0.18981700 -0.24521757 0.56993960 212 213 212
-0.19016686 -0.24878320 0.59004030 213 214 213
-0.18963425 -0.25165014 0.61021021 215 218 217
-0.19016515 -0.25333407 0.63013848 211 212 212
-0.18976082 -0.25347194 0.65004465 209 210 209
-0.19030774 -0.25206421 0.67018795 206 206 205
-0.18974812 -0.24884820 0.69002630 206 205 203
-0.19004210 -0.24389779 0.70974286 208 209 208
-0.18953718 -0.24038140 0.72128259 209 209 209
-0.19057705 -0.22196486 0.47114159 212 216 215
-0.18980019 -0.22708948 0.48972601 212 215 213
-0.18968289 -0.23259737 0.51101696 211 214 214
-0.19065951 -0.23715411 0.53045561 212 213 212
-0.18991767 -0.23954126 0.54143580 211 212 210
-0.19005764 -0.23630793 0.73177521 211 211 211
-0.18995571 -0.22792205 0.75015255 210 211 213
-0.18993230 -0.22158328 0.76173179 211 213 214
-0.18892312 -0.21747165 0.45499922 210 214 214
-0.18989184 -0.21949127 0.46211592 211 216 216
-0.18996473 -0.21519490 0.77181319 210 211 212
-0.19000481 -0.20488885 0.78596451 210 211 212
-0.18991505 -0.19589291 0.79631706 208 208 209
-0.19005344 -0.18589389 0.80668141 208 208 209
-0.18996252 -0.17540915 0.81640974 205 206 208
-0.18997096 -0.16571582 0.82443585 208 207 209
-0.18996266 -0.15186320 0.83436828 210 210 211
-0.19012321 -0.14147326 0.84121414 209 209 210
-0.19000761 -0.13012323 0.84789486 210 210 212
-0.18998943 -0.11373626 0.85666620 208 208 209
-0.19000090 -0.10328077 0.86170345 209 209 210
-0.19000855 -0.08970536 0.86772073 210 210 211
-0.18998249 -0.07008445 0.87533879 200 200 202
-0.18949330 -0.05843907 0.87937172 205 205 209
-0.19008436 -0.04811805 0.88257837 198 197 198
-0.19001620 -0.02962316 0.88830013 204 203 204
-0.19121289 -0.01582415 0.89297680 211 195 202
-0.18975099 -0.00668085 0.91433457 194 138 155
-0.19028707 0.00980693 0.91544065 192 132 147
-0.19032110 0.02959123 0.91560304 190 154 168
-0.18983311 0.05016959 0.91675528 188 187 196
-0.19012191 0.07016727 0.91846872 190 190 199
-0.18863710 0.08368213 0.91966348 191 190 197
-0.19050554 0.09371927 0.92060364 189 189 195
-0.19003957 0.11026705 0.92191929 189 189 193
-0.19002812 0.12941221 0.92340359 187 186 189
-0.18978750 0.14973340 0.92457526 189 187 186
-0.19007664 0.17010021 0.92633585 187 180 178
-0.18992977 0.18988299 0.93011177 188 182 180
-0.19003929 0.21050419 0.93472277 192 185 181
-0.18990577 0.22686330 0.93853681 182 178 176
-0.19162536 0.23565048 0.94249273 186 180 180
-0.19418623 0.24106376 0.95352599 195 178 184
-0.18937840 0.25223703 0.97494672 198 179 185
-0.19033084 0.26978612 0.97805383 183 182 182
-0.19008040 0.28225272 0.97962133 185 183 181
-0.18955881 0.29284478 0.98085274 182 181 180
-0.18982299 0.31030965 0.98267126 183 183 183
-0.19016565 0.32958645 0.98444535 181 181 181
-0.19036570 0.34964441 0.98616510 180 180 180
-0.18997252 0.37000238 0.98786500 184 185 184
-0.18979399 0.38961348 0.98945864 172 172 173
-0.18973829 0.40975840 0.99110141 169 167 166
-0.19024900 0.42956099 0.99278647 143 143 143
-0.19021611 0.44526625 0.99905968 0 0 0
-0.18920005 0.45517066 1.00071440 0 0 0
-0.19019360 0.47080148 1.00253392 0 0 0
-0.18987678 0.49071822 1.00454675 0 0 0
-0.19003202 0.51081597 1.00626469 0 0 0
-0.19023769 0.53083149 1.00780761 0 0 0
-0.18971733 0.55068975 1.00921671 0 0 0
-0.18992176 0.56787119 1.01030414 0 0 0
-0.16990113 -0.66463935 0.99030101 0 0 0
-0.16979393 -0.64968104 0.98967592 0 0 0
-0.17051025 -0.62949609 0.98886934 0 0 0
-0.17032306 -0.61002499 0.98778381 0 0 0
-0.17008283 -0.59041166 0.98639067 0 0 0
-0.16978098 -0.57064349 0.98464013 0 0 0
-0.16973407 -0.55077912 0.98223811 0 0 0
-0.17009915 -0.52840151 0.97820161 0 0 0
-0.17136689 -0.53869947 0.98025685 0 0 0
-0.16974209 -0.51515663 0.97464960 20 21 21
-0.17661373 -0.46075299 0.87890893 207 210 213
-0.16608041 -0.46318502 0.88354815 209 213 212
-0.17689492 -0.42832543 0.81705177 215 218 216
-0.17982661 -0.43892819 0.83727705 213 217 214
-0.17271857 -0.41490072 0.79144347 219 220 218
-0.17126845 -0.38391262 0.72992556 204 208 206
-0.17027407 -0.39520957 0.75202659 199 205 205
-0.17935875 -0.36444685 0.69291568 215 222 216
-0.17742042 -0.37429348 0.71163687 210 216 213
-0.17297588 -0.37933608 0.72122428 212 217 217
-0.17620138 -0.34534326 0.65659440 213 218 212
-0.17870875 -0.35484033 0.67465099 214 220 215
-0.17893126 -0.35996751 0.68439919 217 223 218
-0.16778212 -0.32465996 0.61726964 218 222 217
-0.17265618 -0.33622933 0.63926625 211 216 210
-0.16071768 -0.30902516 0.58754349 215 219 215
-0.17895116 -0.26365269 0.49477398 212 214 207
-0.17997955 -0.26772033 0.50240737 205 211 202
-0.17323815 -0.25104015 0.47110513 213 213 209
-0.17794633 -0.25968418 0.48732662 211 212 207
-0.16957698 -0.24213328 0.55062218 214 214 213
-0.16994045 -0.24620097 0.57002168 215 216 215
-0.17010959 -0.25002162 0.59023796 215 216 216
-0.16980716 -0.25282752 0.61019744 212 213 213
-0.17018918 -0.25439860 0.63024803 212 212 212
-0.17004151 -0.25428362 0.65009821 209 209 209
-0.16966646 -0.25265773 0.67017379 205 205 204
-0.17007894 -0.24919711 0.69046367 204 203 202
-0.16999008 -0.24397042 0.71008418 210 210 210
-0.16992258 -0.24043092 0.72149154 208 208 208
-0.16985292 -0.22190030 0.47146140 214 215 213
-0.16984568 -0.22688154 0.48924753 212 213 212
-0.17039988 -0.23253022 0.51030840 212 212 211
-0.16961587 -0.23733213 0.52965083 210 211 209
-0.17609617 -0.23974196 0.54118163 212 212 211
-0.17022108 -0.23651820 0.73183572 212 213 212
-0.16978083 -0.22826253 0.75034895 212 213 214
-0.17005313 -0.22168360 0.76217511 211 211 212
-0.16980383 -0.21741823 0.45561835 211 214 212
-0.16996742 -0.21964643 0.46328280 213 215 213
-0.16996519 -0.21525826 0.77218284 211 212 212
-0.16998625 -0.20488204 0.78609587 211 211 212
-0.17002962 -0.19583222 0.79623669 209 209 210
-0.16997950 -0.18581197 0.80647503 209 209 210
-0.16994713 -0.17533832 0.81614517 209 210 211
-0.16994961 -0.16564529 0.82408469 207 207 209
-0.16990198 -0.15169056 0.83412267 209 209 211
-0.17034139 -0.14132729 0.84101071 211 212 212
-0.17002006 -0.13010979 0.84763327 209 209 210
-0.16996470 -0.11366165 0.85651325 210 210 211
-0.17014556 -0.10319468 0.86153337 206 205 206
-0.16998850 -0.08975622 0.86748314 208 208 209
-0.16998258 -0.07015207 0.87509328 207 207 209
-0.17034247 -0.05817062 0.87926788 202 202 205
-0.16978085 -0.04778988 0.88248182 204 203 204
-0.16994868 -0.02963324 0.88835432 204 201 202
-0.17200783 -0.01782034 0.89392179 223 193 205
-0.16993404 -0.00844634 0.91346425 194 136 153
-0.17026821 0.00979293 0.91414425 194 132 149
-0.16980393 0.02973507 0.91466718 189 163 178
-0.16982947 0.05019087 0.91604620 191 189 198
-0.17016350 0.07012020 0.91784905 192 192 201
-0.16971213 0.08550550 0.91937458 191 191 199
-0.17021365 0.09599946 0.92039657 185 178 190
-0.17003644 0.11021232 0.92146268 186 184 191
-0.17011347 0.12969123 0.92302849 189 189 191
-0.16994333 0.14958545 0.92402483 191 187 187
-0.17004222 0.16995323 0.92617213 191 184 180
-0.17005736 0.19006240 0.93029572 191 187 183
-0.16989921 0.21025109 0.93489292 189 184 181
-0.17067851 0.22509197 0.93827381 179 174 174
-0.17063822 0.23273467 0.94776287 196 180 182
-0.16605856 0.23797915 0.96795853 211 180 190
-0.16971669 0.25048989 0.97547312 197 179 184
-0.17033409 0.26996904 0.97804586 186 186 187
-0.17024505 0.28299673 0.97964785 185 186 185
-0.17017716 0.29344986 0.98082171 186 185 184
-0.16964243 0.31043815 0.98257784 184 184 184
-0.16973836 0.32956917 0.98439361 174 173 174
-0.17003514 0.34974654 0.98611468 182 182 182
-0.17032386 0.36997390 0.98778890 181 182 183
-0.17015189 0.38918123 0.98939057 178 179 182
-0.17003802 0.40975753 0.99109939 173 172 171
-0.16990687 0.42980018 0.99345228 123 123 122
-0.17066787 0.44379882 0.99954528 0 0 0
-0.16998463 0.45334917 1.00087227 0 0 0
-0.16991420 0.46970754 1.00273661 0 0 0
-0.16975984 0.48930979 1.00466217 0 0 0
-0.17020185 0.50972863 1.00638184 0 0 0
-0.17002372 0.53039575 1.00796694 0 0 0
-0.16968708 0.55078634 1.00939378 0 0 0
-0.16986767 0.56796325 1.01046794 0 0 0
-0.15020462 -0.66458370 0.99021809 0 0 0
-0.15011029 -0.65048368 0.98959604 0 0 0
-0.14998239 -0.63027658 0.98875268 0 0 0
-0.14981192 -0.60992918 0.98762868 0 0 0
-0.14960129 -0.59032142 0.98623990 0 0 0
-0.14986176 -0.57075478 0.98450324 0 0 0
-0.15021768 -0.55026960 0.98204750 0 0 0
-0.15009930 -0.52896829 0.97837785 0 0 0
-0.15039759 -0.53933268 0.98032111 0 0 0
-0.14957295 -0.51531213 0.97494428 16 17 17
-0.15287132 -0.46714058 0.89109357 208 218 214
-0.14371039 -0.47504014 0.90616237 208 214 212
-0.15748562 -0.37240943 0.71038926 224 224 222
-0.14346760 -0.33663613 0.64214993 219 219 215
-0.15422220 -0.29238771 0.55499253 216 220 220
-0.14014950 -0.26611404 0.50595742 215 217 217
-0.15867392 -0.24594221 0.46304017 210 214 213
-0.14707149 -0.24080270 0.53697501 214 217 216
-0.14991583 -0.24358444 0.55012113 214 216 215
-0.14956302 -0.24776076 0.56975095 214 216 216
-0.15027482 -0.25137496 0.58981066 212 213 213
-0.14970212 -0.25405521 0.61005455 211 212 211
-0.14997409 -0.25534662 0.63051574 210 210 209
-0.14998856 -0.25480330 0.64989160 203 203 203
-0.14992928 -0.25277533 0.66991779 202 203 202
-0.14998200 -0.24910958 0.69028169 203 202 201
-0.14991680 -0.24397258 0.71001502 209 209 209
-0.15002032 -0.24051352 0.72173947 211 210 210
-0.14943477 -0.22223230 0.47152416 211 212 210
-0.15040749 -0.22750113 0.48979068 213 214 212
-0.15019372 -0.23323993 0.50981103 212 214 211
-0.15069837 -0.23803995 0.52769201 212 214 212
-0.14996569 -0.23684108 0.73162218 213 213 213
-0.14999076 -0.22858572 0.75013912 211 212 213
-0.15010738 -0.22174809 0.76229817 211 212 214
-0.15085983 -0.21736623 0.45458520 213 214 211
-0.15034356 -0.21937608 0.46146857 213 214 210
-0.15000014 -0.21526495 0.77211728 212 212 213
-0.15004694 -0.20485708 0.78587518 206 206 207
-0.15005955 -0.19588094 0.79610563 198 198 199
-0.15015647 -0.18601755 0.80608562 207 207 208
-0.14963347 -0.17496038 0.81601359 209 209 210
-0.15000478 -0.16497803 0.82401455 208 208 209
-0.15004131 -0.15107044 0.83402405 208 208 209
-0.15009798 -0.14070805 0.84098220 208 207 209
-0.14997488 -0.13009038 0.84731362 208 208 209
-0.15003795 -0.11373603 0.85637417 209 208 210
-0.15005698 -0.10320475 0.86161769 209 208 209
-0.14996934 -0.08952411 0.86763598 206 206 208
-0.15007663 -0.06996865 0.87511565 202 201 202
-0.14983808 -0.05824085 0.87919466 204 203 203
-0.14987238 -0.04773540 0.88245144 201 199 199
-0.15014534 -0.02993274 0.88879136 206 199 202
-0.14414936 -0.02103525 0.90645452 225 187 200
-0.15831643 -0.01904570 0.89572185 228 180 197
-0.15028071 -0.00992994 0.91266680 195 131 149
-0.15027544 0.00977723 0.91267740 196 131 148
-0.14994590 0.02936125 0.91392428 192 184 194
-0.14994219 0.05015954 0.91546691 192 193 201
-0.14998656 0.07026069 0.91744206 193 194 203
-0.14975695 0.08690308 0.91918763 193 193 201
-0.14993355 0.09734281 0.92027158 193 191 198
-0.15009759 0.11019046 0.92127945 190 190 194
-0.14996846 0.12984227 0.92287493 192 192 194
-0.15009267 0.15003872 0.92335771 191 187 184
-0.15000638 0.17018369 0.92651673 189 181 176
-0.15003732 0.19016355 0.93079155 190 185 182
-0.15010766 0.21029182 0.93527980 181 176 174
-0.15165171 0.22242430 0.93848723 171 166 166
-0.15041953 0.22692337 0.94765513 187 178 181
-0.14807025 0.23569491 0.97190860 207 182 190
-0.14967249 0.24990123 0.97559483 193 184 187
-0.15005709 0.26998445 0.97810214 189 188 189
-0.15028961 0.28309819 0.97961684 179 180 180
-0.15046084 0.29359242 0.98073228 177 178 180
-0.15011653 0.31006504 0.98241637 187 187 186
-0.14991329 0.32970878 0.98431871 187 188 188
-0.14956708 0.34971118 0.98601509 180 179 179
-0.14982164 0.36993811 0.98769333 177 179 180
-0.14986273 0.38989963 0.98938486 175 173 171
-0.15055326 0.41022841 0.99107464 167 166 166
-0.15026486 0.42940498 0.99424001 107 106 105
-0.15188388 0.44158903 0.99979288 0 0 0
-0.14951897 0.45090455 1.00103212 0 0 0
-0.15018938 0.46913209 1.00301491 0 0 0
-0.14982915 0.48929197 1.00492297 0 0 0
-0.15007463 0.50923065 1.00656906 0 0 0
-0.15042998 0.52933984 1.00809654 0 0 0
-0.14965934 0.55026203 1.00955165 0 0 0
-0.14981065 0.56806911 1.01065630 0 0 0
-0.12964980 -0.66449825 0.99009074 0 0 0
-0.12956560 -0.65038588 0.98944717 0 0 0
-0.12958449 -0.63028720 0.98858061 0 0 0
-0.13015864 -0.60982442 0.98745908 0 0 0
-0.12997519 -0.59021824 0.98606748 0 0 0
-0.13029645 -0.57024309 0.98427032 0 0 0
-0.13027797 -0.55040317 0.98192562 0 0 0
-0.12980771 -0.52897116 0.97838366 0 0 0
-0.13005070 -0.53927340 0.98021335 0 0 0
-0.12953132 -0.51529919 0.97481745 17 18 17
-0.12412017 -0.46901116 0.89466180 207 213 209
-0.13442620 -0.47537972 0.90681014 213 219 216
-0.12324926 -0.28697516 0.54741919 213 215 211
-0.12926357 -0.24171968 0.53374827 213 215 215
-0.13004413 -0.24542945 0.55026983 213 216 216
-0.12971090 -0.24934573 0.56999449 211 214 214
-0.13007090 -0.25283446 0.59033839 209 211 211
-0.12971334 -0.25509473 0.60998422 209 210 210
-0.13024380 -0.25606131 0.63004960 204 204 203
-0.12982532 -0.25532614 0.65018040 201 201 199
-0.12985353 -0.25301093 0.67040910 203 203 202
-0.12998959 -0.24923142 0.69049927 203 203 203
-0.12990387 -0.24409496 0.71020911 211 211 211
-0.13011209 -0.24060746 0.72202135 210 209 209
-0.12567250 -0.22744152 0.45659382 214 218 218
-0.12979588 -0.22301576 0.47016031 214 216 213
-0.12986480 -0.22905876 0.48971581 217 218 217
-0.13002024 -0.23520358 0.51002974 216 217 216
-0.13098395 -0.23903364 0.52390036 214 215 215
-0.12996768 -0.23688168 0.73177394 210 210 210
-0.13002402 -0.22854939 0.75001862 211 211 212
-0.13008391 -0.22167883 0.76205987 212 213 214
-0.13017399 -0.21830157 0.45478521 213 213 212
-0.13706495 -0.21987943 0.46167170 213 214 210
-0.12991401 -0.21472864 0.77229639 210 210 211
-0.13024707 -0.20432562 0.78607074 205 205 205
-0.12995982 -0.19570951 0.79584785 198 197 198
-0.12995047 -0.18620958 0.80532526 209 209 210
-0.13000440 -0.17514230 0.81525336 209 209 209
-0.12992431 -0.16485429 0.82367922 208 207 208
-0.13001810 -0.15099730 0.83374568 207 207 208
-0.13110528 -0.14072049 0.84072257 210 208 207
-0.12989752 -0.13012632 0.84720037 208 207 208
-0.12998339 -0.11364279 0.85645291 210 210 211
-0.12997022 -0.10321861 0.86173411 210 210 212
-0.12991510 -0.08976992 0.86772826 208 208 209
-0.13009490 -0.06991220 0.87537045 203 203 204
-0.13022367 -0.05834220 0.87937172 201 201 201
-0.12992658 -0.04793716 0.88271866 204 203 203
-0.13061092 -0.03227888 0.88882795 207 200 203
-0.12913884 -0.02322856 0.90943576 230 179 198
-0.12978189 -0.00994275 0.91279555 205 136 159
-0.12978540 0.00977912 0.91283405 201 134 155
-0.12996316 0.02954286 0.91407215 190 183 193
-0.13017589 0.05016574 0.91556896 189 187 198
-0.13021830 0.06993673 0.91763011 191 189 200
-0.13075576 0.08652836 0.91930258 192 194 201
-0.12859630 0.09638864 0.92035257 192 193 200
-0.12994887 0.11039460 0.92154051 190 186 191
-0.12965519 0.13035534 0.92312273 193 191 194
-0.12969923 0.15035325 0.92344117 193 184 179
-0.13012223 0.17012297 0.92734972 185 177 172
-0.13004811 0.19034059 0.93165986 190 184 181
-0.13047265 0.20929854 0.93594577 187 180 177
-0.12571619 0.21857265 0.94349834 192 181 181
-0.13847956 0.22039794 0.93969071 179 169 171
-0.13181898 0.22255963 0.95042832 191 177 179
-0.12954954 0.23309519 0.97239431 199 181 186
-0.12944070 0.24990784 0.97561908 191 190 190
-0.12977184 0.26998748 0.97811385 186 186 186
-0.12951902 0.28333859 0.97958692 187 187 188
-0.13035548 0.29376152 0.98065826 188 188 188
-0.13032792 0.31019361 0.98230341 182 181 180
-0.13028756 0.32941596 0.98417041 179 178 178
-0.13001900 0.34974457 0.98590757 171 171 172
-0.13009151 0.36996869 0.98758806 182 182 182
-0.12954583 0.39020338 0.98929685 176 176 175
-0.12975841 0.41053905 0.99091970 174 176 177
-0.13053741 0.42804007 0.99434813 105 105 106
-0.12677155 0.43783247 1.00017511 0 0 0
-0.13008992 0.44960719 1.00135834 0 0 0
-0.12966132 0.46948771 1.00343055 0 0 0
-0.12989411 0.48944176 1.00523083 0 0 0
-0.13010198 0.50936716 1.00683895 0 0 0
-0.13029509 0.52929390 1.00833308 0 0 0
-0.12976784 0.54907394 1.00968785 0 0 0
-0.12974054 0.56727696 1.01080065 0 0 0
-0.10995220 -0.66439042 0.98993008 0 0 0
-0.10987926 -0.65027178 0.98927355 0 0 0
-0.10993306 -0.62991225 0.98838103 0 0 0
-0.11050791 -0.60969584 0.98725080 0 0 0
-0.11034993 -0.59008137 0.98583874 0 0 0
-0.11014746 -0.57028973 0.98402959 0 0 0
-0.10988724 -0.55027979 0.98170576 0 0 0
-0.10934022 -0.52935423 0.97828439 0 0 0
-0.11393964 -0.53919864 0.98007747 0 0 0
-0.11011524 -0.51486747 0.97420719 29 29 29
-0.11005802 -0.46509765 0.88719659 207 213 210
-0.10485963 -0.36119373 0.69127393 209 215 209
-0.10551924 -0.34764117 0.66533622 215 220 217
-0.10461988 -0.35697361 0.68319720 208 214 209
-0.10011998 -0.32109131 0.61452353 211 215 214
-0.10394153 -0.33692162 0.64482051 214 218 216
-0.10129649 -0.24012506 0.51974016 210 215 214
-0.10956590 -0.24231839 0.53063229 210 213 213
-0.10998331 -0.24670679 0.54991058 212 213 214
-0.10988547 -0.25044090 0.56975559 209 211 211
-0.10975453 -0.25372629 0.59019585 211 212 211
-0.11036986 -0.25584923 0.61026906 207 207 205
-0.10969534 -0.25668923 0.63044757 200 201 200
-0.10994324 -0.25585562 0.64986639 202 202 200
-0.11016273 -0.25342098 0.66981892 200 200 197
-0.10978935 -0.24974233 0.68995593 209 208 207
-0.11006001 -0.24449362 0.70978756 212 212 212
-0.10987412 -0.24069556 0.72222894 209 209 209
-0.10869241 -0.22106489 0.45714017 215 217 217
-0.11015237 -0.22541030 0.47058294 214 216 215
-0.11003008 -0.23115230 0.48995528 214 216 216
-0.11006814 -0.23691026 0.51021802 215 216 216
-0.11500864 -0.23972458 0.52166337 215 215 215
-0.11003467 -0.23696255 0.73182901 215 215 214
-0.11005856 -0.22853890 0.74981415 212 213 214
-0.10984845 -0.22160722 0.76171544 208 208 209
-0.11260907 -0.21908725 0.45242461 213 214 214
-0.11005123 -0.21458360 0.77204803 210 210 210
-0.10999705 -0.20465630 0.78488838 208 208 208
-0.10985195 -0.19568173 0.79486524 207 207 207
-0.11014988 -0.18567742 0.80520408 197 197 199
-0.10978591 -0.17462748 0.81510047 209 208 208
-0.11018735 -0.16434573 0.82357209 206 206 206
-0.10996550 -0.15096940 0.83349190 208 207 209
-0.10988382 -0.14121611 0.84025580 208 207 209
-0.11002007 -0.13059853 0.84688506 210 208 208
-0.11016044 -0.11382705 0.85649545 207 206 208
-0.10977524 -0.10330810 0.86195722 210 209 211
-0.11004608 -0.08981723 0.86817392 204 202 203
-0.10985972 -0.07020731 0.87580564 207 206 207
-0.11145437 -0.05921848 0.87958886 208 207 208
-0.11008877 -0.04889384 0.88302229 201 200 201
-0.10931031 -0.03028488 0.88972016 191 186 188
-0.11811990 -0.02207278 0.90562053 238 187 208
-0.10477524 -0.01161831 0.89596050 191 179 185
-0.11435317 -0.00819376 0.91097345 235 178 200
-0.10144478 0.00186261 0.89934283 201 199 200
-0.11055550 0.01009385 0.91388250 221 167 187
-0.10988312 0.02976708 0.91650584 207 163 180
-0.11273789 0.04967856 0.91760433 193 178 190
-0.10315591 0.05121039 0.92110893 200 155 170
-0.11350428 0.06987211 0.91889048 190 190 199
-0.10373375 0.07032136 0.92234503 193 179 190
-0.11736837 0.08240944 0.91971747 190 192 200
-0.10987988 0.09067434 0.92174843 193 193 202
-0.11015428 0.10996451 0.92402788 192 191 198
-0.10990921 0.13020698 0.92572979 191 190 192
-0.10937253 0.14993738 0.92654520 191 185 184
-0.10950785 0.17025440 0.92924364 192 186 181
-0.11020331 0.19031616 0.93301093 195 190 186
-0.11021487 0.20642203 0.93660803 191 185 183
-0.10905955 0.21564055 0.94630573 196 190 190
-0.10206197 0.21941050 0.96389353 203 185 190
-0.11971894 0.22150443 0.95853585 186 172 173
-0.11018977 0.23093238 0.97247944 195 187 190
-0.10976354 0.25013550 0.97573324 188 187 187
-0.10948507 0.26998812 0.97811676 181 180 180
-0.10964920 0.28393491 0.97958214 178 178 178
-0.10976764 0.29441202 0.98064047 183 184 185
-0.10994208 0.31016048 0.98219860 181 180 180
-0.11015921 0.33033458 0.98413782 180 182 181
-0.11035550 0.35051910 0.98589187 175 175 175
-0.11046498 0.36980468 0.98751103 181 181 182
-0.10987289 0.39017227 0.98921818 172 172 172
-0.11004763 0.41048574 0.99079080 168 169 170
-0.11077643 0.42682253 0.99463198 93 93 94
-0.10887986 0.43674463 1.00048062 0 0 0
-0.11025904 0.44956692 1.00181864 0 0 0
-0.10976120 0.46967920 1.00384009 0 0 0
-0.10994984 0.48960407 1.00556439 0 0 0
-0.11012141 0.50951589 1.00713300 0 0 0
-0.11028210 0.52943511 1.00860220 0 0 0
-0.11025766 0.54946460 1.00993657 0 0 0
-0.10967197 0.56739583 1.01101252 0 0 0
-0.09025769 -0.66425846 0.98973346 0 0 0
-0.09019727 -0.65013851 0.98907078 0 0 0
-0.09011494 -0.62990388 0.98816784 0 0 0
-0.09000734 -0.60953293 0.98698691 0 0 0
-0.08987526 -0.58990123 0.98553767 0 0 0
-0.08970635 -0.57008993 0.98368473 0 0 0
-0.08343566 -0.54081342 0.97993395 0 0 0
-0.08973409 -0.55045844 0.98142959 0 0 0
-0.09026169 -0.53005404 0.97815916 0 0 0
-0.08647686 -0.50352947 0.95735073 172 173 173
-0.09043905 -0.51513855 0.97328315 21 21 21
-0.08158636 -0.49395689 0.93915057 191 192 192
-0.08411906 -0.49935569 0.94941521 190 191 191
-0.08999407 -0.46058531 0.87858907 211 213 211
-0.09709260 -0.46184793 0.88099758 213 215 208
-0.08324878 -0.45687743 0.87151611 206 208 207
-0.09812674 -0.34791780 0.66586566 212 217 214
-0.08737503 -0.32109461 0.61452985 206 210 207
-0.09113082 -0.33087454 0.63324726 211 215 213
-0.09464789 -0.33956587 0.64988124 206 211 209
-0.09474858 -0.30067506 0.57544971 212 216 215
-0.08286295 -0.30826051 0.58996719 212 217 213
-0.08969203 -0.28167180 0.53908014 208 214 213
-0.08805926 -0.26555533 0.50823549 212 220 217
-0.08859755 -0.27537395 0.52702695 203 211 210
-0.08669175 -0.24780815 0.47426990 215 216 215
-0.08834298 -0.25739129 0.49261066 215 217 216
-0.08682494 -0.24081082 0.51662282 214 215 215
-0.09001955 -0.24388930 0.53007846 212 214 213
-0.08969624 -0.24834301 0.55026746 216 216 215
-0.08992287 -0.25154796 0.56986069 213 214 214
-0.08989230 -0.25435025 0.58967359 206 206 206
-0.08984293 -0.25610778 0.60913785 206 206 205
-0.09008433 -0.25666065 0.62970935 206 206 204
-0.08962750 -0.25559181 0.65019047 205 204 202
-0.09030104 -0.25342307 0.66960293 207 206 205
-0.08998180 -0.25001279 0.68940344 212 213 213
-0.09005839 -0.24455055 0.70985334 212 213 214
-0.08956396 -0.24062700 0.72207997 214 214 215
-0.09049449 -0.22222599 0.45548846 215 217 217
-0.09032017 -0.22699591 0.47009240 213 216 215
-0.09024024 -0.23319616 0.49000334 214 216 216
-0.09053834 -0.23793622 0.50747422 214 215 215
-0.08982801 -0.23672835 0.73199597 214 214 216
-0.09018374 -0.22775819 0.75039509 211 211 211
-0.08988320 -0.22094918 0.76181146 208 207 208
-0.09127053 -0.21973030 0.45032597 211 218 217
-0.08990373 -0.21423279 0.77161671 207 207 207
-0.09018782 -0.20426626 0.78468085 205 204 204
-0.08977193 -0.19513828 0.79469066 207 207 208
-0.09029896 -0.18521581 0.80471420 204 204 205
-0.08992072 -0.17436908 0.81457723 207 206 207
-0.08991187 -0.16405572 0.82323492 206 206 208
-0.09002797 -0.15098034 0.83320419 206 206 208
-0.08967477 -0.14127812 0.84004825 206 206 206
-0.09005141 -0.13085870 0.84666149 206 205 206
-0.08993581 -0.11440972 0.85636133 205 205 205
-0.08990975 -0.10403569 0.86195424 209 208 210
-0.09009377 -0.08958279 0.86873449 205 205 206
-0.08997204 -0.07034655 0.87645155 202 201 203
-0.08254401 -0.06130875 0.88013065 199 199 203
-0.09849528 -0.05977432 0.87993640 204 204 206
-0.09018422 -0.04981093 0.88364242 191 189 191
-0.08963260 -0.02968414 0.89011026 197 194 193
-0.09021705 -0.00974855 0.89590568 200 197 197
-0.09056323 0.00264000 0.89933837 196 194 195
-0.08985697 0.01281245 0.90238317 198 194 196
-0.08926920 0.02995192 0.90768100 204 191 195
-0.08705508 0.04876973 0.91208922 202 184 189
-0.09675199 0.05253387 0.92223671 205 158 173
-0.08360400 0.06643863 0.91551312 213 186 193
-0.09300647 0.07127854 0.92595800 201 157 172
-0.09042236 0.09033407 0.92936173 196 165 178
-0.09067920 0.10995850 0.93115155 194 180 188
-0.09045912 0.12987892 0.93224664 192 189 193
-0.08980253 0.15014514 0.93340377 193 192 193
-0.09005600 0.16991545 0.93448278 192 190 190
-0.09008994 0.18974152 0.93633119 191 188 187
-0.08004671 0.19856486 0.94013247 192 191 191
-0.09196836 0.20374745 0.93808324 182 176 173
-0.08777366 0.20915586 0.94503570 191 185 185
-0.08790728 0.21762427 0.96646814 202 182 187
-0.09042732 0.22993453 0.97316071 191 184 186
-0.09040364 0.24974970 0.97575476 182 182 184
-0.09004482 0.26999276 0.97813383 177 176 178
-0.08948845 0.28398960 0.97957283 175 175 177
-0.08942766 0.29441084 0.98063655 188 186 183
-0.08956930 0.31015763 0.98218964 178 177 175
-0.08974339 0.33032114 0.98409794 178 179 180
-0.08990337 0.35050493 0.98585203 175 174 175
-0.09005201 0.36985912 0.98748230 174 174 172
-0.09020802 0.39016250 0.98919341 175 174 174
-0.09034999 0.41046936 0.99075087 176 177 177
-0.09059837 0.42469793 0.99390533 92 92 91
-0.08938322 0.43548962 1.00089801 0 0 0
-0.08967444 0.44992478 1.00234930 0 0 0
-0.08984691 0.46988318 1.00427629 0 0 0
-0.08999533 0.48978391 1.00593392 0 0 0
-0.09013207 0.50968198 1.00746142 0 0 0
-0.09026023 0.52958785 1.00889328 0 0 0
-0.09022739 0.54934698 1.01017759 0 0 0
-0.08959695 0.56752678 1.01124586 0 0 0
-0.06971195 -0.66408981 0.98948218 0 0 0
-0.06966589 -0.64997926 0.98882853 0 0 0
-0.06982670 -0.63017387 0.98795100 0 0 0
-0.06929390 -0.60980486 0.98670636 0 0 0
-0.06955325 -0.58980709 0.98518342 0 0 0
-0.07012631 -0.56986669 0.98329949 0 0 0
-0.06828750 -0.54126019 0.97978443 0 0 0
-0.07021984 -0.55121655 0.98121831 0 0 0
-0.07051115 -0.53035985 0.97794399 0 0 0
-0.06015924 -0.50651138 0.95986587 84 86 86
-0.07034606 -0.51541658 0.97184914 8 8 8
-0.07900297 -0.48802577 0.92787385 200 202 201
-0.07250723 -0.46685378 0.88761997 205 213 212
-0.07610651 -0.47987487 0.91237670 198 202 199
-0.07459587 -0.44753000 0.85275457 204 207 207
-0.07098674 -0.42837017 0.81713712 208 208 208
-0.07414303 -0.43868862 0.83682007 213 213 213
-0.06226406 -0.40460866 0.77053255 209 214 213
-0.06772808 -0.41700243 0.79545259 218 218 218
-0.07690130 -0.28964679 0.55434316 210 214 209
-0.06306025 -0.26020903 0.49800342 225 229 229
-0.06654903 -0.26727820 0.51153282 211 212 210
-0.07114489 -0.27479582 0.52592049 209 210 206
-0.06119384 -0.25600192 0.48995161 227 231 232
-0.06887200 -0.24175875 0.51165924 213 214 213
-0.06975171 -0.24578257 0.53003705 211 213 212
-0.06987733 -0.24995611 0.55056876 212 213 213
-0.06988668 -0.25262353 0.57036690 210 210 209
-0.07010282 -0.25468642 0.58991201 207 208 207
-0.06989541 -0.25603944 0.60938464 207 208 206
-0.07009118 -0.25648520 0.62971513 209 209 208
-0.06988617 -0.25536351 0.64998645 207 207 206
-0.06999077 -0.25306235 0.67063740 210 210 210
-0.06992407 -0.24958766 0.69022747 214 215 215
-0.07006777 -0.24425249 0.70962652 213 214 215
-0.07158536 -0.24042612 0.72125271 213 214 215
-0.06987174 -0.22304531 0.45433878 214 215 214
-0.07012503 -0.22943325 0.47063713 212 213 210
-0.07035216 -0.23629475 0.49053661 212 213 211
-0.07376331 -0.23930850 0.50298438 211 212 211
-0.06978496 -0.23632976 0.73133410 209 210 211
-0.06990277 -0.22716229 0.75003562 206 206 207
-0.07067330 -0.22068509 0.76106282 208 208 208
-0.07008791 -0.21369581 0.77139218 203 202 203
-0.06988977 -0.20372909 0.78456549 202 201 201
-0.07005870 -0.19482091 0.79446971 202 202 202
-0.06999550 -0.18468700 0.80477686 204 203 204
-0.06985366 -0.17383679 0.81465589 204 203 203
-0.07015308 -0.16364085 0.82321004 204 203 203
-0.07009264 -0.15031563 0.83326879 205 204 204
-0.06997102 -0.13053870 0.84648939 202 201 202
-0.06969948 -0.11404485 0.85634075 204 203 206
-0.07055662 -0.10361446 0.86202062 205 204 205
-0.06984918 -0.08996802 0.86870586 199 198 200
-0.07030532 -0.07135984 0.87671245 193 191 191
-0.06895481 -0.06191521 0.88051603 192 190 191
-0.07001533 -0.05011736 0.88457967 195 193 194
-0.06970596 -0.02971645 0.89106134 204 201 201
-0.07013895 -0.00975635 0.89659453 204 203 203
-0.07322285 0.00212210 0.89956086 202 201 203
-0.06989957 0.01169310 0.90222602 199 198 199
-0.06975160 0.03028814 0.90687531 197 195 195
-0.06971736 0.04993875 0.91134638 198 196 197
-0.07003784 0.06994753 0.91553703 194 188 191
-0.06918951 0.08403268 0.91880636 196 190 191
-0.07035847 0.09399742 0.92486946 202 186 190
-0.07094751 0.10910662 0.93392570 204 168 179
-0.06813151 0.11848926 0.94094296 216 162 180
-0.07794929 0.12925934 0.93874148 196 163 175
-0.06869619 0.13060009 0.94318103 202 155 170
-0.07717149 0.15135971 0.93763236 192 191 193
-0.06736207 0.14940305 0.94508385 195 151 164
-0.07470708 0.17031396 0.93823085 192 190 193
-0.06478467 0.16971536 0.94477806 191 170 180
-0.07695009 0.18561535 0.93901133 192 189 192
-0.06827738 0.19103733 0.94270516 191 189 192
-0.07001502 0.20564703 0.94651023 192 188 191
-0.06831859 0.21714849 0.96864822 189 182 187
-0.07024984 0.22995340 0.97324298 184 183 184
-0.07043507 0.24995748 0.97581355 182 181 182
-0.07060374 0.26999761 0.97815101 180 178 180
-0.07055253 0.28338580 0.97959541 184 184 185
-0.06965632 0.29385904 0.98067977 179 179 179
-0.07005169 0.31018112 0.98226417 173 172 171
-0.06988540 0.33053639 0.98414304 175 174 172
-0.06945705 0.35051186 0.98587143 173 172 171
-0.06957308 0.36987261 0.98751826 172 171 170
-0.06969460 0.39018222 0.98924332 170 170 170
-0.06981228 0.41053846 0.99091671 166 167 167
-0.07034715 0.42432183 0.99490459 50 50 50
-0.06967628 0.43473083 1.00127682 0 0 0
-0.06978550 0.45014716 1.00284487 0 0 0
-0.06991637 0.47009261 1.00472412 0 0 0
-0.07002756 0.48997208 1.00632060 0 0 0
-0.07013078 0.50985474 1.00780299 0 0 0
-0.07022823 0.52975021 1.00920270 0 0 0
-0.07031543 0.54961870 1.01045497 0 0 0
-0.07038637 0.56765459 1.01147367 0 0 0
-0.05003170 -0.66392461 0.98923604 0 0 0
-0.04999855 -0.64981642 0.98858080 0 0 0
-0.04995498 -0.63047166 0.98771983 0 0 0
-0.04989039 -0.61004942 0.98644190 0 0 0
-0.04997363 -0.58933771 0.98480391 0 0 0
-0.05056099 -0.56963537 0.98290022 0 0 0
-0.04944490 -0.54227541 0.97960474 0 0 0
-0.05079026 -0.55223696 0.98097303 0 0 0
-0.05028848 -0.53023723 0.97759978 0 0 0
-0.05093546 -0.50479854 0.95572461 80 84 83
-0.05055495 -0.51696338 0.97310456 0 0 0
-0.04402146 -0.49291874 0.93410709 170 173 173
-0.04855437 -0.49807519 0.94387883 142 146 146
-0.05012462 -0.38351495 0.72916948 204 212 213
-0.05662580 -0.39373723 0.74860489 211 218 214
-0.04747549 -0.37716334 0.71787963 205 213 211
-0.04460794 -0.37957556 0.72167960 209 213 213
-0.05110827 -0.33508045 0.63918239 213 217 216
-0.05631275 -0.24400582 0.46699277 207 210 210
-0.04754529 -0.24138240 0.49669691 213 214 214
-0.04967950 -0.24324710 0.51053115 212 213 213
-0.04960991 -0.24702636 0.52992683 210 211 210
-0.05044555 -0.25069200 0.55018243 210 211 211
-0.04998691 -0.25306567 0.56988455 205 205 205
-0.04971714 -0.25487529 0.58955771 206 206 205
-0.05000393 -0.25626610 0.60938095 210 209 208
-0.05006368 -0.25657178 0.62950673 209 209 208
-0.04984151 -0.25523871 0.64981114 211 211 210
-0.05007215 -0.25266559 0.66988399 206 206 205
-0.05004183 -0.24899542 0.69001451 211 213 214
-0.05003733 -0.24342734 0.71013407 210 211 212
-0.04883234 -0.22524324 0.45489858 210 211 210
-0.04991858 -0.23073318 0.47048065 210 212 211
-0.05099916 -0.23747805 0.48967807 212 214 213
-0.05009692 -0.23622194 0.73003497 207 207 207
-0.04992865 -0.22660153 0.75017645 204 203 203
-0.04976938 -0.22021821 0.76127431 202 202 201
-0.04995754 -0.21361101 0.77091436 205 204 204
-0.05021524 -0.20375575 0.78405131 207 206 206
-0.04992688 -0.19464624 0.79454388 203 202 201
-0.04991949 -0.18476584 0.80467243 203 202 203
-0.05028553 -0.17355191 0.81464496 201 199 199
-0.04957579 -0.16334897 0.82303831 205 204 204
-0.05003316 -0.15009382 0.83273214 205 205 206
-0.04827770 -0.13977725 0.83975436 206 206 206
-0.05013494 -0.12993920 0.84611209 204 202 202
-0.04970564 -0.11327852 0.85595890 204 203 204
-0.05054598 -0.10299571 0.86167711 198 196 197
-0.04993292 -0.08975556 0.86854723 198 198 199
-0.05041090 -0.07168030 0.87687173 201 199 199
-0.05063924 -0.06211983 0.88084986 198 197 198
-0.04964722 -0.05035863 0.88525270 201 200 200
-0.04974170 -0.02975032 0.89208268 199 197 198
-0.05052641 -0.01077437 0.89748374 195 192 194
-0.04614364 -0.00133437 0.90041270 187 186 191
-0.05036232 0.01046628 0.90322700 198 198 200
-0.05025529 0.02995133 0.90806845 190 188 189
-0.05010184 0.05001301 0.91269700 191 191 192
-0.04960955 0.07012068 0.91706785 189 187 189
-0.05305839 0.08241007 0.91948451 193 189 190
-0.04892793 0.09132121 0.92172778 190 188 188
-0.04976181 0.10968113 0.92585687 190 184 186
-0.04738384 0.12914997 0.93155275 198 179 187
-0.05644923 0.13411958 0.94344264 226 173 191
-0.04363236 0.14694733 0.93647936 205 181 189
-0.05278292 0.15111119 0.94671153 214 166 182
-0.05069785 0.16970482 0.94957195 199 155 170
-0.05052978 0.18984438 0.95130150 194 154 167
-0.05276413 0.20295948 0.95279476 195 175 183
