ply
format ascii 1.0
element vertex 1056
property float x
property float y
property float z
property uchar red
property uchar green
property uchar blue
end_header
-0.48999624 -0.01014470 0.80242981 173 176 176
-0.48499975 0.01828809 0.79991589 166 168 169
-0.49034001 0.00937849 0.80067918 170 172 172
-0.49002390 0.02996782 0.79915601 170 171 171
-0.49006357 0.04977765 0.79779093 170 171 171
-0.48997269 0.06993522 0.79651291 165 165 165
-0.49000833 0.09014172 0.79533815 151 151 151
-0.48997136 0.11023189 0.79425712 108 107 109
-0.48994743 0.12976379 0.79330082 82 82 85
-0.48996920 0.15023407 0.79236658 71 71 74
-0.49014597 0.16991672 0.79154618 62 61 66
-0.48989479 0.18941777 0.79078960 56 55 60
-0.48999176 0.20995961 0.79003878 49 48 55
-0.49014452 0.23015521 0.78934080 46 45 50
-0.48978118 0.25036986 0.78868710 43 42 47
-0.49004343 0.26997126 0.78808128 40 39 44
-0.49017727 0.28963636 0.78747949 38 37 42
-0.48998200 0.30968486 0.78688892 35 33 39
-0.48972199 0.32977423 0.78633441 33 32 36
-0.48998980 0.35000707 0.78581091 32 31 36
-0.49029497 0.37017246 0.78528002 31 30 35
-0.49002249 0.39023866 0.78477570 29 28 32
-0.48973928 0.41026956 0.78425418 17 16 19
-0.49008058 0.43037506 0.78355495 0 0 0
-0.49036513 0.44290246 0.78315636 0 0 0
-0.47017184 -0.56088155 0.83248832 0 0 0
-0.47015987 -0.54982702 0.83425290 0 0 0
-0.47002220 -0.53167666 0.83780176 0 0 0
-0.46960945 -0.52185619 0.84056207 0 0 0
-0.46992422 -0.50965586 0.84657044 0 0 0
-0.47330196 -0.50272704 0.90903133 161 170 169
-0.47085662 -0.50689014 0.93323804 158 162 162
-0.47004374 -0.49722538 0.85675564 0 0 0
-0.46993560 -0.49076246 0.86661303 0 0 0
-0.46909998 -0.49405870 0.89034756 105 111 109
-0.46963921 -0.48989530 0.92795492 164 165 165
-0.46993542 -0.46546219 0.91667358 160 164 163
-0.47001984 -0.47598155 0.92175154 166 168 167
-0.46997147 -0.44983105 0.90908588 158 160 159
-0.47024843 -0.42429016 0.89775440 160 161 161
-0.46972821 -0.43496718 0.90230185 157 158 158
-0.46998211 -0.40954425 0.89136635 159 161 161
-0.47108537 -0.38113413 0.87944864 161 162 164
-0.46972993 -0.39124517 0.88360436 160 162 162
-0.46998185 -0.36948662 0.87500151 160 162 162
-0.46999841 -0.34998156 0.86791567 158 160 160
-0.47067865 -0.32293895 0.85904455 156 157 158
-0.46973312 -0.33312002 0.86232807 158 160 160
-0.47003455 -0.31004839 0.85513005 157 158 158
-0.46997280 -0.29029848 0.84933161 164 165 164
-0.46997799 -0.27027067 0.84395571 166 168 169
-0.47007698 -0.24683369 0.83859003 159 159 160
-0.47011229 -0.25686049 0.84071906 160 161 162
-0.46992137 -0.23002110 0.83520293 159 161 161
-0.47009759 -0.21027885 0.83147643 158 159 159
-0.46994779 -0.19001700 0.82792319 159 159 160
-0.46995366 -0.17009604 0.82463377 161 161 162
-0.46237198 -0.14072907 0.81993022 171 171 174
-0.47024530 -0.15045172 0.82165548 161 162 162
-0.46967513 -0.12930483 0.81845196 158 158 159
-0.47548438 -0.13887500 0.82013967 141 139 140
-0.46996750 -0.10963647 0.81502540 178 179 179
-0.47004790 -0.08948809 0.81158991 169 170 169
-0.46996858 -0.06960982 0.80878624 161 162 162
-0.46997721 -0.04987871 0.80648634 161 161 161
-0.46996502 -0.03025869 0.80424752 175 176 176
-0.46991288 -0.00999717 0.80198649 172 174 174
-0.46861670 0.01679946 0.79980386 167 170 169
-0.47052224 0.00728388 0.80051936 166 167 167
-0.47007758 0.02980230 0.79892245 166 168 168
-0.46995257 0.05003490 0.79755994 164 164 164
-0.47005696 0.06959889 0.79631673 163 163 162
-0.46995829 0.09045607 0.79510127 155 155 154
-0.46997879 0.10991703 0.79406224 122 122 123
-0.46995899 0.12989531 0.79310237 90 90 92
-0.47001211 0.15020256 0.79220009 75 75 78
-0.47001735 0.16974905 0.79140222 66 65 68
-0.47001304 0.18969819 0.79064853 59 58 63
-0.47003206 0.20984773 0.78993262 53 52 59
-0.46988748 0.22996065 0.78925018 47 47 52
-0.46996769 0.25042932 0.78859785 45 44 48
-0.47024431 0.26994361 0.78800050 42 41 45
-0.46989620 0.28947800 0.78741724 39 38 43
-0.46986207 0.30949413 0.78684799 36 36 40
-0.47000535 0.32992257 0.78630048 34 33 38
-0.47028373 0.34999816 0.78579088 33 31 37
-0.46996982 0.37012361 0.78526637 32 31 35
-0.46966631 0.39023046 0.78475925 30 29 33
-0.46999564 0.41027123 0.78417699 11 10 13
-0.47024303 0.43020850 0.78345996 0 0 0
-0.47000848 0.44285319 0.78306922 0 0 0
-0.45040022 -0.56134625 0.83317806 0 0 0
-0.45009703 -0.55012912 0.83485528 0 0 0
-0.45022872 -0.53268238 0.83812439 0 0 0
-0.44925366 -0.52283167 0.84080098 0 0 0
-0.45001407 -0.50974538 0.84670437 0 0 0
-0.45380780 -0.50240305 0.91402224 149 155 154
-0.45033605 -0.50441986 0.93003458 150 154 154
-0.44987148 -0.49718024 0.85663168 0 0 0
-0.44980149 -0.48976324 0.86702107 0 0 0
-0.44805865 -0.49121555 0.88850633 34 35 35
-0.44631768 -0.49736710 0.90461746 134 138 139
-0.44988874 -0.49031368 0.92772852 157 159 159
-0.44998559 -0.46569777 0.91697382 160 161 161
-0.44987880 -0.47609321 0.92175385 161 163 162
-0.44981391 -0.44954229 0.90943275 160 161 161
-0.45050950 -0.42394637 0.89824343 160 161 162
-0.45004748 -0.43395792 0.90243949 161 163 163
-0.44998003 -0.40995999 0.89232274 162 163 163
-0.45352470 -0.38060028 0.87974291 159 162 161
-0.44976569 -0.39052766 0.88403653 158 160 159
-0.45003801 -0.36966929 0.87550575 161 162 161
-0.44989292 -0.35012082 0.86820962 158 160 160
-0.45007363 -0.32272469 0.85914938 157 158 158
-0.44998433 -0.33282797 0.86241938 156 159 159
-0.45001011 -0.31021156 0.85536904 155 157 158
-0.44996232 -0.29054480 0.84959517 163 164 165
-0.44998996 -0.27041190 0.84406354 166 167 166
-0.45000942 -0.24673035 0.83839749 157 157 158
-0.45008819 -0.25689682 0.84066166 163 166 166
-0.45006993 -0.22982675 0.83491006 160 161 162
-0.45000468 -0.21017170 0.83111485 161 163 164
-0.44996671 -0.18997183 0.82746725 163 163 164
-0.45005066 -0.16994532 0.82401662 162 162 164
-0.44799209 -0.14272023 0.81949388 171 171 173
-0.45073157 -0.15256909 0.82124743 167 167 169
-0.44991834 -0.12969055 0.81734975 177 178 179
-0.45002734 -0.10942463 0.81388778 174 175 173
-0.45004030 -0.08940248 0.81066181 161 161 160
-0.44993687 -0.06954065 0.80831342 161 161 161
-0.44996966 -0.04979381 0.80613077 166 166 165
-0.44997569 -0.03018031 0.80382735 176 176 176
-0.45000914 -0.01007508 0.80160401 164 164 164
-0.44931907 0.01471440 0.79966356 163 163 163
-0.45082289 0.00527165 0.80037539 160 161 160
-0.44990789 0.03010852 0.79862369 163 164 163
-0.45005600 0.04972801 0.79732347 166 167 167
-0.44996760 0.06992908 0.79604123 166 167 167
-0.45006355 0.09009867 0.79487337 167 167 166
-0.44996267 0.11018775 0.79382051 138 138 139
-0.44991481 0.12973582 0.79290258 101 100 104
-0.45005816 0.15016932 0.79202448 81 81 84
-0.45010948 0.16998358 0.79123869 71 70 73
-0.44988208 0.18950667 0.79051241 63 62 65
-0.45002369 0.20970129 0.78981550 56 55 60
-0.45006924 0.23026840 0.78914399 50 50 54
-0.45010905 0.25035836 0.78851671 46 46 50
-0.44977184 0.26991813 0.78792604 43 43 47
-0.44998784 0.28934358 0.78736438 40 40 44
-0.45013846 0.30982581 0.78680097 38 38 42
-0.45018811 0.32982842 0.78627466 34 34 39
-0.44989922 0.34998894 0.78577011 33 32 38
-0.44968954 0.37003923 0.78525515 33 32 36
-0.44999104 0.39022386 0.78474603 32 31 35
-0.45024366 0.41026189 0.78407838 4 4 5
-0.44987786 0.43015791 0.78336776 0 0 0
-0.44966119 0.44280868 0.78299051 0 0 0
-0.42939457 -0.56160680 0.83389924 0 0 0
-0.43009971 -0.54993193 0.83556922 0 0 0
-0.43032404 -0.53344251 0.83858643 0 0 0
-0.42963990 -0.52353542 0.84122183 0 0 0
-0.42996365 -0.50937013 0.84728861 0 0 0
-0.43677151 -0.50098150 0.91636974 151 153 150
-0.43042970 -0.50347234 0.93098732 148 149 149
-0.42993643 -0.49725040 0.85672088 0 0 0
-0.42976723 -0.48961210 0.86850640 0 0 0
-0.43017772 -0.48884014 0.88826275 29 30 29
-0.42957165 -0.49639282 0.90734635 146 149 147
-0.43026737 -0.49077476 0.92874452 155 157 156
-0.43057282 -0.46517694 0.91764240 159 160 161
-0.42940261 -0.47540774 0.92229539 156 158 157
-0.43003728 -0.44979422 0.91051390 159 159 160
-0.43142538 -0.42306930 0.89881170 163 163 163
-0.42943776 -0.43259852 0.90287024 159 160 160
-0.42977011 -0.40993056 0.89338790 161 163 162
-0.43032324 -0.39007000 0.88486159 159 160 160
-0.43036492 -0.36929850 0.87627408 162 162 162
-0.42596755 -0.37896219 0.88047893 159 160 161
-0.42977204 -0.35015399 0.86889913 160 161 161
-0.43116575 -0.32240770 0.85933519 158 158 158
-0.42997725 -0.33234359 0.86264764 158 158 159
-0.43000425 -0.31028658 0.85563745 156 156 156
-0.42997789 -0.29052281 0.84973910 164 165 164
-0.42999480 -0.27032805 0.84400523 171 171 172
-0.42997117 -0.24744832 0.83824705 167 167 167
-0.42995903 -0.25755141 0.84064844 167 169 168
-0.43005221 -0.22978386 0.83442797 164 166 166
-0.42997042 -0.20999580 0.83051450 165 165 165
-0.43004378 -0.18976892 0.82676156 163 163 164
-0.43006368 -0.16975137 0.82319017 165 166 165
-0.42911252 -0.14541615 0.81901448 175 175 175
-0.43105087 -0.15541632 0.82081750 165 165 165
-0.42994479 -0.12951745 0.81621136 169 170 170
-0.43024948 -0.10974399 0.81300321 168 167 167
-0.42983079 -0.08971779 0.81007370 164 164 165
-0.42989759 -0.06946669 0.80778251 168 168 168
-0.43001509 -0.04981384 0.80567024 171 172 173
-0.43002794 -0.03036309 0.80338910 178 178 177
-0.43009732 -0.01028978 0.80127496 169 169 168
-0.42947331 0.01256693 0.79948256 156 157 159
-0.43106567 0.00298671 0.80021348 167 167 166
-0.43007742 0.02985176 0.79831337 164 165 165
-0.42991150 0.05001223 0.79698256 169 169 169
-0.43008155 0.06964408 0.79576808 166 168 167
-0.43000992 0.09038236 0.79458957 167 168 167
-0.43001653 0.10983629 0.79358681 147 147 146
-0.42992189 0.12978578 0.79266838 117 117 119
-0.43009803 0.15013082 0.79182107 88 88 91
-0.42989587 0.17027945 0.79104504 76 75 78
-0.43001649 0.19009437 0.79033082 66 65 68
-0.43017129 0.20989179 0.78968129 58 58 62
-0.42995496 0.23006978 0.78904737 53 52 56
-0.42984076 0.25017925 0.78844014 48 47 52
-0.42999161 0.26989736 0.78786532 45 45 48
-0.43024146 0.28954988 0.78731240 42 42 45
-0.43007435 0.30963863 0.78677117 39 39 43
-0.42978766 0.32981669 0.78624670 37 37 41
-0.42982226 0.34980632 0.78575169 35 34 39
-0.43000945 0.37019228 0.78523547 33 33 36
-0.43031060 0.39021186 0.78472214 30 29 33
-0.42988627 0.41015132 0.78394790 0 0 0
-0.42982443 0.42993616 0.78328048 0 0 0
-0.42999916 0.44276891 0.78292017 0 0 0
-0.40961097 -0.56164999 0.83464988 0 0 0
-0.40992787 -0.54971974 0.83640787 0 0 0
-0.41067075 -0.53542800 0.83900965 0 0 0
-0.40959650 -0.52558254 0.84158198 0 0 0
-0.40997622 -0.50975758 0.84793541 0 0 0
-0.41109455 -0.50310377 0.93354222 148 150 150
-0.40999532 -0.49745663 0.85709183 0 0 0
-0.40973969 -0.48905520 0.86920316 0 0 0
-0.40989093 -0.48658901 0.88800556 16 17 16
-0.40996143 -0.49552081 0.91059916 134 141 139
-0.41006121 -0.49010199 0.93000140 153 154 154
-0.41043404 -0.46352661 0.91851908 155 159 157
-0.40944117 -0.47329268 0.92278155 157 158 157
-0.41014851 -0.45009347 0.91247350 161 162 161
-0.41219175 -0.42138957 0.89946045 160 161 161
-0.40968985 -0.43105474 0.90386357 161 162 162
-0.41025809 -0.40987100 0.89478238 158 159 159
-0.40984077 -0.38979067 0.88619201 160 161 161
-0.41021976 -0.36774190 0.87692794 160 162 163
-0.40931218 -0.37739855 0.88097999 161 161 160
-0.41024962 -0.34980695 0.86985841 161 161 161
-0.41256530 -0.32169195 0.85966487 162 163 164
-0.40972741 -0.33087735 0.86297493 159 160 161
-0.40996055 -0.31043662 0.85611093 167 168 169
-0.40995569 -0.29047836 0.84981774 176 177 177
-0.40997168 -0.27018669 0.84376764 172 173 175
-0.40990925 -0.24795279 0.83782218 170 171 172
-0.41058656 -0.25812143 0.84042663 170 171 171
-0.40997557 -0.22955316 0.83364760 173 174 174
-0.40997266 -0.20981294 0.82959838 173 174 175
-0.41009532 -0.19026850 0.82595671 168 169 169
-0.40991917 -0.17017743 0.82230692 171 172 173
-0.40942519 -0.14849640 0.81846574 173 173 173
-0.41386316 -0.15799139 0.82033934 171 171 170
-0.41021019 -0.12981562 0.81529849 168 169 170
-0.40986679 -0.11040153 0.81227695 174 174 174
-0.40993279 -0.08994405 0.80947065 169 169 169
-0.40987908 -0.06943677 0.80715048 169 170 170
-0.41010553 -0.04986824 0.80506495 177 177 177
-0.41003157 -0.03034259 0.80288289 175 175 174
-0.40298764 -0.00069406 0.79994812 173 173 172
-0.41008506 -0.01024219 0.80089793 170 170 170
-0.40967112 0.01035142 0.79927385 166 166 165
-0.41660325 0.00142621 0.80007419 163 163 162
-0.41001627 0.02989090 0.79793317 167 168 169
-0.40999391 0.04983928 0.79663503 169 170 171
-0.40997501 0.06977915 0.79543047 169 169 169
-0.41007416 0.09011063 0.79431252 162 162 161
-0.40999893 0.11012648 0.79329208 156 156 156
-0.40987144 0.12969734 0.79240548 130 130 132
-0.41012698 0.15008464 0.79157721 101 99 104
-0.41001862 0.17061480 0.79081868 80 79 82
-0.41006954 0.19010261 0.79014855 70 70 73
-0.40975000 0.20974176 0.78953297 62 62 66
-0.41011840 0.23003541 0.78892927 56 55 60
-0.41005000 0.25046102 0.78834072 50 49 54
-0.41020288 0.27054962 0.78778231 46 46 50
-0.40992619 0.29009749 0.78725101 44 43 47
-0.40965670 0.30962382 0.78673351 41 40 44
-0.41006498 0.32980247 0.78621278 38 38 42
-0.41013702 0.35014239 0.78572108 38 37 41
-0.41023274 0.37010814 0.78523345 36 36 40
-0.40994211 0.39018886 0.78467690 25 24 27
-0.40988633 0.40991185 0.78381364 0 0 0
-0.41016152 0.43022658 0.78317447 0 0 0
-0.41033799 0.44272619 0.78284462 0 0 0
-0.38951501 -0.56212441 0.83540482 0 0 0
-0.38975199 -0.54999593 0.83725343 0 0 0
-0.39219497 -0.53761663 0.83946942 0 0 0
-0.38947143 -0.52771180 0.84212399 0 0 0
-0.39018431 -0.50982087 0.84878009 0 0 0
-0.39065368 -0.50213145 0.93412703 152 154 154
-0.38150483 -0.50353820 0.94087754 158 158 158
-0.38993353 -0.49756069 0.85719179 0 0 0
-0.39005596 -0.48877403 0.86914678 0 0 0
-0.38897465 -0.48446313 0.88609723 2 3 3
-0.39020212 -0.49343062 0.90964331 93 96 97
-0.38984310 -0.49031762 0.93154820 154 155 154
-0.39412749 -0.46178853 0.91935641 154 154 152
-0.38985078 -0.47117823 0.92378483 155 156 154
-0.39002453 -0.45009127 0.91430106 159 159 159
-0.39006362 -0.42989328 0.90503911 161 162 161
-0.39024480 -0.40918234 0.89612455 159 159 160
-0.38583708 -0.41869707 0.90047612 164 164 162
-0.39019038 -0.39003757 0.88775774 161 162 163
-0.39050618 -0.36576808 0.87737574 161 162 162
-0.38932841 -0.37588553 0.88173703 162 162 161
-0.38996618 -0.34970376 0.87100497 160 161 161
-0.39353237 -0.32001776 0.85995758 159 162 163
-0.38987614 -0.32990506 0.86363826 161 162 162
-0.39011797 -0.31013717 0.85668776 165 167 168
-0.38987073 -0.29045074 0.85014606 172 174 174
-0.39021684 -0.27003516 0.84356353 175 177 178
-0.39016020 -0.24914237 0.83738919 176 178 179
-0.39175418 -0.25893422 0.84020305 174 176 176
-0.38998483 -0.22975615 0.83268038 173 175 175
-0.38984213 -0.20963629 0.82849129 171 172 173
-0.38998551 -0.18996732 0.82475624 173 174 176
-0.38699100 -0.16262823 0.81950248 175 176 177
-0.39081259 -0.17210980 0.82151571 176 178 179
-0.39020875 -0.14984702 0.81754346 174 174 175
-0.38987810 -0.13020366 0.81428929 176 177 178
-0.39000043 -0.11054038 0.81141312 179 180 180
-0.39004120 -0.09029884 0.80881666 169 170 171
-0.38983110 -0.06988684 0.80650857 173 173 174
-0.39015854 -0.04985219 0.80441513 173 174 174
-0.38993372 -0.03020950 0.80230402 175 176 176
-0.38814144 -0.00267304 0.79976532 169 170 170
-0.39054640 -0.01272288 0.80064741 174 174 175
-0.39013436 0.00977237 0.79888941 167 167 167
-0.38991415 0.03002286 0.79751158 170 171 172
-0.39003349 0.04968254 0.79626298 172 173 173
-0.38996679 0.06967061 0.79510551 171 171 171
-0.39003520 0.09024193 0.79402173 157 157 157
-0.38997637 0.10976250 0.79305355 162 162 162
-0.38988523 0.12965519 0.79214799 158 158 158
-0.39016658 0.15003783 0.79133006 125 124 127
-0.38980965 0.17039822 0.79060625 90 89 94
-0.39007340 0.18997614 0.78996663 75 74 76
-0.38988832 0.20970186 0.78938254 65 64 68
-0.39028515 0.22999945 0.78880582 58 57 62
-0.39000731 0.25027203 0.78824433 52 51 57
-0.38973921 0.27052229 0.78770258 48 47 51
-0.39001353 0.28996338 0.78719316 45 45 49
-0.38991721 0.30960611 0.78668845 43 43 47
-0.39034271 0.32978714 0.78617616 43 42 45
-0.39010717 0.34995863 0.78570186 42 41 44
-0.38987413 0.37010780 0.78523259 43 42 46
-0.38990577 0.38997066 0.78459125 21 20 21
-0.39019567 0.41017570 0.78367495 0 0 0
-0.39015988 0.43000101 0.78308168 0 0 0
-0.38999922 0.44267792 0.78275926 0 0 0
-0.36895546 -0.56234612 0.83619155 0 0 0
-0.37039591 -0.55037471 0.83805001 0 0 0
-0.36399691 -0.54107303 0.84015946 0 0 0
-0.37782391 -0.53902296 0.83990653 0 0 0
-0.36992810 -0.52970981 0.84266612 0 0 0
-0.37000923 -0.50995299 0.84951475 0 0 0
-0.37527985 -0.50120703 0.93351040 153 154 154
-0.37025984 -0.50469195 0.94568015 154 154 154
-0.36999398 -0.49745077 0.85708027 0 0 0
-0.37006408 -0.48851670 0.86855368 0 0 0
-0.36916796 -0.48304851 0.88558799 2 2 2
-0.37143310 -0.49033208 0.90785649 107 109 107
-0.37048003 -0.49015656 0.93378740 156 157 156
-0.36785018 -0.49960549 0.94061695 157 157 156
-0.37006142 -0.46987345 0.92540637 158 159 158
-0.37026782 -0.44882530 0.91535345 160 161 161
-0.36520648 -0.45830676 0.92071062 161 164 163
-0.37006039 -0.43007188 0.90654310 159 161 161
-0.37043983 -0.40750835 0.89663449 163 163 162
-0.36910753 -0.41769036 0.90110833 161 162 159
-0.37006810 -0.39000005 0.88910279 162 162 163
-0.37063180 -0.36455584 0.87811723 166 167 166
-0.36953031 -0.37471454 0.88259681 166 167 165
-0.36989192 -0.35026957 0.87226363 160 161 161
-0.37004620 -0.32993030 0.86442681 164 164 165
-0.36976177 -0.30889769 0.85682963 167 167 168
-0.36914525 -0.31865135 0.86028144 162 162 163
-0.37052691 -0.28987669 0.85019987 171 172 172
-0.36607682 -0.26019900 0.83959823 178 179 180
-0.37001310 -0.27016548 0.84338119 176 177 178
-0.37003859 -0.24976156 0.83636901 169 170 170
-0.36997901 -0.23039093 0.83167313 167 168 168
-0.37006630 -0.20998118 0.82733175 174 175 176
-0.36993084 -0.18983405 0.82333783 174 174 175
-0.36896808 -0.16612665 0.81878767 174 174 175
-0.37184614 -0.17594187 0.82080268 171 171 171
-0.36997901 -0.14996786 0.81619065 177 178 180
-0.36999481 -0.13045311 0.81323683 179 179 180
-0.36998763 -0.11039371 0.81047179 175 176 177
-0.36982718 -0.09046269 0.80803651 175 176 177
-0.37014521 -0.07006381 0.80580429 172 173 174
-0.37006081 -0.04979224 0.80368587 175 176 176
-0.36983324 -0.03007417 0.80165702 178 179 179
-0.36913047 -0.00576037 0.79953994 167 168 169
-0.37147847 -0.01581647 0.80039419 168 169 169
-0.36991028 0.01009280 0.79840237 169 169 170
-0.37013188 0.02977442 0.79709592 173 174 175
-0.36990602 0.04992809 0.79585246 169 170 170
-0.36992476 0.06959808 0.79476587 162 162 163
-0.37009150 0.09013031 0.79374289 156 156 156
-0.36999990 0.11005638 0.79278665 159 159 159
-0.36992440 0.12961739 0.79191678 166 166 166
-0.37004013 0.14985585 0.79111157 147 146 145
-0.36989951 0.17035414 0.79040146 128 126 127
-0.37020149 0.19009393 0.78978464 94 93 96
-0.37003334 0.20966140 0.78923004 74 73 77
-0.36977143 0.22996035 0.78867156 63 62 67
-0.36996338 0.25007904 0.78813526 57 56 61
-0.36995401 0.27049036 0.78760948 54 52 57
-0.37026284 0.29015506 0.78711273 52 51 54
-0.37017351 0.30958298 0.78662960 52 51 56
-0.36993699 0.32976657 0.78612704 53 51 56
-0.36972066 0.34994330 0.78566738 53 52 56
-0.36986030 0.36992679 0.78521996 54 54 58
-0.37018600 0.39023571 0.78442251 12 12 13
-0.37008781 0.40995347 0.78356931 0 0 0
-0.36981370 0.42995017 0.78298903 0 0 0
-0.36966419 0.44262886 0.78267250 0 0 0
-0.34970121 -0.56239381 0.83688024 0 0 0
-0.35055048 -0.55227995 0.83848605 0 0 0
-0.34825725 -0.54294953 0.84047762 0 0 0
-0.34993228 -0.53017678 0.84354767 0 0 0
-0.34994523 -0.50979722 0.85040300 0 0 0
-0.35583588 -0.50196165 0.93894207 156 160 159
-0.34990728 -0.50214071 0.94379221 155 156 156
-0.35006856 -0.49670886 0.85757174 0 0 0
-0.35011813 -0.48713304 0.86875884 0 0 0
-0.34923071 -0.48103277 0.88595046 6 6 6
-0.35032706 -0.48909177 0.91075414 135 141 140
-0.35018030 -0.48896093 0.93471137 154 156 153
-0.34311996 -0.49866323 0.94190803 160 162 160
-0.34279486 -0.47996830 0.88634005 0 0 0
-0.34971963 -0.46979314 0.92729193 156 157 155
-0.35052799 -0.44708246 0.91604508 159 160 161
-0.34942118 -0.45737526 0.92152321 160 161 161
-0.35006717 -0.42952605 0.90759120 161 163 162
-0.35035447 -0.40646296 0.89712618 165 165 165
-0.34934697 -0.41612770 0.90145351 164 165 165
-0.34988199 -0.38969583 0.88987244 164 165 165
-0.35038988 -0.36358188 0.87877159 165 165 164
-0.35001315 -0.37293774 0.88280113 161 162 161
-0.34977964 -0.35032208 0.87327686 163 163 163
-0.35022293 -0.32988841 0.86505949 164 165 165
-0.35010109 -0.30788238 0.85676347 169 169 169
-0.34922447 -0.31805221 0.86050357 168 168 167
-0.35003144 -0.28993626 0.85014165 170 170 171
-0.34920797 -0.26180050 0.83941475 179 180 179
-0.35030301 -0.27179500 0.84333011 177 177 177
-0.34983868 -0.25001319 0.83529696 164 165 165
-0.34999680 -0.23014248 0.83045305 171 171 173
-0.35005587 -0.21035539 0.82603126 172 173 174
-0.34325945 -0.18084610 0.81976459 163 165 165
-0.35027911 -0.19051372 0.82202653 165 165 165
-0.34987925 -0.16962760 0.81821880 174 174 175
-0.35681242 -0.17864908 0.82020997 173 173 173
-0.34989599 -0.15035229 0.81512556 173 173 173
-0.34997430 -0.13028092 0.81220956 173 174 175
-0.34997217 -0.11026630 0.80953782 175 176 176
-0.34984224 -0.09041072 0.80716166 175 175 176
-0.35019112 -0.07007770 0.80498402 175 176 176
-0.34992974 -0.04965656 0.80290001 179 180 180
-0.34187112 -0.02115698 0.79993969 174 175 172
-0.35006296 -0.03032787 0.80101068 175 174 174
-0.34949236 -0.00933661 0.79927427 173 173 174
-0.35572225 -0.01839648 0.80014338 166 167 167
-0.34997749 0.00992460 0.79792952 172 172 173
-0.34996991 0.02998558 0.79663981 173 173 174
-0.35012975 0.04965444 0.79549708 169 169 170
-0.34986890 0.06965813 0.79444095 155 155 157
-0.35006945 0.09009711 0.79344979 162 161 161
-0.34995227 0.10969648 0.79254538 162 161 161
-0.34997760 0.12958052 0.79169130 163 163 162
-0.35013311 0.15009033 0.79088885 157 157 156
-0.34999807 0.17030919 0.79019276 151 150 149
-0.34973221 0.18996899 0.78959260 140 139 139
-0.35012822 0.20957017 0.78905681 120 117 119
-0.34993635 0.22991483 0.78851527 99 98 101
-0.35016797 0.25034648 0.78799104 91 88 93
-0.35016306 0.27045026 0.78749263 87 86 89
-0.34994790 0.29000832 0.78700880 87 86 88
-0.34973585 0.30954456 0.78653194 86 85 87
-0.34991638 0.32956319 0.78604698 84 83 85
-0.34999660 0.34990957 0.78559165 83 82 85
-0.35016252 0.37023172 0.78512569 77 77 78
-0.35007898 0.38997862 0.78425492 2 2 2
-0.34972848 0.40990165 0.78347016 0 0 0
-0.34982730 0.42973186 0.78290941 0 0 0
-0.35001266 0.44258321 0.78259178 0 0 0
-0.32971518 -0.56284515 0.83755188 0 0 0
-0.33060470 -0.55428463 0.83882322 0 0 0
-0.32922633 -0.54413076 0.84098107 0 0 0
-0.33009913 -0.52961761 0.84454360 0 0 0
-0.32995341 -0.50953693 0.85122624 0 0 0
-0.33486246 -0.50052426 0.93929017 165 166 162
-0.33702367 -0.50131557 0.94261124 163 163 160
-0.33001240 -0.49639244 0.85774635 0 0 0
-0.32988447 -0.48634167 0.86866327 0 0 0
-0.33092272 -0.48056439 0.88582289 3 3 3
-0.33111378 -0.48626826 0.90846293 122 125 125
-0.32961356 -0.48877999 0.93459309 156 157 155
-0.33383138 -0.49866454 0.94152682 151 151 150
-0.32803556 -0.47950829 0.88865912 0 0 0
-0.33004549 -0.46961783 0.92782988 154 155 153
-0.33016436 -0.44637131 0.91646986 157 156 155
-0.32986620 -0.45597010 0.92151343 158 159 156
-0.33007797 -0.42984581 0.90826534 163 163 162
-0.33004038 -0.40594750 0.89712715 166 167 165
-0.32999481 -0.41576941 0.90159692 164 164 163
-0.32999318 -0.38967159 0.89011080 164 165 164
-0.33011931 -0.36360960 0.87910135 163 164 164
-0.33005553 -0.37285706 0.88299851 163 164 165
-0.32997352 -0.35002181 0.87353668 164 164 164
-0.33009804 -0.32948174 0.86528811 165 165 165
-0.33028092 -0.30828006 0.85686700 168 169 168
-0.32989651 -0.31805607 0.86068163 169 169 168
-0.32978356 -0.29032151 0.84963372 174 174 175
-0.32883617 -0.26345952 0.83874141 178 180 180
-0.33062656 -0.27330963 0.84273012 179 179 179
-0.33001096 -0.24984549 0.83406621 170 170 171
-0.33001602 -0.22970095 0.82906498 171 171 172
-0.32995858 -0.20988910 0.82464135 165 166 166
-0.32818348 -0.18313056 0.81932035 174 175 175
-0.33079978 -0.19310465 0.82132048 172 172 173
-0.33007127 -0.16983754 0.81718001 175 175 175
-0.33005271 -0.15023627 0.81413593 172 172 173
-0.32999029 -0.13013451 0.81127524 174 174 174
-0.32996045 -0.11012377 0.80862143 175 175 175
-0.32993168 -0.09030696 0.80623540 173 173 173
-0.33012736 -0.06999552 0.80412354 175 176 176
-0.32984366 -0.04950131 0.80212558 180 180 181
-0.32824915 -0.02363053 0.79973940 176 176 177
-0.33091887 -0.03301301 0.80062851 178 178 178
-0.32987906 -0.00992385 0.79877309 174 175 176
-0.33006600 0.00975671 0.79745228 172 172 173
-0.32996593 0.02985878 0.79623281 171 171 173
-0.33005883 0.04985552 0.79513547 164 164 165
-0.32991565 0.06947522 0.79414244 163 162 162
-0.33006159 0.09006378 0.79315599 164 163 163
-0.32999388 0.10998088 0.79226043 165 165 164
-0.33003588 0.12954118 0.79145064 161 161 161
-0.32984131 0.14980278 0.79067427 159 158 157
-0.33010450 0.17026299 0.78997830 158 158 158
-0.32985609 0.18991878 0.78938386 155 154 153
-0.33027226 0.20960314 0.78885018 149 148 147
-0.33009044 0.22985620 0.78831410 144 143 143
-0.32987422 0.25013034 0.78779773 137 135 135
-0.32970868 0.27034190 0.78730087 134 134 134
-0.33014854 0.28994208 0.78682905 131 130 130
-0.32994996 0.30947526 0.78635582 126 126 125
-0.33016545 0.32982700 0.78587169 123 122 122
-0.33023851 0.34983563 0.78542572 120 120 118
-0.33002512 0.36995920 0.78491795 98 98 97
-0.32967316 0.38989272 0.78408134 0 0 0
-0.33005533 0.40985484 0.78338057 0 0 0
-0.33019117 0.43003074 0.78281924 0 0 0
-0.33036457 0.44253666 0.78250946 0 0 0
-0.30968748 -0.56327983 0.83819871 0 0 0
-0.31048749 -0.55611157 0.83915177 0 0 0
-0.30962623 -0.54592440 0.84125151 0 0 0
-0.31004979 -0.52993516 0.84511306 0 0 0
-0.31001664 -0.50971060 0.85164183 0 0 0
-0.30978345 -0.49612226 0.85770964 0 0 0
-0.31021388 -0.48581893 0.86818138 0 0 0
-0.31311230 -0.48038985 0.89289558 31 31 30
-0.31062627 -0.48485604 0.90947577 132 137 135
-0.31032352 -0.48741637 0.93081624 158 160 160
-0.30305715 -0.47964758 0.87920125 0 0 0
-0.30992273 -0.47875676 0.88661082 0 0 0
-0.31013239 -0.47020423 0.92668928 157 159 158
-0.30962048 -0.44715462 0.91644332 163 162 162
-0.31049123 -0.45731744 0.92142105 158 158 156
-0.31007066 -0.42965005 0.90801018 160 160 160
-0.30965391 -0.40637710 0.89711381 167 166 166
-0.31082798 -0.41605888 0.90155736 158 159 159
-0.31027163 -0.38979913 0.88976138 167 167 167
-0.30948668 -0.36381431 0.87861622 164 164 163
-0.31003857 -0.37330740 0.88264420 163 165 165
-0.31009878 -0.35041636 0.87316614 167 168 166
-0.30984933 -0.32994842 0.86491144 170 170 171
-0.30980301 -0.30924487 0.85635798 172 172 173
-0.31327897 -0.31854391 0.86039268 172 172 172
-0.30993459 -0.28999695 0.84812979 173 173 174
-0.30916556 -0.26542638 0.83781453 174 174 176
-0.31123608 -0.27517332 0.84184122 178 179 180
-0.31013957 -0.24962045 0.83264986 169 170 172
-0.30980344 -0.22957518 0.82775503 168 168 169
-0.30999234 -0.20969318 0.82346477 177 177 179
-0.30904252 -0.18652491 0.81890413 177 177 178
-0.31164579 -0.19588020 0.82078452 177 179 180
-0.30988419 -0.17023738 0.81621139 175 175 175
-0.31013267 -0.15007574 0.81316777 175 175 176
-0.31001652 -0.12999081 0.81037962 178 178 178
-0.30989594 -0.10996071 0.80770712 178 179 179
-0.31005782 -0.09020065 0.80528848 167 167 167
-0.30998693 -0.06984547 0.80330270 174 174 175
-0.30996528 -0.04959802 0.80145161 178 178 179
-0.30903936 -0.02686955 0.79948617 170 170 171
-0.31153506 -0.03603674 0.80029674 175 176 175
-0.31012524 -0.01007827 0.79829864 170 171 171
-0.30992946 0.01007708 0.79700522 165 165 165
-0.30991312 0.02980240 0.79587179 172 171 171
-0.31005302 0.05031791 0.79478114 166 166 166
-0.30998373 0.07025275 0.79379716 165 165 164
-0.31007474 0.09003224 0.79287792 162 163 163
-0.30977617 0.11026550 0.79198741 164 163 162
-0.31017971 0.13007828 0.79118625 162 161 161
-0.30994845 0.14998456 0.79043978 158 157 157
-0.31022175 0.17021677 0.78976372 160 160 160
-0.30999181 0.18986935 0.78917835 158 157 156
-0.30977778 0.20950291 0.78863345 151 150 149
-0.30991678 0.22961583 0.78809257 152 151 151
-0.31003830 0.25005609 0.78756397 152 151 150
-0.30988827 0.27034682 0.78706000 147 147 146
-0.31028563 0.29048492 0.78657315 146 145 144
-0.31018633 0.31000555 0.78609946 145 144 142
-0.30995843 0.32956071 0.78563613 143 142 141
-0.30978357 0.34973196 0.78519296 135 134 134
-0.30979148 0.36968632 0.78466632 83 81 81
-0.30995745 0.38981130 0.78391709 0 0 0
-0.31038272 0.40980267 0.78328079 0 0 0
-0.31016376 0.42980701 0.78272829 0 0 0
-0.31003990 0.44248365 0.78241572 0 0 0
-0.28960054 -0.56293592 0.83876576 0 0 0
-0.29086776 -0.55702699 0.83952445 0 0 0
-0.28974610 -0.54758465 0.84145588 0 0 0
-0.28997925 -0.53025495 0.84554390 0 0 0
-0.29008174 -0.50998467 0.85192812 0 0 0
-0.28995947 -0.49577478 0.85786335 0 0 0
-0.29018180 -0.48555519 0.86700409 0 0 0
-0.28940767 -0.48351034 0.91225928 150 151 149
-0.29113835 -0.48416121 0.92481679 160 160 159
-0.28853026 -0.47920312 0.87779881 0 0 0
-0.29000515 -0.47710948 0.88660800 3 3 3
-0.28198186 -0.46666774 0.91525603 149 150 149
-0.29029848 -0.47058604 0.92349654 155 156 155
-0.28961947 -0.44946906 0.91556581 154 155 153
-0.29769794 -0.45820478 0.92058766 156 156 150
-0.29001725 -0.43000770 0.90692696 158 159 159
-0.28961373 -0.40734225 0.89642071 165 166 166
-0.29081608 -0.41741663 0.90112877 164 165 165
-0.28990527 -0.38997518 0.88857015 165 165 164
-0.28925287 -0.36503050 0.87786681 166 166 167
-0.29081238 -0.37506794 0.88220365 166 166 165
-0.29005058 -0.34996287 0.87176207 169 169 169
-0.28467985 -0.32172389 0.85935315 168 168 170
-0.29053573 -0.33088370 0.86399187 169 169 169
-0.29013793 -0.31004349 0.85483237 175 176 177
-0.28986311 -0.29006386 0.84598408 181 181 182
-0.28951295 -0.26836328 0.83663552 173 175 175
-0.29279329 -0.27801558 0.84096526 184 185 186
-0.28977029 -0.25028679 0.83125419 165 165 167
-0.29000799 -0.23046188 0.82657013 176 176 177
-0.28166555 -0.20023969 0.81988493 182 182 182
-0.29008570 -0.21017793 0.82228973 177 178 180
-0.28935492 -0.18935112 0.81834765 175 176 177
-0.29583398 -0.19806540 0.82026981 177 178 179
-0.28992654 -0.17022054 0.81521518 175 175 176
-0.29016483 -0.14994047 0.81222064 176 176 177
-0.29002873 -0.12984746 0.80946366 179 179 179
-0.28981844 -0.10980558 0.80677310 180 181 181
-0.29023532 -0.09015837 0.80450430 170 170 170
-0.29000533 -0.06989610 0.80258998 176 177 178
-0.28268948 -0.04078963 0.79992545 175 173 174
-0.29013993 -0.05022806 0.80089830 174 175 176
-0.28951835 -0.02961401 0.79923035 175 175 175
-0.29574827 -0.03872386 0.80009368 177 178 179
-0.28996203 -0.01007271 0.79786880 171 171 172
-0.29020325 0.00990888 0.79663863 172 172 172
-0.28984159 0.02987753 0.79551190 167 167 169
-0.29009251 0.05038940 0.79445001 168 168 168
-0.28988372 0.07010685 0.79349751 165 164 164
-0.29010580 0.09000201 0.79261100 163 164 164
-0.28992792 0.11054436 0.79173032 160 160 161
-0.29018169 0.13014323 0.79095082 162 162 161
-0.28991618 0.14982883 0.79022718 162 161 161
-0.28975634 0.17009294 0.78955811 163 162 162
-0.29009162 0.19045347 0.78896272 158 158 158
-0.28997819 0.21007492 0.78841661 158 158 156
-0.29010691 0.22990151 0.78786978 155 155 154
-0.29021650 0.24998381 0.78733640 153 152 150
-0.29002695 0.27021996 0.78682205 153 153 151
-0.28984032 0.29043226 0.78631567 151 151 149
-0.28957593 0.31004137 0.78582420 147 146 143
-0.29012132 0.32942974 0.78538521 144 144 144
-0.29001590 0.34962466 0.78495195 139 139 138
-0.29005311 0.36987849 0.78441282 52 51 51
-0.29024965 0.38972918 0.78375163 0 0 0
-0.29002793 0.40973594 0.78315316 0 0 0
-0.28982930 0.42974589 0.78261693 0 0 0
-0.28971639 0.44242503 0.78231208 0 0 0
-0.26958725 -0.56319984 0.83922171 0 0 0
-0.27162348 -0.55848718 0.83974905 0 0 0
-0.26981011 -0.54909030 0.84167004 0 0 0
-0.26984316 -0.53011007 0.84607622 0 0 0
-0.27016224 -0.50976722 0.85236527 0 0 0
-0.26995546 -0.49565942 0.85798925 0 0 0
-0.27014023 -0.48552371 0.86574867 0 0 0
-0.27239742 -0.48144664 0.91548667 159 162 161
-0.27794861 -0.48151836 0.92105149 161 161 161
-0.26894144 -0.47822838 0.87614540 0 0 0
-0.27000532 -0.47527463 0.88660490 9 9 9
-0.26830107 -0.47056542 0.91567620 160 160 159
-0.27677613 -0.47481331 0.92103333 158 158 156
-0.26993540 -0.44991539 0.91152167 161 161 160
-0.26473071 -0.42299484 0.89874073 164 166 167
-0.27104838 -0.43107670 0.90400063 166 166 166
-0.26974785 -0.40972468 0.89417741 172 172 172
-0.27821047 -0.41912090 0.90043160 162 163 161
-0.26037555 -0.38054443 0.87961382 173 175 175
-0.27011906 -0.38993839 0.88555935 175 176 176
-0.26925588 -0.36847855 0.87650133 175 175 175
-0.27380397 -0.37748139 0.88101260 175 176 176
-0.27006086 -0.34998889 0.86917988 173 173 173
-0.26851217 -0.32476367 0.85743738 180 180 180
-0.27132792 -0.33415910 0.86273846 171 171 171
-0.26991165 -0.30979088 0.85064329 183 184 184
-0.26709991 -0.28277040 0.83896731 183 183 184
-0.27075617 -0.29179167 0.84333403 183 184 185
-0.26977235 -0.26980409 0.83472392 176 176 177
-0.26998939 -0.24989942 0.82954666 176 176 177
-0.27001181 -0.22999316 0.82506309 174 174 176
-0.26840261 -0.20251439 0.81953075 174 175 176
-0.27074280 -0.21225360 0.82149772 175 175 176
-0.26978432 -0.19000617 0.81741478 174 175 176
-0.26985153 -0.17000081 0.81416336 177 177 178
-0.27017867 -0.14975618 0.81122259 177 177 177
-0.26998300 -0.12966780 0.80838742 179 179 180
-0.26988174 -0.10976392 0.80585079 176 176 177
-0.27012033 -0.09015033 0.80377553 174 174 175
-0.26996660 -0.07042179 0.80196686 174 174 174
-0.26803058 -0.04336720 0.79973745 176 175 176
-0.27074174 -0.05318552 0.80057238 173 173 174
-0.27018549 -0.03018866 0.79882743 177 176 177
-0.26983173 -0.01006762 0.79747311 173 173 173
-0.27011091 0.00990426 0.79626427 173 173 174
-0.26996224 0.02966351 0.79518196 167 167 168
-0.27007774 0.05037006 0.79414395 162 161 162
-0.26991314 0.07030390 0.79320444 162 162 162
-0.27015141 0.08997209 0.79234711 166 165 165
-0.26986156 0.11039626 0.79149713 157 156 155
-0.26993122 0.12994270 0.79073429 159 159 159
-0.27004048 0.14978953 0.79001983 159 158 159
-0.26990812 0.17021134 0.78935027 159 159 158
-0.27029217 0.19045062 0.78876178 158 158 157
-0.27010173 0.21007066 0.78820601 158 158 157
-0.26991399 0.22966488 0.78765815 155 153 151
-0.26972597 0.24991170 0.78710942 148 147 146
-0.26989829 0.26996435 0.78658862 150 150 149
-0.27004936 0.29034179 0.78607081 151 151 149
-0.26987269 0.31051845 0.78555647 142 140 140
-0.27030822 0.33009907 0.78511496 147 147 146
-0.27026200 0.34951945 0.78471556 138 138 139
-0.27007731 0.36961082 0.78417923 30 30 30
-0.26986832 0.38964037 0.78357284 0 0 0
-0.26967479 0.40966170 0.78301115 0 0 0
-0.26980342 0.42950926 0.78250226 0 0 0
-0.27007347 0.44236521 0.78220628 0 0 0
-0.25221233 -0.56418377 0.83967879 0 0 0
-0.24413710 -0.56236122 0.84017559 0 0 0
-0.25880304 -0.55938865 0.83996922 0 0 0
-0.24996014 -0.54984409 0.84211640 0 0 0
-0.24995554 -0.52945741 0.84674281 0 0 0
-0.24996738 -0.50969139 0.85269467 0 0 0
-0.24993073 -0.49578531 0.85788068 0 0 0
-0.25011847 -0.48554667 0.86453960 0 0 0
-0.24949525 -0.47714718 0.87479680 0 0 0
-0.25015206 -0.47348666 0.88705509 18 19 19
-0.25053371 -0.47019620 0.90930320 169 170 170
-0.24187610 -0.44091898 0.89939251 173 174 175
-0.25003076 -0.45021435 0.90541177 172 174 174
-0.24872398 -0.42829917 0.89638030 174 175 175
-0.25520116 -0.43649129 0.90171939 174 175 176
-0.24991352 -0.40984853 0.88895144 172 173 174
-0.24724350 -0.38498902 0.87805961 167 167 166
-0.25198877 -0.39326484 0.88260882 173 174 174
-0.25002483 -0.36988972 0.87286066 167 168 169
-0.24373502 -0.34208375 0.85900738 180 180 180
-0.25057540 -0.35079402 0.86517870 172 172 174
-0.24921931 -0.32915029 0.85427941 184 184 185
-0.25652727 -0.33814616 0.86107924 182 182 182
-0.24997519 -0.30980916 0.84607057 184 185 186
-0.24852226 -0.28713635 0.83735564 174 175 175
-0.25327285 -0.29597938 0.84140475 183 185 185
-0.25005448 -0.26961442 0.83266596 169 169 169
-0.24984764 -0.24943461 0.82779256 174 175 175
-0.25003258 -0.22949118 0.82354811 175 175 176
-0.24906987 -0.20604562 0.81897346 175 175 176
-0.25139292 -0.21527387 0.82081562 177 177 178
-0.24999668 -0.19021237 0.81629043 177 177 178
-0.24979520 -0.16975897 0.81300538 180 180 181
-0.25024035 -0.14949317 0.81005000 180 180 181
-0.24983027 -0.12940696 0.80726437 174 174 175
-0.25012762 -0.10965212 0.80503358 172 172 174
-0.24982856 -0.08978732 0.80307696 169 169 169
-0.25017487 -0.07051018 0.80139779 173 173 173
-0.24898506 -0.04650889 0.79950356 171 171 172
-0.25143544 -0.05653966 0.80031289 174 175 176
-0.25003457 -0.03000804 0.79837309 171 171 172
-0.24999539 -0.01023273 0.79710879 173 173 175
-0.25004711 0.00990008 0.79592180 168 167 168
-0.24995230 0.02996730 0.79485773 164 162 163
-0.25008534 0.05035207 0.79385987 163 162 163
-0.24979325 0.07016619 0.79293264 161 160 161
-0.25011453 0.08985870 0.79208738 159 158 159
-0.24994996 0.11036320 0.79125983 157 156 156
-0.25006406 0.13023446 0.79050267 161 160 159
-0.25017632 0.14975085 0.78981563 161 161 161
-0.24996693 0.17008550 0.78915464 164 163 163
-0.24977683 0.19040056 0.78855445 158 158 158
-0.24978644 0.20988368 0.78800051 155 154 154
-0.25010655 0.22960330 0.78744704 159 157 156
-0.24993016 0.24984256 0.78689164 154 153 153
-0.25013507 0.27023553 0.78635911 152 151 150
-0.25027685 0.29025831 0.78584480 153 152 151
-0.25011160 0.31042730 0.78532591 151 151 150
-0.24978935 0.33028725 0.78486096 149 149 147
-0.25001545 0.34976202 0.78447443 144 143 142
-0.24966785 0.36949478 0.78393253 6 6 6
-0.24984806 0.38938071 0.78340182 0 0 0
-0.25000574 0.40958781 0.78286983 0 0 0
-0.25017370 0.42978571 0.78237153 0 0 0
-0.25043338 0.44230088 0.78209253 0 0 0
-0.23846299 -0.56661329 0.83991814 0 0 0
-0.22947880 -0.56368428 0.84069283 0 0 0
-0.22997216 -0.54990391 0.84283197 0 0 0
-0.22999825 -0.52969868 0.84719763 0 0 0
-0.22999250 -0.50971260 0.85293896 0 0 0
-0.22975250 -0.49509738 0.85806287 0 0 0
-0.23013888 -0.48508915 0.86376837 0 0 0
-0.22962659 -0.47600174 0.87383702 0 0 0
-0.22893306 -0.47075310 0.88941243 52 53 53
-0.23215510 -0.46756154 0.90286899 165 166 164
-0.22742103 -0.44791732 0.89752069 165 165 165
-0.23442840 -0.45455201 0.90181096 163 164 163
-0.23008423 -0.43000953 0.89167173 168 168 170
-0.22367315 -0.40265756 0.87876632 170 170 171
-0.23072656 -0.41092459 0.88408820 168 170 171
-0.22968813 -0.38954749 0.87510993 168 169 171
-0.23791834 -0.39850194 0.88090003 172 172 172
-0.22985460 -0.37000018 0.86719499 175 175 175
-0.22814936 -0.34711802 0.85692100 181 181 182
-0.23320304 -0.35553163 0.86202131 180 181 181
-0.22987094 -0.32994019 0.84999405 182 183 183
-0.22641647 -0.30285786 0.83883435 157 158 160
-0.23105847 -0.31219555 0.84310602 179 180 181
-0.23018655 -0.28988310 0.83586608 162 163 165
-0.22976075 -0.27038461 0.83112500 171 171 172
-0.22990659 -0.25058181 0.82645596 174 174 176
-0.22341286 -0.22063649 0.81984941 178 178 179
-0.23019847 -0.23033714 0.82227570 175 176 176
-0.22963139 -0.20916575 0.81820645 180 180 182
-0.23619735 -0.21782369 0.82028498 168 169 170
-0.23004970 -0.18985458 0.81487958 180 180 182
-0.22986571 -0.16962257 0.81167539 177 177 179
-0.23033419 -0.14981592 0.80889443 171 171 173
-0.22958940 -0.12958064 0.80642118 165 165 166
-0.23019604 -0.10971627 0.80436404 169 168 170
-0.22992377 -0.08988844 0.80250854 169 168 170
-0.22158587 -0.06125429 0.79995288 152 146 151
-0.23007633 -0.07032110 0.80086431 171 170 172
-0.22966420 -0.04958494 0.79929117 172 172 172
-0.23537809 -0.05907012 0.80011221 173 173 174
-0.23000710 -0.03007302 0.79798674 172 172 173
-0.22993434 -0.00988602 0.79673956 173 173 173
-0.23001338 0.00989645 0.79562338 166 166 166
-0.22985259 0.02968735 0.79461845 161 160 160
-0.23012269 0.05033747 0.79362980 159 158 158
-0.22984717 0.07014371 0.79267935 161 160 159
-0.23019729 0.08999249 0.79182305 163 162 163
-0.23005143 0.11033070 0.79102620 158 157 157
-0.22984057 0.13003644 0.79030138 155 153 154
-0.22972781 0.14963410 0.78961922 163 162 162
-0.23013485 0.17004550 0.78896903 162 162 162
-0.22995912 0.19035519 0.78836655 158 158 158
-0.22999738 0.21009793 0.78779756 157 157 156
-0.23031044 0.22954238 0.78723825 159 159 157
-0.23014486 0.24977287 0.78667217 155 154 152
-0.22998841 0.26998476 0.78613734 150 149 147
-0.22983591 0.29017382 0.78561604 154 153 152
-0.22968477 0.31033779 0.78509948 154 154 153
-0.22976264 0.33034008 0.78462838 148 148 146
-0.22999288 0.35012978 0.78422010 125 125 126
-0.23006825 0.36953516 0.78372635 0 0 0
-0.23018529 0.38964083 0.78322377 0 0 0
-0.23034442 0.40951498 0.78273052 0 0 0
-0.23020371 0.42954587 0.78225249 0 0 0
-0.23012264 0.44223558 0.78197707 0 0 0
-0.21054162 -0.56402572 0.84147311 0 0 0
-0.20979450 -0.54996490 0.84357845 0 0 0
-0.21002264 -0.53009380 0.84762081 0 0 0
-0.21000228 -0.50999443 0.85309764 0 0 0
-0.20995974 -0.49511009 0.85798185 0 0 0
-0.21014012 -0.48502298 0.86288955 0 0 0
-0.20953681 -0.47481488 0.87269659 0 0 0
-0.21066827 -0.46707183 0.89139614 109 111 110
-0.20989041 -0.45026016 0.89292349 169 169 169
-0.20268707 -0.42024847 0.87998062 172 174 176
-0.21007137 -0.43011610 0.88593959 172 172 173
-0.20853695 -0.40802253 0.87660793 175 176 177
-0.21428730 -0.41604617 0.88154834 169 170 171
-0.20992534 -0.38998989 0.86963224 176 177 177
-0.20645132 -0.36442700 0.85825370 172 174 174
-0.21167671 -0.37262982 0.86303066 178 179 179
-0.20990247 -0.34998256 0.85353710 167 169 171
-0.20976660 -0.32989961 0.84580165 174 175 175
-0.20895890 -0.30676135 0.83836617 156 156 159
-0.21176735 -0.31597815 0.84128304 162 163 165
-0.20987580 -0.29006871 0.83427391 165 165 167
-0.21003676 -0.26972905 0.82924819 172 173 175
-0.21001010 -0.24982951 0.82463879 175 175 177
-0.20783569 -0.22427292 0.81932672 176 176 178
-0.21087475 -0.23336074 0.82131195 177 177 179
-0.21003892 -0.21010058 0.81687168 180 180 181
-0.21031070 -0.18976296 0.81336762 173 172 173
-0.20962135 -0.17024793 0.81050092 170 170 172
-0.21012251 -0.15066417 0.80811048 172 172 174
-0.21002089 -0.13000007 0.80580799 169 170 172
-0.20983861 -0.10936841 0.80369687 175 174 176
-0.21020281 -0.08994127 0.80195534 173 172 172
-0.20783197 -0.06334444 0.79980554 168 166 167
-0.21066659 -0.07265666 0.80056272 172 171 173
-0.20998634 -0.04996043 0.79891123 169 169 170
-0.20991338 -0.03005937 0.79762740 168 168 169
-0.21009789 -0.01019592 0.79644754 171 171 172
-0.21000286 0.00989324 0.79535678 164 164 164
-0.20989571 0.02990671 0.79440239 164 163 165
-0.21018454 0.05032592 0.79344865 166 166 167
-0.20991062 0.07012010 0.79241316 164 162 163
-0.20977280 0.08980416 0.79156914 164 163 164
-0.21016858 0.11030033 0.79080785 160 159 159
-0.20998173 0.13000416 0.79010495 158 157 156
-0.20989937 0.14976182 0.78943194 159 158 158
-0.21031488 0.17000766 0.78879340 162 161 161
-0.21015275 0.19031140 0.78818529 163 162 162
-0.20999941 0.20991180 0.78761013 160 160 160
-0.20984615 0.22948318 0.78703532 159 159 158
-0.20969149 0.24970396 0.78645519 157 157 156
-0.20980991 0.26974352 0.78592250 155 154 153
-0.21008835 0.29009333 0.78539812 152 151 150
-0.20995152 0.31025365 0.78488660 157 156 155
-0.21005895 0.33055741 0.78440427 152 151 151
-0.21038712 0.35054764 0.78398197 96 95 95
-0.21014884 0.37012112 0.78352060 0 0 0
-0.21025037 0.38951547 0.78306379 0 0 0
-0.21001401 0.40944269 0.78259223 0 0 0
-0.20989077 0.42948037 0.78213316 0 0 0
-0.20981888 0.44217239 0.78186532 0 0 0
-0.19033868 -0.56449525 0.84217356 0 0 0
-0.18979478 -0.55019440 0.84425460 0 0 0
-0.19020067 -0.53020843 0.84811217 0 0 0
-0.18995984 -0.50999365 0.85335522 0 0 0
-0.18969939 -0.49466888 0.85805445 0 0 0
-0.19030718 -0.48474798 0.86238539 0 0 0
-0.18972239 -0.47309962 0.87189305 0 0 0
-0.19102119 -0.46485559 0.88739551 120 122 121
-0.18992416 -0.44999966 0.88726673 173 173 173
-0.18745454 -0.42487221 0.87804514 174 176 176
-0.19169761 -0.43357769 0.88229664 177 178 179
-0.18990440 -0.40987353 0.87261795 173 174 174
-0.18252340 -0.38161436 0.85934132 178 178 178
-0.19033316 -0.39018969 0.86453816 174 174 175
-0.18937082 -0.36916047 0.85606285 179 179 180
-0.19655322 -0.37732652 0.86079998 175 178 179
-0.18987627 -0.34988331 0.84911455 170 170 171
-0.18202273 -0.32163996 0.83961825 165 165 166
-0.19036589 -0.33017859 0.84300503 164 165 166
-0.18948927 -0.30947723 0.83719917 162 162 162
-0.19608543 -0.31850565 0.84028290 154 153 153
-0.19007712 -0.28998782 0.83234228 170 171 170
-0.18996008 -0.26996802 0.82744839 176 176 177
-0.18999308 -0.24968138 0.82284360 178 178 179
-0.18910153 -0.22812034 0.81849389 178 178 179
-0.19308563 -0.23702562 0.82052144 180 180 181
-0.18997978 -0.20977568 0.81524372 179 179 180
-0.19009049 -0.19005982 0.81213996 175 174 176
-0.18996952 -0.17043966 0.80957081 172 172 174
-0.18979030 -0.15025225 0.80727106 172 172 174
-0.19028572 -0.13059885 0.80521523 171 171 172
-0.18985929 -0.11009487 0.80318773 175 174 175
-0.18999018 -0.08965423 0.80140675 173 172 173
-0.18911743 -0.06621925 0.79961324 170 169 170
-0.19112218 -0.07552254 0.80032774 168 167 169
-0.19014283 -0.05010794 0.79855021 169 169 170
-0.18984684 -0.03004722 0.79730789 168 168 169
-0.19009176 -0.00991382 0.79617992 168 167 169
-0.19002497 0.00989106 0.79517109 165 164 166
-0.18981388 0.02978658 0.79428834 163 163 163
-0.18977976 0.05018751 0.79342013 166 165 166
-0.18998144 0.07009456 0.79212295 167 167 168
-0.18988660 0.08994004 0.79132463 162 160 162
-0.19029808 0.11027066 0.79059482 155 154 155
-0.19013240 0.12997155 0.78990661 157 156 156
-0.18997298 0.14964261 0.78924443 158 157 157
-0.18981827 0.16996634 0.78860168 159 158 158
-0.18967188 0.19026511 0.78799355 163 161 160
-0.18986446 0.21024270 0.78740703 162 161 161
-0.19018448 0.22994956 0.78682973 157 157 156
-0.18993412 0.24964206 0.78626026 159 159 159
-0.19008566 0.27000997 0.78571649 158 158 158
-0.19035602 0.29001922 0.78519748 153 152 151
-0.19023193 0.31017422 0.78468563 152 152 151
-0.19011542 0.33031582 0.78420504 148 148 148
-0.19001173 0.35045618 0.78377736 75 75 74
-0.18990344 0.37056541 0.78333091 0 0 0
-0.18963910 0.39021351 0.78288955 0 0 0
-0.18984546 0.40958771 0.78245803 0 0 0
-0.18958584 0.42941900 0.78202137 0 0 0
-0.18952267 0.44211332 0.78176087 0 0 0
-0.16976790 -0.56434346 0.84275671 0 0 0
-0.17033347 -0.54995697 0.84491816 0 0 0
-0.16991106 -0.52992496 0.84874678 0 0 0
-0.17001088 -0.51016531 0.85363198 0 0 0
-0.16996610 -0.49442153 0.85806315 0 0 0
-0.17039426 -0.48414366 0.86219673 0 0 0
-0.16959050 -0.47138321 0.87123400 1 1 1
-0.17188418 -0.46251526 0.88344252 142 146 147
-0.16310741 -0.44380046 0.87931249 169 170 169
-0.17073462 -0.45120349 0.88274994 169 171 170
-0.16953903 -0.42954223 0.87599456 169 170 170
-0.17716813 -0.43792791 0.88057719 175 175 175
-0.16986669 -0.40985891 0.86852582 166 167 167
-0.16819189 -0.38466467 0.85806184 179 181 182
-0.17143106 -0.39411046 0.86241614 169 170 170
-0.17009479 -0.36984639 0.85262590 171 171 172
-0.17002733 -0.34997248 0.84610858 166 167 168
-0.16817402 -0.32438641 0.83877546 160 160 160
-0.17096129 -0.33391096 0.84167588 165 166 166
-0.17012054 -0.30983830 0.83522040 162 161 162
-0.16992330 -0.28995777 0.83030538 172 172 174
-0.16990869 -0.27026942 0.82562625 176 176 177
-0.16597664 -0.24317089 0.81948544 178 178 180
-0.17102094 -0.25206227 0.82167018 180 180 181
-0.17006670 -0.23001297 0.81742952 177 177 178
-0.16990996 -0.21006933 0.81402246 178 178 180
-0.16996933 -0.19039155 0.81118640 172 172 173
-0.17020633 -0.17026641 0.80874909 170 169 172
-0.16974673 -0.15028919 0.80656593 173 173 174
-0.16996837 -0.13039945 0.80453681 173 172 174
-0.17020949 -0.11010482 0.80264133 172 171 173
-0.16994705 -0.08971254 0.80094221 173 172 173
-0.16941662 -0.06870329 0.79942992 166 166 168
-0.17280162 -0.07805386 0.80012658 171 171 172
-0.17006805 -0.05008970 0.79826307 166 165 167
-0.16982522 -0.03004010 0.79712433 166 165 167
-0.17000680 -0.01022169 0.79609408 167 166 167
-0.17008307 0.00989047 0.79511017 166 165 167
-0.16991401 0.02978797 0.79432070 160 159 160
-0.16994019 0.05047306 0.79354431 157 143 148
-0.17007239 0.07007109 0.79185870 167 166 167
-0.16990423 0.08982796 0.79107550 160 159 160
-0.16975331 0.11023981 0.79037323 155 153 153
