ply
format ascii 1.0
element vertex 1063
property float x
property float y
property float z
property uchar red
property uchar green
property uchar blue
end_header
0.18970689 0.25186399 0.65433574 159 166 168
0.31940499 0.18880686 0.49051508 143 149 151
0.32094949 0.18921761 0.49158219 141 147 148
0.32203269 0.18935493 0.49193892 145 151 152
0.32194841 0.18880686 0.49051508 148 154 154
0.32326406 0.18908049 0.49122596 149 155 155
0.32529169 0.18976806 0.49301225 149 155 154
0.32496214 0.18908049 0.49122596 149 155 155
0.32723394 0.18990617 0.49337107 152 158 157
0.32880461 0.19032173 0.49445066 158 164 158
0.32941896 0.19018300 0.49409026 157 163 158
0.32883489 0.18935493 0.49193892 155 160 155
0.32873094 0.18880686 0.49051508 154 158 153
0.33005640 0.18908049 0.49122596 154 157 153
0.33138573 0.18935493 0.49193892 148 150 147
0.45708093 0.25656939 0.66656029 134 139 137
0.45868403 0.25682193 0.66721636 138 143 140
0.45938513 0.25656939 0.66656029 142 146 142
0.46235570 0.25758252 0.66919231 144 147 145
0.46305525 0.25732848 0.66853237 144 145 145
0.46329695 0.25682193 0.66721636 143 144 144
0.46445018 0.25682193 0.66721636 139 140 141
0.46514559 0.25656939 0.66656029 139 140 140
0.46675664 0.25682193 0.66721636 137 138 139
0.52291101 0.23255889 0.60418171 144 151 150
0.52395529 0.23255889 0.60418171 138 145 144
0.52640706 0.23318237 0.60580146 140 149 147
0.52651310 0.23276635 0.60472065 138 149 147
0.53230679 0.23486146 0.61016369 136 147 145
0.53336143 0.23486146 0.61016369 135 146 144
0.53249884 0.23401891 0.60797477 135 146 144
0.52927750 0.23214509 0.60310662 135 146 145
0.52797127 0.23111700 0.60043561 137 148 146
0.52994788 0.23152713 0.60150117 140 151 149
0.53004688 0.23111700 0.60043561 138 150 151
-0.01772811 0.48004168 1.24156010 123 130 136
-0.01544078 0.47568560 1.23029375 133 140 146
-0.01329019 0.47482383 1.22806489 139 147 153
-0.00272653 0.48358443 1.25072300 161 167 168
-0.00056580 0.48447829 1.25303483 165 171 171
0.00159114 0.48180655 1.24612474 165 171 171
0.00370412 0.47655046 1.23253059 165 171 171
0.00581331 0.47482383 1.22806489 163 169 169
0.07290023 0.28243831 0.73048687 142 147 149
0.07392383 0.28152820 0.72813302 138 143 146
0.07776237 0.19826230 0.51277751 123 132 135
0.08182248 0.19736654 0.51046073 146 158 163
0.08314302 0.19841239 0.51316565 149 161 166
0.08402999 0.19841239 0.51316565 152 162 167
0.08548037 0.19766423 0.51123065 153 162 163
0.08603956 0.19692168 0.50931019 154 163 162
0.08685461 0.19677384 0.50892782 155 164 163
0.31917402 0.18951754 0.49016041 147 151 152
0.32025278 0.18965468 0.49051508 145 151 150
0.32156596 0.18992953 0.49122596 146 152 151
0.32171562 0.18951754 0.49016041 148 154 153
0.32256284 0.18951754 0.49016041 149 155 154
0.32411310 0.18992953 0.49122596 150 155 154
0.32402295 0.18938060 0.48980623 153 157 154
0.32581118 0.18992953 0.49122596 159 163 160
0.32856497 0.19103700 0.49409026 165 167 163
0.32870021 0.19062018 0.49301225 161 163 159
0.32835832 0.18992953 0.49122596 156 157 153
0.32849324 0.18951754 0.49016041 150 151 147
0.45708093 0.25772148 0.66656029 133 135 133
0.45823303 0.25772148 0.66656029 141 144 139
0.45893386 0.25746834 0.66590554 148 150 141
0.46189976 0.25848398 0.66853237 151 153 144
0.46259904 0.25822932 0.66787374 151 153 144
0.46284139 0.25772148 0.66656029 150 152 143
0.46353769 0.25746834 0.66590554 144 145 140
0.46468866 0.25746834 0.66590554 139 140 137
0.52431291 0.23422946 0.60580146 162 166 164
0.52535999 0.23422946 0.60580146 157 161 159
0.52782214 0.23485911 0.60742998 154 160 157
0.52934635 0.23506974 0.60797477 150 159 156
0.53374809 0.23655483 0.61181575 145 154 151
0.53384191 0.23612861 0.61071336 144 153 152
0.53297687 0.23528075 0.60852051 143 153 152
0.53022093 0.23360318 0.60418171 141 151 150
0.52890825 0.23256677 0.60150117 140 149 148
0.53136235 0.23318751 0.60310662 140 150 148
-0.01336282 0.47955272 1.23477566 142 150 155
0.00160889 0.48935771 1.26002204 160 166 166
0.00374497 0.48396036 1.24612474 159 165 165
0.00586644 0.48130611 1.23929036 161 167 167
0.00799384 0.48042780 1.23702896 160 166 166
0.07321581 0.28492904 0.73364919 143 147 148
0.07424282 0.28400695 0.73127490 139 143 145
0.07788018 0.19945033 0.51355445 124 136 141
0.07876782 0.19945033 0.51355445 130 142 146
0.07965546 0.19945033 0.51355445 135 148 149
0.08029976 0.19884777 0.51200289 142 155 155
0.08112345 0.19869769 0.51161647 148 158 161
0.08206967 0.19884777 0.51200289 150 161 165
0.08320601 0.19945033 0.51355445 147 158 163
0.08409365 0.19945033 0.51355445 150 160 165
0.08491695 0.19929935 0.51316565 152 161 165
0.08554488 0.19869769 0.51161647 152 160 164
0.08610425 0.19795071 0.50969309 151 160 161
0.08691986 0.19780199 0.50931019 150 159 159
0.08793230 0.19809966 0.51007664 149 158 157
0.08854741 0.19750521 0.50854599 142 151 150
0.31894341 0.19022720 0.48980623 153 154 156
0.32133311 0.19064043 0.49087027 148 153 153
0.32171562 0.19036475 0.49016041 149 154 153
0.32232976 0.19022720 0.48980623 150 155 154
0.32364404 0.19050249 0.49051508 149 155 154
0.32533967 0.19050249 0.49051508 157 158 158
0.32832566 0.19175123 0.49373040 158 159 159
0.32846135 0.19133317 0.49265397 157 157 156
0.32812056 0.19064043 0.49087027 151 151 149
0.32825589 0.19022720 0.48980623 143 143 139
0.45708093 0.25887358 0.66656029 136 139 134
0.45778289 0.25861931 0.66590554 145 148 143
0.45893386 0.25861931 0.66590554 156 158 149
0.46144468 0.25938368 0.66787374 157 159 150
0.46259904 0.25938368 0.66787374 156 158 149
0.46284139 0.25887358 0.66656029 153 155 146
0.46353769 0.25861931 0.66590554 146 148 140
0.46468866 0.25861931 0.66590554 140 142 136
0.52829552 0.23612058 0.60797477 165 168 165
0.53423023 0.23782696 0.61236840 156 160 157
0.53384191 0.23718418 0.61071336 149 156 154
0.53297687 0.23633254 0.60852051 145 154 153
0.53022093 0.23464745 0.60418171 145 154 153
0.52890825 0.23360643 0.60150117 141 150 149
0.53136235 0.23422994 0.60310662 140 149 148
0.00379379 0.49245089 1.26236844 156 162 162
0.00598684 0.49336964 1.26472354 158 164 164
0.00812732 0.49062359 1.25768435 158 163 163
0.07218212 0.28712934 0.73603892 145 146 147
0.07337463 0.28681791 0.73524064 144 145 146
0.07432299 0.28557897 0.73206460 137 141 141
0.07502119 0.28343636 0.72657216 133 136 136
0.07722656 0.20094690 0.51511538 129 136 142
0.07793923 0.20048986 0.51394379 132 140 145
0.07882754 0.20048986 0.51394379 131 142 142
0.07971585 0.20048986 0.51394379 134 146 146
0.08036046 0.19988368 0.51238990 136 148 148
0.08112345 0.19958198 0.51161647 139 149 152
0.08213171 0.19988368 0.51238990 144 154 157
0.08320601 0.20033798 0.51355445 149 159 162
0.08409365 0.20033798 0.51355445 149 158 161
0.08491695 0.20018631 0.51316565 151 159 163
0.08548037 0.19943146 0.51123065 151 159 163
0.08597497 0.19853313 0.50892782 149 158 159
0.08678945 0.19838420 0.50854599 147 156 156
0.08780016 0.19868229 0.50931019 149 156 156
0.08848103 0.19823548 0.50816482 141 148 148
0.32110059 0.19135031 0.49051508 148 154 152
0.32148317 0.19107379 0.48980623 148 154 153
0.32341003 0.19121195 0.49016041 150 154 154
0.32510445 0.19121195 0.49016041 153 154 154
0.32808670 0.19246443 0.49337107 153 154 154
0.32822281 0.19204512 0.49229619 150 150 150
0.32812056 0.19148886 0.49087027 145 146 145
0.45548096 0.25977024 0.66590554 130 134 132
0.45618379 0.25951535 0.66525203 138 143 135
0.45643780 0.25900698 0.66394889 146 151 143
0.45758536 0.25900698 0.66394889 153 156 147
0.46099049 0.26028162 0.66721636 159 161 152
0.46214372 0.26028162 0.66721636 160 161 152
0.46238676 0.25977024 0.66590554 155 156 147
0.46308282 0.25951535 0.66525203 149 150 142
0.46423265 0.25951535 0.66525203 142 144 137
0.53288180 0.23781127 0.60961497 151 155 152
0.53059536 0.23632361 0.60580146 145 154 151
0.52786857 0.23464607 0.60150117 145 154 152
0.52750409 0.23402312 0.59990430 141 150 148
0.52900910 0.23423040 0.60043561 139 148 147
-0.01361073 0.49279740 1.25768435 135 143 147
0.00163936 0.50306404 1.28388608 157 163 163
0.00381510 0.49741161 1.26946032 155 161 161
0.00600926 0.49741161 1.26946032 155 161 161
0.07233921 0.28902918 0.73764074 144 145 146
0.07353414 0.28871500 0.73683894 143 144 145
0.07456456 0.28777659 0.73444402 138 142 142
0.07518236 0.28530377 0.72813302 128 132 132
0.07788018 0.20122561 0.51355445 133 142 143
0.07876782 0.20122561 0.51355445 134 143 144
0.07965546 0.20122561 0.51355445 135 144 146
0.08023916 0.20046626 0.51161647 138 146 148
0.08081847 0.19971263 0.50969309 139 147 151
0.08194589 0.20031509 0.51123065 145 154 157
0.08308013 0.20092118 0.51277751 151 161 163
0.08396643 0.20092118 0.51277751 150 160 162
0.08485272 0.20092118 0.51277751 150 159 161
0.08528741 0.19986291 0.51007664 151 159 162
0.08571756 0.19881572 0.50740409 151 160 161
0.32002121 0.19205914 0.49016041 153 159 159
0.32086843 0.19205914 0.49016041 152 158 158
0.32148317 0.19192038 0.48980623 150 156 156
0.32317635 0.19192038 0.48980623 149 155 153
0.32510445 0.19205914 0.49016041 149 151 150
0.32784808 0.19317658 0.49301225 150 151 151
0.32798463 0.19275603 0.49193892 152 153 153
0.45414263 0.26015455 0.66394889 130 134 133
0.45484471 0.25990000 0.66329926 137 142 136
0.45377114 0.25863466 0.66006994 145 150 142
0.45491204 0.25863466 0.66006994 151 155 146
0.45963332 0.26066518 0.66525203 156 158 149
0.46168929 0.26117778 0.66656029 159 160 151
0.46148011 0.26040962 0.66459984 156 156 147
0.46172348 0.25990000 0.66329926 156 156 147
0.46286994 0.25990000 0.66329926 154 154 146
0.52719265 0.23631477 0.60310662 155 157 153
0.52729684 0.23589504 0.60203540 143 151 147
0.52693349 0.23526821 0.60043561 138 147 143
0.52657205 0.23464471 0.59884441 136 145 142
0.52760714 0.23464471 0.59884441 135 144 143
-0.01587289 0.49774158 1.26472354 125 134 135
-0.01366143 0.49681470 1.26236844 131 140 141
-0.01145819 0.49589124 1.26002204 141 151 152
-0.00507560 0.51109099 1.29864335 152 163 162
-0.00058865 0.51305670 1.30363810 151 160 159
0.00165187 0.50914025 1.29368675 152 158 158
0.00385845 0.50528312 1.28388608 151 157 157
0.00604321 0.50242841 1.27663243 151 157 157
0.00818809 0.49867195 1.26708758 151 157 157
0.07160970 0.29253232 0.74330246 150 151 153
0.07273493 0.29189223 0.74167597 143 144 146
0.07369435 0.29062036 0.73844427 139 140 142
0.07472648 0.28967372 0.73603892 133 137 138
0.07550677 0.28779879 0.73127490 127 131 132
0.07770359 0.20165494 0.51238990 142 150 150
0.07864866 0.20180748 0.51277751 144 151 151
0.07959516 0.20196025 0.51316565 144 151 152
0.07999766 0.20074454 0.51007664 145 154 155
0.08051578 0.19984230 0.50778413 141 149 152
0.08264253 0.20074454 0.51007664 154 163 162
0.08358706 0.20089570 0.51046073 154 163 162
0.08466060 0.20135055 0.51161647 153 162 162
0.08509532 0.20029241 0.50892782 152 161 162
0.08552551 0.19924532 0.50626725 154 161 162
0.08745809 0.19573696 0.49735278 137 141 145
0.32148317 0.19276696 0.48980623 153 159 159
0.32317635 0.19276696 0.48980623 149 153 152
0.32510445 0.19290635 0.49016041 143 147 145
0.32808670 0.19416994 0.49337107 143 147 145
0.32822281 0.19374691 0.49229619 148 152 149
0.45369825 0.26104647 0.66329926 130 134 133
0.45440009 0.26079127 0.66265088 138 142 139
0.45288920 0.25927064 0.65878701 142 146 141
0.45402786 0.25927064 0.65878701 148 151 145
0.45873296 0.26130214 0.66394889 155 156 147
0.46123579 0.26207218 0.66590554 157 158 149
0.46102810 0.26130214 0.66394889 158 158 149
0.46082166 0.26053661 0.66200376 157 157 148
0.46196589 0.26053661 0.66200376 157 157 148
0.52589566 0.23630601 0.60043561 140 144 142
0.52646714 0.23609689 0.59990430 134 139 137
0.52564335 0.23526409 0.59778821 129 135 134
0.52574933 0.23484990 0.59673578 128 137 138
-0.01605258 0.50558710 1.27904117 126 135 135
-0.01373818 0.50179994 1.26946032 129 139 140
-0.01154402 0.50179994 1.26946032 137 144 146
-0.00949206 0.50943190 1.28876781 146 154 155
-0.00737672 0.51729953 1.30867147 147 157 157
-0.00509512 0.51530993 1.30363810 149 159 160
-0.00285838 0.51830012 1.31120276 149 158 159
-0.00059092 0.51729953 1.30867147 146 155 156
0.00166139 0.51432085 1.30113602 147 153 155
0.00389534 0.51235408 1.29616034 148 154 155
0.00610066 0.50943190 1.28876781 151 157 157
0.00821881 0.50274140 1.27184212 151 157 157
0.01033949 0.49899659 1.26236844 151 157 157
0.07184604 0.29478675 0.74575561 145 146 148
0.07297446 0.29413959 0.74411839 142 143 144
0.07385525 0.29253402 0.74005657 135 136 136
0.07472648 0.29094589 0.73603892 128 132 133
0.07567003 0.28968775 0.73285604 126 129 130
0.08427896 0.20132320 0.50931019 164 169 170
0.08490410 0.20071998 0.50778413 166 171 172
0.08514398 0.19922763 0.50400883 161 166 167
0.08538032 0.19775732 0.50028920 158 164 164
0.08567596 0.19645247 0.49698815 158 163 165
0.08621892 0.19573496 0.49517301 151 159 160
0.08713844 0.19587804 0.49553499 145 153 155
0.08793065 0.19573496 0.49517301 139 142 150
0.09050179 0.19761148 0.49992025 125 128 136
0.32557526 0.19403416 0.49087027 142 146 145
0.32856497 0.19530697 0.49409026 145 149 148
0.45281214 0.26168084 0.66200376 123 128 128
0.45395634 0.26168084 0.66200376 131 136 135
0.45288920 0.26040930 0.65878701 138 143 139
0.45402786 0.26040930 0.65878701 141 146 142
0.45828408 0.26219293 0.66329926 152 154 146
0.46078315 0.26296484 0.66525203 157 158 150
0.46102810 0.26244971 0.66394889 160 160 151
0.46082166 0.26168084 0.66200376 163 163 154
0.46196589 0.26168084 0.66200376 164 163 155
0.46220735 0.26117072 0.66071332 157 154 148
0.52243185 0.23671481 0.59884441 138 139 135
0.52439338 0.23713377 0.59990430 138 139 135
0.52543026 0.23713377 0.59990430 135 136 135
0.52553701 0.23671481 0.59884441 132 134 135
0.52425647 0.23567384 0.59621096 129 131 132
0.52390462 0.23505366 0.59464198 123 129 132
-0.01620546 0.51263398 1.29122257 130 138 138
-0.01381579 0.50684154 1.27663243 129 138 139
-0.01160924 0.50684154 1.27663243 136 142 144
-0.00739099 0.52056646 1.31120276 143 150 151
-0.00511479 0.51956147 1.30867147 149 155 157
-0.00286948 0.52258807 1.31629479 146 152 154
-0.00059321 0.52157527 1.31374383 141 147 149
0.00166458 0.51756316 1.30363810 144 150 152
0.00391029 0.51656979 1.30113602 144 150 152
0.00611228 0.51263398 1.29122257 148 154 156
0.00823426 0.50588882 1.27423275 152 157 158
0.01033949 0.50117850 1.26236844 151 157 157
0.07017108 0.29445606 0.74167597 153 157 156
0.07176708 0.29575038 0.74493611 147 148 148
0.07297446 0.29542574 0.74411839 142 143 143
0.07385525 0.29381314 0.74005657 133 134 134
0.07480770 0.29253569 0.73683894 128 129 129
0.07575192 0.29126930 0.73364919 126 127 127
0.08482863 0.19935766 0.50214213 162 170 169
0.08525448 0.19832928 0.49955183 161 170 169
0.08548794 0.19687845 0.49589747 161 170 169
0.08615598 0.19644733 0.49481156 157 168 166
0.08707479 0.19659083 0.49517301 148 159 157
0.08780238 0.19630405 0.49445066 144 154 157
0.08885142 0.19673453 0.49553499 139 149 153
0.09010310 0.19760121 0.49771795 134 144 149
0.32581118 0.19502380 0.49122596 141 145 144
0.32904461 0.19644733 0.49481156 139 143 141
0.45105022 0.26180238 0.65942788 120 129 128
0.45263028 0.26205730 0.66006994 124 133 132
0.45244950 0.26129404 0.65814739 132 140 137
0.45358706 0.26129404 0.65814739 136 144 141
0.45694277 0.26256862 0.66135788 146 149 144
0.46078315 0.26411468 0.66525203 152 153 147
0.46012679 0.26308197 0.66265088 154 154 148
0.45992339 0.26231271 0.66071332 152 152 146
0.46151519 0.26256862 0.66135788 151 151 144
0.46220735 0.26231271 0.66071332 143 142 139
0.52093661 0.23754002 0.59831583 132 133 133
0.52197075 0.23754002 0.59831583 129 130 130
0.52392977 0.23796007 0.59937388 127 128 128
0.52496570 0.23796007 0.59937388 127 128 129
0.52461016 0.23733056 0.59778821 128 129 133
0.52333587 0.23628871 0.59516406 128 129 133
0.52298713 0.23566799 0.59360057 124 128 132
0.52355462 0.23546182 0.59308124 121 128 132
-0.01632988 0.51881868 1.30113602 138 144 144
-0.01397369 0.51486576 1.29122257 138 144 146
-0.01171959 0.51388693 1.28876781 141 147 149
-0.00741969 0.52486318 1.31629479 148 154 156
-0.00513461 0.52384597 1.31374383 150 156 158
-0.00288066 0.52690941 1.32142663 146 152 154
-0.00059437 0.52486318 1.31629479 143 149 151
0.00166779 0.52081800 1.30614996 143 149 151
0.00391781 0.51981640 1.30363810 143 149 151
0.00612394 0.51584834 1.29368675 145 151 153
0.00823426 0.50809121 1.27423275 148 152 152
0.01033949 0.50336039 1.26236844 152 156 156
0.06873874 0.29509228 0.74005657 156 161 161
0.07009439 0.29541478 0.74086541 153 159 157
0.07160970 0.29638654 0.74330246 149 152 151
0.07273493 0.29573801 0.74167597 140 142 142
0.07377471 0.29477048 0.73924953 133 135 135
0.07472648 0.29349026 0.73603892 129 131 131
0.07567003 0.29222110 0.73285604 126 129 129
0.08408529 0.20052265 0.50288713 170 174 175
0.08464054 0.19978161 0.50102872 169 174 174
0.08512902 0.19889958 0.49881667 166 172 170
0.08542545 0.19759104 0.49553499 163 170 168
0.08609314 0.19715866 0.49445066 160 168 167
0.08701123 0.19730258 0.49481156 155 164 163
0.08780238 0.19715866 0.49445066 152 162 162
0.08878652 0.19744670 0.49517301 147 157 157
0.08990507 0.19802530 0.49662405 144 155 155
0.32604745 0.19601488 0.49158219 142 145 144
0.32904461 0.19730258 0.49481156 137 140 138
0.32941896 0.19701496 0.49409026 137 141 138
0.45131195 0.26243159 0.65814739 124 133 132
0.45157266 0.26192299 0.65687191 129 138 135
0.45270801 0.26192299 0.65687191 133 142 139
0.45472461 0.26243159 0.65814739 138 144 141
0.46033138 0.26500443 0.66459984 143 145 143
0.45967746 0.26396927 0.66200376 143 144 142
0.45947555 0.26319817 0.66006994 143 143 142
0.46106535 0.26345471 0.66071332 136 136 134
0.46175730 0.26319817 0.66006994 130 130 129
0.51518649 0.23878492 0.59884441 140 140 140
0.51576591 0.23857416 0.59831583 141 141 141
0.51817209 0.23920755 0.59990430 141 142 142
0.51990247 0.23857416 0.59831583 123 124 125
0.52001864 0.23815377 0.59726155 119 120 120
0.52151048 0.23836379 0.59778821 115 116 117
0.52300489 0.23857416 0.59831583 114 115 116
0.52450198 0.23878492 0.59884441 114 115 116
0.52414793 0.23815377 0.59726155 121 123 126
0.52287686 0.23710923 0.59464198 125 127 131
0.52252954 0.23648690 0.59308124 126 129 133
-0.01886852 0.52919340 1.32142663 139 145 145
-0.01642445 0.52408534 1.30867147 142 148 148
-0.01410805 0.52206963 1.30363810 147 153 153
-0.01185482 0.52206963 1.30363810 148 154 154
-0.00975161 0.53022695 1.32400751 151 157 157
-0.00746317 0.53022695 1.32400751 151 157 157
-0.00515459 0.52816385 1.31885576 149 155 155
-0.00289194 0.53126460 1.32659853 147 153 154
-0.00059785 0.53022695 1.32400751 147 152 154
0.00167748 0.52611667 1.31374383 143 149 151
0.00393294 0.52408534 1.30867147 146 151 154
0.00615920 0.52106756 1.30113602 148 152 156
0.00829664 0.51415950 1.28388608 149 153 155
0.01037814 0.50743216 1.26708758 148 152 154
0.06881386 0.29669532 0.74086541 156 161 161
0.07001787 0.29637140 0.74005657 151 157 154
0.07160970 0.29767129 0.74330246 145 150 147
0.07273493 0.29701993 0.74167597 137 141 139
0.07377471 0.29604822 0.73924953 133 137 137
0.07472648 0.29476243 0.73603892 128 132 132
0.07567003 0.29348779 0.73285604 127 131 132
0.08457803 0.20049942 0.50065869 169 174 174
0.08494151 0.19932175 0.49771795 168 173 173
0.08536305 0.19830257 0.49517301 163 171 170
0.08609314 0.19801328 0.49445066 162 170 169
0.08694776 0.19801328 0.49445066 157 165 164
0.08773838 0.19786896 0.49409026 155 162 162
0.08878652 0.19830257 0.49517301 152 160 160
0.08970791 0.19844753 0.49553499 147 155 155
0.32472685 0.19657944 0.49087027 140 144 143
0.32628408 0.19700740 0.49193892 139 142 141
0.32880461 0.19801328 0.49445066 139 140 138
0.32941896 0.19786896 0.49409026 138 139 138
0.32955235 0.19743724 0.49301225 142 144 143
0.45226976 0.26280367 0.65623605 130 139 137
0.45943055 0.26563230 0.66329926 134 141 139
0.45878139 0.26459670 0.66071332 134 141 139
0.45858249 0.26382527 0.65878701 135 138 137
0.46016836 0.26408193 0.65942788 136 137 137
0.51415139 0.23981997 0.59884441 136 137 137
0.51337242 0.23897554 0.59673578 135 135 133
0.51349980 0.23855555 0.59568703 131 131 130
0.51680005 0.23960830 0.59831583 128 128 127
0.51874989 0.24003202 0.59937388 119 119 119
0.51932669 0.23981997 0.59884441 106 107 107
0.51898634 0.23918609 0.59726155 105 106 108
0.51910394 0.23876536 0.59621096 106 107 109
0.52059233 0.23897554 0.59673578 110 111 113
0.52208328 0.23918609 0.59726155 115 116 118
0.52357692 0.23939700 0.59778821 117 118 120
0.52368653 0.23897554 0.59673578 118 121 122
0.52241856 0.23792832 0.59412080 122 126 128
0.52207279 0.23730437 0.59256279 126 131 133
-0.02390241 0.54204351 1.34769750 132 136 137
-0.02148758 0.53989679 1.34236014 133 138 139
-0.01897951 0.53460371 1.32919967 140 145 146
-0.01645622 0.52736539 1.31120276 149 155 155
-0.01413523 0.52533311 1.30614996 155 161 161
-0.01183206 0.52331650 1.30113602 153 158 157
-0.00975161 0.53251541 1.32400751 157 162 160
-0.00746317 0.53251541 1.32400751 156 161 161
-0.00516464 0.53147739 1.32142663 153 157 158
-0.00290330 0.53565401 1.33181107 151 155 156
-0.00060019 0.53460371 1.32919967 151 154 157
0.00168401 0.53044337 1.31885576 145 149 154
0.00394818 0.52838737 1.31374383 149 153 159
0.00617105 0.52432287 1.30363810 149 152 158
0.00834405 0.51932931 1.29122257 148 151 157
0.06888915 0.29830185 0.74167597 156 159 158
0.07017108 0.29830185 0.74167597 145 150 148
0.07160970 0.29895601 0.74330246 139 144 142
0.07273493 0.29830185 0.74167597 134 139 137
0.07377471 0.29732594 0.73924953 131 136 137
0.07472648 0.29603463 0.73603892 127 132 133
0.07558831 0.29443616 0.73206460 126 132 132
0.08402296 0.20211111 0.50251436 167 172 170
0.08470315 0.20166264 0.50139928 165 171 169
0.08519170 0.20077164 0.49918398 163 169 169
0.08542545 0.19930401 0.49553499 163 168 167
0.08609314 0.19886790 0.49445066 162 167 167
0.08707479 0.19915843 0.49517301 159 162 163
0.08780238 0.19886790 0.49445066 156 160 161
0.08891641 0.19944981 0.49589747 153 159 159
0.09016930 0.20032910 0.49808365 146 154 153
0.32581118 0.19757093 0.49122596 137 139 139
0.45788881 0.26522169 0.65942788 133 141 139
0.51067519 0.23874596 0.59360057 130 130 128
0.51125354 0.23853709 0.59308124 121 121 119
0.51407766 0.23937480 0.59516406 117 117 116
0.51737756 0.24043024 0.59778821 113 113 114
0.51886833 0.24064244 0.59831583 105 105 105
0.51761818 0.23958515 0.59568703 101 101 104
0.51819241 0.23937480 0.59516406 99 100 102
0.51922113 0.23937480 0.59516406 100 101 103
0.52070695 0.23958515 0.59568703 113 114 116
0.52219546 0.23979586 0.59621096 119 120 122
0.52276617 0.23958515 0.59568703 122 124 126
0.52196109 0.23874596 0.59360057 125 128 129
0.52207279 0.23832858 0.59256279 130 133 134
-0.01905423 0.53901494 1.33443272 140 144 144
-0.01648811 0.53065807 1.31374383 148 152 151
-0.01413523 0.52759069 1.30614996 158 159 159
-0.00975161 0.53480387 1.32400751 166 167 167
-0.00746317 0.53480387 1.32400751 161 163 163
-0.00516464 0.53376132 1.32142663 159 160 162
-0.00290330 0.53795594 1.33181107 156 157 160
-0.00060019 0.53690112 1.32919967 154 155 158
0.00168074 0.53168851 1.31629479 150 152 156
0.00394055 0.52963167 1.31120276 151 152 157
0.00617105 0.52657610 1.30363810 149 152 156
0.00835997 0.52255642 1.29368675 145 149 154
0.06820420 0.30222911 0.74822497 141 142 143
0.06911601 0.30057034 0.74411839 147 147 148
0.07040216 0.30057034 0.74411839 138 142 143
0.07176708 0.30090064 0.74493611 135 139 139
0.07281460 0.29991192 0.74248832 133 137 138
0.07377471 0.29860368 0.73924953 130 136 136
0.07472648 0.29730681 0.73603892 126 132 132
0.07558831 0.29570147 0.73206460 126 132 132
0.08402296 0.20297967 0.50251436 160 164 163
0.08476584 0.20267919 0.50177044 160 164 163
0.08525448 0.20178303 0.49955183 158 163 164
0.08548794 0.20030692 0.49589747 159 161 163
0.08720218 0.20030692 0.49589747 157 158 160
0.08963771 0.20193183 0.49992025 146 150 151
0.09056858 0.20208086 0.50028920 148 153 154
0.09096336 0.20104226 0.49771795 147 155 154
1.16165185 0.71868652 1.77924371 130 133 138
0.50933719 0.23914373 0.59204525 118 119 119
0.50902683 0.23851879 0.59049815 116 117 116
0.51831102 0.23998210 0.59412080 107 107 115
0.51979345 0.24019261 0.59464198 110 112 117
0.52082127 0.24019261 0.59464198 117 121 123
0.52139169 0.23998210 0.59412080 125 128 130
0.52150446 0.23956218 0.59308124 131 132 134
0.52070731 0.23872674 0.59101295 133 134 136
-0.00059668 0.53604531 1.32142663 156 157 157
0.00167424 0.53189796 1.31120276 154 155 156
0.00392536 0.52984828 1.30614996 151 152 154
0.00617105 0.52882934 1.30363810 147 151 152
0.06835509 0.30419385 0.74988037 135 135 136
0.06942082 0.30318770 0.74740005 135 135 137
0.07079069 0.30352235 0.74822497 135 135 139
0.07200446 0.30318770 0.74740005 133 136 138
0.07305465 0.30218819 0.74493611 129 133 134
0.07385525 0.30020881 0.74005657 124 132 132
0.07472648 0.29857901 0.73603892 124 132 132
0.07567003 0.29728785 0.73285604 125 130 131
0.08396072 0.20369722 0.50214213 156 157 157
0.08476584 0.20354645 0.50177044 156 158 158
0.08531736 0.20279591 0.49992025 157 159 160
0.08567596 0.20160650 0.49698815 156 158 160
0.08634506 0.20116405 0.49589747 155 156 158
0.08739398 0.20160650 0.49698815 151 152 156
0.08990292 0.20339590 0.50139928 134 138 139
0.09070246 0.20324557 0.50102872 138 142 143
0.09129853 0.20264646 0.49955183 137 142 143
0.09168899 0.20160650 0.49698815 135 141 141
1.17086911 0.72941977 1.79812157 128 132 134
1.16470885 0.72366118 1.78392589 128 132 134
1.16779220 0.72366118 1.78392589 128 132 136
1.16780245 0.72176182 1.77924371 129 133 138
0.50800616 0.23953941 0.59049815 117 121 121
0.51831102 0.24100898 0.59412080 107 109 117
0.51933789 0.24100898 0.59412080 109 112 119
0.52036476 0.24100898 0.59412080 114 117 122
0.52139169 0.24100898 0.59412080 122 125 130
0.52150446 0.24058728 0.59308124 129 131 133
0.52025372 0.23953941 0.59049815 130 131 133
0.00167101 0.53313309 1.30867147 153 156 157
0.00391781 0.53108257 1.30363810 149 153 154
0.06735703 0.30684769 0.75321317 121 122 123
0.06858269 0.30650714 0.75237721 124 125 126
0.06957424 0.30515242 0.74905175 129 130 132
0.07208394 0.30481559 0.74822497 123 130 133
0.07329629 0.30447954 0.74740005 122 130 134
0.07409793 0.30247858 0.74248832 119 127 131
0.07480770 0.30017710 0.73683894 119 126 132
0.08476584 0.20441371 0.50177044 151 151 153
0.08531736 0.20365998 0.49992025 149 150 152
0.08567596 0.20246549 0.49698815 145 146 148
0.08640827 0.20216906 0.49626049 144 145 147
0.08745809 0.20261404 0.49735278 138 139 141
0.08996946 0.20441371 0.50177044 134 135 137
0.09070246 0.20411156 0.50102872 125 129 130
0.09136586 0.20365998 0.49992025 113 117 118
1.16467190 0.73058975 1.79336464 131 133 135
1.16777158 0.73058975 1.79336464 129 131 133
1.16470885 0.72674459 1.78392589 129 132 133
1.16472709 0.72483712 1.77924371 129 132 134
1.16170418 0.72105205 1.76995254 131 135 136
1.16476345 0.72105205 1.76995254 133 137 138
0.51888311 0.24182394 0.59360057 105 110 113
0.51945424 0.24161236 0.59308124 108 113 115
0.52047938 0.24161236 0.59308124 114 119 121
0.52150446 0.24161236 0.59308124 117 122 123
0.51844728 0.23972477 0.58844781 120 124 124
-0.01348946 0.26040810 0.63651818 135 141 139
-0.01241260 0.26089805 0.63771576 129 133 132
0.06642418 0.30987108 0.75742108 125 126 129
0.06803740 0.31126219 0.76082134 126 127 130
0.06873526 0.30849233 0.75405097 126 127 130
0.07102588 0.30712581 0.75071079 120 128 129
0.07345826 0.30644709 0.74905175 117 124 128
0.07434221 0.30476332 0.74493611 116 123 127
0.07497068 0.30210742 0.73844427 113 118 125
0.08739398 0.20332450 0.49698815 130 131 131
1.15850747 0.73175359 1.78863287 129 130 132
1.16159892 0.73175359 1.78863287 126 127 129
1.16469049 0.73175359 1.78863287 127 128 129
1.16165185 0.72791237 1.77924371 128 129 130
1.15864503 0.72411126 1.76995254 128 129 131
1.15867901 0.72222555 1.76534331 128 129 131
1.16476345 0.72411126 1.76995254 127 129 130
1.15575218 0.71662694 1.75165856 126 130 131
0.51854694 0.24221364 0.59204525 104 112 112
0.51776147 0.24137042 0.58998418 108 115 115
0.51103580 0.23683570 0.57889998 110 119 116
-0.02079335 0.27065724 0.65878701 151 155 154
-0.01959756 0.26987043 0.65687191 149 153 152
-0.01463084 0.26224700 0.63831621 140 144 143
-0.01350214 0.26175404 0.63711637 135 141 139
-0.01241260 0.26200029 0.63771576 132 138 136
-0.01129973 0.26175404 0.63711637 132 138 136
-0.01017939 0.26126295 0.63592106 138 141 141
0.06888852 0.31048641 0.75573224 119 121 127
0.06972833 0.30842337 0.75071079 119 122 128
0.07118353 0.30910799 0.75237721 118 123 127
0.07224341 0.30808219 0.74988037 116 122 125
0.07353953 0.30808219 0.74988037 113 119 122
0.07458811 0.30706316 0.74740005 110 116 119
0.07546391 0.30537972 0.74330246 107 112 118
1.15847254 0.73678917 1.79336464 128 129 131
1.15545869 0.73291129 1.78392589 123 124 126
1.15854204 0.73291129 1.78392589 119 120 122
1.16162550 0.73291129 1.78392589 118 119 121
1.16165185 0.73098767 1.77924371 120 120 121
1.16167808 0.72907406 1.77458596 121 121 122
1.16474533 0.72907406 1.77458596 121 122 123
1.17087770 0.73098767 1.77924371 121 123 123
1.16478145 0.72527683 1.76534331 115 119 120
1.17088187 0.72717047 1.76995254 122 126 127
0.51695180 0.24344955 0.59256279 90 99 98
0.51752365 0.24323694 0.59204525 98 107 107
0.51629239 0.24217939 0.58947116 102 111 110
0.51418144 0.24071418 0.58590478 105 114 113
0.50972992 0.23722853 0.57742065 119 129 125
-0.02071284 0.27074343 0.65623605 154 158 157
-0.01954075 0.27022028 0.65496796 151 155 154
-0.01825000 0.26789078 0.64932168 149 152 151
-0.01699745 0.26585358 0.64438391 146 149 147
-0.01573412 0.26335025 0.63831621 143 146 145
-0.01460334 0.26285523 0.63711637 141 145 144
-0.01348946 0.26260844 0.63651818 135 141 139
-0.01238929 0.26260844 0.63651818 135 141 139
-0.01128912 0.26260844 0.63651818 135 141 139
-0.01016985 0.26211619 0.63532507 142 148 148
-0.00906325 0.26187077 0.63473016 150 155 155
-0.00796617 0.26187077 0.63473016 152 156 155
0.06896541 0.31214061 0.75657570 115 118 125
0.06972833 0.30972090 0.75071079 116 119 126
0.07118353 0.31040841 0.75237721 114 121 126
0.07232342 0.30972090 0.75071079 110 118 123
0.07378438 0.31040841 0.75237721 107 113 118
0.07483563 0.30937830 0.74988037 102 109 114
1.15847254 0.73988885 1.79336464 122 123 127
1.15242600 0.73406291 1.77924371 114 116 121
1.15550125 0.73406291 1.77924371 113 115 121
1.15857661 0.73406291 1.77924371 114 116 120
1.15861082 0.73214132 1.77458596 112 112 115
1.16167808 0.73214132 1.77458596 111 112 115
1.16170418 0.73022974 1.76995254 110 111 113
1.16781259 0.73214132 1.77458596 110 111 114
1.16175604 0.72643632 1.76075804 112 114 116
0.36067790 0.19142914 0.46399167 117 125 126
0.36098570 0.19116744 0.46335739 119 128 127
0.51310933 0.24362193 0.59049815 95 104 105
0.51368248 0.24340990 0.58998418 97 106 107
0.51470220 0.24340990 0.58998418 94 103 104
0.51572198 0.24340990 0.58998418 97 106 106
0.51450276 0.24235527 0.58742791 100 110 109
0.51329416 0.24130973 0.58489376 103 114 112
0.51209587 0.24027318 0.58238131 108 118 116
0.51266205 0.24006693 0.58188140 114 126 121
0.50972992 0.23822656 0.57742065 120 132 126
0.42650354 0.18757746 0.45465583 158 164 162
-0.01937230 0.26901308 0.64932168 154 155 153
-0.01818034 0.26798633 0.64684337 152 153 151
-0.01691704 0.26570451 0.64133573 150 151 149
-0.01570454 0.26395646 0.63711637 147 150 148
-0.01458963 0.26370859 0.63651818 143 147 145
-0.01347680 0.26346123 0.63592106 138 146 144
-0.01238929 0.26370859 0.63651818 139 148 146
-0.01127853 0.26346123 0.63592106 139 148 148
-0.01016033 0.26296785 0.63473016 146 157 157
-0.00904631 0.26247633 0.63354379 148 159 158
-0.00794385 0.26223123 0.63295221 152 163 161
-0.00683071 0.26149875 0.63118422 156 162 162
0.06888852 0.31309885 0.75573224 115 119 128
0.06965120 0.31067440 0.74988037 112 119 127
0.07126263 0.31205517 0.75321317 107 120 124
0.07248396 0.31170884 0.75237721 103 118 122
0.07411341 0.31309885 0.75573224 98 111 114
0.07508481 0.31170884 0.75237721 96 102 114
1.24890590 0.81405699 1.96490383 146 152 150
1.24868274 0.81170422 1.95922494 139 141 141
1.22724056 0.79560810 1.92037344 135 136 137
1.16461587 0.74893242 1.80771160 126 127 129
1.15847254 0.74298853 1.79336464 119 120 124
1.15242600 0.73713821 1.77924371 111 113 118
1.14946735 0.73328894 1.76995254 108 112 119
1.15252662 0.73328894 1.76995254 112 116 123
1.15558577 0.73328894 1.76995254 109 111 117
1.15864503 0.73328894 1.76995254 109 111 117
1.15867901 0.73137933 1.76534331 108 111 115
1.16476345 0.73328894 1.76995254 108 110 113
1.15874636 0.72758979 1.75619650 108 112 115
1.16479933 0.72947961 1.76075804 112 118 120
0.36018482 0.19196832 0.46335739 119 126 127
0.36098570 0.19196832 0.46335739 118 128 126
0.36129266 0.19170626 0.46272480 122 132 131
0.36135247 0.19131449 0.46177918 133 144 141
0.51253515 0.24485585 0.59101295 93 100 100
0.51355666 0.24485585 0.59101295 92 101 100
0.51412994 0.24464256 0.59049815 92 101 100
0.51515055 0.24464256 0.59049815 92 101 102
0.51572198 0.24442965 0.58998418 92 101 102
0.51405734 0.24315988 0.58691937 95 104 105
0.51285166 0.24211177 0.58438951 103 113 111
0.51253617 0.24148723 0.58288205 109 119 118
0.51354367 0.24148723 0.58288205 115 126 124
0.51191014 0.24024779 0.57989037 123 135 131
0.42801422 0.18937941 0.45710847 154 162 160
0.42736343 0.18874305 0.45557249 156 161 160
0.42671698 0.18811096 0.45404679 154 159 158
-0.01927996 0.26884779 0.64622670 153 154 153
-0.01811121 0.26808113 0.64438391 151 152 151
-0.01683740 0.26555681 0.63831621 150 151 149
-0.01566039 0.26431242 0.63532507 149 151 149
-0.01457594 0.26456037 0.63592106 147 151 150
-0.01346417 0.26431242 0.63532507 144 153 152
-0.01237767 0.26456037 0.63592106 146 155 155
-0.01127853 0.26456037 0.63592106 147 156 157
-0.01015082 0.26381791 0.63413644 148 159 159
-0.00902943 0.26307961 0.63236177 156 166 167
-0.00792166 0.26258969 0.63118422 157 168 168
-0.00681802 0.26210162 0.63001102 163 169 169
0.06881181 0.31405494 0.75489068 14 15 16
0.07516823 0.31335706 0.75321317 0 0 0
1.24572432 0.81982946 1.97061586 149 158 153
1.24890590 0.81745315 1.96490383 148 154 152
1.24508417 0.81274164 1.95357883 142 145 144
1.22032654 0.79442632 1.90955448 138 139 139
1.19005263 0.77055013 1.85216355 133 134 135
1.16461587 0.75205690 1.80771160 128 129 131
1.15847254 0.74608821 1.79336464 125 126 127
1.15242600 0.74021351 1.77924371 121 122 124
1.14647388 0.73443055 1.76534331 117 122 125
1.14356911 0.73062521 1.75619650 116 122 125
1.14660454 0.73062521 1.75619650 112 116 121
1.14963996 0.73062521 1.75619650 111 115 120
1.14969695 0.72873729 1.75165856 111 116 119
1.15571094 0.73062521 1.75619650 110 116 118
1.15277338 0.72685915 1.74714386 112 119 121
0.36036924 0.19329770 0.46462771 108 112 114
0.36092493 0.19316530 0.46430948 118 123 125
0.36172745 0.19316530 0.46430948 120 128 128
0.36178657 0.19276920 0.46335739 126 135 134
0.36159879 0.19224359 0.46209395 137 147 145
0.51298237 0.24609192 0.59152865 91 98 100
0.51400483 0.24609192 0.59152865 90 99 100
0.51502723 0.24609192 0.59152865 90 99 100
0.51650029 0.24630685 0.59204525 90 99 100
0.51662123 0.24587737 0.59101295 88 97 98
0.51539600 0.24481019 0.58844781 85 94 95
0.51329416 0.24333161 0.58489376 99 108 108
0.42766264 0.19107138 0.45927632 148 157 152
0.42700994 0.19042629 0.45772576 149 156 153
0.42751244 0.19029780 0.45741689 150 156 154
0.42801422 0.19016948 0.45710847 151 158 156
0.42765084 0.18965793 0.45587885 147 152 151
0.42700300 0.18902235 0.45435110 146 150 149
0.42750177 0.18889575 0.45404679 145 149 148
0.42828655 0.18889575 0.45404679 147 151 149
-0.01922498 0.26919490 0.64438391 153 154 154
-0.01804261 0.26817521 0.64194304 150 151 151
-0.01682156 0.26640925 0.63771576 150 151 151
-0.01564573 0.26516199 0.63473016 150 152 151
-0.01457594 0.26565948 0.63592106 150 154 153
-0.01346417 0.26541051 0.63532507 148 157 158
-0.01236606 0.26541051 0.63532507 151 160 161
-0.01126796 0.26541051 0.63532507 154 163 164
-0.01014134 0.26466638 0.63354379 154 163 164
-0.00902101 0.26392639 0.63177246 162 172 173
-0.00791429 0.26343536 0.63059705 164 174 174
-0.00681169 0.26294616 0.62942606 166 175 175
0.06858269 0.31430969 0.75237721 0 0 0
1.25324786 0.83047807 1.98795259 148 156 152
1.24572432 0.82323551 1.97061586 149 157 152
1.24529636 0.81847692 1.95922494 148 152 149
1.24508417 0.81611824 1.95357883 143 147 145
1.22377372 0.79998028 1.91494870 137 140 140
1.19005263 0.77375144 1.85216355 132 133 133
1.16151845 0.75317293 1.80290389 127 128 128
1.15847254 0.74918789 1.79336464 125 126 126
1.14640808 0.73940736 1.76995254 123 124 124
1.13758659 0.73176491 1.75165856 121 124 125
1.13474977 0.72800261 1.74265254 119 124 125
1.13484454 0.72613597 1.73818421 118 122 124
1.13493872 0.72427881 1.73373878 116 120 122
1.13793540 0.72427881 1.73373878 115 119 122
1.14093196 0.72427881 1.73373878 111 117 119
1.14392865 0.72427881 1.73373878 110 116 118
0.36086392 0.19436722 0.46526551 106 110 110
0.36142004 0.19423389 0.46494639 116 120 120
0.36297050 0.19463438 0.46590504 126 131 131
0.36203402 0.19370247 0.46367431 130 138 137
0.36159879 0.19304228 0.46209395 139 147 146
0.51298237 0.24711433 0.59152865 89 98 99
0.51355666 0.24689889 0.59101295 89 98 99
0.51547700 0.24733014 0.59204525 89 98 99
0.51752365 0.24733014 0.59204525 89 96 98
0.51539600 0.24582727 0.58844781 84 92 93
0.42890292 0.19277945 0.46146482 138 147 143
0.42708394 0.19160557 0.45865482 139 148 143
0.42672181 0.19108841 0.45741689 140 148 144
0.42722416 0.19095956 0.45710847 142 146 145
0.42801422 0.19095956 0.45710847 138 142 141
0.42736343 0.19031788 0.45557249 135 139 139
0.42700300 0.18980765 0.45435110 133 137 137
0.42750177 0.18968052 0.45404679 133 137 137
0.42857361 0.18980765 0.45435110 138 142 141
0.42849731 0.18942676 0.45343935 140 144 143
-0.01922498 0.27030864 0.64438391 154 154 154
-0.01805971 0.26954001 0.64255148 150 151 151
-0.01683740 0.26776338 0.63831621 151 152 152
-0.01564573 0.26625907 0.63473016 151 153 153
-0.01457594 0.26675862 0.63592106 151 155 155
-0.01346417 0.26650864 0.63532507 152 161 161
-0.01236606 0.26650864 0.63532507 155 164 164
-0.01126796 0.26650864 0.63532507 162 167 168
-0.01015082 0.26601002 0.63413644 163 169 170
-0.00902101 0.26501837 0.63177246 166 172 172
-0.00790694 0.26427945 0.63001102 167 174 174
-0.00680537 0.26378915 0.62884218 167 176 175
1.25693381 0.83636677 1.99379957 151 155 152
1.24935627 0.82905161 1.97636104 149 152 150
1.24550974 0.82424551 1.96490383 150 154 151
1.24529636 0.82186329 1.95922494 148 152 149
1.24508417 0.81949484 1.95357883 143 147 144
1.22724056 0.80556571 1.92037344 138 142 141
1.18358493 0.77273017 1.84209740 129 130 131
1.15843749 0.75428301 1.79812157 124 125 125
1.15541589 0.75030267 1.78863287 121 122 122
1.14342272 0.74053305 1.76534331 121 122 122
1.13465464 0.73289871 1.74714386 122 124 124
1.13184023 0.72914028 1.73818421 119 123 124
1.13194203 0.72727543 1.73373878 117 120 121
1.13204348 0.72542018 1.72931588 116 118 120
1.13214433 0.72357428 1.72491562 117 120 121
1.13512576 0.72357428 1.72491562 119 124 127
0.35931990 0.19477035 0.46430948 113 119 119
0.36061642 0.19503751 0.46494639 114 118 117
0.36166808 0.19517139 0.46526551 119 123 122
0.36347011 0.19570868 0.46654636 129 133 132
0.36228183 0.19463703 0.46399167 133 137 136
0.36184546 0.19397320 0.46240917 135 139 138
0.42665312 0.19292042 0.45989949 136 144 142
0.42715821 0.19278963 0.45958769 133 142 140
0.42650679 0.19213831 0.45803502 133 142 139
0.42643407 0.19174963 0.45710847 132 140 138
0.42693627 0.19162042 0.45680043 129 133 134
0.42772582 0.19162042 0.45680043 126 130 131
0.42678979 0.19084880 0.45496097 126 130 131
0.42643136 0.19033782 0.45374286 127 131 132
0.42664447 0.19008335 0.45313627 128 132 133
0.42771360 0.19021051 0.45343935 132 136 136
0.42792484 0.18995638 0.45283356 135 139 139
0.42870754 0.18995638 0.45283356 136 140 140
0.42920351 0.18982957 0.45253128 138 140 140
0.42941236 0.18957646 0.45192790 138 139 139
-0.31030184 0.43394586 1.03023076 187 195 194
-0.30712092 0.43197638 1.02555501 188 197 195
-0.30403572 0.43263090 1.02710891 186 195 192
-0.30226043 0.43263090 1.02710891 186 195 192
-0.30094114 0.43328738 1.02866745 184 193 191
-0.01811121 0.27142242 0.64438391 148 148 146
-0.01685327 0.26912007 0.63891786 133 133 131
-0.01567508 0.26785776 0.63592106 124 124 123
-0.01457594 0.26785776 0.63592106 108 111 110
-0.01346417 0.26760674 0.63532507 96 102 101
-0.01237767 0.26785776 0.63592106 84 89 88
-0.01127853 0.26785776 0.63592106 78 78 78
-0.01015082 0.26710606 0.63413644 63 65 64
-0.00902101 0.26611033 0.63177246 47 48 48
-0.00789960 0.26512200 0.62942606 37 38 38
1.24958336 0.83490169 1.98213995 156 156 154
1.24572432 0.83004761 1.97061586 151 152 150
1.24190998 0.82524967 1.95922494 147 148 146
1.23813951 0.82050687 1.94796503 146 147 147
1.23794901 0.81815583 1.94238353 140 141 141
1.17718720 0.77171993 1.83214009 125 126 128
1.15843749 0.75739092 1.79812157 123 124 127
1.15541589 0.75339413 1.78863287 119 120 122
1.14045274 0.74165297 1.76075804 116 117 120
1.13173783 0.73402667 1.74265254 120 121 123
1.13184023 0.73214459 1.73818421 118 120 123
1.12905443 0.72840917 1.72931588 117 119 122
1.12629700 0.72471166 1.72053766 114 116 120
1.12356746 0.72105145 1.71184814 110 112 116
1.12368870 0.71923524 1.70753610 115 117 123
0.35956615 0.19570692 0.46462771 119 125 125
0.36061642 0.19584115 0.46494639 122 127 127
0.36166808 0.19597556 0.46526551 124 129 128
0.36347011 0.19651507 0.46654636 128 132 131
0.36228183 0.19543900 0.46399167 128 132 131
0.36209247 0.19490539 0.46272480 130 134 133
0.42549843 0.19319105 0.45865482 137 144 144
0.42629120 0.19319105 0.45865482 135 143 142
0.42650679 0.19292998 0.45803502 130 139 138
0.42643407 0.19253971 0.45710847 125 134 133
0.42693627 0.19240996 0.45680043 122 130 129
0.42715013 0.19215100 0.45618564 119 128 127
0.42621768 0.19137828 0.45435110 120 127 127
0.42586127 0.19086656 0.45313627 125 132 132
0.42607486 0.19061173 0.45253128 126 133 134
0.42714217 0.19073907 0.45283356 129 134 135
0.42763919 0.19061173 0.45253128 132 136 138
0.42813554 0.19048458 0.45222938 138 142 143
0.42863125 0.19035760 0.45192790 140 144 145
0.42884058 0.19010411 0.45132613 142 146 145
0.42847958 0.18959919 0.45012739 142 146 145
-0.31399128 0.43839154 1.03653193 186 195 194
-0.31030184 0.43572655 1.03023076 187 196 195
-0.30758625 0.43440616 1.02710891 188 197 195
-0.30534834 0.43374896 1.02555501 189 197 194
-0.30449706 0.43506536 1.02866745 187 196 193
-0.30271912 0.43506536 1.02866745 186 195 192
-0.30139849 0.43572655 1.03023076 186 195 192
-0.29961783 0.43572655 1.03023076 186 195 192
-0.01812845 0.27279550 0.64499700 0 0 0
-0.01688510 0.27073473 0.64012450 0 0 0
-0.01570454 0.26946247 0.63711637 0 0 0
-0.01458963 0.26920944 0.63651818 0 0 0
-0.01347680 0.26895690 0.63592106 0 0 0
-0.01238929 0.26920944 0.63651818 0 0 0
-0.01128912 0.26920944 0.63651818 0 0 0
-0.01016033 0.26845324 0.63473016 0 0 0
-0.00902943 0.26745155 0.63236177 0 0 0
1.25693381 0.84325904 1.99379957 158 158 155
1.24935627 0.83588356 1.97636104 156 157 155
1.24550974 0.83103788 1.96490383 154 154 152
1.24170756 0.82624805 1.95357883 149 149 150
1.15537286 0.75848693 1.79336464 122 123 128
1.14935076 0.75251460 1.77924371 120 121 126
1.13163483 0.73893833 1.74714386 113 115 119
1.12594879 0.73326874 1.73373878 115 116 120
1.12606549 0.73139811 1.72931588 114 116 122
1.12332320 0.72768545 1.72053766 114 117 122
1.11218309 0.71856660 1.69897699 114 116 122
1.10405135 0.71143442 1.68211377 109 112 118
1.10149229 0.70792115 1.67380702 108 111 117
1.10438538 0.70792115 1.67380702 114 118 124
0.35931990 0.19637538 0.46430948 125 131 131
0.36036924 0.19650999 0.46462771 130 136 136
0.36142004 0.19664477 0.46494639 127 133 132
0.36322013 0.19718574 0.46622548 126 132 131
0.36228183 0.19624098 0.46399167 125 131 129
0.36209247 0.19570516 0.46272480 123 129 127
0.36338833 0.19597270 0.46335739 121 127 125
0.36619163 0.19705021 0.46590504 121 130 129
0.42413175 0.19372167 0.45803502 132 141 140
0.42463651 0.19359086 0.45772576 130 139 138
0.42571512 0.19372167 0.45803502 129 138 137
0.42621881 0.19359086 0.45772576 128 137 136
0.42585975 0.19306940 0.45649281 122 131 130
0.42636165 0.19293948 0.45618564 120 129 128
0.42686287 0.19280973 0.45587885 119 128 127
0.42593220 0.19203487 0.45404679 119 128 127
0.42557681 0.19152175 0.45283356 120 129 129
0.42550677 0.19113871 0.45192790 119 128 128
0.42685702 0.19139390 0.45253128 118 127 127
0.42706901 0.19113871 0.45192790 122 128 130
0.42756507 0.19101137 0.45162681 128 133 135
0.42834568 0.19101137 0.45162681 133 137 139
0.42855525 0.19075720 0.45102584 137 141 142
-0.31482008 0.43884107 1.03337169 187 196 194
-0.31399128 0.44018310 1.03653193 187 196 193
-0.31077415 0.43817312 1.03179884 189 195 193
-0.30805302 0.43684331 1.02866745 190 196 194
-0.30581099 0.43618143 1.02710891 190 196 194
-0.30449706 0.43684331 1.02866745 189 197 193
-0.30364063 0.43817312 1.03179884 189 196 192
-0.30231738 0.43884107 1.03337169 190 197 193
-0.30053130 0.43884107 1.03337169 189 196 192
-0.29920128 0.43951106 1.03494942 188 195 191
-0.01816301 0.27443254 0.64622670 0 0 0
-0.01691704 0.27235550 0.64133573 0 0 0
-0.01573412 0.27107322 0.63831621 0 0 0
-0.01460334 0.27056366 0.63711637 0 0 0
-0.01242429 0.27107322 0.63831621 0 0 0
-0.01129973 0.27056366 0.63711637 0 0 0
-0.01017939 0.27005604 0.63592106 0 0 0
-0.00904631 0.26904649 0.63354379 0 0 0
1.24958336 0.84175366 1.98213995 159 160 155
1.24572432 0.83685970 1.97061586 154 158 153
1.23833096 0.82962465 1.95357883 151 155 150
1.15232444 0.75957716 1.78863287 121 122 130
1.14634192 0.75361192 1.77458596 119 119 127
1.12872577 0.74005073 1.74265254 110 113 121
1.12594879 0.73626536 1.73373878 108 111 119
1.12606549 0.73438710 1.72931588 109 111 119
1.12047935 0.72880948 1.71618187 110 113 120
1.10388315 0.71611875 1.68629813 110 113 120
1.09589338 0.70906341 1.66968429 110 113 119
1.09607959 0.70732123 1.66558194 108 111 117
1.09895837 0.70732123 1.66558194 108 114 118
0.35907394 0.19704294 0.46399167 130 136 134
0.35987592 0.19704294 0.46399167 134 140 139
0.36092493 0.19717790 0.46430948 131 137 136
0.36247227 0.19758390 0.46526551 127 133 133
0.36178657 0.19677357 0.46335739 125 131 131
0.36209247 0.19650495 0.46272480 125 131 131
0.36338833 0.19677357 0.46335739 122 128 128
0.42384538 0.19438200 0.45772576 135 144 142
0.42463651 0.19438200 0.45772576 134 143 141
0.42542768 0.19438200 0.45772576 129 138 137
0.42593122 0.19425084 0.45741689 124 133 132
0.42585975 0.19385841 0.45649281 116 125 124
0.42607492 0.19359767 0.45587885 111 120 119
0.42715013 0.19372796 0.45618564 111 120 119
0.42593220 0.19281965 0.45404679 117 126 125
0.42557681 0.19230443 0.45283356 118 128 127
0.42522329 0.19179197 0.45162681 117 126 125
0.42657226 0.19204786 0.45222938 111 120 119
0.42678449 0.19179197 0.45162681 113 123 122
0.42756507 0.19179197 0.45162681 118 128 127
0.42834568 0.19179197 0.45162681 125 134 133
0.42827031 0.19140941 0.45072597 133 142 141
-0.31660619 0.44062719 1.03337169 187 194 194
-0.31530073 0.44129989 1.03494942 189 195 193
-0.31447211 0.44265151 1.03811920 189 195 193
-0.31124789 0.44062719 1.03337169 190 196 194
-0.30852118 0.43928787 1.03023076 190 197 195
-0.30674049 0.43928787 1.03023076 190 198 195
-0.30542400 0.43995652 1.03179884 191 197 193
-0.30456778 0.44129989 1.03494942 191 197 193
-0.30324191 0.44197467 1.03653193 191 197 193
-0.30099010 0.44129989 1.03494942 188 197 193
-0.29965878 0.44197467 1.03653193 187 196 193
-0.29695910 0.44062719 1.03337169 188 197 194
-0.01819770 0.27607587 0.64746118 0 0 0
-0.01698131 0.27450278 0.64377195 0 0 0
-0.01576381 0.27269003 0.63952059 0 0 0
-0.01463084 0.27217647 0.63831621 0 0 0
-0.01352756 0.27217647 0.63831621 0 0 0
-0.01248306 0.27346399 0.64133573 0 0 0
-0.01132101 0.27217647 0.63831621 0 0 0
-0.01018895 0.27140978 0.63651818 0 0 0
1.24958336 0.84517962 1.98213995 162 166 158
1.24935627 0.84271550 1.97636104 155 159 153
1.24550974 0.83783025 1.96490383 150 156 150
1.14929199 0.76066166 1.78392589 118 124 130
1.14334893 0.75470346 1.76995254 112 117 124
1.12872577 0.74306279 1.74265254 107 112 119
1.12307656 0.73737609 1.72931588 105 110 117
1.12320018 0.73549980 1.72491562 102 107 114
