ply
format ascii 1.0
element vertex 789
property float x
property float y
property float z
property uchar red
property uchar green
property uchar blue
end_header
-1.24069202 -0.43700290 1.97061586 112 106 100
-1.25899124 -0.43999210 1.99968100 111 102 96
-0.98594338 0.61176406 1.98842086 45 43 45
-0.99047005 0.62088114 1.98795259 45 43 46
-0.97303042 0.59760061 1.97348845 46 44 44
-0.97328997 0.59682906 1.98795259 50 46 45
-0.96640482 0.61861869 1.95547163 44 43 45
-0.97136712 0.60963745 1.97313352 46 44 45
-0.97547095 0.61226971 1.98679693 46 44 46
-0.96261144 0.62206799 1.95922494 45 44 45
-0.97353871 0.62706637 1.97176821 44 43 45
-0.97786272 0.64458871 1.97636104 44 43 45
-0.94491482 0.59654647 1.93683386 47 44 46
-0.95860928 0.59330547 1.96490383 49 45 44
-0.94150770 0.61784902 1.90955448 43 43 46
-0.94620524 0.61479334 1.92583942 45 42 44
-0.94959555 0.61059082 1.95038017 46 44 46
-0.95769411 0.62007791 1.94238353 44 43 43
-0.92638713 0.59961855 1.89885676 46 45 47
-0.92650775 0.61295868 1.89039972 43 42 45
-0.92513025 0.61236424 1.90495682 45 41 44
-0.93578341 0.61151663 1.92950769 47 42 44
-0.93101740 0.62238801 1.88827813 43 40 43
-0.92666742 0.62608665 1.90956962 43 40 44
-0.90890318 0.59462178 1.88303292 46 44 45
-0.90967784 0.61462894 1.87457468 42 40 43
-0.91111243 0.61080037 1.88637880 43 41 44
-0.90924186 0.61775911 1.90419054 45 43 48
-0.91469872 0.62238801 1.88827813 43 40 43
-0.91957420 0.62145042 1.92582905 47 44 48
-0.89740825 0.61399341 1.87262940 44 43 45
-0.74044196 -0.51752390 1.44437325 97 115 131
-0.73187608 -0.52421022 1.43340207 113 122 135
-0.72798283 -0.51696254 1.43358940 128 135 141
-0.73523720 -0.51596012 1.44232309 113 125 136
-0.71087277 -0.56171530 1.43926084 145 136 119
-0.70291373 -0.54245886 1.41818380 146 136 125
-0.70921950 -0.55139087 1.42966457 145 136 123
-0.70717639 -0.52415612 1.41640983 147 139 130
-0.71373612 -0.52080593 1.42264968 147 140 131
-0.70487677 -0.51713432 1.41596633 149 140 124
-0.71110620 -0.51581631 1.42414880 147 140 124
-0.69632339 -0.54508066 1.41227472 145 135 122
-0.68568206 -0.52773341 1.38971407 147 137 121
-0.69551182 -0.53646545 1.40569574 146 137 124
-0.68776579 -0.51576521 1.39246996 150 139 128
-0.69503348 -0.51198211 1.40350580 149 140 122
-0.67280606 -0.51398798 1.37227983 149 138 121
-0.67743915 -0.51567884 1.38735297 153 139 125
-0.64268646 0.03643536 1.04371405 149 144 136
-0.64062873 0.05242553 1.03891528 151 150 142
-0.64213446 0.04837665 1.04184254 151 147 141
-0.64086711 0.06027992 1.03494942 147 147 137
-0.62203282 -0.19215973 1.17894232 124 97 98
-0.62856258 -0.18939483 1.18974752 124 93 97
-0.63850629 -0.19451986 1.20621324 125 96 101
-0.63144384 0.03715317 1.03356445 149 144 136
-0.63868550 0.03437297 1.04130852 149 143 135
-0.63002844 0.05159048 1.02919865 149 147 139
-0.62065846 0.06730212 1.01938617 149 147 138
-0.62737641 0.06229226 1.02281952 146 147 138
-0.60660125 -0.20127420 1.18461397 170 128 122
-0.60783878 -0.19138780 1.15582669 129 100 104
-0.60735952 -0.19006478 1.16739616 164 122 122
-0.60989022 -0.19896489 1.18305731 180 132 133
-0.61525016 0.05544599 1.01748320 148 147 137
-0.61841693 0.05311038 1.02092147 148 147 137
-0.60007524 0.06667905 0.99689978 147 147 138
-0.61053546 0.06407592 1.00826747 147 147 138
-0.59161860 -0.18379060 1.15829515 170 123 121
-0.59358106 -0.18951418 1.16390746 163 120 115
-0.59135216 -0.17825116 1.15484130 173 125 125
-0.59639627 -0.17916684 1.16077375 178 129 127
-0.59919405 0.06486060 0.99543589 145 146 137
-0.48079209 -0.13558529 0.85917848 117 103 98
-0.48191882 -0.13734936 0.86092525 119 103 96
-0.47725171 -0.14144656 0.86897408 110 100 91
-0.47346993 -0.12860934 0.85493055 115 104 99
-0.47478575 -0.13603482 0.86393811 109 97 90
-0.47304703 -0.11750352 0.85457553 113 104 100
-0.46268250 0.53137976 1.99380818 121 127 132
-0.44536823 0.51668552 1.97063243 98 104 115
-0.44128604 0.52583602 1.92310125 126 131 135
-0.44733728 0.52864222 1.95500651 123 129 134
-0.44956843 0.52574346 1.97157615 110 117 124
-0.44898326 0.52743676 1.98546636 107 114 121
-0.43772534 0.51709074 1.95922494 98 104 115
-0.43899411 0.51519340 1.96490383 98 102 114
-0.42752001 0.52085012 1.89885676 119 123 130
-0.43427087 0.52304882 1.90687251 125 129 134
-0.43712306 0.52716744 1.93407482 119 126 132
-0.43772534 0.52047712 1.95922494 101 108 118
-0.34157003 0.02803027 0.60915568 143 140 132
-0.34058580 0.03305910 0.62306237 144 140 132
-0.33378651 0.01956469 0.61433904 140 135 125
-0.33621431 0.02581264 0.61279864 140 135 128
-0.33854210 0.03058393 0.62089428 142 138 131
-0.32220879 0.45250998 1.03515666 187 195 193
-0.30615794 0.43625529 1.02982957 188 195 193
-0.30916115 0.45014524 1.03302834 187 195 193
-0.30761535 0.46372205 1.03410326 188 194 193
-0.28626884 -0.00172466 0.74518145 140 121 99
-0.28015733 0.00919716 0.73924953 147 125 108
-0.28628655 0.00627908 0.74417052 142 122 103
-0.28907118 0.06932796 0.67004204 132 110 93
-0.28946337 0.08061586 0.66919231 145 121 101
-0.29940955 0.43761881 1.03259009 187 195 191
-0.29707836 0.45121319 1.03512103 185 194 191
-0.29750341 0.46469561 1.03526592 187 193 191
-0.27959567 -0.00124960 0.74685371 141 125 105
-0.27698500 0.00913185 0.73737487 144 122 105
-0.27905734 0.00449176 0.74347513 141 121 102
-0.26728689 0.07398880 0.64915851 141 119 101
-0.27834436 0.06716345 0.66200376 125 99 81
-0.26735210 0.08252030 0.65076938 133 110 93
-0.25692968 0.07429875 0.64801065 141 121 100
-0.25708727 0.08161667 0.64842924 134 112 95
-0.22401733 -0.16269198 0.98838410 153 131 114
-0.22165431 -0.14764641 0.97848160 155 134 116
-0.22392475 -0.15532086 0.98627222 154 132 114
-0.21099804 -0.16326195 0.97457076 155 134 115
-0.20830911 -0.16264617 0.98521529 153 132 113
-0.21553948 -0.15176015 0.97810656 154 132 115
-0.21236242 -0.15370184 0.98600456 153 132 113
-0.21432602 -0.14676789 1.00329530 152 132 110
-0.21267819 0.13539797 0.53088605 154 160 159
-0.21052867 0.14340639 0.53015685 147 151 150
-0.20805346 0.23351669 0.82955777 109 114 124
-0.20696757 0.24231977 0.83068617 110 118 127
-0.19994873 -0.16366673 0.97819889 155 132 113
-0.19811597 -0.15847909 0.97749820 152 132 112
-0.19911999 -0.15673693 0.98245192 153 132 113
-0.19481818 0.23221997 0.82521591 128 133 140
-0.19458224 0.24035350 0.82922707 120 127 134
-0.14152768 0.00913559 0.45799677 140 120 101
-0.14020501 0.01487314 0.46021169 139 115 96
-0.13777036 0.00948627 0.45789930 141 121 103
-0.09412845 0.16973850 0.47270311 190 195 193
-0.02704643 -0.18275214 0.57549874 135 129 125
-0.02519060 -0.16668207 0.47293684 146 131 118
-0.02016060 -0.16062999 0.48077434 97 109 125
-0.02413579 -0.17498138 0.57564859 112 115 122
-0.02242415 0.13585629 1.06531212 178 179 179
-0.02201908 0.14285037 1.06372007 182 183 183
-0.02075309 0.27070034 0.65751153 152 156 155
-0.02574601 0.44872034 1.21485996 160 161 161
-0.02456516 0.45560807 1.22585225 151 151 153
-0.02304865 0.46799173 1.23396301 135 135 135
-0.02148758 0.53989679 1.34236014 133 138 139
-0.02390241 0.54204351 1.34769750 132 136 137
-0.01876721 -0.18161951 0.57877712 92 106 123
-0.01771450 -0.18262327 0.58080780 92 106 123
-0.01622903 -0.16806593 0.47491628 103 113 126
-0.01665420 -0.16089667 0.48183819 97 107 122
-0.01825860 -0.17578929 0.57851701 92 106 120
-0.01791754 -0.17766013 0.58038688 91 106 120
-0.01348407 -0.15945973 0.47975361 96 106 123
-0.01423646 -0.15812304 0.48276081 95 104 123
-0.00206834 -0.10414983 1.00958228 52 54 62
-0.00162125 -0.09755212 1.01044001 51 54 61
-0.00593038 0.11764951 1.05208309 181 182 182
-0.00783805 0.11808302 1.06419700 181 182 182
-0.00605864 0.13807361 0.49475907 182 186 186
-0.00195532 0.13722767 0.50028920 165 166 167
-0.00778735 0.12599225 1.05666358 180 181 181
-0.01001055 0.13297780 1.06422471 179 179 179
-0.00564596 0.14410150 0.49236032 168 170 171
-0.01267828 0.14644168 1.05865518 185 185 185
-0.01095788 0.14325642 1.06425020 183 184 185
-0.01211170 0.26582225 0.63542053 105 110 109
-0.01765138 0.27121262 0.64529124 84 85 84
-0.00883463 0.45282286 1.19950577 142 147 148
-0.00681400 0.45560110 1.20849110 142 147 149
-0.00913818 0.46308264 1.21447540 139 144 148
-0.01186182 0.47026876 1.22903570 143 148 151
-0.01987405 0.47789574 1.24156010 122 130 134
-0.00865779 0.48522545 1.25075057 146 152 155
-0.01366417 0.49681584 1.26237134 132 141 142
-0.01335196 0.50457401 1.27424533 131 139 140
-0.01129328 0.51238191 1.29172482 141 149 149
-0.00542207 0.51709228 1.30651849 147 155 155
-0.00963941 0.52459696 1.31071738 147 153 154
-0.00699210 0.53330022 1.32565464 151 155 156
0.00981644 -0.14946677 0.53548720 87 103 122
0.00991739 -0.10939488 0.99984050 53 56 62
0.00790716 -0.10570227 1.00812183 51 55 63
0.00990826 -0.09289273 0.99892017 51 54 62
0.00786647 -0.09253427 1.00697715 52 54 62
0.00205289 0.13780325 0.49626469 162 165 169
0.00716686 0.13922075 0.50100131 171 173 175
0.00134722 0.12802179 1.05509290 179 180 180
0.00136098 0.13485201 1.06587034 180 181 181
0.01018418 0.14447294 0.49366288 151 154 157
0.00808168 0.14086179 0.50070828 168 169 170
0.01030642 0.19143443 0.61849024 148 152 156
0.00709050 0.19238373 0.62426192 146 148 151
0.01720362 0.21741123 0.95672621 160 160 166
0.01718594 0.21288965 0.96155179 145 146 152
0.00974089 0.43927360 1.18928397 150 158 162
0.00716068 0.44669006 1.19389921 150 158 161
0.00338663 0.45531059 1.20575502 150 158 159
0.00643863 0.46454344 1.21414973 155 164 163
0.00392358 0.47223582 1.22807568 160 167 167
0.00693014 0.48086695 1.23815966 160 166 166
0.00448781 0.48546350 1.24997795 160 166 166
0.00567735 0.49538143 1.26507010 155 161 161
0.00882681 0.50444584 1.26982350 150 155 155
0.00511362 0.51124939 1.28960056 149 155 156
0.00278852 0.51706755 1.30238706 144 150 152
0.00835997 0.52255642 1.29368675 145 149 154
0.00362616 0.52786191 1.30869167 148 151 154
0.03730918 0.04870913 0.53016944 145 148 152
0.03830557 0.13952026 0.45943211 123 127 134
0.03568281 0.13973847 0.46146569 128 130 133
0.03707596 0.14506336 0.45838430 138 141 145
0.03287253 0.14626888 0.46372340 152 156 159
0.03474467 0.19418212 0.93140463 159 164 169
0.02767483 0.19743599 0.94249947 142 149 155
0.03709751 0.20474876 0.91607443 159 160 161
0.03314538 0.20451184 0.92958911 169 173 176
0.02470494 0.20998499 0.95138701 153 156 162
0.04525847 0.04786405 0.53014129 119 124 136
0.04766163 0.13704188 0.45797869 120 126 134
0.04950711 0.13816613 0.46021169 113 116 128
0.04467795 0.14282092 0.45825715 138 142 147
0.05071749 0.14099818 0.46036802 111 119 133
0.04277394 0.19962239 0.91700813 156 157 161
0.04304277 0.19380436 0.93012657 160 162 166
0.04399425 0.18747662 0.94021058 178 180 180
0.04120903 0.20155197 0.91115107 160 162 162
0.05823471 0.30298228 1.57405412 163 164 167
0.05617726 0.30799322 1.58919082 157 160 163
0.07851646 0.19915332 0.51336022 128 139 142
0.07872343 0.20111459 0.51327453 136 145 146
0.07481973 0.23498206 0.71489916 140 142 145
0.07589609 0.24585326 0.71638148 148 151 153
0.07107318 0.24980195 0.72196465 160 162 164
0.07415384 0.27877380 0.72424671 135 139 142
0.07444259 0.29088718 0.73441055 132 136 136
0.07156190 0.29588606 0.74219616 144 147 147
0.07168341 0.29477400 1.53469009 178 179 181
0.07194618 0.29403661 1.54667844 174 176 180
0.06656692 0.29698397 1.56921766 168 171 176
0.07330503 0.29517967 1.58573139 158 160 165
0.07488919 0.30114226 0.73764160 116 122 128
0.07131283 0.30744672 0.74999840 111 116 119
0.06803740 0.31126219 0.76082134 126 127 130
0.07106609 0.30103157 1.54772522 177 177 177
0.06428408 0.30519188 1.56678923 179 179 179
0.06247859 0.31243562 1.58983266 174 174 175
0.07677973 0.46157494 1.95357883 142 142 142
0.07425914 0.46866572 1.97636104 147 147 148
0.07447627 0.46489713 1.98213995 157 157 154
0.08720929 0.19761047 0.49578870 152 160 160
0.08445046 0.19864171 0.50948514 149 158 160
0.08764453 0.20188372 0.49789561 146 149 150
0.08510664 0.20175333 0.50652049 152 158 158
0.09586365 0.22856570 0.69218179 164 167 169
0.08724355 0.23271288 0.70885408 133 139 148
0.08740769 0.24562516 0.70944378 130 136 143
0.09888773 0.27236615 1.47688854 144 145 148
0.09731189 0.27512686 1.49186428 152 152 157
0.09619350 0.27544557 1.51485914 148 150 150
0.09208766 0.27754006 1.53369200 163 164 164
0.08984333 0.27880159 1.54066324 162 163 165
0.09867307 0.28704852 1.47368256 147 148 155
0.09784671 0.28794132 1.48699020 156 157 161
0.09587138 0.28625983 1.50978637 162 163 168
0.09072358 0.29189233 1.53144213 159 160 163
0.08863190 0.28887797 1.54660788 159 160 163
0.08439954 0.29074599 1.57162694 163 163 166
0.09684175 0.30365847 1.52506799 147 147 156
0.08993029 0.30192084 1.54216960 151 151 154
0.11834469 -0.36091568 0.72579592 97 116 125
0.11775869 -0.35634659 0.72540719 102 117 125
0.11774307 0.17652329 0.59558337 142 146 152
0.11596297 0.17611335 0.60043561 131 137 142
0.11934834 0.18183257 0.58981349 150 151 152
0.11468612 0.19224004 0.85272442 164 167 172
0.11398913 0.20155140 0.85055814 166 169 173
0.11543255 0.23290262 0.83481645 141 143 147
0.11149439 0.23463335 0.84475966 146 148 149
0.11165114 0.23918130 1.47688854 155 159 163
0.10933667 0.23970352 1.48011315 159 161 165
0.11064573 0.25082355 1.44938627 156 157 159
0.10831555 0.24883107 1.46948226 152 153 156
0.11014880 0.26987150 1.45104630 158 159 163
0.10617276 0.27426121 1.47442204 159 160 163
0.10538105 0.27204886 1.48443627 156 158 160
0.11009223 0.28240566 1.45626771 148 148 158
0.10552923 0.28433644 1.47608587 146 146 152
0.10422015 0.28489936 1.48011315 153 154 157
0.12914121 -0.36345147 0.73319211 101 117 127
0.12341034 -0.35075784 0.72749662 100 116 125
0.12527312 0.17722943 0.59254431 134 137 142
0.12148191 0.17868600 0.84948941 147 147 155
0.12539018 0.18140509 0.59063564 137 140 143
0.12144826 0.18849716 0.85229919 161 163 166
0.12914480 0.21839027 0.81152360 138 139 145
0.12409055 0.21988410 0.82770675 167 168 169
0.13004142 0.22708780 0.81758400 134 135 142
0.12640831 0.23144076 0.83002286 120 123 132
0.12254801 0.23138118 0.84001470 132 134 140
0.12337532 0.24128105 0.83742076 93 93 110
0.12158007 0.24130247 0.84001470 119 121 125
0.17945139 0.17899342 0.70835532 154 157 157
0.17864146 0.18428530 0.71133064 136 139 144
0.17987543 0.24158618 0.65560138 160 167 167
0.18835910 0.17875423 0.69752797 138 140 149
0.18297983 0.17789108 0.70214743 140 142 145
0.19243233 0.18573875 0.67857359 128 128 137
0.18850425 0.18464915 0.69197211 150 152 156
0.18236038 0.18386891 0.70322603 154 161 163
0.18340719 0.23300669 0.63831681 130 133 134
0.18424113 0.23704947 0.65036931 154 158 158
0.18482431 0.24520843 0.65001648 153 161 163
0.21775678 0.18741706 0.51918268 146 148 150
0.21924436 0.18904376 0.52095501 147 150 151
0.22417640 0.18761425 0.51866794 141 145 146
0.23013494 0.19492948 0.52598154 146 149 150
0.23177333 0.20028482 0.52743974 136 139 140
0.25022664 -0.26162644 0.75538238 89 107 121
0.25073192 -0.25057030 0.75313397 89 104 120
0.25983849 0.02222597 0.52065426 111 116 124
0.25029640 0.07422838 0.45111845 140 147 150
0.26139247 -0.24900099 0.75968478 88 105 121
0.27896825 -0.15283382 0.81646652 80 95 118
0.26962305 0.01638580 0.52325146 130 136 140
0.26920251 0.02175800 0.52432512 118 127 132
0.27947706 0.12668913 0.73031931 145 146 152
0.26823554 0.19328444 0.91700982 169 174 177
0.26748539 0.19797097 0.93096891 154 160 166
0.26220693 0.19871865 0.94086352 135 140 144
0.26859647 0.20253105 0.93592905 161 167 170
0.26983371 0.21023997 0.95054025 131 135 143
0.27081295 0.21764269 0.96449394 148 154 158
0.27656854 0.22317054 0.95680150 139 140 147
0.27261455 0.22643890 0.96973892 154 159 162
0.26775571 0.22917231 0.98747808 154 160 163
0.29343089 -0.16067848 0.81330785 81 97 118
0.28688132 -0.15450895 0.81294152 80 96 117
0.29174369 0.13920933 0.59042650 142 150 154
0.28989045 0.12957619 0.72862913 163 166 169
0.29129038 0.14658337 0.59129822 159 165 167
0.28205201 0.21433027 0.94957797 154 158 162
0.28153230 0.22523804 0.95679912 130 130 140
0.28070246 0.22740245 0.96245925 135 136 141
0.29894143 0.29881814 1.75165856 125 128 136
0.29894345 0.30336547 1.75167018 130 137 140
0.29745105 0.30341378 1.76075804 138 142 146
0.29636855 0.31249960 1.79101124 171 174 173
0.29522237 0.31690869 1.80290389 171 175 176
0.29836172 0.32577991 1.81061683 165 169 172
0.29762203 0.32907511 1.82720172 163 169 169
0.29933953 0.33794135 1.86747062 163 169 169
0.29993394 0.34053323 1.81254506 176 179 180
0.29700880 0.36783537 1.90955448 163 164 166
0.29655002 0.37509958 1.92913358 150 153 159
0.29372422 0.37759585 1.94424403 138 145 150
0.29831311 0.38342309 1.93407482 135 140 150
0.29540758 0.39020114 1.94984168 120 125 137
0.29755795 0.40965865 1.96775985 110 115 135
0.30049130 0.13911195 0.58985730 163 171 169
0.30146539 0.13403071 0.73364919 156 160 161
0.30154002 0.13903868 0.74005657 149 152 154
0.30190893 0.14465723 0.59206228 172 175 175
0.30257311 0.14010939 0.74575561 156 158 160
0.31843058 0.14950177 0.76634610 142 144 148
0.31917414 0.18951720 0.49016057 147 151 153
0.30119278 0.30258359 1.74715555 116 123 127
0.30248290 0.31387603 1.77691483 154 158 159
0.30192485 0.31626662 1.79337303 170 171 172
0.30325173 0.33537279 1.77691483 156 160 159
0.30519826 0.32957670 1.78973247 151 152 156
0.30235986 0.32987237 1.80565483 161 162 166
0.30235612 0.33460525 1.82720837 156 158 163
0.30273471 0.33669087 1.84879899 156 158 161
0.30657850 0.34675247 1.79337303 141 144 146
0.30538395 0.34900292 1.80771675 152 153 155
0.30969119 0.35437921 1.85216355 171 172 170
0.30537060 0.34874773 1.86490542 165 167 169
0.31330299 0.36029360 1.81740439 134 137 145
0.31134025 0.36288923 1.83051177 133 134 141
0.31374973 0.37140055 1.85723794 126 129 137
0.31120295 0.36442638 1.87091931 154 154 157
0.31128043 0.37381307 1.88679208 142 143 147
0.30590390 0.37274439 1.91360015 157 158 161
0.30495472 0.37642454 1.92674869 160 161 165
0.31207979 0.38385655 1.89093012 119 124 129
0.31048444 0.38625596 1.90956457 131 135 138
0.31202504 0.39344655 1.92584461 120 127 131
0.30792854 0.39155896 1.94958282 135 138 142
0.30816489 0.39972335 1.96490383 110 117 123
0.30727424 0.40195444 1.95922494 116 122 134
0.30794996 0.40865897 1.97018667 125 129 141
0.30915511 0.41522060 1.98213995 147 149 157
0.33174822 0.15666129 0.75349103 155 162 165
0.32445220 0.15281897 0.76709669 128 133 139
0.33311758 0.16187298 0.75609341 140 144 151
0.33294755 0.16898437 0.77219051 155 159 161
0.32664146 0.17023034 0.78210014 164 168 171
0.32844111 0.18820805 0.49271251 138 142 143
0.34041539 0.16408613 0.75826925 153 156 159
0.34350612 0.17246580 0.76996760 148 154 158
0.35662479 0.19917758 0.45784144 143 153 152
0.35856025 0.19825531 0.46299966 133 139 139
0.34628585 0.18068243 0.78188321 155 161 165
0.35228879 0.20232266 0.45651188 134 141 140
0.35694541 0.20099847 0.46135010 158 167 163
0.37737112 0.09122923 0.45529615 152 156 156
0.36018774 0.19821577 0.45927632 142 151 152
0.36161742 0.19558539 0.46374685 126 133 132
0.36000142 0.20023051 0.46209395 152 163 160
0.39061326 -0.24509033 0.65908289 88 102 108
0.39603151 -0.24677693 0.66252657 88 101 109
0.39951418 -0.23649074 0.65528467 83 101 116
0.38099389 0.09223223 0.45674945 162 165 164
0.38186209 0.09713389 0.46052449 159 163 164
0.39109244 0.39681167 1.17399078 132 136 141
0.39002141 0.39880502 1.18306458 136 140 142
0.39033232 0.40802241 1.18721386 152 159 160
0.38811246 0.41010902 1.20246962 162 165 165
0.39212000 0.41842324 1.22142673 163 168 168
0.39141473 0.42188536 1.21922994 162 166 168
0.40361244 -0.24777616 0.66511454 85 101 112
0.40087186 -0.23729745 0.65751153 84 101 114
0.41162403 0.01905436 0.57068628 108 117 122
0.41268580 0.02416487 0.57210933 117 124 131
0.40647616 0.39241094 1.15616632 158 164 165
0.40555244 0.39497988 1.16773442 158 162 165
0.40381826 0.39800004 1.18512704 156 160 162
0.41104017 0.40387273 1.17157127 141 144 150
0.40746529 0.40815519 1.18900658 135 141 145
0.42122343 0.02699571 0.57215809 133 141 145
0.43884409 0.13843413 0.45072659 143 144 136
0.43915288 0.14128500 0.45050154 141 144 138
0.42777937 0.19346822 0.45419315 132 139 138
0.42890292 0.19277945 0.46146482 138 147 143
0.43649017 0.20647783 0.45187536 135 141 140
0.42225470 0.41497096 1.19032902 140 144 145
0.44433658 0.13726427 0.45193008 139 141 139
0.44146818 0.14128619 0.45130545 147 150 144
0.44062877 0.20862231 0.45286095 125 133 134
0.45337975 0.23483238 0.47932985 23 24 25
0.45415023 0.23494751 0.48484271 88 91 89
0.45335028 0.24136337 0.48743021 0 0 0
0.45345853 0.25927064 0.65878701 145 148 143
0.45738227 0.25754156 0.66570463 140 144 140
0.45358851 0.26214740 0.65814885 132 139 137
0.45683475 0.26225662 0.66230894 139 142 139
0.47870867 0.13272710 0.49525084 135 140 140
0.46164834 0.23946674 0.48409440 0 0 0
0.46401806 0.24331725 0.48804909 0 0 0
0.46499033 0.25457825 0.66889972 141 144 143
0.46016836 0.26408193 0.65942788 136 137 137
0.46129739 0.26201402 0.66343669 153 153 146
0.48875320 -0.26259206 0.57740046 88 109 119
0.49431709 -0.27190829 0.58569519 95 109 118
0.48519863 -0.25634889 0.57086852 91 109 117
0.48407762 0.13219345 0.49421464 139 143 144
0.49380423 0.15921872 0.45223925 143 149 149
0.49546505 0.16219575 0.45513188 154 159 157
0.49173258 0.45334275 1.77000087 163 167 171
0.49692610 0.45198717 1.78865156 170 176 176
0.49827431 0.46129419 1.77691483 161 163 166
0.49823961 0.46091715 1.79336464 169 173 175
0.50405347 -0.27408506 0.59007661 90 110 117
0.50148424 0.16193057 0.46219931 155 161 159
0.51016521 0.23743026 0.57791376 116 126 122
0.51538337 0.23917150 0.59548871 119 120 121
0.51191014 0.24024779 0.57989037 123 135 131
0.51545695 0.24331506 0.59023807 98 106 107
0.51052725 0.45823175 1.72491562 162 163 166
0.51219696 0.45743534 1.75619650 154 154 161
0.50901362 0.45361002 1.77691483 160 164 167
0.50965166 0.45402282 1.79155435 170 174 175
0.51757063 0.45561174 1.80675521 172 176 178
0.51887447 0.45575255 1.82228994 173 182 183
0.51896089 0.46175662 1.73818421 146 148 154
0.50492126 0.46587219 1.74940994 170 172 172
0.50945651 0.46985348 1.76871525 157 159 162
0.50975024 0.46486611 1.79122746 164 166 168
0.51478632 0.46263421 1.80611332 164 168 169
0.51411754 0.48315823 1.78392589 133 134 139
0.52372017 0.23677745 0.59670159 126 130 131
0.53048942 0.23307984 0.60579664 133 142 142
0.52101100 0.24100376 0.59368788 118 122 125
0.52265209 0.45746601 1.75054735 151 154 160
0.52062833 0.45042458 1.78865778 173 176 178
0.52236539 0.45331538 1.81254506 175 181 183
0.52571762 0.45443609 1.82967091 167 172 177
0.52986339 0.45779522 1.84964013 159 164 170
0.52264690 0.46917866 1.74716719 136 138 146
0.52494007 0.47286370 1.76844835 131 132 139
0.52807522 0.47071935 1.78942976 142 143 148
0.53335300 0.46059665 1.86747062 153 159 166
0.52783984 0.48288898 1.78863907 147 151 157
0.59690891 0.16557875 0.59572878 150 156 156
0.59788328 0.16910483 0.60207460 141 147 147
0.61047532 -0.40186376 0.63390765 97 121 121
0.61020048 -0.39307585 0.63263352 98 118 123
0.60216138 0.11748730 0.61964518 154 163 162
0.61210236 0.11377231 0.62481672 151 159 159
0.61282187 0.12160549 0.62532901 156 161 159
0.61770062 0.15796806 0.51511581 119 124 125
0.60634369 0.15964989 0.60096794 144 152 150
0.61827899 0.16229287 0.51629384 136 138 140
0.60210636 0.16927875 0.59865734 148 156 155
0.60318963 0.17135569 0.60328621 134 143 144
0.61369158 0.19210991 0.61165632 143 150 149
0.61710687 0.20430231 0.61669295 135 145 144
0.61791859 0.21062913 0.62059112 108 116 120
0.62123526 0.11040637 0.62597116 147 157 156
0.62107413 0.12144141 0.62455648 156 162 162
0.62211174 0.15999149 0.51511538 101 104 110
0.62338985 0.16661231 0.51852926 145 151 149
0.62532721 0.17230603 0.52163621 149 157 156
0.62073394 0.19933995 0.61663948 141 149 148
0.62064918 0.20676173 0.61695568 140 153 152
0.62496221 0.21606552 0.62546698 118 125 125
0.62889612 0.22204468 0.63027646 151 157 150
0.71051753 -0.38603143 1.03614351 88 106 113
0.71779168 -0.38854214 1.04412568 87 105 113
0.71111859 -0.22104427 1.10676438 80 93 101
0.71503223 -0.21099781 1.11453140 79 93 106
0.71677723 -0.20642557 1.12349851 77 93 109
0.71583257 -0.19261721 1.11203237 78 92 106
0.71580791 -0.19371277 1.12110070 79 92 106
0.71150021 -0.07008597 0.67920583 54 59 61
0.71239303 -0.06463493 0.68290560 54 57 60
0.71657435 -0.05687342 0.68539466 53 57 61
0.72955312 -0.40179310 1.05328498 86 102 112
0.72745458 -0.38920927 1.05044299 85 104 114
0.73846853 -0.38561323 1.06086361 86 105 113
0.72978708 -0.37839392 1.05099761 85 102 113
0.72597181 -0.20483758 1.11748160 76 93 105
0.72422472 -0.20680254 1.12094688 78 92 106
0.72241959 -0.19344012 1.11076857 78 92 106
0.72396069 -0.06521910 0.67823339 54 58 61
0.72341761 -0.06365291 0.68317251 54 57 61
0.72267460 -0.05933840 0.68444331 55 55 62
0.75015162 -0.40438815 1.06792925 91 105 117
0.74429167 -0.38590878 1.05800658 84 103 114
0.74503021 -0.39024335 1.06312511 86 104 113
0.74221653 -0.37857059 1.05317279 86 101 111
0.77825052 0.21989200 0.86136192 152 157 157
0.78667153 0.21112533 0.87451873 156 163 162
0.79530526 0.21022988 0.88745203 158 167 166
0.78498873 0.22411975 0.87375669 151 158 158
0.79521917 0.23173186 0.88622681 154 162 162
0.79296827 0.23710777 1.07007462 141 143 143
0.79931962 0.23863058 1.08116722 141 144 145
0.79484981 0.24045053 1.07261372 140 142 142
0.80347791 0.20981256 0.89787155 157 164 164
0.80883300 0.20886861 0.90385580 155 165 163
0.80249055 0.23364827 0.89183997 152 160 160
0.80356568 0.23480058 0.90145195 143 152 153
0.80316252 0.23790014 1.08636510 145 153 153
0.80192602 0.24085052 0.89787155 161 168 164
0.80912458 0.24625428 1.09340448 146 150 149
0.81652047 0.25403940 1.10406928 152 158 157
0.81840014 0.41606650 1.19347155 125 129 131
0.82797173 0.25446428 1.11248572 144 151 149
0.83717185 0.25634411 1.12187523 136 145 145
0.83097271 0.26257821 1.11459839 154 162 161
0.83684880 0.26748136 1.12598590 154 162 160
0.83004959 0.41642363 1.19421940 123 124 130
0.83275691 0.41341927 1.20479639 137 141 144
0.83138274 0.42281027 1.19698800 121 127 130
0.83445355 0.42660488 1.20945910 137 143 143
0.83968103 0.43847904 1.22142673 155 161 159
0.84890175 0.25425681 1.11496143 162 168 166
0.84715374 0.25562753 1.12347938 153 161 160
0.85103127 0.26075472 1.11587816 159 165 165
0.84746325 0.26792301 1.12658148 160 165 165
0.84595567 0.27562039 1.14558837 147 156 154
0.85800558 0.28389732 1.16326594 158 165 163
0.84257460 0.41680032 1.19557643 148 149 149
0.84804174 0.41684176 1.21378106 144 147 147
0.84803626 0.41772851 1.22872366 138 142 145
0.84348339 0.42034948 1.19980860 134 135 136
0.84634233 0.43078361 1.21457555 136 141 141
0.84940090 0.43020457 1.22463191 140 145 144
0.85982102 0.42521656 1.25072300 134 142 143
0.85192201 0.44598243 1.22511462 151 156 155
0.86130905 0.25892803 1.12048233 160 168 168
0.86980024 0.29051681 1.18202680 164 170 168
0.86559939 0.41873181 1.25074852 151 156 157
0.86586383 0.42117193 1.25478163 145 151 152
0.87067227 0.42510368 1.26650757 143 148 150
0.87873590 0.43345121 1.28145909 134 138 141
0.95501871 0.04914894 1.55408950 113 123 129
0.94746187 0.37113482 1.05672991 125 135 137
0.95653658 0.37661617 1.06839868 119 131 134
0.97700605 0.02969105 1.60590859 143 147 152
0.96222964 0.04901676 1.55837202 109 123 128
0.96963315 0.04747394 1.56994245 107 119 124
0.97204231 0.04497292 1.58201775 108 114 120
0.96446086 0.38411888 1.07517159 125 135 141
0.97334751 0.38700603 1.08793758 122 132 137
0.97473596 0.41792033 1.54702225 134 137 137
0.97969210 0.43093961 1.53716969 109 117 126
0.97686125 0.42637677 1.54276896 122 131 131
0.98666252 0.01772738 1.61148755 116 125 126
0.98585877 0.01710083 1.62252865 124 132 134
0.98469809 0.02879819 1.59729674 126 134 138
0.98982865 0.02650497 1.60936166 126 133 137
0.98752052 0.02161257 1.62434355 125 136 135
0.99193678 0.04658267 1.59061852 117 126 130
0.98614664 0.39299041 1.10535749 119 130 134
0.99961120 0.39906958 1.12793982 116 126 129
0.99417579 0.40152305 1.11312294 128 142 148
0.99961120 0.40101913 1.12793982 122 132 137
0.99280225 0.41735386 1.54934533 151 154 153
0.99245294 0.41130902 1.57152322 146 147 148
0.99599714 0.41590422 1.58175218 133 134 135
0.98919852 0.42973731 1.53543385 132 138 142
0.98775619 0.42635122 1.54564102 136 142 144
0.99134164 0.42129633 1.57129140 140 142 140
0.99440110 0.42212743 1.58386809 136 137 136
0.99082997 0.44224660 1.54418075 103 110 125
1.01020372 0.01825106 1.57649267 122 130 133
1.00475347 0.01776446 1.58164423 121 128 132
1.00755377 0.02756782 1.58965368 126 131 136
1.00447925 0.02681078 1.60784876 128 134 137
1.00501141 0.04404806 1.59451480 119 124 129
1.00626318 0.39656216 1.13344590 107 117 119
1.01617549 0.39553099 1.14759370 107 118 120
1.01057839 0.39880118 1.57283485 161 164 164
1.01442790 0.39602650 1.59291012 165 168 169
1.01788402 0.39435846 1.61019444 167 173 171
1.01008639 0.41209010 1.13069037 130 140 143
1.01662710 0.41225650 1.14843022 121 130 134
1.01667166 0.41068634 1.16077375 135 144 145
1.00666848 0.41769157 1.55215377 157 162 162
1.00756419 0.41423581 1.57079853 148 152 150
1.01188259 0.41029398 1.58496940 157 161 158
1.01400972 0.42404355 1.13285110 130 137 139
1.01761995 0.42468178 1.15039130 124 130 134
1.00721356 0.42474191 1.55338603 156 161 160
1.00789490 0.42127213 1.56921299 155 159 156
1.00671160 0.42075953 1.58385944 143 145 140
1.02494812 0.39295988 1.15878952 111 118 113
1.02853580 0.39666857 1.16558256 107 115 113
1.02163029 0.39570872 1.59504843 160 162 162
1.02902391 0.39343301 1.61022166 166 168 167
1.03154355 0.39629094 1.62958539 169 174 173
1.02202661 0.41685746 1.15484994 123 132 136
1.02702746 0.41051777 1.16690324 124 132 134
1.02162629 0.41870333 1.57101446 146 153 154
1.02832940 0.41455157 1.58839705 146 152 150
1.03722903 0.41351236 1.60353056 146 150 150
1.02437654 0.42885449 1.15258399 127 134 137
1.02816352 0.42587630 1.16526896 130 136 139
1.02666497 0.42846338 1.57527339 155 161 160
1.03583275 0.43020943 1.58386730 155 161 162
1.04169691 0.39533147 1.62563992 165 166 166
1.05095446 0.39665558 1.65278187 166 170 171
1.04888070 0.39687261 1.66149962 164 169 170
1.04319572 0.40990434 1.18637819 123 131 131
1.04683474 0.41846032 1.59598449 152 159 158
1.04526503 0.41390843 1.60584142 144 148 150
1.04819435 0.40159190 1.65138328 170 173 173
1.04714379 0.40288755 1.66559705 167 172 171
1.04027855 0.42674965 1.18305731 140 147 146
1.04602602 0.42769415 1.59317851 153 160 161
1.05679410 0.42860847 1.60714914 152 160 161
1.05711949 0.44062439 1.60637879 158 167 168
1.06180370 0.39830849 1.66149962 169 172 174
1.06042325 0.41920218 1.59880149 160 164 163
1.06532276 0.41890934 1.60828662 169 174 173
1.07284153 0.41961330 1.62175083 164 173 173
1.06180370 0.40118027 1.66149962 171 172 174
1.06042325 0.42196557 1.59880149 155 162 161
1.06721834 0.43260571 1.61081125 152 159 161
1.07158637 0.42820753 1.62516788 151 159 161
1.06450543 0.44236801 1.61019897 159 169 170
1.09463540 0.25673964 0.95622416 153 162 161
1.09599107 0.25695318 0.96443414 144 156 155
1.09753654 0.26131731 0.96484073 148 159 159
1.08714402 0.43130583 1.47048128 156 165 164
1.09461820 0.43708265 1.48580596 152 161 162
1.08081388 0.42864807 1.62958539 158 167 168
1.09141673 0.44443479 1.49291143 120 129 132
1.09566152 0.44346711 1.50308609 121 130 131
1.09468504 0.71331503 1.66717691 114 120 124
1.09193327 0.72566075 1.66804335 123 135 137
1.10355040 0.25522622 0.96703641 145 155 153
1.11172382 0.25796872 0.98388338 139 150 148
1.10174457 0.26208231 0.95747562 141 148 148
1.10817547 0.27088290 0.97266687 151 158 157
1.11185576 0.27049664 0.98441341 147 157 154
1.11446027 0.28249960 0.97869057 156 162 160
1.11632570 0.28852308 0.98546677 152 162 160
1.10116976 0.43763442 1.49645728 147 156 157
1.11235923 0.43712687 1.50811130 151 158 158
1.11797130 0.43924266 1.53369200 152 156 153
1.11766571 0.43907583 1.54241800 147 154 145
1.10736933 0.44363401 1.51519763 133 140 142
1.11252698 0.44350529 1.53058705 132 137 138
1.11368627 0.44673552 1.54721308 142 146 145
1.10293883 0.70792115 1.67380702 111 114 120
1.10670586 0.71537326 1.68912963 111 113 119
1.10924649 0.73912239 1.69897699 123 141 141
1.11427729 0.73361899 1.70668242 110 121 126
1.10555367 0.74348680 1.69332083 112 128 128
1.12274949 0.27859529 0.97867008 146 147 147
1.12382976 0.28253211 0.97961247 150 151 151
1.12487795 0.28954768 0.99098361 150 158 156
1.12796164 0.28936894 1.00131738 147 161 158
1.13715103 0.41158704 1.55337787 155 163 163
1.13710952 0.41435500 1.56739044 157 166 164
1.12424710 0.43817659 1.53101660 156 160 157
1.13117369 0.43258695 1.54806234 168 173 169
1.13686357 0.43342220 1.56630158 170 176 173
1.12327687 0.44189103 1.53369721 147 152 151
1.12260687 0.44259995 1.55479777 148 152 147
1.13247768 0.44484195 1.57223090 157 161 158
1.13538055 0.44585345 1.58386521 151 156 153
1.12368870 0.71923524 1.70753610 115 117 123
1.12202340 0.72493047 1.71401501 110 112 118
1.12953526 0.72915689 1.73031378 114 117 121
1.13407273 0.73312625 1.74625027 118 121 123
1.12438130 0.74927071 1.72870177 108 124 125
1.13163984 0.74951999 1.74715165 104 115 119
1.12311283 0.76155014 1.72822705 104 115 116
1.13529757 0.76707843 1.75279886 112 124 123
1.15639734 0.35564923 1.41227472 170 179 176
1.15897083 0.38580447 1.39771509 168 169 169
1.15610540 0.39229682 1.43926084 157 166 167
1.14404225 0.41668221 1.55837202 161 170 169
1.14536517 0.41418614 1.57154665 161 169 166
1.14953462 0.41284143 1.58324699 170 177 170
1.14134872 0.42476279 1.55837202 164 168 168
1.14919381 0.42771754 1.57492503 165 172 170
1.15164115 0.43169507 1.59019777 166 174 172
1.14213660 0.44395357 1.58850473 163 170 167
1.15575218 0.71662694 1.75165856 126 130 131
1.14243031 0.72427881 1.73373878 110 116 118
1.15096303 0.72938387 1.75425499 111 116 119
1.15447503 0.73258415 1.77195042 114 116 121
1.15789065 0.73485084 1.78864279 124 125 127
1.14589051 0.74720492 1.77152121 118 119 123
1.15675796 0.75241105 1.79284448 122 123 125
1.14935076 0.76481572 1.77924371 105 118 121
1.15235394 0.76475668 1.78627938 111 120 125
1.16610324 0.35939291 1.42714071 169 178 175
1.17186097 0.36364630 1.43418725 167 176 171
1.17227640 0.37361923 1.45289753 156 165 163
1.17734933 0.37630127 1.46413606 152 159 159
1.16739759 0.39242712 1.41111974 163 166 165
1.17555538 0.39393389 1.43069178 163 170 168
1.17052715 0.38846963 1.44913102 163 172 171
1.17660377 0.38505493 1.46667826 159 168 167
1.17349195 0.40125918 1.41818380 142 143 144
1.17568905 0.40449896 1.42481718 150 152 151
1.16165185 0.71868652 1.77924371 130 133 138
1.16458569 0.72761193 1.77228539 120 122 124
1.16538193 0.72900941 1.78864668 127 129 131
1.16358340 0.75138742 1.80610903 127 128 129
1.17718720 0.77171993 1.83214009 125 126 128
1.18716359 0.37246101 1.43470621 163 167 167
1.18931252 0.37358791 1.45013827 163 170 168
1.18743301 0.37506706 1.47000856 156 163 161
1.18636227 0.37657021 1.48011315 134 143 142
1.18096209 0.39146569 1.43621159 161 170 166
1.18831463 0.38771052 1.44912704 160 168 166
1.18975947 0.38836593 1.46853634 164 173 171
1.18806779 0.38893511 1.48011315 161 170 170
1.18683689 0.40594248 1.42775047 140 143 146
1.18789673 0.77234391 1.84880817 131 132 133
1.20709965 0.37827559 1.46985292 166 173 170
1.20309246 0.37909135 1.48497844 170 175 170
1.20810556 0.38737065 1.46964811 153 162 161
1.20921731 0.38746895 1.48368578 161 168 166
1.22205013 0.79720330 1.91225159 137 139 139
1.22724056 0.79560810 1.92037344 135 136 137
1.22724056 0.80556571 1.92037344 138 142 141
1.23794901 0.81815583 1.94238353 140 141 141
1.23106444 0.83255655 1.93683386 145 152 146
1.23823524 0.82506576 1.95077193 148 150 148
1.24584632 0.81570717 1.95583727 143 146 144
1.24784537 0.81711320 1.96680784 147 154 151
1.24270597 0.82803904 1.95781341 148 151 149
1.24655184 0.83102395 1.96991014 151 155 151
1.25325501 0.83391551 1.98796403 151 155 152
1.24190998 0.84218144 1.95922494 154 160 154
1.24821758 0.84499284 1.97636104 158 163 156
1.25203351 0.84339744 1.98602649 159 161 155
