ply
format ascii 1.0
element vertex 1091
property float x
property float y
property float z
property uchar red
property uchar green
property uchar blue
end_header
0.90700024 0.30039936 0.92104870 90 93 80
0.91231084 0.30162883 0.92481834 86 88 74
-0.81667942 0.53557974 1.63347435 30 28 35
-0.81189972 0.53429234 1.62954772 30 28 35
-0.80329025 0.53046685 1.61788034 31 28 35
-0.79105407 0.52421135 1.59880149 33 28 35
-0.78275234 0.52052832 1.58756876 36 29 35
-0.77818590 0.51931214 1.58385944 36 29 35
-0.76472783 0.51213270 1.56196272 37 28 35
-0.75334895 0.50629979 1.54417276 36 28 34
-0.54311383 0.40047857 1.22142673 54 49 56
-0.53906012 0.39904058 1.21704102 62 55 64
-0.53123409 0.39478794 1.20407081 69 62 67
-0.52821475 0.39408794 1.20193589 78 70 75
-0.52335346 0.39200282 1.19557643 82 78 75
-0.51943398 0.39690286 1.21052110 93 88 85
-0.01984757 0.21812129 0.66525203 159 155 148
-0.01867941 0.21790746 0.66459984 158 155 147
-0.01749640 0.21748102 0.66329926 158 155 145
-0.01634994 0.21748102 0.66329926 155 152 137
-0.01518862 0.21726842 0.66265088 150 146 129
-0.01404328 0.21726842 0.66265088 143 135 119
-0.01288534 0.21705626 0.66200376 140 126 110
-0.01174112 0.21705626 0.66200376 129 114 99
-0.01059690 0.21705626 0.66200376 136 119 105
-0.00942507 0.21642220 0.66006994 134 125 112
-0.00826809 0.21600156 0.65878701 136 127 115
-0.00712251 0.21579185 0.65814739 136 129 118
-0.00597336 0.21537365 0.65687191 137 130 120
0.21607490 0.17097354 0.52145529 110 106 105
0.21631062 0.17044908 0.51985568 112 108 106
0.21687652 0.17018805 0.51905960 110 106 103
0.21744069 0.16992784 0.51826596 109 102 100
0.21783684 0.16953897 0.51707995 106 97 97
0.21839739 0.16928074 0.51629233 99 90 90
0.21979196 0.16966839 0.51747471 98 89 88
0.22001457 0.16915190 0.51589942 97 88 89
0.22073828 0.16902328 0.51550710 82 74 74
0.40312412 0.18709226 0.57061601 135 132 122
0.89989382 0.30281419 0.92355835 90 89 85
0.89782059 0.30158156 0.91979897 90 89 85
0.89941037 0.30158156 0.91979897 92 93 86
0.90100020 0.30158156 0.91979897 95 97 89
0.90381634 0.30199131 0.92104870 98 100 92
0.90540826 0.30199131 0.92104870 100 101 91
0.90700024 0.30199131 0.92104870 99 101 90
0.91106790 0.30281419 0.92355835 96 98 87
-0.80888295 0.53326321 1.61788034 32 28 35
-0.80416733 0.53199351 1.61402822 35 29 36
-0.79947412 0.53072989 1.61019444 37 28 34
-0.78919274 0.52573478 1.59503961 37 28 34
-0.78275234 0.52327234 1.58756876 36 27 32
-0.77818590 0.52204973 1.58385944 36 27 32
-0.76826823 0.51721591 1.56919408 37 28 33
-0.75679678 0.51129812 1.55123997 36 28 33
-0.54213697 0.40186563 1.21922994 57 48 57
-0.53617227 0.39899516 1.21052110 66 57 66
-0.52935362 0.39546421 1.19980860 69 60 65
-0.52727985 0.39546421 1.19980860 74 65 69
-0.01405702 0.21862748 0.66329926 140 132 113
-0.01289794 0.21841377 0.66265088 129 116 98
-0.01059690 0.21820047 0.66200376 128 113 98
-0.00943426 0.21777514 0.66071332 128 116 108
-0.00827613 0.21735144 0.65942788 129 118 111
0.06651561 0.24051376 0.72970057 103 88 86
0.06748626 0.23948263 0.72657216 103 89 86
0.06859504 0.23897035 0.72501802 101 89 86
0.07345047 0.23846029 0.72347051 109 101 95
0.07494087 0.23922621 0.72579426 113 105 99
0.07611385 0.23897035 0.72501802 111 103 96
0.08229151 0.23871505 0.72424340 62 61 63
0.08720553 0.23846029 0.72347051 68 64 71
0.08826759 0.23795238 0.72192955 80 76 86
0.08923031 0.23719457 0.71963042 97 93 99
0.08980677 0.23544498 0.71432227 115 111 114
0.21640784 0.17213966 0.52225876 104 95 96
0.21647663 0.17147911 0.52025467 111 102 103
0.21687652 0.17108521 0.51905960 115 106 105
0.21744069 0.17082360 0.51826596 112 103 103
0.21800312 0.17056282 0.51747471 113 104 105
0.21856385 0.17030281 0.51668584 114 106 106
0.22018214 0.17017311 0.51629233 103 98 98
0.22073828 0.16991429 0.51550710 97 92 92
0.40597475 0.19080895 0.57889998 131 125 115
0.40558988 0.19015940 0.57692921 131 127 116
0.40346375 0.18823697 0.57109678 133 130 120
0.40241674 0.18729027 0.56822449 141 138 128
0.40339884 0.18729027 0.56822449 143 140 131
0.40438098 0.18729027 0.56822449 140 137 129
0.40502360 0.18713340 0.56774861 139 136 128
0.89989382 0.30441046 0.92355835 91 91 87
0.89904046 0.30358326 0.92104870 99 99 95
0.89941037 0.30317134 0.91979897 102 103 98
0.89977932 0.30276054 0.91855264 104 105 99
0.90381634 0.30358326 0.92104870 106 107 101
0.90540826 0.30358326 0.92104870 108 109 101
0.90700024 0.30358326 0.92104870 109 110 101
0.90982836 0.30399629 0.92230183 109 110 100
0.90648919 0.30235085 0.91730964 106 107 93
-0.80035615 0.53224874 1.60637879 35 28 33
-0.79947412 0.53351301 1.61019444 35 28 32
-0.78919274 0.52849168 1.59503961 34 28 31
-0.78092349 0.52478731 1.58385944 33 28 32
-0.77818590 0.52478731 1.58385944 34 30 33
-0.76826823 0.51992816 1.56919408 34 28 32
-0.75679678 0.51397932 1.55123997 33 28 32
-0.53826457 0.40108743 1.21052110 62 53 60
-0.53331524 0.39895019 1.20407081 67 58 64
-0.52748638 0.39613575 1.19557643 65 56 59
0.06266447 0.24151501 0.72891593 86 77 77
0.06420048 0.24255827 0.73206460 92 83 84
0.06546579 0.24255827 0.73206460 101 85 86
0.06644409 0.24151501 0.72891593 107 92 90
0.06741401 0.24048069 0.72579426 111 96 92
0.06852176 0.23996684 0.72424340 117 104 99
0.06969909 0.23971075 0.72347051 112 102 97
0.07079843 0.23920017 0.72192955 116 107 102
0.07204623 0.23920017 0.72192955 121 113 109
0.07337216 0.23945519 0.72269917 117 108 100
0.07478074 0.23996684 0.72424340 114 105 96
0.07595139 0.23971075 0.72347051 110 102 93
0.07711954 0.23945519 0.72269917 110 100 93
0.07828521 0.23920017 0.72192955 96 86 81
0.08095323 0.23971075 0.72347051 69 67 67
0.08211605 0.23945519 0.72269917 61 59 60
0.08327640 0.23920017 0.72192955 56 54 57
0.08443428 0.23894571 0.72116154 56 54 58
0.08568075 0.23894571 0.72116154 64 60 67
0.08692721 0.23894571 0.72116154 77 70 81
0.08798648 0.23843840 0.71963042 87 80 91
0.08875918 0.23717947 0.71583086 106 101 108
0.08961790 0.23618187 0.71281999 121 117 120
0.21680942 0.17264332 0.52105445 108 99 100
0.21687652 0.17198236 0.51905960 119 110 109
0.21760705 0.17185077 0.51866245 123 115 114
0.21816967 0.17158821 0.51787001 127 120 121
0.21856385 0.17119585 0.51668584 127 122 121
0.22124301 0.17119585 0.51668584 115 115 113
0.22129272 0.17054591 0.51472425 110 110 108
0.40428367 0.19148250 0.57791293 134 126 118
0.40562835 0.19164588 0.57840604 127 120 112
0.40558988 0.19115657 0.57692921 125 120 111
0.40658706 0.19115657 0.57692921 124 119 110
0.40482795 0.18986388 0.57302779 127 123 113
0.40343121 0.18874703 0.56965703 129 126 116
0.40441582 0.18874703 0.56965703 131 128 119
0.40540043 0.18874703 0.56965703 132 129 121
0.40604383 0.18858854 0.56917870 134 131 123
0.40702760 0.18858854 0.56917870 139 135 128
0.40732738 0.18827239 0.56822449 140 135 128
0.89989382 0.30600676 0.92355835 101 101 94
0.89904046 0.30517522 0.92104870 110 110 103
0.89819169 0.30434820 0.91855264 114 114 109
0.89977932 0.30434820 0.91855264 114 114 111
0.90258998 0.30476114 0.91979897 113 113 109
0.90417975 0.30476114 0.91979897 112 112 106
0.90576959 0.30476114 0.91979897 112 112 103
0.90612990 0.30434820 0.91855264 116 116 107
0.90282416 0.30270749 0.91360086 117 117 104
-0.79757965 0.53502524 1.60637879 32 28 31
-0.78734016 0.53000152 1.59129536 32 28 31
-0.77910310 0.52629519 1.58016741 32 28 31
-0.77818590 0.52752489 1.58385944 33 29 32
-0.77005076 0.52385300 1.57283485 32 29 31
-0.75679678 0.51666051 1.55123997 32 28 32
-0.53236967 0.40032029 1.20193589 65 58 61
0.06120716 0.24199426 0.72657216 95 86 85
0.06266447 0.24277489 0.72891593 88 79 79
0.06741401 0.24173516 0.72579426 119 100 98
0.06852176 0.24121864 0.72424340 127 107 105
0.06962478 0.24070431 0.72269917 122 105 103
0.07072312 0.24019217 0.72116154 127 112 109
0.07196958 0.24019217 0.72116154 125 116 108
0.07321605 0.24019217 0.72116154 120 107 95
0.07462129 0.24070431 0.72269917 117 103 90
0.07587042 0.24070431 0.72269917 114 104 96
0.07703742 0.24044797 0.72192955 105 96 88
0.07820193 0.24019217 0.72116154 98 90 83
0.07927972 0.23968221 0.71963042 87 80 77
0.08069487 0.24019217 0.72116154 78 73 72
0.08185426 0.23993692 0.72039515 73 69 69
0.08292316 0.23942804 0.71886730 70 66 67
0.08407650 0.23917441 0.71810579 69 65 70
0.08522741 0.23892131 0.71734589 77 72 79
0.08646728 0.23892131 0.71734589 88 78 90
0.08752193 0.23841673 0.71583086 95 86 92
0.08847889 0.23766384 0.71357036 115 108 108
0.08952377 0.23716454 0.71207124 122 119 109
0.09009209 0.23543341 0.70687366 124 125 114
0.21614487 0.17301199 0.51945734 109 104 99
0.21671058 0.17274724 0.51866245 124 118 116
0.21744069 0.17261517 0.51826596 133 126 124
0.21816967 0.17248331 0.51787001 140 134 134
0.21856385 0.17208891 0.51668584 142 136 136
0.22085497 0.17248331 0.51787001 140 137 134
0.22124301 0.17208891 0.51668584 136 133 129
0.22129272 0.17143556 0.51472425 127 126 122
0.22184548 0.17117563 0.51394379 118 118 114
0.22471724 0.17065808 0.51238990 90 90 90
0.22543247 0.17052919 0.51200289 86 86 86
0.40431887 0.19297491 0.57939476 135 127 118
0.40462863 0.19264561 0.57840604 135 127 116
0.40562835 0.19264561 0.57840604 128 121 110
0.40558988 0.19215374 0.57692921 125 117 107
0.40658706 0.19215374 0.57692921 118 111 101
0.40585718 0.19133954 0.57448459 118 110 101
0.40616173 0.19101578 0.57351255 122 114 106
0.40715298 0.19101578 0.57351255 123 116 108
0.40848985 0.19117752 0.57399815 119 116 108
0.40948197 0.19117752 0.57399815 120 117 109
0.40943402 0.19069311 0.57254380 125 119 113
0.40835425 0.18973163 0.56965703 131 124 119
0.40830952 0.18925452 0.56822449 134 127 122
0.89989382 0.30760306 0.92355835 106 106 97
0.89904046 0.30676720 0.92104870 112 112 103
0.89819169 0.30593583 0.91855264 115 116 107
0.89977932 0.30593583 0.91855264 115 115 109
0.90258998 0.30635095 0.91979897 114 114 110
0.90417975 0.30635095 0.91979897 112 112 106
0.90454221 0.30593583 0.91855264 108 108 99
0.90490371 0.30552185 0.91730964 107 107 98
0.90160906 0.30387706 0.91237128 109 110 101
-0.79569411 0.53653032 1.60258114 30 28 30
-0.78734016 0.53275192 1.59129536 28 27 29
-0.78092349 0.53026247 1.58385944 29 28 30
-0.77818590 0.53026247 1.58385944 30 29 31
-0.77184159 0.52779609 1.57649267 30 29 31
-0.76202810 0.52293164 1.56196272 30 29 32
-0.75584519 0.52053285 1.55479777 30 29 33
0.06734191 0.24272977 0.72501802 117 107 101
0.06852176 0.24247043 0.72424340 125 105 103
0.06962478 0.24195345 0.72269917 126 106 104
0.07064795 0.24118207 0.72039515 131 111 108
0.07181678 0.24092604 0.71963042 131 117 100
0.07306061 0.24092604 0.71963042 124 109 93
0.07454182 0.24169576 0.72192955 112 97 80
0.07570899 0.24143864 0.72116154 112 102 96
0.07687368 0.24118207 0.72039515 97 91 84
0.07795314 0.24067055 0.71886730 91 87 79
0.07911175 0.24041560 0.71810579 85 84 80
0.08043815 0.24067055 0.71886730 79 79 78
0.08150779 0.24016120 0.71734589 79 80 80
0.08257291 0.23965399 0.71583086 79 78 80
0.08372175 0.23940119 0.71507579 83 80 84
0.08486818 0.23914891 0.71432227 87 82 87
0.08601219 0.23889719 0.71357036 100 91 98
0.08724554 0.23889719 0.71357036 105 96 99
0.08829301 0.23839530 0.71207124 119 110 111
0.08933609 0.23789552 0.71057844 127 119 112
0.08962480 0.23542772 0.70320731 127 123 115
0.09055842 0.23469734 0.70102566 128 125 117
0.09196028 0.23518376 0.70247859 131 130 123
0.09356228 0.23616268 0.70540255 132 131 125
0.09468298 0.23591718 0.70466930 136 135 129
0.09540508 0.23469734 0.70102566 138 135 129
0.09631793 0.23397148 0.69885755 141 133 128
0.21597937 0.17377667 0.51905960 141 138 132
0.21621430 0.17324606 0.51747471 142 137 134
0.21694311 0.17311390 0.51707995 141 135 133
0.21783684 0.17311390 0.51707995 139 133 133
0.21823119 0.17271866 0.51589942 140 134 133
0.22051804 0.17311390 0.51707995 139 132 129
0.22124301 0.17298196 0.51668584 141 134 129
0.22129272 0.17232522 0.51472425 137 131 125
0.22184548 0.17206393 0.51394379 127 123 117
0.22256505 0.17193358 0.51355445 121 121 116
0.22328353 0.17180343 0.51316565 117 117 113
0.22400093 0.17167348 0.51277751 105 105 105
0.22471724 0.17154370 0.51238990 101 101 101
0.22543247 0.17141414 0.51200289 98 100 100
0.22546597 0.17076924 0.51007664 92 93 94
0.22634758 0.17076924 0.51007664 97 99 100
0.40535823 0.19447500 0.58088416 136 128 120
0.40566701 0.19414228 0.57989037 136 129 116
0.40632173 0.19397634 0.57939476 130 123 110
0.40628141 0.19348024 0.57791293 126 119 105
0.40728030 0.19348024 0.57791293 119 113 98
0.40723765 0.19298667 0.57643867 111 104 91
0.41022664 0.19298667 0.57643867 113 105 98
0.41122296 0.19298667 0.57643867 115 107 101
0.41186905 0.19282271 0.57594889 115 109 103
0.40938631 0.19119826 0.57109678 118 114 107
0.40865204 0.19039625 0.56870121 123 119 113
0.89989382 0.30919936 0.92355835 109 106 94
0.89904046 0.30835915 0.92104870 111 109 97
0.89941037 0.30794075 0.91979897 111 109 98
0.89977932 0.30752349 0.91855264 111 109 98
0.90258998 0.30794075 0.91979897 111 110 99
0.90417975 0.30794075 0.91979897 110 109 99
0.90331823 0.30710733 0.91730964 102 101 92
0.90246135 0.30627844 0.91483378 98 98 89
-0.79194963 0.53676236 1.59503961 28 27 29
-0.78549629 0.53424823 1.58756876 28 27 29
-0.77910310 0.53175759 1.58016741 28 27 29
-0.77818590 0.53299999 1.58385944 30 29 31
-0.77184159 0.53052098 1.57649267 30 29 31
-0.76202810 0.52563137 1.56196272 30 29 31
-0.75758278 0.52442300 1.55837202 30 29 31
-0.75488925 0.52442300 1.55837202 30 29 31
0.06734191 0.24398290 0.72501802 111 108 100
0.06852176 0.24372223 0.72424340 124 107 102
0.06962478 0.24320257 0.72269917 129 111 106
0.07064795 0.24242721 0.72039515 132 112 108
0.07174063 0.24191305 0.71886730 137 118 108
0.07298313 0.24191305 0.71886730 130 112 102
0.07446253 0.24268511 0.72116154 110 94 84
0.07562853 0.24242721 0.72039515 100 88 83
0.07679208 0.24216986 0.71963042 95 84 82
0.07787057 0.24165680 0.71810579 91 82 81
0.07894450 0.24114588 0.71658754 88 83 81
0.08009839 0.24089125 0.71583086 84 81 81
0.08124985 0.24063714 0.71507579 85 83 83
0.08239888 0.24038357 0.71432227 89 84 87
0.08354550 0.24013053 0.71357036 91 86 89
0.08468970 0.23987803 0.71281999 94 89 92
0.08583149 0.23962606 0.71207124 104 95 99
0.08706225 0.23962606 0.71207124 114 105 107
0.08801565 0.23887330 0.70983440 125 116 117
0.08877774 0.23762918 0.70613736 130 121 120
0.08934675 0.23590900 0.70102566 133 126 125
0.09037150 0.23542209 0.69957876 133 126 125
0.09158067 0.23542209 0.69957876 138 131 129
0.09602096 0.23445427 0.69670284 139 129 126
0.09682710 0.23349439 0.69385040 138 128 125
0.21548438 0.17427349 0.51787001 132 127 122
0.21555611 0.17361036 0.51589942 134 129 124
0.21644782 0.17361036 0.51589942 133 129 123
0.21733950 0.17361036 0.51589942 133 127 126
0.22073828 0.17347834 0.51550710 136 131 126
0.22129272 0.17321488 0.51472425 136 130 124
0.22184548 0.17295225 0.51394379 134 126 120
0.22273380 0.17295225 0.51394379 133 126 126
0.22328353 0.17269039 0.51316565 130 125 126
0.22400093 0.17255977 0.51277751 121 121 122
0.22471724 0.17242934 0.51238990 110 111 111
0.22543247 0.17229910 0.51200289 107 110 109
0.22529645 0.17152181 0.50969309 105 108 108
0.22583780 0.17126428 0.50892782 103 106 106
0.22825973 0.17242934 0.51238990 105 107 107
0.22879948 0.17216906 0.51161647 112 112 114
0.40605414 0.19581459 0.58188140 143 135 129
0.40636227 0.19547901 0.58088416 139 131 124
0.40666932 0.19514458 0.57989037 132 125 117
0.40697533 0.19481128 0.57889998 128 120 111
0.40832460 0.19497779 0.57939476 124 117 106
0.40758422 0.19414809 0.57692921 119 112 100
0.40858141 0.19414809 0.57692921 110 102 90
0.40992746 0.19431347 0.57742065 98 90 77
0.41092548 0.19431347 0.57742065 96 88 79
0.41192350 0.19431347 0.57742065 98 90 84
0.41221929 0.19398300 0.57643867 99 94 87
0.41181487 0.19332543 0.57448459 98 98 90
0.41106603 0.19250971 0.57206064 106 105 97
0.90063238 0.30995110 0.92104870 114 109 96
0.90100020 0.30953053 0.91979897 113 108 95
0.90381634 0.30995110 0.92104870 112 107 93
0.90540826 0.30995110 0.92104870 111 106 92
0.90454221 0.30911112 0.91855264 101 96 86
-0.79381746 0.54079169 1.59880149 30 26 29
-0.78549629 0.53699225 1.58756876 29 27 29
-0.78092349 0.53573757 1.58385944 30 29 31
-0.77818590 0.53573757 1.58385944 30 29 31
-0.77184159 0.53324580 1.57649267 30 29 31
-0.76378798 0.52955127 1.56557012 30 29 31
-0.75758278 0.52711654 1.55837202 29 28 30
-0.75488925 0.52711654 1.55837202 29 28 30
0.06741401 0.24549860 0.72579426 109 105 102
0.06859504 0.24523602 0.72501802 116 111 104
0.06969909 0.24471258 0.72347051 123 114 108
0.07072312 0.24393159 0.72116154 128 112 107
0.07181678 0.24341369 0.71963042 136 120 113
0.07306061 0.24341369 0.71963042 132 117 110
0.07446253 0.24393159 0.72116154 128 113 105
0.07562853 0.24367236 0.72039515 121 106 102
0.07679208 0.24341369 0.71963042 111 97 95
0.07787057 0.24289797 0.71810579 100 87 89
0.07886114 0.24212851 0.71583086 90 78 80
0.08009839 0.24212851 0.71583086 83 75 77
0.08116423 0.24161822 0.71432227 88 82 84
0.08231214 0.24136388 0.71357036 90 84 86
0.08345765 0.24111009 0.71281999 92 85 88
0.08460074 0.24085681 0.71207124 96 88 91
0.08574143 0.24060409 0.71132410 108 99 100
0.08678876 0.24010020 0.70983440 123 112 113
0.08783171 0.23959842 0.70835096 135 123 124
0.08850117 0.23810560 0.70393753 133 124 124
0.21531989 0.17503488 0.51747471 134 126 122
0.21539220 0.17436935 0.51550710 131 123 119
0.21611886 0.17423685 0.51511538 131 123 118
0.22073828 0.17436935 0.51550710 134 131 123
0.22129272 0.17410454 0.51472425 133 129 121
0.22184548 0.17384055 0.51394379 134 128 122
0.22273380 0.17384055 0.51394379 132 128 121
0.22328353 0.17357735 0.51316565 129 125 119
0.22383162 0.17331496 0.51238990 124 122 120
0.22471724 0.17331496 0.51238990 116 116 115
0.22526233 0.17305335 0.51161647 114 115 114
0.22512718 0.17227325 0.50931019 111 112 111
0.22533029 0.17175707 0.50778413 106 109 107
0.40671077 0.19665153 0.58138239 139 134 127
0.40701750 0.19631480 0.58038688 138 133 126
0.40732318 0.19597922 0.57939476 135 128 122
0.40867391 0.19614688 0.57989037 128 120 113
0.40827918 0.19547799 0.57791293 125 117 110
0.40892944 0.19531149 0.57742065 122 114 108
0.41027692 0.19547799 0.57791293 108 100 94
0.41127580 0.19547799 0.57791293 96 89 83
0.41227469 0.19547799 0.57791293 96 91 84
0.41257012 0.19514526 0.57692921 101 97 90
0.41286454 0.19481367 0.57594889 97 99 90
0.41315797 0.19448319 0.57497185 106 107 98
0.90345186 0.31196693 0.92230183 115 107 97
0.90627903 0.31239194 0.92355835 111 103 92
0.90664011 0.31196693 0.92230183 104 97 85
0.90576959 0.31112033 0.91979897 99 91 82
-0.79381746 0.54355514 1.59880149 29 28 30
-0.78549629 0.53973621 1.58756876 30 29 31
-0.78092349 0.53847516 1.58385944 30 29 31
-0.78183931 0.54100323 1.59129536 28 27 29
-0.77544832 0.53847516 1.58385944 28 27 29
-0.76733226 0.53472710 1.57283485 28 27 29
-0.76108199 0.53225720 1.56557012 28 27 29
0.06755868 0.24728258 0.72735178 115 113 110
0.06866848 0.24675307 0.72579426 122 119 114
0.06977355 0.24622582 0.72424340 127 123 118
0.07079843 0.24543916 0.72192955 131 124 121
0.07196958 0.24517806 0.72116154 137 124 122
0.07321605 0.24517806 0.72116154 139 126 124
0.07454182 0.24543916 0.72192955 137 125 120
0.07570899 0.24517806 0.72116154 134 119 115
0.07687368 0.24491750 0.72039515 123 109 106
0.07795314 0.24439806 0.71886730 108 96 93
0.07902804 0.24388081 0.71734589 96 84 86
0.08018307 0.24362302 0.71658754 84 75 77
0.08124985 0.24310905 0.71507579 79 73 75
0.08239888 0.24285287 0.71432227 79 73 77
0.08354550 0.24259724 0.71357036 86 80 83
0.08468970 0.24234213 0.71281999 95 88 90
0.08583149 0.24208757 0.71207124 103 96 98
0.08697090 0.24183355 0.71132410 114 106 107
0.08792359 0.24107465 0.70909190 128 118 119
0.39868847 0.39261904 1.15484130 136 130 128
0.39663038 0.38864648 1.14315653 138 132 130
0.39659983 0.38669023 1.13740242 137 133 128
0.21109767 0.17539373 0.51589942 119 107 104
0.21531989 0.17592929 0.51747471 133 125 121
0.21539220 0.17526037 0.51550710 129 121 117
0.21611886 0.17512718 0.51511538 130 122 115
0.21700920 0.17512718 0.51511538 129 122 114
0.21789953 0.17512718 0.51511538 128 123 114
0.21912289 0.17539373 0.51589942 127 125 112
0.22001457 0.17539373 0.51589942 128 128 114
0.22073828 0.17526037 0.51550710 132 130 116
0.22129272 0.17499420 0.51472425 132 130 117
0.22184548 0.17472887 0.51394379 135 132 122
0.22273380 0.17472887 0.51394379 134 131 121
0.22328353 0.17446433 0.51316565 131 128 120
0.22383162 0.17420058 0.51238990 127 125 119
0.22471724 0.17420058 0.51238990 123 122 118
0.22526233 0.17393763 0.51161647 123 123 120
0.22512718 0.17315355 0.50931019 125 126 122
0.22533029 0.17263474 0.50778413 115 118 113
0.22688776 0.17315355 0.50931019 112 115 110
0.22759707 0.17302355 0.50892782 123 124 119
0.40771562 0.19765641 0.58138239 138 130 124
0.40802065 0.19731796 0.58038688 138 131 125
0.40972537 0.19765641 0.58138239 132 124 119
0.40897650 0.19681244 0.57889998 128 120 116
0.40962726 0.19664451 0.57840604 127 119 112
0.41062698 0.19664451 0.57840604 121 113 106
0.41162673 0.19664451 0.57840604 110 103 95
0.41262645 0.19664451 0.57840604 102 98 91
0.41292152 0.19630952 0.57742065 108 103 96
0.41321561 0.19597566 0.57643867 100 100 92
0.41350868 0.19564293 0.57545996 104 106 97
0.96807337 0.36993158 1.08810890 104 95 91
0.90468276 0.31398824 0.92355835 114 105 98
0.90751541 0.31441662 0.92481834 109 99 93
0.90787530 0.31398824 0.92355835 101 91 85
0.90700024 0.31313503 0.92104870 95 85 79
0.90612990 0.31228641 0.91855264 90 80 75
-0.78549629 0.54248023 1.58756876 29 29 30
-0.78275234 0.54248023 1.58756876 28 27 28
-0.78183931 0.54375362 1.59129536 27 27 29
-0.77544832 0.54121274 1.58385944 28 28 29
-0.76911676 0.53869545 1.57649267 28 28 30
-0.76284379 0.53620154 1.56919408 29 28 30
0.07094955 0.24721350 0.72347051 134 128 124
0.07204623 0.24668695 0.72192955 136 127 126
0.07337216 0.24694994 0.72269917 136 127 126
0.07462129 0.24694994 0.72269917 136 126 123
0.07587042 0.24694994 0.72269917 140 125 121
0.07703742 0.24668695 0.72192955 131 118 114
0.07811882 0.24616265 0.72039515 118 108 106
0.07919565 0.24564056 0.71886730 106 100 100
0.08043815 0.24564056 0.71886730 88 82 83
0.08150779 0.24512069 0.71734589 79 75 76
0.08248580 0.24434499 0.71507579 78 74 77
0.08372175 0.24434499 0.71507579 85 82 84
0.08477885 0.24383058 0.71357036 94 93 93
0.08592175 0.24357419 0.71281999 100 99 99
0.08706225 0.24331833 0.71207124 112 108 109
0.08820036 0.24306302 0.71132410 124 118 120
0.39941415 0.39732257 1.16276479 136 128 122
0.40005150 0.39596421 1.15878952 140 132 126
0.39932397 0.39327514 1.15091991 141 133 127
0.21109767 0.17628543 0.51589942 111 102 98
0.21231250 0.17655416 0.51668584 121 111 106
0.21320556 0.17655416 0.51668584 123 113 108
0.21442547 0.17682371 0.51747471 124 114 109
0.21531989 0.17682371 0.51747471 128 120 116
0.21555611 0.17628543 0.51589942 131 123 119
0.21628320 0.17615137 0.51550710 128 120 115
0.21700920 0.17601752 0.51511538 128 121 116
0.21789953 0.17601752 0.51511538 128 124 117
0.22018214 0.17641969 0.51629233 132 130 117
0.22073828 0.17615137 0.51550710 132 130 116
0.22129272 0.17588386 0.51472425 132 130 116
0.22201380 0.17575042 0.51433372 133 128 119
0.22273380 0.17561717 0.51394379 132 127 118
0.22345269 0.17548414 0.51355445 131 128 120
0.22400093 0.17521864 0.51277751 132 129 121
0.22505747 0.17535129 0.51316565 131 128 120
0.22543247 0.17495397 0.51200289 127 126 119
0.22529645 0.17416470 0.50969309 126 126 120
0.22549920 0.17364247 0.50816482 124 125 117
0.22688776 0.17403385 0.50931019 117 119 110
0.22759707 0.17390320 0.50892782 124 126 117
0.40806562 0.19883180 0.58188140 130 122 116
0.40872049 0.19866128 0.58138239 132 124 118
0.41007707 0.19883180 0.58188140 132 123 120
0.41002694 0.19832110 0.58038688 129 121 119
0.41032749 0.19798210 0.57939476 124 116 112
0.41132891 0.19798210 0.57939476 115 109 99
0.41233036 0.19798210 0.57939476 105 99 89
0.41297883 0.19781302 0.57889998 104 100 94
0.41327354 0.19747575 0.57791293 103 99 94
0.41321561 0.19697198 0.57643867 105 104 96
0.41386002 0.19680463 0.57594889 107 108 99
0.97275758 0.37361136 1.09337389 101 93 92
0.90431845 0.31601506 0.92481834 112 104 96
0.90591693 0.31601506 0.92481834 108 100 92
0.90751541 0.31601506 0.92481834 102 92 89
0.90911388 0.31601506 0.92481834 96 85 84
0.90823424 0.31515518 0.92230183 90 80 78
0.90735936 0.31429994 0.91979897 82 73 72
0.90526426 0.31302574 0.91607004 80 71 70
-0.78366101 0.54395032 1.58385944 27 26 26
-0.78092349 0.54395032 1.58385944 28 27 27
-0.78000832 0.54522419 1.58756876 30 29 29
-0.77544832 0.54395032 1.58385944 30 29 30
-0.76911676 0.54142028 1.57649267 31 30 32
-0.76108199 0.53766912 1.56557012 31 30 32
0.07337216 0.24819908 0.72269917 136 128 123
0.07462129 0.24819908 0.72269917 136 127 124
0.07587042 0.24819908 0.72269917 136 126 123
0.07703742 0.24793476 0.72192955 133 122 120
0.07811882 0.24740779 0.72039515 124 113 113
0.07919565 0.24688306 0.71886730 108 100 100
0.08035294 0.24662153 0.71810579 96 89 89
0.08150779 0.24636057 0.71734589 83 76 77
0.08257291 0.24584027 0.71583086 78 74 75
0.08372175 0.24558094 0.71507579 82 78 78
0.08486818 0.24532217 0.71432227 87 83 84
0.08592175 0.24480624 0.71281999 101 97 98
0.08715380 0.24480624 0.71281999 111 107 108
0.08829301 0.24454910 0.71207124 122 118 119
0.08914919 0.24352588 0.70909190 126 120 120
0.40089580 0.40488824 1.17894232 121 115 112
0.40293351 0.40488824 1.17894232 131 124 120
0.40286928 0.40278673 1.17282331 134 126 121
0.40142390 0.39933231 1.16276479 137 129 124
0.40136829 0.39728794 1.15681207 141 134 128
0.40797371 0.39593661 1.15287733 141 135 128
0.40788531 0.39392680 1.14702511 140 135 128
0.21004613 0.17704238 0.51550710 98 89 89
0.21109767 0.17717712 0.51589942 100 91 91
0.21247447 0.17758256 0.51707995 113 103 98
0.21320556 0.17744720 0.51668584 114 104 98
0.21442547 0.17771812 0.51747471 113 103 96
0.21531989 0.17771812 0.51747471 117 107 100
0.21555611 0.17717712 0.51589942 119 109 103
0.21628320 0.17704238 0.51550710 120 118 111
0.21684442 0.17677352 0.51472425 123 122 115
0.22034995 0.17744720 0.51668584 132 129 121
0.22073828 0.17704238 0.51550710 131 130 120
0.22112481 0.17663941 0.51433372 132 131 119
0.22184548 0.17650548 0.51394379 132 129 120
0.22256505 0.17637177 0.51355445 132 129 119
0.22311464 0.17610495 0.51277751 133 128 121
0.22366256 0.17583892 0.51200289 136 132 124
0.22471724 0.17597184 0.51238990 140 137 129
0.22509246 0.17557371 0.51123065 130 127 119
0.22512718 0.17491415 0.50931019 129 126 118
0.22549920 0.17452079 0.50816482 128 128 118
0.42723462 0.22959638 0.66853237 79 75 72
0.40841618 0.20000923 0.58238131 125 117 113
0.40872049 0.19966616 0.58138239 124 116 112
0.41042936 0.20000923 0.58238131 124 116 113
0.41073024 0.19966616 0.58138239 124 117 116
0.41173512 0.19966616 0.58138239 121 114 112
0.41273999 0.19966616 0.58138239 111 108 101
0.41339034 0.19949506 0.58088416 103 100 92
0.41403955 0.19932425 0.58038688 105 102 97
0.41362616 0.19864397 0.57840604 109 105 102
0.41356727 0.19813679 0.57692921 109 106 103
0.41421193 0.19796830 0.57643867 108 107 103
1.00320446 0.39728794 1.15681207 140 134 128
0.99166584 0.39193726 1.14123201 139 134 127
0.97876102 0.37855405 1.10226321 92 88 87
0.97590566 0.37671641 1.09691238 95 90 89
0.90431845 0.31761354 0.92481834 99 92 81
0.90591693 0.31761354 0.92481834 95 88 77
0.90751541 0.31761354 0.92481834 89 80 76
0.90911388 0.31761354 0.92481834 83 73 74
0.90823424 0.31674930 0.92230183 77 67 68
0.90859216 0.31631893 0.92104870 69 59 61
0.90648919 0.31503481 0.91730964 67 58 59
-0.78183430 0.54541355 1.58016741 27 26 28
-0.77910310 0.54541355 1.58016741 30 28 30
-0.77818590 0.54668790 1.58385944 29 28 29
-0.77364075 0.54541355 1.58016741 29 28 28
-0.76555604 0.54162598 1.56919408 29 28 29
-0.75758278 0.53789061 1.55837202 29 28 28
0.07337216 0.24944820 0.72269917 136 128 122
0.07462129 0.24944820 0.72269917 134 126 121
0.07578962 0.24918255 0.72192955 133 123 120
0.07695546 0.24891746 0.72116154 132 122 120
0.07795314 0.24812557 0.71886730 124 113 114
0.07911175 0.24786273 0.71810579 104 99 95
0.08026791 0.24760044 0.71734589 99 95 90
0.08142163 0.24733870 0.71658754 91 82 81
0.08257291 0.24707752 0.71583086 80 73 73
0.08372175 0.24681689 0.71507579 85 79 78
0.08486818 0.24655682 0.71432227 89 84 83
0.08601219 0.24629728 0.71357036 100 95 96
0.08724554 0.24629728 0.71357036 108 103 104
0.08829301 0.24577984 0.71207124 116 111 111
0.40299842 0.40906015 1.18512559 116 113 113
0.40433991 0.40834627 1.18305731 127 123 123
0.40567675 0.40763485 1.18099630 136 127 126
0.40350023 0.40341794 1.16877902 136 128 126
0.40343365 0.40134203 1.16276479 134 127 124
0.40544337 0.40134203 1.16276479 134 128 123
0.40675545 0.40065482 1.16077375 135 129 124
0.40806299 0.39996994 1.15878952 138 133 126
0.40936610 0.39928740 1.15681207 137 132 125
0.41066477 0.39860716 1.15484130 135 130 123
0.20988652 0.17779818 0.51511538 92 85 85
0.21093714 0.17793339 0.51550710 96 89 89
0.21215081 0.17820443 0.51629233 101 91 88
0.21288104 0.17806880 0.51589942 111 102 97
0.21393555 0.17820443 0.51629233 107 102 95
0.21499166 0.17834026 0.51668584 111 104 98
0.21539220 0.17793339 0.51550710 118 106 101
0.21611886 0.17779818 0.51511538 117 108 102
0.22095717 0.17739379 0.51394379 134 132 125
0.22167742 0.17725940 0.51355445 133 131 123
0.22294599 0.17685746 0.51238990 132 131 122
0.22349375 0.17659050 0.51161647 139 137 129
0.22437805 0.17659050 0.51161647 140 137 129
0.22475345 0.17619158 0.51046073 136 132 125
0.22478941 0.17553069 0.50854599 140 132 126
0.22516163 0.17513654 0.50740409 139 134 127
0.42681369 0.23052454 0.66787374 78 74 72
0.85583580 0.42542258 1.23253059 114 107 95
0.85331172 0.42311466 1.22584414 118 111 99
0.40841618 0.20101582 0.58238131 118 110 99
0.40907133 0.20084327 0.58188140 122 114 106
0.41078228 0.20118867 0.58288205 121 114 107
0.41143596 0.20101582 0.58238131 119 115 110
0.41244256 0.20101582 0.58238131 114 110 105
0.41309428 0.20084327 0.58188140 110 109 104
0.41374487 0.20067102 0.58138239 103 102 97
0.41439435 0.20049907 0.58088416 98 97 92
0.41397941 0.19981419 0.57889998 98 97 93
0.41391957 0.19930358 0.57742065 101 100 96
0.41421193 0.19896464 0.57643867 96 95 91
1.02725339 0.41049546 1.18928397 137 130 125
1.01156235 0.40341794 1.16877902 139 132 126
1.00491929 0.39996994 1.15878952 141 133 127
1.00008404 0.39725366 1.15091991 140 132 126
0.98678362 0.38357773 1.11129808 82 81 83
0.98226339 0.38107884 1.10405838 85 83 85
0.98257136 0.38045922 1.10226321 92 88 89
0.90431845 0.31921202 0.92481834 80 72 64
0.90591693 0.31921202 0.92481834 80 72 63
0.90751541 0.31921202 0.92481834 81 72 66
0.90911388 0.31921202 0.92481834 79 69 69
0.90859216 0.31791088 0.92104870 73 64 64
0.90526426 0.31619245 0.91607004 73 64 65
-0.78001606 0.54686999 1.57649267 29 25 28
-0.77729124 0.54686999 1.57649267 29 25 28
-0.77818590 0.54942548 1.58385944 28 25 27
-0.77364075 0.54814476 1.58016741 28 26 27
-0.76555604 0.54433817 1.56919408 27 26 26
-0.75758278 0.54058415 1.55837202 28 27 28
0.07337216 0.25069731 0.72269917 134 127 121
0.07454182 0.25043035 0.72192955 132 124 120
0.07578962 0.25043035 0.72192955 130 121 119
0.07687368 0.24989808 0.72039515 129 119 119
0.07795314 0.24936807 0.71886730 120 111 107
0.07902804 0.24884032 0.71734589 105 100 94
0.08018307 0.24857727 0.71658754 97 94 86
0.08142163 0.24857727 0.71658754 88 83 77
0.08266019 0.24857727 0.71658754 79 73 73
0.08381016 0.24831478 0.71583086 84 77 79
0.08495770 0.24805284 0.71507579 84 78 80
0.08601219 0.24753062 0.71357036 96 90 91
0.08733748 0.24779145 0.71432227 103 97 97
0.08838585 0.24727035 0.71281999 108 102 102
0.08933609 0.24649276 0.71057844 117 108 110
0.38863951 0.41546661 1.19768882 123 124 113
0.39619011 0.41255105 1.18928397 88 89 86
0.39685324 0.41110855 1.18512559 94 94 92
0.40030128 0.41255105 1.18928397 97 97 95
0.40299842 0.41110855 1.18512559 110 107 109
0.40504679 0.41110855 1.18512559 120 115 119
0.40567675 0.40967613 1.18099630 125 116 115
0.40419713 0.40613833 1.17079771 128 119 118
0.40412682 0.40404484 1.16476262 128 119 118
0.40614003 0.40404484 1.16476262 129 120 118
0.40675545 0.40266111 1.16077375 132 123 120
0.40806299 0.40197280 1.15878952 133 128 120
0.40936610 0.40128684 1.15681207 133 129 121
0.41066477 0.40060323 1.15484130 133 130 120
0.21061681 0.17855284 0.51472425 96 92 90
0.21182814 0.17882441 0.51550710 96 90 88
0.21239613 0.17855284 0.51472425 102 95 93
0.21328579 0.17855284 0.51472425 103 99 92
0.21506511 0.17855284 0.51472425 112 104 98
0.21579091 0.17841737 0.51433372 114 106 100
0.22244160 0.17734094 0.51123065 136 137 128
0.22282109 0.17694063 0.51007664 138 138 129
0.22370271 0.17694063 0.51007664 140 136 129
0.22424687 0.17667475 0.50931019 141 136 129
0.22462089 0.17627743 0.50816482 142 136 129
0.22499323 0.17588189 0.50702459 140 134 127
0.41757879 0.23167892 0.66787374 88 79 79
0.42270771 0.23259555 0.67051619 80 79 77
0.42386666 0.23259555 0.67051619 77 77 75
0.42460561 0.23236571 0.66985363 77 77 75
0.42534310 0.23213632 0.66919231 78 76 75
0.42607912 0.23190740 0.66853237 72 68 69
0.42681369 0.23167892 0.66787374 71 67 67
0.42796806 0.23167892 0.66787374 78 74 73
0.86839157 0.43708938 1.26002204 102 94 87
0.85938776 0.43147540 1.24383819 104 96 88
0.85215610 0.42677695 1.23029375 110 102 94
0.85119295 0.42523345 1.22584414 111 104 93
0.85023671 0.42370108 1.22142673 115 108 97
0.40907133 0.20184901 0.58188140 125 118 105
0.41078228 0.20219612 0.58288205 129 122 109
0.41143596 0.20202242 0.58238131 120 117 107
0.41244256 0.20202242 0.58238131 113 110 101
0.41309428 0.20184901 0.58188140 106 105 98
0.41339034 0.20150308 0.58088416 102 101 97
0.41368538 0.20115833 0.57989037 99 98 94
0.41397941 0.20081477 0.57889998 100 99 95
0.41427243 0.20047237 0.57791293 104 103 99
0.41421193 0.19996096 0.57643867 96 93 89
1.02905881 0.41327608 1.19137406 136 131 127
1.00808620 0.40404484 1.16476262 139 134 130
1.00149548 0.40060323 1.15484130 143 136 132
0.99669963 0.39789188 1.14702511 142 133 129
0.99699521 0.39721975 1.14508760 131 123 118
0.99678862 0.39323428 1.13359845 99 89 90
0.99493891 0.38868445 1.12048233 76 75 77
0.99523056 0.38804305 1.11863339 79 77 79
0.99388385 0.38676661 1.11495364 83 79 80
0.90555388 0.32124877 0.92608178 75 66 60
0.90715456 0.32124877 0.92608178 73 64 58
0.90875518 0.32124877 0.92608178 74 65 61
0.91035587 0.32124877 0.92608178 80 70 71
0.90982836 0.31993756 0.92230183 76 67 68
-0.77729124 0.54959482 1.57649267 29 25 31
-0.77818590 0.55216300 1.58385944 28 26 30
-0.77364075 0.55087596 1.58016741 28 26 30
-0.76555604 0.54705042 1.56919408 27 26 30
-0.75584519 0.54203159 1.55479777 27 26 30
0.07462129 0.25194645 0.72269917 130 122 118
0.07578962 0.25167814 0.72192955 129 120 118
0.07695546 0.25141039 0.72116154 124 115 114
0.07803590 0.25087661 0.71963042 116 107 106
0.07911175 0.25034511 0.71810579 108 100 98
0.08018307 0.24981584 0.71658754 101 93 90
0.08150779 0.25008020 0.71734589 88 84 83
0.08266019 0.24981584 0.71658754 78 76 76
0.08381016 0.24955203 0.71583086 75 73 74
0.08504742 0.24955203 0.71583086 80 75 77
0.08610283 0.24902610 0.71432227 92 88 91
0.08742961 0.24928880 0.71507579 92 88 91
0.08847889 0.24876398 0.71357036 96 95 95
0.08942983 0.24798088 0.71132410 104 103 104
0.38932735 0.41827571 1.19980860 134 133 125
0.39277971 0.41753671 1.19768882 124 124 113
0.39415345 0.41680032 1.19557643 112 112 104
0.39482722 0.41533530 1.19137406 106 106 99
0.39688641 0.41533530 1.19137406 100 99 95
0.39824569 0.41460663 1.18928397 96 97 95
0.40100479 0.41533530 1.19137406 95 96 96
0.40299842 0.41315696 1.18512559 104 101 100
0.40433991 0.41243592 1.18305731 108 102 101
0.40567675 0.41171739 1.18099630 114 105 104
0.40419713 0.40816197 1.17079771 116 107 106
0.40482241 0.40675694 1.16676736 120 110 110
0.40683907 0.40675694 1.16676736 119 109 107
0.40745312 0.40536153 1.16276479 124 116 111
0.40876174 0.40466744 1.16077375 129 122 114
0.40936610 0.40328631 1.15681207 131 125 117
0.41066477 0.40259928 1.15484130 127 128 113
0.21506511 0.17944251 0.51472425 106 98 93
0.21595477 0.17944251 0.51472425 112 104 100
0.22215246 0.17728865 0.50854599 139 140 131
0.22303145 0.17728865 0.50854599 142 140 131
0.22391042 0.17728865 0.50854599 144 140 133
0.22445264 0.17702305 0.50778413 148 140 134
0.22448951 0.17636251 0.50588942 145 137 131
0.41445339 0.23237540 0.66656029 118 106 101
0.41601455 0.23260412 0.66721636 117 105 100
0.41840321 0.23329297 0.66919231 101 90 89
0.41873315 0.23283328 0.66787374 95 85 85
0.42238435 0.23421782 0.67184526 90 85 84
0.42438680 0.23468299 0.67317957 83 80 79
0.42555034 0.23468299 0.67317957 73 72 70
0.42544639 0.23398592 0.67118007 72 72 70
0.42576340 0.23352349 0.66985363 76 75 74
0.42649972 0.23329297 0.66919231 76 76 74
0.42765638 0.23329297 0.66919231 77 76 75
0.86357605 0.43683138 1.25303483 95 90 83
0.85157520 0.42968324 1.23253059 106 99 92
0.84754157 0.42658082 1.22363150 109 101 95
0.84508026 0.42428327 1.21704102 113 105 97
0.84264535 0.42201030 1.21052110 116 108 99
0.84624881 0.42276525 1.21268666 120 112 101
0.41113579 0.20337847 0.58338368 124 114 103
0.41178975 0.20320359 0.58288205 117 111 102
0.41279721 0.20320359 0.58288205 111 107 99
0.41344917 0.20302902 0.58238131 106 102 96
0.41339034 0.20250709 0.58088416 101 98 94
0.41333178 0.20198785 0.57939476 102 99 96
0.41397941 0.20181535 0.57889998 102 100 97
0.41427243 0.20147125 0.57791293 104 103 99
1.02366161 0.41315696 1.18512559 138 132 129
0.99809474 0.40123221 1.15091991 131 124 121
0.99166584 0.39785483 1.14123201 136 124 121
0.99363834 0.39785483 1.14123201 128 117 113
0.99393755 0.39718619 1.13931406 125 113 110
0.99845827 0.39585558 1.13549721 101 90 89
1.00127721 0.39387628 1.12981975 78 75 74
0.99823886 0.39191672 1.12419879 76 75 75
0.99687552 0.39062113 1.12048233 75 74 74
0.99716401 0.38997653 1.11863339 67 64 63
0.90395325 0.32284942 0.92608178 87 79 73
0.90555388 0.32284942 0.92608178 88 80 74
0.90715456 0.32284942 0.92608178 88 80 74
0.90999836 0.32329106 0.92734861 87 79 73
0.91035587 0.32284942 0.92608178 86 76 74
0.90859216 0.32109481 0.92104870 82 74 73
-0.77548778 0.55103821 1.57283485 28 26 31
-0.77818590 0.55490059 1.58385944 28 27 31
-0.77364075 0.55360711 1.58016741 28 27 30
-0.76555604 0.54976261 1.56919408 27 26 29
-0.75584519 0.54471892 1.55479777 28 27 29
0.07352895 0.25373659 0.72424340 130 122 118
0.07478074 0.25373659 0.72424340 130 122 118
0.07595139 0.25346580 0.72347051 129 119 116
0.07711954 0.25319558 0.72269917 122 111 108
0.07820193 0.25265688 0.72116154 118 103 101
0.07936397 0.25238836 0.72039515 110 98 97
0.08043815 0.25185308 0.71886730 103 93 92
0.08176737 0.25212044 0.71963042 91 84 86
0.08292316 0.25185308 0.71886730 80 77 77
0.08407650 0.25158629 0.71810579 72 70 70
0.08522741 0.25132006 0.71734589 75 71 72
0.08637588 0.25105441 0.71658754 86 82 83
0.08770715 0.25132006 0.71734589 83 79 80
0.08866555 0.25052473 0.71507579 89 88 88
0.08952377 0.24947211 0.71207124 95 94 94
0.39071041 0.42184272 1.20407081 135 130 123
0.39140114 0.42034948 1.19980860 132 128 119
0.39277971 0.41960680 1.19768882 129 125 116
0.39484984 0.41960680 1.19768882 121 119 113
0.39552233 0.41812932 1.19347155 116 114 108
0.39758515 0.41812932 1.19347155 111 106 104
0.39894560 0.41739449 1.19137406 102 99 97
0.40100479 0.41739449 1.19137406 100 98 96
0.40377361 0.41812932 1.19347155 100 98 98
0.40229508 0.41448072 1.18305731 99 97 97
0.40504679 0.41520536 1.18512559 103 99 98
0.40638474 0.41448072 1.18305731 106 100 99
0.40559813 0.41160738 1.17485583 105 99 97
0.40622073 0.41018561 1.17079771 97 87 87
0.40824437 0.41018561 1.17079771 109 100 98
0.40885574 0.40877360 1.16676736 115 110 105
0.40946287 0.40737128 1.16276479 118 115 108
0.41006589 0.40597856 1.15878952 124 122 114
0.41136557 0.40528578 1.15681207 121 121 110
0.41336501 0.40528578 1.15681207 120 120 109
0.42224559 0.40807122 1.16476262 113 110 99
0.42208311 0.40597856 1.15878952 119 111 99
0.22303145 0.17816764 0.50854599 140 138 130
0.22407852 0.17830139 0.50892782 143 138 131
0.22445264 0.17790072 0.50778413 144 137 131
0.22448951 0.17723691 0.50588942 146 138 132
0.41411567 0.23398764 0.66787374 130 120 115
0.41486132 0.23375735 0.66721636 126 114 109
0.42724743 0.23678710 0.67586422 86 82 81
0.42756304 0.23631588 0.67451924 74 73 71
0.42702928 0.23537904 0.67184526 77 76 74
0.42776656 0.23514600 0.67118007 78 77 77
0.42850238 0.23491341 0.67051619 81 80 79
0.84848976 0.43024901 1.22806489 86 83 75
0.84297669 0.42638680 1.21704102 91 88 80
0.83756173 0.42259333 1.20621324 101 97 88
0.83964658 0.42259333 1.20621324 111 107 95
0.84173143 0.42259333 1.20621324 116 111 100
0.41309428 0.20386048 0.58188140 110 101 98
0.41303641 0.20333686 0.58038688 108 101 99
0.41297883 0.20281594 0.57889998 109 102 100
0.41397941 0.20281594 0.57889998 107 102 98
0.99949938 0.40459532 1.15484130 134 125 122
0.99640310 0.40253806 1.14896917 120 111 108
0.98999918 0.39915538 1.13931406 109 97 94
0.99363834 0.39982736 1.14123201 109 97 94
0.99393755 0.39915538 1.13931406 114 102 99
0.99590677 0.39915538 1.13931406 114 104 101
0.99620169 0.39848566 1.13740242 108 97 94
1.00013351 0.39848566 1.13740242 94 88 85
0.99708056 0.39648992 1.13170588 94 88 84
1.00070727 0.39715293 1.13359845 87 85 81
1.00434613 0.39781818 1.13549721 80 80 76
1.00294888 0.39648992 1.13170588 76 75 71
1.00156081 0.39517048 1.12793982 76 75 73
0.99852598 0.39320770 1.12233746 76 75 74
1.00046587 0.39320770 1.12233746 68 67 65
0.90395325 0.32445008 0.92608178 100 92 86
0.90431845 0.32400745 0.92481834 103 95 88
0.90715456 0.32445008 0.92608178 107 98 92
0.90875518 0.32445008 0.92608178 107 99 93
0.90911388 0.32400745 0.92481834 111 101 95
0.90735936 0.32224894 0.91979897 103 91 86
0.90526426 0.32094252 0.91607004 90 84 82
-0.77369267 0.55247486 1.56919408 27 26 30
-0.77818590 0.55763817 1.58385944 27 26 30
-0.77364075 0.55633831 1.58016741 28 27 30
-0.76555604 0.55247486 1.56919408 28 27 30
-0.75758278 0.54866469 1.55837202 28 27 29
0.07227714 0.25498840 0.72424340 128 120 118
0.07352895 0.25498840 0.72424340 130 122 118
0.07478074 0.25498840 0.72424340 122 114 108
0.07595139 0.25471628 0.72347051 127 118 112
0.07720185 0.25471628 0.72347051 124 112 109
0.07828521 0.25417373 0.72192955 115 99 100
0.07944840 0.25390333 0.72116154 112 96 97
0.08060911 0.25363353 0.72039515 109 93 94
0.08194134 0.25390333 0.72116154 98 88 87
0.08309940 0.25363353 0.72039515 87 79 78
0.08425501 0.25336426 0.71963042 85 79 78
0.08540817 0.25309560 0.71886730 85 77 78
0.08646728 0.25255993 0.71734589 82 76 76
0.08789317 0.25309560 0.71886730 83 77 77
0.08875918 0.25202656 0.71583086 88 80 82
0.08961790 0.25096649 0.71281999 90 84 85
0.39491913 0.42849037 1.21704102 139 131 124
0.39349046 0.42467818 1.20621324 137 129 121
0.39487270 0.42392388 1.20407081 135 127 119
0.39625001 0.42317224 1.20193589 132 126 119
0.39762244 0.42242324 1.19980860 127 122 116
0.39899004 0.42167693 1.19768882 123 116 113
0.40106016 0.42167693 1.19768882 115 108 106
0.40313026 0.42167693 1.19768882 109 103 102
0.40448573 0.42093322 1.19557643 106 101 101
0.40441245 0.41871777 1.18928397 101 96 95
0.40718237 0.41945368 1.19137406 91 92 86
0.40852359 0.41871777 1.18928397 94 95 89
0.40842956 0.41652554 1.18305731 93 93 89
0.40904662 0.41507676 1.17894232 93 91 85
0.40965945 0.41363803 1.17485583 112 109 103
0.41026801 0.41220921 1.17079771 108 108 101
0.41016641 0.41008443 1.16476262 111 111 103
0.41076803 0.40868002 1.16077375 114 114 105
0.41206875 0.40798143 1.15878952 115 113 104
0.41478065 0.40868002 1.16077375 112 110 102
0.42370161 0.41149852 1.16877902 116 108 102
0.42280588 0.40868002 1.16077375 119 110 104
0.22387117 0.17972073 0.51046073 141 133 127
0.22441548 0.17945048 0.50969309 142 133 127
0.22462089 0.17891240 0.50816482 142 133 128
0.22499323 0.17851095 0.50702459 141 133 127
0.41445339 0.23467958 0.66656029 122 112 107
0.42810109 0.23843071 0.67721462 105 98 94
0.42841563 0.23795527 0.67586422 87 87 81
0.42872891 0.23748173 0.67451924 83 82 77
0.43032295 0.23771827 0.67519110 86 85 80
0.84542662 0.43081072 1.22363150 86 83 77
0.83846074 0.42619488 1.21052110 88 85 79
0.83311450 0.42242324 1.19980860 94 91 84
0.83815521 0.42392388 1.20407081 102 99 88
0.84023637 0.42392388 1.20407081 108 105 94
0.99779958 0.40589988 1.15287733 130 117 117
0.99471712 0.40383950 1.14702511 125 112 112
0.98833811 0.40045157 1.13740242 120 107 106
0.99196839 0.40112460 1.13931406 114 102 99
0.99226987 0.40045157 1.13740242 107 95 92
0.99257040 0.39978081 1.13549721 104 94 93
0.99286991 0.39911228 1.13359845 102 93 91
0.99649566 0.39978081 1.13549721 96 90 87
0.99845827 0.39978081 1.13549721 86 86 82
0.99708056 0.39844596 1.13170588 87 87 83
1.00238347 0.39978081 1.13549721 86 87 83
1.00434613 0.39978081 1.13549721 83 84 80
1.00294888 0.39844596 1.13170588 75 76 72
1.00156081 0.39712003 1.12793982 72 73 72
1.00018191 0.39580289 1.12419879 71 72 72
1.00378966 0.39646035 1.12606621 69 69 69
-0.77012730 0.55262864 1.56196272 26 25 28
-0.77637196 0.55906951 1.58016741 26 26 28
-0.77364075 0.55906951 1.58016741 28 27 29
-0.76378798 0.55390489 1.56557012 28 27 29
-0.75758278 0.55135822 1.55837202 27 26 28
0.06874209 0.25706410 0.72657216 129 121 116
0.06992296 0.25678888 0.72579426 129 120 119
0.07094955 0.25596672 0.72347051 130 121 120
0.07220001 0.25596672 0.72347051 129 121 118
0.07352895 0.25624019 0.72424340 130 123 111
0.07470093 0.25596672 0.72347051 122 113 102
0.07595139 0.25596672 0.72347051 122 112 102
0.07720185 0.25596672 0.72347051 118 104 99
0.07828521 0.25542152 0.72192955 109 94 94
0.07953301 0.25542152 0.72192955 109 94 95
0.08069487 0.25514981 0.72116154 108 94 94
0.08202861 0.25542152 0.72192955 115 101 101
0.08318781 0.25514981 0.72116154 95 83 83
0.08434455 0.25487867 0.72039515 89 80 79
0.08549883 0.25460809 0.71963042 87 78 78
0.08655888 0.25406867 0.71810579 85 75 76
0.08789317 0.25433809 0.71886730 85 75 78
0.08885301 0.25353152 0.71658754 88 79 83
0.08961790 0.25219855 0.71281999 83 74 79
0.39491913 0.43059394 1.21704102 137 130 119
0.39349046 0.42676303 1.20621324 136 129 119
0.39557531 0.42676303 1.20621324 136 129 118
0.39766014 0.42676303 1.20621324 136 128 121
0.39903495 0.42600501 1.20407081 136 128 122
0.40040490 0.42524967 1.20193589 134 126 122
0.40177000 0.42449704 1.19980860 124 117 113
0.40384376 0.42449704 1.19980860 113 107 107
0.40520036 0.42374703 1.19768882 108 102 102
0.40583643 0.42225495 1.19347155 106 100 100
0.40789923 0.42225495 1.19347155 90 90 86
0.40996206 0.42225495 1.19347155 85 85 81
0.40986013 0.42003646 1.18720114 87 87 83
0.41119197 0.41930214 1.18512559 91 91 86
0.41180050 0.41784114 1.18099630 104 103 97
0.41240481 0.41639030 1.17689562 106 102 97
0.41158077 0.41351867 1.16877902 107 104 98
0.41217962 0.41209763 1.16476262 113 109 101
0.41348237 0.41139078 1.16276479 113 108 101
0.42348233 0.41930214 1.18512559 112 107 100
0.42627597 0.42003646 1.18720114 109 101 95
0.42387393 0.41566867 1.17485583 113 106 100
0.42962751 0.41930214 1.18512559 114 106 100
0.42425880 0.41209763 1.16476262 114 106 100
0.22492284 0.18073912 0.51084542 136 126 121
0.22478941 0.17992559 0.50854599 136 127 122
0.41363993 0.23536882 0.66525203 112 104 98
0.42895815 0.24008089 0.67857039 107 99 89
0.42927158 0.23960122 0.67721462 96 91 82
0.42958379 0.23912345 0.67586422 92 87 79
0.43118185 0.23936209 0.67653877 92 91 82
0.84542662 0.43292567 1.22363150 85 84 81
0.83696616 0.42752373 1.20836341 91 90 88
0.83311450 0.42449704 1.19980860 92 91 88
0.83666915 0.42524967 1.20193589 95 91 87
0.84173143 0.42676303 1.20621324 100 96 91
0.85101449 0.42828718 1.21052110 100 90 80
0.85770160 0.43059394 1.21704102 111 97 89
0.86135155 0.43136838 1.21922994 116 101 93
0.99610549 0.40720004 1.15091991 116 106 106
0.99136227 0.40445331 1.14315653 116 106 106
0.98668259 0.40174341 1.13549721 115 105 105
0.98864520 0.40174341 1.13549721 110 99 99
0.98895127 0.40107161 1.13359845 104 93 92
0.98925632 0.40040204 1.13170588 103 95 95
0.98956037 0.39973471 1.12981975 102 97 96
0.99316847 0.40040204 1.13170588 101 96 95
0.99678862 0.40107161 1.13359845 93 93 90
0.99541879 0.39973471 1.12981975 88 89 86
1.00238347 0.40174341 1.13549721 85 86 83
1.00266659 0.40107161 1.13359845 83 84 81
