ply
format ascii 1.0
element vertex 1059
property float x
property float y
property float z
property uchar red
property uchar green
property uchar blue
end_header
0.21219303 0.08046113 0.49158219 157 156 153
0.21304269 0.08046113 0.49158219 146 145 145
0.21342804 0.08028647 0.49051508 136 136 137
0.21396621 0.08017045 0.48980623 125 125 128
0.21481280 0.08017045 0.48980623 135 135 140
0.21550368 0.08011256 0.48945260 147 147 152
0.21634966 0.08011256 0.48945260 145 145 150
0.21719563 0.08011256 0.48945260 147 149 153
0.21804160 0.08011256 0.48945260 151 155 157
-0.00385096 0.16297613 0.98530793 193 193 193
-0.00215106 0.16321336 0.98674214 193 193 193
-0.00044556 0.16321336 0.98674214 193 193 193
0.00126362 0.16368990 0.98962313 193 194 194
0.00298719 0.16440994 0.99397629 193 193 193
0.00471211 0.16465136 0.99543589 193 194 193
0.00643264 0.16465136 0.99543589 193 193 193
0.00810556 0.16368990 0.98962313 192 193 192
0.00977324 0.16297613 0.98530793 193 193 193
0.01147626 0.16297613 0.98530793 194 194 194
0.01316016 0.16273959 0.98387784 195 195 195
0.01479629 0.16203406 0.97961247 194 194 194
0.16423595 0.09657845 0.58388615 161 161 168
0.16496097 0.09641236 0.58288205 166 166 173
0.16596843 0.09641236 0.58288205 166 167 173
0.16697590 0.09641236 0.58288205 168 169 173
0.16798337 0.09641236 0.58288205 173 173 175
0.16913626 0.09649533 0.58338368 176 176 178
0.16985224 0.09632953 0.58238131 176 176 176
0.17056578 0.09616430 0.58138239 173 173 173
0.17127687 0.09599964 0.58038688 171 171 171
0.17198552 0.09583554 0.57939476 170 170 170
0.17283924 0.09575369 0.57889998 173 174 174
0.17398840 0.09583554 0.57939476 174 175 175
0.17439361 0.09550901 0.57742065 175 176 176
0.17524236 0.09542772 0.57692921 175 176 176
0.17623955 0.09542772 0.57692921 173 173 173
0.18119437 0.09236209 0.55839527 142 142 147
0.18200958 0.09228607 0.55793566 133 133 141
0.21335211 0.08142889 0.49229619 130 129 131
0.21373735 0.08125187 0.49122596 130 129 133
0.21443102 0.08119303 0.49087027 128 128 134
0.21512367 0.08113428 0.49051508 134 134 142
0.21581532 0.08107562 0.49016041 136 136 144
0.21650597 0.08101703 0.48980623 137 137 145
0.84517282 0.14121860 0.85376805 157 160 158
0.84452122 0.14086379 0.85162294 156 160 158
0.84281677 0.14033489 0.84842533 155 161 159
0.84574962 0.14033489 0.84842533 157 163 161
0.84762162 0.14015947 0.84736478 158 164 162
0.85697818 0.14121860 0.85376805 165 169 168
-0.00385657 0.16491885 0.98674214 193 193 193
-0.00215420 0.16515927 0.98818052 194 194 194
-0.00044621 0.16515927 0.98818052 194 194 194
0.00126547 0.16564219 0.99106997 193 193 193
0.00298719 0.16612794 0.99397629 193 193 193
0.00471211 0.16637188 0.99543589 194 194 194
0.00642320 0.16612794 0.99397629 194 194 194
0.00811741 0.16564219 0.99106997 194 194 194
0.00978746 0.16491885 0.98674214 194 194 194
0.01149297 0.16491885 0.98674214 195 195 195
0.01317929 0.16467915 0.98530793 194 194 194
0.01481770 0.16396420 0.98103017 194 194 193
0.01646568 0.16349100 0.97819889 194 194 192
0.01813025 0.16325541 0.97678941 193 193 191
0.16336745 0.09767177 0.58438951 158 159 161
0.16423595 0.09758765 0.58388615 159 160 163
0.16496097 0.09741983 0.58288205 162 163 166
0.16596843 0.09741983 0.58288205 168 169 171
0.16697590 0.09741983 0.58288205 171 171 173
0.16798337 0.09741983 0.58288205 174 174 175
0.16913626 0.09750366 0.58338368 178 178 178
0.16985224 0.09733613 0.58238131 176 176 174
0.17056578 0.09716918 0.58138239 171 171 169
0.17113034 0.09691981 0.57989037 167 167 164
0.17183866 0.09675428 0.57889998 166 166 165
0.17269176 0.09667172 0.57840604 169 169 169
0.17369148 0.09667172 0.57840604 170 170 170
0.17424519 0.09642490 0.57692921 168 168 169
0.17494459 0.09626105 0.57594889 165 165 166
0.17792003 0.09363575 0.56024116 161 160 165
0.17844594 0.09340417 0.55885559 157 156 160
0.17941187 0.09340417 0.55885559 150 150 154
0.18052663 0.09348124 0.55931669 154 155 159
0.18134373 0.09340417 0.55885559 143 144 149
0.18215950 0.09332723 0.55839527 138 138 143
0.18267323 0.09309717 0.55701876 153 153 158
0.21581532 0.08192281 0.49016041 114 113 124
0.84623861 0.14287423 0.85484469 163 164 163
0.84558350 0.14251480 0.85269415 162 164 162
0.84387290 0.14197902 0.84948850 157 162 160
0.84428316 0.14180133 0.84842533 155 160 159
0.84574962 0.14180133 0.84842533 154 160 158
0.84721607 0.14180133 0.84842533 154 161 158
0.84868246 0.14180133 0.84842533 154 161 158
0.85335296 0.14233574 0.85162294 155 162 158
0.85697818 0.14269428 0.85376805 157 164 160
0.85415083 0.14197902 0.84948850 159 165 162
-0.00386219 0.16686726 0.98818052 193 193 193
-0.00215420 0.16686726 0.98818052 194 194 194
-0.00044621 0.16686726 0.98818052 194 194 194
0.00126362 0.16711086 0.98962313 194 194 194
0.00298282 0.16760020 0.99252099 194 194 194
0.00470520 0.16784595 0.99397629 194 194 194
0.00642320 0.16784595 0.99397629 194 194 194
0.00810556 0.16711086 0.98962313 194 194 194
0.00977324 0.16638218 0.98530793 194 194 194
0.01319847 0.16662437 0.98674214 193 193 193
0.01481770 0.16565983 0.98103017 194 194 194
0.01646568 0.16518173 0.97819889 195 195 194
0.01810416 0.16470638 0.97538394 186 186 186
0.16350842 0.09876699 0.58489376 162 162 160
0.16423595 0.09859685 0.58388615 162 162 161
0.16496097 0.09842729 0.58288205 165 165 164
0.16582586 0.09834273 0.58238131 171 171 171
0.16683245 0.09834273 0.58238131 168 168 168
0.16783905 0.09834273 0.58238131 164 164 164
0.16899084 0.09842729 0.58288205 163 163 163
0.16970645 0.09825832 0.58188140 163 163 159
0.16998264 0.09783841 0.57939476 163 162 158
0.17069229 0.09767145 0.57840604 163 162 158
0.17139953 0.09750506 0.57742065 163 162 160
0.17225084 0.09742207 0.57692921 163 163 162
0.17339559 0.09750506 0.57742065 166 166 166
0.17394911 0.09725653 0.57594889 163 163 163
0.17449981 0.09700927 0.57448459 161 161 161
0.17489989 0.09668154 0.57254380 157 157 159
0.17717837 0.09684513 0.57351255 153 153 161
0.17637898 0.09587181 0.56774861 154 153 162
0.17603341 0.09515456 0.56350112 153 153 162
0.17671359 0.09499663 0.56256586 152 152 161
0.17806719 0.09468233 0.56070459 155 155 162
0.17859316 0.09444797 0.55931669 158 157 164
0.17970817 0.09452596 0.55977857 159 159 164
0.18067570 0.09452596 0.55977857 161 162 166
0.18134373 0.09437010 0.55885559 159 160 164
0.18215950 0.09429237 0.55839527 159 160 162
0.18267323 0.09405993 0.55701876 167 168 170
0.84730709 0.14453401 0.85592407 166 167 166
0.84664845 0.14416994 0.85376805 164 166 165
0.84493172 0.14362727 0.85055441 156 163 160
0.84640181 0.14362727 0.85055441 152 161 157
0.84893709 0.14380771 0.85162294 151 160 156
0.85147876 0.14398859 0.85269415 152 161 156
0.85402685 0.14416994 0.85376805 151 160 155
0.85914224 0.14453401 0.85592407 148 158 149
-0.00215420 0.16857524 0.98818052 194 194 194
-0.00044556 0.16832986 0.98674214 193 193 193
0.00126178 0.16857524 0.98818052 193 193 193
0.00297846 0.16906816 0.99106997 192 192 192
0.00469831 0.16931570 0.99252099 193 193 193
0.00641380 0.16931570 0.99252099 193 193 193
0.00809374 0.16857524 0.98818052 193 193 193
0.00974491 0.16759799 0.98245192 194 194 194
0.01479629 0.16711362 0.97961247 195 195 194
0.01644195 0.16663201 0.97678941 195 195 194
0.01807815 0.16615319 0.97398251 183 183 183
0.16061416 0.09986410 0.58539885 173 173 172
0.16134731 0.09969191 0.58438951 171 171 169
0.16336745 0.09969191 0.58438951 165 165 163
0.16423595 0.09960604 0.58388615 166 166 164
0.16481926 0.09934933 0.58238131 165 165 165
0.16568351 0.09926405 0.58188140 159 159 159
0.16668925 0.09926405 0.58188140 157 153 154
0.16755116 0.09917892 0.58138239 153 149 150
0.16870071 0.09926405 0.58188140 149 146 147
0.16941561 0.09909393 0.58088416 156 156 156
0.16983749 0.09875544 0.57889998 163 163 162
0.17054678 0.09858706 0.57791293 169 169 167
0.17139953 0.09850308 0.57742065 172 171 169
0.17225084 0.09841925 0.57692921 159 158 157
0.17324802 0.09841925 0.57692921 147 146 146
0.17394911 0.09825201 0.57594889 145 145 146
0.17435206 0.09791923 0.57399815 151 151 153
0.17475230 0.09758871 0.57206064 150 151 153
0.17559287 0.09750643 0.57157826 149 150 155
0.17687908 0.09767113 0.57254380 151 152 158
0.17637898 0.09685311 0.56774861 153 153 160
0.17632656 0.09628861 0.56443948 153 153 161
0.17686036 0.09604868 0.56303310 153 153 162
0.17806719 0.09565146 0.56070459 158 159 165
0.17844594 0.09533604 0.55885559 159 160 166
0.17955990 0.09541470 0.55931669 163 164 169
0.18052663 0.09541470 0.55931669 168 169 173
0.18134373 0.09533604 0.55885559 169 170 173
0.18185990 0.09510083 0.55747682 165 166 169
0.18237352 0.09486679 0.55610490 163 163 165
0.28911424 0.12474932 0.73127490 147 148 150
0.29163659 0.12528995 0.73444402 149 150 153
0.30730611 0.12920962 0.75742108 149 152 157
0.84032851 0.14582928 0.85484469 162 163 159
0.83863336 0.14527968 0.85162294 160 161 157
0.84116209 0.14546241 0.85269415 161 162 158
0.84476107 0.14582928 0.85484469 163 164 161
0.84837830 0.14619800 0.85700613 164 165 162
0.84664845 0.14564562 0.85376805 163 164 161
0.84599316 0.14527968 0.85162294 159 164 160
0.84853113 0.14546241 0.85269415 158 165 161
0.85322469 0.14601341 0.85592407 159 166 162
0.85578460 0.14619800 0.85700613 158 166 161
0.85726589 0.14619800 0.85700613 156 165 160
0.86201650 0.14675459 0.86026883 154 163 158
0.86350340 0.14675459 0.86026883 154 164 155
-0.17912979 0.10018379 0.58138239 127 128 135
-0.17706195 0.09958594 0.57791293 121 126 133
-0.00044621 0.17028324 0.98818052 191 192 192
0.00126178 0.17028324 0.98818052 191 192 192
0.00297411 0.17053182 0.98962313 191 192 192
0.00469831 0.17103119 0.99252099 192 192 192
0.00641380 0.17103119 0.99252099 192 193 193
0.00809374 0.17028324 0.98818052 193 194 194
0.00974491 0.16929609 0.98245192 195 195 195
0.01145961 0.16954181 0.98387784 193 193 193
0.01479629 0.16880679 0.97961247 196 196 194
0.01644195 0.16832031 0.97678941 192 192 190
0.16075298 0.10096309 0.58590478 172 172 172
0.16134731 0.10070198 0.58438951 166 166 166
0.16336745 0.10070198 0.58438951 151 151 150
0.16423595 0.10061525 0.58388615 140 140 141
0.16481926 0.10035593 0.58238131 141 139 141
0.16568351 0.10026979 0.58188140 132 129 132
0.16654629 0.10018379 0.58138239 124 116 122
0.16755116 0.10018379 0.58138239 125 119 124
0.16855603 0.10018379 0.58138239 140 135 140
0.16927056 0.10001224 0.58038688 153 153 153
0.16969258 0.09967090 0.57840604 162 162 162
0.17054678 0.09958594 0.57791293 161 161 161
0.17139953 0.09950111 0.57742065 156 153 154
0.17339559 0.09950111 0.57742065 128 126 127
0.17394911 0.09924749 0.57594889 134 133 134
0.17435206 0.09891135 0.57399815 144 144 145
0.17445785 0.09841137 0.57109678 146 147 149
0.17637898 0.09783442 0.56774861 153 154 161
0.17603341 0.09710249 0.56350112 153 155 161
0.17671359 0.09694133 0.56256586 155 156 164
0.17709805 0.09662060 0.56070459 158 160 165
0.17806719 0.09662060 0.56070459 161 163 167
0.17829894 0.09622265 0.55839527 163 165 169
0.17941187 0.09630198 0.55885559 166 168 171
0.18052663 0.09638143 0.55931669 171 171 174
0.18119437 0.09622265 0.55839527 173 174 176
0.18156128 0.09590665 0.55656147 169 170 172
0.18222404 0.09574942 0.55564904 163 163 165
0.29068208 0.12669663 0.73524064 156 157 158
0.29195288 0.12669663 0.73524064 156 157 158
0.30737069 0.13110471 0.76082134 140 146 148
0.30799437 0.13081108 0.75911742 146 152 154
0.30861527 0.13051876 0.75742108 154 160 160
0.84032851 0.14730681 0.85484469 163 163 161
0.83863336 0.14675163 0.85162294 162 163 159
0.84116209 0.14693622 0.85269415 163 164 160
0.84476107 0.14730681 0.85484469 165 166 162
0.84730709 0.14749280 0.85592407 166 167 164
0.84664845 0.14712128 0.85376805 168 169 166
0.84493172 0.14656751 0.85055441 169 170 168
0.84746516 0.14675163 0.85162294 169 172 169
0.85322469 0.14749280 0.85592407 168 171 168
0.85470408 0.14749280 0.85592407 165 170 166
0.85618347 0.14749280 0.85592407 162 169 164
0.85983413 0.14786620 0.85809094 160 167 162
0.86131728 0.14786620 0.85809094 159 167 159
-0.17661026 0.10032821 0.57643867 117 122 131
-0.17233187 0.10015788 0.57545996 125 129 136
-0.17133723 0.10015788 0.57545996 125 129 136
-0.17034259 0.10015788 0.57545996 116 121 128
-0.16920432 0.10007293 0.57497185 112 117 124
-0.00044556 0.17174087 0.98674214 192 192 192
0.00125994 0.17174087 0.98674214 192 192 192
0.00297411 0.17224231 0.98962313 192 192 192
0.00469831 0.17274667 0.99252099 193 193 193
0.00640442 0.17249413 0.99106997 193 193 193
0.00808196 0.17174087 0.98674214 194 194 194
0.00974491 0.17099418 0.98245192 195 195 195
0.01481770 0.17074671 0.98103017 196 196 194
0.01646568 0.17025395 0.97819889 186 186 185
0.01813025 0.17000861 0.97678941 160 160 160
0.25320652 0.29060587 1.66968429 174 174 174
0.16029447 0.10232956 0.58793741 169 169 171
0.16089204 0.10206400 0.58641165 172 172 173
0.16148652 0.10179981 0.58489376 168 168 169
0.16221754 0.10162444 0.58388615 161 161 162
0.16336745 0.10171206 0.58438951 152 152 153
0.16423595 0.10162444 0.58388615 140 140 142
0.16481926 0.10136253 0.58238131 148 148 151
0.16554141 0.10118866 0.58138239 143 142 147
0.16640358 0.10110196 0.58088416 140 138 145
0.16740759 0.10110196 0.58088416 137 136 143
0.16841160 0.10110196 0.58088416 148 149 156
0.16927056 0.10101540 0.58038688 158 158 160
0.16969258 0.10067064 0.57840604 162 163 164
0.17054678 0.10058481 0.57791293 161 162 162
0.17608404 0.09865049 0.56679922 155 158 164
0.17603341 0.09807646 0.56350112 158 161 167
0.17671359 0.09791368 0.56256586 160 163 169
0.17709805 0.09758973 0.56070459 164 166 169
0.17806719 0.09758973 0.56070459 164 165 167
0.17829894 0.09718779 0.55839527 166 167 170
0.17911653 0.09710781 0.55793566 169 170 172
0.18134373 0.09726792 0.55885559 171 171 173
0.18156128 0.09686862 0.55656147 171 170 172
0.18222404 0.09670982 0.55564904 163 162 164
0.29068208 0.12796745 0.73524064 161 162 162
0.29195288 0.12796745 0.73524064 162 163 163
0.29936486 0.13008377 0.74740005 134 138 139
0.30525967 0.13095003 0.75237721 141 145 147
0.84032851 0.14878434 0.85484469 168 169 168
0.83758116 0.14803761 0.85055441 167 170 166
0.84010535 0.14822359 0.85162294 167 170 166
0.84369713 0.14859696 0.85376805 167 169 166
0.84623861 0.14878434 0.85484469 167 168 166
0.84558350 0.14841004 0.85269415 165 166 164
0.84493172 0.14803761 0.85055441 163 164 162
0.84640181 0.14803761 0.85055441 163 164 161
0.85214871 0.14878434 0.85484469 162 163 160
0.85470408 0.14897220 0.85592407 162 164 160
0.85618347 0.14897220 0.85592407 163 166 161
0.85874712 0.14916053 0.85700613 162 165 160
0.86131728 0.14934935 0.85809094 162 165 160
-0.17730504 0.10115252 0.57545996 118 122 130
-0.17616086 0.10106672 0.57497185 118 123 130
-0.17457479 0.10072499 0.57302779 119 123 130
-0.17387833 0.10089556 0.57399815 120 123 130
-0.17288621 0.10089556 0.57399815 124 126 131
-0.17203978 0.10098107 0.57448459 126 127 132
-0.17104682 0.10098107 0.57448459 125 125 132
-0.16990988 0.10089556 0.57399815 116 120 126
-0.16877486 0.10081021 0.57351255 109 114 120
-0.16792567 0.10089556 0.57399815 106 112 118
-0.00044556 0.17344637 0.98674214 193 193 193
0.00125994 0.17344637 0.98674214 192 192 192
0.00469831 0.17446217 0.99252099 192 192 192
0.00639507 0.17395279 0.98962313 193 193 193
0.00807021 0.17319427 0.98530793 194 194 194
0.00975905 0.17294291 0.98387784 195 195 195
0.01147626 0.17319427 0.98530793 195 195 195
0.01317929 0.17319427 0.98530793 194 194 194
0.01483918 0.17269227 0.98245192 197 197 196
0.01651333 0.17244235 0.98103017 181 181 181
0.01815641 0.17194468 0.97819889 155 155 155
0.01990459 0.17244235 0.98103017 125 125 135
0.23356129 0.30166498 1.71618187 157 157 159
0.24494055 0.30475107 1.73373878 163 163 163
0.24542643 0.30166498 1.71618187 160 160 160
0.25599536 0.30014524 1.70753610 167 167 167
0.25383171 0.29421645 1.67380702 167 166 166
0.25421399 0.29133904 1.65743732 169 169 168
0.16057301 0.10352533 0.58895904 168 172 174
0.16103135 0.10316680 0.58691937 170 173 174
0.16148652 0.10281076 0.58489376 171 172 174
0.16235739 0.10272212 0.58438951 167 168 170
0.16350842 0.10281076 0.58489376 165 166 168
0.16423595 0.10263365 0.58388615 161 162 164
0.16467778 0.10228126 0.58188140 167 168 170
0.16539957 0.10210597 0.58088416 170 171 173
0.16611888 0.10193127 0.57989037 161 162 164
0.16697833 0.10184415 0.57939476 166 167 169
0.16812347 0.10193127 0.57989037 170 174 173
0.16898121 0.10184415 0.57939476 172 173 173
0.16954792 0.10158368 0.57791293 172 173 173
0.17579007 0.09946383 0.56585294 153 156 160
0.17806719 0.09855886 0.56070459 167 168 170
0.17829894 0.09815294 0.55839527 167 168 170
0.17911653 0.09807215 0.55793566 168 168 170
0.18134373 0.09823385 0.55885559 169 168 170
0.18185990 0.09799150 0.55747682 167 166 168
0.18237352 0.09775034 0.55610490 162 161 164
0.28909773 0.12909822 0.73444402 167 168 169
0.29068208 0.12923825 0.73524064 168 169 169
0.29195288 0.12923825 0.73524064 169 171 171
0.29450136 0.12980138 0.73844427 166 168 168
0.29805040 0.13079876 0.74411839 143 146 146
0.29868084 0.13051222 0.74248832 121 124 125
0.30424666 0.13181157 0.74988037 116 121 126
0.30486828 0.13152060 0.74822497 130 135 141
0.30348176 0.13036944 0.74167597 137 140 145
0.30343574 0.12980138 0.73844427 142 143 146
0.30571115 0.13022695 0.74086541 153 154 155
0.30598843 0.12980138 0.73844427 154 155 155
0.83444023 0.14894708 0.84736478 173 177 174
0.83905125 0.14950773 0.85055441 173 177 174
0.84263587 0.14988385 0.85269415 172 176 173
0.84517282 0.15007262 0.85376805 172 173 171
0.84452122 0.14969556 0.85162294 169 170 168
0.84387290 0.14932038 0.84948850 166 167 164
0.84746516 0.14969556 0.85162294 162 163 160
0.85322469 0.15045160 0.85592407 159 160 157
0.85578460 0.15064180 0.85700613 158 159 156
0.85726589 0.15064180 0.85700613 160 161 157
0.85983413 0.15083249 0.85809094 163 164 160
-0.17700453 0.10197402 0.57448459 114 121 127
-0.17571375 0.10180148 0.57351255 116 123 129
-0.17398649 0.10137266 0.57109678 117 123 127
-0.17244816 0.10162951 0.57254380 121 125 128
-0.17174867 0.10180148 0.57351255 121 125 128
-0.16962263 0.10171542 0.57302779 108 114 116
-0.16834758 0.10154375 0.57206064 102 109 111
0.01656127 0.17464346 0.98387784 173 173 173
0.01820896 0.17413798 0.98103017 148 148 148
0.22523266 0.30540442 1.72053766 135 134 143
0.22762874 0.30463126 1.71618187 137 136 143
0.23356129 0.30463126 1.71618187 142 141 148
0.23593029 0.30386198 1.71184814 146 146 149
0.24071266 0.30618152 1.72491562 140 141 143
0.24431570 0.30696261 1.72931588 143 143 144
0.24419002 0.30309659 1.70753610 149 149 150
0.24285920 0.29784492 1.67795014 155 155 155
0.25009269 0.30309659 1.70753610 159 159 159
0.25258437 0.29564950 1.66558194 162 162 162
0.25297695 0.29277211 1.64937186 162 162 162
0.16071263 0.10463421 0.58947116 169 173 174
0.16117088 0.10427153 0.58742791 170 174 175
0.16148652 0.10382169 0.58489376 169 173 174
0.16235739 0.10373219 0.58438951 169 173 174
0.16350842 0.10382169 0.58489376 169 173 175
0.16409460 0.10355365 0.58338368 169 173 174
0.16453655 0.10319841 0.58138239 168 172 173
0.16525796 0.10302170 0.58038688 170 174 173
0.16583516 0.10275777 0.57889998 173 175 175
0.16669339 0.10267009 0.57840604 177 178 178
0.16783632 0.10275777 0.57889998 178 179 179
0.16883691 0.10275777 0.57889998 176 176 176
0.28941128 0.13050905 0.73524064 166 167 169
0.29131401 0.13079277 0.73683894 169 170 172
0.29195288 0.13050905 0.73524064 170 171 173
0.29514438 0.13136391 0.74005657 173 174 174
0.29805040 0.13208491 0.74411839 161 162 163
0.29900834 0.13194007 0.74330246 138 139 139
0.30328605 0.13325508 0.75071079 119 124 127
0.30458358 0.13325508 0.75071079 112 120 123
0.30520514 0.13296060 0.74905175 116 124 132
0.30481574 0.13223004 0.74493611 116 122 129
0.30409828 0.13136391 0.74005657 121 126 129
0.30806795 0.13252130 0.74657691 136 139 141
0.30732754 0.13165136 0.74167597 142 143 144
0.30693042 0.13093509 0.73764074 152 153 153
0.83799982 0.15078865 0.84948850 171 175 172
0.84263587 0.15135767 0.85269415 172 176 173
0.84623861 0.15173940 0.85484469 173 175 172
0.84558350 0.15135767 0.85269415 174 175 173
0.84493172 0.15097785 0.85055441 175 176 174
0.84853113 0.15135767 0.85269415 172 173 170
0.85646886 0.15250868 0.85917848 169 170 167
0.86122853 0.15309076 0.86245781 165 166 163
0.86052954 0.15270221 0.86026883 162 163 159
0.86201650 0.15270221 0.86026883 162 163 159
-0.17640653 0.10261911 0.57254380 119 127 133
-0.17497359 0.10235975 0.57109678 118 126 130
-0.17354788 0.10210170 0.56965703 120 127 130
-0.17186752 0.10227359 0.57061601 121 125 126
-0.16919357 0.10244606 0.57157826 95 103 106
0.22225885 0.30837822 1.72053766 142 142 149
0.22580577 0.30916291 1.72491562 124 125 133
0.22878715 0.30916291 1.72491562 111 114 122
0.23059502 0.30759752 1.71618187 108 111 118
0.23415409 0.30837822 1.72053766 120 124 131
0.23712790 0.30837822 1.72053766 127 128 132
0.24132672 0.30995160 1.72931588 128 129 132
0.24431570 0.30995160 1.72931588 129 129 131
0.24480666 0.30682078 1.71184814 140 140 144
0.24528779 0.30375257 1.69472957 152 152 155
0.25072426 0.30682078 1.71184814 159 159 161
0.25421399 0.29706851 1.65743732 160 160 160
0.25707874 0.29706851 1.65743732 157 157 158
0.16085251 0.10574502 0.58998418 168 172 174
0.16131067 0.10537817 0.58793741 169 173 175
0.16162598 0.10492317 0.58539885 169 173 175
0.16249748 0.10483263 0.58489376 168 172 174
0.16364960 0.10492317 0.58539885 168 172 174
0.16423595 0.10465205 0.58388615 169 172 173
0.16496097 0.10447208 0.58288205 169 171 173
0.16898121 0.10384703 0.57939476 165 165 165
0.28972551 0.13192293 0.73603892 162 163 165
0.29131401 0.13206632 0.73683894 165 166 167
0.29226989 0.13192293 0.73603892 166 167 167
0.29546693 0.13278800 0.74086541 167 168 168
0.29837793 0.13351761 0.74493611 173 174 174
0.29966551 0.13351761 0.74493611 166 167 167
0.30328605 0.13455263 0.75071079 153 155 154
0.30458358 0.13455263 0.75071079 140 144 143
0.30520514 0.13425528 0.74905175 129 135 136
0.30448115 0.13337104 0.74411839 122 128 130
0.30376664 0.13249838 0.73924953 120 123 131
0.30840760 0.13395923 0.74740005 122 124 132
0.30766416 0.13307889 0.74248832 126 126 135
0.30693042 0.13221003 0.73764074 130 131 136
0.84664845 0.15302396 0.85376805 168 170 165
0.84705734 0.15283148 0.85269415 169 170 165
0.86413544 0.15537216 0.86686939 172 173 169
0.86785334 0.15577054 0.86909211 171 172 168
0.86713213 0.15537216 0.86686939 166 167 163
0.86863041 0.15537216 0.86686939 163 164 160
-0.17739613 0.10360871 0.57254380 119 127 133
-0.17610906 0.10343398 0.57157826 120 128 134
-0.17482631 0.10325985 0.57061601 123 131 137
-0.17354788 0.10308631 0.56965703 125 132 136
-0.17256327 0.10308631 0.56965703 124 129 132
-0.17172298 0.10317301 0.57013613 119 123 125
-0.17088126 0.10325985 0.57061601 106 110 114
-0.16989499 0.10325985 0.57061601 85 88 96
-0.16905104 0.10334685 0.57109678 87 89 96
0.22282439 0.31214428 1.72491562 173 174 174
0.22638181 0.31294057 1.72931588 160 164 167
0.22878715 0.31214428 1.72491562 130 134 142
0.23118028 0.31135204 1.72053766 98 102 114
0.23474991 0.31214428 1.72491562 116 120 131
0.23773128 0.31214428 1.72491562 127 128 136
0.24132672 0.31294057 1.72931588 129 129 135
0.24494055 0.31374094 1.73373878 132 133 137
0.24542643 0.31056380 1.71618187 142 141 147
0.24714136 0.30899927 1.70753610 150 149 155
0.25199696 0.31135204 1.72053766 156 156 159
0.25497076 0.31135204 1.72053766 156 156 156
0.25729156 0.31056380 1.71618187 155 155 155
0.25572598 0.30515599 1.68629813 153 153 153
0.25609243 0.30214953 1.66968429 152 152 152
0.25897834 0.30214953 1.66968429 145 145 147
0.16131067 0.10639437 0.58793741 164 167 172
0.16162598 0.10593498 0.58539885 167 171 175
0.29004043 0.13333990 0.73683894 159 160 162
0.29163098 0.13348499 0.73764074 160 161 163
0.29258758 0.13333990 0.73683894 161 162 163
0.29873177 0.13554995 0.74905175 160 161 161
0.29936486 0.13525106 0.74740005 165 166 165
0.30098853 0.13540034 0.74822497 164 165 163
0.30362228 0.13600078 0.75154305 161 163 161
0.30458358 0.13585018 0.75071079 154 157 154
0.30554277 0.13569990 0.74988037 138 141 141
0.30515108 0.13495347 0.74575561 115 118 120
0.30443060 0.13406853 0.74086541 109 109 118
0.30806795 0.13510209 0.74657691 108 108 117
0.30800152 0.13450955 0.74330246 109 109 118
0.30726478 0.13363039 0.73844427 126 126 133
0.41390112 0.14314201 0.79100567 154 153 154
0.84771615 0.15469445 0.85484469 171 173 166
0.84812415 0.15449964 0.85376805 167 169 162
0.86896741 0.15747459 0.87020773 171 172 167
0.86935550 0.15727270 0.86909211 169 170 166
-0.17754608 0.10468671 0.57302779 118 125 132
-0.17610906 0.10442191 0.57157826 122 129 135
-0.17482631 0.10424612 0.57061601 124 130 136
-0.17354788 0.10407092 0.56965703 124 129 133
-0.17256327 0.10407092 0.56965703 122 126 129
-0.17172298 0.10415844 0.57013613 110 113 121
-0.17073753 0.10415844 0.57013613 98 101 109
-0.16975211 0.10415844 0.57013613 85 88 96
-0.16890873 0.10424612 0.57061601 81 82 91
-0.16778123 0.10415844 0.57013613 80 82 90
-0.16679581 0.10415844 0.57013613 80 80 89
0.22153412 0.31754971 1.73818421 180 181 178
0.22282439 0.31512567 1.72491562 181 182 175
0.22696079 0.31673756 1.73373878 176 179 176
0.22937079 0.31592956 1.72931588 154 158 158
0.23176853 0.31512567 1.72491562 121 126 128
0.23534876 0.31592956 1.72931588 112 115 122
0.23773128 0.31512567 1.72491562 120 122 129
0.24132672 0.31592956 1.72931588 125 127 134
0.24431570 0.31592956 1.72931588 128 130 136
0.24542643 0.31353009 1.71618187 133 133 140
0.24776545 0.31273836 1.71184814 138 137 144
0.25199696 0.31432587 1.72053766 148 145 149
0.25497076 0.31432587 1.72053766 148 148 148
0.25794458 0.31432587 1.72053766 142 142 142
0.25700462 0.30961096 1.69472957 141 141 141
0.25736022 0.30654553 1.67795014 137 137 139
0.25961781 0.30578861 1.67380702 124 124 128
0.29161966 0.13594334 0.74411839 168 169 171
0.29130700 0.13520129 0.74005657 158 159 161
0.29290590 0.13534905 0.74086541 158 159 161
0.29418641 0.13534905 0.74086541 160 161 162
0.29939342 0.13714771 0.75071079 156 157 157
0.30035833 0.13699600 0.74988037 154 155 155
0.30165443 0.13699600 0.74988037 143 144 143
0.30429700 0.13760488 0.75321317 137 138 137
0.30492124 0.13729976 0.75154305 141 142 142
0.30588111 0.13714771 0.75071079 135 136 138
0.30582395 0.13654287 0.74740005 111 112 116
0.30543202 0.13579428 0.74330246 108 108 116
0.30840760 0.13654287 0.74740005 107 107 115
0.30867845 0.13609274 0.74493611 115 117 123
0.30793566 0.13520129 0.74005657 135 138 141
0.41157344 0.14417274 0.78916395 139 137 146
0.41390112 0.14450920 0.79100567 142 140 146
0.41623971 0.14484723 0.79285598 143 141 146
0.41858926 0.14518686 0.79471493 141 139 141
0.42045575 0.14535727 0.79564768 142 140 142
0.42458141 0.14535727 0.79564768 168 168 169
0.84558350 0.15577911 0.85269415 168 172 165
0.84599316 0.15558340 0.85162294 165 169 161
0.86785334 0.15877485 0.86909211 169 171 164
0.86713213 0.15836878 0.86686939 169 170 164
-0.17784676 0.10585611 0.57399815 115 119 125
-0.17625767 0.10549879 0.57206064 119 122 128
-0.17482631 0.10523238 0.57061601 113 116 122
-0.17340216 0.10496731 0.56917870 111 115 119
-0.17256327 0.10505552 0.56965703 108 113 116
-0.17172298 0.10514387 0.57013613 96 100 107
-0.17073753 0.10514387 0.57013613 90 94 100
0.22267605 0.32220635 1.74714386 167 167 165
0.22339283 0.31891853 1.72931588 174 175 168
0.22754274 0.32055402 1.73818421 180 181 174
0.22995742 0.31973419 1.73373878 166 167 162
0.23235978 0.31891853 1.72931588 140 142 140
0.23595068 0.31973419 1.73373878 109 113 116
0.23833774 0.31891853 1.72931588 111 115 121
0.24132672 0.31891853 1.72931588 120 123 131
0.24494055 0.31973419 1.73373878 121 121 130
0.24604933 0.31729966 1.72053766 112 112 120
0.24902314 0.31729966 1.72053766 126 126 133
0.25263816 0.31810704 1.72491562 138 138 142
0.25561956 0.31810704 1.72491562 143 143 145
0.25860092 0.31810704 1.72491562 149 149 150
0.29160815 0.13844526 0.75071079 175 175 177
0.29225838 0.13813931 0.74905175 176 177 179
0.29258317 0.13768290 0.74657691 172 173 175
0.29290581 0.13722949 0.74411839 158 159 159
0.29419196 0.13722949 0.74411839 168 169 169
0.29547811 0.13722949 0.74411839 173 174 174
0.29972532 0.13859874 0.75154305 170 171 171
0.30069095 0.13844526 0.75071079 156 157 157
0.30198848 0.13844526 0.75071079 138 138 138
0.30463547 0.13906126 0.75405097 122 122 123
0.30525967 0.13875258 0.75237721 111 112 114
0.30588111 0.13844526 0.75071079 122 123 127
0.30616152 0.13798682 0.74822497 122 122 129
0.30543202 0.13707902 0.74330246 121 121 128
0.30739087 0.13738029 0.74493611 113 113 120
0.30732754 0.13677907 0.74167597 115 116 120
0.30726478 0.13618308 0.73844427 136 138 140
0.41205314 0.14570637 0.79008371 135 134 141
0.41438466 0.14604680 0.79192972 139 138 145
0.41672710 0.14638884 0.79378438 135 134 141
0.41809911 0.14638884 0.79378438 141 140 144
0.41996285 0.14656046 0.79471493 156 155 157
0.42470163 0.14725097 0.79845917 165 168 169
0.42458141 0.14673248 0.79564768 169 173 171
0.42583540 0.14436035 0.78278506 164 165 163
0.42522427 0.14369664 0.77918601 168 169 167
0.84240460 0.15666173 0.84948850 159 163 159
0.84071231 0.15607499 0.84630692 158 162 158
0.84534115 0.15666173 0.84948850 158 163 158
0.86271924 0.15905352 0.86245781 166 171 165
-0.41662997 0.20652659 1.10947931 111 116 121
-0.41645697 0.21031292 1.12981975 118 122 125
-0.41175911 0.20892012 1.12233746 114 118 121
-0.40645453 0.20720485 1.11312294 114 118 121
-0.17325670 0.10586221 0.56870121 94 100 105
-0.17256327 0.10604013 0.56965703 96 103 106
-0.17157868 0.10604013 0.56965703 95 103 105
-0.17045082 0.10595109 0.56917870 93 101 103
-0.16932487 0.10586221 0.56870121 91 99 103
-0.16848327 0.10595109 0.56917870 92 97 104
0.22310635 0.33033442 1.77458596 142 144 148
0.22267605 0.32522616 1.74714386 157 158 161
0.22396417 0.32273081 1.73373878 163 164 163
0.22812769 0.32439011 1.74265254 172 173 167
0.22995742 0.32273081 1.73373878 168 169 163
0.23295404 0.32273081 1.73373878 149 149 145
0.23595068 0.32273081 1.73373878 117 118 120
0.23833774 0.32190752 1.72931588 106 108 112
0.24132672 0.32190752 1.72931588 117 122 127
0.24494055 0.32273081 1.73373878 120 125 137
0.24604933 0.32027349 1.72053766 113 116 126
0.24902314 0.32027349 1.72053766 114 116 125
0.25328267 0.32190752 1.72931588 124 124 133
0.25627163 0.32190752 1.72931588 137 137 139
0.29193145 0.13989772 0.75154305 173 174 176
0.29258168 0.13958822 0.74988037 173 174 176
0.29258317 0.13897330 0.74657691 172 173 175
0.29355028 0.13882041 0.74575561 165 166 167
0.29483926 0.13882041 0.74575561 169 170 170
0.29580283 0.13866785 0.74493611 166 167 167
0.29972532 0.13989772 0.75154305 165 166 166
0.30035833 0.13958822 0.74988037 159 160 160
0.30198848 0.13974281 0.75071079 146 147 147
0.30463547 0.14036457 0.75405097 138 139 139
0.30525967 0.14005299 0.75237721 132 133 134
0.30588111 0.13974281 0.75071079 130 131 134
0.30616152 0.13928008 0.74822497 128 128 135
0.30576730 0.13851564 0.74411839 126 126 133
0.30671677 0.13836376 0.74330246 124 124 131
0.30665654 0.13775955 0.74005657 116 116 121
0.30693042 0.13730985 0.73764074 130 131 135
0.41020945 0.14690076 0.78916395 135 138 137
0.41157344 0.14690076 0.78916395 138 139 141
0.41341874 0.14707197 0.79008371 136 137 139
0.41575345 0.14741559 0.79192972 140 141 143
0.41712224 0.14741559 0.79192972 151 153 155
0.41849104 0.14741559 0.79192972 157 161 162
0.41936988 0.14724357 0.79100567 160 164 164
0.42320618 0.14810769 0.79564768 164 168 167
0.42408365 0.14793405 0.79471493 166 170 168
0.42347145 0.14724357 0.79100567 166 170 167
0.42794153 0.14690076 0.78916395 163 164 162
0.42731568 0.14621986 0.78550619 164 165 163
0.42571360 0.14521030 0.78008264 164 165 163
0.42608130 0.14487687 0.77829146 166 167 166
0.83446169 0.15636648 0.84001470 140 144 142
-0.42482758 0.20776416 1.10585940 97 109 113
-0.42222741 0.20742579 1.10405838 95 108 112
-0.41895446 0.20675232 1.10047376 92 100 106
-0.42061281 0.20947275 1.11495364 96 101 108
-0.41594920 0.20810364 1.10766637 101 106 112
-0.41403466 0.20810364 1.10766637 110 114 120
-0.41563883 0.21085998 1.12233746 112 116 119
-0.41576403 0.21191253 1.12793982 109 113 116
-0.41107851 0.21051146 1.12048233 102 106 109
-0.40578821 0.20878595 1.11129808 106 110 113
-0.17325670 0.10684516 0.56870121 100 107 110
-0.17241839 0.10693487 0.56917870 95 104 105
-0.17157868 0.10702473 0.56965703 95 104 105
-0.17045082 0.10693487 0.56917870 96 105 107
-0.16932487 0.10684516 0.56870121 96 104 109
-0.16834192 0.10684516 0.56870121 98 104 111
0.22606532 0.33782342 1.79812157 145 148 151
0.22558305 0.33253115 1.76995254 155 156 158
0.22804685 0.33166519 1.76534331 159 160 161
0.23049784 0.33080372 1.76075804 166 166 165
0.23054706 0.32656264 1.73818421 168 168 166
0.23355137 0.32656264 1.73818421 151 151 149
0.23595068 0.32572743 1.73373878 131 131 133
0.23833774 0.32489651 1.72931588 114 118 121
0.24494055 0.32572743 1.73373878 118 128 134
0.24667542 0.32406980 1.72491562 116 126 133
0.24965680 0.32406980 1.72491562 110 120 128
0.29193145 0.14119671 0.75154305 172 173 175
0.29258168 0.14088432 0.74988037 171 172 174
0.29258317 0.14026369 0.74657691 169 170 171
0.29355028 0.14010939 0.74575561 166 167 167
0.29451525 0.13995542 0.74493611 165 166 166
0.29515412 0.13964850 0.74330246 158 159 158
0.29939342 0.14104034 0.75071079 152 152 151
0.30035833 0.14088432 0.74988037 148 149 149
0.30165443 0.14088432 0.74988037 145 145 145
0.30429700 0.14151047 0.75321317 145 146 146
0.30492124 0.14119671 0.75154305 143 144 144
0.30588111 0.14104034 0.75071079 138 138 139
0.30616152 0.14057332 0.74822497 132 132 137
0.30610332 0.13995542 0.74493611 130 130 136
0.30739087 0.13995542 0.74493611 127 127 134
0.30699167 0.13919063 0.74086541 123 123 130
0.30759984 0.13888706 0.73924953 132 132 139
0.30921477 0.13903868 0.74005657 143 144 144
0.31194741 0.13798422 0.73444402 154 155 158
0.31186530 0.13738881 0.73127490 159 160 163
0.41020945 0.14826477 0.78916395 141 142 141
0.41157344 0.14826477 0.78916395 145 145 145
0.41341874 0.14843756 0.79008371 144 145 145
0.41575345 0.14878438 0.79192972 149 150 151
0.41663551 0.14861077 0.79100567 160 162 163
0.41800269 0.14861077 0.79100567 161 164 165
0.41888112 0.14843756 0.79008371 164 166 166
0.42320618 0.14948291 0.79564768 164 165 165
0.42408365 0.14930765 0.79471493 161 164 163
0.42347145 0.14861077 0.79100567 160 164 163
0.42857319 0.14895840 0.79285598 163 164 164
0.42794153 0.14826477 0.78916395 163 164 164
0.42731568 0.14757755 0.78550619 163 164 164
0.42522427 0.14639015 0.77918601 169 170 170
0.42559266 0.14605439 0.77739888 169 170 170
-0.43297189 0.20899367 1.10226321 121 130 131
-0.43106672 0.20899367 1.10226321 112 120 122
-0.42916155 0.20899367 1.10226321 99 108 111
-0.42587143 0.20831622 1.09869015 89 100 104
-0.42604396 0.20933406 1.10405838 82 93 99
-0.42482758 0.20967555 1.10585940 83 93 98
-0.42222741 0.20933406 1.10405838 78 86 92
-0.41895446 0.20865440 1.10047376 79 87 93
-0.41773051 0.20899367 1.10226321 80 86 95
-0.41854760 0.21036188 1.10947931 79 83 95
-0.41459429 0.20933406 1.10405838 87 91 100
-0.41268602 0.20933406 1.10405838 98 101 109
-0.41358462 0.21174812 1.11679053 105 111 113
-0.41438505 0.21315275 1.12419879 108 113 119
-0.40972406 0.21174812 1.11679053 110 115 123
-0.40446213 0.21001816 1.10766637 109 114 124
-0.40189093 0.20967555 1.10585940 114 119 127
-0.17172298 0.10810018 0.57013613 115 124 127
-0.17059407 0.10800934 0.56965703 112 120 124
-0.16932487 0.10782811 0.56870121 112 120 126
-0.16834192 0.10782811 0.56870121 115 120 127
-0.16609733 0.10764749 0.56774861 119 122 129
-0.16483991 0.10746749 0.56679922 120 122 129
-0.45234212 0.37803268 1.99379957 99 107 117
-0.08809473 0.09180794 0.48420846 103 104 113
-0.08700921 0.09154638 0.48282894 105 105 114
0.22796388 0.33913222 1.78863287 146 147 151
0.23230803 0.33646888 1.77458596 166 166 168
0.23173544 0.33126575 1.74714386 165 165 166
0.23355137 0.32956696 1.73818421 155 155 156
0.23655568 0.32956696 1.73818421 133 133 136
0.23894730 0.32872406 1.73373878 121 123 127
0.24556860 0.32956696 1.73818421 117 125 131
0.24730469 0.32788548 1.72931588 113 122 129
0.25029367 0.32788548 1.72931588 107 116 124
0.29160815 0.14233789 0.75071079 176 177 177
0.29225838 0.14202332 0.74905175 171 171 172
0.29290575 0.14171016 0.74740005 164 164 164
0.29387358 0.14155409 0.74657691 160 160 160
0.29483926 0.14139836 0.74575561 153 153 153
0.29515412 0.14093323 0.74330246 145 145 145
0.30002645 0.14202332 0.74905175 144 144 144
0.30165443 0.14218043 0.74988037 144 145 145
0.30395925 0.14265384 0.75237721 145 145 145
0.30492124 0.14249569 0.75154305 144 145 145
0.30588111 0.14233789 0.75071079 141 142 142
0.30616152 0.14186656 0.74822497 139 140 142
0.30677754 0.14155409 0.74657691 132 133 136
0.30840760 0.14171016 0.74740005 128 129 132
0.30833960 0.14108793 0.74411839 131 132 136
0.30996600 0.14124298 0.74493611 140 141 144
0.31262773 0.14186656 0.74822497 144 147 147
0.31322953 0.14155409 0.74657691 139 142 142
0.31348419 0.14108793 0.74411839 144 145 145
0.31203023 0.13985975 0.73764074 146 147 149
0.31228575 0.13940467 0.73524064 151 152 156
0.41020945 0.14962877 0.78916395 145 145 146
0.41109487 0.14945479 0.78824633 145 145 146
0.41341874 0.14980316 0.79008371 143 143 144
0.41575345 0.15015316 0.79192972 142 143 145
0.41663551 0.14997795 0.79100567 151 152 154
0.41751552 0.14980316 0.79008371 157 158 159
0.41888112 0.14980316 0.79008371 158 159 160
0.42370349 0.15103538 0.79658264 158 159 160
0.42458141 0.15085810 0.79564768 158 159 160
0.42396617 0.15015316 0.79192972 157 160 160
0.42670375 0.15015316 0.79192972 162 164 165
0.42857319 0.15032879 0.79285598 168 170 170
0.42794153 0.14962877 0.78916395 171 172 172
0.42632768 0.14859088 0.78368998 175 176 175
0.42473608 0.14756729 0.77829146 178 179 177
0.42510515 0.14722922 0.77650839 176 177 173
0.42693633 0.14739807 0.77739888 173 174 170
-0.43176877 0.21124233 1.10405838 103 111 117
-0.42916155 0.21089885 1.10226321 101 108 118
-0.42518231 0.20987506 1.09691238 101 108 118
-0.42604396 0.21124233 1.10405838 102 109 120
-0.42552176 0.21193267 1.10766637 102 110 117
-0.42222741 0.21124233 1.10405838 100 108 114
-0.41895446 0.21055648 1.10047376 94 106 110
-0.41773051 0.21089885 1.10226321 92 103 109
-0.41786370 0.21193267 1.10766637 93 102 108
-0.41459429 0.21124233 1.10405838 101 107 111
-0.41201499 0.21089885 1.10226321 109 115 117
-0.41010982 0.21089885 1.10226321 116 122 122
-0.40953648 0.21158694 1.10585940 115 121 123
-0.41165432 0.21367840 1.11679053 118 124 130
-0.40770900 0.21262753 1.11129808 119 127 134
-0.40314466 0.21124233 1.10405838 116 124 131
-0.40058395 0.21089885 1.10226321 117 124 130
-0.17186752 0.10917743 0.57061601 124 132 136
-0.17059407 0.10899394 0.56965703 123 131 134
-0.16946705 0.10890243 0.56917870 129 137 139
-0.16848327 0.10890243 0.56917870 128 131 138
-0.16721869 0.10871986 0.56822449 126 126 135
-0.16623655 0.10871986 0.56822449 123 124 126
-0.08976856 0.09264485 0.48420846 103 103 112
-0.08893164 0.09264485 0.48420846 108 108 117
-0.08803184 0.09257872 0.48386285 109 111 121
-0.08694728 0.09231515 0.48248529 109 112 123
-0.08611335 0.09231515 0.48248529 116 119 131
0.23355137 0.33257127 1.73818421 140 140 144
0.23716378 0.33342621 1.74265254 123 122 129
0.23833774 0.33087447 1.72931588 118 118 125
0.24556860 0.33257127 1.73818421 110 114 129
0.24730469 0.33087447 1.72931588 116 121 135
0.25029367 0.33087447 1.72931588 132 137 150
0.25458154 0.33257127 1.73818421 135 138 148
0.25758585 0.33257127 1.73818421 139 142 151
0.29193145 0.14379467 0.75154305 177 178 178
0.29258168 0.14347655 0.74988037 166 167 167
0.29322904 0.14315982 0.74822497 161 161 161
0.29516396 0.14284448 0.74657691 136 136 138
0.29580283 0.14253055 0.74493611 139 139 143
0.30035833 0.14347655 0.74988037 142 142 146
0.30165443 0.14347655 0.74988037 139 139 143
0.30463547 0.14427452 0.75405097 137 137 142
0.30525967 0.14395426 0.75237721 139 139 143
0.30622023 0.14379467 0.75154305 142 142 146
0.30649981 0.14331800 0.74905175 144 144 148
0.30711579 0.14300197 0.74740005 141 141 145
0.30874801 0.14315982 0.74822497 145 145 147
0.30867845 0.14253055 0.74493611 147 148 150
0.31030700 0.14268734 0.74575561 146 147 149
0.31194741 0.14052306 0.73444402 150 151 153
0.31186530 0.13991672 0.73127490 167 168 169
0.31876129 0.13961549 0.72970057 175 176 176
0.41157344 0.15099277 0.78916395 145 145 147
0.41390112 0.15134515 0.79100567 144 144 146
0.41575345 0.15152195 0.79192972 150 151 153
0.41663551 0.15134515 0.79100567 151 152 154
0.41751552 0.15116875 0.79008371 158 161 162
0.41888112 0.15116875 0.79008371 159 162 163
0.42320618 0.15223332 0.79564768 155 158 160
0.42408365 0.15205486 0.79471493 154 157 158
0.42396617 0.15152195 0.79192972 157 160 161
0.42483863 0.15134515 0.79100567 159 163 165
0.42620584 0.15134515 0.79100567 165 171 173
0.42757303 0.15134515 0.79100567 171 176 177
0.42694747 0.15064204 0.78733081 172 176 175
0.42534423 0.14959952 0.78188217 174 176 175
0.42424899 0.14874174 0.77739888 176 177 176
0.42461878 0.14840136 0.77561998 177 178 175
0.42644730 0.14857136 0.77650839 178 179 173
0.42681164 0.14823176 0.77473354 177 179 173
-0.42916155 0.21280402 1.10226321 112 120 124
-0.42587143 0.21211421 1.09869015 112 121 125
-0.42673898 0.21349832 1.10585940 107 117 121
-0.42552176 0.21384718 1.10766637 106 116 120
-0.42222741 0.21315061 1.10405838 105 115 120
-0.41963568 0.21280402 1.10226321 102 119 122
-0.41841087 0.21315061 1.10405838 102 117 120
-0.41786370 0.21384718 1.10766637 104 114 117
-0.41459429 0.21315061 1.10405838 109 118 118
-0.41201499 0.21280402 1.10226321 116 124 124
-0.41077775 0.21315061 1.10405838 124 131 132
-0.40953648 0.21349832 1.10585940 117 125 127
-0.41097727 0.21525407 1.11495364 118 126 132
-0.40837848 0.21490061 1.11312294 118 126 132
-0.40380231 0.21349832 1.10585940 116 124 130
-0.40058395 0.21280402 1.10226321 113 124 128
-0.40063310 0.21384718 1.10766637 114 124 129
-0.17088126 0.11016370 0.57061601 118 125 132
-0.16960946 0.10997855 0.56965703 119 123 130
-0.16848327 0.10988621 0.56917870 125 126 135
-0.16735896 0.10979402 0.56870121 123 123 132
-0.16623655 0.10970199 0.56822449 110 111 113
-0.44889602 0.38492492 1.99379957 111 117 124
-0.44414359 0.38379610 1.98795259 114 120 127
-0.09073509 0.09361550 0.48490116 101 102 111
-0.08983272 0.09354859 0.48455456 99 101 109
-0.08893164 0.09348176 0.48420846 104 107 115
-0.08809473 0.09348176 0.48420846 110 114 122
-0.08707123 0.09328188 0.48317310 114 120 127
-0.08629762 0.09334841 0.48351771 121 129 135
0.01956194 0.17152618 0.88845587 147 150 158
0.02093295 0.17018788 0.88152385 154 157 165
0.02222538 0.16843562 0.87244767 157 161 165
0.02367240 0.16800317 0.87020773 162 166 168
0.23655568 0.33557558 1.73818421 122 123 128
0.23833774 0.33386347 1.72931588 111 112 119
0.24730469 0.33386347 1.72931588 118 119 136
0.25029367 0.33386347 1.72931588 139 141 156
0.25458154 0.33557558 1.73818421 151 154 161
0.25758585 0.33557558 1.73818421 158 160 166
0.26126006 0.33643824 1.74265254 158 159 163
0.29612824 0.14397632 0.74575561 141 143 150
0.30035833 0.14477265 0.74988037 136 136 145
0.30198848 0.14493297 0.75071079 140 140 149
0.30463547 0.14557783 0.75405097 143 142 150
0.30559886 0.14541608 0.75321317 146 145 153
0.30622023 0.14509365 0.75154305 147 147 154
0.30649981 0.14461268 0.74905175 150 150 152
0.30711579 0.14429380 0.74740005 158 158 160
0.30908915 0.14461268 0.74905175 160 160 162
0.30833960 0.14366023 0.74411839 149 149 151
0.31101495 0.14194629 0.73524064 125 126 130
0.31194741 0.14179249 0.73444402 141 142 142
0.31186530 0.14118066 0.73127490 160 161 161
0.31279182 0.14102852 0.73048687 172 173 173
0.31473273 0.14133312 0.73206460 175 176 176
0.31841853 0.14072524 0.72891593 175 176 176
0.31752405 0.13922817 0.72116154 167 168 168
0.41390112 0.15271235 0.79100567 164 165 167
0.41623971 0.15306956 0.79285598 164 165 167
0.41663551 0.15271235 0.79100567 166 167 169
0.42458141 0.15360853 0.79564768 155 159 160
0.42446202 0.15306956 0.79285598 157 161 162
0.42483863 0.15271235 0.79100567 157 161 162
0.42757303 0.15271235 0.79100567 158 164 164
0.42694747 0.15200287 0.78733081 158 164 164
0.42436531 0.15060353 0.78008264 160 165 164
0.42376304 0.14991349 0.77650839 164 165 165
0.42413348 0.14957082 0.77473354 169 170 169
0.42595938 0.14974196 0.77561998 170 171 169
-0.42656279 0.21436064 1.10047376 123 132 135
-0.42813584 0.21611482 1.10947931 119 127 131
-0.42691690 0.21646911 1.11129808 114 124 128
-0.42291620 0.21540971 1.10585940 107 117 122
-0.42031914 0.21505888 1.10405838 100 110 115
-0.41909343 0.21540971 1.10585940 100 109 114
-0.41786370 0.21576169 1.10766637 100 108 112
-0.41459429 0.21505888 1.10405838 104 112 114
-0.41268602 0.21505888 1.10405838 108 116 118
-0.41144785 0.21540971 1.10585940 113 121 122
-0.41020566 0.21576169 1.10766637 112 121 122
-0.41165432 0.21753897 1.11679053 117 126 127
-0.40905017 0.21718118 1.11495364 113 124 124
-0.40512410 0.21611482 1.10947931 108 120 120
-0.40189093 0.21540971 1.10585940 104 118 119
-0.40128881 0.21611482 1.10947931 110 124 125
-0.17073753 0.11105648 0.57013613 109 115 123
-0.16960946 0.11096316 0.56965703 116 119 127
-0.16848327 0.11086999 0.56917870 127 128 135
-0.16721869 0.11068412 0.56822449 134 134 142
-0.16623655 0.11068412 0.56822449 131 131 133
-0.16497785 0.11049888 0.56727350 121 122 124
-0.16399737 0.11049888 0.56727350 111 114 115
-0.16203639 0.11049888 0.56727350 102 108 115
-0.16092125 0.11040648 0.56679922 101 108 116
-0.15967456 0.11022217 0.56585294 102 109 116
-0.09073509 0.09445362 0.48490116 99 102 112
-0.08976856 0.09431868 0.48420846 97 100 110
-0.08886816 0.09425136 0.48386285 100 105 114
-0.08803184 0.09425136 0.48386285 108 115 125
-0.08694728 0.09398303 0.48248529 105 112 121
-0.08599094 0.09384944 0.48179945 113 118 125
-0.08558398 0.09431868 0.48420846 126 128 135
-0.08462617 0.09418413 0.48351771 133 133 141
-0.08343339 0.09378278 0.48145726 134 134 143
-0.08225073 0.09338483 0.47941431 131 131 138
0.01802631 0.17306180 0.88845587 152 152 161
0.01951079 0.17260936 0.88613313 157 157 166
0.02093295 0.17171152 0.88152385 156 159 167
0.02228273 0.17038214 0.87469918 161 163 168
0.02376392 0.17016257 0.87357193 167 168 170
0.25393045 0.33771396 1.73373878 162 167 167
0.25692707 0.33771396 1.73373878 166 170 170
0.29873177 0.14590736 0.74905175 150 152 157
0.30002645 0.14590736 0.74905175 147 148 155
0.30132112 0.14590736 0.74905175 152 152 159
0.30395925 0.14655511 0.75237721 157 158 163
0.30492124 0.14639263 0.75154305 167 167 171
0.30588111 0.14623052 0.75071079 171 171 174
0.30616152 0.14574631 0.74822497 169 170 170
0.30677754 0.14542527 0.74657691 169 170 170
0.30840760 0.14558561 0.74740005 168 169 169
0.30632210 0.14399798 0.73924953 157 158 158
0.30974415 0.14321709 0.73524064 114 113 125
0.31000626 0.14275260 0.73285604 120 118 131
0.31093678 0.14259844 0.73206460 134 133 137
0.31119391 0.14213794 0.72970057 156 155 157
0.31178391 0.14183261 0.72813302 169 169 167
0.31337905 0.14198512 0.72891593 177 177 174
0.31580037 0.14137703 0.72579426 177 177 176
0.31705484 0.14137703 0.72579426 175 176 175
0.31729019 0.14092439 0.72347051 171 172 171
0.31752405 0.14047463 0.72116154 164 164 164
0.41575345 0.15425953 0.79192972 172 173 175
0.42446202 0.15443994 0.79285598 165 165 165
0.42483863 0.15407953 0.79100567 164 164 164
0.42757303 0.15407953 0.79100567 150 152 154
0.42595801 0.15300830 0.78550619 150 152 154
0.42339087 0.15160294 0.77829146 151 153 154
0.42376304 0.15125562 0.77650839 155 156 156
0.42461878 0.15108256 0.77561998 159 160 160
0.42644730 0.15125562 0.77650839 156 159 159
-0.42954186 0.21874849 1.11312294 124 133 134
-0.42761791 0.21874849 1.11312294 120 128 131
-0.42360723 0.21767621 1.10766637 112 120 124
-0.42031914 0.21696717 1.10405838 107 115 120
-0.41909343 0.21732110 1.10585940 102 110 115
-0.41718203 0.21732110 1.10585940 99 107 111
-0.41459429 0.21696717 1.10405838 97 105 109
-0.41268602 0.21696717 1.10405838 98 106 109
-0.41077775 0.21696717 1.10405838 96 106 109
-0.40953648 0.21732110 1.10585940 103 113 115
-0.41097727 0.21910828 1.11495364 105 116 116
-0.40837848 0.21874849 1.11312294 106 117 117
-0.40512410 0.21803246 1.10947931 102 113 113
-0.40189093 0.21732110 1.10585940 101 114 116
