ply
format ascii 1.0
element vertex 1055
property float x
property float y
property float z
property uchar red
property uchar green
property uchar blue
end_header
-0.76786517 0.11357907 1.77459811 114 120 124
-0.76301492 0.11562035 1.78392589 117 121 127
-0.76778814 0.12406991 1.76997497 102 111 116
-0.76403393 0.12493668 1.78486729 118 126 128
-0.74974873 0.10772206 1.77415047 119 125 129
-0.75468981 0.11469534 1.78392589 117 120 128
-0.74993962 0.13094670 1.73373878 127 131 133
-0.75239515 0.13154171 1.75166437 127 132 135
-0.74841914 0.13079833 1.77247074 119 125 129
-0.75242022 0.12613692 1.78439659 124 129 133
-0.73614907 0.09976996 1.76534331 129 133 137
-0.73527208 0.11383390 1.77306036 121 128 134
-0.73618960 0.11469534 1.78392589 132 137 144
-0.73119805 0.13811762 1.74864876 114 126 127
-0.73339703 0.13027123 1.77175139 112 120 125
-0.73813203 0.12581824 1.78863287 122 129 132
-0.72668701 0.14065604 1.74265254 115 128 128
-0.70261121 -0.20999153 1.65743732 58 72 106
-0.68304191 -0.20905625 1.63663082 59 74 105
-0.68958362 -0.20874351 1.64570945 59 72 105
-0.68750791 -0.18936120 1.63152047 55 69 94
-0.69731488 -0.19677109 1.64271259 55 69 99
-0.68710999 -0.17623320 1.63419518 55 68 93
-0.67460469 -0.21041948 1.63299298 57 74 104
-0.67757083 -0.20837629 1.64188260 56 72 104
-0.67018272 -0.18484590 1.61788034 58 67 93
-0.67413796 -0.18964493 1.62844666 57 68 93
-0.67442294 -0.17571726 1.63180094 57 66 90
-0.66481824 0.62363926 1.97492474 111 119 122
-0.66706474 0.62993913 1.99067765 117 124 127
-0.67142254 0.64182562 1.99968100 105 110 117
-0.64898396 0.61465567 1.97348845 140 142 144
-0.65717649 0.61744511 1.98795259 137 139 141
-0.65067703 0.62489370 1.97348845 131 136 136
-0.65218581 0.62776743 1.98797446 139 140 141
-0.63752067 0.61868161 1.95922494 146 147 145
-0.62419695 0.61546648 1.97061586 169 170 164
-0.62655212 0.62690075 1.97444598 154 156 152
-0.63042780 0.63332301 1.99031889 149 152 148
-0.60762566 0.61248740 1.95430075 153 155 150
-0.61147854 0.61561080 1.96744619 156 158 153
-0.60953963 0.62396163 1.96948009 144 145 143
-0.61349073 0.63334101 1.98991304 138 140 139
-0.61232262 0.65562909 1.99213392 126 134 138
-0.60210490 0.66166860 1.97636104 127 130 136
-0.60888131 0.66610275 1.98731820 123 130 134
-0.46374608 0.35686330 1.13631921 114 124 125
-0.46412518 0.36781544 1.13531881 91 95 101
-0.47082055 0.37318187 1.14487664 84 87 93
-0.44138151 0.03230556 0.91772678 138 140 140
-0.44723437 0.03568971 0.92383481 143 148 146
-0.45152454 0.35717503 1.12928888 95 100 111
-0.44220748 0.36874950 1.11656316 95 104 107
-0.45164244 0.36677039 1.12697664 88 92 97
-0.45556580 0.36068068 1.14219427 83 84 104
-0.45234212 0.37803268 1.99379957 99 107 117
-0.44651981 0.38436051 1.99087608 112 118 125
-0.42053124 0.01975835 0.90025479 135 136 137
-0.42928565 0.03108123 0.91264085 140 144 144
-0.43734287 0.03625035 0.92393979 142 144 144
-0.42564173 0.21010183 1.09809756 100 109 115
-0.42568864 0.21280829 1.10580673 105 114 118
-0.42479906 0.22263733 1.10910222 118 127 127
-0.43238181 0.22213143 1.12048233 128 137 138
-0.43376157 0.35761258 1.11174394 103 108 116
-0.43758620 0.35605568 1.12140989 117 121 133
-0.42552687 0.36279072 1.09780127 85 92 99
-0.43337609 0.36787927 1.10649144 87 96 101
-0.43207753 0.36190121 1.12271342 102 108 115
-0.43338975 0.38035968 1.11312294 74 76 83
-0.41225955 0.01940651 0.89433817 152 154 156
-0.41797429 0.01822654 0.90145195 136 137 138
-0.41267747 0.02341384 0.89379591 144 146 147
-0.41811349 0.02719635 0.90175441 136 137 137
-0.41107436 0.21400271 1.10689631 104 113 117
-0.41418042 0.21094496 1.12451927 110 114 118
-0.40317669 0.23013586 1.07640317 86 93 101
-0.40720384 0.22513451 1.09213282 107 114 120
-0.40886770 0.22206334 1.10379848 102 111 117
-0.39959243 0.02087090 0.88152385 144 145 143
-0.39506744 0.22989610 1.07431595 93 97 107
-0.39756781 0.22821094 1.08673518 102 105 113
-0.36035809 0.16994284 0.74657691 87 88 97
-0.34000540 0.15927488 0.73603892 121 128 127
-0.34799551 0.16517590 0.73730233 128 129 130
-0.34799552 0.16915501 0.74288962 133 133 134
-0.34084468 0.21127500 0.73706802 55 54 61
-0.32070490 0.05863568 0.60634454 125 128 131
-0.32454350 0.06890011 0.61220666 147 148 149
-0.33468803 0.15773189 0.73710932 112 116 118
-0.33122377 0.15505456 0.74322475 100 105 111
-0.33563208 0.16450155 0.73742425 124 127 127
-0.33286286 0.16556342 0.74308606 128 132 132
-0.33087528 0.21412074 0.73548486 73 74 80
-0.33217427 0.21675029 0.74079948 76 77 82
-0.32629592 0.22174402 0.73594928 100 102 103
-0.33384563 0.22268697 0.74459907 81 83 85
-0.31784527 0.05839095 0.60472337 133 135 137
-0.31347935 0.06458153 0.60468083 150 153 152
-0.31897990 0.21378784 0.72726016 87 91 93
-0.26324172 0.05614066 0.47200005 131 134 133
-0.26062364 0.06135058 0.47141615 153 156 151
-0.25844642 0.05526526 0.47310345 132 135 135
-0.25865796 0.06217535 0.47047267 136 139 134
-0.24061900 0.07580964 1.47688854 133 133 135
-0.24114437 0.07853341 1.48011315 116 115 124
-0.24022670 0.08587872 1.47448054 122 124 132
-0.22346699 0.07593301 1.45004828 118 120 131
-0.23240993 0.07611744 1.46869191 116 117 124
-0.22428804 0.08944844 1.45194424 120 124 130
-0.23141717 0.08796265 1.46699381 130 132 139
-0.22239578 0.10002889 1.45783186 136 138 142
-0.22614392 0.10444663 1.46795240 118 120 130
-0.21608110 0.07736653 1.45299069 128 133 141
-0.21805996 0.07507098 1.46255147 122 125 137
-0.20588066 0.09004787 1.43926084 124 126 133
-0.21313256 0.09087536 1.45060168 127 131 137
-0.21853144 0.09677102 1.46571380 123 123 130
-0.21181801 0.10263010 1.45005426 112 117 123
-0.21876820 0.10448695 1.46730182 122 127 134
-0.20395218 0.15426930 0.61649290 114 118 121
-0.20590235 0.16363924 0.61536322 112 116 117
-0.21360534 0.16476220 0.62021214 118 126 126
-0.19642376 0.15329011 0.61322657 122 126 128
-0.18640383 0.16932129 0.59903417 94 101 108
-0.19150160 0.16860758 0.60487518 109 114 118
-0.16386608 -0.00812204 1.49865715 159 159 161
-0.16396959 -0.00566494 1.50559685 141 142 145
-0.16485723 0.00921607 1.51107052 143 144 146
-0.16339873 0.02469733 1.51230890 121 123 131
-0.17706195 0.09958594 0.57791293 121 126 133
-0.16847738 0.11030211 0.56874746 121 126 130
-0.17912979 0.10018379 0.58138239 127 128 135
-0.16915806 0.12090609 0.56894822 119 128 133
-0.15102567 -0.00942349 1.49976075 142 143 145
-0.15164750 -0.00832373 1.50731785 147 147 151
-0.15092180 0.01026538 1.51344483 139 140 144
-0.14221114 0.00710389 1.52335250 156 160 160
-0.15621009 0.02773159 1.49976075 113 114 123
-0.15227480 0.02838078 1.50797388 122 126 134
-0.15938708 0.11311121 0.56483421 123 129 133
-0.14486032 0.15557843 0.50503552 111 117 124
-0.14609190 0.16333168 0.50622311 108 117 121
-0.12279369 -0.76634032 1.95922494 85 73 64
-0.12559315 -0.76795865 1.96990600 85 73 66
-0.13833944 -0.76382941 1.98796976 84 73 68
-0.12448687 -0.75956762 1.95922494 84 73 68
-0.12938420 -0.75747269 1.96919614 83 73 68
-0.13837072 -0.00598043 1.50308609 111 111 116
-0.13918694 0.01495938 1.51908684 139 141 145
-0.13517109 0.01370692 1.52563981 131 135 141
-0.13883328 0.15301969 0.50260013 111 114 122
-0.13936032 0.16161814 0.50626743 97 107 114
-0.10697246 -0.76896522 1.95470967 86 73 68
-0.11726187 -0.76908832 1.97062139 87 72 66
-0.10751532 -0.75152052 1.95358903 86 73 68
-0.11686562 -0.75657231 1.97348845 86 74 69
-0.10199699 -0.72976221 1.93407482 83 74 65
-0.10641737 -0.73642694 1.94461613 84 73 67
-0.08435718 -0.76362144 1.88724082 82 72 70
-0.08660900 -0.76562901 1.90803058 83 73 69
-0.09277652 -0.76964852 1.93352615 85 72 69
-0.09866185 -0.77145161 1.95077597 86 74 70
-0.08441533 -0.75096413 1.91063938 88 73 69
-0.09007533 -0.75311048 1.93083689 88 73 69
-0.09442907 -0.75342520 1.94685519 87 74 69
-0.08030070 -0.73909241 1.91494870 90 72 69
-0.08225073 0.09338483 0.47941431 131 131 138
-0.08844033 0.09620046 0.48516616 121 124 130
-0.08987079 0.10793655 0.49173505 132 136 141
-0.07593712 -0.76324261 1.88873972 84 74 71
-0.07132600 -0.75133784 1.89620635 83 74 69
-0.07682423 -0.75075377 1.90495682 85 73 67
-0.07306186 -0.73780456 1.89885676 84 72 68
-0.07536962 -0.73486449 1.90741496 86 71 67
-0.07639291 -0.73455508 1.92767356 86 71 65
-0.02545508 0.23917916 0.60480964 156 157 153
-0.02283698 0.24416312 0.60954939 150 150 148
-0.02154411 0.43053379 1.13204132 138 140 142
-0.02561909 0.43664409 1.14639898 131 133 136
-0.02032386 0.44548121 1.13361108 158 162 160
-0.02319555 0.44935262 1.15055807 154 156 155
-0.02629490 0.45305950 1.16656461 143 143 143
-0.02923841 0.45760326 1.18617064 136 137 137
-0.02210394 0.46375229 1.15602779 163 166 166
-0.02546513 0.46679494 1.16980463 157 160 160
-0.03022610 0.46318325 1.19264739 136 137 138
-0.03289427 0.46783830 1.20731127 133 134 134
-0.00766967 0.12833246 0.47296302 169 169 169
-0.00602967 0.12181666 0.48043361 168 168 166
-0.00216050 0.15879025 0.99106997 189 189 189
-0.00202577 0.17448115 0.58958366 160 160 158
-0.00177381 0.16576808 0.98786229 192 192 192
-0.01892233 0.23921920 0.60783905 141 142 140
-0.01726943 0.24717128 0.60785826 149 151 151
-0.00050387 0.43819560 1.11587816 138 140 141
-0.00846502 0.43248008 1.13209987 148 149 150
-0.00847056 0.43650484 1.15125998 149 150 150
-0.00050345 0.44072559 1.11495364 143 144 146
-0.01033621 0.44510707 1.13024255 154 156 156
-0.00971324 0.44470687 1.15237125 151 152 152
-0.01105723 0.44679979 1.16077375 151 153 154
0.00859216 0.13255957 0.47043618 157 159 160
0.00186029 0.12527180 0.48094641 169 173 172
0.01155324 0.14012959 0.46945441 155 158 158
0.01643012 0.15892085 0.97608668 193 193 193
0.00643562 0.15964727 0.99641897 187 188 188
0.00651403 0.15889116 1.00803155 189 189 189
0.01800146 0.17790080 0.47718278 159 161 160
0.01612965 0.17923650 0.48255432 157 161 160
0.00672659 0.17238629 0.57751961 144 145 147
0.00356890 0.16974304 0.58745614 139 140 142
0.01931519 0.17769881 0.87724923 169 171 173
0.01745616 0.17588444 0.88913582 155 157 163
0.01311316 0.17842731 0.90265546 139 141 144
0.01657457 0.16628652 0.97759685 186 186 186
0.00795373 0.16777562 0.98863395 190 191 190
0.01899310 0.18441271 0.47823950 153 155 157
0.01788482 0.18599946 0.48203560 153 156 157
0.01853185 0.18352993 0.87611508 168 169 172
0.01601344 0.18426237 0.89066305 159 160 166
0.01046496 0.18421848 0.90682382 145 144 149
0.00450135 0.41772051 1.85385501 132 131 131
0.01317236 0.41813560 1.87005951 147 147 148
0.01216840 0.41886958 1.88303292 137 137 141
0.00555113 0.42045802 1.84711671 138 137 137
0.01503379 0.42594107 1.87123282 145 145 146
0.03384062 -0.08683943 0.53753792 110 86 82
0.03525671 -0.08296124 0.54051182 114 89 84
0.03663195 -0.06975211 0.53516459 117 95 87
0.03527165 -0.07437494 0.54074086 115 93 84
0.03675872 -0.05861398 0.53330146 127 101 91
0.02771641 0.17940905 0.47246447 143 144 145
0.03506399 0.17037913 0.49144331 140 140 141
0.03696541 0.17859305 0.50281756 149 152 153
0.02458182 0.17494823 0.87075701 169 170 171
0.02092389 0.17163652 0.88114224 159 161 168
0.02542941 0.18550769 0.47477074 150 152 153
0.02889604 0.19305894 0.48358739 150 152 153
0.03836111 0.18291967 0.50407301 152 154 155
0.03682451 0.19725546 0.71816248 158 160 161
0.03407954 0.19708937 0.72644344 141 143 150
0.02187665 0.18103145 0.87065802 163 164 168
0.03880190 0.20699093 0.71775789 145 146 147
0.03383286 0.20690139 0.72693858 143 145 147
0.02844621 0.21003028 0.74005657 140 141 144
0.03985523 0.39482448 1.81012833 173 173 173
0.03282901 0.39767187 1.82557333 174 173 173
0.03994401 0.41487986 1.68211377 135 135 138
0.03764646 0.40908769 1.81343093 164 165 166
0.03414085 0.40919385 1.82407846 161 162 164
0.02698597 0.41316368 1.84712458 159 160 161
0.02171132 0.41464408 1.86405035 159 160 161
0.03974695 0.43308734 1.67381518 163 166 167
0.03708268 0.43722668 1.68420595 168 170 170
0.03817329 0.42461613 1.73373878 130 126 131
0.03789290 0.43863374 1.79102373 130 128 130
0.03835784 0.43131265 1.81335926 160 159 161
0.03443030 0.42802852 1.83073292 170 171 173
0.02798948 0.43192280 1.85325485 161 162 167
0.02441519 0.42846502 1.86576521 153 154 157
0.03465190 0.44666213 1.81095111 140 139 140
0.03398380 0.44366036 1.83091885 148 147 148
0.03126223 0.44202241 1.85723794 166 167 169
0.03134811 0.44967457 1.86234021 159 159 159
0.03011480 0.61236888 1.99379957 161 164 165
0.04390071 0.16786797 0.47849452 159 160 158
0.04180435 0.17266004 0.48604039 155 156 156
0.04041544 0.17959842 0.50028920 158 159 159
0.04075455 0.18274576 0.49446051 153 153 153
0.04044529 0.18059641 0.50065869 156 157 157
0.04101615 0.19706727 0.71394750 159 160 160
0.05822116 0.21019002 0.67422642 153 153 152
0.04097949 0.20304695 0.71545333 144 144 144
0.05960861 0.22579679 0.67970455 165 166 166
0.05835684 0.22792731 0.68433275 165 165 165
0.05918281 0.27166957 0.70737111 151 151 150
0.05807694 0.36483196 1.51092986 147 148 151
0.05569239 0.36612433 1.52909408 137 137 140
0.05389743 0.37280543 1.54842606 147 147 148
0.05501941 0.37025677 1.57283485 159 159 159
0.05433294 0.37351628 1.59255521 164 164 163
0.05486965 0.37026131 1.60828662 163 164 166
0.05546169 0.37004340 1.62563992 145 146 150
0.05445999 0.37605365 1.65205375 141 144 147
0.05248406 0.37551479 1.67146860 126 126 132
0.04940172 0.37688003 1.70753610 144 144 144
0.04698300 0.37522739 1.72711575 162 163 162
0.04439362 0.37559468 1.74265254 176 176 175
0.05696530 0.38811665 1.55185721 165 166 167
0.05624937 0.39653669 1.56922770 173 173 174
0.05330812 0.39431880 1.58945241 155 156 158
0.05196656 0.39434716 1.60447997 145 146 150
0.05299084 0.38373699 1.63610474 164 164 163
0.05342054 0.38114709 1.64937186 162 165 164
0.05116773 0.38854873 1.66887605 160 162 162
0.04915409 0.38820535 1.69897699 146 147 150
0.04933965 0.38966163 1.70539099 150 152 154
0.04636234 0.38887885 1.72884203 150 151 152
0.04442223 0.39090655 1.74377537 152 152 153
0.04213989 0.38963417 1.77458596 169 168 168
0.04239893 0.39305353 1.78549488 168 168 166
0.05606057 0.40872136 1.59294882 159 159 160
0.05214411 0.41383433 1.61021717 164 164 165
0.04824465 0.41692641 1.62878873 169 169 170
0.04915198 0.40964217 1.64939630 148 148 152
0.04716934 0.41029330 1.67052100 142 141 145
0.04735157 0.40962127 1.68735990 144 141 146
0.04648373 0.40959460 1.70862499 153 150 152
0.04617985 0.40828745 1.72492120 165 164 164
0.04450815 0.40676643 1.74714854 173 174 174
0.04485485 0.41906023 1.76075804 170 169 168
0.04242886 0.40981435 1.78675504 164 165 167
0.05993150 0.42097270 1.59503961 125 124 133
0.05402472 0.42328698 1.61084251 136 136 141
0.04993594 0.42709163 1.62892153 150 150 153
0.04553462 0.42900471 1.65072587 158 159 160
0.04289165 0.43221961 1.66490489 164 165 165
0.04116992 0.42161950 1.73373878 126 120 126
0.04262366 0.42615306 1.79495867 164 163 165
0.04281233 0.43064900 1.80290389 162 161 161
0.04771893 0.44101402 1.64937186 131 132 134
0.04402721 0.44266221 1.67176604 151 152 152
0.07628130 -0.06577926 0.61561118 129 104 96
0.07765144 -0.05467399 0.61245778 132 111 101
0.07944735 0.20642358 0.65910745 166 170 169
0.07194669 0.21223243 0.67250143 137 140 143
0.06439395 0.21492353 0.68061429 162 163 161
0.07513324 0.21512333 0.85770968 152 153 153
0.07313261 0.21649706 0.86567024 159 160 159
0.06762342 0.21889482 0.88439938 175 176 175
0.07824405 0.22503813 0.65857422 158 162 162
0.07100194 0.22394210 0.67304940 140 143 144
0.07893590 0.22640033 0.85782042 150 151 151
0.07390015 0.22483623 0.86622310 127 128 134
0.06876872 0.23074378 0.88440691 103 104 116
0.07113565 0.26950071 0.69542549 137 142 144
0.06598804 0.27440739 0.70516227 132 134 136
0.07097263 0.28352465 0.70856578 127 133 136
0.06255079 0.35924293 1.49318284 148 150 155
0.06493346 0.37066338 1.49447811 160 161 162
0.06332469 0.37280149 1.51148516 161 162 163
0.06000578 0.36337429 1.52678347 123 123 130
0.06542476 0.38281296 1.50978637 158 158 159
0.06289655 0.38658000 1.53300896 162 163 163
0.06206003 0.39309728 1.54505813 161 162 162
0.06153018 0.39966512 1.56557012 167 167 167
0.06394080 0.40321460 1.55837202 148 148 152
0.06366978 0.40917169 1.56829229 143 142 148
0.06224916 0.41392153 1.58386377 135 134 141
0.06254124 0.42273495 1.59129536 121 121 129
0.06021486 0.42573306 1.60258114 122 122 131
0.08016411 -0.06541301 0.61236840 130 105 95
0.08053955 -0.05549009 0.60790701 133 111 102
0.09525641 0.01523266 0.73641407 126 128 138
0.09507563 0.02212983 0.73792056 124 125 134
0.09799198 0.19117996 0.77524960 160 163 166
0.09623462 0.19529251 0.78551549 153 156 160
0.08662390 0.21262498 0.65789700 137 140 143
0.08322084 0.21138014 0.66463480 151 152 154
0.09735276 0.20229825 0.77740006 152 152 153
0.09590773 0.20668483 0.79102123 145 144 147
0.09061656 0.21074128 0.85845345 124 122 129
0.08612531 0.21661260 0.86224213 133 134 140
0.08557107 0.22205990 0.65529780 164 166 165
0.08184816 0.22193190 0.66391653 159 162 163
0.08113395 0.22707014 0.85754853 146 147 147
0.08362287 0.22239000 0.86368246 157 157 157
0.08006742 0.28219980 0.70466930 162 168 164
0.10431788 0.01455197 0.73217156 118 121 130
0.10843378 0.02476654 0.73296146 123 125 132
0.10857347 0.15911207 0.57298203 143 144 147
0.11175284 0.16318284 0.57257188 135 137 139
0.11800253 0.17941053 0.75657949 140 141 145
0.11822242 0.18236548 0.75799093 139 139 145
0.10946813 0.19036509 0.77269824 153 154 156
0.10622545 0.19892045 0.78053252 155 156 157
0.10943068 0.20205744 0.77703532 129 130 135
0.10754627 0.20800937 0.78783567 121 122 130
0.10753841 0.21538188 0.80034459 109 109 122
0.10825197 0.60982895 1.80290389 155 154 154
0.10800837 0.62649095 1.85216355 160 159 158
0.10890182 0.63651949 1.86748481 165 165 163
0.10655384 0.63693249 1.88303292 165 164 162
0.10685231 0.64525328 1.88830753 171 170 169
0.10504999 0.65103775 1.91494870 172 172 169
0.10761304 0.66494814 1.93133146 169 169 166
0.10716689 0.67140431 1.95358806 167 167 166
0.10192052 0.67020246 1.96633184 172 173 171
0.11070551 0.68880126 1.95640188 144 144 142
0.11030323 0.69187437 1.96654058 144 144 142
0.10474833 0.69114044 1.98446500 161 161 160
0.10810377 0.70572680 1.97061586 140 140 138
0.10577414 0.70954651 1.99087608 147 147 144
0.13834687 0.03832935 0.63911877 126 128 136
0.13890673 0.03068163 0.64310840 129 132 136
0.14436130 0.01969273 0.64377195 129 129 131
0.14340797 0.03890648 0.63952059 121 123 131
0.14432533 0.03167210 0.64322863 140 141 143
0.14563287 0.04274661 0.63909879 132 133 140
0.14550766 0.04207651 0.64136021 133 135 140
0.15126834 0.06543356 0.49630132 117 120 129
0.14613291 0.06633321 0.50084417 110 114 126
0.15938270 0.23378769 1.05099511 163 162 158
0.15874863 0.23414765 1.06503630 179 179 177
0.17889223 0.09579819 0.55874095 162 162 166
0.17473578 0.09682046 0.57267423 160 160 163
0.16661114 0.09166423 0.58366814 154 154 156
0.16818101 0.10209837 0.57894191 169 170 170
0.16372220 0.10258651 0.58408996 159 160 162
0.17179829 0.15958340 0.67051879 132 132 140
0.17750600 0.16891132 0.65942788 121 121 126
0.17132132 0.16469019 0.66919580 150 152 154
0.16671087 0.16708572 0.68465020 155 159 159
0.16100923 0.23439102 1.05372862 163 161 159
0.16615902 0.23008916 1.07042722 161 162 162
0.17398829 0.23557361 1.08777020 141 141 144
0.16706784 0.25243574 0.65198534 138 138 137
0.16400076 0.25836390 0.66377276 169 170 167
0.17948046 0.24501826 1.08462691 110 113 121
0.16859017 0.26166140 0.65641870 132 131 130
0.16553129 0.26272490 0.66465466 157 158 156
0.18162815 0.09520862 0.55788105 160 160 164
0.19600220 0.08788821 0.97679431 108 111 125
0.19319913 0.09140473 0.98344518 119 123 132
0.18694372 0.20999437 1.05618680 163 166 169
0.18966988 0.21570758 1.06526784 165 167 170
0.19278260 0.22337186 1.07517159 163 164 167
0.19393401 0.22903905 1.09298681 159 161 162
0.18755615 0.23636301 1.10308396 135 135 140
0.19096039 0.24999298 1.09304498 143 144 148
0.19068856 0.24416245 1.10309039 132 133 136
0.19982597 0.26022288 1.09337389 142 142 146
0.21536201 0.07349684 0.48903366 138 141 143
0.21495713 0.08068896 0.49038355 137 137 141
0.20873283 0.08956947 0.97478471 121 124 132
0.21390653 0.15860652 0.51591865 158 159 158
0.21228386 0.16988158 0.51428667 142 143 144
0.21651711 0.18293498 0.51812225 141 144 143
0.20106821 0.22548316 1.08986390 163 164 166
0.20235701 0.23780933 1.10514135 135 137 139
0.20202052 0.25238037 1.09445941 156 157 159
0.20346883 0.24470991 1.11055049 158 159 160
0.21059033 0.24537139 1.12048233 149 149 152
0.21828641 0.35747991 0.89420730 148 148 145
0.21517148 0.35782311 0.90423714 139 140 142
0.21564909 0.36926463 0.89619618 85 85 84
0.21240414 0.36830972 0.90678640 127 128 129
0.22269573 0.07321667 0.48826055 143 146 146
0.22102017 0.17855826 0.51409385 149 150 150
0.22526662 0.18407063 0.51756017 153 155 155
0.23225533 0.30447740 1.71531513 138 138 143
0.23002327 0.31372842 1.72675936 137 140 143
0.23429003 0.32693393 1.73452857 138 138 140
0.22847580 0.32730291 1.74534733 156 157 157
0.22790842 0.33236067 1.76904516 157 158 160
0.22701460 0.33847782 1.79337722 145 147 151
0.22121826 0.36323961 0.89353192 136 136 131
0.25779186 0.12701232 0.45027693 135 136 137
0.25131625 0.19437477 0.93431424 145 146 148
0.24900490 0.19606340 0.94465370 143 143 145
0.25396230 0.20468225 0.93354106 154 154 154
0.24937958 0.20392563 0.94508513 161 164 165
0.25462092 0.29456204 1.65542096 162 162 162
0.25062045 0.29457919 1.67175585 164 164 164
0.25801220 0.30415830 1.67278144 139 139 141
0.25267280 0.30617318 1.69191909 148 148 149
0.24857151 0.30709457 1.71185603 150 149 152
0.24798092 0.31379019 1.72618351 136 137 140
0.25005615 0.32878148 1.73125260 127 132 140
0.27437497 -0.18039148 0.45094091 98 105 112
0.27080820 -0.17415048 0.45062894 97 106 113
0.27887821 -0.00203284 0.65260386 143 143 143
0.27916041 0.00304398 0.65260386 133 134 136
0.27550851 0.13140309 0.57847850 159 160 162
0.27471326 0.13500764 0.58161656 156 158 161
0.26527305 0.19530265 0.93298271 147 150 154
0.26363172 0.20192551 0.93437928 134 134 139
0.26126006 0.33643824 1.74265254 158 159 163
0.28855999 -0.00298575 0.65388535 132 133 136
0.28616891 0.00214263 0.65295003 134 136 139
0.28445617 0.13266745 0.57951887 163 163 161
0.28669952 0.13179565 0.58222306 168 169 168
0.29118428 0.12971744 0.73566351 162 163 164
0.29558603 0.13610070 0.74561741 162 163 164
0.29440069 0.14242204 0.74792806 159 160 161
0.29400606 0.25562900 0.69892379 139 139 138
0.29217325 0.25763814 0.70218417 147 148 147
0.29635124 0.27115854 0.69782459 162 163 161
0.29405675 0.27087847 0.70765066 156 159 158
0.29165846 0.27912968 0.72192955 141 145 146
0.29328448 0.28296329 0.69903822 150 151 150
0.28926640 0.28557072 0.70728433 144 145 144
0.28817186 0.28384972 0.72376981 153 156 155
0.30076546 -0.00488777 0.65729670 135 137 141
0.31896125 0.05920651 0.52539580 115 124 130
0.31426789 0.06510233 0.52429290 122 127 131
0.30952442 0.13591590 0.73537098 146 147 150
0.30542833 0.13555485 0.74754006 130 132 135
0.30737069 0.13110471 0.76082134 140 146 148
0.31447470 0.14377918 0.73133139 152 153 154
0.31122897 0.15041014 0.75063022 158 159 159
0.31122689 0.15728947 0.76167666 172 173 172
0.31932983 0.16073303 0.74575561 159 160 162
0.31166553 0.16021493 0.76167625 176 177 175
0.30032140 0.25842645 0.70516219 126 126 127
0.30014676 0.27294745 0.69813782 157 158 155
0.30072950 0.26327948 0.70717219 147 148 147
0.32548812 0.05838988 0.73924953 153 156 157
0.33041884 0.05257391 0.74493349 147 148 148
0.32120047 0.06605939 0.52493256 122 125 128
0.32467195 0.06155102 0.73884690 139 144 149
0.32355624 0.06164545 0.74109952 121 127 131
0.32225706 0.15185259 0.73355422 155 157 158
0.32358057 0.15502227 0.74626940 153 154 156
0.32390946 0.16108747 0.74740005 160 161 161
0.33915843 0.30805282 1.01633116 135 136 139
0.33785297 0.31732261 1.03025222 147 151 154
0.33418090 0.32568519 1.03732821 136 138 143
0.33346174 0.33158757 1.04433779 134 136 139
0.33473298 0.34247265 1.04962506 162 164 163
0.34070310 0.05257455 0.74740005 156 157 158
0.35923263 0.19707990 0.47371897 164 166 162
0.34205985 0.30811652 1.01505548 144 144 147
0.34319668 0.31706153 1.02489642 159 161 163
0.34428071 0.32235001 1.03669641 157 159 161
0.34718140 0.32945843 1.04725385 157 159 160
0.35635799 0.33788934 1.06419444 167 168 169
0.36546724 0.19155870 0.47764664 140 144 142
0.36662546 0.19194192 0.48136393 131 132 133
0.39620325 0.13380844 0.47489220 161 164 159
0.41562541 0.09865792 0.47841905 137 142 143
0.41550703 0.09815231 0.48504336 141 144 144
0.41546173 0.10053455 0.47907585 139 141 143
0.40949932 0.10839191 0.48699103 146 148 146
0.40164591 0.13190761 0.47485277 153 155 153
0.41527178 0.14857669 0.79100859 149 149 152
0.43329208 -0.60281901 1.13740456 90 83 71
0.43721344 -0.60593861 1.14639238 90 85 73
0.43603503 -0.58887580 1.13531165 88 81 70
0.43721751 -0.58358177 1.14251648 88 80 73
0.43470728 -0.57551485 1.13835824 88 80 73
0.43669346 -0.57675438 1.14354665 88 79 73
0.43383285 -0.25132716 0.53768689 97 111 115
0.43201773 -0.24628828 0.54015285 97 112 115
0.42661325 -0.08436607 0.45690234 72 81 83
0.42542685 -0.07885784 0.45791566 55 57 60
0.42131476 0.09777495 0.49319948 158 159 154
0.42476539 0.14943063 0.77674258 162 164 163
0.42532498 0.15028340 0.79045306 161 163 163
0.43735037 0.17726442 0.58917075 140 143 143
0.43741610 0.18472396 0.59110056 165 167 164
0.43975791 0.19064263 0.60043561 170 174 171
0.44064680 -0.60705490 1.14664416 89 86 74
0.44327824 -0.58957015 1.12969039 87 80 69
0.44052205 -0.57736352 1.13408267 89 79 73
0.44034696 -0.57787108 1.14380022 88 78 72
0.44106446 0.19195420 0.59768349 162 163 161
0.44437499 0.19656745 0.60718567 156 159 156
0.44781324 0.20098718 0.61543535 147 149 147
0.45242027 0.20443420 0.62460639 147 147 147
0.45996836 0.24160990 0.85917848 162 163 164
0.45786912 0.24560055 0.87696524 152 157 155
0.45846221 0.24838590 0.88693885 142 146 144
0.47032482 0.23785167 0.87397150 140 144 147
0.47194750 0.23771876 0.88889103 136 137 137
0.47773563 0.23625631 0.90305559 152 153 150
0.46458884 0.24258158 0.87405704 160 163 163
0.46527757 0.24382930 0.88911639 144 146 146
0.46759284 0.24876577 0.90937249 138 139 139
0.47164609 0.25473429 0.92933887 137 137 138
0.47541693 0.25779924 0.94282591 138 139 139
0.47179067 0.26117395 0.92991449 130 132 133
0.49932438 -0.21967971 0.57692921 94 104 111
0.48759845 0.05830976 0.47944292 131 140 142
0.48935687 0.05934699 0.48136934 126 135 136
0.48756901 0.06357020 0.47953776 116 125 127
0.48687994 0.06621181 0.48144432 109 116 120
0.49365287 0.09556135 1.35850072 170 169 171
0.49549725 0.09599550 1.36466145 153 153 156
0.48386930 0.10651895 1.35850072 157 158 158
0.49186663 0.10590162 1.36706018 152 153 153
0.48157161 0.23717331 0.89473299 123 126 129
0.48830439 0.23583448 0.91231062 147 148 148
0.49393151 0.23353553 0.92261852 161 161 159
0.48898326 0.24066072 0.91486046 128 128 129
0.49283835 0.24055864 0.92355835 155 156 154
0.51531601 -0.24090934 0.58489376 91 106 116
0.50631207 -0.22382825 0.57738234 90 105 111
0.51409026 -0.23370265 0.58255668 91 106 112
0.50462667 -0.21889059 0.57734757 93 105 111
0.51350404 0.03871348 0.76523972 152 152 151
0.51588711 0.04211611 0.76639557 136 136 137
0.51537748 0.09252292 1.35697307 134 135 136
0.51019190 0.09419745 1.36619631 146 148 149
0.51687549 0.10607396 1.35782146 135 136 137
0.51125470 0.10968428 1.36964282 140 144 146
0.51004821 0.11620888 1.38063514 122 127 134
0.50957802 0.12126860 1.35714221 132 135 143
0.51062705 0.12252577 1.36466885 126 132 138
0.50756915 0.23777540 0.59949217 102 104 107
0.50964218 0.23560132 0.60414834 112 115 116
0.50580772 0.24043032 0.59779251 124 125 122
0.51334302 0.24127677 0.60350392 104 107 111
0.51880985 0.53294420 1.37225068 166 167 167
0.51961970 0.54402035 1.34971103 155 155 155
0.51768897 0.54822010 1.36305455 154 155 156
0.51798570 0.54429877 1.38912261 159 163 162
0.51901740 0.56794184 1.41818380 151 153 153
0.51873660 0.57525122 1.42414248 141 142 142
0.52295915 0.03857403 0.76316052 145 146 146
0.52405533 0.04631546 0.75770630 138 138 137
0.52330052 0.04551447 0.76460617 143 146 147
0.52326053 0.09275734 1.35612468 140 144 146
0.52353666 0.08995243 1.36515713 143 143 146
0.52198846 0.10751537 1.35789694 134 135 139
0.52277368 0.10898062 1.36347154 131 135 138
0.52248076 0.23380675 0.59865349 140 145 140
0.52227879 0.23518426 0.60337397 124 129 126
0.52189311 0.24156488 0.60792924 99 107 110
0.52414260 0.53585277 1.35252537 164 165 164
0.52574964 0.53632899 1.37182971 167 168 167
0.52286089 0.54538251 1.35309192 157 157 157
0.52299339 0.54816378 1.37079011 157 157 156
0.52497031 0.55004906 1.38736976 161 162 161
0.52544060 0.55689313 1.40424585 157 161 160
0.52461550 0.56016821 1.37503421 154 155 155
0.52566925 0.56446487 1.38913665 157 157 157
0.52904859 0.56846920 1.40936969 157 158 159
0.53051652 0.57283012 1.43209653 153 156 155
0.53302818 0.58491791 1.43233221 152 153 153
0.53419167 0.59010755 1.44755793 148 151 150
0.53709748 0.60152549 1.46412921 141 142 141
0.55961567 0.17479298 0.52754229 156 164 157
0.56871487 0.17540208 0.52895397 156 159 155
0.57472929 0.18138372 0.52851882 126 128 127
0.58306146 0.17923432 0.53398344 144 147 143
0.58089076 0.18102324 0.53178535 122 127 125
0.61146371 0.16571617 0.61691388 142 149 149
0.61732400 0.17209264 0.62812108 140 146 145
0.61635053 0.25594664 1.81254506 114 114 123
0.61975563 0.25485997 1.82721502 99 98 115
0.62358949 0.17457886 0.63367162 141 145 144
0.62829524 0.17463663 0.64481755 115 118 122
0.62638043 0.18368502 0.63714713 146 149 146
0.63146728 0.18775447 0.64012450 139 148 146
0.63970274 0.23807945 1.80771160 122 126 131
0.63712531 0.23906726 1.82720172 133 136 144
0.63857126 0.25512184 1.79574311 120 123 132
0.63422398 0.25483919 1.81255722 108 112 120
0.63411769 0.24812962 1.82886565 108 111 121
0.62936070 0.25274754 1.84768971 108 108 121
0.63221023 0.25224845 1.86234021 115 114 124
0.63941705 0.26323363 1.79812157 140 149 150
0.63923192 0.26279013 1.80933996 117 122 130
0.63626686 0.26555641 1.82474583 118 121 128
0.65596340 -0.28181337 0.83484288 90 103 111
0.65683852 -0.27829740 0.83543112 87 103 113
0.64190793 0.17538836 0.65878743 137 141 141
0.65110798 0.17158252 0.67193420 143 146 144
0.65796384 0.16650680 0.68509254 147 148 146
0.64111757 0.23900434 1.80290389 132 135 143
0.64706184 0.23885304 1.82556446 137 139 142
0.65079317 0.24989406 1.81053145 132 133 140
0.64707885 0.24703078 1.82452499 111 114 125
0.65392061 0.26116169 1.79812157 137 139 143
0.65044062 0.26586352 1.80841867 131 137 138
0.64893672 0.27052967 1.82639643 112 117 120
0.65052024 0.27517568 1.84914095 139 142 144
0.66666687 -0.28395438 0.83793884 87 105 109
0.66894534 -0.28573625 0.84001470 89 105 109
0.66645113 -0.27770059 0.83787702 87 105 110
0.66919072 -0.27614363 0.84032122 90 106 109
0.66322652 0.17175205 0.69194042 143 147 146
0.66198021 0.24720910 1.81740439 134 135 138
0.77567469 0.23303172 1.07687956 153 155 154
0.77785665 0.24761531 1.05263216 171 174 169
0.77315654 0.38765851 1.16943464 155 159 157
0.77854168 0.39403254 1.18305731 158 167 162
0.77652097 0.40011695 1.17689562 156 159 153
0.77718538 0.40151110 1.18099630 155 158 153
0.78312936 0.23515435 1.05577159 166 168 167
0.78582478 0.23631638 1.07101198 161 165 164
0.78616903 0.23723860 1.08666017 154 158 157
0.78064519 0.24583203 1.05591313 176 178 173
0.78545495 0.24424130 1.07234998 166 167 166
0.78690703 0.24205589 1.08988942 152 155 155
0.79034606 0.24453070 1.10788955 142 143 143
0.78239781 0.38679181 1.17351488 141 142 142
0.79233768 0.39008386 1.18472357 132 133 133
0.81045984 0.39572528 1.19684952 128 130 130
0.81277350 0.39440511 1.20290631 126 128 128
0.80809602 0.40551846 1.19480985 154 154 152
0.81151186 0.41634753 1.20623046 148 148 147
0.83725727 0.14938269 0.84874610 163 166 163
0.82488898 0.39386935 1.21417689 135 137 135
0.82881618 0.39027479 1.22252911 147 147 144
0.85307440 0.15843245 0.73804250 155 160 158
0.85832325 0.15884987 0.74147421 153 157 155
0.84824111 0.14734030 0.85310578 162 165 162
0.85353881 0.16043356 0.73844427 157 158 157
0.85778721 0.16793313 0.74198105 147 152 150
0.87488908 -0.32633024 0.89752252 87 101 106
0.87498856 -0.32852807 0.90246679 88 101 105
0.87422658 -0.31488292 0.89596662 86 99 106
0.87425842 -0.31701736 0.90366432 89 101 106
0.86776421 0.15744125 0.74290602 146 149 147
0.86131728 0.14860778 0.85809094 160 166 159
0.86521953 0.15463113 0.86506804 165 167 162
0.87810904 0.16687511 0.73871326 150 154 153
0.86966073 0.16608982 0.74387615 140 144 143
0.89121700 -0.33128469 0.89741126 86 102 105
0.89303640 -0.32771608 0.90452064 88 102 106
0.88481557 -0.31398232 0.89795595 89 98 109
0.89265337 -0.31726836 0.90225505 86 99 108
0.88188848 0.16718578 0.74371181 139 142 142
0.90444797 -0.32223523 0.90809560 85 101 107
0.90302572 -0.31767417 0.90627496 86 99 108
0.93873531 0.38504960 1.49315381 148 154 151
0.93452525 0.38975808 1.53716969 162 162 159
0.93771601 0.39108577 1.54241800 163 163 161
0.95819634 -0.22699545 0.99719729 78 94 99
0.95809381 -0.21825577 0.99714807 79 93 100
0.95508796 0.37835565 1.52335250 146 146 146
0.95163031 0.37691012 1.54770956 146 146 145
0.94091736 0.38736199 1.49909859 144 149 147
0.95269872 0.38839823 1.51120561 152 156 154
0.94947289 0.39053294 1.53205385 132 135 135
0.94848366 0.38942259 1.54558179 138 138 138
0.95670676 0.38702914 1.56919408 132 132 132
0.95676003 0.40122033 1.53025071 117 122 125
0.95141935 0.40313259 1.54771068 122 126 125
0.95720327 0.41048896 1.56557012 135 139 137
0.95290279 0.43974990 1.07944560 134 141 140
0.95028105 0.44219744 1.07858753 115 130 127
0.95255387 0.44045126 1.08116722 132 140 139
0.97600038 -0.54104920 1.06545198 90 116 120
0.96944195 -0.52668954 1.05879289 95 115 117
0.97587767 -0.52865844 1.06460388 93 115 116
0.96260691 -0.51045738 1.05865518 94 113 116
0.97162443 -0.51593122 1.06378136 94 114 115
0.96737814 -0.46521237 1.17894232 97 105 113
0.97631055 -0.46515278 1.18661956 93 106 111
0.97453346 -0.44727325 1.19317380 90 106 111
0.97215071 -0.44986465 1.20804622 91 106 112
0.97769743 -0.43776783 1.19487480 90 104 108
0.96862803 -0.22523195 0.99700290 80 94 99
0.97508497 -0.22438155 1.00205797 80 93 98
0.96856262 -0.21754932 0.99870460 79 91 97
0.97069725 -0.21144477 1.00191076 79 91 98
0.96266067 0.37737328 1.53543085 149 149 146
0.97009399 0.37534341 1.54973479 158 159 153
0.97209282 0.37749563 1.56340899 159 160 157
0.96106362 0.39152229 1.51823676 154 158 156
0.96774875 0.38868882 1.53508620 153 155 155
0.96779910 0.38715834 1.54739392 148 149 149
0.96858267 0.38185489 1.57024874 145 145 144
0.96716267 0.38576885 1.58634384 147 148 146
0.96373528 0.41054481 1.54997710 104 108 116
0.96826485 0.41001604 1.56376642 105 111 114
0.97978419 0.41704756 1.58016741 105 109 113
0.96965208 0.43872537 1.10346194 153 157 156
0.96462274 0.44764367 1.09648219 121 133 131
0.97156017 0.44857808 1.11029078 133 139 136
0.97422153 0.45547086 1.12375947 119 123 123
0.97571554 0.46283135 1.13087886 113 114 113
0.97983068 0.46590702 1.14123201 115 116 116
0.98908186 -0.54110034 1.07128536 93 117 118
0.99185912 -0.52427692 1.05700618 95 113 115
0.99129729 -0.53043518 1.06946549 95 114 116
0.98898411 -0.51988018 1.05426419 94 115 115
0.98361328 -0.46334771 1.19138090 92 106 110
0.98481994 -0.45432845 1.19281886 88 107 115
0.98141456 -0.22657444 0.99836797 80 93 98
0.98157796 -0.22654652 1.00205797 79 94 98
0.99329872 0.35710948 1.13206698 144 144 140
0.99118636 0.37229758 1.11149733 143 152 149
0.99807631 0.36711867 1.13288038 134 137 135
0.99061802 0.37618226 1.56920248 150 150 148
0.98775103 0.38811830 1.55480375 152 154 154
0.99389043 0.38376195 1.57138872 147 147 144
0.99890250 0.38290766 1.58016741 139 139 138
0.98162937 0.41900092 1.58756876 106 110 114
0.98426612 0.42405318 1.58850473 95 97 110
0.98527641 0.47057441 1.15315562 116 116 113
0.98861916 0.47359758 1.16377059 121 120 115
1.00433882 0.35641089 1.13214025 142 142 137
1.01652515 0.35625854 1.14702511 138 138 134
1.00395136 0.36790782 1.13161210 152 157 151
1.00918115 0.37539737 1.14795199 134 141 140
1.00964952 0.37858549 1.16077375 101 107 109
1.00184333 0.38380932 1.12606621 151 159 155
1.01321009 0.38135140 1.14950317 129 137 136
1.01563778 0.38402546 1.16611528 108 113 116
1.00310352 0.39064510 1.57283911 154 155 156
1.01126754 0.38936505 1.58757567 150 152 152
1.01712316 0.40163429 1.58943206 158 159 160
1.02540226 0.39035548 1.15524082 147 156 153
1.02921787 0.38991174 1.16727405 133 142 141
1.03611415 0.39627921 1.18825715 116 123 123
1.02394049 0.39294492 1.59739079 156 158 157
1.03287263 0.39163804 1.60475509 161 163 163
1.03804335 0.40327740 1.17130584 149 155 151
1.03342003 0.40485361 1.60765970 156 157 158
1.03991199 0.60939866 1.89355266 119 122 129
1.04163913 0.39880341 1.18305973 134 143 142
1.04273585 0.39591361 1.61275641 160 162 163
1.05294210 0.39813682 1.62564927 161 163 164
1.04953764 0.40764182 1.19313139 139 145 143
1.05602847 0.41079310 1.21091554 132 137 136
1.04180372 0.40614042 1.61275641 153 157 158
1.04997076 0.41437023 1.62788636 160 162 162
1.05428374 0.42647487 1.19663262 138 139 139
1.05895615 0.42317223 1.20193589 139 143 144
1.04246294 0.61282223 1.90419054 115 117 124
1.05630124 0.61305153 1.92037344 124 128 131
1.05698609 0.62500161 1.93683386 113 113 122
1.05839157 0.63590276 1.97061586 151 146 142
1.05157948 0.64271486 1.97061586 152 148 149
1.07164860 0.37859945 1.49316108 159 162 160
1.07867295 0.37503301 1.50475621 162 164 162
1.07530522 0.38201985 1.49644995 155 155 155
1.07530351 0.38368466 1.50980135 164 168 166
1.07628553 0.38830227 1.52678691 169 174 173
1.06204534 0.41684721 1.21378237 137 141 140
1.06451762 0.41681520 1.22447026 133 136 136
1.07756960 0.40754762 1.54417276 153 154 146
1.06339610 0.40102634 1.63741994 162 163 165
1.06574018 0.42709650 1.21361098 137 139 140
1.07237440 0.42959162 1.22757193 135 137 137
1.06391418 0.42586356 1.65140295 167 169 167
1.07578278 0.44006485 1.22584414 135 139 140
1.06564301 0.61654973 1.93133146 128 133 135
1.06698412 0.62534553 1.95360306 115 116 120
1.07202488 0.63079408 1.97063243 119 120 122
1.06905437 0.63453011 1.98407749 152 153 147
1.06426692 0.64493328 1.98795259 150 146 145
1.08880515 0.37774454 1.53370450 164 167 162
1.09479415 0.37883428 1.54683301 170 176 166
1.08556985 0.39020879 1.51506972 168 170 168
1.08754948 0.39136905 1.53043800 167 171 169
1.09100156 0.38701972 1.54255298 160 163 160
1.08981556 0.40691936 1.53474000 160 162 160
1.08885652 0.41150467 1.54559585 155 156 153
1.08115697 0.43418181 1.23929036 134 138 139
1.08481610 0.43090173 1.24844160 134 136 136
1.09053183 0.43055585 1.26002204 135 135 134
1.08635402 0.42238188 1.53022993 125 126 126
1.09161990 0.42231153 1.54518233 140 141 139
1.08338159 0.44341692 1.23815966 133 136 137
1.09172821 0.44297447 1.25306896 134 135 137
1.08041966 0.61495864 1.93683386 153 154 154
1.08844095 0.60624945 1.98504627 174 176 168
1.08638394 0.62027526 1.95357883 148 149 151
1.08988063 0.62255299 1.96719527 143 144 145
1.09240880 0.62771415 1.98602076 133 133 135
1.11790156 0.32661647 1.39771509 172 179 168
1.11045599 0.37859932 1.56799722 170 179 168
1.11634374 0.37881088 1.58016741 168 177 167
1.11374760 0.38065475 1.57649267 172 182 170
1.10331267 0.40391494 1.53543085 166 167 165
1.10839970 0.41398827 1.54524993 158 159 157
1.10270405 0.43402897 1.27663545 136 137 136
1.11946893 0.43926376 1.29864335 137 138 137
1.11129507 0.43876931 1.30552441 156 158 154
1.10787715 0.42451582 1.54510305 144 147 147
1.10435724 0.44770778 1.27042909 130 133 134
1.11297888 0.44636527 1.29330419 143 144 143
1.11380931 0.44668697 1.31021766 163 167 162
1.11626899 0.44925413 1.32142663 162 166 163
1.10693473 0.62362063 1.99674028 143 144 143
1.12892282 0.31632426 1.43317509 155 156 154
1.12808352 0.32747563 1.41289365 164 172 165
1.12935960 0.33400045 1.42966330 153 158 154
1.13549707 0.32807330 1.44789298 143 144 142
1.13116528 0.34740909 1.43639471 158 166 164
1.13372428 0.34943649 1.44721431 152 158 157
1.12883222 0.36167720 1.43621159 164 169 166
1.13194676 0.36347439 1.44334817 166 171 166
1.12260687 0.41572651 1.55479777 157 161 158
1.13842583 0.41957584 1.56919408 152 156 153
1.12240738 0.43968770 1.30994689 138 138 137
1.13584127 0.43296958 1.34413749 161 162 158
1.12828591 0.42381775 1.55614017 157 162 162
1.13419569 0.42111759 1.56485863 156 159 157
1.12171352 0.44824216 1.29864335 134 134 133
1.12647416 0.45097887 1.30941703 141 142 140
1.12768484 0.45198394 1.32843311 160 164 160
1.13559563 0.45122540 1.34603292 163 166 161
1.13696015 0.46116012 1.31629479 129 129 131
1.13493168 0.46214071 1.34903985 160 165 163
1.14225194 0.33025951 1.43560684 148 152 151
1.14844418 0.32729472 1.45160347 138 139 139
1.15232195 0.32965705 1.46770996 140 140 139
1.14469669 0.34459568 1.43743384 168 169 168
1.14475864 0.34762006 1.44747168 161 167 165
1.14569855 0.35377275 1.46519017 146 152 152
1.14921268 0.43569748 1.35277184 155 156 153
1.15336883 0.43350241 1.36535352 160 162 160
1.14350514 0.45449721 1.33009064 142 143 141
1.14836621 0.44581180 1.35063063 147 147 146
1.15320359 0.44871675 1.36857173 167 169 164
1.14684194 0.46335828 1.33574873 147 147 145
1.15512332 0.46664549 1.34617865 145 146 143
1.14803723 0.46608514 1.36742720 158 162 160
1.15912616 0.46461102 1.38063514 164 168 164
1.15836692 0.73643452 1.80771160 120 122 123
1.16339947 0.33063283 1.47004426 139 138 138
1.17443399 0.33314231 1.48227708 133 133 135
1.16756761 0.43684731 1.35376486 114 119 119
1.16836141 0.43748477 1.36831432 147 149 149
1.16389871 0.43836153 1.38063514 160 161 159
1.16432621 0.44521366 1.35697443 133 135 134
1.17129120 0.44592790 1.36598060 137 139 138
1.17106148 0.45121440 1.39166979 165 166 162
1.17832490 0.44399704 1.40351482 162 163 160
1.16328418 0.47373457 1.35218624 131 131 131
1.16601295 0.46828454 1.39084226 163 167 163
1.17591289 0.46842635 1.40642375 168 172 167
1.16771924 0.73724198 1.81740439 115 115 116
1.17085820 0.73922378 1.82228994 119 119 120
1.16143680 0.74352443 1.81740439 121 125 124
1.16692051 0.74487917 1.82845631 114 115 117
1.17723227 0.74929500 1.84711671 109 110 114
1.17724741 0.76094615 1.85216355 117 125 124
1.18294334 0.43895984 1.37503421 123 124 126
1.18537557 0.44074786 1.38063514 130 131 133
1.18665558 0.45084828 1.41707350 160 162 157
1.19170860 0.45401074 1.42766367 158 159 157
1.18530492 0.46557168 1.41375911 165 168 164
1.19163407 0.46627426 1.42585756 160 165 163
1.19669229 0.75536579 1.87005001 112 114 115
1.18534625 0.76134387 1.86490542 109 111 113
1.19532257 0.77034549 1.88934774 106 108 111
1.19700885 0.78122342 1.89355266 112 122 120
1.21082731 0.75850567 1.88894477 114 117 119
1.20440215 0.76293853 1.89488608 109 112 114
1.20910678 0.76868476 1.90956054 115 117 120
1.21574813 0.77623221 1.92582905 117 119 122
1.20028174 0.78449625 1.89355266 118 127 128
1.20513749 0.78937358 1.90849380 113 121 121
1.21335700 0.78790882 1.92996755 120 121 125
1.21780550 0.79129779 1.94238353 126 126 130
1.21741247 0.80119699 1.92582905 118 123 126
1.23509192 0.73563042 1.90687251 133 130 130
1.22005403 0.76043755 1.89885676 116 117 119
1.22708356 0.76357210 1.91494870 117 118 120
1.22834427 0.76839101 1.92583794 118 120 121
1.23412487 0.77231553 1.95186393 119 120 121
1.23871744 0.76990670 1.96490383 121 121 122
1.22434552 0.79121529 1.95148173 125 127 130
1.23445812 0.79111043 1.96817258 125 127 129
1.22032654 0.80597809 1.90955448 101 107 109
1.22686396 0.80970529 1.93023720 109 114 116
1.22923597 0.81031850 1.95047800 117 122 123
1.22907409 0.80695944 1.97063059 137 139 139
1.23221254 0.81010748 1.98913573 151 151 150
1.23813951 0.82050687 1.94796503 108 109 111
1.23532116 0.82084936 1.96490383 114 115 117
1.23855229 0.82143428 1.99383398 148 150 147
1.25600895 0.73455594 1.95219961 155 156 153
1.24774852 0.74665782 1.93545434 132 130 130
1.25382352 0.75017690 1.95246576 135 135 132
1.24904287 0.75763974 1.96833768 132 133 131
1.25300932 0.75953043 1.98213995 136 137 139
1.25081200 0.77089228 1.95593945 116 116 118
1.25192173 0.76854281 1.97012349 121 121 120
1.25232953 0.77236377 1.98650801 132 132 131
1.24252427 0.78293589 1.97636104 126 127 127
1.24822136 0.79155928 1.99089901 128 130 129
1.24314940 0.80190557 1.99379957 135 136 137
1.24190998 0.82186329 1.95922494 112 115 116
1.24659893 0.82861611 1.99382538 129 132 130
1.26275456 0.73808426 1.97061586 159 160 160
1.26196718 0.74689788 1.95357883 140 138 135
1.26403616 0.74958074 1.97062829 146 146 144
1.27292621 0.75463710 1.99186204 147 148 148
1.26380193 0.77366946 1.96871185 109 109 110
1.26373704 0.76210137 1.99187350 133 136 136
1.35977638 0.31586769 1.21268666 158 162 160
1.36722990 0.31637545 1.21395830 157 159 157
1.37203983 0.31423226 1.23094433 150 153 153
1.37238163 0.32178670 1.21922994 149 152 151
1.37385482 0.32871652 1.22718891 156 159 158
1.37780844 0.35613806 1.23278096 159 164 159
1.37814200 0.36217117 1.23477566 156 162 158
1.38315928 0.31924890 1.21758825 135 136 136
1.38798585 0.32968569 1.22754914 145 147 147
1.38526380 0.33667868 1.24308165 157 162 160
1.38413558 0.34861633 1.23642128 158 162 158
1.39321389 0.35156480 1.25021584 157 161 157
1.38323336 0.36409351 1.23646766 156 162 159
1.39295985 0.37051202 1.24757276 157 163 158
1.41247785 0.34767456 1.26947150 156 161 159
1.40359337 0.37720022 1.25536019 156 159 153
1.40615181 0.36958022 1.26378592 155 160 156
1.40523070 0.38046539 1.26002204 149 150 147
1.40123487 0.73898828 1.66558194 75 79 80
1.41164005 0.74592596 1.67795014 85 89 90
1.41927910 0.75296736 1.69050336 90 92 92
1.43532389 0.35496198 1.29000449 153 158 157
1.42988187 0.36027345 1.28511345 156 160 156
1.42282724 0.75192058 1.69472957 80 83 83
1.43719923 0.75655699 1.71184814 74 77 78
1.43719923 0.76543331 1.71184814 107 112 110
1.45379535 -0.48186865 1.49644995 82 104 107
1.45807737 -0.48790251 1.50308609 86 100 108
1.45064634 -0.47333181 1.49810535 81 101 105
1.45242144 -0.46740637 1.50849472 83 100 103
1.45820431 -0.47860256 1.52449616 80 101 102
1.45525029 -0.45348622 1.51039022 84 97 103
1.45946681 0.35808489 1.31374383 154 160 160
1.44217324 0.36001310 1.29616034 154 159 156
1.45805538 0.37021425 1.31247330 157 161 156
1.44582486 0.76855214 1.73522059 89 90 92
1.45340252 0.77163158 1.75279886 87 87 88
1.45594180 0.78071412 1.73596150 132 136 135
1.45667865 0.78511093 1.75102690 120 122 123
1.45919919 0.78428417 1.77458596 97 98 101
1.47480518 -0.48685730 1.49591277 82 101 106
1.47185619 -0.48716835 1.50655624 82 100 106
1.46192682 -0.48216656 1.53022993 81 101 103
1.46913455 -0.46738697 1.49727838 84 101 107
1.46629048 -0.47103022 1.50879185 82 100 102
1.46443008 -0.46388414 1.53100794 85 97 101
1.47257841 -0.46387357 1.54417276 88 99 104
1.46370924 -0.45840254 1.49865715 84 99 103
1.46438488 -0.45579438 1.51172430 84 97 104
1.46483953 -0.45357832 1.52748053 85 96 105
1.47257841 -0.45987010 1.54417276 85 99 104
1.46443447 0.36500145 1.31821552 153 158 156
1.46079266 0.76913625 1.74714386 75 76 78
1.46000218 0.77512956 1.76075804 78 78 79
1.46330651 0.78861121 1.75015366 131 133 133
1.46839508 0.79530844 1.76844835 120 120 122
1.47407572 0.79337687 1.78817213 101 102 105
1.47262305 0.80457598 1.77537036 116 116 116
1.47759529 0.80967194 1.79251572 123 124 124
1.48206973 -0.48682307 1.49976075 84 102 108
1.48448402 -0.48775008 1.50849901 81 101 106
1.48239177 0.78948563 1.79336884 90 91 91
1.49089122 0.79338541 1.80933134 108 109 108
1.48455608 0.80786961 1.77924371 124 124 124
1.48475945 0.81434814 1.79165991 116 117 117
1.48927289 0.81938574 1.81497473 139 139 140
1.49930573 0.80122155 1.82720172 121 121 121
1.49013889 0.82048064 1.79336464 97 103 103
1.48701004 0.82538815 1.81095111 122 125 124
1.51564693 0.80676162 1.84711671 125 126 123
1.50030732 0.82265699 1.79812157 110 114 116
1.50429753 0.82692236 1.80290389 110 117 118
1.50425673 0.83731711 1.83710527 128 129 127
1.50834441 0.83640850 1.84209740 136 137 137
1.86081672 0.76756400 1.97636104 136 145 146
1.88277328 0.78007704 1.99968100 138 147 146
