ply
format ascii 1.0
element vertex 1035
property float x
property float y
property float z
property uchar red
property uchar green
property uchar blue
end_header
0.38871786 -0.24494632 0.55292970 168 169 171
0.38967356 -0.24494632 0.55292970 172 173 175
0.37322700 -0.23064838 0.52065426 174 175 177
0.37412691 -0.23064838 0.52065426 174 176 178
0.37502682 -0.23064838 0.52065426 176 179 181
0.37621570 -0.23082566 0.52105445 176 180 182
0.37711629 -0.23082566 0.52105445 176 178 180
0.37859890 -0.23118106 0.52185667 174 176 177
0.37950090 -0.23118106 0.52185667 172 175 176
0.38011026 -0.23100322 0.52145529 174 177 178
0.38071868 -0.23082566 0.52105445 175 178 180
0.38161927 -0.23082566 0.52105445 174 176 178
0.38251987 -0.23082566 0.52105445 174 175 177
0.38312599 -0.23064838 0.52065426 174 175 177
-0.12144427 -0.20363003 0.46146482 168 168 171
-0.12064666 -0.20363003 0.46146482 168 168 171
-0.12001245 -0.20390764 0.46209395 177 180 181
-0.11937651 -0.20418601 0.46272480 174 177 178
-0.11857673 -0.20418601 0.46272480 168 171 171
0.07575192 -0.32373649 0.73364919 176 176 179
0.07693671 -0.32338649 0.73285604 170 170 173
0.07820339 -0.32338649 0.73285604 175 175 177
0.07938425 -0.32303727 0.73206460 177 177 178
0.08064956 -0.32303727 0.73206460 181 181 182
0.08173834 -0.32234105 0.73048687 174 174 174
0.08300093 -0.32234105 0.73048687 173 173 173
0.08426351 -0.32234105 0.73048687 180 180 180
0.25635123 -0.22904480 0.51905960 159 159 160
0.25705156 -0.22886956 0.51866245 159 159 160
0.38300219 -0.24339505 0.55158001 152 152 155
0.38302061 -0.24280235 0.55023688 152 153 155
0.38397163 -0.24280235 0.55023688 150 151 154
0.38523537 -0.24299960 0.55068386 144 145 148
0.38713065 -0.24359325 0.55202919 158 159 161
0.38840106 -0.24379177 0.55247909 171 172 174
0.37322700 -0.22974847 0.52065426 173 177 178
0.37412691 -0.22974847 0.52065426 174 177 178
0.37473899 -0.22957215 0.52025467 174 178 179
0.37592673 -0.22974847 0.52065426 173 177 178
0.37682664 -0.22974847 0.52065426 175 179 180
0.37830767 -0.23010193 0.52145529 176 179 180
0.37920895 -0.23010193 0.52145529 172 175 176
0.37981808 -0.22992507 0.52105445 175 176 178
0.38071868 -0.22992507 0.52105445 177 178 180
0.38132617 -0.22974847 0.52065426 176 177 179
0.38251987 -0.22992507 0.52105445 176 177 179
0.38283196 -0.22957215 0.52025467 174 176 177
-0.12081114 -0.20310895 0.46209395 182 182 182
-0.12009431 -0.20324749 0.46240917 176 180 179
-0.11937651 -0.20338623 0.46272480 174 178 177
0.02423689 -0.20051199 0.45618564 173 174 175
0.02804717 -0.19957188 0.45404679 177 177 179
0.07567003 -0.32211980 0.73285604 173 173 176
0.07685362 -0.32177195 0.73206460 172 172 175
0.07820339 -0.32211980 0.73285604 180 180 182
0.07929862 -0.32142484 0.73127490 182 182 182
0.08056256 -0.32142484 0.73127490 184 184 184
0.08165035 -0.32073286 0.72970057 181 181 181
0.08291158 -0.32073286 0.72970057 175 175 175
0.38492268 -0.24185131 0.55023688 158 159 160
0.38713065 -0.24263911 0.55202919 168 169 169
0.38840106 -0.24283686 0.55247909 171 172 173
0.36872745 -0.22884856 0.52065426 178 178 178
0.36906046 -0.22849756 0.51985568 179 179 179
0.37294057 -0.22867292 0.52025467 177 178 180
0.37412691 -0.22884856 0.52065426 176 177 179
0.37473899 -0.22867292 0.52025467 172 174 176
0.37592673 -0.22884856 0.52065426 173 175 177
0.37682664 -0.22884856 0.52065426 179 180 182
0.37801689 -0.22902445 0.52105445 177 178 180
0.37920895 -0.22920063 0.52145529 173 174 176
0.37981808 -0.22902445 0.52105445 174 175 177
0.38071868 -0.22902445 0.52105445 175 176 178
0.38132617 -0.22884856 0.52065426 174 175 177
0.38222608 -0.22884856 0.52065426 173 175 176
0.38283196 -0.22867292 0.52025467 172 176 176
-0.12017629 -0.20258644 0.46272480 179 183 182
-0.11945805 -0.20272483 0.46304089 178 182 181
0.02425321 -0.19985801 0.45649281 176 176 176
0.02802840 -0.19865404 0.45374286 176 176 178
0.02879338 -0.19852117 0.45343935 169 169 171
0.07811894 -0.32050663 0.73206460 183 183 185
0.07921316 -0.31981587 0.73048687 183 183 185
0.08047575 -0.31981587 0.73048687 181 181 182
0.08156256 -0.31912810 0.72891593 178 178 178
0.38492268 -0.24090028 0.55023688 176 176 176
0.36901087 -0.22812386 0.52105445 167 168 168
0.36934370 -0.22777371 0.52025467 171 172 172
0.37024292 -0.22777371 0.52025467 177 178 179
0.37114212 -0.22777371 0.52025467 184 185 186
0.37261328 -0.22812386 0.52105445 183 184 186
0.37322700 -0.22794865 0.52065426 179 180 182
0.37412691 -0.22794865 0.52065426 175 176 178
0.37473899 -0.22777371 0.52025467 172 173 175
0.37621570 -0.22812386 0.52105445 172 173 175
0.37711629 -0.22812386 0.52105445 178 179 181
0.37830767 -0.22829933 0.52145529 174 175 178
0.37950090 -0.22847509 0.52185667 169 171 174
0.38011026 -0.22829933 0.52145529 165 170 172
0.38071868 -0.22812386 0.52105445 174 179 181
0.38161927 -0.22812386 0.52105445 170 174 175
0.38251987 -0.22812386 0.52105445 172 176 178
0.38283196 -0.22777371 0.52025467 173 177 178
-0.11953970 -0.20206252 0.46335739 170 171 171
0.02348001 -0.19920315 0.45680043 178 180 180
0.02425321 -0.19906899 0.45649281 179 180 181
0.02571004 -0.19813503 0.45435110 176 176 178
0.02647760 -0.19800232 0.45404679 179 179 181
0.02802840 -0.19786979 0.45374286 163 163 165
0.02877413 -0.19760525 0.45313627 149 149 151
0.02957712 -0.19773743 0.45343935 151 150 152
0.07811894 -0.31924132 0.73206460 173 172 174
0.07912789 -0.31821039 0.72970057 169 169 171
0.38523537 -0.24014416 0.55068386 175 175 177
0.38744617 -0.24092703 0.55247909 175 175 177
0.38871786 -0.24112354 0.55292970 176 176 177
0.37289992 -0.22739805 0.52145529 179 179 181
0.37351388 -0.22722326 0.52105445 175 175 177
0.37441447 -0.22722326 0.52105445 172 173 175
0.37473899 -0.22687449 0.52025467 171 172 174
0.37650508 -0.22739805 0.52145529 167 168 171
0.37740636 -0.22739805 0.52145529 170 171 175
0.37859890 -0.22757310 0.52185667 167 168 172
0.37950090 -0.22757310 0.52185667 159 163 166
0.38011026 -0.22739805 0.52145529 160 166 168
0.38071868 -0.22722326 0.52105445 168 173 175
0.38161927 -0.22722326 0.52105445 161 165 168
0.38222608 -0.22704874 0.52065426 174 178 181
-0.12282716 -0.20139930 0.46367431 172 173 173
-0.12105871 -0.20112416 0.46304089 168 169 169
-0.11953970 -0.20126164 0.46335739 178 179 179
-0.11882004 -0.20139930 0.46367431 180 181 181
-0.11801862 -0.20139930 0.46367431 180 182 182
0.02269047 -0.19841360 0.45680043 177 180 181
0.02348001 -0.19841360 0.45680043 174 177 176
0.02425321 -0.19827999 0.45649281 174 176 177
0.02500854 -0.19801331 0.45587885 171 172 174
0.02572729 -0.19748208 0.45465583 169 170 172
0.02649535 -0.19734971 0.45435110 162 163 165
0.02726239 -0.19721754 0.45404679 154 154 156
0.02804717 -0.19721754 0.45404679 148 148 150
0.02877413 -0.19682205 0.45313627 164 163 165
0.38461050 -0.23880437 0.54979062 178 178 180
0.37769690 -0.22667111 0.52185667 156 157 161
0.37889057 -0.22684574 0.52225876 160 161 165
0.37979326 -0.22684574 0.52225876 160 165 167
0.38040286 -0.22667111 0.52185667 162 168 170
0.38101155 -0.22649676 0.52145529 159 164 166
-0.12291123 -0.20073518 0.46399167 176 177 176
-0.12194233 -0.20046076 0.46335739 176 176 174
-0.12105871 -0.20032384 0.46304089 172 173 171
-0.11953970 -0.20046076 0.46335739 184 185 183
-0.11873883 -0.20046076 0.46335739 187 188 187
0.02190093 -0.19762406 0.45680043 179 180 180
0.02267519 -0.19749098 0.45649281 180 181 181
0.02348001 -0.19762406 0.45680043 176 177 177
0.02425321 -0.19749098 0.45649281 176 178 179
0.02502537 -0.19735807 0.45618564 171 174 175
0.02574455 -0.19682826 0.45496097 157 161 162
0.02651312 -0.19669624 0.45465583 158 160 162
0.02728066 -0.19656441 0.45435110 168 169 171
0.02806597 -0.19656441 0.45435110 165 165 167
0.02881265 -0.19630127 0.45374286 177 177 178
0.02961674 -0.19643275 0.45404679 174 175 175
0.03044230 -0.19669624 0.45465583 164 165 165
0.03127008 -0.19696045 0.45526651 170 170 171
0.38008609 -0.22611727 0.52266139 166 169 172
0.38101155 -0.22559546 0.52145529 160 162 165
-0.12299542 -0.20007014 0.46430948 178 178 177
-0.12202574 -0.19979645 0.46367431 179 179 178
-0.12114146 -0.19965988 0.46335739 178 178 178
-0.12042289 -0.19979645 0.46367431 173 173 173
-0.11953970 -0.19965988 0.46335739 175 175 175
0.02187145 -0.19656959 0.45618564 179 179 179
0.02265993 -0.19656959 0.45618564 180 180 180
0.02346420 -0.19670196 0.45649281 181 181 181
0.02423689 -0.19656959 0.45618564 175 176 176
0.02500854 -0.19643740 0.45587885 174 175 175
0.02574455 -0.19604190 0.45496097 180 181 183
0.02651312 -0.19591041 0.45465583 178 179 180
0.02728066 -0.19577910 0.45435110 181 182 183
0.02806597 -0.19577910 0.45435110 179 180 180
0.02881265 -0.19551702 0.45374286 176 177 177
0.02961674 -0.19564797 0.45404679 173 174 174
0.03044230 -0.19591041 0.45465583 163 164 165
0.03124909 -0.19604190 0.45496097 163 163 165
0.03203546 -0.19604190 0.45496097 165 165 167
0.03282182 -0.19604190 0.45496097 185 186 188
0.03358564 -0.19591041 0.45465583 177 177 179
-0.12316414 -0.19954097 0.46494639 180 181 181
-0.12219290 -0.19926763 0.46430948 178 178 178
-0.12122431 -0.19899504 0.46367431 176 176 176
-0.12050532 -0.19913124 0.46399167 175 175 175
-0.11962147 -0.19899504 0.46367431 168 168 168
0.02264469 -0.19564946 0.45587885 177 177 177
0.02344841 -0.19578111 0.45618564 176 176 176
0.02420431 -0.19551797 0.45557249 173 173 173
0.02497495 -0.19538666 0.45526651 177 177 177
0.02572729 -0.19512457 0.45465583 176 177 177
0.02649535 -0.19499379 0.45435110 169 169 169
0.02728066 -0.19499379 0.45435110 173 174 174
0.02804717 -0.19486319 0.45404679 177 178 178
0.02879338 -0.19460250 0.45343935 173 174 175
0.02961674 -0.19486319 0.45404679 170 171 173
0.03044230 -0.19512457 0.45465583 166 167 169
0.03124909 -0.19525553 0.45496097 165 165 167
0.03201397 -0.19512457 0.45465583 170 170 172
0.03279981 -0.19512457 0.45465583 183 183 185
0.03356313 -0.19499379 0.45435110 179 179 181
-0.12350296 -0.19928408 0.46622548 177 179 180
-0.12236051 -0.19873735 0.46494639 173 175 176
-0.12139037 -0.19846511 0.46430948 173 174 174
-0.12067050 -0.19860114 0.46462771 177 177 177
-0.11978533 -0.19846511 0.46430948 176 176 176
-0.11898281 -0.19846511 0.46430948 178 178 178
-0.11818029 -0.19846511 0.46430948 178 178 178
0.02184205 -0.19473055 0.45557249 178 178 178
0.02262947 -0.19473055 0.45557249 175 175 175
0.02341689 -0.19473055 0.45557249 172 171 171
0.02418806 -0.19459976 0.45526651 173 172 172
0.02495819 -0.19446917 0.45496097 173 173 173
0.02571004 -0.19420849 0.45435110 172 172 173
0.02647760 -0.19407840 0.45404679 170 170 171
0.02726239 -0.19407840 0.45404679 170 170 171
0.02804717 -0.19407840 0.45404679 170 170 172
0.02881265 -0.19394849 0.45374286 170 170 172
0.02961674 -0.19407840 0.45404679 169 169 173
0.03044230 -0.19433874 0.45465583 172 172 174
0.03124909 -0.19446917 0.45496097 180 180 182
0.03201397 -0.19433874 0.45465583 183 183 185
0.03356313 -0.19420849 0.45435110 186 186 187
-0.12358797 -0.19861485 0.46654636 163 167 168
-0.12252859 -0.19820562 0.46558505 165 166 168
-0.12155689 -0.19793373 0.46494639 170 172 173
-0.12083615 -0.19806957 0.46526551 178 179 179
-0.11994965 -0.19793373 0.46494639 181 182 182
-0.11906436 -0.19779806 0.46462771 181 182 182
-0.11834241 -0.19793373 0.46494639 179 179 179
0.02104049 -0.19381288 0.45526651 173 173 175
0.02181273 -0.19368280 0.45496097 173 173 175
0.02259910 -0.19368280 0.45496097 171 171 171
0.02338546 -0.19368280 0.45496097 179 178 178
0.02415561 -0.19355290 0.45465583 156 156 156
0.02492473 -0.19342317 0.45435110 155 155 158
0.02569282 -0.19329362 0.45404679 164 163 167
0.02645988 -0.19316424 0.45374286 167 166 170
0.02724414 -0.19316424 0.45374286 166 165 169
0.02804717 -0.19329362 0.45404679 166 165 169
0.02879338 -0.19303504 0.45343935 166 165 169
0.02963659 -0.19342317 0.45435110 174 173 177
0.03048319 -0.19381288 0.45526651 172 172 174
0.03129109 -0.19394313 0.45557249 178 178 180
0.03203546 -0.19368280 0.45496097 179 179 181
0.03279981 -0.19355290 0.45465583 177 177 177
0.03356313 -0.19342317 0.45435110 181 181 181
-0.12358797 -0.19780846 0.46654636 166 170 171
-0.12252859 -0.19740088 0.46558505 172 172 174
-0.12155689 -0.19713010 0.46494639 175 175 176
-0.12083615 -0.19726540 0.46526551 178 178 178
-0.11994965 -0.19713010 0.46494639 179 180 179
-0.11906436 -0.19699499 0.46462771 178 178 177
-0.11834241 -0.19713010 0.46494639 181 182 181
0.02102637 -0.19289644 0.45496097 175 176 178
0.02178349 -0.19263786 0.45435110 173 174 175
0.02259910 -0.19289644 0.45496097 173 173 173
0.02338546 -0.19289644 0.45496097 176 176 177
0.02415561 -0.19276707 0.45465583 159 159 161
0.02492473 -0.19263786 0.45435110 155 155 158
0.02569282 -0.19250883 0.45404679 164 164 167
0.02645988 -0.19237998 0.45374286 171 171 173
0.02726239 -0.19250883 0.45404679 173 172 174
0.02804717 -0.19250883 0.45404679 174 173 175
0.02881265 -0.19237998 0.45374286 175 174 176
0.02967637 -0.19289644 0.45496097 178 177 179
0.03054473 -0.19341567 0.45618564 175 175 177
0.03133321 -0.19341567 0.45618564 179 180 182
0.03207852 -0.19315571 0.45557249 179 179 181
0.03282182 -0.19289644 0.45496097 176 176 176
0.03358564 -0.19276707 0.45465583 179 179 179
0.03434844 -0.19263786 0.45435110 177 177 177
0.03518091 -0.19289644 0.45496097 178 179 179
-0.12350296 -0.19686659 0.46622548 175 177 177
-0.12244450 -0.19646123 0.46526551 176 176 176
-0.12147358 -0.19619192 0.46462771 176 176 176
-0.12083615 -0.19646123 0.46526551 178 178 178
-0.11986744 -0.19619192 0.46462771 178 178 177
-0.11906436 -0.19619192 0.46462771 173 173 171
-0.11826129 -0.19619192 0.46462771 183 184 182
0.02338546 -0.19211008 0.45496097 170 170 172
0.02415561 -0.19198123 0.45465583 176 176 178
0.02492473 -0.19185255 0.45435110 168 168 168
0.02569282 -0.19172405 0.45404679 168 168 168
0.02647760 -0.19172405 0.45404679 175 175 175
0.02726239 -0.19172405 0.45404679 177 177 179
0.02806597 -0.19185255 0.45435110 180 179 181
0.02881265 -0.19159572 0.45374286 178 177 179
0.02967637 -0.19211008 0.45496097 174 174 176
0.03054473 -0.19262719 0.45618564 174 175 177
0.03133321 -0.19262719 0.45618564 181 182 183
0.03207852 -0.19236828 0.45557249 177 178 178
0.03284386 -0.19223909 0.45526651 175 176 176
0.03360818 -0.19211008 0.45496097 176 177 177
0.03434844 -0.19185255 0.45435110 177 178 178
0.03515732 -0.19198123 0.45465583 178 179 179
-0.12333332 -0.19579144 0.46558505 178 178 178
-0.12236051 -0.19552286 0.46494639 177 177 177
-0.12139037 -0.19525503 0.46430948 175 175 175
-0.12067050 -0.19538885 0.46462771 176 176 176
-0.11978533 -0.19525503 0.46430948 179 179 178
-0.11890137 -0.19512138 0.46399167 179 179 177
-0.11818029 -0.19525503 0.46430948 178 178 176
0.02264469 -0.19170971 0.45587885 166 167 170
0.02341689 -0.19158086 0.45557249 171 172 174
0.02418806 -0.19145221 0.45526651 185 185 187
0.02494145 -0.19119540 0.45465583 178 178 180
0.02571004 -0.19106725 0.45435110 175 175 175
0.02649535 -0.19106725 0.45435110 181 181 181
0.02728066 -0.19106725 0.45435110 174 174 176
0.02806597 -0.19106725 0.45435110 173 173 173
0.02883195 -0.19093928 0.45404679 170 171 171
0.02969630 -0.19145221 0.45526651 171 172 174
0.03054473 -0.19183871 0.45618564 172 173 174
0.03135431 -0.19196790 0.45649281 175 176 178
0.03210009 -0.19170971 0.45587885 176 176 178
0.03286593 -0.19158086 0.45557249 176 176 178
0.03360818 -0.19132371 0.45496097 176 176 178
0.03434844 -0.19106725 0.45435110 178 180 182
0.03515732 -0.19119540 0.45465583 178 179 180
0.03596727 -0.19132371 0.45496097 176 178 178
-0.11978533 -0.19445249 0.46430948 175 176 176
0.02341689 -0.19079345 0.45557249 177 178 180
0.02418806 -0.19066532 0.45526651 187 187 189
0.02571004 -0.19028194 0.45435110 171 170 171
0.02647760 -0.19015449 0.45404679 171 170 170
0.02806597 -0.19028194 0.45435110 169 169 169
0.02883195 -0.19015449 0.45404679 173 173 173
0.02969630 -0.19066532 0.45526651 173 173 174
0.03054473 -0.19105023 0.45618564 173 173 174
0.03135431 -0.19117889 0.45649281 173 173 174
0.03212169 -0.19105023 0.45618564 176 176 176
0.03288804 -0.19092175 0.45587885 172 173 175
0.03365336 -0.19079345 0.45557249 173 175 177
0.03437148 -0.19040956 0.45465583 173 177 180
0.03518091 -0.19053735 0.45496097 173 176 178
0.03601561 -0.19079345 0.45557249 175 177 179
0.02341689 -0.19000603 0.45557249 172 172 174
0.02420431 -0.19000603 0.45557249 174 174 176
0.02572729 -0.18962373 0.45465583 169 169 171
0.03137544 -0.19051817 0.45680043 174 174 174
0.03216498 -0.19051817 0.45680043 173 173 173
0.03293233 -0.19038987 0.45649281 168 170 171
0.03367599 -0.19013381 0.45587885 172 175 176
0.03441764 -0.18987842 0.45526651 171 173 175
0.03522820 -0.19000603 0.45557249 172 173 175
0.03606409 -0.19026175 0.45618564 174 175 177
0.02574455 -0.18896462 0.45496097 173 173 176
0.03216498 -0.18972863 0.45680043 170 170 171
0.03293233 -0.18960087 0.45649281 171 172 173
0.03369865 -0.18947327 0.45618564 177 178 180
0.03441764 -0.18909153 0.45526651 173 173 175
0.03522820 -0.18921861 0.45557249 175 176 178
0.03608837 -0.18960087 0.45649281 174 174 176
0.03685257 -0.18947327 0.45618564 179 179 181
1.64463937 -0.76608092 1.85216355 176 175 175
1.63888502 -0.76191741 1.84209740 167 166 167
1.64654326 -0.76399350 1.84711671 155 155 157
1.65424335 -0.76608092 1.85216355 155 155 157
1.64843678 -0.76191741 1.84209740 154 154 156
1.64593518 -0.76496965 1.85723794 175 175 175
1.64463937 -0.76287955 1.85216355 174 174 174
1.64335072 -0.76080090 1.84711671 159 159 160
1.65104210 -0.76287955 1.85216355 157 157 158
1.65877557 -0.76496965 1.85723794 165 165 166
1.65744472 -0.76287955 1.85216355 168 168 170
1.65045702 -0.76385230 1.86234021 161 162 162
1.64914525 -0.76175958 1.85723794 159 160 160
1.64784074 -0.75967824 1.85216355 166 167 167
1.65556550 -0.76175958 1.85723794 174 174 174
1.65877557 -0.76175958 1.85723794 178 178 178
1.65744472 -0.75967824 1.85216355 174 174 176
1.66519570 -0.76175958 1.85723794 174 174 176
1.65367591 -0.76063341 1.86234021 145 149 148
1.65689480 -0.76063341 1.86234021 163 164 164
1.66011369 -0.76063341 1.86234021 173 173 173
1.66333258 -0.76063341 1.86234021 177 177 178
1.66655147 -0.76063341 1.86234021 174 174 176
1.66977036 -0.76063341 1.86234021 174 174 176
1.65367591 -0.75741452 1.86234021 156 157 159
1.65689480 -0.75741452 1.86234021 158 158 159
1.66011369 -0.75741452 1.86234021 164 164 165
1.66333258 -0.75741452 1.86234021 170 170 171
1.66655147 -0.75741452 1.86234021 170 170 172
1.67437029 -0.75950104 1.86747062 172 173 175
1.67298937 -0.75741452 1.86234021 171 174 175
1.65823150 -0.75627327 1.86747062 161 161 163
1.66145921 -0.75627327 1.86747062 151 151 153
1.66468704 -0.75627327 1.86747062 160 160 162
1.66791475 -0.75627327 1.86747062 164 164 166
1.67114258 -0.75627327 1.86747062 166 166 168
1.67437029 -0.75627327 1.86747062 168 168 170
1.67298937 -0.75419563 1.86234021 168 168 170
1.65500367 -0.75304550 1.86747062 159 159 161
1.65823150 -0.75304550 1.86747062 160 160 162
1.65689480 -0.75097668 1.86234021 160 160 162
1.66468704 -0.75304550 1.86747062 164 164 165
1.66791475 -0.75304550 1.86747062 164 165 166
1.67114258 -0.75304550 1.86747062 161 162 162
1.67899573 -0.75512576 1.87262940 148 149 149
1.67759812 -0.75304550 1.86747062 153 154 154
1.68405366 -0.75304550 1.86747062 161 162 162
1.65500367 -0.74981773 1.86747062 166 169 168
1.65823150 -0.74981773 1.86747062 166 168 168
1.65689480 -0.74775779 1.86234021 168 169 169
1.66011369 -0.74775779 1.86234021 170 170 170
1.66791475 -0.74981773 1.86747062 165 165 165
1.67114258 -0.74981773 1.86747062 156 156 156
1.67899573 -0.75188905 1.87262940 146 146 146
1.67759812 -0.74981773 1.86747062 155 155 155
1.68082583 -0.74981773 1.86747062 160 160 160
1.68405366 -0.74981773 1.86747062 159 159 159
0.89286023 -0.48395029 1.21052110 172 172 172
1.65500367 -0.74658996 1.86747062 170 171 171
1.65823150 -0.74658996 1.86747062 173 173 173
1.65689480 -0.74453890 1.86234021 171 171 171
1.66468704 -0.74658996 1.86747062 167 168 168
1.66791475 -0.74658996 1.86747062 161 161 161
1.67114258 -0.74658996 1.86747062 156 157 157
1.67899573 -0.74865240 1.87262940 154 155 155
1.67759812 -0.74658996 1.86747062 158 159 159
0.89396065 -0.48358509 1.21485996 166 166 166
0.89445746 -0.48271999 1.21268666 170 170 170
0.89655352 -0.48271999 1.21268666 173 173 173
0.90026003 -0.48358509 1.21485996 177 177 178
0.89913708 -0.48185799 1.21052110 180 180 181
1.66281223 -0.74541569 1.87262940 163 164 164
1.66145921 -0.74336219 1.86747062 161 162 162
1.66468704 -0.74336219 1.86747062 162 163 163
1.66791475 -0.74336219 1.86747062 162 163 163
1.67114258 -0.74336219 1.86747062 162 163 163
0.89396065 -0.48148531 1.21485996 151 151 153
0.89445746 -0.48062396 1.21268666 144 144 147
0.89816022 -0.48148531 1.21485996 153 153 155
0.89864951 -0.48062396 1.21268666 169 169 171
0.89913708 -0.47976571 1.21052110 175 175 177
0.90122938 -0.47976571 1.21052110 165 165 168
0.90703368 -0.48062396 1.21268666 146 145 147
1.66281223 -0.74217898 1.87262940 172 173 173
1.66145921 -0.74013442 1.86747062 171 172 172
1.66468704 -0.74013442 1.86747062 166 167 168
1.66791475 -0.74013442 1.86747062 164 165 166
1.66655147 -0.73810107 1.86234021 164 165 166
0.33666062 -0.21365584 0.54144716 174 175 179
0.89445746 -0.47852793 1.21268666 128 128 137
0.89816022 -0.47938550 1.21485996 137 137 142
0.90026003 -0.47938550 1.21485996 161 161 165
0.90074557 -0.47852793 1.21268666 170 170 174
0.90284163 -0.47852793 1.21268666 168 168 172
0.90865916 -0.47938550 1.21485996 164 163 165
0.91332173 -0.47852793 1.21268666 174 174 176
1.65957558 -0.73894233 1.87262940 163 164 164
1.65823150 -0.73690665 1.86747062 166 167 169
1.65689480 -0.73488218 1.86234021 165 166 168
1.66011369 -0.73488218 1.86234021 166 166 168
1.66333258 -0.73488218 1.86234021 166 170 171
1.66198564 -0.73286879 1.85723794 166 171 171
-0.03083009 -0.43094730 1.09691238 172 172 172
-0.02898106 -0.43164575 1.09869015 172 172 172
0.33438724 -0.21306035 0.54231346 172 173 177
0.33478892 -0.21271999 0.54144716 173 174 177
0.33719927 -0.21306035 0.54231346 176 177 180
0.33759648 -0.21271999 0.54144716 172 173 175
0.89286023 -0.47558114 1.21052110 120 119 129
0.89655352 -0.47643191 1.21268666 134 134 138
0.89864951 -0.47643191 1.21268666 164 164 168
0.90074557 -0.47643191 1.21268666 163 163 167
0.90284163 -0.47643191 1.21268666 158 158 160
0.90493762 -0.47643191 1.21268666 163 163 165
0.90865916 -0.47728571 1.21485996 165 166 168
0.91075897 -0.47728571 1.21485996 173 173 175
0.91285872 -0.47728571 1.21485996 175 176 178
0.91169083 -0.47558114 1.21052110 170 171 173
0.91424280 -0.47473338 1.20836341 159 161 165
1.65500367 -0.73367888 1.86747062 147 147 149
1.65823150 -0.73367888 1.86747062 150 149 151
1.65235531 -0.72965872 1.85723794 157 156 158
1.66011369 -0.73166329 1.86234021 166 167 169
1.65877557 -0.72965872 1.85723794 171 176 176
-0.04030971 -0.42905137 1.09691238 168 168 170
-0.03456601 -0.42835826 1.09514034 170 170 170
-0.03267315 -0.42835826 1.09514034 167 167 167
-0.03078029 -0.42835826 1.09514034 164 164 164
-0.02893417 -0.42905137 1.09691238 174 173 175
-0.02699456 -0.42835826 1.09514034 177 176 178
-0.02514232 -0.42905137 1.09691238 175 175 176
-0.02135047 -0.42905137 1.09691238 189 189 189
0.33411995 -0.21195343 0.54187995 174 175 177
0.33452174 -0.21161513 0.54101503 167 169 171
0.33545685 -0.21161513 0.54101503 171 174 175
0.33692974 -0.21195343 0.54187995 172 175 177
0.33759648 -0.21178415 0.54144716 166 170 171
0.33880293 -0.21195343 0.54187995 163 165 167
0.34215972 -0.21229284 0.54274768 159 160 164
0.34376070 -0.21212301 0.54231346 172 172 172
0.89606047 -0.47518593 1.21485996 170 170 175
0.89977276 -0.47603905 1.21704102 174 175 178
0.90026003 -0.47518593 1.21485996 161 162 165
0.90235978 -0.47518593 1.21485996 150 150 152
0.90445960 -0.47518593 1.21485996 154 154 156
0.90493762 -0.47433588 1.21268666 164 165 167
0.90865916 -0.47518593 1.21485996 168 169 171
0.91075897 -0.47518593 1.21485996 176 177 179
0.91285872 -0.47518593 1.21485996 168 169 172
0.91169083 -0.47348884 1.21052110 159 160 164
0.91215426 -0.47264484 1.20836341 160 162 166
0.91424280 -0.47264484 1.20836341 166 170 173
0.91470093 -0.47180381 1.20621324 162 166 169
0.92170590 -0.47433588 1.21268666 161 165 167
0.92215228 -0.47348884 1.21052110 163 167 168
0.92424452 -0.47348884 1.21052110 168 171 172
1.65823150 -0.73045111 1.86747062 133 132 134
1.65235531 -0.72644866 1.85723794 155 154 156
1.65556550 -0.72644866 1.85723794 169 170 171
1.65877557 -0.72644866 1.85723794 170 176 175
1.65744472 -0.72446382 1.85216355 166 172 170
-0.04227404 -0.42784777 1.09869015 163 164 166
-0.04030971 -0.42715546 1.09691238 170 170 172
-0.03841379 -0.42715546 1.09691238 172 172 173
-0.03645887 -0.42646539 1.09514034 174 174 174
-0.03451026 -0.42577752 1.09337389 166 166 166
-0.03267315 -0.42646539 1.09514034 172 172 172
-0.03073064 -0.42577752 1.09337389 165 164 164
-0.02888742 -0.42646539 1.09514034 174 173 175
-0.02695102 -0.42577752 1.09337389 178 178 180
-0.02506122 -0.42577752 1.09337389 174 174 176
-0.02324640 -0.42715546 1.09691238 179 179 181
-0.02131598 -0.42646539 1.09514034 179 179 180
-0.01945455 -0.42715546 1.09691238 183 183 183
0.33332062 -0.21051201 0.54058361 173 178 179
0.33425498 -0.21051201 0.54058361 163 168 168
0.33492225 -0.21034428 0.54015285 168 173 173
0.33639193 -0.21068002 0.54101503 170 175 176
0.33705804 -0.21051201 0.54058361 161 164 166
0.33826214 -0.21068002 0.54101503 161 162 164
0.34040400 -0.21084830 0.54144716 173 174 176
0.34161270 -0.21101685 0.54187995 172 173 175
0.34227571 -0.21084830 0.54144716 172 173 174
0.34348589 -0.21101685 0.54187995 170 170 170
0.89606047 -0.47308615 1.21485996 171 172 174
0.89977276 -0.47393548 1.21704102 164 166 168
0.90026003 -0.47308615 1.21485996 156 158 160
0.90235978 -0.47308615 1.21485996 160 162 164
0.90284163 -0.47223985 1.21268666 165 166 168
0.90655941 -0.47308615 1.21485996 162 163 165
0.90865916 -0.47308615 1.21485996 164 166 168
0.91075897 -0.47308615 1.21485996 177 179 181
0.91285872 -0.47308615 1.21485996 170 172 175
0.91169083 -0.47139657 1.21052110 165 166 170
0.91053122 -0.46971899 1.20621324 164 165 169
0.91261607 -0.46971899 1.20621324 169 171 176
0.91470093 -0.46971899 1.20621324 167 169 174
0.92005998 -0.47139657 1.21052110 168 170 172
0.92215228 -0.47139657 1.21052110 169 170 172
0.92424452 -0.47139657 1.21052110 166 167 168
0.92304027 -0.46971899 1.20621324 163 164 164
1.65500367 -0.72722334 1.86747062 140 140 142
1.65823150 -0.72722334 1.86747062 155 156 158
1.64784074 -0.72126251 1.85216355 163 164 166
1.65104210 -0.72126251 1.85216355 165 168 168
1.64973593 -0.71929717 1.84711671 163 169 167
-0.04584911 -0.42388773 1.09337389 178 178 180
-0.04403032 -0.42457253 1.09514034 174 174 176
-0.04213746 -0.42457253 1.09514034 157 156 161
-0.04017968 -0.42388773 1.09337389 158 158 161
-0.03835173 -0.42457253 1.09514034 161 161 163
-0.03640006 -0.42388773 1.09337389 176 176 177
-0.03445468 -0.42320514 1.09161329 164 164 164
-0.03262045 -0.42388773 1.09337389 178 178 178
-0.03068116 -0.42320514 1.09161329 176 176 176
-0.02879439 -0.42320514 1.09161329 175 175 176
-0.02686436 -0.42252475 1.08985829 185 185 187
-0.02498063 -0.42252475 1.08985829 174 174 176
-0.02320884 -0.42457253 1.09514034 173 174 176
-0.02124733 -0.42320514 1.09161329 169 170 171
-0.01939179 -0.42388773 1.09337389 170 170 170
0.33305502 -0.20941067 0.54015285 169 175 175
0.33465558 -0.20924394 0.53972280 166 172 172
0.33612368 -0.20957766 0.54058361 173 175 177
0.33705804 -0.20957766 0.54058361 163 164 166
0.33826214 -0.20974493 0.54101503 160 161 163
0.34013233 -0.20974493 0.54101503 172 173 173
0.34133986 -0.20991245 0.54144716 170 171 171
0.34227571 -0.20991245 0.54144716 167 168 168
0.34348589 -0.21008025 0.54187995 167 167 167
0.34387276 -0.20974493 0.54101503 169 169 169
0.34480783 -0.20974493 0.54101503 170 171 171
0.90026003 -0.47098637 1.21485996 161 166 167
0.90074557 -0.47014380 1.21268666 165 168 169
0.90865916 -0.47098637 1.21485996 162 167 168
0.91075897 -0.47098637 1.21485996 172 177 178
0.91285872 -0.47098637 1.21485996 172 173 178
0.91006571 -0.46846771 1.20836341 166 166 173
0.91215426 -0.46846771 1.20836341 167 167 174
0.91261607 -0.46763414 1.20621324 170 169 176
0.91470093 -0.46763414 1.20621324 172 171 178
0.92005998 -0.46930426 1.21052110 171 172 174
0.92215228 -0.46930426 1.21052110 166 167 169
0.92424452 -0.46930426 1.21052110 160 160 162
0.92468560 -0.46846771 1.20836341 155 155 155
0.92512512 -0.46763414 1.20621324 155 155 155
1.65500367 -0.72399557 1.86747062 140 140 142
1.64784074 -0.71806115 1.85216355 155 157 157
1.64654326 -0.71610463 1.84711671 156 160 159
-0.05306598 -0.41929281 1.08636510 173 173 175
-0.05143557 -0.42131838 1.09161329 171 171 173
-0.04577528 -0.42131838 1.09161329 173 173 175
-0.04381795 -0.42064101 1.08985829 166 166 168
-0.04200175 -0.42131838 1.09161329 152 151 158
-0.04005049 -0.42064101 1.08985829 146 146 151
-0.03816675 -0.42064101 1.08985829 151 151 155
-0.03628302 -0.42064101 1.08985829 177 177 179
-0.03434408 -0.41996583 1.08810890 172 172 172
-0.03251556 -0.42064101 1.08985829 173 173 173
-0.03053365 -0.41929281 1.08636510 174 174 176
-0.02865596 -0.41929281 1.08636510 178 178 180
-0.02673542 -0.41862193 1.08462691 187 187 189
-0.02478142 -0.41728660 1.08116722 183 183 183
-0.02298604 -0.41862193 1.08462691 182 183 183
-0.02101050 -0.41662216 1.07944560 172 173 173
0.33612368 -0.20864330 0.54058361 178 179 181
0.33705804 -0.20864330 0.54058361 166 166 168
0.33826214 -0.20880982 0.54101503 159 160 160
0.33919725 -0.20880982 0.54101503 166 167 167
0.34040400 -0.20897661 0.54144716 171 172 172
0.34161270 -0.20914365 0.54187995 172 173 173
0.34227571 -0.20897661 0.54144716 174 175 175
0.34348589 -0.20914365 0.54187995 177 178 179
0.34414741 -0.20897661 0.54144716 174 176 177
0.34535909 -0.20914365 0.54187995 164 168 167
0.89753437 -0.46637917 1.20836341 158 163 163
0.91239405 -0.46972838 1.21704102 167 171 174
0.91285872 -0.46888658 1.21485996 169 169 176
0.91006571 -0.46637917 1.20836341 161 161 168
0.91424280 -0.46637917 1.20836341 163 163 170
0.91633141 -0.46637917 1.20836341 164 163 169
0.92005998 -0.46721199 1.21052110 162 163 166
0.92215228 -0.46721199 1.21052110 161 162 164
0.92424452 -0.46721199 1.21052110 158 158 159
0.92468560 -0.46637917 1.20836341 157 157 157
1.65045702 -0.71878767 1.86234021 144 146 145
1.65367591 -0.71878767 1.86234021 145 148 147
1.63888502 -0.71097475 1.84209740 152 155 154
1.63761890 -0.70904797 1.83710527 151 157 155
1.62756205 -0.70332986 1.82228994 149 156 153
-0.05503187 -0.41808513 1.08810890 163 164 166
-0.05315116 -0.41808513 1.08810890 167 167 169
-0.05143557 -0.41943160 1.09161329 164 164 166
-0.04954880 -0.41943160 1.09161329 169 169 171
-0.04773891 -0.42010811 1.09337389 166 166 168
-0.04577528 -0.41943160 1.09161329 162 162 164
-0.04381795 -0.41875729 1.08985829 170 170 172
-0.04193422 -0.41875729 1.08985829 170 171 175
-0.03998620 -0.41808513 1.08810890 165 166 170
-0.03810549 -0.41808513 1.08810890 169 170 174
-0.03616673 -0.41741511 1.08636510 173 174 176
-0.03423417 -0.41674724 1.08462691 176 176 178
-0.03241134 -0.41741511 1.08636510 172 172 174
-0.03043610 -0.41608152 1.08289433 171 171 173
-0.02856440 -0.41608152 1.08289433 180 180 181
-0.02665013 -0.41541791 1.08116722 181 181 181
-0.02470263 -0.41409701 1.07772946 184 184 184
-0.02287623 -0.41475642 1.07944560 179 179 179
-0.02094380 -0.41343972 1.07601881 175 176 176
-0.01908398 -0.41343972 1.07601881 175 175 175
0.33705804 -0.20770895 0.54058361 164 165 165
0.33853233 -0.20804076 0.54144716 162 163 163
0.34040400 -0.20804076 0.54144716 176 177 177
0.34161270 -0.20820706 0.54187995 175 176 177
0.34254929 -0.20820706 0.54187995 171 174 175
0.34376070 -0.20837362 0.54231346 169 172 173
0.89118016 -0.46100360 1.19980860 166 172 172
0.90912968 -0.46595174 1.21268666 166 167 173
0.90959853 -0.46511969 1.21052110 169 169 176
0.90844637 -0.46346447 1.20621324 164 164 171
0.91215426 -0.46429059 1.20836341 159 159 167
0.91261607 -0.46346447 1.20621324 161 161 169
0.91470093 -0.46346447 1.20621324 167 167 173
0.91841996 -0.46429059 1.20836341 170 170 172
1.63126838 -0.70587271 1.83710527 140 141 141
1.62126267 -0.70018017 1.82228994 147 148 149
1.62441230 -0.70018017 1.82228994 146 149 149
1.61454153 -0.69457877 1.80771160 145 150 150
1.60482740 -0.68906623 1.79336464 148 152 153
-0.05494367 -0.41553742 1.08636510 171 171 173
-0.05315116 -0.41620442 1.08810890 168 168 170
-0.05135288 -0.41687354 1.08985829 170 170 172
-0.04954880 -0.41754484 1.09161329 171 171 173
-0.04773891 -0.41821831 1.09337389 169 169 171
-0.04577528 -0.41754484 1.09161329 171 171 173
-0.04388851 -0.41754484 1.09161329 180 180 182
-0.04193422 -0.41687354 1.08985829 177 177 181
-0.03998620 -0.41620442 1.08810890 172 173 177
-0.03810549 -0.41620442 1.08810890 170 171 175
-0.03622478 -0.41620442 1.08810890 173 174 176
-0.03428904 -0.41553742 1.08636510 179 179 180
-0.03241134 -0.41553742 1.08636510 185 185 185
-0.03048480 -0.41487256 1.08462691 183 183 183
-0.02861011 -0.41487256 1.08462691 179 179 179
-0.02669271 -0.41420981 1.08289433 170 170 170
-0.02474196 -0.41289067 1.07944560 169 169 171
-0.02291271 -0.41354918 1.08116722 168 168 169
0.33705804 -0.20677459 0.54058361 169 170 170
0.33826214 -0.20693962 0.54101503 168 169 169
0.34040400 -0.20710491 0.54144716 169 173 173
0.34161270 -0.20727046 0.54187995 161 165 166
0.34227571 -0.20710491 0.54144716 163 167 168
0.34376070 -0.20743628 0.54231346 171 175 176
0.90636152 -0.46137962 1.20621324 163 166 172
0.90683281 -0.46056011 1.20407081 152 155 161
0.91053122 -0.46137962 1.20621324 156 156 165
0.91099507 -0.46056011 1.20407081 160 160 169
0.91307622 -0.46056011 1.20407081 160 160 168
0.91678572 -0.46137962 1.20621324 157 157 164
0.91723847 -0.46056011 1.20407081 155 155 162
1.60597634 -0.68778604 1.79812157 140 142 144
1.60059297 -0.68415660 1.78863287 140 141 143
-0.05485576 -0.41299787 1.08462691 171 171 171
-0.05298107 -0.41299787 1.08462691 165 165 167
-0.05127045 -0.41432369 1.08810890 173 173 175
-0.04946915 -0.41498983 1.08985829 173 173 175
-0.04381795 -0.41498983 1.08985829 175 174 177
-0.04193422 -0.41498983 1.08985829 167 167 171
-0.03998620 -0.41432369 1.08810890 163 163 167
-0.03810549 -0.41432369 1.08810890 168 168 170
-0.03622478 -0.41432369 1.08810890 174 175 175
-0.03428904 -0.41365972 1.08636510 177 178 178
-0.03246337 -0.41432369 1.08810890 186 186 186
-0.03053365 -0.41365972 1.08636510 173 174 174
-0.02865596 -0.41365972 1.08636510 168 168 169
-0.02669271 -0.41233814 1.08289433 174 174 176
-0.02478142 -0.41168049 1.08116722 170 171 174
-0.02294932 -0.41233814 1.08289433 158 159 163
0.33732703 -0.20600452 0.54101503 163 164 164
0.33880293 -0.20633386 0.54187995 164 165 165
0.34094867 -0.20649894 0.54231346 156 160 161
0.34188601 -0.20649894 0.54231346 158 162 163
0.49340263 -0.25531518 0.67051619 154 155 157
1.59862804 -0.68286681 1.79336464 136 137 139
1.60172772 -0.68286681 1.79336464 136 137 139
1.59638095 -0.67927283 1.78392589 136 137 139
0.45571420 -0.18463781 0.48490116 164 164 166
-0.05118829 -0.41178203 1.08636510 163 163 165
-0.04186691 -0.41244298 1.08810890 171 171 174
-0.03992212 -0.41178203 1.08636510 176 176 178
-0.03810549 -0.41244298 1.08810890 177 178 178
-0.03622478 -0.41244298 1.08810890 176 177 177
-0.03423417 -0.41112319 1.08462691 177 178 178
-0.03246337 -0.41244298 1.08810890 176 177 177
-0.03053365 -0.41178203 1.08636510 159 160 160
-0.02870195 -0.41244298 1.08810890 156 156 157
-0.02673542 -0.41112319 1.08462691 158 158 160
-0.02478142 -0.40981176 1.08116722 168 169 172
0.34149504 -0.20589101 0.54318255 159 162 164
0.34243390 -0.20589101 0.54318255 160 162 163
0.35398370 -0.20605612 0.54361814 161 162 162
0.49194285 -0.25340432 0.66853237 171 172 174
0.49407285 -0.25390512 0.66985363 167 168 171
0.49719584 -0.25491267 0.67251176 169 170 173
1.60597634 -0.68157023 1.79812157 129 129 131
1.60059297 -0.67797357 1.78863287 124 123 126
0.45417449 -0.18419497 0.48594397 157 157 159
0.45436299 -0.18393128 0.48524827 162 162 164
0.45552778 -0.18406303 0.48559588 163 163 165
0.45604041 -0.18393128 0.48524827 158 158 160
-0.03804443 -0.40990433 1.08636510 169 169 169
-0.03610887 -0.40924847 1.08462691 176 177 177
-0.03417949 -0.40859473 1.08289433 181 181 181
-0.03246337 -0.41056228 1.08810890 179 179 179
-0.03053365 -0.40990433 1.08636510 161 161 159
0.34176889 -0.20511653 0.54361814 161 161 163
0.34270850 -0.20511653 0.54361814 161 161 163
0.34364811 -0.20511653 0.54361814 165 165 167
0.34486425 -0.20528114 0.54405445 161 161 163
0.34552729 -0.20511653 0.54361814 161 162 164
0.34890568 -0.20544602 0.54449141 171 172 174
0.34984681 -0.20544602 0.54449141 162 163 165
0.35050640 -0.20528114 0.54405445 158 159 158
0.35267013 -0.20544602 0.54449141 164 164 163
0.35332745 -0.20528114 0.54405445 167 167 165
0.35398370 -0.20511653 0.54361814 168 168 169
0.49917671 -0.25476125 0.67519110 173 174 174
0.50586015 -0.25578031 0.67789185 169 171 173
0.45450029 -0.18348658 0.48629257 173 173 175
0.45468846 -0.18322371 0.48559588 171 171 174
0.45552778 -0.18322371 0.48559588 163 163 166
0.45604041 -0.18309256 0.48524827 156 156 158
0.45655233 -0.18296158 0.48490116 166 166 168
0.45706350 -0.18283081 0.48455456 167 167 169
0.45822856 -0.18296158 0.48490116 160 161 163
-0.03599368 -0.40607435 1.08116722 175 175 175
0.34149504 -0.20401332 0.54318255 169 169 171
0.34270850 -0.20417692 0.54361814 160 160 163
0.34364811 -0.20417692 0.54361814 165 165 169
0.34514126 -0.20450492 0.54449141 173 173 177
0.34580460 -0.20434079 0.54405445 171 172 175
0.34702349 -0.20450492 0.54449141 174 175 179
0.34824431 -0.20466931 0.54492915 179 180 182
0.34890568 -0.20450492 0.54449141 174 175 177
0.34984681 -0.20450492 0.54449141 166 167 167
0.35050640 -0.20434079 0.54405445 167 168 166
0.35172904 -0.20450492 0.54449141 171 172 168
0.35238710 -0.20434079 0.54405445 165 165 161
0.35332745 -0.20434079 0.54405445 163 163 159
0.35370007 -0.20401332 0.54318255 157 157 161
0.35520816 -0.20434079 0.54405445 147 147 151
0.35643455 -0.20450492 0.54449141 150 151 155
0.35708886 -0.20434079 0.54405445 154 156 159
0.49585491 -0.25309008 0.67384875 171 172 171
0.49701962 -0.25309008 0.67384875 158 159 158
0.49967438 -0.25384709 0.67586422 170 171 169
0.50402081 -0.25486347 0.67857039 168 169 171
0.50468844 -0.25460863 0.67789185 169 172 173
0.50535476 -0.25435427 0.67721462 170 177 177
0.45515332 -0.18290849 0.48699126 179 179 183
0.45501441 -0.18251514 0.48594397 172 172 176
0.45552778 -0.18238440 0.48559588 163 163 167
0.45636711 -0.18238440 0.48559588 158 159 162
0.45687914 -0.18225385 0.48524827 161 162 166
0.45739043 -0.18212348 0.48490116 156 157 161
0.45822856 -0.18212348 0.48490116 154 155 159
0.45972434 -0.18238440 0.48559588 154 155 159
0.46089381 -0.18251514 0.48594397 154 157 159
0.33666062 -0.20242567 0.54144716 165 165 167
0.33786634 -0.20258749 0.54187995 161 160 161
0.33934546 -0.20291188 0.54274768 163 163 163
0.34028354 -0.20291188 0.54274768 168 168 169
0.34149504 -0.20307447 0.54318255 165 165 167
0.34243390 -0.20307447 0.54318255 160 161 163
0.34337273 -0.20307447 0.54318255 171 172 176
0.34486425 -0.20340043 0.54405445 178 179 182
0.34552729 -0.20323732 0.54361814 175 176 179
0.34674495 -0.20340043 0.54405445 171 172 175
0.34824431 -0.20372744 0.54492915 173 174 176
0.34862566 -0.20340043 0.54405445 173 174 176
0.34956601 -0.20340043 0.54405445 175 176 175
0.35022530 -0.20323732 0.54361814 177 178 176
0.35144675 -0.20340043 0.54405445 174 175 174
0.35238710 -0.20340043 0.54405445 169 169 169
0.35332745 -0.20340043 0.54405445 168 168 168
0.35398370 -0.20323732 0.54361814 161 161 164
0.35549346 -0.20356381 0.54449141 155 155 158
0.35643455 -0.20356381 0.54449141 153 156 158
0.35708886 -0.20340043 0.54405445 153 157 158
0.35802922 -0.20340043 0.54405445 162 165 166
0.49733803 -0.25267890 0.67586422 164 165 161
0.49850622 -0.25267890 0.67586422 157 158 154
0.50117344 -0.25343695 0.67789185 168 169 165
0.50284797 -0.25369063 0.67857039 163 164 163
0.50503188 -0.25419953 0.67993164 169 170 170
0.50519365 -0.25369063 0.67857039 173 178 177
0.50636649 -0.25369063 0.67857039 172 181 179
0.50753933 -0.25369063 0.67857039 169 178 176
0.50973272 -0.25419953 0.67993164 168 177 176
0.45548052 -0.18219766 0.48734137 166 167 171
0.45501441 -0.18167523 0.48594397 164 166 170
0.45552778 -0.18154509 0.48559588 160 162 165
0.45636711 -0.18154509 0.48559588 157 160 162
0.45687914 -0.18141513 0.48524827 156 159 161
0.45739043 -0.18128537 0.48490116 158 160 163
0.46089381 -0.18167523 0.48594397 156 159 160
0.33786634 -0.20165089 0.54187995 165 166 166
0.33961734 -0.20213562 0.54318255 172 172 172
0.34055620 -0.20213562 0.54318255 171 171 172
0.34149504 -0.20213562 0.54318255 164 164 166
0.34243390 -0.20213562 0.54318255 162 162 164
0.34309784 -0.20197378 0.54274768 168 169 171
0.34458771 -0.20229772 0.54361814 170 171 173
0.34525043 -0.20213562 0.54318255 166 167 169
0.34646690 -0.20229772 0.54361814 160 161 163
0.34824431 -0.20278558 0.54492915 167 168 170
0.34862566 -0.20246008 0.54405445 172 173 175
0.34928569 -0.20229772 0.54361814 173 174 174
0.35022530 -0.20229772 0.54361814 166 167 167
0.35144675 -0.20246008 0.54405445 159 160 160
0.35210451 -0.20229772 0.54361814 160 160 160
0.35304409 -0.20229772 0.54361814 163 163 163
0.35370007 -0.20213562 0.54318255 157 158 160
0.35520816 -0.20246008 0.54405445 162 163 165
0.35614851 -0.20246008 0.54405445 161 165 166
0.35680249 -0.20229772 0.54361814 165 168 170
0.35774210 -0.20229772 0.54361814 169 172 173
0.49616987 -0.25151074 0.67586422 164 163 159
0.49783438 -0.25176173 0.67653877 162 162 158
0.49850622 -0.25151074 0.67586422 166 166 163
0.50117344 -0.25226524 0.67789185 173 173 170
0.50284797 -0.25251779 0.67857039 171 172 172
0.50503188 -0.25302434 0.67993164 177 178 178
0.50519365 -0.25251779 0.67857039 176 180 179
0.50636649 -0.25251779 0.67857039 174 180 178
0.50753933 -0.25251779 0.67857039 172 177 176
0.50973272 -0.25302434 0.67993164 171 177 175
0.45613638 -0.18161646 0.48804307 163 167 169
0.45534080 -0.18096504 0.48629257 157 161 164
0.45552778 -0.18070577 0.48559588 159 163 164
0.45636711 -0.18070577 0.48559588 162 166 167
0.45687914 -0.18057641 0.48524827 165 169 170
0.46155554 -0.18109494 0.48664168 162 166 167
0.33961734 -0.20119677 0.54318255 170 170 172
0.34149504 -0.20119677 0.54318255 168 168 170
0.34243390 -0.20119677 0.54318255 165 166 168
0.34309784 -0.20103569 0.54274768 162 163 165
0.34458771 -0.20135812 0.54361814 162 163 165
0.34525043 -0.20119677 0.54318255 160 161 163
0.34646690 -0.20135812 0.54361814 159 160 162
0.34796458 -0.20168158 0.54449141 168 169 171
0.34862566 -0.20151973 0.54405445 171 172 174
0.34928569 -0.20135812 0.54361814 162 163 164
0.35022530 -0.20135812 0.54361814 157 157 157
0.35116491 -0.20135812 0.54361814 159 159 159
0.35182238 -0.20119677 0.54318255 159 159 159
0.35304409 -0.20135812 0.54361814 154 154 154
0.35370007 -0.20119677 0.54318255 153 154 155
0.35492331 -0.20135812 0.54361814 166 167 167
0.35586292 -0.20135812 0.54361814 167 168 170
0.35623115 -0.20103569 0.54274768 166 167 169
0.35745546 -0.20119677 0.54318255 162 164 165
0.35753483 -0.20071429 0.54187995 165 167 167
0.49616987 -0.25034255 0.67586422 165 164 164
0.49733803 -0.25034255 0.67586422 160 159 159
0.49800968 -0.25009319 0.67519110 149 149 149
0.50067276 -0.25084275 0.67721462 145 145 145
0.50402081 -0.25134492 0.67857039 162 162 162
0.50468844 -0.25109357 0.67789185 164 166 167
0.50535476 -0.25084275 0.67721462 166 169 169
0.50652528 -0.25084275 0.67721462 170 172 173
0.50871223 -0.25134492 0.67857039 170 176 176
0.51039594 -0.25159678 0.67925036 156 161 162
0.51105791 -0.25134492 0.67857039 137 139 140
0.60175288 -0.26769039 0.72269917 155 155 159
0.60425115 -0.26769039 0.72269917 159 160 162
0.60679406 -0.26826236 0.72424340 165 165 166
0.60869616 -0.26854929 0.72501802 170 171 171
0.60929763 -0.26826236 0.72424340 173 174 174
0.60989785 -0.26797608 0.72347051 165 166 168
0.61174589 -0.26769039 0.72269917 141 141 145
0.45599505 -0.18038332 0.48699126 157 160 161
0.45618135 -0.18012452 0.48629257 161 163 165
0.45669425 -0.17999540 0.48594397 164 166 167
0.45753416 -0.17999540 0.48594397 167 168 170
0.45771784 -0.17973770 0.48524827 164 165 167
0.45954341 -0.18012452 0.48629257 166 167 170
0.46104538 -0.18038332 0.48699126 166 168 170
0.46221918 -0.18051299 0.48734137 159 163 165
0.46306151 -0.18051299 0.48734137 155 159 162
0.46390384 -0.18051299 0.48734137 160 165 166
0.46508050 -0.18064286 0.48769197 167 173 174
0.46558848 -0.18051299 0.48734137 167 174 175
0.33961734 -0.20025793 0.54318255 167 167 169
0.34055620 -0.20025793 0.54318255 172 172 174
0.34176889 -0.20041852 0.54361814 171 171 173
0.34270850 -0.20041852 0.54361814 166 167 169
0.34337273 -0.20025793 0.54318255 164 164 166
0.34458771 -0.20041852 0.54361814 162 163 165
0.34552729 -0.20041852 0.54361814 163 163 166
0.34646690 -0.20041852 0.54361814 170 170 173
0.34824431 -0.20090185 0.54492915 178 179 181
0.34862566 -0.20057938 0.54405445 171 172 174
0.34956601 -0.20057938 0.54405445 161 161 161
0.35050640 -0.20057938 0.54405445 162 162 162
0.35144675 -0.20057938 0.54405445 164 164 164
0.35210451 -0.20041852 0.54361814 162 162 163
0.35304409 -0.20041852 0.54361814 162 162 162
0.35370007 -0.20025793 0.54318255 163 163 163
0.35520816 -0.20057938 0.54405445 162 162 162
0.35586292 -0.20041852 0.54361814 156 157 159
0.35774210 -0.20041852 0.54361814 154 155 155
0.35753483 -0.19977769 0.54187995 163 164 164
0.48684072 -0.24622847 0.66787374 151 152 154
0.48895854 -0.24671461 0.66919231 151 151 153
0.49059948 -0.24695839 0.66985363 154 154 154
0.49469024 -0.24843131 0.67384875 146 146 146
0.49634832 -0.24867851 0.67451924 128 129 129
0.49701962 -0.24843131 0.67384875 113 114 114
0.49917671 -0.24892619 0.67519110 108 109 109
0.50034374 -0.24892619 0.67519110 120 121 123
0.50351679 -0.24992190 0.67789185 135 136 138
0.50368112 -0.24942306 0.67653877 144 145 146
0.50485045 -0.24942306 0.67653877 145 146 148
0.50551528 -0.24917437 0.67586422 137 138 140
0.50769579 -0.24967222 0.67721462 118 119 123
0.50988507 -0.25017208 0.67857039 85 86 90
0.51054686 -0.24992190 0.67789185 68 67 72
0.60050374 -0.26644126 0.72269917 164 164 166
0.60175288 -0.26644126 0.72269917 167 167 169
0.60300201 -0.26644126 0.72269917 166 167 169
0.60425115 -0.26644126 0.72269917 168 169 171
0.60679406 -0.26701057 0.72424340 167 168 170
0.60869616 -0.26729614 0.72501802 162 162 165
0.60929763 -0.26701057 0.72424340 151 151 155
0.61054945 -0.26701057 0.72424340 146 147 151
0.61180127 -0.26701057 0.72424340 144 146 149
0.61174589 -0.26644126 0.72269917 147 150 154
0.61364925 -0.26672560 0.72347051 161 163 169
0.45632285 -0.17967066 0.48734137 156 157 159
0.45618135 -0.17928401 0.48629257 157 158 160
0.45702186 -0.17928401 0.48629257 158 159 163
0.45786238 -0.17928401 0.48629257 160 161 164
0.45804572 -0.17902714 0.48559588 164 165 169
0.45954341 -0.17928401 0.48629257 167 169 173
0.46137685 -0.17967066 0.48734137 162 166 169
0.46221918 -0.17967066 0.48734137 153 159 161
0.46306151 -0.17967066 0.48734137 155 160 162
0.46390384 -0.17967066 0.48734137 159 166 169
0.46541533 -0.17992938 0.48804307 163 171 175
0.46558848 -0.17967066 0.48734137 165 173 177
0.46643081 -0.17967066 0.48734137 160 168 172
0.33988971 -0.19947892 0.54361814 174 175 177
0.34110284 -0.19963902 0.54405445 174 174 176
0.34204319 -0.19963902 0.54405445 171 171 173
0.34298354 -0.19963902 0.54405445 169 169 171
0.34364811 -0.19947892 0.54361814 166 167 169
0.34486425 -0.19963902 0.54405445 164 164 167
0.34580460 -0.19963902 0.54405445 164 164 168
0.34674495 -0.19963902 0.54405445 171 171 175
0.34852445 -0.20012085 0.54536754 174 175 179
0.34890568 -0.19979937 0.54449141 167 167 171
0.34984681 -0.19979937 0.54449141 163 164 167
0.35078791 -0.19979937 0.54449141 170 171 174
0.35172904 -0.19979937 0.54449141 169 170 172
0.35238710 -0.19963902 0.54405445 169 169 171
0.35361123 -0.19979937 0.54449141 164 164 166
0.35398370 -0.19947892 0.54361814 155 155 156
0.35549346 -0.19979937 0.54449141 150 150 152
0.35614851 -0.19963902 0.54405445 151 152 154
0.35774210 -0.19947892 0.54361814 163 164 164
0.35753483 -0.19884109 0.54187995 165 166 166
