ply
format ascii 1.0
element vertex 577
property float x
property float y
property float z
property uchar red
property uchar green
property uchar blue
end_header
-0.40243158 0.03476000 0.79702175 200 202 203
-0.40351173 0.04439176 0.79387303 206 208 208
-0.39442215 0.03485471 0.79603114 208 209 209
-0.39610297 0.04494558 0.79309538 204 204 204
-0.36420636 -0.44129948 0.96876328 210 211 210
-0.36388572 -0.42855400 0.96761737 211 211 211
-0.36604900 -0.18532018 0.61848661 209 211 210
-0.36963846 -0.18932127 0.62058139 206 206 206
-0.36330033 -0.17460845 0.61458198 203 205 205
-0.35979679 -0.44009408 0.96703541 211 212 212
-0.35439188 -0.42930578 0.96496805 210 211 211
-0.35981742 -0.16951516 0.61181575 198 199 200
-0.18552009 0.07283462 0.48928739 203 202 202
-0.18198020 0.08101912 0.49024967 210 202 202
-0.17919851 0.07381036 0.48950747 216 190 197
-0.17959145 0.08196546 0.48874903 213 193 197
-0.16334738 0.11825832 0.46924732 166 129 140
-0.16273982 0.12334978 0.46763080 170 131 143
-0.15894509 0.11843311 0.46815828 164 131 140
-0.15807905 0.12483776 0.46582270 164 133 143
-0.12882524 0.28763468 0.67481783 171 172 173
-0.12735710 0.29609421 0.68061429 187 187 187
-0.11853767 0.28937228 0.67727129 172 173 172
-0.02060747 0.00943085 0.47197711 189 185 186
-0.01535684 0.01361614 0.47248185 194 191 191
-0.00922699 0.02023651 0.47405025 181 180 178
-0.00899367 0.07289313 0.48814768 175 133 148
-0.00771780 0.08099936 0.48214212 160 128 144
0.01981479 -0.50059748 1.06754625 208 208 208
0.01762605 -0.48904182 1.06775887 206 207 206
0.01830657 -0.47620793 1.07079297 202 204 205
0.00800174 0.11772926 0.54324507 44 44 57
0.00955354 0.12276198 0.54335117 44 43 59
0.02260108 -0.50099227 1.06838816 209 209 208
0.02425579 -0.48755392 1.06715175 204 204 203
0.02925971 -0.47238022 1.06702054 202 202 201
0.05135856 -0.30114825 0.68716951 205 204 205
0.05066449 -0.29400421 0.68530810 207 208 207
0.13980296 0.20860150 0.45253128 0 0 0
0.14052169 0.21085361 0.45741689 0 0 0
0.14201233 0.21552443 0.46754957 0 0 0
0.14355883 0.22037028 0.47806194 0 0 0
0.14518897 0.22547823 0.48914290 0 0 0
0.14822573 0.23499368 0.50978535 0 0 0
0.15151631 0.24530449 0.53215317 0 0 0
0.15404885 0.25324002 0.54936817 0 0 0
0.15564840 0.25825211 0.56024116 0 0 0
0.15732005 0.26349010 0.57160428 0 0 0
0.15905295 0.26892000 0.58338368 0 0 0
0.16825799 -0.26375907 0.53121031 47 48 61
0.16693891 -0.26133002 0.54036823 50 52 62
0.16983756 -0.25594279 0.53251312 46 47 58
0.17213642 -0.25592887 0.54767382 49 50 61
0.17598337 -0.25593194 0.56024116 47 48 65
0.16086725 0.27460501 0.59571648 0 0 0
0.16340313 0.28255101 0.61295417 0 0 0
0.16609015 0.29097056 0.63121924 0 0 0
0.16820739 0.29760480 0.64561129 0 0 0
0.16967705 0.30220991 0.65560138 0 0 0
0.17197505 0.30941056 0.67122215 0 0 0
0.17437224 0.31692195 0.68751711 0 0 0
0.17604056 0.32214954 0.69885755 0 0 0
0.17776485 0.32755247 0.71057844 0 0 0
0.17954797 0.33313972 0.72269917 0 0 0
0.18139295 0.33892089 0.73524064 0 0 0
0.18330312 0.34490624 0.74822497 0 0 0
0.18630761 0.35432059 0.76864812 0 0 0
0.18946105 0.36420169 0.79008371 0 0 0
0.19166972 0.37112239 0.80509722 0 0 0
0.19396394 0.37831119 0.82069230 0 0 0
0.19634882 0.38578400 0.83690351 0 0 0
0.19882980 0.39355800 0.85376805 0 0 0
0.20141283 0.40165174 0.87132627 0 0 0
0.20410432 0.41008538 0.88962185 0 0 0
0.20691128 0.41888076 0.90870219 0 0 0
0.20984128 0.42806172 0.92861897 0 0 0
0.21290259 0.43765414 0.94942838 0 0 0
0.21610425 0.44768631 0.97119176 0 0 0
0.21945614 0.45818922 0.99397629 0 0 0
0.23404938 0.01045443 0.50905460 10 10 21
0.23845372 0.01497773 0.52127108 10 9 24
0.23436970 0.02695733 0.49992025 8 7 14
0.23559628 0.03138281 0.50706636 8 7 15
0.23960574 0.02590363 0.52215886 8 7 19
0.23733525 0.03545570 0.55473848 33 41 79
0.23909105 0.03429871 0.56302169 34 42 79
0.23681273 0.04555440 0.51078738 8 7 15
0.23358716 0.04891987 0.52863228 20 22 46
0.23485542 0.04437717 0.55092607 34 40 71
0.23838131 0.04363408 0.56483855 35 40 69
0.22296908 0.46919677 1.01785564 0 0 0
0.22665496 0.48074624 1.04291058 0 0 0
0.23052688 0.49287862 1.06923008 0 0 0
0.23459929 0.50563926 1.09691238 0 0 0
0.23888817 0.51907814 1.12606621 0 0 0
0.24208886 0.01780477 0.52956913 9 8 23
0.24127468 0.01896650 0.55710051 35 43 79
0.24221709 0.02599614 0.53015248 8 8 22
0.24472718 0.02318495 0.55004751 18 23 49
0.24151133 0.02954724 0.56858646 34 42 80
0.24355071 0.03574267 0.58335579 34 41 69
0.25302377 0.04935717 0.51873454 7 7 10
0.25513786 0.04423818 0.52431845 8 7 11
0.24161978 0.04371939 0.57669250 34 38 66
0.24321809 0.04239121 0.58417725 33 39 64
0.24341127 0.53325093 1.15681207 0 0 0
0.24818829 0.54821938 1.18928397 0 0 0
0.25324124 0.56405246 1.22363150 0 0 0
0.25859472 0.58082724 1.26002204 0 0 0
0.26206486 0.04619271 0.52298768 7 7 9
0.26863038 0.17777020 0.49903879 29 30 47
0.26831938 0.17802138 0.50214377 29 31 46
0.26893257 0.18508244 0.49992025 29 32 52
0.26585660 0.18685674 0.50229609 32 34 52
0.26427639 0.59863037 1.29864335 0 0 0
0.27031738 0.61755937 1.33970726 0 0 0
0.27675289 0.63772458 1.38345277 0 0 0
0.28362286 0.65925115 1.43015158 0 0 0
0.29097283 0.68228179 1.48011315 0 0 0
0.29885492 0.70697975 1.53369200 0 0 0
0.30948713 -0.64245862 1.19980860 111 133 148
0.31052351 -0.64458778 1.21220672 104 128 144
0.31189677 -0.64453435 1.22142673 99 128 143
0.31578569 -0.63311684 1.21345846 87 107 125
0.31798304 -0.63231520 1.22565324 76 89 111
0.31290160 0.27492010 1.37003515 41 43 56
0.30667816 0.27737738 1.38706930 42 43 57
0.31528631 0.28765871 1.37195700 42 45 58
0.30684125 0.28495194 1.38892027 40 43 61
0.31149033 0.29521921 1.40350680 42 45 60
0.30732909 0.73353297 1.59129536 0 0 0
0.31646466 0.76215863 1.65339470 0 0 0
0.33335912 -0.68184974 1.44815248 38 36 55
0.33414600 -0.68420199 1.46873593 38 38 54
0.33644630 -0.68888637 1.48662498 40 41 54
0.33724621 -0.67656118 1.45082803 36 35 51
0.33713571 -0.67220548 1.46846456 36 39 51
0.33739017 -0.67561127 1.48173255 36 40 53
0.33781756 -0.64106914 1.27544165 81 87 112
0.32129464 -0.62959868 1.21704102 77 94 115
0.33063820 -0.63044563 1.23073215 84 91 109
0.33146888 -0.63343228 1.24843764 70 78 101
0.33727928 -0.63728783 1.26575824 74 82 105
0.33894151 -0.63754982 1.28388608 109 123 137
0.33373548 -0.26707937 0.65394843 129 130 138
0.33525088 -0.25298086 0.64499532 183 185 189
0.33908513 -0.23956814 0.64377195 188 189 191
0.33782405 0.27937832 1.35038221 38 40 48
0.32065028 0.27685225 1.36671746 40 42 56
0.33875893 0.28474135 1.35646567 37 39 48
0.33158710 0.28981947 1.37122655 40 42 53
0.33180812 0.29220209 1.38215409 42 42 54
0.32634220 0.79310924 1.72053766 0 0 0
0.33705595 0.82668000 1.79336464 0 0 0
0.35153164 -0.68576975 1.45248612 50 50 61
0.35401439 -0.68625695 1.46891325 49 51 60
0.35745214 -0.68683150 1.48663355 47 49 58
0.34015757 -0.67614701 1.43926084 40 40 53
0.34628844 -0.67709709 1.45108485 44 44 56
0.34568604 -0.67666001 1.46926872 37 39 50
0.35748747 -0.67615203 1.48011315 45 48 57
0.34078828 -0.64443822 1.28878406 94 100 121
0.34223215 -0.65361935 1.30489403 95 100 124
0.34066851 -0.62636173 1.23387928 110 112 117
0.34177005 -0.62947227 1.25093691 83 87 100
0.34148653 -0.63439339 1.26782598 72 77 97
0.34091601 -0.61956531 1.23477566 105 108 116
0.34110649 -0.24505565 0.63921922 183 192 196
0.34287970 -0.25026606 0.64495661 180 186 188
0.34643562 0.03786991 0.45428477 127 127 128
0.34851174 0.03681853 0.47326920 56 56 64
0.35149971 0.03330746 0.48451954 42 42 52
0.34984585 0.04821265 0.45543666 128 131 132
0.35204547 0.04760095 0.47478370 53 53 62
0.35282163 0.05138408 0.48242966 41 41 50
0.35560032 0.06104555 0.45910969 120 121 122
0.35680718 0.06273301 0.46119105 129 131 131
0.35631951 0.06072196 0.48214481 42 42 51
0.34132509 0.27937832 1.35038221 38 39 47
0.34673136 0.29800999 1.33970726 37 36 47
0.34519135 0.28928277 1.35489423 37 38 47
0.34576914 0.29553461 1.36909842 39 39 49
0.34061977 0.29995522 1.38063514 42 42 52
0.34398966 0.30800975 1.35398770 39 38 50
0.34451248 0.30775880 1.36874751 41 40 52
0.34258451 0.30428796 1.38133955 42 42 52
0.34496838 0.32238518 1.36947846 40 39 53
0.34578579 0.32532230 1.38702112 41 41 55
0.34871677 0.86321837 1.87262940 0 0 0
0.36655326 -0.70368744 1.47542914 59 61 71
0.37004150 -0.71020301 1.48662447 63 66 77
0.36648736 -0.68319323 1.45159296 56 55 67
0.36481804 -0.69360608 1.47102321 57 56 68
0.37027875 -0.69789723 1.48011315 56 54 68
0.36164492 -0.68763801 1.50811875 42 45 55
0.36348176 -0.69747216 1.52678347 38 41 51
0.36503404 -0.67739081 1.43926084 55 55 64
0.37597791 0.01906682 0.51500585 56 56 65
0.37732043 0.01874363 0.52705577 42 41 51
0.36449510 0.02474295 0.49885075 48 47 57
0.36962445 0.02413806 0.50968234 50 49 58
0.37408616 0.02256675 0.52415863 41 40 50
0.36747108 0.05868395 0.48713351 68 68 75
0.36942262 0.06862145 0.48741246 71 72 76
0.37469424 0.07334935 0.50388311 41 41 49
0.37851676 0.08015685 0.50028920 47 48 54
0.36145604 0.90313596 1.95922494 0 0 0
0.39710354 -0.00592263 0.52919707 152 153 151
0.38243551 0.01689664 0.51800159 88 89 94
0.38575131 0.01293762 0.53074546 64 66 72
0.39169354 0.00868524 0.54480154 47 47 55
0.38083085 0.02020886 0.51511538 90 90 95
0.38204317 0.07897138 0.50839712 47 47 56
0.38342205 0.08268996 0.49992025 84 84 90
0.38598720 0.08310750 0.51298980 48 47 55
0.39185216 0.08823638 0.52346598 41 42 49
0.39444529 0.59444137 1.73670240 36 35 51
0.39547192 0.59549491 1.74565454 35 36 51
0.39277983 0.60896784 1.73818421 39 39 50
0.39178467 0.60606724 1.74714386 35 36 51
0.39731340 0.60850883 1.77182045 34 35 51
0.39674775 0.61106679 1.79232703 35 36 52
0.39509551 0.61220743 1.80932963 36 36 51
0.39148967 0.61749687 1.82557333 36 34 51
0.39397383 0.61990219 1.84209740 37 36 50
0.39898282 0.62027764 1.77924371 38 38 50
0.39490524 0.63591689 1.78863287 38 41 56
0.39805609 0.62229365 1.80290389 33 34 53
0.39393926 0.62728233 1.82536313 35 36 55
0.39362529 0.63378708 1.84544361 36 36 56
0.39508429 0.63958991 1.86234021 36 37 59
0.39811638 0.64614612 1.81740439 38 43 59
0.39718330 0.64321849 1.84964013 36 37 56
0.39790219 0.65046564 1.86954553 36 38 56
0.38210273 0.66226095 1.77226925 43 46 65
0.38662238 0.67238319 1.80772448 44 47 66
0.38956213 0.67301230 1.82639196 40 43 66
0.39826998 0.66742700 1.85470074 38 41 61
0.39940044 0.67362958 1.86747062 40 40 65
0.39954904 0.67291703 1.89885676 36 41 58
0.39962521 0.67751646 1.91494870 35 40 55
0.38867754 0.68621892 1.83214009 44 47 67
0.39239343 0.68858959 1.85343903 42 47 68
0.39366478 0.68954386 1.86833515 40 44 65
0.39962521 0.68082625 1.91494870 35 41 58
0.41935366 -0.24025337 0.48892313 38 38 54
0.41153023 -0.22546790 0.47964051 39 42 56
0.41502203 -0.23254222 0.48379246 38 41 56
0.41220913 -0.23052962 0.71805406 185 185 185
0.41715691 -0.22753863 0.72086069 177 175 177
0.41830689 -0.08311584 0.46778157 143 149 149
0.40524961 -0.00628284 0.52810388 171 174 173
0.40566570 -0.00248647 0.56706790 47 46 57
0.40061134 0.00840174 0.55885559 45 45 52
0.40377425 0.00417336 0.56469177 45 44 54
0.40566978 0.09464737 0.53349280 52 54 60
0.41097315 0.09800386 0.54416937 46 47 55
0.41583105 0.10158901 0.53184537 117 123 123
0.41367093 0.10236957 0.54797332 42 42 51
0.40355082 0.59487417 1.77229351 37 36 50
0.40695740 0.59575029 1.79180404 32 34 47
0.40958761 0.59585540 1.81256443 34 34 48
0.41037487 0.59505137 1.83003511 36 36 49
0.41746793 0.59448367 1.85217273 36 35 48
0.40205809 0.60182595 1.77924371 38 37 53
0.40343878 0.60464843 1.79219419 37 36 51
0.40367201 0.60343970 1.80711707 36 37 50
0.40863562 0.60063785 1.82228994 33 35 48
0.40321606 0.62996674 1.79812157 39 39 50
0.40018472 0.63188708 1.81254506 37 39 54
0.40080346 0.63311601 1.82967091 36 37 55
0.40034166 0.63900572 1.84209740 37 38 57
0.40243199 0.64997512 1.83710527 39 43 58
0.40314716 0.65039374 1.84914646 37 40 55
0.40441136 0.65473680 1.86576049 37 40 56
0.40363213 0.66030824 1.85723794 37 42 58
0.40228942 0.66355572 1.87092408 37 42 58
0.40187737 0.66933088 1.89180430 36 41 58
0.40123568 0.67300880 1.90687251 35 41 56
0.40283105 0.68331009 1.89885676 40 42 64
0.40189579 0.68802327 1.92582905 36 42 60
0.43673731 -0.26772954 0.47150223 26 26 41
0.43955482 -0.26081936 0.50957573 39 43 58
0.43623082 -0.25851708 0.46891342 27 26 47
0.43062940 -0.24490836 0.49150618 52 56 69
0.43770662 -0.25769763 0.50731418 40 45 60
0.42750203 -0.23574702 0.48683869 41 44 58
0.42082380 -0.22953870 0.71940148 185 184 185
0.42179119 -0.22770496 0.72068255 189 189 189
0.42163751 -0.08373901 0.46729440 144 149 151
0.42213857 -0.07889240 0.46892810 145 152 154
0.42074224 0.09891115 0.53886473 120 123 125
0.42157550 0.09831657 0.54330290 108 112 114
0.42096557 0.10191575 0.53915075 116 121 120
0.43206688 0.10973177 0.55192851 106 109 110
0.44049549 -0.27252173 0.47305781 26 26 39
0.44089805 -0.26232501 0.51078408 39 42 57
0.45881069 -0.12080857 0.72579426 32 31 40
0.45952418 -0.11880843 0.72891593 29 28 36
0.44129884 0.11377145 0.55046651 148 150 149
0.47760280 -0.24659854 0.45130332 82 84 100
0.47120253 -0.12912396 0.72893121 35 35 43
0.47529617 -0.13573194 0.74575561 34 34 43
0.49742273 -0.18921355 0.51972290 32 32 40
0.49414548 -0.19044487 0.52866457 26 25 33
0.49751152 -0.18943475 0.54474344 22 22 28
0.48489820 -0.12856223 0.73372516 39 40 49
0.49484598 -0.12178357 0.74384393 41 41 52
0.48859347 -0.11655345 0.73857877 39 39 50
0.49008976 -0.11817241 0.74148450 38 39 50
0.50076351 -0.18842340 0.52445795 32 31 39
0.51360403 -0.14595227 0.57916436 146 147 148
0.51566117 -0.14498183 0.58171126 145 146 148
0.51454303 -0.13714730 0.57806625 153 153 153
0.51714028 -0.13898621 0.58058579 157 157 156
0.50061825 -0.12514552 0.74412286 45 45 54
0.52132033 -0.14150568 0.57939517 151 155 154
0.52471915 -0.14735511 0.58216505 148 151 152
0.52222851 -0.13667572 0.57873596 152 153 155
0.52666932 -0.13797117 0.58138328 148 150 153
0.57081332 -0.36271910 0.57157622 40 46 69
0.57508762 -0.35632449 0.57236366 51 62 88
0.57351264 -0.02637065 0.58640213 161 163 162
0.56254590 -0.01482324 0.57939476 152 152 150
0.57116945 -0.01416838 0.58404921 151 151 149
0.58121153 -0.35394287 0.56919380 63 72 98
0.58200175 -0.02837547 0.59049815 169 169 169
0.58048946 -0.01352923 0.58844781 138 138 135
0.67638767 -0.00440894 1.95922494 17 16 30
0.67834818 -0.01121408 1.96490383 17 16 28
0.67210619 0.01079630 1.95171833 22 21 36
0.67577924 0.01147031 1.97062691 24 23 39
0.67943335 0.01614250 1.98795259 25 24 39
0.67521107 0.02281382 1.97061586 24 23 37
0.67744666 0.02637321 1.98213995 26 25 40
0.68742310 -0.04587842 0.61425835 34 34 41
0.69486081 -0.04587816 0.62488964 33 31 39
0.69341792 -0.02506779 0.61366571 35 35 41
0.69721745 -0.03347213 0.62470066 41 39 47
0.69693796 -0.01471372 0.61776093 72 72 79
0.69846978 -0.01794262 0.62045569 62 63 71
0.69729334 -0.00602307 1.93269530 14 14 18
0.69690157 -0.00607639 1.95030950 15 14 19
0.69190173 -0.00727414 1.96967491 16 15 24
0.68696161 -0.00622431 1.99236363 18 17 30
0.68317109 0.01210310 1.89355266 15 14 23
0.68700916 0.00887986 1.90419054 15 14 21
0.69300075 0.00613230 1.92741006 15 14 21
0.69335653 0.00726511 1.95155507 16 15 23
0.69023770 0.00844298 1.99308591 19 18 32
0.68344182 0.03006288 1.99968100 27 26 42
0.71565669 -0.44699947 1.05427029 142 142 145
0.70603603 -0.06333929 0.63952059 33 36 37
0.70846707 -0.06409758 0.65034504 43 43 48
0.71464378 -0.06920145 0.66394889 64 64 71
0.70405793 -0.04751045 0.63668866 38 37 43
0.71405232 -0.05389253 0.64915403 38 37 45
0.70198004 -0.02522938 0.61344698 38 38 43
0.70197719 -0.03045815 0.62919074 48 47 54
0.70712151 -0.02262446 1.97254197 11 11 15
0.71454835 -0.02523770 1.99968100 11 11 15
0.70428351 -0.01892389 0.61160752 33 34 42
0.70035571 -0.01972776 0.62363553 76 76 82
0.70146734 -0.00435124 1.93499450 13 13 18
0.70469186 -0.01451331 1.95134623 11 11 15
0.70262924 -0.01631896 1.96633184 12 12 17
0.70555049 -0.00963067 1.99381679 14 13 20
0.70013374 0.00233011 1.93131578 15 15 19
0.71158105 0.00235697 1.95357883 15 15 19
0.70075643 0.01600172 1.97061586 19 17 31
0.70159365 0.00756533 1.99233782 16 14 27
0.73291154 -0.48484083 1.07721953 32 32 45
0.73690947 -0.48906938 1.08901473 40 40 51
0.73685548 -0.48606707 1.10213786 63 62 77
0.72789055 -0.47217910 1.07400794 81 81 90
0.73485757 -0.47228864 1.09040266 117 117 122
0.73953713 -0.47695444 1.10136992 122 122 127
0.72327275 -0.45519023 1.06923604 135 135 138
0.72078252 -0.04978749 0.65751463 58 55 62
0.72633427 -0.05549944 0.66484723 50 50 58
0.74232975 -0.50122280 1.10766786 31 30 39
0.74149813 -0.49333439 1.09516307 33 34 47
0.74178226 -0.49360845 1.10604190 43 44 56
0.74354529 -0.47903152 1.10947931 130 131 134
0.75650213 -0.40900824 0.97864140 29 28 37
0.75355417 -0.40840555 0.98383896 29 28 38
0.75465932 -0.39842667 0.98174104 32 32 42
0.75779521 -0.20473799 0.75322454 31 30 39
0.75973696 -0.20632893 0.76082134 31 30 39
0.75771362 -0.19757877 0.75095990 42 42 50
0.75766033 0.39179538 1.95922494 14 14 21
0.75755981 0.39180404 1.96775985 15 14 21
0.76474398 -0.40793660 0.97682979 30 30 38
0.76640931 -0.40412032 0.98440771 31 31 40
0.77282770 -0.25160345 1.09750688 45 45 60
0.77303540 -0.25215626 1.10848955 42 46 55
0.77609593 -0.25235102 1.12048233 42 46 55
0.76165529 -0.20568640 0.75450777 29 28 37
0.76420487 -0.20863684 0.76270738 28 27 37
0.76062409 -0.19922566 0.75520484 42 42 49
0.76615734 0.39010440 1.95500247 13 12 19
0.77072341 0.38987958 1.96930535 13 12 18
0.77562404 0.38378139 1.99298395 12 11 18
0.79057458 -0.26074210 1.11495674 46 50 63
0.79760221 -0.26878597 1.12440969 53 55 65
0.78677884 -0.25736653 1.11203759 45 47 61
0.78990695 0.37301828 1.97636104 12 11 18
0.78776877 0.37367076 1.98893854 12 11 17
0.78859401 0.38788329 1.93131578 12 12 16
0.79515697 0.39235216 1.95360306 12 11 16
0.78974890 0.39492821 1.97277445 12 11 17
0.79187080 0.38751003 1.99117703 11 11 17
0.79560010 0.40375287 1.99146767 12 11 18
0.80937903 -0.27003271 1.13061158 60 64 74
0.81768588 -0.26850298 1.14251502 52 57 69
0.80214214 -0.25881074 1.11496574 54 57 69
0.80710471 0.37637301 1.98504627 11 10 17
0.80123675 0.39234878 1.97063243 12 11 16
0.80456204 0.38888104 1.99056653 12 11 17
0.80186290 0.40205410 1.97636104 12 12 16
0.81000191 0.40784821 1.98795259 13 12 19
0.83756434 -0.28822939 1.15641859 124 131 133
0.83864243 -0.28967217 1.16476723 113 122 124
0.82169489 -0.27663168 1.13803963 93 97 104
0.82442600 -0.27489740 1.14802679 72 77 85
0.83646455 0.03914785 0.82368487 150 150 146
0.83859556 0.04866657 0.81936995 159 159 156
0.83346770 0.04975987 0.82215640 152 153 152
0.83654326 0.06230339 0.82488757 157 158 157
0.83518360 0.09310785 0.85917848 153 155 153
0.83688270 0.09156382 0.86143629 160 162 162
0.85873508 -0.48258397 1.10226321 25 25 34
0.85454643 -0.30369366 1.18638110 149 152 157
0.84196755 -0.28977261 1.15780079 133 139 141
0.84283257 -0.29569893 1.17053124 128 129 133
0.84021205 0.03810180 0.82569045 157 157 151
0.84120011 0.04490929 0.81969994 161 163 157
0.84042877 0.06545662 0.82871866 162 164 164
0.85063648 0.09659151 0.85758652 165 166 165
0.85242683 0.09358160 0.86589900 158 160 160
0.85161469 0.10097376 0.85787562 158 158 153
0.85780249 0.10271003 0.86246229 155 155 151
0.87410450 -0.50929707 1.13373261 26 25 32
0.87565194 -0.51058216 1.14364254 24 24 31
0.86294690 -0.48207754 1.10766935 24 24 33
0.87594581 -0.49103485 1.12795585 25 25 33
0.86083528 -0.47516996 1.10495889 26 26 31
0.86129519 0.09793417 0.85917848 154 156 157
0.86296365 0.09083409 0.86807704 150 151 151
0.86092395 0.10053296 0.85917848 142 142 140
0.86635226 0.10725949 0.86808010 158 157 156
0.89123493 -0.52046233 1.15681207 27 25 34
0.89415535 -0.52525954 1.17310967 25 24 31
0.89942339 -0.52873591 1.18202680 25 25 32
0.88169247 -0.50274372 1.13931406 26 24 33
0.88756577 -0.51127807 1.15190897 25 24 32
0.89384259 -0.50917273 1.16629752 24 24 31
0.89864013 -0.51501301 1.18099630 25 24 31
0.88070136 -0.49517164 1.13549721 24 24 33
0.89371395 -0.49761860 1.15484806 25 26 33
0.89937347 -0.49988100 1.16476262 26 26 33
0.90128386 -0.52736459 1.18581744 24 24 31
0.90231019 -0.50424451 1.17441515 24 24 32
0.90707843 -0.50712995 1.18536186 25 25 32
0.90560474 -0.49928543 1.17283265 27 27 31
0.91956452 -0.44732852 0.92167526 170 176 174
0.93300350 -0.44887172 0.93396329 149 157 160
0.93876654 -0.44754352 0.94282715 56 62 80
0.94259825 -0.44970192 0.93825907 166 174 172
0.95054878 -0.44601674 0.94690365 97 101 115
0.95330377 -0.43885094 0.94810143 38 39 62
0.97156049 -0.46396573 0.95680103 175 181 179
0.96851484 -0.44997307 0.95158822 155 162 161
0.99860960 -0.46142957 0.89196295 37 41 59
0.99767840 -0.44803920 0.88884453 36 39 58
0.99577303 -0.44606438 0.90979840 48 60 99
0.98191932 -0.44891267 0.96086770 154 155 155
0.98835903 -0.42688841 0.89876309 52 57 88
0.99349839 -0.43448629 0.90548596 49 58 97
1.01860370 -0.54187237 1.79179571 175 171 173
1.01765116 -0.53109888 1.77305766 166 167 168
1.01812878 -0.53495390 1.78982516 170 169 170
1.01790162 -0.52539325 1.80610903 134 133 136
1.01871673 -0.51743132 1.79653593 171 170 166
1.01119891 -0.48251082 0.91695836 78 104 135
1.01565592 -0.48327465 0.92431779 78 102 130
1.00256884 -0.46093632 0.89549938 35 38 56
1.01200707 -0.46995207 0.91624437 52 59 86
1.01406517 -0.47766690 0.92335180 64 80 109
1.00444137 -0.44696325 0.89504751 33 37 56
1.01086155 -0.44963344 0.91176276 39 43 71
1.00987864 -0.43965507 0.89787000 32 33 51
1.01091245 -0.43493488 0.90901840 32 35 63
1.03028080 -0.54182285 1.77807927 188 188 187
1.02569703 -0.54713547 1.78706801 179 180 180
1.03010672 -0.52468902 1.75165856 173 174 171
1.02839916 -0.53417079 1.77348171 177 177 176
1.02316880 -0.53030233 1.79527245 179 180 179
1.02588723 -0.52567268 1.80386543 169 168 168
1.02576831 -0.51772322 1.79574940 173 173 171
1.02023506 -0.48059908 0.91979897 90 109 134
1.02380876 -0.48145123 0.92398064 67 84 109
1.02353080 -0.46670167 0.91837650 36 39 60
1.02571017 -0.46694391 0.92293324 36 40 62
1.02275720 -0.45086585 0.91666604 33 35 57
1.02855078 -0.45428426 0.92298133 34 36 57
1.02008510 -0.43985599 0.91114497 31 32 52
1.05045978 -0.54368817 1.77497816 177 176 176
1.05642269 -0.54728709 1.78486729 174 173 173
1.04589097 -0.52456228 1.75528891 171 171 170
1.05037529 -0.53193461 1.77032569 176 176 174
1.06858170 -0.58057719 1.79336464 188 188 188
1.06745800 -0.56945371 1.79495029 177 177 177
1.07157833 -0.57099812 1.80773165 176 176 176
1.06478059 -0.54986587 1.77924371 158 156 159
1.07119288 -0.54883394 1.78936468 175 174 175
1.06338483 -0.53532553 1.77691483 163 163 162
1.08432400 -0.58678660 1.81255153 182 182 182
1.09437764 -0.58599919 1.82474583 180 180 179
1.08619089 -0.57111329 1.81449397 176 174 173
1.09369111 -0.57419294 1.82228994 174 172 170
1.10099518 -0.58203650 1.83710527 158 155 154
1.11254871 -0.58400959 1.84838530 171 169 168
1.10099518 -0.57886118 1.83710527 165 161 161
1.11825824 0.11757878 1.19980860 155 158 157
1.11363031 0.11780753 1.20798292 156 156 156
1.11656340 0.13408994 1.19910200 163 164 166
1.11658096 0.12518125 1.20768688 159 159 160
1.12873210 0.11650613 1.20960002 150 153 152
1.13312912 0.11547504 1.22142673 162 163 163
1.12689088 0.12793156 1.21015247 156 157 157
1.13161799 0.14213594 1.21922994 157 157 158
1.13432856 0.14486977 1.22363150 159 159 161
1.14232552 0.11564389 1.21214721 141 140 142
1.22896919 -0.49143062 1.89488608 60 60 75
1.23664606 -0.49138850 1.90419054 58 56 74
1.23617063 -0.46859764 1.89025608 48 48 58
1.25859058 -0.50751007 1.95357883 58 56 75
1.24738768 -0.49280107 1.92585245 55 55 69
1.24466914 -0.46375591 1.89885676 46 46 55
1.24541273 -0.47033963 1.90956659 48 47 57
1.25403762 -0.47532596 1.92584461 49 48 57
1.26196718 -0.50413346 1.95357883 59 57 76
1.26701504 -0.50852965 1.97062415 56 55 71
1.27387266 -0.50681039 1.98796632 50 53 64
1.26419422 -0.49010747 1.94957820 51 51 61
1.27430832 -0.49131302 1.97444598 49 49 58
1.27554525 -0.49220716 1.98723890 47 47 55
1.26508510 -0.47743213 1.94798118 48 47 57
1.28230717 -0.50495905 1.99146764 51 53 64
1.28369012 -0.48981591 1.99147453 46 46 54
1.28384304 -0.47724414 1.98213995 43 43 53
1.71464539 0.00722568 1.54946911 133 131 138
1.72773278 0.00724505 1.55362268 137 136 139
1.72981918 0.02888175 1.56196272 144 151 151
1.74318576 0.01007654 1.57649267 134 134 138
1.75653694 0.01399412 1.58757567 137 138 141
1.74053979 0.02901546 1.56919408 147 153 153
1.75599008 0.02438872 1.58609195 140 148 147
1.76683496 0.01489893 1.59184280 135 136 138
1.77117918 0.02514235 1.59397738 143 150 149
1.78418985 0.01296444 1.59611695 136 136 138
1.79258170 0.01636155 1.60485973 136 137 139
1.78479487 0.03331045 1.59777552 142 149 149
1.79144302 0.02702945 1.60342507 135 142 142
1.78627610 0.04245879 1.59880149 138 146 145
1.78983942 0.04308677 1.60258114 140 147 147
1.80968180 0.01655478 1.61019897 137 137 139
1.81209540 0.02951805 1.61173068 132 140 140
1.81314868 0.04462941 1.61403189 138 143 142
1.82250607 0.01873020 1.61788034 131 131 133
1.83326787 0.01739431 1.62369537 134 136 137
1.82530236 0.03131389 1.61788034 135 142 143
1.83074110 0.02777943 1.62369537 127 134 135
1.82250607 0.05228671 1.61788034 143 142 140
1.83330421 0.04629873 1.62608035 145 146 148
1.86200261 0.02473621 1.64536858 126 132 132
