ply
format ascii 1.0
element vertex 827
property float x
property float y
property float z
property uchar red
property uchar green
property uchar blue
end_header
-0.74325430 -0.18270095 1.19032902 168 169 171
-0.74021977 -0.16159412 1.17894232 152 156 154
-0.74293740 -0.17196331 1.18599464 160 163 163
-0.74021977 -0.15955642 1.17894232 157 159 160
-0.74863371 -0.15479630 1.19062896 158 159 160
-0.72825722 -0.18609184 1.18523389 168 171 171
-0.72949771 -0.16687760 1.17664635 159 161 161
-0.73258259 -0.17500106 1.18305934 165 167 167
-0.73455301 -0.15819227 1.17639095 154 155 157
-0.73731741 -0.15718167 1.18409872 156 156 157
-0.71169709 -0.18622215 1.17573676 158 159 160
-0.71701428 -0.18841198 1.18099630 156 159 161
-0.71013746 -0.17411461 1.17087660 161 165 163
-0.69991618 -0.17143518 1.16276479 160 166 164
-0.68475058 0.24644285 1.85419881 162 163 165
-0.68478275 0.24635003 1.86527187 167 167 169
-0.66808569 0.23848030 1.84711671 167 170 171
-0.66891973 0.24763309 1.85263237 156 156 160
-0.67681080 0.24366471 1.86234021 170 172 171
-0.65652642 0.23718773 1.83710527 146 145 151
-0.64946628 0.23778344 1.85273961 150 150 153
-0.64784068 0.23722689 1.86234021 153 153 155
-0.65652642 0.24512595 1.83710527 149 148 153
-0.65135590 0.24540950 1.85123276 153 153 158
-0.65363472 0.24559605 1.86234021 152 153 157
-0.62019175 0.03581337 1.93683386 140 136 137
-0.62038916 0.02928539 1.94796503 142 139 139
-0.62019175 0.04920401 1.93683386 130 128 129
-0.62376121 0.04444165 1.94798118 130 129 129
-0.63318698 0.23539197 1.85567871 163 163 164
-0.62738587 0.23501148 1.86748008 159 160 162
-0.62574691 0.23823541 1.88303292 152 149 149
-0.62636119 0.24988888 1.83710527 160 161 163
-0.63371387 0.24750532 1.85217414 156 157 161
-0.62901261 0.24609625 1.86859437 149 149 152
-0.62574691 0.24474476 1.88303292 147 144 147
-0.60474908 0.03839317 1.89885676 138 134 132
-0.60650587 0.03530896 1.90955448 142 137 136
-0.61588252 0.03564696 1.92860365 139 135 135
-0.61791134 0.03101104 1.95077193 143 139 140
-0.60464376 0.05776170 1.88827813 138 134 134
-0.60811434 0.04731689 1.90597852 129 127 128
-0.61160177 0.04546664 1.92037344 126 125 126
-0.60129392 0.06068734 1.87781680 137 135 135
-0.61905301 0.23691919 1.87262940 156 153 153
-0.61905301 0.24177423 1.87262940 151 146 149
-0.59811628 0.03817928 1.88827813 134 130 125
-0.58190715 0.04984576 1.83710527 131 131 133
-0.58907455 0.05817607 1.84964013 132 130 130
-0.59311932 0.05374936 1.86234021 129 128 128
-0.59970951 0.05109190 1.88303292 129 128 128
-0.58350745 0.06535987 1.82721502 135 130 131
-0.58985627 0.06590080 1.84209740 137 133 134
-0.59633821 0.06340607 1.86234021 138 134 135
-0.56037039 0.03925605 1.78863287 135 133 130
-0.56163573 0.05142891 1.79515164 134 130 131
-0.56743971 0.05312096 1.80820526 136 135 136
-0.56133419 0.05604446 1.83214009 139 135 136
-0.56592697 0.05651170 1.84713048 142 139 139
-0.56677816 0.07337915 1.79653593 131 124 126
-0.56797620 0.06708323 1.80865069 130 124 125
-0.56234835 0.06988812 1.83545021 144 137 138
-0.56592280 0.06288777 1.84711671 141 135 137
-0.57035545 0.09683234 1.79574311 88 86 96
-0.56820751 0.09083733 1.80916808 121 117 124
-0.56792388 0.08827528 1.83298099 136 132 135
-0.56966324 0.09005940 1.85080466 138 137 139
-0.57058698 0.09559511 1.86234021 137 137 139
-0.57113379 0.10665978 1.79574520 126 122 125
-0.56849754 0.10486146 1.80711386 111 110 113
-0.57075280 0.10092387 1.84209740 140 136 140
-0.57298234 0.10217347 1.86490542 138 137 139
-0.55638632 0.05493109 1.79574311 138 133 135
-0.55702541 0.05520192 1.80450646 140 136 137
-0.55875319 0.07345644 1.79336464 141 133 133
-0.55660232 0.06825068 1.81159387 143 136 137
-0.55831629 0.07149155 1.82228994 144 136 137
-0.54858160 0.15725322 1.12048233 146 142 140
-0.54531670 0.17038331 1.11342787 154 154 154
-0.54954994 0.16112655 1.12048233 141 141 141
-0.54435175 0.18445678 1.11709966 157 157 157
-0.54443958 0.18934763 1.12360660 152 153 153
-0.53755812 0.17039387 1.11067301 139 140 141
-0.53569110 0.19335662 1.11648740 150 155 157
-0.53333872 0.18998863 1.12614735 146 147 148
-0.53297162 0.20185646 1.12513741 152 152 154
-0.42180920 0.13668983 1.85216355 162 162 162
-0.42426008 0.19308628 1.15269090 140 137 137
-0.42652626 0.20670502 1.15443314 154 153 152
-0.42798849 0.20844643 1.16110559 158 155 154
-0.40289888 0.13726583 1.81740439 151 149 150
-0.40796383 0.13686200 1.83004274 157 156 157
-0.41040792 0.13167074 1.85125846 159 158 158
-0.41182273 0.13245674 1.86749907 158 157 157
-0.40253979 0.15283288 1.81578461 146 139 141
-0.40774241 0.14619133 1.82688313 152 147 148
-0.41820949 0.14718976 1.84335223 167 164 163
-0.41261151 0.17951801 1.13265848 164 162 159
-0.40886372 0.18563125 1.13297783 154 151 150
-0.41723225 0.19194047 1.14444715 146 143 143
-0.40545405 0.20665934 1.13765945 160 158 156
-0.41430275 0.20979123 1.14668161 160 157 156
-0.39663945 0.13782032 1.82474583 147 143 145
-0.39566109 0.13970055 1.84964013 153 148 149
-0.38796093 0.15740799 1.77305766 162 161 162
-0.39048790 0.15519439 1.79135101 161 159 160
-0.39026830 0.14936823 1.80933479 151 147 152
-0.39296043 0.14422542 1.82597710 145 140 144
-0.39351895 0.14320770 1.84335223 151 146 149
-0.38804018 0.16470066 1.77459204 162 161 161
-0.38775824 0.16777521 1.79099876 167 164 164
-0.39788732 0.18544023 1.12700301 152 151 148
-0.36183561 -0.10678527 0.65496973 154 154 154
-0.36167413 -0.09757329 0.65496810 161 161 163
-0.36248256 0.03859910 0.66791351 157 157 157
-0.36319292 0.04601708 0.66613913 163 163 163
-0.36714526 0.14897499 1.76996464 157 157 157
-0.37254304 0.14775034 1.79219419 154 152 154
-0.37319678 0.14707723 1.80290389 155 153 154
-0.35304983 -0.10912757 0.65398188 160 161 162
-0.35327240 -0.09703814 0.65385005 163 164 165
-0.35831738 0.03916999 0.67251176 159 159 158
-0.35885160 0.04763397 0.66683545 160 162 162
-0.35872790 0.14897797 1.76995254 154 154 154
-0.30133384 0.03889020 0.60761174 159 160 160
-0.30144982 0.05411005 0.59625004 144 144 145
-0.30458697 0.04413084 0.60511370 164 167 166
-0.29895818 0.03950811 0.60634333 161 161 161
-0.29650427 0.05244935 0.59736951 150 151 152
-0.29678471 0.04450186 0.60276060 152 153 154
-0.24521643 -0.44386699 1.18361515 169 170 171
-0.24336459 -0.42916068 1.17618307 174 176 177
-0.24533456 -0.43790385 1.18223436 170 173 175
-0.25152875 -0.20153619 0.46259731 161 162 162
-0.25338301 -0.19379795 0.45989949 160 164 165
-0.24880467 -0.19465575 0.46204539 162 165 165
-0.24236358 -0.16480874 0.48045846 164 167 166
-0.24040764 -0.15906300 0.48043373 171 178 177
-0.22801079 -0.44817751 1.17447219 169 170 171
-0.23619690 -0.44447593 1.18151155 173 174 175
-0.23208808 -0.42964372 1.17462985 170 171 173
-0.23521450 -0.43715058 1.18147248 168 169 170
-0.23608036 -0.41914062 1.16978836 160 159 163
-0.23673232 -0.16544225 0.47969706 163 164 165
-0.23337282 -0.16832833 0.48047567 151 151 150
-0.23847782 -0.15918332 0.47975361 173 178 179
-0.23919992 -0.15874286 0.48009336 174 180 179
-0.21945962 -0.46279776 1.17282331 173 174 174
-0.21459860 -0.44576040 1.17174437 167 169 172
-0.21410768 -0.43748167 1.17389754 170 172 174
-0.20650197 -0.18571883 0.55358787 166 167 168
-0.20315938 -0.17874848 0.55230477 168 168 171
-0.20142430 0.09563635 0.79768041 150 148 148
-0.20506433 0.09623135 0.80292152 151 150 150
-0.20168789 0.10323415 0.79720791 159 158 156
-0.20657331 0.10219054 0.80224274 161 161 160
-0.19818139 -0.18648822 0.55243702 169 170 172
-0.19798253 -0.17855547 0.54934636 171 172 174
-0.19059339 -0.06034155 0.53461504 104 88 103
-0.18724081 -0.05241055 0.53132496 107 104 112
-0.18440883 0.03437870 0.48971936 161 155 152
-0.18342073 0.09551237 0.57735115 154 153 153
-0.19115232 0.08558919 0.77739888 164 164 166
-0.19613809 0.09317399 0.79032974 146 144 146
-0.18423814 0.10192117 0.57501966 149 149 148
-0.19587566 0.10311463 0.79207305 115 114 121
-0.18252317 0.16324029 0.51836553 136 136 135
-0.16113056 -0.44112054 1.25535524 175 175 177
-0.16087064 -0.43065142 1.25333026 169 169 173
-0.17564274 -0.05212666 0.53013827 102 97 106
-0.17751122 0.03418608 0.48890180 155 152 152
-0.17647478 0.09197082 0.57699591 153 153 154
-0.17858890 0.08911052 0.58125827 152 151 153
-0.17110689 0.16877294 0.51764173 149 147 146
-0.16168992 0.23009117 0.59821461 151 152 153
-0.16268751 0.23163589 0.60043561 145 146 148
-0.15362563 -0.44151489 1.24727219 153 153 156
-0.14400393 -0.42761431 1.23735317 173 173 176
-0.15169189 -0.42834433 1.24609911 171 172 175
-0.14239603 -0.41301254 1.23799929 165 165 168
-0.15085031 -0.41618118 1.24903410 167 167 169
-0.14058165 -0.12241816 0.61964518 114 98 110
-0.14083913 -0.12049643 0.62078005 112 90 106
-0.14272366 -0.11438561 0.61964518 120 108 117
-0.14229904 -0.11347022 0.62184535 119 108 116
-0.15208605 0.21742091 0.58676166 161 161 161
-0.15651543 0.22529445 0.59412538 155 155 155
-0.14813900 0.37528300 1.15772577 163 164 166
-0.14585385 0.37403300 1.16376370 165 167 167
-0.14673303 0.38194406 1.15878952 164 164 166
-0.14583779 0.38666018 1.16606950 163 163 164
-0.13433277 -0.42798726 1.23622479 173 173 175
-0.13373409 -0.42355064 1.24736434 169 169 171
-0.13747917 -0.41569215 1.23778411 167 167 170
-0.13341313 -0.41746901 1.24307883 169 169 172
-0.13709557 -0.12228028 0.61679493 114 98 111
-0.13989426 -0.12382873 0.62134910 116 103 107
-0.13426246 -0.11314562 0.61270389 121 109 119
-0.13974796 -0.11419621 0.62069924 119 106 114
-0.12590918 0.36286461 1.13359845 145 145 145
-0.13240530 0.36834472 1.15258724 144 144 145
-0.13418357 0.37513000 1.16388543 151 150 151
-0.13221187 0.38613465 1.15437305 152 152 152
-0.13581544 0.38464896 1.16634423 153 153 154
-0.12935778 0.38380843 1.18305731 148 144 145
-0.10324134 0.13505178 0.66562286 147 143 143
-0.10001289 0.12024258 0.71207124 146 146 148
-0.10411738 0.14066933 0.66738135 143 142 142
-0.10542351 0.15161923 0.96652339 145 141 145
-0.10431590 0.16656681 0.97062426 142 136 141
-0.10021432 0.21549653 0.55610636 152 156 157
-0.10152071 0.21874124 0.56155785 146 147 148
-0.10167446 0.22384360 0.56538512 148 148 148
-0.08873755 -0.42620161 1.31885576 159 158 162
-0.08591021 -0.42507047 1.32589604 161 161 162
-0.08759193 -0.41872343 1.32452571 161 159 160
-0.08027903 -0.04324894 1.53485123 169 154 163
-0.08027903 -0.03528634 1.53485123 167 164 171
-0.08324594 -0.03409052 1.54066324 171 169 173
-0.08997230 0.11671957 0.71125719 154 151 151
-0.09720342 0.13585030 0.66821978 153 151 152
-0.09172501 0.12414853 0.71280478 157 155 157
-0.09780127 0.14199361 0.66952887 137 136 137
-0.09430571 0.15003841 0.95375973 152 148 149
-0.08555480 0.15555788 0.96567013 162 162 162
-0.09986841 0.16025354 0.95882863 150 150 151
-0.09827245 0.16445080 0.96594044 156 152 153
-0.08287657 0.17661910 1.13463875 167 166 166
-0.08794152 0.18691092 1.13849478 160 160 162
-0.08485188 0.19064832 1.14541397 161 161 165
-0.09811866 0.21417831 0.55710748 152 154 153
-0.09834436 0.21864383 0.56190089 147 148 148
-0.09629048 0.23050824 0.56620967 148 148 148
-0.09830770 0.24105740 0.56917952 153 153 152
-0.08307539 0.25842182 0.78885951 155 154 154
-0.08121890 0.27549733 0.77067618 153 152 151
-0.08299176 0.26646079 0.78609676 157 156 156
-0.06692121 -0.42458326 1.31642833 156 154 155
-0.07337912 -0.42904599 1.32660530 155 152 154
-0.06694703 -0.41253886 1.31303049 165 164 165
-0.06827125 -0.41216333 1.32540892 164 163 164
-0.07589036 -0.04353419 1.53325924 174 148 163
-0.06935624 -0.03409867 1.53446656 169 165 170
-0.06611371 -0.02617092 1.54505813 160 156 164
-0.06431323 -0.01670565 1.53369200 149 142 152
-0.06203671 -0.01680707 1.54300292 149 144 153
-0.06003835 0.10480005 0.59621096 158 149 152
-0.07208183 0.17530602 1.13708756 165 165 165
-0.07105626 0.17640592 1.14423512 165 165 165
-0.07914990 0.18026988 1.13740242 167 167 167
-0.07205303 0.18869171 1.15278573 162 163 165
-0.06885616 0.19460846 1.16276728 159 159 162
-0.06576500 0.20888773 1.17212746 152 148 148
-0.06973315 0.21748549 1.18246949 148 143 144
-0.06166353 0.22658893 1.17894232 153 150 151
-0.06926099 0.22700628 1.18643341 146 146 147
-0.06520737 0.25002456 0.60488623 145 145 146
-0.06029109 0.26291062 0.60917680 17 17 17
-0.07153785 0.27369398 0.75618809 148 148 147
-0.07685521 0.27416563 0.76591240 150 149 149
-0.07912473 0.27056870 0.78128509 163 163 163
-0.07801718 0.28001603 0.76167625 134 135 137
-0.05764707 -0.44316198 1.33794558 172 171 173
-0.05396983 -0.44153115 1.34236014 165 166 170
-0.05517165 -0.42890793 1.33052655 164 163 164
-0.05784089 -0.41223045 1.31821552 172 172 175
-0.05308153 -0.41232181 1.32912986 169 169 172
-0.04122752 -0.10594857 0.63871835 149 144 155
-0.04134907 -0.11001426 0.64204674 146 134 146
-0.04000623 -0.09962817 0.63831621 149 146 157
-0.05400911 -0.04536506 1.53473843 176 164 172
-0.05262246 -0.04074780 1.54066324 174 165 168
-0.05775072 -0.03397399 1.53543085 165 163 166
-0.05458464 -0.02929558 1.54595253 160 157 161
-0.05334996 -0.02241305 1.56196272 165 164 168
-0.05648844 -0.01674354 1.53716969 167 166 173
-0.05576419 -0.01591692 1.55094447 161 160 164
-0.05332380 -0.01058188 1.56921089 159 159 161
-0.05403480 -0.00629287 1.58201343 160 158 159
-0.04191106 0.03735487 0.55779574 159 158 161
-0.04169110 0.03165230 0.56212950 156 153 154
-0.04130697 0.04227065 0.55242138 161 160 162
-0.04845012 0.10922062 0.59504872 148 145 148
-0.05521658 0.19601632 1.16476492 150 149 149
-0.05434652 0.21199931 1.17244853 146 141 143
-0.05564719 0.21473614 1.18099630 145 137 140
-0.05402760 0.22437312 1.17304802 152 147 147
-0.05727413 0.25354884 0.60962952 153 152 151
-0.05772090 0.26374947 0.61258187 27 27 27
-0.03342036 -0.10526459 0.63408864 150 102 124
-0.03908698 -0.11118442 0.64133573 148 99 125
-0.03338810 -0.10456830 1.37596704 159 153 168
-0.02517461 -0.10561587 1.39055800 155 152 164
-0.02410742 -0.09914645 0.61859559 152 90 112
-0.03179727 -0.09866523 0.63445374 146 109 130
-0.03116714 -0.09703533 0.64184586 149 122 139
-0.02537947 -0.09912356 1.39699611 157 156 166
-0.02433349 -0.09364231 1.41246753 157 156 165
-0.02231400 -0.08742522 1.42474213 156 154 164
-0.02037800 -0.07721248 1.42714071 158 157 167
-0.03911951 0.03726485 0.55807790 153 152 155
-0.03729604 0.03470985 0.56204033 150 148 149
-0.03565011 0.04583959 0.53907941 157 157 159
-0.03807019 0.04376253 0.54700414 153 152 155
-0.03390405 0.30262185 0.77824265 153 153 151
-0.02574230 0.30308232 0.78143281 160 160 158
-0.01824467 -0.10360110 1.38960775 152 151 162
-0.00815182 -0.08128553 0.65245076 157 96 121
-0.01798910 -0.09764402 1.39484153 157 156 166
-0.01587852 -0.09219634 1.41119653 159 158 167
-0.01062754 -0.08729676 1.43087284 159 157 168
-0.00451108 -0.08363056 1.44512718 165 156 170
-0.00795423 -0.07435192 0.65294655 155 101 124
-0.00949221 -0.06493748 0.66184549 150 140 151
-0.01284944 -0.07525809 1.43362267 182 155 171
-0.00573931 -0.06990174 1.44889900 187 139 161
-0.01167729 0.14988648 0.65846720 159 154 154
-0.00897322 0.15656067 0.66493579 150 146 145
-0.00649640 0.16158922 0.66339475 153 153 155
-0.00816033 0.29615283 0.77653897 145 145 145
-0.00574548 0.29352435 0.78008264 168 168 164
-0.00986832 0.30195383 0.77801736 154 154 154
0.01629767 -0.42648956 1.98963789 162 159 160
0.01266077 -0.40061325 1.95922494 164 165 167
0.01645352 -0.40863274 1.97114719 165 165 167
0.01623482 -0.41900268 1.98213995 164 162 162
0.01491834 -0.39158297 1.95922494 163 162 164
0.01779758 -0.39342878 1.96561784 163 163 164
0.01910224 -0.36049822 1.92582905 168 168 170
0.01937749 -0.37919915 1.95357883 158 153 156
0.01580411 -0.15098854 0.58314645 165 164 166
0.00183775 -0.08035586 1.43926084 193 156 177
0.00881942 -0.07133152 1.43577266 180 143 166
0.00909900 -0.06424630 1.44467054 145 98 126
0.00930069 -0.05249422 1.43926084 157 152 154
0.01251173 -0.05549497 1.44638479 148 137 143
0.00133868 0.15815969 0.66385810 157 155 156
0.00216944 0.16191444 0.66255442 146 145 147
0.01907456 0.19219025 0.68719711 156 154 154
0.01795049 0.20836616 0.66623298 159 154 150
0.00099492 0.29992077 0.77918601 155 154 154
0.00157485 0.29733077 0.78046781 149 149 149
0.00167022 0.30094007 0.78008264 156 154 154
0.02870134 -0.42334295 1.99800059 156 154 158
0.03093205 -0.40542429 1.97301245 166 166 169
0.03068539 -0.41437392 1.98621223 145 144 153
0.03375073 -0.38813885 1.95499843 165 165 169
0.02713122 -0.39469909 1.96490383 162 162 164
0.03743281 -0.36310728 1.89885676 158 158 161
0.03462071 -0.36735709 1.90956205 161 161 164
0.03204960 -0.37269305 1.92859195 159 159 161
0.02438734 -0.37333231 1.94937252 153 151 154
0.03630021 -0.34497511 1.86876741 156 155 162
0.03260966 -0.35359677 1.88894844 153 152 158
0.02660893 -0.35821605 1.90777659 148 147 153
0.03717317 -0.32079354 1.83214009 153 152 154
0.03673037 -0.32946241 1.84965390 150 150 153
0.03778592 -0.33895695 1.86234021 153 152 161
0.03700654 -0.31199494 1.82392720 154 153 157
0.02085372 -0.15113635 0.58177080 168 168 171
0.02206688 -0.06136672 1.46097374 135 107 120
0.02785831 -0.05192251 1.45574633 169 160 159
0.02530787 -0.05683300 1.46611680 145 135 139
0.03589074 0.01564878 0.63607317 160 158 160
0.03404160 0.00963262 0.64072955 159 153 153
0.03701604 0.02590056 0.63381159 159 156 159
0.02464235 0.19734004 0.67168116 159 157 157
0.02160560 0.19193991 0.68367771 157 157 157
0.02524174 0.20512459 0.66591563 152 150 150
0.04045316 -0.42146739 1.99379957 170 170 172
0.04009935 -0.41094914 1.97636104 175 174 178
0.04021659 -0.41557670 1.98213995 176 176 179
0.04163399 -0.36540401 1.89091539 173 174 178
0.04204438 -0.37395433 1.90955448 178 178 181
0.04514889 -0.34183756 1.83462268 157 157 157
0.04397400 -0.34670512 1.85219109 158 157 159
0.04123137 -0.35053971 1.87262940 151 150 154
0.05202249 -0.33348462 1.79812157 161 160 160
0.04714333 -0.32827235 1.81292880 159 158 160
0.04223028 -0.33120684 1.82844631 153 153 156
0.04055912 -0.33845657 1.84209740 159 158 163
0.05202249 -0.31328321 1.79812157 163 162 162
0.04598869 -0.31166620 1.81204987 164 162 163
0.04015004 -0.30982845 1.82351789 163 162 165
0.05170639 -0.20445903 0.62696851 164 163 164
0.05306139 -0.19694233 0.62702477 163 163 164
0.05845349 -0.15563007 0.45136436 163 162 165
0.04355625 0.01714557 0.63182856 161 160 163
0.04216366 0.03015492 0.63123318 158 157 161
0.06147522 -0.20142603 0.62842820 165 165 166
0.06123062 -0.19884669 0.62909766 158 159 161
0.06421960 -0.15344949 0.45103693 160 160 162
0.06552397 0.03155611 0.47268522 159 156 157
0.06279731 0.04207022 0.47130013 158 155 157
0.07962531 0.17941040 0.51336005 152 153 154
0.07646722 0.32775576 1.02412784 161 157 155
0.09619406 -0.17305168 0.56469659 155 155 157
0.09105861 -0.09233632 0.45040365 160 159 163
0.09628015 0.07477557 0.48977264 158 156 156
0.09612598 0.08211050 0.49078683 160 159 161
0.09748641 0.13883392 0.45215441 161 156 156
0.09766233 0.14253136 0.45342785 159 149 148
0.08257165 0.17858963 0.51090216 155 155 157
0.08863468 0.18374624 0.51328855 149 149 151
0.09236533 0.32726422 1.01908007 136 134 137
0.08705454 0.33135923 1.02416162 151 151 153
0.09170444 0.34878368 1.03029709 156 153 153
0.10327315 -0.18025310 0.55977857 162 163 163
0.11168690 -0.18055141 0.56070495 140 135 137
0.11100075 -0.17826659 0.55913269 144 143 145
0.10774624 -0.17512215 0.56235460 152 151 153
0.10161766 0.07407234 0.48966530 158 153 152
0.10149035 0.08150783 0.48936469 153 151 154
0.10396688 0.13796056 0.45353659 157 155 155
0.10631092 0.14355693 0.45512143 157 154 153
0.15804815 -0.26855978 0.58932571 163 163 165
0.16354419 -0.28098094 0.59049815 171 172 177
0.16145440 -0.27040689 0.58931378 162 163 164
0.16975543 -0.16678614 0.48270063 161 160 161
0.17250453 -0.15872157 0.48353733 146 142 145
0.17313444 -0.04334236 0.48899420 163 161 161
0.17091866 -0.03587421 0.49071635 160 158 159
0.17487871 0.14657925 0.55903022 154 154 155
0.17804066 0.15142247 0.56160730 148 148 150
0.17079350 0.19419190 0.67535725 155 153 153
0.16372499 0.19407542 0.68161975 154 153 156
0.17150101 0.20554172 0.67482449 156 156 156
0.16314640 0.20494537 0.68198421 159 158 159
0.16210303 0.39907938 0.97961247 148 148 148
0.16358311 0.39490494 0.99758637 146 145 145
0.17027293 0.39585690 1.01360191 143 144 147
0.17472752 0.39444212 1.02524745 140 140 141
0.16475828 0.40229942 0.99739922 150 148 145
0.17399370 0.40635255 1.01595134 157 157 158
0.17952618 0.40708513 1.02092147 168 172 173
0.17606637 0.41273713 1.61403736 161 161 161
0.17172407 0.41290819 1.62850078 166 166 166
0.16745278 0.41393135 1.64937186 161 161 162
0.18051386 -0.04199469 0.48786812 163 162 162
0.19274638 0.05578698 0.50508272 165 164 167
0.19043943 0.06101045 0.50623434 156 155 159
0.19124605 0.13811976 0.52764577 150 150 153
0.19245415 0.14549164 0.52682875 150 149 151
0.18626433 0.15220491 0.56443791 148 147 148
0.18176808 0.16025627 0.56467938 143 143 144
0.19346274 0.19113679 0.65942788 161 161 161
0.18901312 0.19253974 0.66689177 157 157 157
0.19453947 0.20588742 0.65921426 157 156 157
0.18971421 0.20936462 0.66764475 154 153 153
0.18359175 0.39927533 1.01900354 150 150 150
0.18450983 0.39725715 1.02863714 142 140 139
0.18489200 0.39722829 1.04323490 143 143 141
0.18311313 0.40422140 1.01893602 154 156 158
0.18300155 0.41499608 1.61467938 159 160 161
0.18797354 0.41600676 1.62955713 156 156 157
0.19453543 0.41820759 1.64937186 156 155 156
0.19907445 0.42304176 1.56196272 160 158 158
0.19717261 0.43206838 1.59019665 157 154 154
0.18339252 0.42040485 1.61402822 170 170 173
0.19322524 0.42653802 1.63113344 159 158 163
0.19533767 0.42724461 1.64712976 155 156 158
0.19824280 0.44130936 1.59880149 154 153 153
0.19732649 0.44373761 1.60258114 153 151 151
0.21917231 -0.02185448 0.51422316 160 158 163
0.21827148 -0.01617832 0.51231131 153 151 153
0.20275645 0.14955936 0.53118488 146 146 150
0.20124554 0.21201700 0.65878764 146 146 146
0.20125845 0.21464085 0.66311853 146 147 148
0.20364438 0.41943890 1.66558194 142 142 144
0.20046011 0.42598636 1.57283485 158 157 157
0.20189471 0.43740547 1.59130124 153 152 152
0.20080610 0.43003334 1.60830468 152 152 154
0.20546408 0.42869239 1.65284973 151 151 152
0.20363976 0.42327299 1.66560209 151 151 152
0.20238789 0.44269106 1.59880149 153 152 152
0.20172011 0.44703822 1.60447997 147 147 146
0.23838250 -0.22404772 0.47955980 168 169 171
0.23473550 -0.22455254 0.48206765 167 169 171
0.23633025 -0.21966418 0.47964051 166 168 170
0.23381415 -0.21886959 0.48093068 165 166 169
0.22745017 -0.02298410 0.51787355 151 149 153
0.23442648 -0.02294597 0.52057471 158 158 163
0.22764721 -0.01717480 0.51776726 160 160 161
0.23433594 -0.01346512 0.52120342 161 160 162
0.24025577 -0.22330929 0.47975361 157 157 160
0.24282760 -0.22413434 0.48050684 164 165 167
0.24028661 -0.01288343 0.52118806 165 165 165
0.25801710 0.15803866 0.89209133 158 157 160
0.25792956 0.15396075 0.91179854 148 144 146
0.25728187 0.16647076 0.89047661 154 153 153
0.25468789 0.25437198 0.81378103 145 139 139
0.25680727 0.26515485 0.81755187 147 141 141
0.25724721 0.27545601 0.82135550 154 153 152
0.27907184 0.09993545 0.60418171 146 145 145
0.27211882 0.11123302 0.59578638 158 156 154
0.27326732 0.10314416 0.60275998 161 160 160
0.27267818 0.12038909 0.59516436 155 153 153
0.26152539 0.15266721 0.89347697 161 161 162
0.26152958 0.15304845 0.90550957 152 145 147
0.26102147 0.16938802 0.89045949 144 142 142
0.26252859 0.25585617 0.81354457 147 143 142
0.26342393 0.27161283 0.81743946 143 139 136
0.26591152 0.27153128 0.82122286 149 148 144
0.29248567 -0.27008067 0.85645553 151 150 150
0.29253185 -0.27998716 0.86026883 143 143 147
0.29380006 -0.25864451 0.85223583 152 152 149
0.28065689 0.10602123 0.59552945 155 151 152
0.30647377 -0.26619717 0.85784160 147 147 149
0.30478045 -0.26872505 0.86070644 143 143 144
0.30796396 -0.25820115 0.85575549 157 157 158
0.35385434 -0.30967074 0.54967044 165 167 167
0.35331035 -0.29952333 0.54657756 169 171 173
0.35217068 0.08527964 0.59846710 148 147 149
0.35622296 0.09263474 0.60412401 150 150 152
0.35604372 0.09014679 1.21518654 147 146 155
0.35325681 0.09386533 1.22242890 157 156 162
0.35566575 0.10198089 1.21660480 151 148 150
0.35416783 0.10264454 1.22451656 157 154 155
0.36070853 -0.31541044 0.55247909 163 164 166
0.37575176 -0.28912626 0.68625021 166 169 172
0.37427370 -0.27966723 0.68473923 169 168 166
0.37097727 -0.18877747 0.85360312 163 162 165
0.37725361 -0.00594349 0.56467546 154 155 159
0.37749266 0.00419557 0.56566110 161 161 164
0.36646244 0.08981649 0.59937388 160 162 164
0.36434390 0.09241070 0.60394436 156 157 158
0.36555172 0.09037788 1.21891723 148 146 155
0.37371182 0.09200953 1.22305737 157 157 158
0.36579800 0.10358297 1.21813548 156 154 157
0.36626909 0.10257236 1.22221415 153 151 153
0.37012890 0.16625893 0.45012739 151 155 155
0.37536030 0.21563852 0.84858762 153 150 149
0.37482410 0.22381334 0.84505411 151 150 152
0.38538058 -0.28851209 0.68476878 163 165 168
0.38380891 -0.27848511 0.68342205 171 171 172
0.38037553 -0.18200305 0.85055441 171 172 176
0.38313193 -0.00395910 0.56611922 159 160 162
0.38536472 0.00519630 0.56585444 149 148 151
0.39184679 0.17870581 0.63184915 140 140 137
0.39304181 0.18195571 0.63111004 139 142 142
0.38565174 0.21678942 0.85095180 149 146 146
0.38341345 0.22239206 0.84572814 151 152 153
0.40323125 0.17876469 0.63737407 160 156 156
0.40452311 0.18486801 0.63634635 150 151 153
0.45275006 -0.12082916 0.47272872 159 161 164
0.45556425 -0.11750090 0.47279312 164 168 172
0.45749711 0.33454543 0.89221227 149 148 152
0.46148596 -0.11458707 0.47260086 160 167 169
0.46988366 0.33356515 0.89438200 140 141 143
0.47247410 0.33919299 0.90145352 140 141 145
0.49686995 -0.02243838 0.49782089 159 164 167
0.49537769 -0.02114781 0.50119422 160 163 165
0.49786835 -0.01861238 0.49771835 152 159 160
0.49123403 0.09929836 0.57914737 154 155 156
0.49790591 0.09718462 0.58380999 158 160 161
0.49144387 0.10084272 0.57939476 154 158 160
0.49794852 0.10623551 0.58341000 139 139 141
0.48046432 0.33220643 0.89313969 135 135 135
0.50239764 -0.02257497 0.49781038 151 153 157
0.50201844 -0.01900571 0.49863435 159 165 167
0.51601785 0.00240550 1.99379957 160 159 161
0.50620723 0.09595931 0.58481547 150 150 150
0.50392308 0.10569633 0.58430635 134 134 136
0.53536639 -0.22763189 0.74835070 161 162 166
0.53711816 -0.21797693 0.74650570 161 162 164
0.53931554 0.03616693 0.53479635 123 125 128
0.53796245 0.17508070 0.88488447 152 152 153
0.53757328 0.18129604 0.87923717 155 153 153
0.53674978 0.18061849 0.88037902 156 155 155
0.54033953 -0.22169288 0.74657691 151 154 155
0.55217639 0.01126923 0.65035391 155 155 157
0.54685994 0.03615239 0.53611085 146 151 153
0.54658450 0.04119615 0.53805227 143 147 153
0.54635096 0.17207207 0.88788444 157 158 160
0.54598325 0.18015057 0.87809825 152 150 150
0.54430509 0.18085367 0.88152534 153 152 151
0.55116923 0.40543065 1.79596162 160 157 157
0.55101933 0.41301579 1.80483212 159 158 158
0.55861145 0.43572250 1.79812157 154 147 144
0.55396151 0.43407952 1.80979598 138 132 136
0.54869428 0.43645661 1.82720837 127 122 130
0.54829174 0.43961358 1.84711671 156 155 162
0.55797809 0.44919117 1.79608289 154 149 149
0.55135756 0.44872226 1.80813694 152 148 149
0.54605876 0.44277388 1.82721506 142 138 142
0.54722734 0.44493678 1.84712589 154 153 160
0.55356682 0.46342056 1.80986267 158 158 157
0.57938847 -0.20690351 0.65307631 165 168 168
0.57702244 -0.18576106 0.65156375 165 167 169
0.56087652 0.01246517 0.65370557 148 148 149
0.57999784 0.25565228 1.03653193 157 162 168
0.56726426 0.41030260 1.80899714 161 160 160
0.57682855 0.41165703 1.82228994 163 161 161
0.57318305 0.43072160 1.80978308 158 154 152
0.57068461 0.45011750 1.80771628 157 153 152
0.58522432 -0.20457145 0.65353719 162 164 164
0.59902555 -0.21378824 0.82569045 165 168 170
0.58523736 -0.19317166 0.65481856 160 164 165
0.59722342 -0.04342193 0.85517827 161 163 167
0.59631109 -0.02801897 0.85444618 157 158 160
0.59628689 -0.01955008 0.85032225 165 167 168
0.59824926 0.13946706 0.66853237 136 141 143
0.59412431 0.23892263 1.04828858 137 138 140
0.58631836 0.25656179 1.03804249 154 156 162
0.59427795 0.24984173 1.04619380 143 143 145
0.58864718 0.26337375 1.03914999 158 159 159
0.59118016 0.26641024 1.04401764 147 145 145
0.58916918 0.39789478 1.79337303 161 161 162
0.58349955 0.41730925 1.77924371 149 146 146
0.58951447 0.41248898 1.79548442 157 153 155
0.59110807 0.41215239 1.80848699 159 156 156
0.58625769 0.41210035 1.82721153 162 161 160
0.59034715 0.40699299 1.84881735 164 164 164
0.59468064 0.40895233 1.86747062 163 164 164
0.58319405 0.42754187 1.77831216 155 154 155
0.58813373 0.42686057 1.79287974 156 155 156
0.58523787 0.43089482 1.81048833 157 155 154
0.58533432 0.42674580 1.82622468 161 160 159
0.58392047 0.44492948 1.79676245 162 163 165
0.58403505 0.44504623 1.81075187 159 154 154
0.58528616 0.44467457 1.82639643 159 150 149
0.61476144 -0.22156346 0.83646968 164 167 170
0.61168092 -0.20019451 0.81969994 161 161 163
0.61072732 -0.21079776 0.83048809 160 164 167
0.61094218 -0.19783011 0.81870997 165 167 170
0.60758803 -0.19831144 0.82118990 158 165 168
0.60062745 -0.04115564 0.85646510 174 177 178
0.60293539 -0.02737344 0.85324663 164 166 168
0.61153644 0.13788464 0.66621378 139 142 147
0.61181365 0.14784427 0.65878755 132 136 139
0.60914147 0.14382341 0.66663138 144 147 150
0.60171500 0.23923735 1.05099511 153 152 152
0.60560218 0.25179116 1.04888780 151 151 152
0.60150783 0.26354647 1.04472519 148 147 146
0.60149151 0.41470797 1.81497473 166 166 165
0.60119679 0.44247941 1.81095111 162 162 163
0.62095228 0.25313124 1.05590886 162 165 165
0.65543643 0.23193335 0.81247378 138 137 138
0.66498309 0.21996644 0.80701411 128 128 128
0.66849063 0.22655495 0.81426431 134 134 132
0.66348749 0.22582243 0.82069230 137 135 133
0.69789525 -0.14324096 0.84797309 157 158 160
0.69882333 -0.13940515 0.84630692 156 157 159
0.68140041 0.22861310 0.81618010 133 133 134
0.71478030 -0.44737040 0.98609438 162 165 166
0.71669695 -0.16194030 0.85718829 168 169 172
0.71716250 -0.16255607 0.86202114 167 169 173
0.71249766 -0.14923854 0.85424183 162 164 167
0.71503989 -0.15327729 0.86054210 167 172 172
0.70895121 -0.13952408 0.84852014 155 159 163
0.70641789 0.60946465 1.89885676 148 152 157
0.71687593 0.61342144 1.90776650 146 147 154
0.71645224 0.61479318 1.92582905 142 142 150
0.73019792 -0.44831014 0.99171566 164 167 170
0.72132923 -0.14765513 0.85449216 167 169 173
0.73759711 0.55695230 1.89885676 149 145 146
0.73966897 0.61117661 1.90419054 134 134 134
0.72546683 0.61759647 1.92767878 140 141 146
0.72865364 0.61760753 1.95278609 147 148 152
0.73288903 0.62243745 1.93407482 142 142 147
0.73859027 0.62364733 1.95359498 138 139 141
0.73947942 0.62047487 1.96490383 138 139 141
0.75398899 -0.44649382 0.97784906 163 165 167
0.75097114 -0.45170248 0.98888006 161 164 167
0.75812975 0.22878951 0.86686939 132 132 136
0.74445516 0.56253144 1.91225159 147 146 146
0.75011975 0.57149943 1.93024031 141 141 142
0.74825009 0.57753049 1.94797579 134 134 136
0.75140458 0.58546048 1.95289326 139 139 140
0.75052738 0.59217603 1.96617317 133 130 131
0.74308136 0.61812180 1.92582905 136 136 136
0.75596717 0.61190885 1.95922494 124 124 124
0.75344832 0.60980186 1.96947876 127 126 130
0.74230605 0.62165391 1.93683386 134 134 135
0.74525375 0.62285875 1.94959205 130 130 132
0.75119627 0.62343769 1.97189993 129 130 132
0.74939203 0.62420467 1.98213995 135 136 141
0.77539569 0.21675363 0.86827719 145 144 145
0.77252297 0.22639817 0.86991520 133 136 138
0.76121926 0.57643366 1.94238353 146 146 146
0.76450670 0.58398309 1.95077193 141 141 142
0.76206535 0.60865438 1.97061586 138 137 139
0.78148061 0.21702401 0.87076771 154 154 154
0.78437739 0.22460165 0.87235178 140 140 142
0.85698020 0.29652452 1.22806489 141 143 146
0.85104864 0.30640294 1.20944707 133 134 135
0.86763541 0.29716148 1.23365723 143 146 147
0.87927318 0.29978305 1.24156010 137 140 141
0.86345893 0.31019633 1.21922994 138 139 139
0.87403582 0.30923363 1.23158064 135 136 137
0.87927318 0.30192900 1.24156010 142 143 145
0.88837582 0.29173794 1.23929036 152 157 158
0.89117913 0.29200663 1.24819165 147 149 152
0.88484434 0.31219287 1.23759566 131 132 132
0.89080556 0.30619810 1.24718942 138 140 142
0.90206026 0.29261033 1.25261450 147 150 153
0.90413479 0.30670025 1.25582222 138 140 143
0.90759277 0.30968541 1.26002204 136 135 142
0.97977853 0.29903221 1.02555501 147 148 150
0.97790958 0.31218807 1.02607453 139 144 145
0.98161560 0.29825850 1.01887600 146 148 148
0.98661191 0.29803120 1.02713209 150 153 154
0.98445666 0.31485280 1.01938617 136 142 142
0.98941263 0.31078611 1.02702435 141 147 147
1.00075340 0.29731280 1.03811920 151 152 156
1.00787070 0.31419759 1.03406899 144 146 148
1.01102722 0.30812520 1.04130852 143 143 145
1.02025890 0.31753641 1.03971136 157 160 160
1.02165443 0.31658823 1.04251128 155 156 157
1.03845358 0.41876277 1.39483917 151 151 151
1.03130937 0.42557421 1.34769750 152 152 152
1.03782772 0.42607969 1.39224180 152 151 151
1.03790307 0.42533484 1.40060294 148 148 148
1.04870271 0.41813393 1.36971152 143 142 144
1.05090256 0.41782295 1.39139880 153 153 154
1.05340942 0.41533221 1.40821971 136 135 137
1.05762807 0.41591670 1.42639747 128 127 127
1.05101545 0.42451900 1.37227099 146 145 146
1.04856824 0.42876846 1.38903554 149 149 149
1.04561167 0.42879414 1.40473828 151 151 151
1.05534649 0.42099577 1.42414669 145 145 144
1.05642015 0.44091465 1.39627713 151 151 151
1.05524468 0.44271071 1.40678620 157 157 158
1.05681890 0.44508661 1.42115688 156 157 157
1.06389296 0.41841882 1.37782896 143 143 145
1.06720825 0.41593786 1.39174581 141 141 143
1.06995289 0.41438147 1.40481489 140 140 142
1.06431830 0.41623109 1.42753129 130 127 129
1.06270224 0.42675397 1.37782896 143 144 144
1.06497443 0.43318259 1.38440351 147 147 147
1.06003535 0.42106032 1.42714071 135 135 134
1.06022779 0.44176467 1.39388446 148 150 150
1.06073606 0.44538108 1.41818380 155 155 155
1.06138417 0.44957264 1.42564791 152 153 154
1.08147800 0.41444112 1.40060294 145 145 146
1.21805871 0.27876267 1.08462691 156 157 157
1.21676147 0.28221220 1.08347185 154 157 158
1.23149334 0.27303843 1.09128782 145 146 148
1.23822014 0.26534020 1.10286353 155 159 160
1.23183594 0.28509144 1.09013835 149 152 155
1.25156900 0.11590934 1.31629854 156 157 160
1.25584774 0.11144353 1.33318502 159 161 162
1.25729679 0.11222247 1.34369315 159 163 163
1.25004384 0.12312804 1.31439644 155 155 157
1.25425777 0.12153474 1.32923648 157 159 161
1.25775071 0.12157384 1.34324793 155 157 159
1.24658776 0.27549558 1.09060610 140 140 142
1.24749746 0.26345649 1.10755301 152 159 160
1.24954601 0.28644708 1.09084206 143 144 147
1.26226711 0.09961120 1.31885576 158 159 162
1.27018362 0.09895815 1.33315784 160 162 164
1.27021716 0.09826525 1.34605443 154 158 159
1.26498813 0.10536496 1.33300405 156 158 160
1.26741392 0.10194814 1.34540856 153 157 160
1.26315689 0.12130705 1.33181107 158 160 163
1.26256702 0.27507349 1.09231753 148 151 152
1.26413500 0.26280135 1.12048233 151 160 162
1.26178929 0.28492041 1.09205344 130 131 133
1.65328062 -0.18150218 1.89885676 168 168 170
1.64896572 -0.17722729 1.88827813 165 166 169
1.64939284 -0.17922421 1.90955448 152 155 156
1.65405214 -0.14332232 1.91494870 160 161 161
1.66092694 -0.18273672 1.87781680 158 158 158
1.67064834 -0.18174641 1.89004612 162 162 163
1.66703588 -0.18023965 1.92037344 156 158 161
1.67246132 -0.17555328 1.89224875 167 170 171
1.66809571 -0.17702387 1.90955448 163 166 168
1.67533386 -0.17360123 1.92037344 169 170 172
1.67774916 -0.17894818 1.94238353 159 160 162
1.66974708 -0.14726513 1.93408266 159 160 161
1.67375433 -0.14663720 1.94424403 162 163 164
1.68281889 -0.16673309 1.89885676 153 159 160
1.69120000 -0.16932565 1.90956457 154 158 160
1.69210783 -0.16922141 1.92720851 152 154 155
1.69250880 -0.16991689 1.95291810 153 155 157
1.69293098 -0.16549075 1.96872290 152 152 154
1.69303948 -0.15634581 1.91225159 151 151 154
1.69376794 -0.15790235 1.93134705 156 157 159
1.68840220 -0.15513574 1.95142464 150 152 154
1.69191694 -0.15600380 1.97061586 148 148 150
1.70706330 -0.16540241 1.93032959 145 147 149
1.70519100 -0.16599614 1.95192053 151 155 155
1.70738983 -0.16743823 1.96490383 140 145 146
1.70181119 -0.16548102 1.98213995 149 148 150
1.70490873 -0.15789980 1.93131578 151 151 154
1.70276636 -0.15926231 1.94798118 159 161 162
1.81475803 -0.34233149 1.64636940 156 156 162
1.81771576 -0.33475814 1.64937675 162 164 166
1.82678363 -0.34446909 1.64977610 137 136 144
1.83024139 -0.33026204 1.65256938 156 158 160
1.83175623 -0.28942486 1.63151733 158 162 164
1.83118875 -0.29221112 1.64937577 157 164 166
1.84372652 -0.34153214 1.64937186 154 154 155
1.85896790 -0.34344932 1.66558194 155 155 156
1.84848717 -0.32917830 1.65619344 148 149 152
1.85782883 -0.32812680 1.66456136 153 153 157
1.84966592 -0.31113978 1.65575455 156 160 163
1.85643452 -0.31115319 1.66441842 156 161 164
1.84482776 -0.29009576 1.64982315 156 161 163
1.85359840 -0.28933419 1.66231608 157 163 165
1.85003108 -0.27847432 1.64737022 150 158 159
1.87046003 -0.34991924 1.67587858 136 136 140
1.86354661 -0.32697976 1.66968429 154 154 159
1.86295664 -0.30908342 1.67174566 149 158 159
1.86066067 -0.28657696 1.66968429 160 164 166
2.07161549 -0.44716729 1.89809903 146 146 146
2.07538876 -0.45238476 1.91005312 151 151 151
2.09166012 -0.46409057 1.92474415 155 156 156
2.08529106 -0.45513775 1.91090682 148 147 147
2.08236901 -0.45428711 1.92128271 150 150 150
2.10790354 -0.46684889 1.93201338 158 159 159
2.11962438 -0.47712061 1.95357883 161 165 167
2.11509183 -0.45486373 1.92271156 143 142 142
2.12883000 -0.48172802 1.95583727 151 153 155
2.13870454 -0.48667890 1.96490383 151 152 154
2.12869722 -0.46199873 1.93269530 149 147 145
2.12779880 -0.47346417 1.94685519 155 156 157
2.13158512 -0.45294505 1.93683386 156 156 158
2.14738401 -0.48762206 1.96871185 153 153 155
2.14681584 -0.47240423 1.95199796 150 149 149
2.15738344 -0.47988653 1.96490383 148 148 149
2.16654694 -0.48951666 1.97636104 147 147 148
2.17459488 -0.49266098 1.98213995 159 158 160
2.18738651 -0.50245124 1.99379957 140 144 145
2.19098854 -0.49450191 1.99185057 155 154 155
2.20075154 -0.50911784 1.99968100 161 163 165
2.20075154 -0.49874896 1.99968100 152 151 152
