ply
format ascii 1.0
element vertex 689
property float x
property float y
property float z
property uchar red
property uchar green
property uchar blue
end_header
-0.52236475 -0.48769969 1.25203082 186 185 181
-0.52106875 -0.47724473 1.23929036 187 186 182
-0.52153221 -0.47620898 1.25111042 185 185 181
-0.50271696 -0.56149822 1.25768435 182 181 179
-0.50510327 -0.56254190 1.26002204 182 181 179
-0.50341910 -0.55760147 1.25173323 182 182 180
-0.51497183 -0.50360242 1.25273383 185 186 179
-0.51889628 -0.50809574 1.26002204 186 187 180
-0.51070401 -0.48826942 1.25051732 186 186 180
-0.50939191 -0.47034892 1.25001969 184 184 181
-0.50648812 -0.45282450 1.25118998 186 184 182
-0.48881256 -0.56511146 1.25240386 181 181 178
-0.49003983 -0.56526421 1.26002204 182 182 179
-0.49777374 -0.54555098 1.23553358 182 183 178
-0.48953520 -0.55372051 1.24801293 180 180 177
-0.48187292 -0.55818623 1.26002204 179 180 175
-0.49023861 -0.52079749 1.21595049 186 186 184
-0.49324599 -0.53134903 1.22715371 183 183 179
-0.49638971 -0.48530256 1.24292865 184 185 177
-0.49556942 -0.47143812 1.24790076 183 183 181
-0.49512106 -0.45042474 1.24567416 186 183 181
-0.47969508 -0.56036407 1.26002204 185 186 178
-0.47959068 -0.55807779 1.24845358 179 179 175
-0.46130461 -0.00041674 0.79845917 175 175 170
-0.46049118 0.00165005 0.79705122 182 183 176
-0.44735388 -0.00606337 0.79790116 179 178 175
-0.44887686 -0.00548426 0.80149118 178 177 175
-0.44880957 0.00507663 0.79716478 173 172 166
-0.44787816 0.00928570 0.80194883 170 169 165
-0.44759702 0.03008379 1.03686988 179 179 175
-0.45522406 0.03125329 1.04130852 171 170 164
-0.44007346 0.04341865 1.03811920 178 177 173
-0.43655064 -0.00537699 0.79610427 176 175 174
-0.43720519 -0.00549174 0.80065991 177 176 174
-0.43641885 0.00203343 0.79684664 170 170 167
-0.43791288 0.01023094 0.80212553 175 174 172
-0.43155588 0.03099222 1.03280365 174 173 171
-0.42944133 0.04152965 1.03574067 176 175 172
-0.42035830 0.21481850 0.95276481 165 164 160
-0.42035830 0.22181875 0.95276481 178 175 171
-0.41285827 0.21345281 0.95044732 172 171 166
-0.41065785 0.22396261 0.94961038 177 174 169
-0.36758413 -0.02787123 0.80966199 179 177 174
-0.36792657 -0.01802864 0.81477386 172 163 163
-0.36179882 0.42204204 1.39771509 179 176 168
-0.35843360 -0.03265277 0.80888812 178 176 171
-0.34481315 0.09274742 0.71491955 177 178 172
-0.35376659 0.08925949 0.72123522 168 167 164
-0.35173283 0.41640507 1.39771509 171 172 163
-0.35011035 0.41797699 1.40324028 175 175 167
-0.34879422 0.42906490 1.41059413 165 161 157
-0.35026285 0.43362362 1.42115688 162 157 155
-0.34717121 0.44240423 1.41493933 160 154 152
-0.34477091 0.44662991 1.42215208 164 159 159
-0.33498955 0.09577946 0.71057472 168 168 166
-0.32694062 0.10237322 0.70262660 171 170 169
-0.33884835 0.41479450 1.39771509 170 170 165
-0.33954847 0.41807237 1.40060294 177 176 173
-0.33489831 0.43072108 1.40883017 168 166 162
-0.33576326 0.44322823 1.41523129 159 155 155
-0.33961865 0.44999932 1.42115688 172 168 171
-0.30220139 -0.18352911 0.58878260 181 181 177
-0.30102634 -0.17798296 0.58853404 182 179 174
-0.30701319 0.30803541 0.75412676 168 168 161
-0.30992750 0.30129303 0.76110631 165 162 157
-0.29750993 -0.18420306 0.58886823 164 165 161
-0.29696926 -0.17359136 0.58802653 179 178 174
-0.28170825 0.03872242 0.56672048 175 173 171
-0.28215413 0.04197514 0.56686713 179 179 177
-0.28336156 0.11735882 0.74745948 179 178 172
-0.28117478 0.12244467 0.74320650 166 165 160
-0.29784980 0.29973283 0.75826830 168 167 166
-0.29618030 0.30834424 0.75314313 161 157 150
-0.27139773 0.03864671 0.56386864 179 177 175
-0.27235960 0.04185400 0.56367182 178 177 175
-0.26063772 0.09987640 0.74371043 170 168 163
-0.26381066 0.11411856 0.73858484 179 177 171
-0.26865175 0.11176722 0.74282410 174 171 167
-0.26391186 0.12446692 0.73924953 177 177 177
-0.27123266 0.12271618 0.74240880 175 174 171
-0.25420056 0.09697764 0.74419436 177 176 172
-0.25606784 0.11364836 0.73794784 181 179 175
-0.25645465 0.10509560 0.74387205 181 177 175
-0.25569597 0.12091092 0.73871269 183 181 177
-0.22717653 -0.10323214 0.57922489 180 180 179
-0.22894020 -0.10184251 0.58165287 179 178 177
-0.23038433 -0.09702992 0.57835270 178 178 178
-0.22787122 -0.09646224 0.58163417 180 180 180
-0.18383263 0.21913562 0.58930094 176 171 166
-0.18827713 0.22683122 0.58501457 168 167 163
-0.17989719 0.21912685 0.59049815 171 170 162
-0.17981891 0.22107143 0.59024116 176 176 168
-0.14646287 -0.23325194 0.45264604 97 94 93
-0.15240023 -0.22046401 0.51787001 184 185 178
-0.15185008 -0.21127607 0.51440873 178 177 173
-0.15044425 -0.12517623 0.49207310 185 185 181
-0.15067040 -0.11936633 0.49301254 186 186 181
-0.13920009 -0.23611078 0.45263244 110 110 106
-0.12357276 0.13549748 0.66529637 183 180 179
-0.12504528 0.15152824 0.67340406 177 173 171
-0.10681410 0.10715382 0.45022708 174 174 176
-0.11564288 0.13038147 0.65910745 183 183 183
-0.11783488 0.13302067 0.66224282 183 183 182
-0.11592860 0.15229939 0.66959333 176 175 172
-0.11504160 0.16158072 0.66919259 180 177 172
-0.08338431 0.17818525 0.47613216 169 167 162
-0.08359606 0.18139787 0.47607701 172 169 167
-0.06995513 0.09861512 0.52656760 167 163 162
-0.07081341 0.10194877 0.52561667 175 173 171
-0.07731176 0.17738262 0.47776306 169 166 161
-0.07722350 0.18082258 0.47713787 175 173 168
-0.00263744 -0.18274367 0.45932255 187 186 183
-0.00689246 -0.18271280 0.46115175 184 184 181
-0.00642586 -0.17754693 0.45932828 187 186 182
-0.00783613 -0.17910063 0.46132836 188 187 183
0.01934633 -0.30415514 0.65102281 99 91 92
0.01990820 -0.29887068 0.64932168 94 86 89
0.00058446 -0.18220154 0.45772576 187 186 182
0.00058763 -0.18000934 0.46021169 188 187 186
0.03794226 -0.84761777 1.92983078 178 177 175
0.03776525 -0.82632858 1.92694511 183 182 178
0.03714834 -0.81407037 1.91225159 166 163 161
0.02624268 -0.30561893 0.65364849 105 101 102
0.02667004 -0.29925260 0.65015376 101 96 97
0.02691206 0.47170675 1.59880149 40 39 43
0.02431573 0.47284166 1.61021259 39 38 43
0.02169223 0.47567460 1.62175083 40 39 44
0.02443683 0.48013207 1.61788034 40 39 41
0.02275079 0.48398449 1.63086919 40 39 44
0.03096508 0.49630966 1.64838320 40 40 44
0.03841870 0.51928133 1.61788034 48 47 54
0.03888270 0.51989257 1.63741994 47 47 51
0.03355814 0.50908051 1.65403130 43 43 45
0.03083920 0.51461507 1.66149962 46 45 47
0.03841870 0.52207768 1.61788034 48 47 54
0.03582784 0.52170984 1.62721429 46 45 54
0.03441435 0.52225904 1.64938815 47 46 52
0.05261056 -0.86180165 1.93407482 181 181 178
0.05981066 -0.86586753 1.95077193 179 178 175
0.04890641 -0.85144724 1.93387998 182 181 177
0.05418451 -0.84789720 1.94645161 182 181 179
0.04878282 -0.82183826 1.91494870 185 184 180
0.04957193 -0.83105813 1.92961485 184 183 180
0.05965615 -0.82832555 1.94573243 176 175 172
0.05032180 -0.81193262 1.91045856 181 178 176
0.04674825 -0.81608619 1.92219198 181 177 174
0.05972460 -0.81917334 1.94796503 159 159 157
0.04572746 0.47303201 1.61275641 39 38 42
0.04331721 0.47813762 1.62695503 37 37 40
0.04851517 0.48510938 1.61276245 42 42 45
0.04631999 0.48905556 1.62900020 41 40 44
0.04355421 0.49456283 1.64594878 41 40 44
0.04811577 0.50890132 1.63087231 47 47 51
0.04463110 0.51020654 1.64575815 45 44 49
0.04258695 0.52282409 1.63478955 49 48 52
0.04476639 0.52241936 1.64537823 49 49 53
0.07569106 -0.88694473 1.98407749 179 178 175
0.06493690 -0.86670524 1.95266473 176 176 172
0.07325099 -0.86936089 1.97206044 180 179 177
0.07627367 -0.87304758 1.98431969 181 180 177
0.06423294 -0.85219716 1.95190115 178 177 175
0.06418921 -0.83049851 1.95198412 177 176 173
0.07534731 0.06789385 1.41818380 171 168 169
0.07642641 0.06711505 1.42115688 153 150 150
0.08626192 -0.86805266 1.97317296 183 182 179
0.08411870 -0.87379905 1.98330247 183 182 178
0.08766747 -0.85935307 1.97061586 183 183 181
0.09396756 -0.46672892 0.91775525 46 48 49
0.09393161 -0.46137620 0.92205188 46 50 48
0.08986786 -0.45357596 0.91858786 44 46 44
0.09115436 -0.45514635 0.92238250 43 45 43
0.09716855 -0.00199264 0.70503609 96 95 99
0.08613943 0.00568069 0.69957876 165 162 159
0.09056989 0.00853850 0.70208701 132 128 132
0.09841821 0.05241891 1.39771509 194 195 193
0.09499031 0.05978970 1.40060294 176 168 164
0.09237861 0.07657729 1.39771509 165 162 165
0.09009654 0.06802573 1.40654912 164 159 158
0.10028625 -0.46084309 0.92481834 42 43 43
0.10457435 -0.45119820 0.91755892 43 43 43
0.10340091 -0.45335298 0.92529945 41 41 41
0.10134754 -0.00262586 0.70383409 95 94 98
0.10063371 0.00287222 0.70369667 83 83 87
0.10231245 0.05649742 1.39229978 173 171 168
0.10929707 0.06612658 1.39566423 168 163 163
0.10397201 0.07156257 1.40205437 170 165 163
0.10324988 0.08140896 1.39771509 188 183 176
0.10367741 0.08255467 1.40350282 167 160 156
0.17954236 -0.31061202 0.59446826 48 48 46
0.17522751 -0.24962209 0.47751480 40 40 41
0.17577652 -0.24346848 0.48389557 33 34 37
0.17535662 -0.19286777 0.45319912 38 37 42
0.17926599 0.12876529 0.61378899 137 89 90
0.17981367 0.13474658 0.62021214 137 85 88
0.18452884 -0.30617207 0.59392411 42 42 46
0.18911895 -0.29799109 0.59526488 37 37 52
0.19410949 -0.29651462 0.60292574 54 53 99
0.18004061 -0.24059686 0.48282894 22 22 26
0.19644435 -0.22999265 0.49606462 31 32 40
0.19523349 -0.22950823 0.50632765 39 42 56
0.18065464 -0.19434625 0.45102584 36 37 40
0.18453800 0.13046930 0.61018135 126 83 86
0.18030857 0.13619238 0.62191910 131 83 84
0.20023102 -0.23223638 0.50645700 33 35 44
0.29290537 -0.38238891 0.83014965 78 85 94
0.29345993 -0.36902900 0.81843018 59 61 72
0.29232919 -0.36737833 0.82358664 49 51 59
0.29201908 -0.35582584 0.81920496 43 43 52
0.29272659 -0.35858071 0.82118970 43 43 52
0.29482515 -0.30232988 0.54417453 40 40 40
0.28763295 -0.29029558 0.53744578 41 42 41
0.28960767 -0.29746386 0.54135831 42 42 41
0.31571448 -0.66077292 1.22806489 35 35 46
0.31547692 -0.66555204 1.25172173 45 49 59
0.31387555 -0.66906137 1.26119633 47 51 60
0.31565428 -0.64854711 1.23253661 39 40 53
0.31179360 -0.65260257 1.24800185 44 45 57
0.31547105 -0.63439204 1.22956126 40 43 57
0.30289251 -0.38423582 0.91662583 32 32 37
0.30446444 -0.38729455 0.93140570 36 36 41
0.30989519 -0.38549528 0.94906871 46 46 50
0.31045358 -0.38871530 0.96705671 43 43 47
0.30155339 -0.36915799 0.82614508 49 49 59
0.30239876 -0.37872822 0.91566465 40 39 45
0.30685083 -0.37657068 0.93321454 47 47 50
0.31123224 -0.37579568 0.94959584 48 47 50
0.30948229 -0.37758027 0.96532133 39 39 42
0.30001357 -0.30717745 0.54801279 39 39 39
0.31755600 -0.22430136 0.52683978 35 34 42
0.31031445 -0.20592617 0.51088186 56 56 64
0.30885610 -0.21426346 0.52135396 46 45 51
0.30714041 -0.19863599 0.50956952 58 55 63
0.31930117 0.11871814 0.56651600 44 44 56
0.31477278 0.13064640 0.55908614 45 45 54
0.31553783 0.12618452 0.56603837 44 44 53
0.32120512 -0.66254774 1.23612764 34 35 43
0.32132980 -0.66803414 1.24156010 34 34 45
0.32135519 -0.65559337 1.23031491 35 38 47
0.33662391 -0.48321726 1.21922994 18 19 27
0.33995408 -0.48496172 1.22363150 18 19 27
0.33843714 -0.46322604 1.12702167 32 32 40
0.33714694 -0.47509601 1.21731660 26 25 34
0.33542174 -0.47713013 1.22252911 25 24 34
0.33871717 -0.45366110 1.19684684 29 28 37
0.33734296 -0.45807253 1.20300335 32 32 42
0.33801434 -0.30103024 0.62134941 18 17 19
0.33146128 -0.28344191 0.59709443 17 16 18
0.33303697 -0.28471290 0.60708606 15 14 16
0.33804309 -0.29279770 0.62173313 15 14 16
0.33385369 -0.27811685 0.59972749 17 16 19
0.33300697 -0.27888974 0.60203700 16 15 18
0.32013735 -0.22716816 0.52509052 30 29 37
0.32144298 0.11822285 0.56358236 44 43 55
0.32390640 0.12235449 0.56575418 43 43 54
0.35886469 -0.52402721 1.27583857 39 40 48
0.35158524 -0.50218227 1.23477840 23 21 28
0.35278705 -0.50889139 1.25036462 23 23 30
0.35709324 -0.51685048 1.26331754 30 30 38
0.35186024 -0.48333831 1.19465742 21 20 27
0.34689786 -0.48462094 1.21306382 18 18 24
0.34726311 -0.49306022 1.22622997 18 17 24
0.35047484 -0.46910535 1.17217313 25 24 31
0.34907501 -0.46967972 1.19412232 21 20 27
0.34362599 -0.47225801 1.21004390 25 25 33
0.34987241 -0.45401388 1.16848320 25 24 30
0.34438276 -0.45652458 1.19162648 25 24 33
0.34005713 -0.30218965 0.62709701 18 17 19
0.34005713 -0.29080886 0.62709701 16 15 17
0.34866821 0.38525699 1.03456101 15 14 23
0.34881343 0.39026456 1.04436721 16 15 23
0.35291375 0.39753596 1.06630054 16 15 24
0.35175368 0.40020105 1.03971136 18 17 25
0.35406551 0.40498988 1.05374302 17 16 24
0.35638634 0.41082700 1.07014845 18 17 25
0.35643542 0.40868318 1.08116722 18 17 26
0.35845771 0.42161557 1.07601881 19 18 27
0.35937786 0.42225178 1.08725381 19 18 26
0.35872994 0.45090368 1.12959497 27 26 34
0.35848463 0.45308560 1.14123201 29 29 38
0.36181769 -0.52981770 1.28632224 47 48 57
0.36225811 -0.50431794 1.23477566 29 28 37
0.36045292 -0.49886587 1.22142673 28 27 36
0.36166671 0.41809584 1.07178253 18 17 26
0.36343470 0.42283549 1.07534103 20 19 28
0.36687562 0.43318532 1.09164615 20 19 28
0.36418245 0.43017174 1.11201219 21 20 28
0.36541423 0.43070548 1.13082078 21 21 29
0.36733060 0.43252508 1.14833584 22 22 31
0.36739318 0.44255816 1.10991261 22 21 30
0.36612433 0.44689059 1.12796038 25 24 31
0.39182975 -0.20742984 0.48714310 49 54 80
0.38858331 -0.10045920 0.63198862 33 31 36
0.38506835 -0.08900275 0.61964518 47 46 48
0.38814625 -0.09053358 0.63250994 45 44 46
0.39231975 -0.08336558 0.64284202 54 52 54
0.39100850 -0.07991967 0.63952059 59 56 59
0.39335601 -0.07725658 0.64500424 59 56 58
0.41855742 -0.50146705 0.95815149 33 33 41
0.41593722 -0.50498422 0.97265924 29 29 37
0.41250837 -0.50560307 0.98726419 20 20 27
0.41831014 -0.49717643 0.95532197 33 33 40
0.41916275 -0.49713585 0.96916905 30 29 36
0.41823425 -0.28299859 0.57771417 26 25 26
0.41923486 -0.28682578 0.58063552 22 21 23
0.41415257 -0.26244550 0.47827816 39 39 42
0.41260264 -0.26073775 0.48533208 38 39 38
0.41745064 -0.27775153 0.57780614 26 26 28
0.41855374 -0.27917910 0.58038688 26 26 28
0.41812334 -0.25296907 0.47753910 37 36 41
0.41604175 -0.25598662 0.48328597 61 61 58
0.40099922 -0.20692664 0.50028920 49 53 82
0.41915067 0.33837235 1.05101608 18 17 22
0.41827156 0.34407827 1.05222797 17 17 21
0.41882968 0.34443454 1.06169498 18 17 21
0.40716185 0.39676780 1.48802371 17 16 23
0.40810633 0.39758533 1.50642633 18 17 24
0.41123791 0.40597282 1.49281771 17 16 23
0.40952727 0.40997733 1.51121298 18 17 23
0.40571385 0.41000506 1.52765934 18 17 23
0.41540705 0.42675145 1.51527661 17 17 23
0.41103800 0.42327324 1.53025071 18 17 24
0.41751869 0.45693703 1.47528321 20 19 26
0.41918465 0.45206330 1.49120504 18 17 25
0.41805726 0.44785967 1.50475621 19 18 25
0.41647089 0.46802689 1.47608587 21 20 27
0.41657939 0.46861977 1.48972962 20 19 27
0.41695842 0.46700998 1.50784046 19 19 26
0.41937192 0.47209486 1.52850670 19 18 25
0.41605621 0.48324918 1.49755355 23 21 28
0.41871101 0.49070257 1.51654416 20 19 27
0.41889912 0.48212576 1.52678347 22 21 28
0.42117184 -0.50686996 0.97329035 32 32 41
0.42093215 -0.50451772 0.98903359 26 26 31
0.42074366 -0.49614716 0.95747626 33 33 40
0.42469314 -0.49617963 0.97323135 28 27 33
0.42830443 -0.49660955 0.98912877 25 23 30
0.43049115 -0.49896306 1.00131738 26 26 30
0.42391650 -0.28467904 0.57819913 33 33 32
0.42735279 -0.28790935 0.58156041 36 35 35
0.42520072 -0.27606774 0.57807307 49 52 49
0.42892731 -0.27648001 0.58051120 42 44 41
0.42123857 -0.24673477 0.47354141 34 33 43
0.42071733 -0.25223908 0.48528283 53 51 48
0.43927132 -0.14579526 0.46783626 31 31 40
0.43336248 0.31670791 1.05274802 19 17 21
0.43164217 0.33229422 1.05016865 18 17 21
0.42910499 0.32960131 1.06612937 18 17 21
0.42004186 0.35078198 1.03971136 19 18 22
0.42765842 0.34721704 1.05119710 18 17 21
0.43039248 0.34947294 1.06589016 19 17 22
0.42227483 0.40115112 1.51993692 18 16 23
0.42289817 0.43029371 1.49612327 18 17 23
0.42215532 0.42886584 1.50961416 18 17 23
0.42059076 0.42574951 1.52335250 18 17 24
0.42148849 0.44715387 1.49134356 18 17 24
0.42169495 0.44871115 1.51135180 18 17 24
0.42322373 0.45997840 1.52335250 19 18 25
0.42153803 0.46101439 1.52678347 19 18 25
0.42158051 0.49281816 1.52885756 21 20 27
0.42463747 0.49675542 1.54769826 22 21 28
0.42560917 0.50057334 1.55123997 22 20 27
0.44978749 -0.18804851 0.45610937 76 77 79
0.45796831 -0.19038837 0.46125490 77 77 80
0.44846006 -0.18198044 0.53514387 58 60 71
0.45506984 -0.18699294 0.54465232 58 65 78
0.45970449 -0.18330707 0.56024116 68 74 86
0.44257712 -0.17932493 0.45069669 44 45 50
0.44642705 -0.17762382 0.53263964 57 58 69
0.45987633 -0.17987972 0.56163365 63 69 89
0.44526288 -0.14268364 0.47118765 34 34 43
0.45150726 -0.14297670 0.48196249 33 32 41
0.44784310 -0.13529287 0.47165738 35 34 43
0.45377598 -0.13463541 0.48227112 29 28 36
0.44333085 0.33253035 1.03828181 18 17 21
0.44355186 0.33646594 1.04429145 19 17 22
0.44340360 0.34089816 1.03971136 19 18 22
0.44127850 0.34459185 1.04948971 18 17 21
0.47689174 -0.23132087 0.46465081 104 103 105
0.47130125 -0.22104686 0.56965970 47 47 72
0.46803266 -0.20153880 0.55977857 55 61 74
0.47444043 -0.21147325 0.57250520 55 60 78
0.47663816 -0.20413582 0.58052896 63 65 85
0.46106309 -0.18789385 0.46304134 57 57 65
0.46444723 -0.19461507 0.55702634 63 66 82
0.46467236 -0.19112420 0.56313118 67 71 87
0.46060478 -0.17890869 0.56163464 60 67 87
0.48337888 -0.22767788 0.46817340 95 95 95
0.49999484 0.41794178 0.98818052 25 24 28
0.49820284 0.42425858 0.99397629 21 20 24
0.49732456 0.71708959 1.98795259 31 33 46
0.49746397 0.72291382 1.99772052 30 32 47
0.51126156 -0.04162872 0.75142154 47 47 49
0.51556444 -0.04130172 0.76339173 47 46 48
0.51169897 -0.03534629 0.75185202 46 46 49
0.51565547 -0.03738784 0.76426332 46 45 50
0.50973480 0.39894150 0.98554765 22 20 27
0.51086505 0.41083725 0.99093827 23 22 27
0.51099655 0.42693962 0.99238672 17 16 20
0.51865724 0.43885671 1.00280082 0 0 0
0.50125664 0.71803227 1.97636104 31 31 47
0.50076056 0.71708959 1.98795259 30 32 45
0.50467265 0.72315621 1.97636104 32 31 48
0.50444797 0.72987096 1.99235073 31 32 49
0.52997909 -0.36299930 1.02297926 43 42 46
0.53073509 -0.30294351 0.55048446 107 108 107
0.52995719 -0.29504015 0.54963983 123 124 121
0.53691435 -0.26060900 0.45102584 15 15 17
0.53706857 -0.25020660 0.45122399 27 27 28
0.52654907 -0.03734465 0.75564860 40 40 43
0.53195285 -0.03379480 0.76409321 38 38 40
0.52911323 0.39942524 0.98674423 20 19 23
0.52503991 0.40289865 0.97820053 22 21 25
0.52559477 0.40942576 0.98967740 23 22 26
0.52282487 0.42410602 0.99261381 25 24 28
0.52320862 0.44432464 1.01329124 0 0 0
0.52061504 0.71011335 1.95922494 26 25 39
0.52137081 0.71651667 1.97062691 27 26 41
0.52393287 0.72519267 1.97492474 31 30 45
0.52798996 0.73181860 1.98698954 30 30 46
0.53500688 0.75609347 1.89620471 40 41 55
0.53636655 0.75870156 1.90687251 40 42 57
0.53199320 0.75130471 1.99381052 33 37 54
0.53077412 0.76768154 1.95922494 39 43 59
0.53065443 0.76815518 1.97349397 39 43 56
0.53211867 0.76737169 1.99303145 38 41 57
0.55998319 -0.66199088 1.70753610 45 45 46
0.55730334 -0.66550797 1.73596150 34 35 37
0.55945140 -0.66355699 1.74265254 34 34 38
0.54884547 -0.64247733 1.61402822 57 55 55
0.55131267 -0.64583913 1.62956659 56 54 55
0.55554475 -0.64973769 1.64839059 55 55 56
0.55768832 -0.64931901 1.69756118 42 42 45
0.55959777 -0.65230483 1.71138593 40 41 44
0.54884547 -0.63968760 1.61402822 53 53 53
0.55147153 -0.63994527 1.62175083 52 51 51
0.54597291 -0.42275718 1.09780127 25 24 28
0.55065835 -0.42189931 1.10466858 26 25 28
0.55823843 -0.42889522 1.12637848 25 25 28
0.54687667 -0.40146540 1.07715925 25 25 28
0.54779173 -0.40566665 1.09011379 27 27 30
0.54965518 -0.41046401 1.10497293 32 31 35
0.55692756 -0.41623330 1.12373346 31 30 33
0.54716555 -0.38849586 1.07500017 37 36 39
0.54730013 -0.39428042 1.08587745 38 37 40
0.54816265 -0.39717726 1.10316664 50 49 50
0.54229991 -0.37173541 1.05168340 46 45 48
0.54593873 -0.37827876 1.06086361 41 40 42
0.54648549 -0.32262743 0.63521512 63 66 58
0.54662026 -0.32614593 0.64194985 55 57 47
0.54629498 -0.31450727 0.63056268 81 83 79
0.54356107 -0.26143367 0.45794148 18 16 20
0.55019170 -0.26783870 0.46501270 17 16 19
0.54160128 -0.25814724 0.45562457 18 17 20
0.54634428 -0.24558508 0.51810021 126 127 126
0.55511785 -0.24547077 0.52264497 116 117 116
0.54623685 -0.23535759 0.51716744 116 118 114
0.55185777 -0.23704532 0.52176126 111 112 111
0.54483153 -0.02738848 0.77244655 42 42 44
0.54127001 -0.01750197 0.76762407 44 44 47
0.55748405 0.12519996 1.66851510 95 93 93
0.54348332 0.75909680 1.92037344 40 42 56
0.54395508 0.75597128 1.99263706 36 42 55
0.54169863 0.76125330 1.92582905 40 42 57
0.54950410 0.76884580 1.95357883 41 42 58
0.55349299 0.76932272 1.96775985 40 42 58
0.54480783 0.76593828 1.98991303 39 43 57
0.56665060 -0.66115925 1.70539099 49 49 50
0.56234760 -0.66625460 1.72934742 40 41 43
0.56282587 -0.66549249 1.74377537 36 37 40
0.57277036 -0.66038024 1.77458596 29 27 34
0.57575834 -0.66407049 1.78864527 27 26 33
0.56074184 -0.64829767 1.65743732 52 51 52
0.56449173 -0.65140682 1.67279163 50 49 51
0.56738849 -0.65384421 1.69559313 48 47 48
0.57007207 -0.65047986 1.71165419 42 42 44
0.57039043 -0.64671022 1.72735498 34 33 38
0.56768015 -0.65196403 1.74791574 30 29 35
0.57135051 -0.64914781 1.76075804 25 24 31
0.57730418 -0.65942454 1.78863287 26 25 31
0.56659972 -0.63012570 1.66934087 33 32 36
0.56909037 -0.63759798 1.68211377 38 37 39
0.57619125 -0.63703348 1.71184814 27 26 33
0.57083622 -0.63837114 1.73152733 26 25 32
0.56628001 -0.61998415 1.67380702 25 24 31
0.56937873 -0.44297114 1.15287733 26 25 29
0.56553155 -0.43107173 1.14508760 27 26 30
0.56036887 -0.27499545 0.47521341 16 15 18
0.57885228 -0.26475912 0.76858948 81 87 103
0.56623158 0.09193066 1.67795014 95 93 93
0.57432569 0.09576017 1.68788293 99 95 97
0.56948429 0.11365281 1.67519146 96 93 93
0.57218103 0.10608371 1.68570782 97 95 95
0.57292491 0.13217549 1.65541601 93 88 88
0.56949578 0.12754580 1.66716857 91 85 85
0.56036812 0.13286233 1.68211377 96 96 96
0.57814412 0.14920273 1.64987716 83 83 84
0.56850597 0.14036568 1.66763312 100 95 94
0.56352800 0.73391461 1.90956457 34 35 48
0.56365001 0.75059152 1.89885676 35 34 47
0.56352502 0.74161816 1.90955448 35 37 50
0.57479680 0.74736333 1.95922494 35 34 50
0.57609495 0.75510775 1.97062912 36 36 51
0.57487007 0.75439800 1.98797223 34 35 49
0.56994694 0.76342213 1.93131578 36 37 49
0.57479680 0.76937470 1.95922494 37 38 50
0.57473538 0.76872830 1.97062533 37 38 51
0.56871728 0.76811295 1.99048054 37 40 53
0.57321310 0.78458333 1.94238353 31 33 42
0.57568889 0.78917532 1.96871554 35 36 47
0.57466763 0.78351218 1.98213995 38 38 50
0.57982421 0.80172378 1.97636104 32 33 42
0.57919673 0.80535297 1.99381105 34 37 45
0.58188927 -0.66824037 1.81254506 25 25 30
0.58664356 -0.28269583 0.77588622 90 105 126
0.59170645 -0.28705895 0.78454099 94 105 122
0.58465176 -0.27340507 0.77196507 86 93 112
0.58785955 -0.27536882 0.78288264 84 91 110
0.58816785 0.09683653 1.69614773 94 89 92
0.58703409 0.09527915 1.70324588 94 88 90
0.58941137 0.11726382 1.67382735 83 77 79
0.58684944 0.11041407 1.69008613 92 91 92
0.59120494 0.10268185 1.70396092 92 91 93
0.58869714 0.13477768 1.65340916 89 83 83
0.58678469 0.12416354 1.66873096 84 79 80
0.59816432 0.12268644 1.68211377 89 86 87
0.59925193 0.14065276 1.63741994 89 89 89
0.58871963 0.14705914 1.64782533 87 86 87
0.58084393 0.16227083 1.64138460 79 78 79
0.58149415 0.74676764 1.99379957 31 32 43
0.61474794 -0.81397104 1.63347435 23 23 25
0.61883169 -0.81239041 1.64938164 19 19 25
0.61812711 -0.78882736 1.59129536 29 29 32
0.61699950 -0.78484715 1.61135730 23 21 32
0.61741906 -0.79320836 1.62563992 20 19 28
0.61652761 -0.76795097 1.59234840 25 24 35
0.61509409 -0.77468278 1.60400526 25 24 36
0.61523867 -0.75776553 1.58385944 25 25 38
0.60248411 0.11368215 1.67795014 93 91 91
0.60107172 0.11687164 1.68211377 94 90 92
0.60196342 0.12256187 1.67382741 89 88 88
0.60331824 0.12314680 1.68840075 91 88 89
0.63819807 -0.84593378 1.65180130 26 25 31
0.63633249 -0.84868835 1.66558995 26 26 30
0.62918748 -0.82547152 1.63249743 29 29 34
0.63081666 -0.83069552 1.65050020 27 27 32
0.63103861 -0.83942330 1.66149962 26 26 30
0.62491262 -0.80663887 1.61595428 31 31 35
0.62483444 -0.81027092 1.62928070 26 25 30
0.62371758 -0.81355940 1.64651929 21 21 26
0.62186763 -0.79416033 1.61259970 25 24 30
0.62167519 -0.79838212 1.62759852 20 19 26
0.64082062 -0.85390559 1.65340459 26 25 32
0.64122558 -0.85731930 1.66558194 26 25 33
0.67536795 -0.26000586 0.83897507 55 61 84
0.67620480 -0.26177996 0.84001470 59 64 87
0.67478894 -0.25326420 0.83348834 49 53 75
0.67834548 -0.25564270 0.84132036 48 53 75
0.67925578 -0.23852365 0.83484215 35 37 56
0.69872111 -0.29511236 1.20407456 65 64 64
0.68518065 -0.26352011 0.85402087 54 60 84
0.69257484 -0.26537314 0.86592810 54 59 83
0.68091384 -0.24635944 0.83764354 40 42 63
0.68443093 -0.25085892 0.84864807 44 47 70
0.69117958 -0.25494147 0.86356350 46 50 74
0.71653926 -0.32184604 1.23477978 71 71 69
0.71876729 -0.32273702 1.24231946 70 69 68
0.70624548 -0.30144385 1.21704102 65 65 65
0.71368987 -0.31040502 1.23171011 67 65 65
0.71758351 -0.30765499 1.24212962 67 65 65
0.70986761 -0.29257226 1.22904318 62 63 63
0.71848102 -0.29233365 1.24875591 63 63 63
0.70169985 -0.27096376 0.87923717 56 61 86
0.70536411 -0.27466816 0.88382849 57 64 88
0.71889561 0.16492213 0.65942788 39 42 59
0.71393693 0.16649125 0.66419036 41 46 68
0.72514059 -0.32735990 1.25458753 70 69 70
0.72883987 -0.32723161 1.26754908 70 69 69
0.72337569 -0.30682055 1.25629208 68 67 67
0.72663257 -0.31012629 1.26760220 69 68 68
0.73534895 -0.31010779 1.28960784 67 66 66
0.72063529 -0.29953015 1.25303483 67 66 66
0.72850332 -0.29127308 1.26948059 62 62 62
0.73704447 -0.29057624 1.28598619 60 60 60
0.73502892 -0.27816850 1.27423275 51 51 53
0.72362094 0.16851950 0.66539610 39 41 61
0.75411776 -0.34222631 0.75262161 127 127 125
0.75907474 -0.34254420 0.76253456 134 135 133
0.74748038 -0.33204009 0.73760645 123 124 124
0.75393774 -0.32914823 0.75095495 123 124 123
0.75905472 -0.33149849 0.76167750 123 127 127
0.74760246 -0.31947070 0.73844427 111 112 112
0.74430957 -0.30520688 1.30994689 65 65 65
0.75242865 -0.30924274 1.32726663 66 66 66
0.74421956 -0.28426956 1.29533895 56 56 56
0.74811015 -0.29360278 1.30867392 63 61 62
0.76151234 -0.34060451 0.75996846 137 137 137
0.76403882 -0.34218155 0.76474889 135 136 136
0.76045165 -0.32623809 0.75709535 109 110 112
0.76097196 -0.32856000 0.76219088 108 112 113
0.76649201 -0.30862077 1.35309192 66 66 66
0.77499327 -0.31169058 1.36813140 67 65 66
0.76353490 -0.29940847 1.33970726 63 62 62
0.77220052 -0.29362682 1.35217909 58 57 57
0.77854025 -0.29422157 1.36396754 58 58 58
0.76858525 0.15448145 0.70911506 36 39 59
0.77131297 0.16456966 0.71410676 37 40 61
0.78807970 -0.30916724 1.39121836 65 65 65
0.79618214 -0.30908736 1.40838818 64 63 63
0.78446305 -0.29462744 1.37503795 58 56 56
0.79179908 -0.29191187 1.38977464 57 53 54
0.79746789 -0.29668513 1.40350282 59 58 58
0.79332376 -0.27740687 1.39197505 49 45 48
0.78245465 0.16222382 0.71810953 36 38 58
0.78519715 0.16554785 0.72070171 35 39 57
0.80168122 -0.30405486 1.41522300 63 59 60
0.80844178 -0.30167857 1.42715756 60 58 58
0.80413167 -0.28815104 1.41523078 54 50 52
0.81460696 -0.29205388 1.43804114 55 50 54
0.81703258 -0.29741248 1.44232309 58 54 55
0.80496845 -0.27621463 1.41670340 48 46 49
0.81357056 -0.27877563 1.43621159 51 48 51
0.82685447 -0.30697027 1.46412921 61 60 60
0.83771032 -0.30587280 1.48335195 59 56 57
0.82685447 -0.28419462 1.46412921 53 49 52
0.83679578 -0.29657659 1.48173255 56 49 53
0.85478705 -0.31175263 1.51823676 59 56 59
0.85766727 -0.30622208 1.52335250 59 50 55
0.86911438 0.27455592 0.81796987 63 67 78
0.87421762 0.27467666 0.82511868 62 65 77
0.87713443 0.28868792 0.82699833 57 60 73
0.87503554 0.30170492 0.82650362 53 56 65
0.88440610 0.27763510 0.81871116 53 55 81
0.88384840 0.27666556 0.82651973 59 61 77
0.88653725 0.28222077 0.81969994 51 57 78
0.88701326 0.29020049 0.82925163 55 59 76
0.88848642 0.29247995 0.84456350 53 58 69
0.89145724 0.30255079 0.83187994 55 57 70
0.88783105 0.30192945 0.84105776 55 56 66
0.90158367 0.30408320 0.83897507 57 58 72
0.90270084 0.30083026 0.84001470 56 56 76
0.99580258 -0.54108149 1.19347155 57 62 72
0.99639994 -0.53878154 1.19295460 66 68 81
1.00840683 -0.54319650 1.19730948 46 50 56
1.01501639 -0.54301034 1.21106249 52 53 69
1.01786878 -0.54941915 1.22586703 51 53 70
1.01099080 -0.53996933 1.19557643 50 52 62
1.01352600 -0.53753030 1.21345625 50 50 69
1.03613847 -0.56111664 1.24957979 51 54 70
1.03733634 -0.56868453 1.27038462 55 57 76
1.02541832 -0.54426934 1.21595828 53 54 72
1.02971357 -0.54468132 1.22866221 51 53 71
1.03255591 -0.55152764 1.24890056 49 50 68
1.03788310 -0.55527711 1.27052683 49 53 75
1.02993882 -0.53590077 1.21922994 52 54 70
1.02922433 -0.53720629 1.22808800 48 49 66
1.03758121 -0.53910679 1.24612474 44 44 60
1.05535775 -0.62318641 1.55125412 70 75 85
1.05758727 -0.62175226 1.56196272 66 67 81
1.05446779 -0.61092953 1.55039836 64 67 80
1.05977130 -0.61785018 1.56919408 59 59 73
1.04092741 -0.56045842 1.25535524 51 54 69
1.04626009 -0.56454324 1.27388091 50 55 72
1.04572586 -0.56654229 1.28388913 52 58 76
1.04474407 -0.55010890 1.25436933 46 48 65
1.04803163 -0.55226962 1.26993278 46 47 66
1.05592775 -0.55439341 1.28145909 50 48 66
1.04869556 -0.53622329 1.26472354 37 43 61
1.07269540 -0.64199056 1.59038126 65 71 81
1.06079805 -0.62964952 1.55479777 72 80 88
1.06357809 -0.63008394 1.57024630 67 71 82
1.06942554 -0.63146794 1.58785110 61 63 76
1.07677984 -0.62684101 1.60258114 57 56 70
1.06105173 -0.61212152 1.55123997 68 75 86
1.06406703 -0.60918983 1.56993237 59 61 72
1.07554508 -0.61075484 1.58957373 56 58 68
1.07954967 -0.61576128 1.60258114 54 55 64
1.06216093 -0.57206043 1.28632538 49 54 69
1.06787185 -0.55446864 1.29369460 43 45 61
1.08705926 -0.63002878 1.61788034 57 57 70
1.09753704 -0.63327807 1.63347435 55 56 69
1.08019853 -0.60592407 1.59129536 54 58 67
1.08739228 -0.61091875 1.61174254 50 51 61
1.10755268 -0.63192658 1.64838076 53 53 64
1.11911023 -0.62845284 1.66558194 48 47 61
1.10036027 -0.61916143 1.63347435 49 51 64
1.10568893 -0.61932278 1.64138460 49 48 61
1.12742043 -0.63021934 1.67795014 47 47 56
1.14531612 -0.65073560 1.70898072 50 50 63
1.20534098 0.85265911 1.99968100 26 25 30
