ply
format ascii 1.0
element vertex 1076
property float x
property float y
property float z
property uchar red
property uchar green
property uchar blue
end_header
0.08146699 -0.08662114 0.45435110 211 211 215
0.08230746 -0.08667924 0.45465583 210 211 215
0.08309329 -0.08667924 0.45465583 210 211 215
-0.13175058 -0.13552070 0.71734589 114 123 135
-0.13037275 -0.13537744 0.71658754 108 118 132
-0.12954500 -0.13580813 0.71886730 103 112 127
-0.12803096 -0.13552070 0.71734589 102 110 123
-0.12665705 -0.13537744 0.71658754 102 111 123
-0.12555121 -0.13552070 0.71734589 103 112 124
-0.12417993 -0.13537744 0.71658754 105 112 124
-0.12294136 -0.13537744 0.71658754 106 113 124
0.07832575 -0.08583583 0.45435110 209 209 216
0.07916412 -0.08589340 0.45465583 210 210 217
0.08073579 -0.08589340 0.45465583 210 210 216
0.08152162 -0.08589340 0.45465583 210 210 216
0.08236270 -0.08595105 0.45496097 212 212 218
0.08314906 -0.08595105 0.45496097 212 212 219
-0.13037275 -0.13413888 0.71658754 105 114 125
-0.12940776 -0.13442306 0.71810579 103 112 124
-0.12789562 -0.13413888 0.71658754 102 111 122
-0.12652330 -0.13399723 0.71583086 102 111 123
0.08078998 -0.08516468 0.45496097 210 211 215
0.08157634 -0.08516468 0.45496097 210 211 215
0.08241802 -0.08522188 0.45526651 210 210 216
0.08320490 -0.08522188 0.45526651 210 210 217
-0.97204787 -0.26864037 1.44848680 51 54 61
-0.12940776 -0.13318188 0.71810579 101 110 120
0.08089856 -0.08449173 0.45557249 210 210 217
0.08247340 -0.08449173 0.45557249 209 209 216
-0.99382007 -0.26727900 1.45470357 48 47 57
-0.97747004 -0.26556933 1.44539833 49 49 58
-0.97497177 -0.26556933 1.44539833 51 51 60
-0.97247350 -0.26556933 1.44539833 53 53 62
-0.97412932 -0.26670668 1.45158851 54 54 63
-0.96747702 -0.26556933 1.44539833 55 55 64
-0.13009770 -0.13138399 0.71507579 98 110 122
-0.12913418 -0.13166174 0.71658754 102 110 125
-0.12762579 -0.13138399 0.71507579 103 111 126
-0.12638985 -0.13138399 0.71507579 104 112 127
-0.99810380 -0.26590589 1.46097374 49 47 55
-0.98706943 -0.26363319 1.44848680 50 48 56
-0.98416513 -0.26419771 1.45158851 50 48 56
-0.97955865 -0.26363319 1.44848680 50 49 57
-0.97497177 -0.26307106 1.44539833 50 50 58
-0.97247350 -0.26307106 1.44539833 52 52 61
-0.97412932 -0.26419771 1.45158851 54 54 63
-0.96954429 -0.26363319 1.44848680 56 56 65
-0.12996061 -0.13001089 0.71432227 102 108 124
-0.12899782 -0.13028546 0.71583086 103 109 125
-0.12749131 -0.13001089 0.71432227 104 110 126
-0.99810380 -0.26338071 1.46097374 49 47 54
-0.98706943 -0.26112959 1.44848680 49 48 53
-0.98416513 -0.26168877 1.45158851 49 48 53
-0.98165619 -0.26168877 1.45158851 50 49 54
-0.97705501 -0.26112959 1.44848680 50 50 56
-0.97455144 -0.26112959 1.44848680 51 51 58
-0.97412932 -0.26168877 1.45158851 53 53 61
-0.96954429 -0.26112959 1.44848680 56 56 65
-0.96704066 -0.26112959 1.44848680 55 55 64
-0.96248049 -0.26057282 1.44539833 56 56 65
-0.95793974 -0.26001841 1.44232309 57 57 66
-0.12982380 -0.12864068 0.71357036 109 112 128
-0.12872596 -0.12877624 0.71432227 105 110 126
-0.12735711 -0.12864068 0.71357036 105 109 126
-0.12599114 -0.12850542 0.71281999 106 110 126
-1.00678301 -0.26312384 1.47367787 49 48 52
-0.99052829 -0.26085556 1.46097374 49 48 52
-0.98376274 -0.25973600 1.45470357 50 49 53
-0.98124844 -0.25973600 1.45470357 51 50 54
-0.97663826 -0.25917980 1.45158851 51 50 57
-0.97621971 -0.25973600 1.45470357 53 53 60
-0.96954429 -0.25862601 1.44848680 54 54 62
-0.96248049 -0.25807455 1.44539833 53 53 61
-0.95793974 -0.25752547 1.44232309 55 55 63
-1.01561439 -0.26286247 1.48660493 48 48 50
-0.98800308 -0.25833037 1.46097374 50 50 54
-0.98547792 -0.25833037 1.46097374 51 51 55
-0.97873408 -0.25722164 1.45470357 51 52 56
-0.97621971 -0.25722164 1.45470357 52 53 58
-1.01003289 -0.25691259 1.46729839 45 46 49
-1.02299678 -0.26086506 1.48987222 45 46 49
-1.01818383 -0.26029301 1.48660493 47 47 50
-1.01784647 -0.26086506 1.48987222 48 48 50
-0.99228019 -0.25691259 1.46729839 50 50 52
-0.98974407 -0.25691259 1.46729839 52 52 54
-0.98295277 -0.25580519 1.46097374 53 54 56
-0.98042756 -0.25580519 1.46097374 53 54 56
-0.95998222 -0.25307804 1.44539833 57 58 62
-0.95544678 -0.25253960 1.44232309 59 60 64
-0.95295388 -0.25253960 1.44232309 60 61 65
-1.04015541 -0.26000425 1.49976075 44 45 47
-1.03299248 -0.25885886 1.49315381 44 45 47
-1.02814698 -0.25828996 1.48987222 44 45 47
-1.02108359 -0.25715959 1.48335195 45 45 47
-1.02525008 -0.25885886 1.49315381 45 45 47
-1.02042162 -0.25828996 1.48987222 46 47 49
-1.02008843 -0.25885886 1.49315381 49 49 51
-1.00350463 -0.25659809 1.48011315 51 51 53
-0.99443263 -0.25492826 1.47048128 52 52 54
-0.99189103 -0.25492826 1.47048128 54 54 56
-0.98507577 -0.25382707 1.46412921 54 55 57
-0.98254514 -0.25382707 1.46412921 54 55 57
-0.96203351 -0.25111523 1.44848680 59 60 62
-0.95748401 -0.25057980 1.44539833 60 61 63
-0.95498574 -0.25057980 1.44539833 60 61 63
-1.04015541 -0.25741205 1.49976075 43 44 46
-1.03527284 -0.25684381 1.49644995 44 45 47
-1.03041160 -0.25627807 1.49315381 45 46 48
-1.02332282 -0.25515404 1.48660493 46 46 50
-1.02751327 -0.25684381 1.49644995 47 47 51
-1.02042162 -0.25571483 1.48987222 49 49 52
-1.02008843 -0.25627807 1.49315381 53 53 54
-1.01304495 -0.25515404 1.48660493 53 53 53
-1.00570047 -0.25459573 1.48335195 53 53 54
-0.99659443 -0.25293532 1.47367787 54 55 55
-0.99189103 -0.25238666 1.47048128 54 55 56
-0.98720795 -0.25184035 1.46729839 54 55 56
-0.98467183 -0.25184035 1.46729839 54 55 56
-0.97790241 -0.25075483 1.46097374 53 54 55
-0.97327965 -0.25021559 1.45783186 50 53 58
-0.96867675 -0.24967864 1.45470357 55 59 63
-0.96203351 -0.24861164 1.44848680 58 60 63
-0.95748401 -0.24808155 1.44539833 59 61 63
-0.95498574 -0.24808155 1.44539833 60 61 64
-0.94844294 -0.24702813 1.43926084 59 61 63
0.17583355 -0.20851299 1.21485996 211 211 215
-1.05441153 -0.25767016 1.51653659 45 44 48
-1.04246175 -0.25538483 1.50308609 45 45 49
-1.03756320 -0.25481984 1.49976075 45 45 49
-1.03268623 -0.25425732 1.49644995 46 46 50
-1.02783084 -0.25369728 1.49315381 48 48 50
-1.02751327 -0.25425732 1.49644995 51 52 52
-1.02266932 -0.25369728 1.49315381 53 54 54
-1.02008843 -0.25369728 1.49315381 54 54 54
-1.01304495 -0.25258458 1.48660493 52 52 52
-1.00826430 -0.25203186 1.48335195 48 49 49
-1.00570047 -0.25203186 1.48335195 50 51 51
-0.99659443 -0.25038818 1.47367787 52 53 53
-0.99189103 -0.24984504 1.47048128 53 53 53
-0.98720795 -0.24930425 1.46729839 54 54 55
-0.98467183 -0.24930425 1.46729839 54 55 56
-0.97790241 -0.24822967 1.46097374 55 56 57
-0.97327965 -0.24769583 1.45783186 54 56 61
-0.96867675 -0.24716431 1.45470357 56 58 64
-0.96203351 -0.24610804 1.44848680 59 60 66
-0.95748401 -0.24558330 1.44539833 59 62 66
-0.95498574 -0.24558330 1.44539833 59 61 66
-0.94844294 -0.24454048 1.43926084 59 61 66
0.17551899 -0.20604394 1.21268666 214 213 217
0.17729786 -0.20567600 1.21052110 212 211 215
-1.05205786 -0.25447965 1.51315141 46 45 49
-1.04015541 -0.25222763 1.49976075 47 46 50
-1.03299248 -0.25111648 1.49315381 47 46 50
-1.03041160 -0.25111648 1.49315381 47 47 51
-1.02557194 -0.25056458 1.48987222 48 47 50
-1.02525008 -0.25111648 1.49315381 47 47 49
-1.02042162 -0.25056458 1.48987222 47 47 49
-1.01784647 -0.25056458 1.48987222 50 50 50
-1.01082814 -0.24946801 1.48335195 51 51 51
-1.00826430 -0.24946801 1.48335195 52 52 52
-1.00350463 -0.24892333 1.48011315 52 52 52
-0.99443263 -0.24730344 1.47048128 53 53 53
-0.98974407 -0.24676815 1.46729839 54 54 54
-0.98507577 -0.24623518 1.46412921 55 55 55
-0.98467183 -0.24676815 1.46729839 52 56 60
-0.97579938 -0.24517609 1.45783186 57 62 66
-0.97119105 -0.24464996 1.45470357 51 52 59
-0.96660244 -0.24412610 1.45158851 53 52 61
-0.96203351 -0.24360445 1.44848680 60 60 68
-0.95748401 -0.24308504 1.44539833 62 62 70
-0.95498574 -0.24308504 1.44539833 61 61 69
-0.94844294 -0.24205284 1.43926084 60 60 68
0.17551899 -0.20394792 1.21268666 210 210 214
0.17698182 -0.20322083 1.20836341 210 210 214
-1.05441153 -0.25242776 1.51653659 45 44 49
-1.04015541 -0.24963541 1.49976075 46 45 50
-1.03299248 -0.24853569 1.49315381 46 46 51
-1.03041160 -0.24853569 1.49315381 46 47 51
-1.02332282 -0.24744563 1.48660493 47 47 51
-1.02525008 -0.24853569 1.49315381 47 47 50
-1.01818383 -0.24744563 1.48660493 47 47 50
-1.01784647 -0.24798946 1.48987222 48 48 49
-1.01082814 -0.24690416 1.48335195 50 50 50
-1.00606287 -0.24636507 1.48011315 52 52 51
-1.00350463 -0.24636507 1.48011315 53 53 52
-0.99228019 -0.24423204 1.46729839 56 56 54
-0.98974407 -0.24423204 1.46729839 57 57 57
-0.98507577 -0.24370454 1.46412921 57 57 57
-0.98467183 -0.24423204 1.46729839 55 59 62
-0.97790241 -0.24317932 1.46097374 56 61 66
-0.97119105 -0.24213563 1.45470357 52 56 63
-0.96660244 -0.24161714 1.45158851 52 54 63
-0.96203351 -0.24110086 1.44848680 61 64 72
-0.95748401 -0.24058679 1.44539833 67 69 78
-0.95702630 -0.24110086 1.44848680 59 61 69
-0.95046091 -0.24007490 1.44232309 58 60 68
-0.94595528 -0.23956519 1.43926084 58 60 68
0.17551899 -0.20185189 1.21268666 211 211 215
0.19019121 -0.20185189 1.21268666 210 210 219
0.19160172 -0.20113227 1.20836341 210 210 219
-1.05677569 -0.25036663 1.51993692 46 45 48
-1.04246175 -0.24759096 1.50308609 46 45 48
-1.03527284 -0.24649784 1.49644995 45 45 49
-1.03268623 -0.24649784 1.49644995 45 46 50
-1.02557194 -0.24541433 1.48987222 47 47 51
-1.02525008 -0.24595490 1.49315381 48 48 52
-1.02042162 -0.24541433 1.48987222 49 49 53
-1.01784647 -0.24541433 1.48987222 48 48 52
-1.01082814 -0.24434032 1.48335195 49 49 52
-0.99228019 -0.24169594 1.46729839 56 56 57
-0.98974407 -0.24169594 1.46729839 58 58 58
-0.98720795 -0.24169594 1.46729839 59 59 59
-0.98467183 -0.24169594 1.46729839 58 59 60
-0.97790241 -0.24065414 1.46097374 57 58 60
-0.96660244 -0.23910819 1.45158851 55 59 62
-0.96203351 -0.23859727 1.44848680 57 61 64
-0.95748401 -0.23808853 1.44539833 58 61 69
-0.95702630 -0.23859727 1.44848680 56 59 67
-0.95046091 -0.23758197 1.44232309 57 60 68
0.17583355 -0.20011383 1.21485996 211 211 215
0.17729786 -0.19939914 1.21052110 210 211 215
0.19053206 -0.20011383 1.21485996 211 210 219
0.19194387 -0.19939914 1.21052110 211 210 219
0.21286675 -0.19939914 1.21052110 66 65 76
-1.05677569 -0.24773955 1.51993692 47 46 48
-1.04015541 -0.24445097 1.49976075 47 46 48
-1.03299248 -0.24337409 1.49315381 47 46 48
-1.02525008 -0.24337409 1.49315381 48 48 50
-1.01818383 -0.24230666 1.48660493 50 49 52
-1.01784647 -0.24283922 1.48987222 50 50 52
-1.00862110 -0.24124856 1.48011315 50 49 52
-0.98467183 -0.23915982 1.46729839 56 58 59
-0.96203351 -0.23609369 1.44848680 58 62 63
-0.95748401 -0.23559028 1.44539833 57 60 65
-0.95702630 -0.23609369 1.44848680 57 60 66
-0.95046091 -0.23508902 1.44232309 56 59 65
0.17729786 -0.19730686 1.21052110 212 212 219
0.18003312 -0.19801405 1.21485996 211 211 220
0.18843226 -0.19801405 1.21485996 211 210 219
0.19053206 -0.19801405 1.21485996 211 210 219
0.19228724 -0.19765982 1.21268666 210 210 219
0.19438328 -0.19765982 1.21268666 210 210 219
0.19928835 -0.19836955 1.21704102 210 210 220
0.21286675 -0.19730686 1.21052110 65 65 76
0.21495904 -0.19730686 1.21052110 66 66 77
-1.02299678 -0.24026409 1.48987222 50 49 51
-1.01818383 -0.23973720 1.48660493 50 49 51
-1.01784647 -0.24026409 1.48987222 49 48 50
-0.96203351 -0.23359008 1.44848680 55 59 61
-0.95748401 -0.23309202 1.44539833 59 63 65
-0.95702630 -0.23359008 1.44848680 59 63 65
-0.95046091 -0.23259608 1.44232309 57 60 64
0.17698182 -0.19486660 1.20836341 211 211 218
0.17971106 -0.19556379 1.21268666 212 212 221
0.18180709 -0.19556379 1.21268666 209 208 217
0.18809518 -0.19556379 1.21268666 210 210 219
0.19053206 -0.19591427 1.21485996 210 210 219
0.19194387 -0.19521457 1.21052110 210 210 219
0.19438328 -0.19556379 1.21268666 210 210 219
0.19718480 -0.19626600 1.21704102 208 209 217
0.19893120 -0.19591427 1.21485996 210 212 220
0.20103098 -0.19591427 1.21485996 215 216 230
0.21286675 -0.19521457 1.21052110 66 65 76
0.21495904 -0.19521457 1.21052110 65 64 74
0.21705133 -0.19521457 1.21052110 65 63 73
-1.02525008 -0.23821251 1.49315381 51 50 52
-1.02042162 -0.23768896 1.48987222 51 50 52
-1.01784647 -0.23768896 1.48987222 51 50 52
-0.96616238 -0.23207828 1.45470357 56 60 62
-0.95907563 -0.23158133 1.45158851 65 69 70
0.17698182 -0.19277804 1.20836341 212 212 216
0.17971106 -0.19346777 1.21268666 213 212 221
0.18180709 -0.19346777 1.21268666 211 210 219
0.18357472 -0.19312228 1.21052110 211 210 219
0.18566701 -0.19312228 1.21052110 211 210 219
0.18809518 -0.19346777 1.21268666 210 210 218
0.19053206 -0.19381447 1.21485996 210 210 219
0.19194387 -0.19312228 1.21052110 210 210 219
0.19438328 -0.19346777 1.21268666 210 210 219
0.19718480 -0.19416244 1.21704102 209 209 218
0.19893120 -0.19381447 1.21485996 213 214 223
0.20067136 -0.19346777 1.21268666 216 216 227
0.20240530 -0.19312228 1.21052110 121 120 134
0.20413308 -0.19277804 1.20836341 68 67 81
0.21286675 -0.19312228 1.21052110 69 65 75
0.21495904 -0.19312228 1.21052110 64 62 71
0.21705133 -0.19312228 1.21052110 64 62 71
-1.02751327 -0.23615187 1.49644995 49 48 52
-1.02042162 -0.23511384 1.48987222 50 50 52
-1.01784647 -0.23511384 1.48987222 50 50 52
0.17698182 -0.19068947 1.20836341 210 210 215
0.17971106 -0.19137174 1.21268666 214 213 220
0.18180709 -0.19137174 1.21268666 212 211 218
0.18357472 -0.19103000 1.21052110 212 211 218
0.18566701 -0.19103000 1.21052110 211 210 217
0.18809518 -0.19137174 1.21268666 211 210 217
0.19053206 -0.19171469 1.21485996 211 210 218
0.19194387 -0.19103000 1.21052110 210 210 219
0.19438328 -0.19137174 1.21268666 210 210 219
0.19683142 -0.19171469 1.21485996 208 208 217
0.19893120 -0.19171469 1.21485996 214 214 223
0.20067136 -0.19137174 1.21268666 211 214 224
0.20240530 -0.19103000 1.21052110 129 129 142
0.20449761 -0.19103000 1.21052110 69 68 82
0.20585468 -0.19035017 1.20621324 77 75 91
0.21286675 -0.19103000 1.21052110 72 70 81
0.21495904 -0.19103000 1.21052110 71 70 79
0.21705133 -0.19103000 1.21052110 65 64 74
-1.02751327 -0.23356538 1.49644995 48 47 53
0.17729786 -0.18893771 1.21052110 210 209 217
0.18003312 -0.18961491 1.21485996 212 211 220
0.18213291 -0.18961491 1.21485996 215 214 223
0.18390311 -0.18927570 1.21268666 214 213 222
0.18599916 -0.18927570 1.21268666 213 212 221
0.18843226 -0.18961491 1.21485996 210 210 219
0.19053206 -0.18961491 1.21485996 210 210 219
0.19228724 -0.18927570 1.21268666 210 210 219
0.19438328 -0.18927570 1.21268666 210 210 219
0.19718480 -0.18995532 1.21704102 210 209 218
0.19893120 -0.18961491 1.21485996 215 215 224
0.20103098 -0.18961491 1.21485996 213 214 223
0.20276740 -0.18927570 1.21268666 134 134 147
0.20449761 -0.18893771 1.21052110 60 59 75
0.20622164 -0.18860093 1.20836341 72 71 87
0.20905548 -0.18927570 1.21268666 74 72 87
0.21077447 -0.18893771 1.21052110 74 72 85
0.21286675 -0.18893771 1.21052110 73 73 83
0.21457587 -0.18860093 1.20836341 67 66 75
0.21705133 -0.18893771 1.21052110 70 70 78
-1.02978659 -0.23148990 1.49976075 49 48 55
0.17729786 -0.18684542 1.21052110 211 210 219
0.18035634 -0.18785177 1.21704102 209 208 217
0.18245989 -0.18785177 1.21704102 215 214 223
0.18423270 -0.18751512 1.21485996 216 215 223
0.18633248 -0.18751512 1.21485996 214 213 221
0.18843226 -0.18751512 1.21485996 211 210 218
0.19087413 -0.18785177 1.21704102 211 210 218
0.19263184 -0.18751512 1.21485996 210 210 219
0.19473162 -0.18751512 1.21485996 212 211 220
0.19718480 -0.18785177 1.21704102 209 209 218
0.19928835 -0.18785177 1.21704102 209 209 218
0.20103098 -0.18751512 1.21485996 214 214 223
0.20276740 -0.18717967 1.21268666 134 134 144
0.20449761 -0.18684542 1.21052110 63 63 74
0.20622164 -0.18651237 1.20836341 67 66 81
0.20905548 -0.18717967 1.21268666 72 72 83
0.21115151 -0.18717967 1.21268666 71 71 80
0.21286675 -0.18684542 1.21052110 67 67 76
0.21495904 -0.18684542 1.21052110 71 71 78
0.21705133 -0.18684542 1.21052110 61 60 67
0.09867192 -0.18641758 1.22142673 75 79 87
0.10481647 -0.18608229 1.21922994 80 80 89
0.10711647 -0.18641758 1.22142673 79 79 88
0.13389766 -0.18845493 1.23477566 214 214 223
0.13603187 -0.18845493 1.23477566 214 214 223
0.13867126 -0.18914397 1.23929036 215 215 224
0.14055631 -0.18879882 1.23702896 217 217 221
0.17729786 -0.18475313 1.21052110 213 213 219
0.18035634 -0.18574822 1.21704102 214 214 220
0.18245989 -0.18574822 1.21704102 215 215 221
0.18423270 -0.18541533 1.21485996 215 215 220
0.18633248 -0.18541533 1.21485996 213 213 218
0.18877056 -0.18574822 1.21704102 211 211 216
0.19087413 -0.18574822 1.21704102 210 211 216
0.19263184 -0.18541533 1.21485996 210 210 217
0.19473162 -0.18541533 1.21485996 212 212 218
0.19718480 -0.18574822 1.21704102 213 213 219
0.19928835 -0.18574822 1.21704102 214 214 219
0.20103098 -0.18541533 1.21485996 212 213 219
0.20276740 -0.18508364 1.21268666 134 135 143
0.20449761 -0.18475313 1.21052110 73 73 84
0.20622164 -0.18442380 1.20836341 70 68 86
0.20905548 -0.18508364 1.21268666 62 60 76
0.21115151 -0.18508364 1.21268666 61 60 74
0.21324755 -0.18508364 1.21268666 73 72 86
0.21495904 -0.18475313 1.21052110 80 78 92
0.21705133 -0.18475313 1.21052110 90 88 102
0.09867192 -0.18430644 1.22142673 63 65 81
0.10289419 -0.18430644 1.22142673 70 70 81
0.10500533 -0.18430644 1.22142673 66 70 78
0.10730983 -0.18463913 1.22363150 67 71 80
0.13176344 -0.18632072 1.23477566 212 214 220
0.13389766 -0.18632072 1.23477566 218 217 224
0.13603187 -0.18632072 1.23477566 218 218 224
0.13867126 -0.18700196 1.23929036 219 219 224
0.14055631 -0.18666072 1.23702896 219 220 224
0.14243449 -0.18632072 1.23477566 216 218 222
0.17729786 -0.18266085 1.21052110 181 183 188
0.18035634 -0.18364465 1.21704102 189 190 194
0.18245989 -0.18364465 1.21704102 199 200 202
0.18423270 -0.18331555 1.21485996 209 210 212
0.18633248 -0.18331555 1.21485996 203 204 206
0.18877056 -0.18364465 1.21704102 187 188 190
0.19087413 -0.18364465 1.21704102 176 177 180
0.19263184 -0.18331555 1.21485996 163 167 170
0.19473162 -0.18331555 1.21485996 157 160 163
0.19718480 -0.18364465 1.21704102 151 154 157
0.19928835 -0.18364465 1.21704102 151 156 156
0.20103098 -0.18331555 1.21485996 160 164 165
0.20313078 -0.18331555 1.21485996 175 177 186
0.20486343 -0.18298762 1.21268666 188 186 204
0.20658989 -0.18266085 1.21052110 189 188 205
0.20905548 -0.18298762 1.21268666 190 190 203
0.21115151 -0.18298762 1.21268666 193 192 204
0.21324755 -0.18298762 1.21268666 195 196 207
0.21495904 -0.18266085 1.21052110 199 201 209
0.21743961 -0.18298762 1.21268666 203 206 213
0.09885003 -0.18252417 1.22363150 156 154 174
0.10289419 -0.18219531 1.22142673 164 163 172
0.10500533 -0.18219531 1.22142673 169 168 176
0.10730983 -0.18252417 1.22363150 172 172 180
0.10942477 -0.18252417 1.22363150 175 175 188
0.12513289 -0.18385163 1.23253059 162 162 169
0.12939355 -0.18385163 1.23253059 146 145 151
0.13200389 -0.18452261 1.23702896 134 133 138
0.13414200 -0.18452261 1.23702896 128 125 129
0.13628010 -0.18452261 1.23702896 123 120 125
0.13867126 -0.18485995 1.23929036 118 114 119
0.14081328 -0.18485995 1.23929036 114 115 119
0.14269441 -0.18452261 1.23702896 151 154 157
0.14483252 -0.18452261 1.23702896 202 205 209
0.18035634 -0.18154110 1.21704102 39 39 48
0.18245989 -0.18154110 1.21704102 44 44 52
0.18423270 -0.18121576 1.21485996 47 47 54
0.18633248 -0.18121576 1.21485996 51 52 56
0.18877056 -0.18154110 1.21704102 56 56 60
0.19087413 -0.18154110 1.21704102 54 55 58
0.19263184 -0.18121576 1.21485996 46 49 55
0.19473162 -0.18121576 1.21485996 29 32 37
0.19718480 -0.18154110 1.21704102 21 25 33
0.19893120 -0.18121576 1.21485996 25 29 42
0.20103098 -0.18121576 1.21485996 40 42 55
0.20905548 -0.18089157 1.21268666 213 214 221
0.21743961 -0.18089157 1.21268666 209 213 217
0.09885003 -0.18040922 1.22363150 223 224 228
0.10114755 -0.18073547 1.22584414 222 223 227
0.10307993 -0.18040922 1.22363150 220 221 226
0.10519487 -0.18040922 1.22363150 218 219 225
0.10750388 -0.18073547 1.22584414 217 217 224
0.10962264 -0.18073547 1.22584414 220 220 227
0.11174142 -0.18073547 1.22584414 157 157 162
0.11874191 -0.18172130 1.23253059 57 56 65
0.12087224 -0.18172130 1.23253059 58 58 66
0.12300256 -0.18172130 1.23253059 58 57 66
0.12513289 -0.18172130 1.23253059 54 53 61
0.12749504 -0.18205230 1.23477566 52 50 59
0.12962924 -0.18205230 1.23477566 51 49 58
0.13200389 -0.18238451 1.23702896 48 46 53
0.13414200 -0.18238451 1.23702896 54 51 56
0.13628010 -0.18238451 1.23702896 57 54 59
0.13867126 -0.18271793 1.23929036 60 57 63
0.14081328 -0.18271793 1.23929036 55 55 63
0.14269441 -0.18238451 1.23702896 117 119 128
0.14509730 -0.18271793 1.23929036 224 227 236
0.14697063 -0.18238451 1.23702896 217 218 220
0.18245989 -0.17943755 1.21704102 71 71 79
0.18423270 -0.17911597 1.21485996 70 68 77
0.18633248 -0.17911597 1.21485996 74 72 81
0.18877056 -0.17943755 1.21704102 76 74 82
0.19087413 -0.17943755 1.21704102 75 73 80
0.19228724 -0.17879555 1.21268666 80 77 90
0.19473162 -0.17911597 1.21485996 71 73 87
0.19683142 -0.17911597 1.21485996 72 74 90
0.19893120 -0.17911597 1.21485996 66 68 87
0.20103098 -0.17911597 1.21485996 34 36 47
0.20905548 -0.17879555 1.21268666 208 209 214
0.21115151 -0.17879555 1.21268666 209 209 216
0.09902878 -0.17861669 1.22584414 215 215 225
0.10769863 -0.17894027 1.22806489 214 214 222
0.10982124 -0.17894027 1.22806489 218 220 226
0.11194385 -0.17894027 1.22806489 153 153 160
0.11406646 -0.17894027 1.22806489 64 65 72
0.11895819 -0.17991808 1.23477566 75 74 85
0.12109240 -0.17991808 1.23477566 72 71 85
0.12300256 -0.17959097 1.23253059 76 73 91
0.12536082 -0.17991808 1.23477566 71 70 81
0.12749504 -0.17991808 1.23477566 81 80 91
0.12962924 -0.17991808 1.23477566 83 81 92
0.13200389 -0.18024640 1.23702896 82 81 90
0.13414200 -0.18024640 1.23702896 84 83 91
0.13628010 -0.18024640 1.23702896 83 82 91
0.13867126 -0.18057592 1.23929036 82 82 92
0.14081328 -0.18057592 1.23929036 63 65 75
0.14269441 -0.18024640 1.23702896 116 117 128
0.14509730 -0.18057592 1.23929036 219 219 230
0.18633248 -0.17701618 1.21485996 72 69 83
0.18877056 -0.17733398 1.21704102 67 64 78
0.19087413 -0.17733398 1.21704102 67 65 78
0.19228724 -0.17669952 1.21268666 68 65 84
0.19893120 -0.17701618 1.21485996 63 66 77
0.20067136 -0.17669952 1.21268666 48 48 55
0.11427347 -0.17713857 1.23029375 66 66 76
0.11661158 -0.17746064 1.23253059 80 78 97
0.11895819 -0.17778388 1.23477566 77 75 93
0.12109240 -0.17778388 1.23477566 76 74 92
0.12322661 -0.17778388 1.23477566 76 73 91
0.12558958 -0.17810830 1.23702896 76 75 87
0.12772769 -0.17810830 1.23702896 77 76 89
0.12986580 -0.17810830 1.23702896 77 76 89
0.13224521 -0.17843391 1.23929036 77 76 89
0.13438722 -0.17843391 1.23929036 78 78 89
0.13652924 -0.17843391 1.23929036 79 79 90
0.13892524 -0.17876071 1.24156010 80 80 91
0.14107117 -0.17876071 1.24156010 63 65 80
0.15552305 -0.17810830 1.23702896 213 216 226
0.15794937 -0.17843391 1.23929036 214 216 226
0.18633248 -0.17491640 1.21485996 69 67 79
0.18877056 -0.17523043 1.21704102 67 65 79
0.19087413 -0.17523043 1.21704102 68 66 80
0.19228724 -0.17460349 1.21268666 70 69 83
0.19857533 -0.17460349 1.21268666 64 65 75
0.20031302 -0.17429170 1.21052110 59 60 66
0.11682398 -0.17564967 1.23477566 84 83 96
0.11917527 -0.17597020 1.23702896 79 78 92
0.12131337 -0.17597020 1.23702896 77 75 90
0.12322661 -0.17564967 1.23477566 77 75 91
0.12558958 -0.17597020 1.23702896 75 74 88
0.12772769 -0.17597020 1.23702896 75 74 88
0.12986580 -0.17597020 1.23702896 75 74 88
0.13248743 -0.17661478 1.24156010 77 76 88
0.13463336 -0.17661478 1.24156010 78 78 89
0.13652924 -0.17629190 1.23929036 77 77 88
0.13892524 -0.17661478 1.24156010 75 76 86
0.14107117 -0.17661478 1.24156010 69 71 85
0.15394679 -0.17661478 1.24156010 215 215 224
0.15580736 -0.17629190 1.23929036 215 215 224
0.15794937 -0.17629190 1.23929036 216 216 225
0.16038460 -0.17661478 1.24156010 215 215 224
0.18666701 -0.17312688 1.21704102 65 68 78
0.18877056 -0.17312688 1.21704102 64 67 77
0.19087413 -0.17312688 1.21704102 65 68 78
0.19263184 -0.17281660 1.21485996 65 68 78
0.19857533 -0.17250745 1.21268666 64 67 75
0.20031302 -0.17219941 1.21052110 58 61 65
0.12153515 -0.17414989 1.23929036 79 76 95
0.12345148 -0.17383209 1.23702896 77 74 93
0.12558958 -0.17383209 1.23702896 77 75 91
0.12796119 -0.17414989 1.23929036 76 74 91
0.13010320 -0.17414989 1.23929036 76 74 91
0.13248743 -0.17446885 1.24156010 75 74 89
0.13463336 -0.17446885 1.24156010 76 75 89
0.13652924 -0.17414989 1.23929036 75 74 87
0.13892524 -0.17446885 1.24156010 77 77 86
0.14107117 -0.17446885 1.24156010 72 74 86
0.15180086 -0.17446885 1.24156010 214 216 226
0.15394679 -0.17446885 1.24156010 212 212 221
0.15609272 -0.17446885 1.24156010 215 215 224
0.15823866 -0.17446885 1.24156010 214 214 223
0.16067888 -0.17478897 1.24383819 214 214 223
0.18666701 -0.17102331 1.21704102 65 67 77
0.18877056 -0.17102331 1.21704102 64 66 75
0.19087413 -0.17102331 1.21704102 64 67 76
0.19263184 -0.17071682 1.21485996 64 67 76
0.12345148 -0.17169398 1.23702896 75 75 95
0.12581918 -0.17200787 1.23929036 79 77 94
0.12796119 -0.17200787 1.23929036 75 74 91
0.13010320 -0.17200787 1.23929036 75 74 90
0.13248743 -0.17232290 1.24156010 75 74 90
0.13463336 -0.17232290 1.24156010 74 73 88
0.13652924 -0.17200787 1.23929036 75 74 88
0.13892524 -0.17232290 1.24156010 74 73 87
0.14107117 -0.17232290 1.24156010 56 55 69
0.14562976 -0.17263909 1.24383819 213 216 224
0.15180086 -0.17232290 1.24156010 213 216 224
0.15394679 -0.17232290 1.24156010 209 212 220
0.15609272 -0.17232290 1.24156010 210 211 219
0.15823866 -0.17232290 1.24156010 212 212 221
0.12367716 -0.16986586 1.23929036 76 76 86
0.12581918 -0.16986586 1.23929036 75 75 86
0.12796119 -0.16986586 1.23929036 74 74 85
0.13034149 -0.17017697 1.24156010 74 73 86
0.13248743 -0.17017697 1.24156010 72 73 88
0.13463336 -0.17017697 1.24156010 73 73 88
0.13652924 -0.16986586 1.23929036 74 74 88
0.13892524 -0.17017697 1.24156010 73 72 86
0.14107117 -0.17017697 1.24156010 57 56 68
0.14321710 -0.17017697 1.24156010 104 104 115
0.14562976 -0.17048922 1.24383819 214 217 227
0.14750898 -0.17017697 1.24156010 208 211 219
0.14965491 -0.17017697 1.24156010 211 214 222
0.15180086 -0.17017697 1.24156010 209 212 220
0.15394679 -0.17017697 1.24156010 210 213 221
0.15580736 -0.16986586 1.23929036 212 214 222
0.15823866 -0.17017697 1.24156010 212 214 222
0.16097425 -0.17080262 1.24612474 211 213 221
0.12153515 -0.16772385 1.23929036 78 78 87
0.12345148 -0.16741778 1.23702896 76 76 85
0.12581918 -0.16772385 1.23929036 73 73 84
0.12796119 -0.16772385 1.23929036 73 73 85
0.13010320 -0.16772385 1.23929036 73 72 85
0.13248743 -0.16803104 1.24156010 72 71 87
0.13463336 -0.16803104 1.24156010 72 71 87
0.13652924 -0.16772385 1.23929036 75 74 90
0.13892524 -0.16803104 1.24156010 75 74 90
0.14107117 -0.16803104 1.24156010 54 55 67
0.14321710 -0.16803104 1.24156010 96 99 109
0.14562976 -0.16833934 1.24383819 215 220 229
0.14750898 -0.16803104 1.24156010 207 212 221
0.14938132 -0.16772385 1.23929036 209 213 222
0.15180086 -0.16803104 1.24156010 207 210 218
0.15394679 -0.16803104 1.24156010 210 213 221
0.15580736 -0.16772385 1.23929036 211 214 222
0.15823866 -0.16803104 1.24156010 210 213 221
0.16097425 -0.16864879 1.24612474 212 212 221
0.16342849 -0.16895938 1.24841964 211 211 219
0.11939314 -0.16558184 1.23929036 75 76 85
0.12153515 -0.16558184 1.23929036 74 74 84
0.12345148 -0.16527967 1.23702896 73 72 85
0.12558958 -0.16527967 1.23702896 74 72 86
0.12796119 -0.16558184 1.23929036 75 73 87
0.13010320 -0.16558184 1.23929036 73 71 85
0.13248743 -0.16588509 1.24156010 72 71 85
0.13438722 -0.16558184 1.23929036 72 71 86
0.13652924 -0.16558184 1.23929036 74 73 89
0.13892524 -0.16588509 1.24156010 76 75 88
0.14107117 -0.16588509 1.24156010 58 59 70
0.14321710 -0.16588509 1.24156010 97 99 108
0.14536305 -0.16588509 1.24156010 215 220 229
0.14750898 -0.16588509 1.24156010 207 212 221
0.14938132 -0.16558184 1.23929036 209 214 223
0.15207939 -0.16618948 1.24383819 207 212 221
0.15422925 -0.16618948 1.24383819 214 214 223
0.15609272 -0.16588509 1.24156010 212 212 221
0.15852900 -0.16618948 1.24383819 211 211 220
0.16097425 -0.16649497 1.24612474 211 211 219
0.11939314 -0.16343983 1.23929036 72 72 82
0.12153515 -0.16343983 1.23929036 73 73 84
0.12345148 -0.16314156 1.23702896 74 73 84
0.12558958 -0.16314156 1.23702896 73 73 84
0.12796119 -0.16343983 1.23929036 73 73 84
0.13010320 -0.16343983 1.23929036 69 68 82
0.13248743 -0.16373916 1.24156010 69 68 83
0.13438722 -0.16343983 1.23929036 70 69 83
0.13652924 -0.16343983 1.23929036 73 72 84
0.13892524 -0.16373916 1.24156010 75 74 85
0.14107117 -0.16373916 1.24156010 59 61 70
0.14321710 -0.16373916 1.24156010 92 95 103
0.14562976 -0.16403960 1.24383819 216 218 227
0.14750898 -0.16373916 1.24156010 211 214 222
0.14938132 -0.16343983 1.23929036 210 212 221
0.15207939 -0.16403960 1.24383819 209 211 219
0.15422925 -0.16403960 1.24383819 212 212 221
0.15609272 -0.16373916 1.24156010 210 210 219
0.15852900 -0.16403960 1.24383819 210 210 219
0.16097425 -0.16434114 1.24612474 210 210 219
0.16342849 -0.16464379 1.24841964 209 209 218
0.11961181 -0.16159323 1.24156010 76 75 89
0.12175775 -0.16159323 1.24156010 74 72 87
0.12367716 -0.16129781 1.23929036 73 72 86
0.12558958 -0.16100347 1.23702896 73 72 85
0.12796119 -0.16129781 1.23929036 72 71 85
0.13034149 -0.16159323 1.24156010 72 71 85
0.13248743 -0.16159323 1.24156010 73 72 86
0.13438722 -0.16129781 1.23929036 74 73 86
0.13652924 -0.16129781 1.23929036 74 74 84
0.13892524 -0.16159323 1.24156010 75 75 86
0.14107117 -0.16159323 1.24156010 59 60 70
0.14321710 -0.16159323 1.24156010 96 98 106
0.14562976 -0.16188972 1.24383819 219 219 227
0.14750898 -0.16159323 1.24156010 214 214 223
0.14965491 -0.16159323 1.24156010 210 210 219
0.15207939 -0.16188972 1.24383819 210 210 219
0.15422925 -0.16188972 1.24383819 210 210 219
0.15609272 -0.16159323 1.24156010 210 210 219
0.15852900 -0.16188972 1.24383819 210 210 219
0.16097425 -0.16218732 1.24612474 210 210 219
0.16312806 -0.16218732 1.24612474 210 210 219
0.16467647 -0.16159323 1.24156010 210 210 219
0.16682240 -0.16159323 1.24156010 209 209 218
0.16896833 -0.16159323 1.24156010 209 209 218
0.11703716 -0.15886536 1.23702896 69 67 85
0.11961181 -0.15944728 1.24156010 74 72 91
0.12175775 -0.15944728 1.24156010 74 72 91
0.12367716 -0.15915579 1.23929036 78 78 88
0.12558958 -0.15886536 1.23702896 75 75 85
0.12796119 -0.15915579 1.23929036 73 73 84
0.13034149 -0.15944728 1.24156010 74 73 85
0.13248743 -0.15944728 1.24156010 70 69 81
0.13438722 -0.15915579 1.23929036 67 65 77
0.13652924 -0.15915579 1.23929036 67 67 77
0.13918014 -0.15973985 1.24383819 74 73 82
0.14107117 -0.15944728 1.24156010 58 58 67
0.14321710 -0.15944728 1.24156010 99 99 108
0.14562976 -0.15973985 1.24383819 219 219 226
0.14777964 -0.15973985 1.24383819 211 211 218
0.14965491 -0.15944728 1.24156010 210 210 217
0.15207939 -0.15973985 1.24383819 210 210 219
0.15422925 -0.15973985 1.24383819 210 210 219
0.15609272 -0.15944728 1.24156010 210 210 219
0.15852900 -0.15973985 1.24383819 210 210 218
0.16097425 -0.16003349 1.24612474 209 209 217
0.16312806 -0.16003349 1.24612474 210 210 217
0.16467647 -0.15944728 1.24156010 209 209 216
0.16682240 -0.15944728 1.24156010 209 209 218
0.16896833 -0.15944728 1.24156010 209 209 218
0.11703716 -0.15672725 1.23702896 57 55 74
0.11961181 -0.15730135 1.24156010 55 53 72
0.12175775 -0.15730135 1.24156010 54 52 71
0.12367716 -0.15701377 1.23929036 59 57 76
0.12558958 -0.15672725 1.23702896 71 70 85
0.12796119 -0.15701377 1.23929036 69 68 81
0.13034149 -0.15730135 1.24156010 62 61 76
0.13248743 -0.15730135 1.24156010 62 60 77
0.13438722 -0.15701377 1.23929036 64 61 79
0.13652924 -0.15701377 1.23929036 62 60 78
0.13918014 -0.15758997 1.24383819 67 65 84
0.14107117 -0.15730135 1.24156010 68 68 83
0.14347988 -0.15758997 1.24383819 108 110 119
0.14562976 -0.15758997 1.24383819 218 218 227
0.14777964 -0.15758997 1.24383819 214 214 222
0.14965491 -0.15730135 1.24156010 215 215 222
0.15207939 -0.15758997 1.24383819 215 215 223
0.15422925 -0.15758997 1.24383819 214 214 222
0.15609272 -0.15730135 1.24156010 214 214 222
0.15852900 -0.15758997 1.24383819 215 215 222
0.16097425 -0.15787967 1.24612474 215 216 220
0.16312806 -0.15787967 1.24612474 212 213 218
0.16467647 -0.15730135 1.24156010 213 213 220
0.16682240 -0.15730135 1.24156010 213 213 220
0.16927837 -0.15758997 1.24383819 215 215 222
-0.08248224 -0.10791701 0.86355650 66 65 74
-0.07830373 -0.10833102 0.86686939 65 64 71
-0.07670733 -0.10819267 0.86576223 65 65 72
0.11725113 -0.15487176 1.23929036 133 132 148
0.11961181 -0.15515542 1.24156010 134 132 150
0.12175775 -0.15515542 1.24156010 136 136 153
0.12367716 -0.15487176 1.23929036 136 137 148
0.12558958 -0.15458915 1.23702896 133 136 145
0.12796119 -0.15487176 1.23929036 135 137 146
0.13034149 -0.15515542 1.24156010 136 139 149
0.13248743 -0.15515542 1.24156010 136 138 151
0.13438722 -0.15487176 1.23929036 138 140 154
0.13652924 -0.15487176 1.23929036 141 142 159
0.13918014 -0.15544011 1.24383819 148 149 166
0.14107117 -0.15515542 1.24156010 154 157 171
0.14321710 -0.15515542 1.24156010 165 170 178
0.14562976 -0.15544011 1.24383819 178 178 187
0.14750898 -0.15515542 1.24156010 168 168 177
0.14938132 -0.15487176 1.23929036 172 172 181
0.15207939 -0.15544011 1.24383819 172 172 179
0.15422925 -0.15544011 1.24383819 168 169 174
0.15609272 -0.15515542 1.24156010 157 158 163
0.15852900 -0.15544011 1.24383819 153 152 158
0.16067888 -0.15544011 1.24383819 148 147 153
0.16312806 -0.15572584 1.24612474 136 136 143
0.16467647 -0.15515542 1.24156010 131 134 141
0.16682240 -0.15515542 1.24156010 135 137 145
0.16896833 -0.15515542 1.24156010 132 135 142
-0.08451313 -0.10710663 0.86909211 66 65 72
-0.08269292 -0.10669626 0.86576223 63 62 70
-0.08119652 -0.10669626 0.86576223 71 69 80
-0.07970013 -0.10669626 0.86576223 66 64 74
-0.07830373 -0.10683271 0.86686939 65 64 73
-0.07670733 -0.10669626 0.86576223 66 65 74
-0.07540353 -0.10696950 0.86797929 67 66 73
-0.07390329 -0.10696950 0.86797929 68 67 74
-0.07231048 -0.10683271 0.86686939 66 65 72
-0.07090283 -0.10696950 0.86797929 65 64 70
0.11961181 -0.15300947 1.24156010 217 217 225
0.12175775 -0.15300947 1.24156010 220 223 231
0.12367716 -0.15272975 1.23929036 221 225 228
0.12558958 -0.15245105 1.23702896 222 226 229
0.12796119 -0.15272975 1.23929036 220 223 227
0.13034149 -0.15300947 1.24156010 218 219 228
0.13273051 -0.15329023 1.24383819 216 217 227
0.13438722 -0.15272975 1.23929036 215 216 226
0.13652924 -0.15272975 1.23929036 215 215 227
0.13918014 -0.15329023 1.24383819 213 213 225
0.14133002 -0.15329023 1.24383819 215 215 226
0.14347988 -0.15329023 1.24383819 202 202 211
0.14562976 -0.15329023 1.24383819 102 102 111
0.14777964 -0.15329023 1.24383819 50 49 59
0.14965491 -0.15300947 1.24156010 49 48 58
0.15207939 -0.15329023 1.24383819 48 46 58
0.15422925 -0.15329023 1.24383819 51 49 62
0.15609272 -0.15300947 1.24156010 55 52 66
0.15852900 -0.15329023 1.24383819 58 56 69
0.16097425 -0.15357201 1.24612474 56 55 64
0.16497862 -0.15329023 1.24383819 41 44 52
0.16927837 -0.15329023 1.24383819 39 42 55
-0.08462162 -0.10574004 0.87020773 67 65 72
-0.08279867 -0.10533439 0.86686939 66 65 72
-0.08130036 -0.10533439 0.86686939 66 65 75
-0.07980204 -0.10533439 0.86686939 65 64 73
-0.07830373 -0.10533439 0.86686939 67 65 73
-0.07680541 -0.10533439 0.86686939 66 66 72
-0.07540353 -0.10546926 0.86797929 66 66 71
-0.07390329 -0.10546926 0.86797929 67 66 72
-0.07240306 -0.10546926 0.86797929 66 65 71
-0.07090283 -0.10546926 0.86797929 65 65 69
-0.06949157 -0.10560448 0.86909211 64 64 68
-0.06790236 -0.10546926 0.86797929 64 64 68
-0.06640214 -0.10546926 0.86797929 64 64 68
-0.06448904 -0.10479834 0.86245781 65 65 69
0.11489906 -0.15031295 1.23702896 215 215 224
0.11725113 -0.15058774 1.23929036 212 212 219
0.11961181 -0.15086354 1.24156010 210 211 216
0.12175775 -0.15086354 1.24156010 209 211 217
0.12367716 -0.15058774 1.23929036 209 211 214
0.12558958 -0.15031295 1.23702896 213 215 219
0.12796119 -0.15058774 1.23929036 209 212 218
0.13034149 -0.15086354 1.24156010 210 210 219
0.13273051 -0.15114036 1.24383819 212 212 221
0.13463336 -0.15086354 1.24156010 212 212 221
0.13677929 -0.15086354 1.24156010 211 211 220
0.13943599 -0.15141819 1.24612474 212 212 221
0.14133002 -0.15114036 1.24383819 211 211 220
0.14374363 -0.15141819 1.24612474 205 205 214
0.14589746 -0.15141819 1.24612474 94 93 102
0.14805129 -0.15141819 1.24612474 62 61 71
0.14992951 -0.15114036 1.24383819 65 63 76
0.15235893 -0.15141819 1.24612474 70 67 88
0.15422925 -0.15114036 1.24383819 72 69 91
0.15637913 -0.15114036 1.24383819 68 65 88
0.15882042 -0.15141819 1.24612474 71 68 87
0.16097425 -0.15141819 1.24612474 79 80 94
0.16342849 -0.15169704 1.24841964 70 72 85
0.16528189 -0.15141819 1.24612474 70 72 85
0.16743572 -0.15141819 1.24612474 67 70 91
0.16927837 -0.15114036 1.24383819 67 68 89
-0.08301097 -0.10410232 0.86909211 64 63 70
-0.08140446 -0.10396903 0.86797929 65 64 72
-0.07980204 -0.10383607 0.86686939 65 64 70
-0.07840399 -0.10396903 0.86797929 65 65 69
-0.07680541 -0.10383607 0.86686939 65 65 69
-0.07550020 -0.10410232 0.86909211 65 65 69
-0.07399804 -0.10410232 0.86909211 65 65 69
-0.07249589 -0.10410232 0.86909211 65 65 69
-0.07099373 -0.10410232 0.86909211 64 64 68
-0.06958078 -0.10423596 0.87020773 64 64 68
-0.06798942 -0.10410232 0.86909211 64 64 68
-0.06648727 -0.10410232 0.86909211 64 64 68
-0.06457119 -0.10343925 0.86355650 64 64 68
0.11510912 -0.14844573 1.23929036 215 215 224
0.11725113 -0.14844573 1.23929036 209 209 218
0.11961181 -0.14871761 1.24156010 210 210 219
0.12175775 -0.14871761 1.24156010 212 212 221
0.12390368 -0.14871761 1.24156010 212 212 219
0.12581918 -0.14844573 1.23929036 209 210 217
0.12819555 -0.14871761 1.24156010 208 211 219
0.13058065 -0.14899048 1.24383819 212 212 221
0.13297451 -0.14926437 1.24612474 212 213 222
0.13463336 -0.14871761 1.24156010 212 212 221
0.13677929 -0.14871761 1.24156010 214 216 223
0.13943599 -0.14926437 1.24612474 213 214 222
0.14158982 -0.14926437 1.24612474 213 214 222
0.14400835 -0.14953925 1.24841964 202 204 212
0.14616615 -0.14953925 1.24841964 99 102 112
0.14832394 -0.14953925 1.24841964 56 58 71
0.14992951 -0.14899048 1.24383819 68 69 88
0.15235893 -0.14926437 1.24612474 70 68 92
0.15451276 -0.14926437 1.24612474 70 68 92
0.15637913 -0.14899048 1.24383819 70 68 92
0.15882042 -0.14926437 1.24612474 69 66 87
0.16097425 -0.14926437 1.24612474 71 70 86
0.16342849 -0.14953925 1.24841964 71 70 85
0.16528189 -0.14926437 1.24612474 72 71 87
0.16743572 -0.14926437 1.24612474 71 72 90
0.16927837 -0.14899048 1.24383819 72 72 91
-0.07959846 -0.10207670 0.86465794 65 64 70
-0.07670733 -0.10220706 0.86576223 64 64 67
-0.07540353 -0.10246880 0.86797929 64 63 67
-0.07390329 -0.10246880 0.86797929 65 64 67
-0.07249589 -0.10260017 0.86909211 66 64 67
-0.07099373 -0.10260017 0.86909211 64 63 67
-0.06958078 -0.10273188 0.87020773 65 65 69
-0.06798942 -0.10260017 0.86909211 66 65 69
-0.06640214 -0.10246880 0.86797929 64 63 70
-0.06457119 -0.10194667 0.86355650 64 64 69
-0.06315906 -0.10207670 0.86465794 64 64 68
-0.06166457 -0.10207670 0.86465794 63 63 67
0.11725113 -0.14630371 1.23929036 211 211 220
0.11983128 -0.14684060 1.24383819 212 212 221
0.12198115 -0.14684060 1.24383819 213 213 222
0.12390368 -0.14657167 1.24156010 213 213 222
0.12581918 -0.14630371 1.23929036 213 213 222
0.12819555 -0.14657167 1.24156010 212 214 222
0.13058065 -0.14684060 1.24383819 213 216 224
0.13297451 -0.14711054 1.24612474 209 212 220
0.13488039 -0.14684060 1.24383819 212 214 222
0.13703027 -0.14684060 1.24383819 212 215 223
0.13969278 -0.14738145 1.24841964 213 216 224
0.14185056 -0.14738145 1.24841964 212 215 223
0.14427406 -0.14765339 1.25072300 202 205 214
0.14616615 -0.14738145 1.24841964 94 97 107
0.14859760 -0.14765339 1.25072300 63 66 80
0.15020512 -0.14711054 1.24612474 72 72 99
0.15263952 -0.14738145 1.24841964 70 70 97
0.15451276 -0.14711054 1.24612474 70 69 96
0.15666659 -0.14711054 1.24612474 68 68 95
0.15911290 -0.14738145 1.24841964 67 65 88
0.16127069 -0.14738145 1.24841964 70 67 89
0.16342849 -0.14738145 1.24841964 71 68 89
0.16528189 -0.14711054 1.24612474 71 69 89
0.16743572 -0.14711054 1.24612474 72 71 91
0.16927837 -0.14684060 1.24383819 73 72 91
-0.07949707 -0.10045408 0.86355650 63 62 69
-0.07810397 -0.10058220 0.86465794 63 63 67
-0.07670733 -0.10071067 0.86576223 64 62 67
-0.07530710 -0.10083945 0.86686939 64 61 67
-0.07390329 -0.10096857 0.86797929 65 60 68
-0.07240306 -0.10096857 0.86797929 67 62 70
-0.07099373 -0.10109802 0.86909211 66 63 69
-0.06958078 -0.10122779 0.87020773 66 65 69
-0.06798942 -0.10109802 0.86909211 65 63 70
-0.06640214 -0.10096857 0.86797929 64 63 70
-0.06465355 -0.10058220 0.86465794 64 63 71
-0.06323972 -0.10071067 0.86576223 64 63 72
-0.06174333 -0.10071067 0.86576223 64 63 72
0.11961181 -0.14442573 1.24156010 214 214 223
0.12175775 -0.14442573 1.24156010 214 214 223
0.12390368 -0.14442573 1.24156010 214 214 223
0.12558958 -0.14389864 1.23702896 214 214 223
0.12819555 -0.14442573 1.24156010 212 215 223
0.13058065 -0.14469074 1.24383819 214 217 225
0.13297451 -0.14495671 1.24612474 213 216 224
0.13488039 -0.14469074 1.24383819 212 215 223
0.13703027 -0.14469074 1.24383819 212 215 223
0.13969278 -0.14522366 1.24841964 212 215 223
0.14211228 -0.14549160 1.25072300 213 216 224
0.14454074 -0.14576054 1.25303483 205 208 216
0.14643583 -0.14549160 1.25072300 97 98 108
0.14859760 -0.14549160 1.25072300 60 60 74
0.15020512 -0.14495671 1.24612474 71 72 94
0.15263952 -0.14522366 1.24841964 71 71 96
0.15479732 -0.14522366 1.24841964 70 69 94
0.15666659 -0.14495671 1.24612474 69 67 91
0.15911290 -0.14522366 1.24841964 67 65 87
0.16127069 -0.14522366 1.24841964 67 65 86
0.16342849 -0.14522366 1.24841964 69 66 87
0.16528189 -0.14495671 1.24612474 70 68 87
0.16743572 -0.14495671 1.24612474 72 71 84
0.16927837 -0.14469074 1.24383819 74 74 84
-0.07939593 -0.09883559 0.86245781 64 64 68
-0.07800448 -0.09896149 0.86355650 62 62 66
-0.07660948 -0.09908772 0.86465794 62 60 67
-0.07530710 -0.09934114 0.86686939 63 60 67
-0.07390329 -0.09946834 0.86797929 64 60 67
-0.07249589 -0.09959586 0.86909211 65 60 68
-0.07099373 -0.09959586 0.86909211 66 63 70
-0.06958078 -0.09972371 0.87020773 66 64 71
-0.06798942 -0.09959586 0.86909211 63 62 70
-0.06648727 -0.09959586 0.86909211 63 62 71
-0.06465355 -0.09908772 0.86465794 63 61 70
-0.06332059 -0.09934114 0.86686939 62 61 70
-0.06182228 -0.09934114 0.86686939 65 63 72
-0.05882565 -0.09934114 0.86686939 68 67 74
0.12819555 -0.14227980 1.24156010 213 216 224
0.13082069 -0.14280288 1.24612474 212 215 223
0.13321941 -0.14306587 1.24841964 212 215 223
0.13512833 -0.14280288 1.24612474 213 216 224
0.13728216 -0.14280288 1.24612474 213 216 224
0.13995051 -0.14332983 1.25072300 213 216 224
0.14643583 -0.14332983 1.25072300 103 103 112
0.15048173 -0.14306587 1.24841964 70 73 83
0.15263952 -0.14306587 1.24841964 71 72 89
0.15479732 -0.14306587 1.24841964 69 69 87
0.15666659 -0.14280288 1.24612474 67 65 84
0.15911290 -0.14306587 1.24841964 66 64 84
0.16127069 -0.14306587 1.24841964 67 65 84
0.16373003 -0.14332983 1.25072300 67 65 84
0.16528189 -0.14280288 1.24612474 70 70 81
0.16774407 -0.14306587 1.24841964 71 71 81
0.16958955 -0.14280288 1.24612474 73 73 82
-0.08098965 -0.09746891 0.86355650 65 65 69
-0.07939593 -0.09734490 0.86245781 64 64 68
-0.07790524 -0.09734490 0.86245781 63 63 67
-0.07651189 -0.09746891 0.86355650 63 63 67
-0.07521092 -0.09771787 0.86576223 63 62 66
-0.07380879 -0.09784283 0.86686939 63 62 66
-0.07240306 -0.09796810 0.86797929 65 63 68
-0.07090283 -0.09796810 0.86797929 64 62 68
-0.06949157 -0.09809370 0.86909211 65 63 70
-0.06790236 -0.09796810 0.86797929 62 61 68
-0.06640214 -0.09796810 0.86797929 61 60 67
-0.06465355 -0.09759323 0.86465794 61 60 67
-0.06323972 -0.09771787 0.86576223 63 61 70
-0.05882565 -0.09784283 0.86686939 61 60 65
0.12843077 -0.14039099 1.24383819 215 215 224
0.13082069 -0.14064907 1.24612474 215 215 224
0.13346519 -0.14116806 1.25072300 213 213 222
0.13537720 -0.14090808 1.24841964 213 213 222
0.13753499 -0.14090808 1.24841964 215 215 224
0.14020920 -0.14142899 1.25303483 215 215 224
0.14237496 -0.14142899 1.25303483 214 214 223
0.14454074 -0.14142899 1.25303483 210 212 218
0.14670651 -0.14142899 1.25303483 102 105 112
0.14887227 -0.14142899 1.25303483 67 70 79
0.15048173 -0.14090808 1.24841964 75 78 88
0.15292116 -0.14116806 1.25072300 71 71 84
0.15479732 -0.14090808 1.24841964 69 68 82
0.15695511 -0.14090808 1.24841964 66 65 81
0.15911290 -0.14090808 1.24841964 65 64 80
0.16127069 -0.14090808 1.24841964 67 66 79
0.16373003 -0.14116806 1.25072300 68 67 78
0.16528189 -0.14064907 1.24612474 67 67 77
0.16743572 -0.14064907 1.24612474 68 68 78
0.16958955 -0.14064907 1.24612474 71 71 81
0.19382055 -0.05977585 0.52960300 57 57 57
-0.08248224 -0.09597632 0.86355650 64 64 68
-0.08088661 -0.09585421 0.86245781 64 64 68
-0.07929504 -0.09573241 0.86136192 63 63 67
-0.07780625 -0.09573241 0.86136192 63 63 67
-0.07651189 -0.09597632 0.86355650 64 64 68
-0.07521092 -0.09622146 0.86576223 64 64 68
-0.07371452 -0.09622146 0.86576223 64 64 68
-0.07231048 -0.09634451 0.86686939 64 64 68
-0.07081216 -0.09634451 0.86686939 62 62 67
-0.06940260 -0.09646787 0.86797929 62 61 69
-0.06781553 -0.09634451 0.86686939 62 61 69
-0.06631722 -0.09634451 0.86686939 62 61 69
-0.06457119 -0.09597632 0.86355650 62 61 69
-0.06315906 -0.09609874 0.86465794 62 61 70
-0.06032397 -0.09634451 0.86686939 63 62 71
-0.05875053 -0.09622146 0.86576223 62 61 70
0.14480841 -0.13952112 1.25535524 214 214 223
0.14670651 -0.13926323 1.25303483 102 102 111
0.14887227 -0.13926323 1.25303483 71 71 80
0.15048173 -0.13875028 1.24841964 77 76 87
0.15292116 -0.13900629 1.25072300 72 72 83
0.15479732 -0.13875028 1.24841964 69 68 80
0.15666659 -0.13849524 1.24612474 67 66 78
0.15911290 -0.13875028 1.24841964 67 65 78
0.16127069 -0.13875028 1.24841964 68 67 78
0.16342849 -0.13875028 1.24841964 67 66 77
0.16528189 -0.13849524 1.24612474 67 66 77
0.16743572 -0.13849524 1.24612474 68 67 78
0.16958955 -0.13849524 1.24612474 71 70 81
0.19320706 -0.05895259 0.53043181 59 60 60
0.19382055 -0.05886047 0.52960300 58 58 58
-0.08248224 -0.09448373 0.86355650 64 64 68
-0.08078384 -0.09424362 0.86136192 64 64 68
-0.07919441 -0.09412402 0.86026883 63 63 66
-0.07770751 -0.09412402 0.86026883 62 61 63
-0.07641455 -0.09436352 0.86245781 64 63 66
-0.07511500 -0.09460424 0.86465794 65 64 68
-0.07371452 -0.09472506 0.86576223 65 64 69
-0.07221813 -0.09472506 0.86576223 66 63 70
-0.07072172 -0.09472506 0.86576223 64 60 69
-0.06931385 -0.09484620 0.86686939 64 60 70
-0.06772892 -0.09472506 0.86576223 63 61 70
-0.06623252 -0.09472506 0.86576223 63 61 70
-0.06448904 -0.09436352 0.86245781 63 61 70
-0.06299835 -0.09436352 0.86245781 63 61 70
-0.06158602 -0.09448373 0.86355650 65 63 72
-0.06017008 -0.09460424 0.86465794 64 62 72
-0.05867559 -0.09460424 0.86465794 62 60 69
0.14670651 -0.13709746 1.25303483 105 105 116
0.14887227 -0.13709746 1.25303483 70 70 80
0.15048173 -0.13659249 1.24841964 73 76 87
0.15292116 -0.13684452 1.25072300 71 71 82
0.15479732 -0.13659249 1.24841964 67 67 78
0.15666659 -0.13634141 1.24612474 66 65 79
0.15882042 -0.13634141 1.24612474 71 69 83
0.16097425 -0.13634141 1.24612474 71 69 83
0.16342849 -0.13659249 1.24841964 69 67 80
0.16497862 -0.13609125 1.24383819 67 66 77
0.16712850 -0.13609125 1.24383819 66 65 77
0.16927837 -0.13609125 1.24383819 69 68 80
0.18939163 -0.05799040 0.53001708 59 58 58
0.19015905 -0.05794510 0.52960300 59 59 59
0.19137344 -0.05803578 0.53043181 59 59 59
0.19320706 -0.05803578 0.53043181 59 59 59
0.19382055 -0.05794510 0.52960300 58 58 57
0.19443212 -0.05785470 0.52877676 57 57 56
-0.08237730 -0.09287283 0.86245781 64 63 71
-0.08068132 -0.09263711 0.86026883 63 63 70
-0.07909404 -0.09251970 0.85917848 62 62 69
-0.07760902 -0.09251970 0.85917848 61 60 66
-0.07631745 -0.09275482 0.86136192 61 60 67
-0.07501931 -0.09299114 0.86355650 63 62 69
-0.07352672 -0.09299114 0.86355650 65 63 72
-0.07203413 -0.09299114 0.86355650 67 62 72
-0.07063152 -0.09310975 0.86465794 67 62 72
-0.06922533 -0.09322867 0.86576223 65 60 70
-0.06755637 -0.09299114 0.86355650 65 60 72
