ply
format ascii 1.0
element vertex 1095
property float x
property float y
property float z
property uchar red
property uchar green
property uchar blue
end_header
-0.90171670 -0.09577294 1.02041817 0 0 0
-0.91031653 -0.09034294 1.39011096 128 107 94
-0.90064776 -0.07757810 0.91408074 0 0 0
-0.90941501 -0.06981593 1.38930207 128 108 96
-0.91318831 -0.05803665 1.03949952 6 4 4
-0.90978206 -0.04976867 1.38444482 141 125 105
-0.90574412 -0.02692700 1.03458646 2 2 1
-0.91384429 -0.02762135 1.04435575 21 20 17
-0.91007614 -0.03035958 1.37182529 106 105 105
-0.90168129 -0.00946181 1.03249514 24 24 26
-0.90946991 -0.00069835 1.33800647 141 144 144
-0.91001642 -0.01092308 1.35008698 130 134 138
-0.91032293 -0.01951518 1.36001090 130 130 138
-0.90283240 0.01736341 1.03586340 0 0 0
-0.90998174 0.01749800 1.31535183 130 133 133
-0.91001216 0.00723902 1.32823439 146 149 148
-0.91412281 0.03668051 1.05090147 23 27 27
-0.90979871 0.03505897 1.29249326 129 135 137
-0.91010292 0.02528851 1.30530402 128 132 135
-0.90149430 0.04513619 1.03638339 0 0 0
-0.90614155 0.04176782 1.04172599 9 9 10
-0.91847147 0.05814043 1.25994027 141 142 145
-0.90992721 0.05196103 1.26904963 142 146 146
-0.91043063 0.04255025 1.28235806 135 139 141
-0.90788743 0.06633536 1.04581118 24 28 31
-0.91058970 0.07558033 1.23450999 123 130 136
-0.91004479 0.06522263 1.24988415 128 137 141
-0.91124828 0.09797534 1.19784462 144 145 149
-0.90970628 0.09082196 1.21021008 146 152 153
-0.90886915 0.08222121 1.22444524 124 127 132
-0.90049601 0.11263453 1.03936625 21 18 25
-0.90855537 0.10728433 1.04866848 23 23 28
-0.91856008 0.10206651 1.06021607 26 25 32
-0.91140173 0.11807721 1.13022515 68 68 77
-0.90992640 0.11548300 1.15058697 92 94 98
-0.90989663 0.11092003 1.17049514 118 119 121
-0.90959148 0.10355062 1.18755070 146 146 147
-0.91050559 0.13503086 1.05302020 52 55 68
-0.91171486 0.13750006 1.07281065 54 57 67
-0.91007461 0.13147681 1.08993689 55 59 68
-0.90983462 0.12445280 1.10960706 58 60 69
-0.90269980 0.12095052 1.12283963 63 64 73
-0.90534455 0.14506228 1.05361366 53 55 67
-0.90603670 0.14169913 1.06464928 51 56 63
-0.88582595 -0.77453332 1.35668769 125 171 189
-0.89047617 -0.77062484 1.37110312 108 125 130
-0.88971485 -0.74340425 1.10704136 0 0 0
-0.88216088 -0.74576429 1.29453754 117 162 183
-0.88734234 -0.75362462 1.31211865 121 174 192
-0.88292377 -0.75729674 1.32249188 124 174 190
-0.88987137 -0.75068797 1.37334480 90 86 85
-0.89000374 -0.73032289 1.11231823 0 0 0
-0.89235698 -0.73412997 1.26768064 107 151 167
-0.89005661 -0.73040245 1.37559761 87 80 79
-0.89210285 -0.71370057 1.11752931 0 0 0
-0.88767138 -0.70508046 1.12210676 0 0 0
-0.88907284 -0.71829158 1.23572636 110 147 170
-0.88990938 -0.70970405 1.37602133 86 79 72
-0.89050437 -0.68959051 1.12951947 0 0 0
-0.88468804 -0.68203644 1.14185592 0 0 0
-0.88684146 -0.68659289 1.17074919 61 95 106
-0.88970276 -0.69688567 1.19182658 81 123 138
-0.89061410 -0.68996160 1.37663366 85 78 72
-0.89579031 -0.67616864 1.13814319 0 0 0
-0.88754914 -0.67741180 1.14555762 10 14 16
-0.88976124 -0.66965563 1.37730600 86 75 72
-0.89024553 -0.64977497 1.37805563 88 74 71
-0.89006750 -0.63000118 1.37818088 84 75 70
-0.89053990 -0.60978282 1.37809862 86 74 71
-0.89040318 -0.59033312 1.37829971 86 75 66
-0.88947335 -0.57025136 1.37870489 84 74 65
-0.88962244 -0.55008837 1.37893597 86 72 68
-0.89022214 -0.53178906 1.37931389 76 64 59
-0.88875243 -0.52163567 1.38022769 65 54 49
-0.89003700 -0.50930348 1.38230715 63 51 48
-0.89005028 -0.48930950 1.38623464 58 47 45
-0.88996854 -0.46998439 1.38952908 53 40 41
-0.89009036 -0.45026211 1.38985190 52 43 44
-0.89045590 -0.42942861 1.38953423 54 46 45
-0.89042017 -0.41019808 1.38947854 57 50 45
-0.89045703 -0.38980075 1.38953589 63 54 53
-0.89047648 -0.36939416 1.38956621 69 58 55
-0.89059125 -0.35022523 1.38974528 77 65 60
-0.89053895 -0.32971144 1.38989467 86 72 67
-0.88960996 -0.30946660 1.39008856 95 80 72
-0.88967656 -0.29026719 1.39019271 100 84 75
-0.88975459 -0.26986667 1.39031474 101 85 75
-0.89970516 -0.24131428 0.98388913 0 0 0
-0.88978178 -0.24944858 1.39035726 105 89 79
-0.89822614 -0.22625050 0.97701287 0 0 0
-0.89788870 -0.23042118 0.98443812 0 0 0
-0.88982678 -0.23023521 1.39042760 106 90 78
-0.89959575 -0.20166594 0.95923080 0 0 0
-0.89519335 -0.20853642 0.97112727 0 0 0
-0.89210697 -0.21173671 0.98344241 0 0 0
-0.88985500 -0.20981429 1.39047162 109 93 79
-0.89666589 -0.18782199 0.95608057 0 0 0
-0.88870975 -0.19030406 0.96938925 0 0 0
-0.88622099 -0.18763607 0.98427744 0 0 0
-0.88990423 -0.18939659 1.39054859 112 96 82
-0.89293783 -0.16906437 0.95202006 0 0 0
-0.88363637 -0.17194350 0.96744634 0 0 0
-0.88390795 -0.17370071 0.98486026 0 0 0
-0.88992405 -0.17017287 1.39057964 118 98 81
-0.89701126 -0.14480335 0.93846061 0 0 0
-0.88833636 -0.15064291 0.94833493 0 0 0
-0.88084528 -0.15708764 0.96190937 0 0 0
-0.88604557 -0.15312304 0.99200943 0 0 0
-0.88987733 -0.14973531 1.39050659 121 100 84
-0.89280649 -0.12882637 0.93557723 0 0 0
-0.88395763 -0.13220448 0.94412315 0 0 0
-0.88070823 -0.13554658 0.98890716 0 0 0
-0.88982882 -0.12929949 1.39043056 128 108 91
-0.88962707 -0.10991768 0.93147157 0 0 0
-0.88086097 -0.11790443 0.94087230 0 0 0
-0.89335650 -0.11366130 1.00701809 0 0 0
-0.88978818 -0.11006843 1.39036679 129 112 94
-0.89744563 -0.08433355 0.91869190 0 0 0
-0.88879211 -0.09063638 0.92531964 0 0 0
-0.88993282 -0.09103652 1.39016374 132 112 94
-0.89165909 -0.06890496 0.91584464 0 0 0
-0.88349988 -0.07392030 0.92218232 0 0 0
-0.89761289 -0.07624693 1.01876390 11 7 7
-0.89026688 -0.07036188 1.38923860 131 111 94
-0.88759318 -0.05056521 0.91147642 0 0 0
-0.88991451 -0.04982419 1.38450580 143 125 108
-0.88566180 -0.03086617 0.90612215 0 0 0
-0.88864727 -0.03381422 1.01355815 0 0 0
-0.89980672 -0.02008763 1.02831340 0 0 0
-0.89028559 -0.03015583 1.37157674 107 106 109
-0.88204047 -0.03888725 1.38012391 122 106 99
-0.88346648 -0.00523436 0.89858781 0 0 0
-0.88346753 -0.01426480 0.90195975 0 0 0
-0.88199380 -0.01446345 1.00795650 0 0 0
-0.89608414 -0.01735091 1.02405918 0 0 0
-0.88980564 -0.00069834 1.33799571 136 139 140
-0.88996067 -0.01111274 1.35018390 135 137 141
-0.88133350 0.00506849 0.89557094 0 0 0
-0.88180557 0.01870773 1.01173830 0 0 0
-0.88970987 0.01750179 1.31563136 125 127 131
-0.89017861 0.00732828 1.32821803 148 152 151
-0.89011289 0.03507557 1.29310313 126 132 135
-0.89013520 0.02523651 1.30586751 124 128 129
-0.88423469 0.05393672 1.01654124 0 0 0
-0.89394695 0.05008166 1.02770674 0 0 0
-0.88985701 0.05179873 1.26998734 152 153 153
-0.89036763 0.04262820 1.28294813 136 138 141
-0.88019619 0.06956948 1.01391315 12 14 17
-0.89448039 0.06802253 1.03036737 18 20 22
-0.89052996 0.07601859 1.23457875 125 134 140
-0.88989373 0.06615900 1.24923786 135 142 144
-0.88975852 0.09875205 1.19783393 165 166 166
-0.89030695 0.09152459 1.21003050 151 154 155
-0.89021723 0.08196897 1.22554629 129 133 139
-0.89511803 0.11642086 1.03315890 18 17 23
-0.89691631 0.11932049 1.13734276 80 80 89
-0.89226181 0.11854078 1.15351352 113 113 112
-0.88978006 0.11310820 1.17008732 133 134 136
-0.89011751 0.10406501 1.18817209 142 144 145
-0.88222910 0.12530886 1.01828229 13 14 17
-0.88752624 0.12163285 1.02439634 14 16 19
-0.89157629 0.13857352 1.07731473 55 58 70
-0.88999378 0.13415815 1.08973353 57 60 70
-0.88989626 0.12703661 1.10986857 60 60 68
-0.88918784 0.12213177 1.12850724 74 74 82
-0.88589860 0.12097535 1.14683824 101 101 102
-0.88129513 0.15273330 1.01923764 48 53 53
-0.88728122 0.15448850 1.03316518 52 54 62
-0.89042044 0.14948789 1.04979681 52 55 67
-0.88927662 0.14279173 1.06740811 54 56 71
-0.88158332 0.16084746 1.02229619 47 55 68
-0.86749475 -0.76816228 1.35043933 129 172 186
-0.87036905 -0.76843529 1.37188285 110 123 131
-0.86973434 -0.74469172 1.11145422 0 0 0
-0.86831029 -0.74508158 1.29724455 117 175 192
-0.87714723 -0.74975932 1.30538887 120 176 190
-0.86994852 -0.74936569 1.37440061 91 86 86
-0.87062906 -0.73071397 1.11651952 0 0 0
-0.86319058 -0.72245861 1.12060606 0 0 0
-0.87991753 -0.72622748 1.25310516 68 94 105
-0.87001607 -0.72977247 1.37619715 89 81 79
-0.87716731 -0.71841971 1.11910888 0 0 0
-0.86951442 -0.70954607 1.12472224 0 0 0
-0.86419918 -0.71641768 1.23987615 114 175 198
-0.87031961 -0.70980189 1.37667777 86 78 76
-0.87057452 -0.69224391 1.13348694 0 0 0
-0.87042541 -0.68312803 1.14338008 1 1 1
-0.86910145 -0.68654060 1.17412043 38 61 68
-0.86767623 -0.69064024 1.18463333 88 134 150
-0.86415091 -0.69983812 1.20397961 93 125 145
-0.86973421 -0.68963599 1.37720417 86 79 73
-0.86985584 -0.67723654 1.14717891 1 2 2
-0.86984110 -0.66989797 1.37780434 85 77 73
-0.87032269 -0.65001622 1.37856731 85 75 69
-0.87041647 -0.62983137 1.37871595 85 76 71
-0.87039116 -0.60955814 1.37867593 87 75 71
-0.87029145 -0.59028967 1.37887513 86 75 68
-0.86976277 -0.57020212 1.37924462 85 73 66
-0.86967854 -0.55028746 1.37943496 84 73 68
-0.86987208 -0.53252406 1.37974180 83 66 62
-0.87023547 -0.52201050 1.38031774 69 55 51
-0.86994304 -0.50982170 1.38234798 65 52 49
-0.87016006 -0.48962210 1.38630580 59 46 44
-0.86999945 -0.47052614 1.38991919 52 42 42
-0.87007090 -0.44980484 1.39037920 52 43 43
-0.87033529 -0.42957363 1.39000378 55 46 45
-0.87031094 -0.41034171 1.38996483 58 51 47
-0.87029748 -0.38991509 1.38994325 64 54 53
-0.87030442 -0.36949735 1.38995427 68 59 55
-0.87040226 -0.35031730 1.39011047 78 65 62
-0.87032628 -0.33003127 1.39018088 89 71 68
-0.86934573 -0.30952295 1.39034174 95 81 73
-0.86942849 -0.29032589 1.39047417 103 82 77
-0.86951541 -0.26992461 1.39061318 99 85 76
-0.86955146 -0.24950484 1.39067089 106 89 75
-0.86959782 -0.23028776 1.39074502 110 89 81
-0.86961251 -0.20985912 1.39076845 110 94 81
-0.86966417 -0.18943775 1.39085107 115 97 83
-0.87825714 -0.16472148 0.97352348 0 0 0
-0.87800584 -0.16314878 0.98016596 0 0 0
-0.86968333 -0.17020988 1.39088164 117 98 83
-0.87863185 -0.14437776 0.95721465 0 0 0
-0.87428293 -0.14951892 0.96739714 0 0 0
-0.87851617 -0.15167041 0.98263168 0 0 0
-0.86962595 -0.14976581 1.39078982 122 102 85
-0.87544240 -0.12875288 0.95317761 0 0 0
-0.86818563 -0.13034283 0.96549727 0 0 0
-0.86954606 -0.12932108 1.39066200 130 109 91
-0.87832232 -0.10434238 0.93820635 0 0 0
-0.87166584 -0.11006927 0.94979484 0 0 0
-0.86348820 -0.11155206 0.96426965 0 0 0
-0.87366347 -0.11170949 0.98482152 0 0 0
-0.86947739 -0.11008309 1.39055233 131 112 93
-0.87532749 -0.08875494 0.93477386 0 0 0
-0.86626224 -0.09084560 0.94861438 0 0 0
-0.86024044 -0.09843289 0.96033347 0 0 0
-0.87352230 -0.09106980 0.98851228 0 0 0
-0.86978696 -0.08935341 1.39035590 134 113 95
-0.87943546 -0.06088283 0.91965443 0 0 0
-0.87129108 -0.06933452 0.93078516 0 0 0
-0.86255001 -0.07295516 0.94431063 0 0 0
-0.86163725 -0.06980923 0.97793335 1 1 1
-0.87419712 -0.07254770 0.99218491 6 4 3
-0.87020702 -0.06937291 1.38936031 131 112 96
-0.87566034 -0.04741474 0.91718932 0 0 0
-0.86673142 -0.05122355 0.92662108 0 0 0
-0.87658089 -0.05398544 0.99782860 0 0 0
-0.87006552 -0.04965527 1.38474159 146 128 112
-0.87116629 -0.02915807 0.91346885 0 0 0
-0.86269610 -0.03450153 0.92253489 0 0 0
-0.87125548 -0.03143487 0.99372172 0 0 0
-0.86997885 -0.02920664 1.37084923 104 103 104
-0.87027800 -0.03889463 1.38038598 118 105 95
-0.87872390 -0.00085820 0.89940302 0 0 0
-0.86940170 -0.01017729 0.90732533 0 0 0
-0.86878275 -0.01253074 0.99285871 0 0 0
-0.87388285 -0.00744054 1.00066376 14 16 17
-0.87007455 -0.00069828 1.33788231 136 138 141
-0.86993789 -0.01123195 1.35026078 137 140 143
-0.87253039 0.01258047 0.89655913 0 0 0
-0.86527197 0.00627848 0.90253434 0 0 0
-0.86962022 0.01758814 1.31553666 129 133 136
-0.87019616 0.00741431 1.32797362 153 156 156
-0.86764083 0.02959187 0.89074154 0 0 0
-0.86415476 0.02004697 0.99148667 0 0 0
-0.87025152 0.03508590 1.29347971 134 137 141
-0.87024007 0.02527223 1.30603584 136 140 142
-0.86352127 0.05565540 0.87850496 0 0 0
-0.86437443 0.04636105 0.88350006 0 0 0
-0.86458054 0.05702864 0.99394628 0 0 0
-0.87698545 0.05523714 1.00820732 0 0 0
-0.87005659 0.05201382 1.27036182 151 152 152
-0.86970048 0.04253386 1.28362248 143 145 146
-0.86132682 0.06326312 0.87521085 0 0 0
-0.86990495 0.07048805 1.00205851 9 11 14
-0.87050782 0.07620685 1.23515069 134 140 146
-0.87004074 0.06629487 1.24983773 139 144 146
-0.86986075 0.09884361 1.19894458 151 153 154
-0.87050268 0.09229067 1.20989069 157 159 162
-0.87042573 0.08290579 1.22498459 143 146 148
-0.87064796 0.11955111 1.15862948 130 129 129
-0.87030348 0.11412035 1.17044019 143 144 145
-0.86956711 0.10453694 1.18885130 154 158 158
-0.86439266 0.13829538 0.99769521 10 10 11
-0.87329924 0.13186532 1.00797532 12 12 15
-0.87835985 0.13937375 1.07950038 55 58 66
-0.87029071 0.13662732 1.09022457 56 58 66
-0.87006909 0.13034808 1.10956501 59 59 66
-0.86999623 0.12635552 1.12964303 77 77 84
-0.86881764 0.12297216 1.14878879 107 105 110
-0.86145213 0.14040372 0.99430120 9 10 13
-0.87516120 0.15691064 1.01214361 48 53 61
-0.87101676 0.15805645 1.03456493 51 53 63
-0.87007822 0.15164081 1.05013045 53 55 64
-0.86965378 0.14408454 1.06976731 54 57 69
-0.86118383 0.14132971 1.08018923 54 57 66
-0.86192145 0.16844090 0.99749651 45 53 58
-0.86706336 0.16714549 1.01133436 48 53 60
-0.86895196 0.16242610 1.02457863 49 53 62
-0.85256675 -0.76133656 1.33762169 130 170 184
-0.85375100 -0.76227130 1.34130049 131 172 187
-0.85028627 -0.76768187 1.37228964 110 129 138
-0.84963539 -0.74577937 1.11477843 0 0 0
-0.85207390 -0.74998868 1.31369483 124 173 186
-0.84973944 -0.74891899 1.37464711 91 85 86
-0.85207770 -0.73500660 1.11846072 0 0 0
-0.84868707 -0.72582739 1.12192658 0 0 0
-0.84124253 -0.72530162 1.26661777 124 173 192
-0.85917351 -0.73883859 1.29025781 124 173 191
-0.84988807 -0.72985012 1.37634391 90 82 78
-0.84993515 -0.71008330 1.12812227 0 0 0
-0.84909457 -0.70804862 1.22478284 82 120 135
-0.85033276 -0.71000104 1.37706425 88 78 75
-0.85050194 -0.69321521 1.13565665 0 0 0
-0.84949390 -0.68364385 1.14229754 0 0 0
-0.85008931 -0.68554092 1.17588663 14 22 25
-0.85233590 -0.68798648 1.18183511 60 86 98
-0.84977626 -0.69023726 1.37756518 88 78 74
-0.84975748 -0.67653819 1.14762356 0 0 0
-0.85762325 -0.67905909 1.16132557 25 39 43
-0.84985412 -0.67009901 1.37821794 86 77 74
-0.85035630 -0.65023545 1.37903237 84 78 70
-0.85048013 -0.63006756 1.37923324 86 76 72
-0.85048380 -0.60980725 1.37923932 88 76 71
-0.84978738 -0.58935788 1.37944852 88 75 71
-0.85042800 -0.56988262 1.37973471 88 74 69
-0.84064185 -0.56523827 1.38003995 88 73 69
-0.85220744 -0.55096871 1.37981383 85 74 70
-0.84211272 -0.54894739 1.38006161 86 74 69
-0.85687113 -0.53413902 1.37992698 84 69 64
-0.84799837 -0.52928115 1.38022527 77 67 59
-0.84996822 -0.50959709 1.38251098 66 52 49
-0.85014586 -0.48958163 1.38646413 61 47 45
-0.84999079 -0.47001763 1.39032872 53 42 42
-0.85069554 -0.44969365 1.39081903 52 43 43
-0.85018424 -0.42971015 1.39044550 54 47 46
-0.85014986 -0.41046708 1.39038930 59 51 47
-0.85010653 -0.39002032 1.39031833 66 55 54
-0.85010586 -0.36959386 1.39031725 70 59 55
-0.85017170 -0.35039659 1.39042486 78 65 61
-0.85020466 -0.32998186 1.39047874 89 72 67
-0.85029331 -0.30958572 1.39062377 94 83 71
-0.85037573 -0.29038527 1.39075853 104 83 75
-0.85047191 -0.26998335 1.39091586 100 88 74
-0.85051019 -0.24956002 1.39097846 108 90 77
-0.85054705 -0.23033643 1.39103869 110 91 81
-0.85054940 -0.20990048 1.39104251 111 94 84
-0.85060169 -0.18947549 1.39112806 115 98 84
-0.85061295 -0.17024230 1.39114645 117 100 85
-0.85054793 -0.14979281 1.39104010 120 103 88
-0.85044842 -0.12934112 1.39087726 130 110 92
-0.85858817 -0.10340735 0.96491674 0 0 0
-0.85040732 -0.11010340 1.39080998 134 114 96
-0.85662115 -0.08668993 0.95756387 0 0 0
-0.85471791 -0.09117439 0.96293814 0 0 0
-0.85031348 -0.08966107 1.39065661 134 116 96
-0.85423858 -0.06918010 0.95278626 0 0 0
-0.85089118 -0.06909331 0.96416594 0 0 0
-0.84997130 -0.06895893 1.38956179 130 112 96
-0.85728394 -0.04697171 0.93571206 0 0 0
-0.84950809 -0.05053102 0.94896069 0 0 0
-0.84851446 -0.05137971 0.96493127 0 0 0
-0.84991247 -0.04995205 1.38516695 147 128 113
-0.85921962 -0.02113561 0.91928411 0 0 0
-0.85339747 -0.02929675 0.93085839 0 0 0
-0.84442882 -0.03271325 0.94492335 0 0 0
-0.84925822 -0.02730304 0.96863246 0 0 0
-0.84989033 -0.02916208 1.37061337 108 107 110
-0.85014083 -0.03890114 1.38061696 101 91 82
-0.85563569 -0.00732637 0.91593651 0 0 0
-0.84692142 -0.01136515 0.92812717 0 0 0
-0.84119014 -0.01836802 0.94027611 0 0 0
-0.84775317 -0.00721571 0.96959314 1 1 1
-0.84928806 -0.00069830 1.33792200 144 145 147
-0.85004858 -0.01123056 1.35017742 147 149 151
-0.85936506 0.01974134 0.89947930 0 0 0
-0.85081895 0.01102049 0.91067274 0 0 0
-0.84234291 0.00468088 0.92310151 0 0 0
-0.84994270 0.01750228 1.31567110 135 136 138
-0.85015660 0.00730558 1.32818555 153 156 156
-0.85367131 0.03308262 0.89610950 0 0 0
-0.84567378 0.02777518 0.90527482 0 0 0
-0.84815897 0.02219352 0.97313392 0 0 0
-0.85005820 0.03518602 1.29359017 141 145 148
-0.84998185 0.02527404 1.30612531 137 139 144
-0.85893475 0.05833079 0.87966661 0 0 0
-0.84964754 0.05008275 0.88917515 0 0 0
-0.84073107 0.04126495 0.90100275 0 0 0
-0.84573034 0.05999053 0.97227556 0 0 0
-0.85251870 0.05877806 0.98007965 0 0 0
-0.85022413 0.05222763 1.27069914 153 154 157
-0.84936967 0.04260041 1.28386846 153 153 154
-0.85130864 0.07182987 0.87545395 0 0 0
-0.84554450 0.06436943 0.88273435 0 0 0
-0.84333472 0.07167181 0.97097090 0 0 0
-0.85536622 0.07186066 0.98531109 6 7 7
-0.84972334 0.07625745 1.23597105 164 169 170
-0.84991151 0.06643178 1.25051356 158 161 164
-0.84646426 0.08906653 0.86727909 0 0 0
-0.85488748 0.09890929 1.19974124 178 179 179
-0.84969790 0.09296912 1.20986335 178 180 179
-0.85005654 0.08303387 1.22567500 165 168 172
-0.84288316 0.10746927 0.85726895 0 0 0
-0.84257811 0.10200489 0.86100138 0 0 0
-0.85009116 0.11573721 1.16940135 166 168 166
-0.84967104 0.10532124 1.18886617 180 183 182
-0.85104625 0.13787018 1.09452165 52 52 65
-0.85010535 0.13393936 1.10931536 64 64 73
-0.84996139 0.13083495 1.13055911 104 104 108
-0.84967293 0.12495916 1.14969189 143 144 145
-0.84419901 0.15358296 0.97438739 10 11 13
-0.85420925 0.14517595 0.98594136 10 10 12
-0.85144229 0.15851442 1.03766461 51 51 61
-0.84993480 0.15383700 1.04996595 52 54 62
-0.84999655 0.14655057 1.06981811 51 53 64
-0.84927760 0.14151234 1.08474309 52 52 62
-0.84406177 0.17833572 0.97617642 46 51 59
-0.85006254 0.17635212 0.99335024 47 51 59
-0.84991400 0.17096243 1.00974357 47 49 59
-0.84947562 0.16306573 1.02758904 49 50 62
-0.84161429 0.18370074 0.97627642 46 48 60
-0.84429249 0.18126981 0.98469981 46 48 59
-0.83024366 -0.76603201 1.37193928 117 136 142
-0.83019127 -0.74707234 1.11736781 0 0 0
-0.82409091 -0.74089182 1.12050904 0 0 0
-0.83212455 -0.74701640 1.31445163 130 171 186
-0.82986854 -0.74917608 1.37470684 94 88 87
-0.83663883 -0.73914595 1.11943630 0 0 0
-0.82981001 -0.72952869 1.12345116 0 0 0
-0.83587212 -0.72082415 1.25690508 113 160 177
-0.82326469 -0.72656720 1.27266932 120 170 186
-0.82987880 -0.73003581 1.37669431 89 84 80
-0.82996820 -0.71006227 1.13080905 0 0 0
-0.83226917 -0.70302085 1.21669078 23 32 36
-0.83815672 -0.70784453 1.22688341 73 102 115
-0.82592821 -0.71864107 1.25498623 124 165 184
-0.83036308 -0.71022468 1.37749807 86 81 75
-0.83050905 -0.69371330 1.13689962 0 0 0
-0.82923501 -0.68428343 1.14230474 0 0 0
-0.82138529 -0.68296199 1.17845058 21 33 38
-0.83410045 -0.69181878 1.19373298 38 55 62
-0.82965194 -0.69015706 1.37807173 87 79 76
-0.82919384 -0.67622886 1.14886140 0 0 0
-0.83090743 -0.67711195 1.16372907 23 33 36
-0.82989789 -0.67033501 1.37870318 89 78 74
-0.83037153 -0.65045121 1.37948994 87 78 72
-0.83049592 -0.63027922 1.37969662 88 77 72
-0.83131880 -0.61053577 1.37974305 90 76 72
-0.82195948 -0.60459727 1.38004396 92 78 75
-0.83453515 -0.59259463 1.37984062 88 77 71
-0.82588669 -0.58803026 1.38016287 88 78 70
-0.83781975 -0.57674013 1.37997526 87 71 68
-0.82939712 -0.56948771 1.38030026 87 73 71
-0.82956377 -0.55048476 1.38034315 88 73 69
-0.82994207 -0.53032027 1.38056304 81 69 61
-0.83002748 -0.50969242 1.38267996 66 54 49
-0.83010492 -0.48952917 1.38658578 61 48 45
-0.83026639 -0.46916221 1.39068090 54 42 43
-0.83024762 -0.44920257 1.39126913 52 42 44
-0.83004292 -0.42985857 1.39092603 54 47 46
-0.82999946 -0.41060408 1.39085311 60 50 49
-0.82992904 -0.39013723 1.39073502 66 54 54
-0.82992667 -0.36970386 1.39073100 70 60 57
-0.82998654 -0.35049901 1.39083133 78 65 62
-0.83002596 -0.33008120 1.39089748 89 72 66
-0.83011548 -0.30968009 1.39104751 93 81 73
-0.83019609 -0.29047382 1.39118255 104 84 76
-0.83026743 -0.27005833 1.39130197 105 86 75
-0.83029056 -0.24962502 1.39134066 109 90 80
-0.83031493 -0.23039320 1.39138146 110 92 83
-0.83032384 -0.20995387 1.39139649 115 94 82
-0.83037976 -0.18952481 1.39149018 117 100 84
-0.83039204 -0.17028684 1.39151083 119 100 85
-0.83033851 -0.14983385 1.39142126 123 103 90
-0.83021536 -0.12937262 1.39121477 133 110 92
-0.83011430 -0.11012212 1.39104516 136 114 93
-0.83004437 -0.08967844 1.39092794 136 117 98
-0.83003425 -0.06947968 1.38996412 134 115 98
-0.82997731 -0.04977981 1.38528705 146 131 111
-0.83771453 -0.02654286 0.94886017 0 0 0
-0.82989911 -0.02912101 1.37052827 107 106 110
-0.82984498 -0.03890056 1.38059627 105 95 85
-0.83636356 -0.00542601 0.93689254 0 0 0
-0.83356458 -0.01055997 0.94505930 0 0 0
-0.82961823 -0.00069829 1.33790019 169 169 170
-0.83004612 -0.01114548 1.35004422 155 157 159
-0.83905415 0.01699121 0.91895151 0 0 0
-0.83290712 0.01081663 0.93101293 0 0 0
-0.82764538 0.00855227 0.94419921 0 0 0
-0.83030101 0.01741765 1.31586922 173 173 172
-0.83006551 0.00737147 1.32810168 174 175 174
-0.83469172 0.03173859 0.91391475 0 0 0
-0.82607564 0.02785521 0.92714885 0 0 0
-0.82414798 0.02741734 0.94490681 0 0 0
-0.82980438 0.03509622 1.29385352 182 185 181
-0.83000638 0.02518147 1.30633498 178 179 176
-0.83572682 0.05471638 0.89598787 0 0 0
-0.82825603 0.04849886 0.90830942 0 0 0
-0.82126226 0.04211333 0.92126518 0 0 0
-0.83004904 0.05205289 1.27129245 184 187 186
-0.82953200 0.04260729 1.28407542 184 187 183
-0.83790108 0.07782475 0.87840546 0 0 0
-0.82986957 0.07010482 0.88979200 0 0 0
-0.82246172 0.06261978 0.90255596 0 0 0
-0.82690546 0.06603883 0.95063394 0 0 0
-0.83801798 0.07343132 0.96468890 0 0 0
-0.82990294 0.07630104 1.23667741 183 186 184
-0.83006007 0.06642854 1.25111883 184 188 187
-0.83109514 0.09142888 0.87311477 0 0 0
-0.82450295 0.08377156 0.88320874 0 0 0
-0.82662225 0.08754204 0.95220041 0 0 0
-0.83452571 0.08174333 0.96130455 0 0 0
-0.82974154 0.09345796 1.20997441 182 188 186
-0.82987501 0.08318440 1.22624940 183 188 187
-0.83190548 0.11481057 0.85662642 0 0 0
-0.82781197 0.10601360 0.86453730 0 0 0
-0.83040896 0.11533671 1.17174033 178 185 182
-0.82950067 0.10529996 1.19011821 186 189 188
-0.82742472 0.12857520 0.84841532 0 0 0
-0.83471842 0.13923982 1.09716374 59 57 64
-0.83063327 0.13740677 1.10998481 84 82 89
-0.82948925 0.13368996 1.13029403 133 134 133
-0.83015135 0.12574720 1.15049534 164 166 165
-0.82318361 0.12035971 1.16257949 175 181 178
-0.82294027 0.14429178 0.83710002 0 0 0
-0.82194089 0.14079874 0.84068898 0 0 0
-0.83822315 0.15919201 0.96748996 10 12 14
-0.83773094 0.15936370 1.03950453 48 51 60
-0.83048033 0.15636379 1.05003641 48 49 57
-0.83000617 0.14928474 1.06984119 47 47 55
-0.82915805 0.14303170 1.08811881 55 53 59
-0.82266001 0.14025888 1.10109667 71 68 79
-0.82612306 0.17006362 0.95352385 16 17 19
-0.83438320 0.16262305 0.96305784 12 14 14
-0.83102755 0.17861873 0.99629485 45 47 55
-0.83005532 0.17278408 1.00986310 46 49 56
-0.82970524 0.16453077 1.02944281 49 49 59
-0.82133652 0.16086854 1.04150077 48 49 55
-0.82358518 0.19335858 0.95575900 44 48 52
-0.82925833 0.18846494 0.97055279 43 46 54
-0.82915339 0.18307520 0.98620434 44 47 55
-0.81689957 -0.76421818 1.35710913 125 167 179
-0.81118197 -0.76450667 1.37159488 120 143 147
-0.81161437 -0.75064135 1.11861187 0 0 0
-0.80758561 -0.74423649 1.12147235 0 0 0
-0.81492219 -0.74658430 1.31971812 125 169 185
-0.80600950 -0.75619978 1.34286588 123 165 180
-0.80959330 -0.74990700 1.37447150 96 91 90
-0.81016870 -0.72989325 1.12586980 0 0 0
-0.81051129 -0.73355609 1.29208738 125 172 188
-0.80992801 -0.73004542 1.37693404 91 84 83
-0.80983126 -0.70987026 1.13337794 0 0 0
-0.81523049 -0.71591485 1.25022535 77 107 121
-0.81032462 -0.71039900 1.37783637 89 81 77
-0.81137456 -0.69529689 1.13838358 0 0 0
-0.80913148 -0.68571065 1.14439706 0 0 0
-0.80862477 -0.68723732 1.19116682 41 60 67
-0.81398390 -0.69610800 1.20836258 43 62 69
-0.80965127 -0.69058560 1.37843670 88 80 76
-0.81030263 -0.67644176 1.15387035 0 0 0
-0.80674995 -0.67666112 1.16757844 1 1 2
-0.80985850 -0.67051355 1.37907041 88 78 74
-0.81179757 -0.65182922 1.37978409 91 78 73
-0.80448959 -0.64476753 1.38008221 88 80 73
-0.81732254 -0.63264155 1.37995374 88 78 73
-0.80857687 -0.62921041 1.38016888 88 78 73
-0.81874704 -0.61729469 1.37998992 90 78 74
-0.81013109 -0.60990586 1.38027646 91 77 73
-0.80951472 -0.59008982 1.38051703 88 77 70
-0.80963921 -0.56989573 1.38072926 87 75 72
-0.80964897 -0.54961734 1.38074587 90 75 69
-0.80981781 -0.52944210 1.38103391 86 70 64
-0.81003541 -0.51005280 1.38270901 67 55 51
-0.81008559 -0.48996402 1.38665357 61 49 48
-0.81002271 -0.46979967 1.39089494 57 43 43
-0.81011925 -0.44937525 1.39180401 54 43 44
-0.80991998 -0.43002412 1.39146161 56 46 46
-0.80984565 -0.41074608 1.39133390 60 51 50
-0.80976563 -0.39026668 1.39119639 66 56 53
-0.80974698 -0.36981909 1.39116439 73 60 55
-0.80981418 -0.35061201 1.39127981 76 65 63
-0.80986665 -0.33019328 1.39136991 88 72 68
-0.80995009 -0.30978385 1.39151322 98 82 74
-0.80999692 -0.29055968 1.39159351 103 85 77
-0.81006315 -0.27013703 1.39170736 106 86 78
-0.81007857 -0.24969559 1.39173384 110 90 82
-0.81009069 -0.23045496 1.39175459 112 94 80
-0.81012280 -0.21001621 1.39180984 117 97 82
-0.81018071 -0.18958189 1.39190937 118 101 84
-0.81021041 -0.17034181 1.39196047 122 102 88
-0.81018140 -0.14988656 1.39191061 124 105 93
-0.81002972 -0.12941320 1.39165000 133 111 96
-0.80988457 -0.11015030 1.39140053 137 116 97
-0.80979475 -0.08969896 1.39124609 140 117 100
-0.80987927 -0.06893089 1.39029909 137 115 98
-0.81008565 -0.04982710 1.38557902 145 133 111
-0.80984007 -0.02916992 1.37099025 135 134 134
-0.80964688 -0.03890466 1.38074195 131 126 109
-0.80993278 -0.00069827 1.33785148 175 176 175
-0.80993999 -0.01117972 1.35012452 175 177 176
-0.81016459 0.01750282 1.31570129 179 181 176
-0.81015783 0.00728360 1.32817666 179 179 175
-0.81810351 0.03515007 0.93219549 0 0 0
-0.81953353 0.03688921 0.94029057 0 0 0
-0.80989500 0.03499810 1.29397489 183 185 182
-0.80995409 0.02527545 1.30619799 180 181 177
-0.81613034 0.05525152 0.91624801 0 0 0
-0.81369828 0.04882658 0.92584022 0 0 0
-0.81006788 0.05202755 1.27150902 185 187 187
-0.80958246 0.04260861 1.28411508 185 188 184
-0.81716561 0.07616077 0.89652972 0 0 0
-0.81023654 0.07045173 0.90997287 0 0 0
-0.80743787 0.06723662 0.92511342 0 0 0
-0.81081116 0.07704695 1.23615280 184 185 184
-0.80968122 0.06820685 1.24904685 186 188 187
-0.81080913 0.06032811 1.26014874 185 189 188
-0.81706643 0.09737961 0.87785477 0 0 0
-0.81055980 0.09057431 0.89042379 0 0 0
-0.80358725 0.08433942 0.90477195 0 0 0
-0.80693196 0.08981532 0.92818024 0 0 0
-0.81796089 0.09396252 0.94222325 0 0 0
-0.80968586 0.09366150 1.21060911 185 189 187
-0.81018770 0.08302434 1.22718016 184 188 187
-0.81824888 0.11920736 0.85922014 0 0 0
-0.81070524 0.11115204 0.87093447 0 0 0
-0.80405440 0.10382448 0.88397836 0 0 0
-0.80648401 0.10948130 0.92900283 0 0 0
-0.81015495 0.11565842 1.17265508 182 187 186
-0.80928158 0.10603779 1.19000484 188 190 189
-0.81109815 0.13167061 0.85259325 0 0 0
-0.80518492 0.12348400 0.86327919 0 0 0
-0.81573511 0.13914367 1.11506038 110 110 111
-0.81011544 0.13530374 1.13039040 148 149 148
-0.80944227 0.12722035 1.14965108 172 178 175
-0.81027318 0.12095507 1.16251297 178 184 182
-0.81016524 0.15250239 0.83365011 0 0 0
-0.80750963 0.14347923 0.84347256 0 0 0
-0.81086029 0.15747452 1.05415767 44 44 52
-0.81021645 0.15190683 1.06980467 46 46 52
-0.80999314 0.14546625 1.08961936 60 60 64
-0.80794871 0.14161310 1.10844126 100 101 106
-0.80316288 0.16853175 0.81718646 0 0 0
-0.80489346 0.16303373 0.82389842 0 0 0
-0.81730379 0.17804307 0.94334452 19 20 24
-0.81455067 0.17904730 0.99896026 45 45 54
-0.80996462 0.17508118 1.00994332 44 45 54
-0.81006878 0.16702400 1.02987514 45 45 53
-0.80898000 0.16151659 1.04421661 45 44 51
-0.80743057 0.18879660 0.93210495 27 29 31
-0.81099722 0.19757756 0.95265857 43 45 53
-0.81017257 0.19159990 0.96987843 42 43 53
-0.80957787 0.18371043 0.98913506 44 45 53
-0.80415970 0.20361036 0.93463595 41 42 55
-0.80562240 0.20136091 0.94395736 40 42 54
-0.79095510 -0.76303789 1.36955485 123 158 165
-0.79653799 -0.75452977 1.11955158 0 0 0
-0.78918636 -0.74785132 1.12291842 0 0 0
-0.79055842 -0.74284352 1.31712985 128 167 185
-0.78809905 -0.74469220 1.32446675 127 165 180
-0.78495294 -0.75255970 1.34258664 120 162 180
-0.78977623 -0.74996306 1.37421050 97 96 97
-0.79021331 -0.73004093 1.12862691 0 0 0
-0.79592938 -0.72930693 1.28655537 118 167 184
-0.78992631 -0.73047352 1.37727800 91 87 82
-0.79038810 -0.71091908 1.13575609 0 0 0
-0.78474243 -0.70170208 1.14049166 0 0 0
-0.79717282 -0.70460741 1.23234415 79 113 125
-0.79024796 -0.71054818 1.37812587 91 83 76
-0.79680881 -0.69860811 1.13951771 0 0 0
-0.78964694 -0.68913811 1.14633399 0 0 0
-0.79382794 -0.68132466 1.18446004 70 101 112
-0.78196874 -0.69302072 1.21207976 68 96 105
-0.78973899 -0.68933522 1.37888508 89 81 76
-0.79094920 -0.67725526 1.15684129 0 0 0
-0.78710524 -0.67531757 1.16701877 6 9 10
-0.79021956 -0.66992233 1.37951156 88 80 74
-0.78180545 -0.66144548 1.38004118 93 78 73
-0.79617375 -0.65767230 1.37990963 87 80 73
-0.78953582 -0.64861011 1.38029329 88 79 73
-0.79045059 -0.62948052 1.38056025 90 78 75
-0.79041401 -0.61058429 1.38073123 90 78 72
-0.78949833 -0.59028830 1.38098141 91 76 71
-0.78960633 -0.57007778 1.38117029 92 75 71
-0.78962400 -0.54979859 1.38120124 88 75 69
-0.78977505 -0.52960763 1.38146542 87 72 67
-0.79009485 -0.50956458 1.38301536 69 55 51
-0.79005305 -0.48944776 1.38689948 62 50 48
-0.78998577 -0.46931192 1.39124282 58 44 42
-0.78996957 -0.44954494 1.39232957 52 43 43
-0.78975993 -0.43017818 1.39196012 56 46 45
-0.78945977 -0.40992650 1.39180662 60 51 49
-0.78979539 -0.38947572 1.39162142 67 55 52
-0.78957780 -0.36994527 1.39163903 71 60 55
-0.78963066 -0.35072604 1.39173215 79 66 63
-0.78967378 -0.33029727 1.39180813 88 72 70
-0.78972875 -0.30987113 1.39190490 99 82 72
-0.78974646 -0.29063123 1.39193611 104 85 75
-0.78980197 -0.27020042 1.39203381 108 88 75
-0.78980350 -0.24974990 1.39203642 111 92 80
-0.78980723 -0.23050271 1.39204294 113 93 83
-0.78983803 -0.21005956 1.39209719 117 98 84
-0.78990801 -0.18962421 1.39222056 119 100 86
-0.78995496 -0.17038381 1.39230332 125 102 88
-0.78992444 -0.14992301 1.39224956 127 106 90
-0.78978120 -0.12944550 1.39199717 134 111 98
-0.78962060 -0.11017521 1.39171407 136 117 98
-0.79000651 -0.09002865 1.39151342 138 118 100
-0.79018259 -0.06922779 1.39058601 138 117 98
-0.79003538 -0.04984594 1.38611557 148 133 114
-0.78981317 -0.02917564 1.37119156 147 145 139
-0.78959000 -0.03891593 1.38114183 161 149 135
-0.79031817 -0.00069830 1.33791995 178 178 177
-0.78984140 -0.01128238 1.35028143 176 177 176
-0.79009722 0.01758948 1.31563698 181 182 176
-0.79011141 0.00734885 1.32816589 181 182 178
-0.79024218 0.03519544 1.29375558 183 185 182
-0.78993435 0.02537055 1.30610454 182 182 178
-0.78999801 0.05215880 1.27137292 184 187 186
-0.78961281 0.04260893 1.28412477 185 187 185
-0.78999245 0.07733576 1.23609939 185 187 184
-0.79000404 0.06849852 1.24879264 185 189 188
-0.79016899 0.06033206 1.26023127 183 188 187
-0.79814506 0.09775041 0.89727140 0 0 0
-0.79691668 0.09168668 0.90831887 0 0 0
-0.78985496 0.09456047 1.20992597 187 189 189
-0.79009678 0.08419089 1.22588902 183 187 185
-0.79668775 0.11727048 0.87690470 0 0 0
-0.79161121 0.11089757 0.89029465 0 0 0
-0.79025043 0.10698042 0.90534512 0 0 0
-0.79996578 0.11897368 0.92149436 0 0 0
-0.78959378 0.11601736 1.17359480 184 188 187
-0.78981894 0.10644128 1.19043546 188 191 190
-0.78040551 0.10100485 1.20000148 188 189 189
-0.79542013 0.13685853 0.85660809 0 0 0
-0.78978245 0.12962834 0.86934215 0 0 0
-0.78327333 0.12308828 0.88605233 0 0 0
-0.79082865 0.12921767 0.91072994 0 0 0
-0.79892148 0.12040902 0.92029142 0 0 0
-0.79035495 0.13649904 1.13140916 160 163 163
-0.78974793 0.12790458 1.15068623 179 184 183
-0.78980630 0.12122940 1.16389195 182 186 186
-0.79277517 0.15673994 0.83622463 0 0 0
-0.78891652 0.14803750 0.84860747 0 0 0
-0.78200819 0.14140633 0.86191493 0 0 0
-0.78090551 0.14801160 0.89953852 0 0 0
-0.78347168 0.14303585 0.90249453 0 0 0
-0.79377328 0.15897225 1.05639610 44 43 48
-0.79020725 0.15471885 1.06960727 49 48 53
-0.79009093 0.14880098 1.08940786 70 69 75
-0.78995340 0.14413533 1.11036941 124 124 127
-0.78633486 0.14088385 1.12121662 151 151 152
-0.79051203 0.17484785 0.81381134 0 0 0
-0.78878691 0.16535031 0.82744958 0 0 0
-0.79094107 0.17684600 1.01185787 41 41 50
-0.79015894 0.16969958 1.02974227 41 40 48
-0.78861845 0.16297222 1.04757009 44 42 48
-0.78305304 0.18698812 0.79700835 0 0 0
-0.78511664 0.18238898 0.80444837 0 0 0
-0.79567675 0.19873233 0.91838226 32 33 47
-0.79846249 0.19624229 0.92159760 31 32 36
-0.79123693 0.19859364 0.95698447 40 40 48
-0.78992663 0.19362319 0.97005250 41 41 49
-0.79013637 0.18566872 0.99002170 42 42 51
-0.78670779 0.18104642 1.00287127 42 41 50
-0.78585213 0.21103533 0.91283045 38 38 49
-0.78972276 0.20771108 0.93003954 39 39 49
-0.78953737 0.20245838 0.94698928 40 39 49
-0.77404990 -0.76123462 1.36780291 126 160 171
-0.76978994 -0.74913807 1.12562878 0 0 0
-0.77973855 -0.74110198 1.31808138 126 167 182
-0.76174245 -0.75367037 1.35082430 120 157 173
-0.76997569 -0.75049543 1.37423608 103 103 106
-0.77009300 -0.72990603 1.13174533 0 0 0
-0.77068938 -0.73786573 1.31333569 120 164 181
-0.76989328 -0.72929427 1.37771438 91 87 81
-0.77110387 -0.71424540 1.13741453 0 0 0
-0.76846001 -0.70478045 1.14203678 0 0 0
-0.76704097 -0.70805694 1.25034034 118 157 171
-0.77392584 -0.71301740 1.26038277 129 168 185
-0.77034459 -0.70970050 1.37850713 94 84 77
-0.77007607 -0.68970878 1.15027191 0 0 0
-0.76153225 -0.68039968 1.16018879 0 0 0
-0.76764500 -0.68135201 1.18986714 11 16 18
-0.76931744 -0.68814333 1.20536530 65 87 95
-0.77071550 -0.69484002 1.22079134 112 153 165
-0.76985631 -0.68994947 1.37923202 88 83 75
-0.77530461 -0.67908560 1.15857028 0 0 0
-0.76945361 -0.67583453 1.16602626 1 1 1
-0.77061601 -0.67305530 1.37975945 88 81 74
-0.76845288 -0.66418487 1.38015766 89 79 74
-0.77021378 -0.64980106 1.38064191 88 79 74
-0.77041738 -0.62968422 1.38100705 89 81 74
-0.77037577 -0.61049224 1.38116285 89 79 73
-0.77016756 -0.59001584 1.38138668 89 78 71
-0.76952457 -0.57023315 1.38154670 91 77 69
-0.76954941 -0.54995383 1.38159134 91 74 70
-0.76970142 -0.52976054 1.38186435 87 74 68
-0.76983142 -0.51018048 1.38298919 71 56 51
-0.77005437 -0.48970116 1.38680184 67 50 48
-0.76987776 -0.46973568 1.39127640 60 44 45
-0.76972877 -0.44967011 1.39271748 52 43 43
-0.76953929 -0.43030626 1.39237468 57 46 46
-0.76944285 -0.40979879 1.39220019 60 52 49
-0.76935579 -0.38930101 1.39204276 69 56 54
-0.76937193 -0.37006038 1.39207194 75 60 57
-0.76915504 -0.35004730 1.39215272 78 65 61
-0.76971079 -0.32967149 1.39219767 88 72 68
-0.76947284 -0.30994896 1.39225440 99 82 74
-0.76948952 -0.29070401 1.39228459 105 85 79
-0.76951801 -0.27025917 1.39233602 106 87 77
-0.76950422 -0.24979919 1.39231101 111 92 83
-0.76948704 -0.23054197 1.39227981 116 93 82
-0.76951309 -0.21009422 1.39232702 118 98 83
-0.76958117 -0.18965552 1.39245025 121 103 87
-0.76961122 -0.17040844 1.39250456 125 102 90
-0.76959623 -0.14994754 1.39247745 127 108 90
-0.76946303 -0.12946770 1.39223643 133 111 93
-0.76934216 -0.11019916 1.39201798 135 119 97
-0.76982881 -0.08942268 1.39186800 138 119 98
-0.77011378 -0.06944202 1.39074262 137 116 97
-0.76994207 -0.04972604 1.38627965 148 132 114
-0.76992319 -0.02921973 1.37139518 148 146 140
-0.76960378 -0.03893136 1.38168923 148 137 130
-0.77073448 -0.00069837 1.33804581 171 172 171
-0.77005948 -0.01117965 1.35026709 171 172 171
-0.77007788 0.01750481 1.31585070 181 181 177
-0.77007218 0.00741581 1.32817564 179 179 176
-0.77021969 0.03519587 1.29394839 184 185 183
-0.76997189 0.02527842 1.30634991 182 182 179
-0.76981152 0.05308141 1.27043119 183 186 185
-0.77003349 0.04367633 1.28293974 183 187 185
-0.76997624 0.07736399 1.23655051 185 189 188
-0.77019722 0.06839702 1.24935873 186 188 188
-0.76968999 0.06034884 1.26058169 186 188 188
-0.77018442 0.09442792 1.21077045 187 191 190
-0.76987864 0.08418830 1.22647449 183 188 186
-0.77004613 0.11612857 1.17471848 185 188 187
-0.76971352 0.10733871 1.18991040 186 192 191
-0.76919423 0.10103075 1.20030923 189 192 191
-0.77605690 0.13624193 0.87483727 0 0 0
-0.77604493 0.13074652 0.88625559 0 0 0
-0.76992779 0.13742870 1.13273363 166 173 172
-0.76993353 0.12964110 1.14931237 184 188 187
-0.76995317 0.12209589 1.16383201 183 188 187
-0.77251393 0.15465888 0.85270980 0 0 0
-0.76869100 0.14788382 0.86807545 0 0 0
-0.77186707 0.14845707 0.88736970 0 0 0
-0.77048819 0.15709969 1.07067647 53 53 57
-0.77016687 0.15213920 1.08983945 88 88 92
-0.77030999 0.14655282 1.11019899 140 143 142
-0.76817436 0.14182133 1.12268166 161 164 164
-0.77406566 0.17782690 0.81680238 0 0 0
-0.77011296 0.17087477 0.82992888 0 0 0
-0.76603187 0.16322661 0.84551244 0 0 0
-0.76162903 0.17447321 0.87698543 0 0 0
-0.76863975 0.16785793 0.88540938 0 0 0
-0.77064057 0.17807674 1.01515155 40 40 46
-0.77021587 0.17223699 1.02984388 42 41 46
-0.76985272 0.16456592 1.04987693 45 43 50
-0.76558869 0.16090849 1.06154905 48 46 52
-0.76950206 0.19383043 0.79189391 0 0 0
-0.76884188 0.18475162 0.80818589 0 0 0
-0.77617586 0.19985240 0.95798815 39 39 48
-0.77037499 0.19595845 0.97007182 40 40 47
-0.77005717 0.18831572 0.98979758 40 39 48
-0.76941129 0.18229896 1.00511902 40 39 46
-0.76287762 0.20412580 0.77671184 0 0 0
-0.76367859 0.20100615 0.78209320 0 0 0
-0.76193689 0.21268278 0.87768824 17 18 24
-0.77252514 0.21763105 0.89545674 36 35 47
-0.77008945 0.21620393 0.91016224 36 35 47
-0.76988310 0.21029436 0.92984968 36 35 44
-0.76962725 0.20374719 0.94934219 39 38 47
-0.76337519 0.20040394 0.96063192 39 39 48
-0.76091211 0.22268689 0.87825638 33 34 54
-0.76404893 0.22161539 0.89096895 36 35 46
-0.74263822 -0.76024845 1.12695285 0 0 0
-0.74998286 -0.74986156 1.12890750 0 0 0
-0.74127991 -0.74600339 1.33914864 127 157 175
-0.75149337 -0.75159050 1.35002081 125 159 175
-0.75021302 -0.74991314 1.37379703 107 112 114
-0.75020625 -0.73009699 1.13527377 0 0 0
-0.74171450 -0.72060362 1.14050812 0 0 0
-0.75001614 -0.72336820 1.28918727 120 162 180
-0.74149655 -0.73477098 1.31490564 121 160 176
-0.74992039 -0.72970824 1.37789897 94 85 83
-0.75519391 -0.71766521 1.13893306 0 0 0
-0.74920210 -0.70886579 1.14425105 0 0 0
-0.74785778 -0.70083734 1.23885238 80 108 120
-0.75443980 -0.70496367 1.24710572 117 155 166
-0.75013310 -0.70971585 1.37882215 93 84 77
-0.75089822 -0.69175365 1.15342488 0 0 0
-0.74691569 -0.68251875 1.16344089 0 0 0
-0.75590325 -0.68252223 1.19733500 53 75 80
-0.74772797 -0.69584397 1.22815901 74 98 109
-0.75049226 -0.68988534 1.37954326 90 81 75
-0.74085566 -0.68132073 1.38003683 91 80 75
-0.75093391 -0.67657139 1.17103727 0 0 0
-0.74453504 -0.67595775 1.18582070 31 44 48
-0.75527675 -0.67607264 1.37987370 92 83 75
-0.74861114 -0.66866442 1.38033668 94 80 74
-0.75011164 -0.64995852 1.38097652 93 79 75
-0.75034942 -0.62986992 1.38141444 90 79 73
-0.75043638 -0.60964553 1.38157448 90 80 70
-0.74998304 -0.58971425 1.38177442 90 78 71
-0.74940262 -0.57036651 1.38186971 90 77 70
-0.74943642 -0.55008941 1.38193204 90 76 70
-0.74957823 -0.52988665 1.38219341 87 74 66
-0.74988050 -0.50975161 1.38302223 74 58 54
-0.75004903 -0.48994749 1.38668571 65 51 47
-0.74998296 -0.46986371 1.39126869 58 45 45
-0.75050524 -0.44984590 1.39309035 52 43 44
-0.75047613 -0.43041522 1.39272697 56 46 46
-0.75037441 -0.40989825 1.39253809 60 50 48
-0.75028341 -0.38939228 1.39236910 70 54 52
-0.75030714 -0.37015105 1.39241316 73 58 55
-0.75034326 -0.34971117 1.39248016 77 65 60
-0.75035904 -0.32926037 1.39250936 87 72 66
-0.75037381 -0.31001184 1.39253669 99 80 74
-0.75035633 -0.29074991 1.39250405 104 84 76
-0.75036386 -0.27029449 1.39251795 109 86 77
-0.75033930 -0.24982818 1.39247240 111 92 82
-0.75031834 -0.23056741 1.39243356 113 96 81
-0.75036718 -0.21012393 1.39252425 120 98 83
-0.75044280 -0.18968472 1.39266457 121 99 87
-0.75045807 -0.17043150 1.39269285 125 102 87
-0.75042307 -0.14996378 1.39262781 125 108 91
-0.75031160 -0.12948477 1.39242109 135 113 94
-0.75024430 -0.11022107 1.39229639 136 120 98
-0.75021103 -0.08976282 1.39223482 139 120 100
-0.74980919 -0.06902493 1.39088082 138 118 99
-0.74997100 -0.04992342 1.38626709 147 130 115
-0.74994238 -0.02901394 1.37114809 117 116 118
-0.74831758 -0.03866322 1.38157898 96 87 83
-0.74997124 -0.00069842 1.33813700 141 146 149
-0.75022647 -0.01128309 1.35038996 144 146 150
-0.75007818 0.01750681 1.31600886 141 144 145
-0.75023408 0.00732848 1.32838024 156 157 158
-0.74997252 0.03510690 1.29424454 158 161 160
-0.75004410 0.02531347 1.30650100 156 157 157
-0.74982437 0.05312906 1.27062634 174 177 177
-0.75019524 0.04368324 1.28314270 162 168 166
-0.74995406 0.07739306 1.23701492 172 178 176
-0.75019392 0.06853672 1.24952382 172 174 174
-0.75023879 0.06036155 1.26084718 167 171 170
-0.75014804 0.09468302 1.21105129 181 185 184
-0.75005377 0.08414284 1.22710370 177 182 180
-0.75098193 0.11676752 1.17462877 184 190 188
-0.74949138 0.10813158 1.18941920 185 192 191
-0.74990044 0.10108672 1.20097411 183 189 188
-0.75141906 0.13766370 1.13442761 176 183 182
-0.75011394 0.12995043 1.15039169 184 189 188
-0.75054924 0.12221183 1.16493642 183 188 187
-0.75940039 0.15936948 0.85880806 0 0 0
-0.75869532 0.15820690 0.86554030 0 0 0
-0.75244215 0.15844814 1.07504521 68 66 70
-0.74973351 0.15513270 1.09011481 111 111 113
-0.75009891 0.14817548 1.11031592 157 158 159
-0.74842828 0.14200915 1.12504237 172 176 176
-0.75379727 0.17648529 0.83349609 0 0 0
-0.75116425 0.17074074 0.84922621 0 0 0
-0.75429832 0.16587734 0.86432166 0 0 0
-0.75264979 0.17908661 1.01799867 41 40 47
-0.75019440 0.17464349 1.02994982 42 41 46
-0.75004751 0.16709954 1.04995226 47 45 50
-0.74857713 0.16177008 1.06566820 57 54 58
-0.75207685 0.19727579 0.79485239 0 0 0
-0.75000603 0.19012947 0.80995988 0 0 0
-0.74707285 0.18316815 0.82702733 0 0 0
-0.74224809 0.18337229 0.85079908 0 0 0
-0.75659550 0.19009440 0.87153539 3 3 4
-0.75102844 0.19719227 0.97285820 39 38 46
-0.74989969 0.19056615 0.99010165 39 39 45
-0.74956078 0.18324942 1.00860510 40 39 45
-0.74601547 0.21930494 0.75887313 0 0 0
-0.74900625 0.21123849 0.77081159 0 0 0
-0.74839880 0.20306467 0.78592251 0 0 0
-0.75793904 0.21017095 0.87308304 18 17 23
-0.75071246 0.21789526 0.91271617 33 32 41
-0.75001454 0.21255933 0.92999995 36 35 44
-0.74994155 0.20582992 0.95015888 38 38 46
-0.74808992 0.20120317 0.96333417 38 38 47
-0.74225022 0.22211915 0.75582288 0 0 0
-0.74244212 0.23104543 0.85745339 33 32 40
-0.74828282 0.22820440 0.87127101 32 32 42
-0.75004966 0.22443231 0.88982108 33 33 41
-0.74780198 0.22104447 0.90334694 33 32 41
-0.72842325 -0.76126498 1.12958609 0 0 0
-0.73000027 -0.75002979 1.13273635 0 0 0
-0.73328475 -0.74029068 1.33302975 129 162 176
-0.72431451 -0.74895831 1.35284793 139 160 166
-0.73017081 -0.74887832 1.37360356 107 113 111
-0.73164803 -0.73362341 1.13775018 0 0 0
-0.72768674 -0.72474117 1.14201103 0 0 0
-0.72309694 -0.73230650 1.31865275 123 157 171
-0.73100755 -0.73796985 1.32472765 126 162 177
-0.72986581 -0.72931980 1.37811064 96 86 86
-0.73003773 -0.70999642 1.14830660 0 0 0
-0.72700195 -0.70122248 1.24715400 114 151 173
-0.73023556 -0.71488599 1.27537572 109 147 160
-0.73007341 -0.70990777 1.37919520 95 84 79
-0.73150143 -0.69558155 1.15625705 0 0 0
-0.72934063 -0.68575076 1.16564238 0 0 0
-0.72823511 -0.68312729 1.20756110 75 97 109
-0.73539255 -0.69312494 1.22521937 50 63 71
-0.73218604 -0.69470731 1.37977921 93 82 77
-0.72781815 -0.68542731 1.38017137 96 81 77
-0.73049229 -0.67691517 1.17551740 0 0 0
-0.72961355 -0.67453294 1.18414067 6 8 9
-0.72964147 -0.67008036 1.38063283 92 81 76
-0.73001433 -0.65012889 1.38133848 94 81 74
-0.73025423 -0.63004227 1.38179244 91 79 74
-0.73032970 -0.60980474 1.38193522 94 79 73
-0.73042915 -0.58958220 1.38212331 91 78 73
-0.73046543 -0.57049943 1.38219183 90 77 70
-0.73048976 -0.55021126 1.38223785 90 76 69
-0.73058615 -0.52997358 1.38242009 87 75 68
-0.73012516 -0.50972181 1.38309559 73 62 55
-0.73002637 -0.48938188 1.38671261 66 51 50
-0.73002100 -0.46934802 1.39127028 58 46 46
-0.73027019 -0.44986259 1.39347296 52 42 43
-0.73026217 -0.43056116 1.39319911 57 45 45
-0.73014858 -0.41002915 1.39298242 62 50 49
-0.73002224 -0.38949641 1.39274127 67 54 51
-0.73002161 -0.37023789 1.39273980 71 59 55
-0.73004884 -0.34978945 1.39279173 77 63 60
-0.73003584 -0.32932131 1.39276681 86 71 66
-0.73003490 -0.31006266 1.39276493 97 79 72
-0.73000511 -0.29079256 1.39270820 103 84 75
-0.72998866 -0.27032535 1.39267662 106 86 77
-0.72996133 -0.24985545 1.39262447 112 92 73
-0.72994239 -0.23059308 1.39258830 112 94 81
-0.72998064 -0.21014460 1.39266125 120 97 82
-0.73005695 -0.18970409 1.39280685 121 99 87
-0.73007591 -0.17044988 1.39284306 125 103 85
-0.73003813 -0.14997914 1.39277103 126 105 90
-0.72995806 -0.12950305 1.39261832 135 113 92
-0.72991991 -0.11024075 1.39254559 136 116 98
-0.72992420 -0.08978330 1.39255380 138 118 99
-0.73006800 -0.06947622 1.39116030 136 117 98
-0.72986765 -0.04977543 1.38613016 148 130 114
-0.72999198 -0.02796359 1.37011152 122 123 126
-0.72988427 -0.03772177 1.38109235 55 49 51
-0.73030977 -0.00069841 1.33813269 152 153 157
-0.73007156 -0.01111221 1.35014984 140 142 146
-0.73000773 0.01750745 1.31604839 144 146 145
-0.72998621 0.00732897 1.32844065 154 156 157
-0.73005525 0.03500845 1.29435766 144 145 147
-0.73002535 0.02528295 1.30658401 146 150 148
-0.72995385 0.05315378 1.27073221 156 159 160
-0.73025070 0.04368421 1.28316961 148 151 153
-0.73029584 0.07745892 1.23716790 157 161 164
-0.72997242 0.06839824 1.24997253 151 152 154
-0.73072987 0.06037018 1.26102753 160 160 162
-0.72998649 0.09469972 1.21148081 143 147 152
-0.73005464 0.08424063 1.22723596 153 157 159
-0.73053111 0.11715883 1.17483757 146 154 157
-0.72991579 0.10839424 1.18961266 142 147 152
-0.73046238 0.10112570 1.20143722 136 140 151
-0.73008739 0.13785842 1.13622345 160 169 169
-0.73058070 0.13081493 1.15005852 158 166 167
-0.72959794 0.12264496 1.16523565 143 153 153
-0.73599892 0.15977726 1.07868606 91 87 93
-0.73037130 0.15674837 1.09152457 136 136 137
-0.72983162 0.14979005 1.11001227 166 168 166
-0.72961746 0.14250308 1.12641231 164 170 168
-0.73024543 0.17664365 1.03055641 43 43 45
-0.73045855 0.16938559 1.04964388 52 48 50
-0.72938328 0.16323142 1.06875073 74 70 75
-0.72592681 0.16022909 1.08173650 109 109 112
-0.73836251 0.19978963 0.79884268 0 0 0
-0.73294747 0.19639362 0.81195268 0 0 0
-0.73182094 0.19113112 0.82883676 0 0 0
-0.73750449 0.18629973 0.84466349 0 0 0
-0.73046927 0.19826695 0.97561826 38 38 43
-0.72990479 0.19263772 0.99001974 40 39 44
-0.73024529 0.18472106 1.01006413 40 39 44
-0.72329636 0.18098478 1.02126461 42 42 44
-0.73091754 0.21547192 0.77112934 0 0 0
-0.72988615 0.20704091 0.78967378 0 0 0
-0.72502978 0.20223935 0.80669019 0 0 0
-0.72437750 0.20794499 0.83128794 2 2 2
-0.73516726 0.20770914 0.84516910 0 0 0
-0.73193699 0.21890476 0.91689237 34 34 42
-0.73005414 0.21496476 0.92989969 36 36 45
-0.72992598 0.20805011 0.94991741 38 37 45
-0.72973864 0.20223169 0.96557111 38 37 44
-0.72346220 0.23753935 0.73744628 0 0 0
-0.72907709 0.22779254 0.75080706 0 0 0
-0.72613280 0.22122651 0.76228759 0 0 0
-0.72373489 0.23410783 0.83502045 27 25 31
-0.72884856 0.23609935 0.85100997 32 31 39
-0.72991295 0.23197743 0.87011378 32 31 38
-0.73009897 0.22674692 0.89014471 32 31 40
-0.72899181 0.22211921 0.90732208 33 32 41
