ply
format ascii 1.0
element vertex 1048
property float x
property float y
property float z
property uchar red
property uchar green
property uchar blue
end_header
-0.32978383 0.24998648 0.94101275 171 171 172
-0.33015004 0.27061701 0.94205775 170 169 171
-0.33039449 0.29049703 0.94296391 159 161 163
-0.32994509 0.31026810 0.94380039 166 166 166
-0.32988000 0.32991338 0.94454213 159 160 162
-0.32964994 0.34997138 0.94529279 159 160 159
-0.32992135 0.36988204 0.94607120 161 162 163
-0.33018199 0.38981225 0.94681874 161 162 162
-0.33043229 0.40976052 0.94753655 159 159 159
-0.33015515 0.42988496 0.94815819 162 163 164
-0.32974495 0.44991869 0.94964940 10 10 11
-0.32994081 0.47035387 0.95084010 0 0 0
-0.33025383 0.49053986 0.95174195 0 0 0
-0.33053001 0.51070653 0.95253776 0 0 0
-0.33008328 0.53012427 0.95322037 0 0 0
-0.33006152 0.54092141 0.95356243 0 0 0
-0.31002880 -0.63041494 0.94793765 0 0 0
-0.30998540 -0.61060133 0.94761098 0 0 0
-0.31029920 -0.59085817 0.94715979 0 0 0
-0.31045558 -0.57065217 0.94654773 0 0 0
-0.31021151 -0.55058646 0.94580353 0 0 0
-0.30985724 -0.53036435 0.94472337 0 0 0
-0.31264919 -0.50110580 0.93961936 80 85 84
-0.30954553 -0.51103568 0.94300952 2 2 2
-0.31256626 -0.48604957 0.91212678 185 190 194
-0.31504665 -0.49744993 0.93352085 167 175 176
-0.30551933 -0.47270712 0.88708818 199 203 202
-0.30442858 -0.43742364 0.81822079 193 205 203
-0.30986082 -0.41551295 0.77348149 194 200 197
-0.31626611 -0.36897383 0.67704856 188 194 190
-0.30154024 -0.35049692 0.64314437 189 195 191
-0.31402203 -0.32005815 0.57812297 193 197 196
-0.31075314 -0.32333665 0.58564460 194 200 199
-0.31272327 -0.33602527 0.61015822 194 202 200
-0.31870813 -0.32058860 0.63673613 158 158 160
-0.31041674 -0.32209081 0.65260401 193 194 193
-0.30987248 -0.32577479 0.67045095 193 194 194
-0.31029708 -0.32832769 0.69054553 192 195 194
-0.30979838 -0.32947788 0.71037260 191 194 193
-0.30989576 -0.32920273 0.73005032 188 191 189
-0.30977787 -0.32723716 0.74999846 188 191 191
-0.31019145 -0.32335630 0.77003858 189 190 190
-0.31393110 -0.32046493 0.78132404 187 188 189
-0.31087131 -0.30448231 0.55302021 190 195 194
-0.31008927 -0.30873529 0.57093414 192 195 194
-0.30845574 -0.30792509 0.58946336 190 194 193
-0.30955745 -0.31378923 0.61048826 190 195 193
-0.31063169 -0.31702912 0.62905141 182 185 183
-0.30545788 -0.31918645 0.64311883 193 194 193
-0.30155464 -0.31980286 0.77970791 188 189 191
-0.30954136 -0.31580613 0.79123764 189 191 192
-0.31018642 -0.30599883 0.80840411 189 191 191
-0.31038543 -0.29135319 0.53529140 193 196 196
-0.30811814 -0.29474400 0.54747496 192 197 195
-0.30594605 -0.29897869 0.56344560 189 194 192
-0.30960186 -0.29864170 0.81807176 190 190 191
-0.31006619 -0.28886209 0.82858340 188 190 191
-0.31536715 -0.26128903 0.45607844 182 186 184
-0.31634495 -0.26450864 0.46767179 182 186 183
-0.30999382 -0.27863023 0.83840205 193 193 193
-0.31004813 -0.26876393 0.84611795 191 193 194
-0.31414578 -0.25736447 0.45401886 181 184 182
-0.31347959 -0.25996840 0.46236485 182 184 182
-0.30999530 -0.25415864 0.85607515 193 194 194
-0.31004804 -0.24398629 0.86205765 195 197 199
-0.30999237 -0.23027566 0.86911107 194 195 196
-0.30984181 -0.21241936 0.87692460 189 190 191
-0.31024226 -0.20205049 0.88086407 187 189 190
-0.31009251 -0.18939029 0.88513949 192 192 193
-0.30995122 -0.16993611 0.89117247 190 191 192
-0.30996871 -0.15004893 0.89645933 185 186 188
-0.30980725 -0.13728955 0.89953751 187 188 191
-0.31015884 -0.12757196 0.90166434 187 188 191
-0.31006924 -0.11008434 0.90516782 186 187 189
-0.30996664 -0.08989874 0.90879486 184 185 187
-0.30992876 -0.06969734 0.91206931 174 175 176
-0.31007105 -0.04968765 0.91491867 169 169 169
-0.30990518 -0.02964606 0.91751381 175 175 175
-0.31016672 -0.01483259 0.91934427 179 179 180
-0.30991456 -0.00445764 0.92064047 182 182 182
-0.30993872 0.01005213 0.92233267 175 175 176
-0.30997890 0.02967290 0.92443574 176 175 175
-0.31014323 0.05007283 0.92650013 180 181 182
-0.30999645 0.07001677 0.92837568 181 181 182
-0.30996479 0.09037084 0.93034399 179 180 181
-0.31002211 0.11004524 0.93197315 172 171 172
-0.30977839 0.12982235 0.93346927 177 176 177
-0.31004481 0.15040109 0.93498857 179 179 179
-0.31029105 0.17032553 0.93639851 178 178 179
-0.30997109 0.18994122 0.93765913 174 175 176
-0.30976092 0.20950082 0.93882707 175 175 175
-0.30983501 0.22527441 0.93970447 166 165 166
-0.31000747 0.23515006 0.94022731 164 164 164
-0.31026827 0.24998800 0.94101831 162 163 163
-0.31013360 0.27081743 0.94209845 166 166 168
-0.31004907 0.29039374 0.94301711 162 162 162
-0.30957121 0.31028515 0.94385223 161 161 161
-0.30981893 0.33012544 0.94460760 164 164 165
-0.31006366 0.34999407 0.94535394 164 164 165
-0.31032797 0.36991678 0.94615991 166 166 166
-0.31029853 0.39004218 0.94694729 160 161 161
-0.31000359 0.40981748 0.94766825 161 162 164
-0.30976272 0.42958778 0.94834507 140 140 142
-0.30993529 0.45022034 0.94996978 0 0 0
-0.31027462 0.47043748 0.95100928 0 0 0
-0.31055413 0.49060362 0.95186577 0 0 0
-0.31020247 0.51026583 0.95262907 0 0 0
-0.30933820 0.52939971 0.95329568 0 0 0
-0.30948992 0.54097443 0.95365590 0 0 0
-0.28956427 -0.63036954 0.94778196 0 0 0
-0.28946450 -0.61050109 0.94745542 0 0 0
-0.28981627 -0.59037193 0.94699261 0 0 0
-0.28995762 -0.57055850 0.94639236 0 0 0
-0.29054389 -0.55049049 0.94563859 0 0 0
-0.29021973 -0.53028577 0.94458356 0 0 0
-0.28981847 -0.51060289 0.94301914 0 0 0
-0.28480531 -0.48552439 0.91410619 144 147 144
-0.28771524 -0.49599940 0.93382770 116 118 117
-0.28330986 -0.49960543 0.94061685 65 65 65
-0.29000937 -0.46477312 0.87503737 190 199 197
-0.28242117 -0.47019014 0.88523610 183 188 186
-0.28803648 -0.44871549 0.84480536 192 196 195
-0.29199878 -0.45720590 0.86079043 197 201 200
-0.28030530 -0.43446902 0.81798327 189 192 191
-0.28548226 -0.43949963 0.82477057 196 200 198
-0.28913251 -0.36341705 0.67110908 191 199 200
-0.28394354 -0.37098850 0.68949246 197 203 201
-0.29296139 -0.32552288 0.59417687 192 201 195
-0.28901420 -0.33338986 0.61077967 191 201 195
-0.29061286 -0.32121073 0.65509136 193 196 195
-0.28997484 -0.32418002 0.66963456 190 192 192
-0.28964709 -0.32726891 0.68976714 188 192 191
-0.29013597 -0.32854946 0.71018330 189 193 192
-0.29002387 -0.32761533 0.73012542 190 191 191
-0.28992600 -0.32512101 0.75001885 187 190 190
-0.29076129 -0.32190929 0.76777377 187 188 188
-0.29051311 -0.30260151 0.55382165 192 198 195
-0.29308589 -0.30563280 0.57187263 192 197 195
-0.29039579 -0.30484810 0.59076917 192 194 192
-0.29042730 -0.30910746 0.61036701 192 195 192
-0.29036707 -0.31429604 0.62971254 194 197 194
-0.28844397 -0.31869240 0.64548061 192 196 194
-0.28764252 -0.31920049 0.77709575 187 189 189
-0.28993692 -0.31444476 0.79039278 188 189 189
-0.29032880 -0.30499400 0.80782526 190 191 191
-0.28413205 -0.28854214 0.53675541 191 194 192
-0.29151084 -0.29385627 0.54777395 190 195 192
-0.28845635 -0.29815218 0.56670398 190 195 193
-0.28038515 -0.29950250 0.58089185 185 187 187
-0.29006237 -0.29788847 0.81758656 191 191 192
-0.28998119 -0.28813594 0.82829376 192 193 193
-0.29010780 -0.27785011 0.83813060 190 191 191
-0.28999149 -0.26803474 0.84589206 191 193 192
-0.28986043 -0.25348593 0.85580348 192 193 193
-0.29011062 -0.24333434 0.86180892 191 192 195
-0.29003757 -0.23013553 0.86858328 194 196 197
-0.29002023 -0.21187113 0.87672595 187 189 191
-0.29061014 -0.20171855 0.88067179 192 193 195
-0.28988679 -0.18973925 0.88474511 190 191 192
-0.29003058 -0.16985759 0.89095237 188 189 190
-0.29004329 -0.14999774 0.89627968 187 188 191
-0.28885283 -0.13691932 0.89942779 190 190 192
-0.29042843 -0.12724229 0.90158088 187 187 190
-0.28991367 -0.10986231 0.90503720 187 188 190
-0.28992814 -0.08989331 0.90866492 181 181 182
-0.29012342 -0.07001029 0.91186614 174 175 176
-0.28993780 -0.04934574 0.91480423 171 171 172
-0.29005109 -0.02997822 0.91732682 168 168 169
-0.28954378 -0.01420966 0.91927683 178 178 180
-0.29046455 -0.00406516 0.92054603 182 182 182
-0.28997694 0.00970990 0.92213278 178 178 179
-0.29004705 0.03007311 0.92427346 178 177 177
-0.29004498 0.04984186 0.92618410 180 180 181
-0.28993790 0.07016370 0.92821911 178 171 175
-0.29009930 0.09039677 0.93130666 174 153 161
-0.29005979 0.10972334 0.93243479 178 160 168
-0.29019951 0.12971575 0.93373187 180 156 168
-0.29022852 0.15021999 0.93502677 177 152 161
-0.29006342 0.17020296 0.93637783 174 153 163
-0.28972521 0.18994964 0.93769993 172 154 162
-0.29012510 0.20968754 0.93899501 174 155 162
-0.29174462 0.22346983 0.93978391 173 163 168
-0.28973636 0.23259504 0.94036692 179 156 164
-0.29000204 0.25004399 0.94122944 172 147 157
-0.28984407 0.27046842 0.94220650 177 149 160
-0.28976638 0.29047994 0.94310937 177 151 163
-0.29001038 0.31030216 0.94390401 180 155 166
-0.29024769 0.33014969 0.94467672 179 162 168
-0.29035545 0.35016085 0.94550160 180 162 170
-0.28994010 0.36998624 0.94633792 171 157 162
-0.28990915 0.38974752 0.94707998 158 159 159
-0.28957043 0.40987605 0.94780382 158 158 160
-0.28981421 0.42989793 0.94860240 107 109 112
-0.29030251 0.45032932 0.95020025 0 0 0
-0.29038052 0.47066767 0.95116947 0 0 0
-0.29002599 0.49066645 0.95198776 0 0 0
-0.28942734 0.50998341 0.95272515 0 0 0
-0.28962805 0.52928733 0.95338581 0 0 0
-0.28973663 0.54102398 0.95374324 0 0 0
-0.26985721 -0.63025478 0.94760945 0 0 0
-0.26976717 -0.61039668 0.94729341 0 0 0
-0.26963833 -0.59046714 0.94684108 0 0 0
-0.26946577 -0.57046370 0.94623513 0 0 0
-0.27006346 -0.55038917 0.94546442 0 0 0
-0.27029228 -0.53036639 0.94441264 0 0 0
-0.27011126 -0.51053393 0.94277871 0 0 0
-0.27110202 -0.48630279 0.91856083 179 183 181
-0.26959519 -0.49979787 0.94097916 2 2 2
-0.27659985 -0.46945555 0.88528839 185 186 184
-0.27912745 -0.47961791 0.90593398 194 197 193
-0.26731245 -0.41085981 0.77227718 195 199 196
-0.27731178 -0.36196842 0.67057431 190 195 195
-0.26554146 -0.37101097 0.69287902 191 199 195
-0.27173312 -0.32091365 0.65689415 187 190 187
-0.26996887 -0.32390264 0.67064098 189 191 189
-0.26993799 -0.32651792 0.69013923 190 191 191
-0.26988097 -0.32668902 0.71014094 193 194 194
-0.26989720 -0.32526509 0.73006597 191 194 194
-0.27008303 -0.32305731 0.75017101 192 194 194
-0.27120404 -0.32090675 0.76435210 193 195 195
-0.27271405 -0.30187077 0.55216658 191 198 195
-0.27184558 -0.30949247 0.56646669 192 199 194
-0.26987638 -0.30200356 0.59229124 196 197 195
-0.26964302 -0.30753572 0.61051999 194 197 195
-0.27062597 -0.31328029 0.63012218 190 194 193
-0.26876521 -0.31830394 0.64729149 188 191 189
-0.26876885 -0.31850688 0.77392099 193 193 193
-0.27000225 -0.31280025 0.79019706 190 191 190
-0.27056091 -0.30431016 0.80667080 191 192 192
-0.26608482 -0.28109024 0.51963206 189 196 195
-0.26980661 -0.28559178 0.53018104 191 196 194
-0.27019996 -0.29026789 0.55050494 192 197 195
-0.27014932 -0.29417235 0.56850380 192 195 192
-0.26864388 -0.29895001 0.58265674 196 197 194
-0.26952863 -0.29743699 0.81659864 190 191 192
-0.27005872 -0.28741847 0.82782092 191 192 192
-0.26384994 -0.27796966 0.51668067 191 198 196
-0.26663761 -0.27929728 0.52131613 194 198 196
-0.26996363 -0.27698462 0.83764402 191 191 191
-0.27000668 -0.26712663 0.84550751 190 190 189
-0.26984115 -0.25233527 0.85544818 189 190 190
-0.27020518 -0.24230223 0.86141317 189 189 189
-0.27001649 -0.23000786 0.86790462 190 192 192
-0.26980750 -0.21124655 0.87648494 191 192 193
-0.27133721 -0.20167258 0.88035952 191 192 192
-0.27010214 -0.19058454 0.88416386 186 187 189
-0.26997999 -0.17042081 0.89051021 186 186 188
-0.27006333 -0.14987198 0.89609551 186 187 189
-0.26970466 -0.13642365 0.89936625 186 186 188
-0.26997670 -0.12668132 0.90151984 188 189 190
-0.26989010 -0.10985035 0.90487277 186 186 189
-0.27013196 -0.09016948 0.90844075 183 183 185
-0.26993318 -0.06974978 0.91171071 174 175 177
-0.27007477 -0.04956712 0.91461647 177 176 177
-0.26991681 -0.02980276 0.91720105 170 169 170
-0.26973239 -0.01375273 0.91917135 181 180 181
-0.27058535 -0.00337243 0.92045659 182 181 181
-0.26991412 0.01002097 0.92197003 182 182 183
-0.27003070 0.02967111 0.92400804 173 173 173
-0.27006934 0.04992907 0.92587570 175 175 176
-0.27018505 0.06943522 0.92814722 183 166 173
-0.27015774 0.08969462 0.93169894 146 85 104
-0.27025133 0.10986210 0.93201786 136 83 100
-0.27050145 0.13011912 0.93287683 138 118 130
-0.27045647 0.15019758 0.93336375 137 123 133
-0.27007312 0.16997544 0.93437765 135 116 131
-0.27043843 0.18984988 0.93572107 138 122 133
-0.27008105 0.20986218 0.93705125 137 120 131
-0.26982026 0.22930963 0.93857419 133 116 127
-0.27779739 0.23613247 0.94015796 138 96 118
-0.26436221 0.24920673 0.93911927 127 122 128
-0.27365140 0.25127460 0.94067993 136 105 122
-0.26131294 0.26469061 0.93960308 128 125 130
-0.27057467 0.27099575 0.94141678 135 110 123
-0.26999768 0.29025322 0.94237230 134 113 124
-0.27026362 0.31010465 0.94330287 137 109 121
-0.27049016 0.32994623 0.94409446 137 112 123
-0.27029817 0.34999083 0.94511549 158 122 139
-0.26955273 0.37006600 0.94654216 174 152 160
-0.26975517 0.38999113 0.94725326 154 155 155
-0.26995446 0.40994056 0.94795309 147 146 150
-0.27022364 0.43003318 0.94889944 63 64 66
-0.27021972 0.45061383 0.95038471 0 0 0
-0.26988943 0.47043155 0.95129087 0 0 0
-0.26948818 0.49072114 0.95209392 0 0 0
-0.26969281 0.51003246 0.95281680 0 0 0
-0.26987892 0.52933646 0.95347431 0 0 0
-0.26997819 0.54107033 0.95382495 0 0 0
-0.25015525 -0.63013500 0.94742943 0 0 0
-0.25007529 -0.61028919 0.94712661 0 0 0
-0.24995879 -0.59037005 0.94668541 0 0 0
-0.24979992 -0.57037246 0.94608377 0 0 0
-0.24958917 -0.55028505 0.94528543 0 0 0
-0.24985395 -0.52988412 0.94417379 0 0 0
-0.25031975 -0.51048235 0.94248101 0 0 0
-0.25492822 -0.48567640 0.91837392 140 144 139
-0.24787162 -0.49275119 0.93175015 81 83 80
-0.25007310 -0.49978762 0.94095986 0 0 0
-0.24288286 -0.46854564 0.88791877 189 190 186
-0.24592116 -0.47742349 0.90474278 190 193 187
-0.25956497 -0.44105577 0.83309525 199 200 197
-0.25505638 -0.38782556 0.72779837 196 199 195
-0.24695064 -0.36209891 0.67951941 193 202 197
-0.24723964 -0.36689781 0.68852508 194 198 189
-0.24921985 -0.37524647 0.70419228 197 199 195
-0.24552679 -0.35746656 0.67082629 193 202 197
-0.24833816 -0.32929095 0.61199212 193 195 194
-0.24599150 -0.33440476 0.62350345 197 198 194
-0.25392322 -0.32047798 0.65773695 191 192 190
-0.25008783 -0.32238818 0.67053844 193 194 194
-0.25002606 -0.32431413 0.69024426 194 197 197
-0.25032669 -0.32479842 0.71038384 195 196 196
-0.24978537 -0.32395238 0.73016426 194 196 195
-0.25013262 -0.32184974 0.74994566 193 196 195
-0.25570418 -0.32038007 0.76185504 195 196 196
-0.24158451 -0.30004174 0.55407619 196 198 196
-0.24652156 -0.30739197 0.56764960 198 201 199
-0.25075672 -0.30256698 0.59380723 193 196 194
-0.25011412 -0.30655354 0.61006433 190 193 191
-0.24968087 -0.31268130 0.62984480 188 189 187
-0.24894794 -0.31797689 0.64882957 190 192 190
-0.24341775 -0.31993846 0.66037595 189 194 195
-0.24036459 -0.31976854 0.75884101 198 199 199
-0.24952193 -0.31773202 0.77084262 194 195 195
-0.24997873 -0.31118287 0.79022043 193 194 193
-0.25008217 -0.30343168 0.80599786 194 194 194
-0.25315072 -0.28110298 0.51778355 190 193 191
-0.25387102 -0.28225464 0.53159114 192 196 193
-0.24972945 -0.28622916 0.55005908 194 197 194
-0.24943784 -0.29298773 0.56898308 192 194 193
-0.24973740 -0.29857558 0.58503444 193 196 194
-0.24962560 -0.29677356 0.81598290 190 190 190
-0.25016292 -0.28667039 0.82748666 191 192 192
-0.24852375 -0.27440570 0.51179838 192 197 195
-0.24944152 -0.27779562 0.52657228 194 198 195
-0.24967003 -0.27631520 0.83736977 193 193 193
-0.25013419 -0.26650475 0.84505637 189 190 188
-0.24997249 -0.25171457 0.85500604 188 188 188
-0.25021231 -0.24156312 0.86124415 192 191 191
-0.25001200 -0.22986615 0.86757144 189 190 191
-0.24988316 -0.21092449 0.87623838 191 191 192
-0.25063821 -0.20126008 0.88012080 191 192 192
-0.25000591 -0.19065243 0.88384154 190 191 193
-0.25000172 -0.17047982 0.89023942 187 187 188
-0.24998947 -0.14985047 0.89591658 186 187 189
-0.24984821 -0.13630402 0.89923199 183 183 186
-0.24992865 -0.12644111 0.90137831 187 188 189
-0.25005138 -0.11001280 0.90464574 187 188 191
-0.25002241 -0.08995119 0.90827843 178 177 178
-0.24993560 -0.06967373 0.91151993 175 174 175
-0.25008617 -0.04952627 0.91445811 176 176 176
-0.24998523 -0.02973737 0.91703954 172 172 173
-0.24955267 -0.01279855 0.91910064 181 181 183
-0.25089028 -0.00255492 0.92035197 184 184 186
-0.24994730 0.00973130 0.92170718 181 181 184
-0.25010190 0.03000922 0.92378000 176 176 177
-0.24998267 0.04991230 0.92556823 174 172 173
-0.24979127 0.06971570 0.92849605 174 150 159
-0.25010454 0.09000227 0.93120882 155 90 112
-0.24986677 0.10975239 0.93109443 146 85 104
-0.24993745 0.12990493 0.93135407 138 133 141
-0.25041188 0.14980846 0.93091766 135 131 139
-0.25051837 0.16999587 0.93051590 133 127 135
-0.25045146 0.19004843 0.93026299 130 129 132
-0.24949346 0.20981315 0.93032726 123 119 127
-0.25008894 0.22983778 0.93186471 114 108 115
-0.25031276 0.24963078 0.93379368 111 109 112
-0.24986665 0.27005211 0.93558316 116 113 116
-0.25878184 0.27817784 0.94010127 127 125 131
-0.24743370 0.28942842 0.93616061 117 115 117
-0.25720621 0.29138952 0.94062953 127 126 129
-0.24490303 0.30904443 0.93682673 107 104 108
-0.25469918 0.31052289 0.94117943 123 119 123
-0.24294855 0.32984698 0.93793666 109 108 111
-0.25301682 0.33021073 0.94190211 124 119 125
-0.24234837 0.34316834 0.93875334 113 112 115
-0.25097105 0.35061495 0.94417297 160 142 152
-0.24995816 0.37012212 0.94668526 163 156 158
-0.25015720 0.39006764 0.94743914 156 156 155
-0.25034146 0.41002007 0.94813697 150 150 152
-0.25013597 0.43037419 0.94923240 39 39 42
-0.24975305 0.45028030 0.95051302 0 0 0
-0.24956145 0.47063569 0.95141033 0 0 0
-0.24996810 0.49043480 0.95217029 0 0 0
-0.24973811 0.50970862 0.95288543 0 0 0
-0.25012252 0.52937799 0.95354912 0 0 0
-0.25021363 0.54111089 0.95389646 0 0 0
-0.23046385 -0.63002368 0.94726208 0 0 0
-0.23039249 -0.61018749 0.94696881 0 0 0
-0.23028621 -0.59027435 0.94653196 0 0 0
-0.23013866 -0.57027702 0.94592543 0 0 0
-0.22994106 -0.55018478 0.94511314 0 0 0
-0.22966573 -0.52994802 0.94398131 0 0 0
-0.22989556 -0.51008929 0.94214911 0 0 0
-0.23135880 -0.49427777 0.93571039 70 70 71
-0.22885344 -0.49907651 0.94064083 0 0 0
-0.23657362 -0.45350889 0.85942334 190 191 185
-0.22283370 -0.42450416 0.80445784 193 193 187
-0.23258738 -0.39303478 0.74239004 200 200 198
-0.23612445 -0.36233425 0.68217373 199 201 199
-0.23912954 -0.34569857 0.64874232 194 203 200
-0.22739529 -0.32547815 0.60982183 191 199 197
-0.23098385 -0.32102242 0.67387945 196 199 199
-0.23009336 -0.32234893 0.69000622 196 199 199
-0.23007367 -0.32335774 0.71038102 196 196 195
-0.23005957 -0.32242884 0.73014479 195 197 197
-0.23177009 -0.32083312 0.74663207 195 197 197
-0.23514924 -0.30188766 0.55927008 194 201 199
-0.23293852 -0.30521410 0.56724862 195 197 196
-0.23155437 -0.30209872 0.59489433 189 190 187
-0.23035274 -0.30556781 0.60995274 189 190 188
-0.22978347 -0.31178869 0.63036562 190 193 193
-0.22968863 -0.31652222 0.65002330 192 194 194
-0.22835604 -0.31919795 0.66400234 194 195 195
-0.22767094 -0.31935043 0.75536164 197 199 199
-0.23016829 -0.31653873 0.77034055 195 197 196
-0.22987945 -0.30998326 0.79033083 195 196 195
-0.23061231 -0.30287114 0.80524694 193 194 194
-0.22970153 -0.28083038 0.51859927 197 198 197
-0.22794457 -0.28293862 0.53508951 194 199 196
-0.22833997 -0.28762590 0.55071602 194 198 196
-0.22940020 -0.29367617 0.57037588 192 195 192
-0.23005714 -0.29773245 0.58600008 188 190 185
-0.22928538 -0.29628770 0.81501203 192 193 193
-0.23015285 -0.28655756 0.82660948 194 194 195
-0.22884114 -0.26546355 0.49343297 193 196 193
-0.23170028 -0.26996359 0.50760166 193 198 195
-0.23020166 -0.27721939 0.52833312 194 199 195
-0.22972083 -0.27629712 0.83654130 188 189 188
-0.23016741 -0.26587468 0.84474058 188 188 189
-0.22220703 -0.25935276 0.48618010 193 194 191
-0.22984924 -0.25105810 0.85471370 189 189 189
-0.23103983 -0.24114453 0.86094445 192 193 192
-0.23001686 -0.22971901 0.86721620 191 192 193
-0.22996227 -0.21019612 0.87628806 191 191 193
-0.22998653 -0.19061810 0.88364395 190 191 193
-0.22995886 -0.17045040 0.89008633 187 187 189
-0.22994089 -0.14984026 0.89580403 189 189 191
-0.23043808 -0.13568953 0.89924289 189 189 191
-0.22971061 -0.12577094 0.90140186 188 189 191
-0.23011668 -0.11000655 0.90452947 186 186 188
-0.22980132 -0.08976435 0.90811873 173 173 175
-0.23015072 -0.06994708 0.91131007 176 177 178
-0.22985740 -0.04927131 0.91435140 173 172 174
-0.23014043 -0.02984845 0.91687380 172 172 173
-0.22974166 -0.01210835 0.91902144 183 183 185
-0.23104945 -0.00187188 0.92025027 182 182 183
-0.22984013 0.00993209 0.92153129 184 184 186
-0.23010133 0.02970608 0.92352054 170 169 169
-0.22991263 0.04989602 0.92527549 139 136 139
-0.22990013 0.07013533 0.92870507 166 131 145
-0.22961089 0.09038570 0.93053135 157 92 114
-0.22956193 0.10966249 0.93033251 150 95 113
-0.22951897 0.12973722 0.93015600 137 134 143
-0.22997195 0.14986952 0.92950091 137 136 140
-0.23001632 0.16970329 0.92891628 133 132 135
-0.22966982 0.19004408 0.92835577 130 129 133
-0.23062293 0.20982085 0.92765851 124 118 124
-0.23023617 0.23011164 0.92698843 109 105 107
-0.23018278 0.25054868 0.92785695 100 96 97
-0.22992128 0.27007302 0.92956216 113 108 108
-0.22979946 0.29006236 0.93129588 117 113 114
-0.23023777 0.30996847 0.93307202 107 101 103
-0.22989016 0.32998013 0.93493782 110 106 108
-0.23253661 0.34222657 0.93738974 127 117 124
-0.22968522 0.35277208 0.94576509 175 150 160
-0.23037337 0.37020324 0.94689290 157 157 157
-0.23047933 0.39020847 0.94763017 163 163 164
-0.22990292 0.41010250 0.94832771 157 157 159
-0.22971035 0.43008637 0.94944276 31 31 31
-0.22964199 0.45053724 0.95063935 0 0 0
-0.22985067 0.47068157 0.95150314 0 0 0
-0.23002747 0.48997068 0.95223499 0 0 0
-0.23019804 0.50927560 0.95294103 0 0 0
-0.23036079 0.52941438 0.95361469 0 0 0
-0.23044298 0.54114406 0.95395493 0 0 0
-0.20996803 -0.62993382 0.94712692 0 0 0
-0.20989979 -0.61009095 0.94681898 0 0 0
-0.21040518 -0.59033508 0.94638845 0 0 0
-0.21048427 -0.57018248 0.94576855 0 0 0
-0.21029799 -0.55007899 0.94493133 0 0 0
-0.21004010 -0.52983081 0.94377237 0 0 0
-0.20964423 -0.51010871 0.94199358 0 0 0
-0.20160067 -0.48205941 0.91653013 185 185 181
-0.20779749 -0.49336563 0.93552518 43 44 41
-0.21016158 -0.49881932 0.94066697 0 0 0
-0.20025323 -0.47510416 0.90330625 192 192 188
-0.20473384 -0.42453316 0.80715659 192 193 192
-0.20730558 -0.40370532 0.76755702 195 199 190
-0.20925107 -0.41549827 0.78997873 194 195 190
-0.20304011 -0.39288448 0.74698359 193 194 190
-0.20485033 -0.34426440 0.65026933 201 201 199
-0.21702506 -0.33137143 0.62387943 200 201 199
-0.21912600 -0.32019870 0.67701735 196 202 201
-0.21435622 -0.32076696 0.69199719 196 199 197
-0.21075139 -0.32118913 0.71038233 195 197 196
-0.21324885 -0.32076098 0.72798980 197 198 197
-0.21824926 -0.32020700 0.74163024 198 199 199
-0.20997854 -0.30471036 0.57182382 196 199 197
-0.21340795 -0.30450044 0.59469012 190 193 192
-0.20958019 -0.30434732 0.61024916 191 195 192
-0.20989040 -0.31049273 0.63031851 192 195 193
-0.20978143 -0.31459936 0.64944220 194 196 196
-0.20978603 -0.31806203 0.67024922 195 199 198
-0.20559761 -0.31926591 0.68804239 196 199 197
-0.20107121 -0.31991226 0.71021797 196 199 198
-0.20505741 -0.31959765 0.73278351 197 198 198
-0.20964330 -0.31851829 0.75047473 196 199 199
-0.21004498 -0.31513551 0.77034308 196 197 197
-0.20993354 -0.30873614 0.79027276 194 195 195
-0.21049837 -0.30240407 0.80425021 194 194 194
-0.21175801 -0.28350554 0.53337196 196 198 197
-0.20951946 -0.28914355 0.55141846 194 197 196
-0.21041072 -0.29149898 0.56923886 192 196 195
-0.20898846 -0.29718144 0.58933234 190 193 192
-0.20982365 -0.29584919 0.81425740 193 196 195
-0.21006016 -0.28593604 0.82616098 193 194 194
-0.21388052 -0.26365215 0.49207752 194 198 196
-0.21198833 -0.27151643 0.50962361 195 198 196
-0.21313970 -0.27771481 0.52383620 197 200 197
-0.20992124 -0.27572486 0.83609989 191 190 190
-0.21024131 -0.26570653 0.84410430 185 185 184
-0.20885507 -0.25573478 0.47901004 196 200 197
-0.21302363 -0.25776466 0.48227531 194 198 195
-0.20975544 -0.25100004 0.85404981 186 185 184
-0.21269908 -0.24070641 0.86056719 196 196 195
-0.20986629 -0.22991438 0.86668306 184 185 185
-0.21000192 -0.21017219 0.87605161 191 191 193
-0.20998535 -0.19059201 0.88348514 189 189 190
-0.20993688 -0.17043241 0.88999275 189 189 190
-0.20995744 -0.14982114 0.89571686 188 188 189
-0.21020425 -0.13567131 0.89912210 189 189 190
-0.21012627 -0.12592839 0.90125575 188 188 189
-0.20988916 -0.10989520 0.90446119 181 181 183
-0.21010736 -0.09003713 0.90796556 171 170 172
-0.20988552 -0.06976921 0.91123259 177 177 180
-0.21010520 -0.04965380 0.91423334 174 173 176
-0.20983931 -0.02962395 0.91682681 171 170 172
-0.21008018 -0.01159505 0.91897370 178 179 181
-0.21035577 -0.00127542 0.92017896 178 177 180
-0.20989971 0.00981327 0.92135494 180 180 182
-0.21008369 0.02999483 0.92333562 170 170 172
-0.20986119 0.04988166 0.92500809 139 133 138
-0.21014150 0.06996822 0.92863532 167 120 136
-0.21017157 0.09032593 0.92991625 155 90 113
-0.20994019 0.10986545 0.92966003 151 112 130
-0.21019289 0.12986565 0.92926069 145 140 150
-0.20978889 0.15030205 0.92847246 139 137 143
-0.20975847 0.17023197 0.92781557 133 131 136
-0.20954756 0.19021268 0.92715036 126 120 126
-0.21009325 0.21010678 0.92629559 123 121 123
-0.21006809 0.22997091 0.92591482 110 106 107
-0.20992344 0.25015611 0.92727327 117 112 112
-0.20999504 0.27011863 0.92913643 124 119 120
-0.21018859 0.29009882 0.93093858 126 119 119
-0.21000027 0.30985386 0.93272676 124 120 120
-0.21009199 0.32842474 0.93456217 120 115 118
-0.20491325 0.33902581 0.94348389 160 148 153
-0.21877061 0.34042335 0.93923861 134 115 130
-0.20985715 0.35093215 0.94616870 168 158 161
-0.20996422 0.37028901 0.94711227 160 160 160
-0.21006256 0.39017550 0.94784228 161 161 162
-0.20946002 0.41019248 0.94853573 157 159 160
-0.20971853 0.43039769 0.94970620 5 5 5
-0.20994429 0.45057909 0.95072772 0 0 0
-0.21013224 0.47071894 0.95157871 0 0 0
-0.21029252 0.49000648 0.95230458 0 0 0
-0.21044736 0.50931015 0.95300570 0 0 0
-0.21059494 0.52944729 0.95367397 0 0 0
-0.21067076 0.54117945 0.95401732 0 0 0
-0.18948510 -0.62986764 0.94702736 0 0 0
-0.18941916 -0.61001272 0.94669751 0 0 0
-0.18995376 -0.58995040 0.94624389 0 0 0
-0.19001989 -0.57008997 0.94561503 0 0 0
-0.19010574 -0.55015083 0.94475945 0 0 0
-0.19042386 -0.52971567 0.94356708 0 0 0
-0.19006321 -0.50999301 0.94178014 0 0 0
-0.19093088 -0.49442858 0.93878383 77 77 75
-0.18897759 -0.49842033 0.94042543 0 0 0
-0.18737032 -0.46782875 0.89214159 192 193 188
-0.18999368 -0.44046094 0.83743978 184 194 190
-0.18976260 -0.44769469 0.85258305 189 191 187
-0.18929290 -0.45471522 0.86739159 189 190 183
-0.19446975 -0.42825263 0.81460987 190 192 194
-0.19202789 -0.43525748 0.82754654 191 195 190
-0.19294197 -0.36528034 0.69222558 197 197 191
-0.19682212 -0.37844614 0.71953225 194 195 191
-0.18796716 -0.35915063 0.68284607 199 199 195
-0.19865775 -0.33203562 0.62717080 198 199 197
-0.18415061 -0.30127066 0.57603375 194 199 197
-0.18296955 -0.30245507 0.58343468 195 198 196
-0.19088361 -0.30352586 0.61117526 197 198 196
-0.18971723 -0.30824541 0.63093875 196 198 197
-0.19033716 -0.31185428 0.65026675 197 198 197
-0.19008960 -0.31498078 0.67010703 197 199 198
-0.18994780 -0.31752388 0.69027956 197 198 198
-0.18993370 -0.31887372 0.71042544 197 199 198
-0.19039252 -0.31864888 0.73011492 197 199 199
-0.18994663 -0.31727036 0.75016243 195 197 197
-0.18993553 -0.31394671 0.77032252 195 196 196
-0.19016642 -0.30786252 0.79026438 195 196 196
-0.18997221 -0.30184328 0.80366778 193 194 194
-0.19245562 -0.28500606 0.53871588 196 199 195
-0.19232988 -0.28777305 0.54960320 194 198 196
-0.19050034 -0.29497255 0.57050064 191 195 193
-0.18914656 -0.29748714 0.58792511 195 197 195
-0.18389848 -0.29936841 0.60251704 194 194 193
-0.18999351 -0.29511822 0.81388691 194 195 194
-0.19001658 -0.28523758 0.82587115 193 193 192
-0.19974417 -0.27365907 0.51189172 198 200 196
-0.18982129 -0.27501930 0.83590813 190 189 187
-0.19006017 -0.26518543 0.84375946 186 185 184
-0.19002325 -0.25054161 0.85361343 186 185 184
-0.18996767 -0.23024003 0.86595393 194 193 193
-0.19005907 -0.21015553 0.87584702 189 189 190
-0.18995292 -0.19062398 0.88338549 188 188 188
-0.18992817 -0.17042260 0.88994136 191 191 192
-0.18998223 -0.14983800 0.89563685 188 187 188
-0.18983987 -0.13558623 0.89902678 187 187 188
-0.19044030 -0.12585839 0.90120007 179 179 180
-0.18978220 -0.10971836 0.90440725 175 175 177
-0.19023285 -0.08997081 0.90790876 173 172 173
-0.18987142 -0.06957040 0.91119228 178 178 180
-0.19002825 -0.04945591 0.91420404 178 178 179
-0.19004182 -0.02995924 0.91674293 179 178 180
-0.18993930 -0.01102025 0.91898050 177 177 179
-0.19042095 -0.00098240 0.92012083 178 179 181
-0.18989915 0.00987239 0.92124324 171 171 174
-0.19011804 0.02969355 0.92314442 176 175 177
-0.18984032 0.04987254 0.92483572 152 146 152
-0.18993872 0.07022555 0.92895160 161 105 127
-0.18997634 0.09027637 0.92940704 155 90 114
-0.18989563 0.11030902 0.92901131 153 129 144
-0.18983861 0.13024101 0.92842645 149 148 157
-0.19040707 0.15022105 0.92758977 140 139 145
-0.19023240 0.17010557 0.92673724 134 133 137
-0.19006208 0.18995719 0.92590620 131 127 130
-0.18972319 0.20996154 0.92497010 122 120 122
-0.19004178 0.22996411 0.92512460 119 111 110
-0.19025426 0.25022977 0.92684872 119 112 112
-0.18990078 0.27005875 0.92873452 128 124 124
-0.19002209 0.28969085 0.93055863 132 129 129
-0.18979306 0.30976373 0.93245519 134 128 128
-0.19048329 0.32581322 0.93409202 135 130 133
-0.18895401 0.33734703 0.94448773 169 151 159
-0.18978850 0.35019236 0.94641955 160 155 158
-0.18952862 0.37034164 0.94724651 157 157 157
-0.18968553 0.39031142 0.94803110 162 162 163
-0.18982618 0.41027842 0.94873420 143 145 146
-0.19005407 0.43047294 0.94987295 0 0 0
-0.19024146 0.45061750 0.95080890 0 0 0
-0.19040852 0.47075108 0.95164370 0 0 0
-0.19055380 0.49004000 0.95236973 0 0 0
-0.19033500 0.50953928 0.95307242 0 0 0
-0.19000198 0.52947909 0.95373127 0 0 0
-0.19007072 0.54121296 0.95407640 0 0 0
-0.16982989 -0.62981992 0.94695555 0 0 0
-0.16976679 -0.60995221 0.94660355 0 0 0
-0.16968164 -0.59002288 0.94612861 0 0 0
-0.16956468 -0.57000632 0.94547624 0 0 0
-0.16969100 -0.54969896 0.94458153 0 0 0
-0.17000443 -0.52961166 0.94338182 0 0 0
-0.17034524 -0.51002348 0.94163454 0 0 0
-0.16888885 -0.49452329 0.93931894 58 58 58
-0.17090301 -0.49803440 0.94022485 0 0 0
-0.17440725 -0.47121014 0.89885646 191 195 187
-0.16480188 -0.47262415 0.90155375 185 186 185
-0.16936104 -0.39739318 0.75804698 190 191 187
-0.17336594 -0.32222428 0.61063206 190 199 196
-0.17650180 -0.33243047 0.63066554 195 197 195
-0.17405084 -0.30181850 0.57732408 195 197 193
-0.17532678 -0.30629086 0.58556277 197 199 196
-0.16992108 -0.30231547 0.61487256 197 198 197
-0.17048171 -0.30534438 0.62992107 193 197 194
-0.17012400 -0.30957877 0.65015000 196 198 197
-0.17022112 -0.31316742 0.66991340 198 199 199
-0.16970405 -0.31604005 0.69015214 197 200 199
-0.16996724 -0.31748223 0.71024855 198 199 198
-0.17048682 -0.31747455 0.73029048 194 195 195
-0.16993873 -0.31623279 0.75047491 196 196 195
-0.16978274 -0.31302285 0.77032706 195 197 196
-0.17008809 -0.30695615 0.79029925 194 195 195
-0.17064360 -0.30155213 0.80280417 191 191 191
-0.16863383 -0.29080107 0.55486766 197 200 196
-0.16853149 -0.29208326 0.57031261 195 196 194
-0.17257973 -0.29375126 0.58754111 195 196 195
-0.16939197 -0.29831996 0.60527146 196 198 197
-0.16993410 -0.29530093 0.81266660 195 195 195
-0.17004079 -0.28510120 0.82561077 192 193 192
-0.17000730 -0.27488052 0.83562789 187 187 186
-0.16994732 -0.26511401 0.84340027 188 187 186
-0.16998513 -0.25050519 0.85347227 190 190 190
-0.17002776 -0.23017126 0.86593270 192 192 192
-0.17006381 -0.21019492 0.87587927 188 188 188
-0.16994036 -0.19059704 0.88339399 188 188 189
-0.16987548 -0.17045621 0.88991947 189 189 190
-0.17001465 -0.14985014 0.89558182 185 185 186
-0.16980090 -0.13489558 0.89913398 176 175 176
-0.17020482 -0.12509030 0.90127266 176 176 178
-0.17005576 -0.10990372 0.90429551 176 175 177
-0.16987630 -0.08990822 0.90784236 168 168 169
-0.17019060 -0.06994830 0.91106341 177 177 181
-0.16989137 -0.04924976 0.91417958 181 181 183
-0.16995420 -0.02978744 0.91672660 180 180 183
-0.17017891 -0.01094024 0.91894729 178 178 180
-0.16978534 -0.00048023 0.92010434 184 184 188
-0.16997914 0.00987137 0.92115436 168 167 173
-0.17006789 0.03001386 0.92304089 175 174 177
-0.16985765 0.04987335 0.92482936 176 164 170
-0.16989409 0.07010832 0.92903442 157 97 120
-0.16981259 0.09023184 0.92895024 156 93 116
-0.16971196 0.11023560 0.92839733 151 138 151
-0.16963593 0.13024070 0.92758675 149 148 157
-0.17020204 0.15007569 0.92669337 139 132 141
-0.17001695 0.16991205 0.92568470 135 134 136
-0.16983827 0.18971177 0.92471077 131 128 130
-0.16969150 0.21030949 0.92391451 124 119 121
-0.16982231 0.23045300 0.92463217 124 117 115
-0.17015130 0.25011516 0.92642359 121 113 112
-0.16978096 0.26983971 0.92838565 128 124 124
-0.17005249 0.28974101 0.93026389 134 130 131
-0.17025884 0.30978178 0.93217795 135 132 132
-0.17055547 0.32445861 0.93408009 139 132 134
-0.16898118 0.33625157 0.94552664 163 147 150
-0.16975157 0.35042601 0.94652061 159 157 159
-0.16990426 0.37039077 0.94737200 153 155 157
-0.17004958 0.39037375 0.94818244 161 161 163
-0.17018103 0.41035721 0.94891586 117 118 119
-0.17037724 0.43053454 0.95000931 0 0 0
-0.17053557 0.45065672 0.95089177 0 0 0
-0.17048663 0.47040737 0.95169209 0 0 0
-0.16978960 0.48947511 0.95240818 0 0 0
-0.16978269 0.50917585 0.95311171 0 0 0
-0.16940565 0.52950790 0.95378315 0 0 0
-0.16946743 0.54124394 0.95413100 0 0 0
-0.15018010 -0.62978252 0.94689925 0 0 0
-0.15011997 -0.60989829 0.94651981 0 0 0
-0.15004259 -0.58996253 0.94603181 0 0 0
-0.14993725 -0.56994080 0.94536750 0 0 0
-0.14979225 -0.54980071 0.94445302 0 0 0
-0.14960109 -0.52953642 0.94324796 0 0 0
-0.15001260 -0.50978453 0.94158755 0 0 0
-0.14533315 -0.48037439 0.91633771 189 195 191
-0.14981050 -0.49411616 0.93945340 62 63 63
-0.14994519 -0.49781049 0.94029704 0 0 0
-0.15257596 -0.47539621 0.90684158 187 189 189
-0.15454771 -0.35985087 0.68643320 196 198 194
-0.15143679 -0.30090504 0.61649427 194 196 193
-0.14983882 -0.30428031 0.63005392 195 197 194
-0.15011728 -0.30872989 0.65025694 197 198 194
-0.15040778 -0.31213451 0.67008031 197 198 197
-0.14969442 -0.31498574 0.69052001 197 198 197
-0.15005826 -0.31650702 0.71044472 197 198 198
-0.15007120 -0.31657042 0.73020627 196 196 195
-0.15002015 -0.31531081 0.75057651 194 195 194
-0.15013802 -0.31218982 0.77071602 193 193 191
-0.15010635 -0.30653979 0.79054656 193 193 191
-0.14904718 -0.30149416 0.80309448 196 195 195
-0.14586613 -0.28094323 0.53733296 195 197 193
-0.15407455 -0.28489796 0.55125964 195 197 195
-0.15243984 -0.28522840 0.56980546 191 192 190
-0.15015564 -0.29178545 0.59060157 193 193 191
-0.14849516 -0.29787551 0.60732459 194 195 192
-0.15034556 -0.29549212 0.81301540 198 198 197
-0.14989020 -0.28546320 0.82598952 191 193 192
-0.14260477 -0.27553588 0.53552070 194 197 194
-0.14816433 -0.27711758 0.54858922 193 194 192
-0.14241671 -0.27976673 0.56143489 193 194 194
-0.15006666 -0.27492550 0.83587219 189 188 186
-0.14992505 -0.26503912 0.84362755 190 188 187
-0.14999410 -0.25048541 0.85361014 190 190 190
-0.14998404 -0.23022006 0.86602805 191 191 192
-0.15000789 -0.21002745 0.87597956 185 186 189
-0.15003626 -0.19054819 0.88341739 186 187 189
-0.14977565 -0.17047094 0.88995296 185 186 187
-0.15017006 -0.14992088 0.89556347 178 178 181
-0.14959379 -0.13489214 0.89911103 177 177 178
-0.14994958 -0.12508702 0.90124904 178 178 179
-0.15028123 -0.11001251 0.90426242 176 175 178
-0.14976681 -0.08971842 0.90785854 170 169 170
-0.15001603 -0.06976010 0.91111367 182 182 184
-0.15016151 -0.04965488 0.91411797 180 180 184
-0.15007430 -0.02972678 0.91671024 178 177 180
-0.14953668 -0.01054164 0.91893412 181 181 182
-0.15307514 -0.00048019 0.92003408 185 186 189
-0.15005942 0.00987013 0.92104400 172 171 172
-0.15012499 0.02965475 0.92287121 175 175 178
-0.14977846 0.05000178 0.92510807 174 160 166
-0.14970307 0.07014354 0.92870582 154 92 115
-0.14998893 0.09000207 0.92850036 155 93 116
-0.15035348 0.11016022 0.92776506 152 148 159
-0.15019628 0.13006842 0.92679385 149 148 157
-0.15003077 0.14992628 0.92577169 145 144 150
-0.14968462 0.17001201 0.92470094 138 137 140
-0.14987021 0.18976558 0.92374379 133 130 132
-0.14961354 0.21014757 0.92319923 131 123 125
-0.14978661 0.23036282 0.92426951 127 119 117
-0.15008353 0.25002855 0.92610269 126 119 118
-0.15006338 0.27001740 0.92813905 131 126 126
-0.14991229 0.28966071 0.93000591 128 125 124
-0.15009764 0.30948591 0.93193426 136 132 131
-0.15179968 0.32242487 0.93495977 142 132 138
-0.14937823 0.33365816 0.94560281 163 155 158
-0.15013233 0.35045515 0.94659922 161 163 164
-0.15027154 0.37043196 0.94747733 158 158 158
-0.15040070 0.39041870 0.94829165 152 152 152
-0.15052578 0.41042901 0.94908095 95 93 93
-0.15013074 0.43076317 0.95013264 0 0 0
-0.15000317 0.45069225 0.95096682 0 0 0
-0.14976590 0.46979224 0.95173003 0 0 0
-0.14941487 0.48926103 0.95245517 0 0 0
-0.14952623 0.50939525 0.95316500 0 0 0
-0.14962958 0.52953042 0.95382372 0 0 0
-0.14968459 0.54126854 0.95417436 0 0 0
-0.13053320 -0.62974774 0.94684689 0 0 0
-0.13047856 -0.60985352 0.94645030 0 0 0
-0.13041051 -0.58991566 0.94595665 0 0 0
-0.13031782 -0.56989071 0.94528437 0 0 0
-0.13018869 -0.54973926 0.94434742 0 0 0
-0.13002608 -0.52949148 0.94316814 0 0 0
-0.12980815 -0.50988865 0.94158806 0 0 0
-0.12950208 -0.49407075 0.93936706 66 67 66
-0.12962968 -0.49780856 0.94029334 0 0 0
-0.13006634 -0.47657077 0.90908213 193 195 193
-0.12516997 -0.42505604 0.81349738 192 193 192
-0.13085762 -0.43343553 0.82953455 191 193 190
-0.13071175 -0.41480057 0.79386985 190 192 192
-0.12523182 -0.39328211 0.75268656 191 193 192
-0.13910712 -0.32143122 0.61314583 199 203 198
-0.13454111 -0.30393419 0.57976937 194 195 191
-0.13636746 -0.31037170 0.59204924 200 204 199
-0.13259787 -0.30181377 0.61746483 196 196 193
-0.12955930 -0.30320053 0.62977834 194 196 193
-0.13040013 -0.30769412 0.64940553 196 198 193
-0.13000714 -0.31132312 0.66884281 198 199 195
-0.13000287 -0.31460591 0.68995959 197 198 196
-0.13007226 -0.31631884 0.70988135 195 196 196
-0.13033295 -0.31658423 0.72950205 196 196 194
-0.13003027 -0.31549729 0.75000425 193 193 192
-0.12995560 -0.31277206 0.77021857 193 194 191
-0.12978097 -0.30748581 0.79019331 196 196 195
-0.13001733 -0.30194497 0.80409312 196 196 196
-0.12858242 -0.28206964 0.53806168 196 197 196
-0.12954107 -0.28729756 0.54803419 200 201 199
-0.12753709 -0.28374356 0.57073543 191 192 188
-0.13075093 -0.29125334 0.59092925 193 193 190
-0.12936999 -0.29785353 0.60982378 195 195 192
-0.12990960 -0.29592715 0.81420040 196 197 196
-0.13009606 -0.28611182 0.82642071 191 191 189
-0.12548568 -0.26770284 0.51719432 195 196 193
-0.13175486 -0.27052102 0.52839166 193 195 190
-0.13048501 -0.27576513 0.55020048 193 193 189
-0.12472458 -0.27991684 0.56173614 195 196 190
-0.13025871 -0.27526121 0.83611401 187 187 186
-0.12964466 -0.26541500 0.84377338 185 184 184
-0.13014137 -0.25109642 0.85366820 190 190 190
-0.12735103 -0.24075520 0.86046173 193 194 194
-0.13011238 -0.22988474 0.86657607 191 191 193
-0.12997573 -0.21014471 0.87614176 188 188 191
-0.13021220 -0.19058586 0.88359169 183 183 185
-0.12969047 -0.17050603 0.89009284 182 182 184
-0.13034516 -0.14995678 0.89570179 177 176 177
-0.12987933 -0.13541538 0.89911755 173 170 171
-0.12946213 -0.12569808 0.90121033 177 176 177
-0.13013909 -0.10987668 0.90430766 176 174 175
-0.13018035 -0.09010340 0.90784793 178 178 180
-0.12972447 -0.06962352 0.91118588 185 185 188
-0.12997520 -0.04945299 0.91414774 183 183 186
-0.13027363 -0.02984217 0.91667818 180 180 182
-0.12986057 -0.01000520 0.91892592 178 178 181
-0.13014310 0.00986871 0.92092432 169 167 170
-0.12989228 0.03001860 0.92272813 174 174 178
-0.12982373 0.04979598 0.92521395 169 151 158
-0.12958219 0.07011331 0.92830720 154 89 112
-0.12988999 0.09032804 0.92800411 153 101 120
-0.13021717 0.11008229 0.92711029 147 143 156
-0.13006864 0.12996420 0.92605187 149 148 157
-0.12991313 0.14979205 0.92494418 146 144 151
-0.12975659 0.17036963 0.92382935 138 134 140
-0.12994901 0.18996256 0.92294404 136 133 134
-0.13024077 0.21010850 0.92253751 132 128 129
-0.12976002 0.23026114 0.92386016 133 123 121
-0.13003560 0.24995326 0.92582349 123 117 116
-0.13000160 0.26955958 0.92785140 128 123 124
-0.12978523 0.28958498 0.92976293 135 131 131
-0.13029762 0.30880841 0.93196014 133 128 129
-0.13654331 0.32036488 0.93754798 147 135 139
-0.13004362 0.33112108 0.94560136 165 156 159
-0.13050508 0.35047175 0.94664380 157 157 159
-0.13027390 0.37065638 0.94755922 156 155 155
-0.12992283 0.39044922 0.94836579 155 155 156
-0.13003623 0.41047808 0.94919390 76 75 75
-0.12964281 0.43044810 0.95021072 0 0 0
-0.12946591 0.45072201 0.95102969 0 0 0
-0.12956871 0.46999804 0.95178471 0 0 0
-0.12966592 0.48928341 0.95249874 0 0 0
-0.12976148 0.50941429 0.95320066 0 0 0
-0.12985010 0.52954584 0.95385153 0 0 0
-0.12989726 0.54128195 0.95419800 0 0 0
-0.11007203 -0.62972306 0.94680974 0 0 0
-0.11002440 -0.60982120 0.94640012 0 0 0
-0.10996661 -0.58988216 0.94590293 0 0 0
-0.10988834 -0.56985765 0.94522953 0 0 0
-0.11030877 -0.54988448 0.94429367 0 0 0
-0.11045838 -0.52946570 0.94312240 0 0 0
-0.11027905 -0.50989023 0.94159099 0 0 0
-0.10855022 -0.49436337 0.93930566 74 76 74
-0.11079237 -0.49795811 0.94029677 0 0 0
-0.10303230 -0.47161542 0.89962955 193 197 194
-0.11261463 -0.47266030 0.90162271 195 198 194
-0.11880340 -0.42122891 0.80617279 190 194 193
-0.10952049 -0.40247701 0.77028430 194 200 198
-0.11367648 -0.41273250 0.78991187 192 198 197
-0.11666554 -0.41855802 0.80106109 189 195 195
-0.10309971 -0.38354376 0.73404872 191 194 190
-0.11858999 -0.36859478 0.70543849 192 192 192
-0.11637527 -0.34236678 0.65524179 179 179 179
-0.11434594 -0.34826272 0.66652578 193 192 192
-0.11616826 -0.32895419 0.62957197 186 188 188
-0.11732828 -0.33695752 0.64488924 183 184 184
-0.11132073 -0.30111513 0.57629195 192 193 188
-0.11172975 -0.30773680 0.58896488 192 198 191
-0.11648810 -0.30314747 0.61776003 195 196 195
-0.11001937 -0.30300795 0.62936908 195 196 194
-0.10962010 -0.30811252 0.65009528 196 197 195
-0.11032075 -0.31205162 0.67017111 194 196 195
-0.11006913 -0.31528824 0.69042554 193 194 194
-0.10999475 -0.31699954 0.71018338 198 198 198
-0.10999267 -0.31746499 0.72976682 194 194 193
-0.10997427 -0.31670827 0.75014179 195 195 194
-0.10996684 -0.31397388 0.77028514 196 196 196
-0.10989789 -0.30880035 0.79030933 196 197 197
-0.10947830 -0.30272201 0.80518117 196 197 196
-0.11271176 -0.28098826 0.53777194 191 191 187
-0.10733255 -0.28385996 0.55559319 196 197 194
-0.10938114 -0.28445203 0.57057586 193 196 193
-0.10910194 -0.29021836 0.59003039 194 195 194
-0.11060843 -0.29711668 0.60924322 196 197 196
-0.11022691 -0.29664870 0.81492254 193 193 193
-0.11007722 -0.28686931 0.82654804 192 192 191
-0.11474151 -0.26768546 0.51658194 193 194 190
-0.10993588 -0.27154823 0.52890638 192 193 189
-0.10850381 -0.27653922 0.54785840 192 195 191
-0.11418643 -0.27962241 0.56179629 197 198 193
-0.10997075 -0.27580382 0.83639642 186 186 185
-0.11019341 -0.26601658 0.84389709 187 185 184
-0.10999848 -0.25150559 0.85383195 188 188 188
-0.10973972 -0.24072523 0.86077444 190 190 190
-0.11003274 -0.22986661 0.86689942 192 192 193
-0.11000545 -0.21045263 0.87620116 188 189 191
-0.10230530 -0.20123315 0.88000304 191 189 190
-0.11031652 -0.19056040 0.88372582 188 187 189
-0.10964209 -0.17046707 0.89017354 186 186 188
-0.11033203 -0.14986553 0.89577423 180 179 182
-0.11013050 -0.13571949 0.89910379 182 182 185
-0.10953919 -0.12581248 0.90124980 182 181 183
-0.10982704 -0.10988384 0.90436683 179 179 181
-0.11026637 -0.08992201 0.90798510 185 184 186
-0.11006743 -0.06991875 0.91124270 185 185 188
-0.10991432 -0.04926060 0.91422024 182 183 186
-0.10974261 -0.02978727 0.91671910 181 181 183
-0.11000518 -0.01000520 0.91891182 179 178 181
-0.11023904 0.00986802 0.92086472 161 161 165
-0.10996991 0.02962147 0.92258849 173 173 177
-0.11002254 0.04993017 0.92574555 167 135 148
-0.11029045 0.07008914 0.92798737 155 91 112
-0.11023769 0.09009429 0.92754246 153 110 127
-0.11010816 0.11000374 0.92645106 152 152 161
-0.10997485 0.12986271 0.92532855 151 150 159
-0.10984131 0.14967227 0.92420516 146 145 152
-0.10970312 0.17022434 0.92304172 145 140 146
-0.10994689 0.19017473 0.92216733 139 137 138
-0.11025479 0.20975840 0.92194543 137 132 131
-0.10976932 0.23019805 0.92360638 138 130 129
-0.11000978 0.24990117 0.92563033 134 125 123
-0.11025501 0.26969978 0.92769400 142 137 136
-0.10993837 0.28972088 0.92965615 137 132 131
-0.11055141 0.30631681 0.93169993 137 128 130
-0.10759150 0.31798104 0.94390464 176 150 160
-0.10994790 0.33052195 0.94574132 158 153 156
-0.11005395 0.35047593 0.94665481 155 155 155
-0.10983431 0.37027655 0.94756530 154 154 155
-0.10943575 0.39045800 0.94838710 154 155 158
-0.10953723 0.41051004 0.94926776 58 58 59
-0.10965221 0.43064956 0.95026350 0 0 0
-0.10974514 0.45074059 0.95106894 0 0 0
-0.10983133 0.47001340 0.95181583 0 0 0
-0.10991371 0.48929931 0.95252971 0 0 0
-0.10999430 0.50942891 0.95322803 0 0 0
-0.11006860 0.52955711 0.95387183 0 0 0
-0.11010828 0.54129190 0.95421555 0 0 0
-0.08961374 -0.62970773 0.94678672 0 0 0
-0.08957531 -0.60980870 0.94638071 0 0 0
-0.08952760 -0.58986573 0.94587655 0 0 0
-0.08946333 -0.56983822 0.94519733 0 0 0
-0.08993154 -0.54950851 0.94424609 0 0 0
-0.09007846 -0.52944449 0.94308458 0 0 0
-0.08993069 -0.50986163 0.94153800 0 0 0
-0.09041242 -0.49416909 0.93801030 70 72 71
-0.08980809 -0.49860103 0.94025551 0 0 0
-0.09027345 -0.46986449 0.89628957 193 196 194
-0.09615832 -0.36217788 0.69315743 191 192 189
-0.08632937 -0.34219417 0.65491144 196 197 194
-0.09029244 -0.34655607 0.66325951 192 193 191
-0.08061966 -0.33266539 0.63667470 196 197 193
-0.08273769 -0.33680779 0.64460266 197 198 194
-0.09946090 -0.30000185 0.61702406 191 191 187
-0.09008173 -0.30348004 0.62979886 197 199 198
-0.09016141 -0.30874875 0.65008815 198 200 199
-0.08984149 -0.31272797 0.66946135 196 198 197
-0.09046712 -0.31622294 0.69010631 196 197 196
-0.08995725 -0.31822076 0.71027089 197 198 198
-0.09001947 -0.31876239 0.73021444 196 198 198
-0.08988134 -0.31822752 0.75038734 196 198 198
-0.09004797 -0.31552663 0.77017400 197 198 198
-0.08974483 -0.31029276 0.79029619 194 195 196
-0.09007450 -0.30349478 0.80636088 194 194 195
-0.09346693 -0.28065389 0.53936271 191 190 189
-0.08815033 -0.28242525 0.54981461 191 191 187
-0.09049284 -0.28390909 0.57021174 191 193 191
-0.08967202 -0.29006576 0.58954077 192 193 193
-0.09060602 -0.29731009 0.60955465 196 198 196
-0.09014222 -0.29725358 0.81617043 191 192 191
-0.08976438 -0.28743514 0.82707272 189 190 189
-0.09637624 -0.27640813 0.53363584 190 191 189
-0.09119075 -0.27886987 0.55048474 192 194 191
-0.09954039 -0.27965775 0.56316960 200 201 199
-0.09059468 -0.27588109 0.83686977 184 184 183
-0.08973290 -0.26575745 0.84446822 182 181 180
-0.09023584 -0.25093137 0.85453956 190 189 189
-0.08909407 -0.24094651 0.86099610 192 192 192
-0.09007307 -0.22960271 0.86731604 192 192 193
-0.08986155 -0.21102561 0.87610766 189 190 193
-0.09014154 -0.20124328 0.88004732 189 189 191
-0.09030414 -0.19055428 0.88383022 187 187 189
-0.08964484 -0.17047618 0.89022054 185 185 187
-0.09020717 -0.14987064 0.89580508 185 185 187
-0.09054541 -0.13567752 0.89916317 186 186 187
-0.09008393 -0.12592572 0.90127975 184 184 186
-0.08957085 -0.10983891 0.90445648 184 184 186
-0.08987311 -0.08993073 0.90807360 183 183 185
-0.09019576 -0.06977723 0.91133305 183 183 186
-0.09019229 -0.04964970 0.91422092 183 182 185
-0.08994243 -0.02978920 0.91677803 182 182 184
-0.09015374 -0.01000553 0.91893119 180 179 182
-0.08992864 0.01005881 0.92085565 164 164 167
-0.08970732 0.02981671 0.92250515 173 173 175
-0.09006372 0.04995263 0.92618216 163 121 137
