ply
format ascii 1.0
element vertex 1070
property float x
property float y
property float z
property uchar red
property uchar green
property uchar blue
end_header
0.05434614 0.35584894 1.67795014 172 164 158
0.05710500 0.35497028 1.67380702 183 175 169
0.05999804 0.35497028 1.67380702 181 173 167
0.06273618 0.35409597 1.66968429 183 175 169
0.06562208 0.35409597 1.66968429 182 176 170
0.06884715 0.35584894 1.67795014 177 171 164
0.07228412 0.35851115 1.69050336 172 165 159
0.07558298 0.36030820 1.69897699 164 158 151
0.07891509 0.36212334 1.70753610 163 158 153
0.08186643 0.36212334 1.70753610 162 158 154
0.08439261 0.36030820 1.69897699 168 162 162
-0.41306797 0.38342500 1.79336464 189 180 180
-0.40996829 0.38342500 1.79336464 189 187 186
-0.40579507 0.38241333 1.78863287 185 185 184
-0.40483990 0.38444203 1.79812157 165 165 165
0.05209063 0.36324474 1.69897699 171 163 156
0.05448100 0.35963932 1.68211377 179 171 164
0.05724635 0.35874912 1.67795014 185 177 170
0.06014655 0.35874912 1.67795014 183 175 169
0.06273618 0.35698190 1.66968429 183 175 169
0.07558298 0.36324474 1.69897699 155 155 148
0.07891509 0.36507466 1.70753610 150 148 145
0.08186643 0.36507466 1.70753610 161 157 158
0.08439261 0.36324474 1.69897699 166 162 163
-0.40996829 0.38652468 1.79336464 181 177 176
-0.40472716 0.38449034 1.78392589 188 184 183
-0.40483990 0.38754994 1.79812157 179 179 179
-0.40066922 0.38652468 1.79336464 174 174 174
-0.39652053 0.38550481 1.78863287 157 157 156
0.05461653 0.36344859 1.68629813 188 181 170
0.05738840 0.36254671 1.68211377 191 183 172
0.06029579 0.36254671 1.68211377 188 181 169
0.06289107 0.36075637 1.67380702 183 175 169
0.06578412 0.36075637 1.67380702 182 174 168
0.07228412 0.36435494 1.69050336 165 162 154
0.07577289 0.36710134 1.70324588 158 157 153
0.07891509 0.36802602 1.70753610 152 149 147
-0.41089392 0.38757372 1.78392589 182 176 176
-0.40888655 0.38859633 1.78863287 186 181 181
-0.40472716 0.38757372 1.78392589 189 185 184
-0.40376890 0.38962436 1.79336464 185 184 182
-0.40066922 0.38962436 1.79336464 182 182 180
-0.39547706 0.38757372 1.78392589 184 183 181
0.05461653 0.36636320 1.68629813 186 180 162
0.05753116 0.36636320 1.68629813 187 180 163
0.06044578 0.36636320 1.68629813 185 177 160
0.06289107 0.36364940 1.67380702 185 177 164
0.06578412 0.36364940 1.67380702 182 176 166
0.06884715 0.36454952 1.67795014 177 170 162
0.07210431 0.36636320 1.68629813 168 163 156
-0.41180986 0.38861176 1.77458596 183 177 175
-0.40874264 0.38861176 1.77458596 186 181 180
-0.40674019 0.38963175 1.77924371 184 180 179
-0.40260819 0.38861176 1.77458596 186 182 181
-0.40164381 0.39065707 1.78392589 186 185 183
-0.39856043 0.39065707 1.78392589 188 187 185
-0.39443907 0.38963175 1.77924371 190 189 187
0.05448100 0.36836150 1.68211377 182 173 158
0.05724635 0.36744973 1.67795014 183 173 159
0.06029579 0.36836150 1.68211377 187 176 162
0.06289107 0.36654246 1.67380702 187 177 163
0.06562208 0.36563963 1.66968429 187 176 166
0.06867716 0.36654246 1.67380702 178 168 159
-0.40567541 0.39167899 1.77458596 184 180 179
-0.40155700 0.39065632 1.76995254 186 182 181
-0.40164381 0.39374045 1.78392589 188 185 184
-0.39751434 0.39270702 1.77924371 188 186 185
0.05434614 0.37034994 1.67795014 176 167 159
0.05724635 0.37034994 1.67795014 181 172 163
0.06044578 0.37219247 1.68629813 185 176 165
0.06289107 0.36943549 1.67380702 185 176 166
0.06562208 0.36852553 1.66968429 182 173 163
0.06867716 0.36943549 1.67380702 169 160 151
0.05434614 0.37325013 1.67795014 178 169 162
0.05724635 0.37325013 1.67795014 182 174 166
0.06059652 0.37604252 1.69050336 184 176 168
0.06304675 0.37325013 1.67795014 181 174 166
0.06578412 0.37232852 1.67380702 174 168 164
0.06901798 0.37417632 1.68211377 167 161 161
0.05434614 0.37615034 1.67795014 179 170 164
0.05738840 0.37708372 1.68211377 183 175 168
0.06074801 0.37991184 1.69472957 184 176 169
0.06320319 0.37708372 1.68211377 179 173 171
0.06594695 0.37615034 1.67795014 171 166 165
0.08186643 0.38278270 1.70753610 180 177 169
0.08439261 0.38086399 1.69897699 185 181 173
0.05434614 0.37905052 1.67795014 179 170 166
0.05738840 0.37999111 1.68211377 182 174 168
0.06059652 0.38188633 1.69050336 182 174 168
0.06320319 0.37999111 1.68211377 180 174 172
0.06594695 0.37905052 1.67795014 176 171 169
0.06918968 0.38093635 1.68629813 177 173 170
0.08166073 0.38476485 1.70324588 183 178 170
0.08397171 0.38188633 1.69050336 182 176 169
0.05421196 0.38100764 1.67380702 178 170 165
0.05724635 0.38195074 1.67795014 179 171 165
0.06044578 0.38385099 1.68629813 176 170 168
0.06304675 0.38195074 1.67795014 178 173 170
0.06578412 0.38100764 1.67380702 179 173 170
0.06901798 0.38289851 1.68211377 180 176 170
0.07264644 0.38673708 1.69897699 181 178 170
0.07577289 0.38770878 1.70324588 183 180 172
0.07891509 0.38868538 1.70753610 184 180 172
0.08145607 0.38673708 1.69897699 183 175 167
0.08397171 0.38480821 1.69050336 181 173 166
0.05421196 0.38390067 1.67380702 177 170 164
0.05724635 0.38485092 1.67795014 177 171 164
0.06029579 0.38580590 1.68211377 175 170 165
0.06289107 0.38390067 1.67380702 177 172 167
0.06578412 0.38390067 1.67380702 178 173 167
0.06884715 0.38485092 1.67795014 180 175 168
0.07264644 0.38967362 1.69897699 182 177 170
0.05738840 0.38871330 1.68211377 176 171 164
0.06044578 0.38968024 1.68629813 176 171 166
0.06304675 0.38775113 1.67795014 176 171 165
0.06578412 0.38679373 1.67380702 176 171 164
0.06044578 0.39259487 1.68629813 174 171 165
0.06289107 0.38968676 1.67380702 172 169 162
0.06029579 0.39452809 1.68211377 171 168 160
-0.32253480 0.32593572 1.36947846 184 183 182
-0.31416437 0.32462412 1.36396754 196 192 191
-0.32253480 0.32830274 1.36947846 186 186 186
-0.31887937 0.32698160 1.36396754 187 187 185
-0.31780076 0.32830274 1.36947846 193 193 191
-0.31479776 0.32764086 1.36671746 201 201 198
-0.31243551 0.32764086 1.36671746 195 195 192
-0.32318771 0.33133915 1.37225068 191 191 188
-0.31952229 0.33000311 1.36671746 192 193 188
-0.31844407 0.33133915 1.37225068 195 196 190
-0.31543371 0.33066979 1.36947846 198 199 193
-0.31306669 0.33066979 1.36947846 195 196 192
-0.31084448 0.33336362 1.38063514 185 184 183
0.08988639 0.31598753 1.30867147 146 138 139
0.09091967 0.31177437 1.29122257 145 136 137
0.09123976 0.30537602 1.26472354 152 145 145
0.09145040 0.13628772 0.56443948 51 50 52
0.09219569 0.13594812 0.56303310 50 48 50
0.09309153 0.13583530 0.56256586 49 47 49
-0.32384327 0.33438787 1.37503421 192 193 187
-0.32081589 0.33371100 1.37225068 194 194 188
-0.31909001 0.33438787 1.37503421 195 196 189
-0.31607226 0.33371100 1.37225068 195 196 189
-0.31370041 0.33371100 1.37225068 193 193 189
-0.31084448 0.33574995 1.38063514 184 184 184
0.08813489 0.32010335 1.31629479 151 147 138
0.08988639 0.31824946 1.30867147 140 134 133
0.09074683 0.31340918 1.28876781 142 138 136
0.09106985 0.30698925 1.26236844 154 152 149
0.09273369 0.30528376 1.25535524 145 143 139
0.08628508 0.13680765 0.56256586 60 57 58
0.08718508 0.13669422 0.56209940 59 55 56
0.09055021 0.13737769 0.56490988 52 51 53
0.09160294 0.13749227 0.56538099 49 48 50
0.09227233 0.13703510 0.56350112 48 47 49
0.09309153 0.13680765 0.56256586 48 47 49
0.09398589 0.13669422 0.56209940 46 45 47
-0.32450148 0.33744898 1.37782896 193 193 186
-0.32146662 0.33676451 1.37503421 195 195 188
-0.31973857 0.33744898 1.37782896 195 195 188
-0.31671336 0.33676451 1.37503421 193 194 188
-0.31433672 0.33676451 1.37503421 185 185 182
-0.31323081 0.33813626 1.38063514 181 180 178
-0.31084448 0.33813626 1.38063514 181 181 179
0.08796409 0.32175371 1.31374383 150 146 142
0.08971319 0.31989384 1.30614996 144 138 136
0.09074683 0.31563669 1.28876781 143 141 135
0.09123976 0.30974796 1.26472354 152 152 145
0.09239150 0.30631903 1.25072300 150 152 145
0.09403279 0.30463287 1.24383819 139 140 136
0.09583100 0.30351904 1.23929036 136 136 133
0.08552566 0.13812388 0.56396991 63 59 60
0.08642853 0.13800907 0.56350112 61 57 58
0.08725743 0.13778001 0.56256586 58 55 56
0.08830306 0.13789444 0.56303310 56 55 55
0.08935043 0.13800907 0.56350112 54 53 54
0.09077715 0.13870084 0.56632566 50 50 51
0.09167941 0.13858506 0.56585294 48 48 49
0.09234910 0.13812388 0.56396991 47 47 48
0.09316885 0.13789444 0.56303310 46 46 47
0.09398589 0.13766576 0.56209940 44 44 46
0.09519423 0.13800907 0.56350112 42 42 44
-0.32450148 0.33983046 1.37782896 193 193 186
-0.32146662 0.33914116 1.37503421 193 193 187
-0.31973857 0.33983046 1.37782896 192 192 186
-0.31735709 0.33983046 1.37782896 190 189 187
-0.31497562 0.33983046 1.37782896 180 179 177
-0.31323081 0.34052259 1.38063514 178 177 175
-0.31084448 0.34052259 1.38063514 179 178 176
-0.30607185 0.34052259 1.38063514 169 168 167
-0.30306831 0.33983046 1.37782896 160 159 156
0.08519804 0.32215142 1.30614996 142 138 137
0.08796409 0.32402441 1.31374383 145 141 140
0.08971319 0.32215142 1.30614996 147 141 136
0.09074683 0.31786424 1.28876781 148 141 137
0.09123976 0.31193393 1.26472354 150 143 139
0.09205183 0.30734667 1.24612474 148 143 139
0.09403279 0.30678272 1.24383819 137 134 132
0.09583100 0.30566105 1.23929036 134 132 130
0.09815244 0.30622086 1.24156010 128 127 126
0.08566821 0.13933049 0.56490988 62 58 59
0.08657246 0.13921449 0.56443948 61 57 58
0.08740250 0.13898303 0.56350112 59 55 56
0.08844999 0.13909866 0.56396991 55 53 53
0.08957381 0.13933049 0.56490988 52 51 51
0.09077715 0.13967969 0.56632566 50 49 49
0.09167941 0.13956310 0.56585294 47 47 47
0.09250301 0.13933049 0.56490988 48 45 46
0.09324630 0.13898303 0.56350112 47 45 46
0.09406388 0.13875236 0.56256586 45 44 44
0.09527342 0.13909866 0.56396991 43 42 44
-0.32384327 0.34151778 1.37503421 192 192 185
-0.32146662 0.34151778 1.37503421 191 191 186
-0.32038975 0.34290889 1.38063514 190 189 185
-0.31735709 0.34221193 1.37782896 188 188 186
-0.31497562 0.34221193 1.37782896 181 181 179
-0.31387004 0.34360871 1.38345277 179 178 176
-0.31084448 0.34290889 1.38063514 173 173 171
-0.30607185 0.34290889 1.38063514 177 176 175
-0.30306831 0.34221193 1.37782896 170 170 170
0.08536252 0.32503527 1.30867147 162 159 156
0.08813489 0.32692868 1.31629479 147 143 140
0.08988639 0.32503527 1.30867147 149 134 132
0.09074683 0.32009175 1.28876781 151 136 135
0.09106985 0.31353495 1.26236844 144 128 128
0.09239150 0.31064257 1.25072300 144 135 135
0.09437914 0.31007048 1.24841964 136 130 130
0.09618267 0.30893260 1.24383819 132 128 127
0.08497505 0.14077614 0.56679922 65 61 61
0.08581122 0.14054112 0.56585294 62 58 59
0.08671687 0.14042391 0.56538099 61 57 58
0.08754805 0.14019006 0.56443948 58 55 56
0.08874532 0.14054112 0.56585294 54 53 53
0.08972335 0.14054112 0.56585294 52 51 51
0.09085305 0.14077614 0.56679922 50 49 49
0.09175600 0.14065854 0.56632566 47 46 46
0.09258016 0.14042391 0.56538099 49 45 48
0.09340157 0.14019006 0.56443948 47 45 48
0.09414200 0.13984075 0.56303310 45 44 46
0.09527342 0.14007343 0.56396991 42 41 43
-0.32450148 0.34459341 1.37782896 188 187 186
-0.31735709 0.34459341 1.37782896 187 187 187
-0.31433672 0.34389442 1.37503421 185 184 183
-0.30483019 0.34389442 1.37503421 183 183 181
-0.30184129 0.34319827 1.37225068 177 177 175
-0.31888130 0.50011784 1.99968100 192 191 184
0.08487099 0.32541257 1.30113602 172 172 164
0.08745562 0.32666656 1.30614996 160 157 151
0.08954067 0.32603836 1.30363810 142 132 131
0.09023219 0.32049140 1.28145909 129 119 119
0.09106985 0.31571686 1.26236844 128 119 120
0.09239150 0.31280434 1.25072300 142 133 136
0.09437914 0.31222826 1.24841964 134 131 131
0.09618267 0.31108248 1.24383819 129 129 127
0.09887682 0.31280434 1.25072300 119 119 114
0.10048242 0.31108248 1.24383819 115 116 109
0.08595472 0.14175582 0.56679922 63 59 60
0.08686176 0.14163738 0.56632566 61 57 58
0.08776728 0.14151916 0.56585294 58 54 55
0.08889372 0.14175582 0.56679922 56 52 53
0.08987339 0.14175582 0.56679922 52 51 53
0.09100524 0.14199325 0.56774861 48 47 49
0.09190957 0.14187443 0.56727350 47 46 48
0.09281238 0.14175582 0.56679922 46 45 47
0.09363547 0.14151916 0.56585294 47 46 48
0.09429865 0.14104821 0.56396991 46 45 47
0.09559153 0.14151916 0.56585294 44 43 45
-0.32688296 0.34697485 1.37782896 181 180 180
-0.32450148 0.34697485 1.37782896 188 188 188
-0.32212001 0.34697485 1.37782896 187 187 187
-0.31735709 0.34697485 1.37782896 184 183 182
-0.31433672 0.34627107 1.37503421 183 182 180
-0.31259415 0.34697485 1.37782896 182 181 179
-0.31021270 0.34697485 1.37782896 186 186 184
-0.30421314 0.34557012 1.37225068 186 186 184
-0.30123150 0.34487200 1.36947846 179 179 175
-0.29412073 0.34210747 1.35850072 173 172 170
-0.32483566 0.50209302 1.99379957 194 193 192
-0.32233760 0.50357413 1.99968100 192 191 189
-0.31794342 0.50209302 1.99379957 185 185 181
0.08470840 0.32703379 1.29864335 174 171 166
0.08695301 0.32703379 1.29864335 159 155 152
0.08902705 0.32640848 1.29616034 141 137 136
0.08938732 0.31968471 1.26946032 126 122 121
0.09073193 0.31671917 1.25768435 140 136 135
0.09205183 0.31380814 1.24612474 142 140 140
0.09386057 0.31265867 1.24156010 134 133 130
0.09583100 0.31208709 1.23929036 126 126 121
0.09833254 0.31323236 1.24383819 117 116 109
0.09975030 0.31095016 1.23477566 114 110 106
0.08609869 0.14297457 0.56774861 62 60 60
0.08693439 0.14273548 0.56679922 60 57 58
0.09123447 0.14333470 0.56917870 48 47 49
0.09206364 0.14309441 0.56822449 47 46 48
0.09296785 0.14297457 0.56774861 47 46 48
0.09379205 0.14273548 0.56679922 46 45 47
0.09453459 0.14237835 0.56538099 46 45 47
0.09583151 0.14285493 0.56727350 45 44 46
-0.34117174 0.34935632 1.37782896 194 192 185
-0.32688296 0.34935632 1.37782896 191 191 190
-0.32450148 0.34935632 1.37782896 190 191 190
-0.32212001 0.34935632 1.37782896 184 185 183
-0.31973857 0.34935632 1.37782896 176 176 175
-0.31735709 0.34935632 1.37782896 180 179 177
-0.31433672 0.34864768 1.37503421 183 182 180
-0.31259415 0.34935632 1.37782896 185 184 182
-0.30359855 0.34723902 1.36947846 186 185 183
-0.30001932 0.34584168 1.36396754 182 182 176
-0.29706410 0.34514722 1.36122859 178 178 173
-0.29353249 0.34376663 1.35578370 176 175 171
-0.33321393 0.50258279 1.98213995 182 181 180
-0.32882649 0.50111753 1.97636104 185 184 184
-0.32388306 0.50405663 1.98795259 183 182 182
-0.32138953 0.50553918 1.99379957 181 180 180
-0.31701103 0.50405663 1.98795259 176 175 175
-0.31542501 0.50703043 1.99968100 168 164 166
-0.31196874 0.50703043 1.99968100 164 160 161
-0.30760506 0.50553918 1.99379957 174 171 170
0.08438509 0.32802159 1.29368675 177 175 172
0.08499900 0.32187885 1.26946032 159 157 155
0.08735675 0.32248276 1.27184212 153 149 148
0.08905379 0.32067782 1.26472354 143 139 138
0.09056391 0.31830242 1.25535524 146 142 141
0.09171464 0.31480461 1.24156010 148 145 141
0.09351802 0.31365567 1.23702896 130 127 122
0.09548189 0.31308436 1.23477566 117 115 109
0.09797301 0.31422910 1.23929036 119 111 111
0.09938823 0.31194794 1.23029375 114 105 106
0.10151470 0.31194794 1.23029375 104 95 96
0.09138793 0.14456125 0.57013613 51 47 50
0.09221824 0.14431848 0.56917870 47 46 48
0.09312384 0.14419740 0.56870121 47 46 48
0.09387054 0.14383541 0.56727350 46 45 47
0.09469254 0.14359508 0.56632566 45 44 46
0.09599217 0.14407654 0.56822449 44 43 45
-0.34117174 0.35173780 1.37782896 191 189 184
-0.32384327 0.35102433 1.37503421 192 196 190
-0.32212001 0.35173780 1.37782896 184 185 180
-0.31973857 0.35173780 1.37782896 174 174 170
-0.31671336 0.35102433 1.37503421 176 176 172
-0.31433672 0.35102433 1.37503421 179 179 175
-0.31196010 0.35102433 1.37503421 183 182 179
-0.30298644 0.34890121 1.36671746 184 183 179
-0.29941687 0.34750000 1.36122859 179 176 170
-0.29646876 0.34680361 1.35850072 181 178 172
-0.29294658 0.34541914 1.35307753 180 177 171
-0.34998789 0.51048672 1.99968100 172 168 166
-0.34349185 0.50600874 1.98213995 171 167 165
-0.33663991 0.50600874 1.98213995 174 171 168
-0.33517402 0.50898528 1.99379957 170 169 167
-0.32978797 0.50600874 1.98213995 173 172 170
-0.32636201 0.50600874 1.98213995 166 166 165
-0.32483566 0.50898528 1.99379957 162 162 162
-0.32138953 0.50898528 1.99379957 161 161 162
-0.31701103 0.50749266 1.98795259 160 160 163
-0.31449729 0.50898528 1.99379957 156 155 159
-0.31105116 0.50898528 1.99379957 159 159 162
-0.30670297 0.50749266 1.98795259 163 163 165
0.08452415 0.32226256 1.26236844 164 160 158
0.08670605 0.32226256 1.26236844 156 152 151
0.08872274 0.32166356 1.26002204 152 148 147
0.09022973 0.31928965 1.25072300 145 141 140
0.09137991 0.31579378 1.23702896 146 140 140
0.09334768 0.31521857 1.23477566 132 126 126
0.09530828 0.31464544 1.23253059 119 113 113
0.09761609 0.31521857 1.23477566 115 106 107
0.09920818 0.31350541 1.22806489 106 98 100
0.10114755 0.31293851 1.22584414 97 89 92
0.10420854 0.31579378 1.23702896 83 77 79
0.09154191 0.14579190 0.57109678 53 49 52
0.09237336 0.14554667 0.57013613 49 45 48
0.09320202 0.14530227 0.56917870 47 45 47
0.09402791 0.14505868 0.56822449 46 44 47
0.09493046 0.14493719 0.56774861 45 44 46
0.09607270 0.14518036 0.56870121 45 43 45
-0.34117174 0.35411927 1.37782896 193 192 190
-0.33879027 0.35411927 1.37782896 190 189 186
-0.32926443 0.35411927 1.37782896 192 194 190
-0.32621992 0.35340098 1.37503421 192 194 189
-0.32384327 0.35340098 1.37503421 189 191 182
-0.32146662 0.35340098 1.37503421 183 184 176
-0.31909001 0.35340098 1.37503421 175 174 168
-0.31671336 0.35340098 1.37503421 177 176 170
-0.31433672 0.35340098 1.37503421 181 180 174
-0.31259415 0.35411927 1.37782896 183 183 176
-0.31021270 0.35411927 1.37782896 183 183 176
-0.30658495 0.35268557 1.37225068 183 183 176
-0.30298644 0.35126346 1.36671746 181 181 174
-0.29941687 0.34985277 1.36122859 180 176 171
-0.29706410 0.34985277 1.36122859 181 177 171
-0.29353249 0.34845334 1.35578370 180 176 171
-0.36035675 0.51394302 1.99968100 191 190 186
-0.34551239 0.51243138 1.99379957 177 175 173
-0.34106314 0.51092869 1.98795259 175 174 171
-0.33862016 0.51243138 1.99379957 174 170 167
-0.33075508 0.51092869 1.98795259 163 159 156
-0.32731909 0.51092869 1.98795259 161 160 158
-0.32579386 0.51394302 1.99968100 156 155 155
-0.32233760 0.51394302 1.99968100 155 155 156
-0.31794342 0.51243138 1.99379957 160 160 164
-0.31542501 0.51394302 1.99968100 171 171 175
-0.31105116 0.51243138 1.99379957 176 176 179
0.08436704 0.32384139 1.26002204 152 148 147
0.08654489 0.32384139 1.26002204 148 144 143
0.08855812 0.32324058 1.25768435 150 146 145
0.09006356 0.32085943 1.24841964 141 137 136
0.09137991 0.31793189 1.23702896 143 138 136
0.09317795 0.31677577 1.23253059 132 126 124
0.09513531 0.31620085 1.23029375 122 114 113
0.09726177 0.31620085 1.23029375 113 106 106
0.09885003 0.31448859 1.22363150 99 92 94
0.10042118 0.31279474 1.21704102 88 82 84
0.10382960 0.31677577 1.23253059 78 74 75
0.08774137 0.14702673 0.57206064 62 56 60
0.08888014 0.14727530 0.57302779 60 54 58
0.08971889 0.14702673 0.57206064 57 51 55
0.09078427 0.14715090 0.57254380 54 49 52
0.09169641 0.14702673 0.57206064 51 47 50
0.09237336 0.14653210 0.57013613 50 46 49
0.09328035 0.14640898 0.56965703 48 44 47
0.09402791 0.14604080 0.56822449 47 43 46
0.09501003 0.14604080 0.56822449 47 43 46
0.09615336 0.14628604 0.56917870 46 42 45
0.09697430 0.14604080 0.56822449 44 40 43
-0.33879027 0.35650072 1.37782896 198 198 192
-0.33640882 0.35650072 1.37782896 194 194 191
-0.33334982 0.35577759 1.37503421 187 187 185
-0.33097318 0.35577759 1.37503421 185 185 183
-0.32926443 0.35650072 1.37782896 189 189 183
-0.32621992 0.35577759 1.37503421 182 182 175
-0.32384327 0.35577759 1.37503421 183 178 171
-0.32146662 0.35577759 1.37503421 179 173 167
-0.31909001 0.35577759 1.37503421 176 170 164
-0.31671336 0.35577759 1.37503421 187 180 174
-0.31433672 0.35577759 1.37503421 190 186 179
-0.31259415 0.35650072 1.37782896 186 183 175
-0.31021270 0.35650072 1.37782896 180 180 173
-0.30658495 0.35505739 1.37225068 184 184 177
-0.30298644 0.35362571 1.36671746 184 184 177
-0.29941687 0.35220554 1.36122859 185 180 175
-0.29706410 0.35220554 1.36122859 181 175 171
-0.29353249 0.35079670 1.35578370 179 173 171
-0.29060790 0.35009652 1.35307753 180 174 172
-0.35824320 0.51436466 1.98795259 192 191 187
-0.35690045 0.51739931 1.99968100 188 188 182
-0.35344416 0.51739931 1.99968100 190 190 183
-0.34998789 0.51739931 1.99968100 192 192 188
-0.34449914 0.51436466 1.98795259 185 185 180
-0.34006587 0.51286072 1.98213995 177 177 172
-0.33663991 0.51286072 1.98213995 172 172 166
-0.33616275 0.51739931 1.99968100 165 164 159
-0.33075508 0.51436466 1.98795259 162 162 156
-0.32636201 0.51286072 1.98213995 164 164 162
-0.32483566 0.51587754 1.99379957 167 167 169
-0.32233760 0.51739931 1.99968100 168 168 170
-0.31794342 0.51587754 1.99379957 167 168 171
-0.31542501 0.51739931 1.99968100 174 174 176
0.08421052 0.32541439 1.25768435 147 144 144
0.08638432 0.32541439 1.25768435 152 148 147
0.08839413 0.32481179 1.25535524 154 150 148
0.09006356 0.32301724 1.24841964 140 135 133
0.09121346 0.31948698 1.23477566 139 133 131
0.09317795 0.31890610 1.23253059 132 126 124
0.09513531 0.31832734 1.23029375 123 117 115
0.09726177 0.31832734 1.23029375 112 106 104
0.09867192 0.31603307 1.22142673 99 93 93
0.09988321 0.31321135 1.21052110 83 77 79
0.10382960 0.31890610 1.23253059 83 82 82
0.08803855 0.14851682 0.57399815 61 56 60
0.08903066 0.14851682 0.57399815 59 54 58
0.08964324 0.14789069 0.57157826 55 50 53
0.09055482 0.14776610 0.57109678 53 49 52
0.09154191 0.14776610 0.57109678 52 48 51
0.09320202 0.14726982 0.56917870 49 45 48
0.09394915 0.14689979 0.56774861 47 43 46
0.09501003 0.14702293 0.56822449 45 44 46
0.09615336 0.14726982 0.56917870 43 42 44
0.09697430 0.14702293 0.56822449 42 41 43
-0.33640882 0.35888219 1.37782896 192 192 190
-0.33267501 0.35742924 1.37225068 186 185 184
-0.33097318 0.35815424 1.37503421 186 186 184
-0.32859653 0.35815424 1.37503421 184 181 175
-0.32621992 0.35815424 1.37503421 184 179 173
-0.32318771 0.35742924 1.37225068 178 170 164
-0.32081589 0.35742924 1.37225068 171 162 156
-0.31909001 0.35815424 1.37503421 178 168 163
-0.31607226 0.35742924 1.37225068 184 176 170
-0.31370041 0.35742924 1.37225068 190 187 180
-0.31196010 0.35815424 1.37503421 184 184 176
-0.30958346 0.35815424 1.37503421 179 179 172
-0.30237684 0.35527170 1.36396754 183 179 177
-0.29881683 0.35384777 1.35850072 186 180 179
-0.29706410 0.35455832 1.36122859 180 174 174
-0.29353249 0.35314009 1.35578370 179 173 173
-0.29060790 0.35243520 1.35307753 177 173 174
-0.35719571 0.51628667 1.98213995 187 187 180
-0.35585076 0.51932365 1.99379957 187 187 180
-0.35240462 0.51932365 1.99379957 192 192 185
-0.34895849 0.51932365 1.99379957 190 191 185
-0.34349185 0.51628667 1.98213995 189 190 183
-0.33808875 0.51328498 1.97061586 178 179 172
-0.33517402 0.51932365 1.99379957 173 174 168
-0.33075508 0.51780069 1.98795259 173 173 170
-0.32483566 0.51932365 1.99379957 178 178 179
-0.32233760 0.52085555 1.99968100 179 179 181
0.08203671 0.32758820 1.25768435 144 143 143
0.08405457 0.32698154 1.25535524 145 144 144
0.08606497 0.32637715 1.25303483 144 141 140
0.08806795 0.32577497 1.25072300 143 137 135
0.08973305 0.32398173 1.24383819 140 134 132
0.09121346 0.32162121 1.23477566 137 133 128
0.09300885 0.32045379 1.23029375 131 128 122
0.09496296 0.31987324 1.22806489 123 117 115
0.09726177 0.32045379 1.23029375 112 107 104
0.09867192 0.31814420 1.22142673 100 95 94
0.09952775 0.31418157 1.20621324 92 88 89
0.08811316 0.14963563 0.57448459 60 59 61
0.08910611 0.14963563 0.57448459 58 54 57
0.08964324 0.14887862 0.57157826 54 50 54
0.09032653 0.14837818 0.56965703 53 49 53
0.09131113 0.14837818 0.56965703 51 47 52
0.09320202 0.14825360 0.56917870 50 46 50
0.09402791 0.14800507 0.56822449 48 44 47
0.09501003 0.14800507 0.56822449 47 43 46
0.09615336 0.14825360 0.56917870 44 42 45
0.09697430 0.14800507 0.56822449 42 41 43
-0.33709398 0.36199942 1.38063514 183 181 181
-0.33334982 0.36053088 1.37503421 177 175 175
-0.33164588 0.36126366 1.37782896 184 181 180
-0.32926443 0.36126366 1.37782896 179 171 167
-0.32688296 0.36126366 1.37782896 184 176 170
-0.32384327 0.36053088 1.37503421 177 169 163
-0.32212001 0.36126366 1.37782896 173 165 159
-0.31973857 0.36126366 1.37782896 171 163 158
-0.31671336 0.36053088 1.37503421 180 174 169
-0.31433672 0.36053088 1.37503421 188 186 180
-0.29177266 0.35619584 1.35850072 185 179 180
-0.35585076 0.52276975 1.99379957 181 180 177
-0.35240462 0.52276975 1.99379957 183 182 179
-0.34895849 0.52276975 1.99379957 185 184 180
-0.34449914 0.52123672 1.98795259 179 178 174
-0.33710879 0.51519340 1.96490383 167 166 162
-0.33172789 0.52276975 1.99379957 177 177 177
0.07956766 0.32854292 1.25303483 147 147 145
0.08173344 0.32854292 1.25303483 148 148 141
0.08389920 0.32854292 1.25303483 146 140 138
0.08590618 0.32793674 1.25072300 141 134 132
0.08774418 0.32673112 1.24612474 134 125 124
0.08973305 0.32613158 1.24383819 139 133 131
0.09121346 0.32375541 1.23477566 132 130 126
0.09300885 0.32258025 1.23029375 127 127 120
0.09496296 0.32199585 1.22806489 120 119 113
0.09726177 0.32258025 1.23029375 110 110 107
0.09885003 0.32083341 1.22363150 103 102 101
0.10024121 0.31853354 1.21485996 99 98 100
0.10345341 0.32199585 1.22806489 90 89 91
0.08826275 0.15088432 0.57545996 58 57 59
0.08910611 0.15062858 0.57448459 56 53 56
0.08956772 0.14974028 0.57109678 54 51 54
0.09032653 0.14936279 0.56965703 54 50 53
0.09131113 0.14936279 0.56965703 51 47 50
0.09320202 0.14923738 0.56917870 49 45 48
0.09402791 0.14898719 0.56822449 49 45 48
0.09501003 0.14898719 0.56822449 47 45 47
0.09615336 0.14923738 0.56917870 46 43 46
0.09697430 0.14898719 0.56822449 44 41 44
-0.33164588 0.36364514 1.37782896 178 172 170
-0.32926443 0.36364514 1.37782896 175 169 167
-0.32688296 0.36364514 1.37782896 178 172 170
-0.32450148 0.36364514 1.37782896 180 172 168
0.07942086 0.33009851 1.25072300 156 156 152
0.08158264 0.33009851 1.25072300 152 149 142
0.08374441 0.33009851 1.25072300 147 141 135
0.08574797 0.32949060 1.24841964 145 138 134
0.08758318 0.32828146 1.24383819 141 132 132
0.08956870 0.32768023 1.24156010 141 137 135
0.09121346 0.32588962 1.23477566 132 129 126
0.09317795 0.32529709 1.23253059 123 122 118
0.09496296 0.32411847 1.22806489 121 117 115
0.09726177 0.32470670 1.23029375 113 109 109
0.09885003 0.32294837 1.22363150 106 103 103
0.10060179 0.32178670 1.21922994 99 98 98
0.10345341 0.32411847 1.22806489 86 86 88
0.10538510 0.32353237 1.22584414 80 80 81
0.08933323 0.15200798 0.57594889 56 53 56
0.08987057 0.15123703 0.57302779 56 53 56
0.09055482 0.15072738 0.57109678 56 53 56
0.09146485 0.15060051 0.57061601 53 49 52
0.09328035 0.15034740 0.56965703 49 45 48
0.09402791 0.14996932 0.56822449 49 45 48
0.09508974 0.15009513 0.56870121 48 44 47
0.09615336 0.15022115 0.56917870 47 43 46
0.09697430 0.14996932 0.56822449 43 42 44
-0.32621992 0.36528414 1.37503421 178 173 171
-0.32450148 0.36602658 1.37782896 180 176 171
0.07927459 0.33164841 1.24841964 145 144 140
0.08128270 0.33103874 1.24612474 144 135 133
0.08343652 0.33103874 1.24612474 145 136 134
0.08543330 0.33043134 1.24383819 149 140 138
0.08726294 0.32922319 1.23929036 148 139 138
0.08940496 0.32922319 1.23929036 140 136 135
0.09121346 0.32802382 1.23477566 126 122 120
0.09300885 0.32683319 1.23029375 121 116 113
0.09496296 0.32624108 1.22806489 121 115 113
0.09726177 0.32683319 1.23029375 114 108 107
0.09885003 0.32506332 1.22363150 100 94 94
0.10078306 0.32447761 1.22142673 95 95 95
0.10345341 0.32624108 1.22806489 87 88 88
0.10538510 0.32565114 1.22584414 78 78 78
0.08871461 0.15365621 0.57840604 62 56 58
0.08948528 0.15326390 0.57692921 59 53 55
0.09017548 0.15274392 0.57497185 58 52 55
0.09101488 0.15248525 0.57399815 56 50 54
0.09161910 0.15184240 0.57157826 54 48 52
0.09359495 0.15184240 0.57157826 50 44 48
0.09410679 0.15107809 0.56870121 49 45 48
0.09516958 0.15120494 0.56917870 47 43 46
0.09623417 0.15133201 0.56965703 46 42 45
0.09697430 0.15095145 0.56822449 42 41 43
-0.39947540 0.53154474 1.98795259 190 184 184
-0.37896135 0.52690917 1.97061586 200 196 189
-0.37555531 0.52690917 1.97061586 188 188 181
-0.37432554 0.52999055 1.98213995 182 182 175
-0.36855125 0.53154474 1.98795259 175 175 171
-0.35824320 0.53154474 1.98795259 186 186 186
-0.35585076 0.53310812 1.99379957 184 183 183
0.07912887 0.33319259 1.24612474 141 138 133
0.08128270 0.33319259 1.24612474 136 130 128
0.08328342 0.33258122 1.24383819 146 140 139
0.08527683 0.33197209 1.24156010 149 143 143
0.08710370 0.33076051 1.23702896 144 140 137
0.08924181 0.33076051 1.23702896 136 131 130
0.09104762 0.32955775 1.23253059 118 113 111
0.09300885 0.32895964 1.23029375 120 112 109
0.09479124 0.32776991 1.22584414 123 114 115
0.09708557 0.32836369 1.22806489 115 106 107
0.09867192 0.32658875 1.22142673 106 97 98
0.10060179 0.32600138 1.21922994 93 93 93
0.08894228 0.15505284 0.57989037 61 55 57
0.08963785 0.15452409 0.57791293 58 53 55
0.09032871 0.15399894 0.57594889 56 51 54
0.09124666 0.15386821 0.57545996 55 49 53
0.09169641 0.15295929 0.57206064 53 48 52
0.09399121 0.15347736 0.57399815 49 44 48
0.09426495 0.15231660 0.56965703 47 44 47
0.09532966 0.15244471 0.57013613 46 44 46
0.09631510 0.15244471 0.57013613 45 43 45
0.09705565 0.15206105 0.56870121 42 41 43
-0.39947540 0.53498077 1.98795259 194 188 188
-0.38125908 0.52877808 1.96490383 195 188 183
-0.37786290 0.52877808 1.96490383 194 188 182
-0.37446672 0.52877808 1.96490383 191 187 182
-0.37214926 0.53031522 1.97061586 186 185 179
-0.37089959 0.53341651 1.98213995 179 179 173
-0.35408968 0.52877808 1.96490383 185 184 181
-0.34967992 0.52724981 1.95922494 183 182 180
-0.34729731 0.52877808 1.96490383 174 173 172
-0.34793517 0.53498077 1.98795259 158 157 157
0.08313090 0.33411804 1.24156010 148 142 141
0.08496560 0.33289862 1.23702896 150 145 144
0.08694504 0.33229226 1.23477566 143 139 137
0.08891729 0.33168808 1.23253059 135 130 129
0.09088238 0.33108610 1.23029375 119 112 113
0.09284035 0.33048630 1.22806489 117 107 108
0.09479124 0.32988867 1.22584414 118 109 110
0.09691001 0.32988867 1.22584414 114 105 106
0.09849446 0.32810870 1.21922994 110 101 102
0.10024121 0.32693270 1.21485996 103 98 100
0.08917112 0.15645663 0.58138239 59 55 56
0.08979096 0.15578860 0.57889998 54 53 55
0.09048246 0.15525825 0.57692921 53 52 54
0.09132419 0.15499443 0.57594889 52 50 52
0.09185144 0.15420832 0.57302779 52 50 52
0.09423057 0.15486285 0.57545996 47 45 47
0.09458288 0.15381825 0.57157826 45 44 46
0.09565146 0.15394805 0.57206064 45 44 46
0.09647738 0.15368867 0.57109678 44 43 45
0.09721877 0.15330121 0.56965703 42 41 43
-0.40065032 0.54000038 1.99379957 192 186 184
-0.38015717 0.53063619 1.95922494 191 182 179
-0.37786290 0.53217429 1.96490383 190 182 178
-0.37446672 0.53217429 1.96490383 192 184 180
-0.37214926 0.53372127 1.97061586 189 187 180
-0.36981824 0.53527731 1.97636104 186 186 178
-0.35204881 0.52910697 1.95357883 185 184 180
-0.34767026 0.52758658 1.94796503 178 177 176
0.08496560 0.33503672 1.23702896 151 147 142
0.08678696 0.33381841 1.23253059 144 137 135
0.08891729 0.33381841 1.23253059 136 128 128
0.09088238 0.33321255 1.23029375 126 117 118
0.09284035 0.33260891 1.22806489 111 100 102
0.09479124 0.33200747 1.22584414 111 100 102
0.09708557 0.33260891 1.22806489 116 105 106
0.09849446 0.33021605 1.21922994 110 101 100
0.08924766 0.15759668 0.58188140 58 56 57
0.08979096 0.15678917 0.57889998 54 52 54
0.09040552 0.15612255 0.57643867 52 51 53
0.09192915 0.15533006 0.57351255 51 50 52
0.09431063 0.15598992 0.57594889 46 45 47
0.09490295 0.15533006 0.57351255 45 44 46
0.09589422 0.15533006 0.57351255 45 44 46
0.09664021 0.15493682 0.57206064 44 43 45
0.09738244 0.15454556 0.57061601 42 41 43
-0.40065032 0.54344648 1.99379957 187 181 179
-0.37338445 0.53402257 1.95922494 187 179 175
-0.37214926 0.53712732 1.97061586 185 181 175
-0.35003135 0.52943212 1.94238353 180 179 177
-0.34568357 0.52791947 1.93683386 175 174 174
0.08875592 0.33533904 1.23029375 135 126 126
0.09071774 0.33473152 1.22806489 125 116 116
0.09267247 0.33412623 1.22584414 114 105 104
0.09479124 0.33412623 1.22584414 116 107 107
0.09708557 0.33473152 1.22806489 112 103 104
0.09849446 0.33232340 1.21922994 97 88 87
0.08932433 0.15873866 0.58238131 57 56 58
0.08986770 0.15792462 0.57939476 55 54 56
0.09048246 0.15725259 0.57692921 53 52 54
0.09200698 0.15645368 0.57399815 51 50 53
0.09439082 0.15711889 0.57643867 47 46 50
0.09498331 0.15645368 0.57399815 46 45 49
0.09605676 0.15658627 0.57448459 45 44 48
0.09680360 0.15618919 0.57302779 44 43 47
0.09762897 0.15592557 0.57206064 42 41 45
-0.40065032 0.54689258 1.99379957 183 177 175
-0.37338445 0.53740895 1.95922494 179 170 169
-0.37107056 0.53896666 1.96490383 179 173 172
-0.34803686 0.52975351 1.93131578 183 181 179
-0.34371948 0.52824855 1.92582905 183 182 179
-0.34233591 0.53126711 1.93683386 176 175 172
-0.34191900 0.53586018 1.95357883 173 174 173
0.09055369 0.33624500 1.22584414 124 115 112
0.09250519 0.33563808 1.22363150 115 106 105
0.09462013 0.33563808 1.22363150 116 107 106
0.09691001 0.33624500 1.22584414 106 97 97
0.09849446 0.33443072 1.21922994 92 83 89
0.08932433 0.15974526 0.58238131 53 53 54
0.08979096 0.15879034 0.57889998 55 55 56
0.09040552 0.15811521 0.57643867 54 53 54
0.09124666 0.15784676 0.57545996 51 50 52
0.09169641 0.15691434 0.57206064 50 49 51
0.09431063 0.15798087 0.57594889 48 47 49
0.09490295 0.15731260 0.57351255 47 46 49
0.09589422 0.15731260 0.57351255 45 44 48
0.09680360 0.15717962 0.57302779 45 44 48
0.09779403 0.15717962 0.57302779 42 41 48
-0.40739402 0.54552525 1.97636104 183 180 173
-0.39947540 0.54872483 1.98795259 182 176 174
-0.37230843 0.53923678 1.95357883 165 164 164
-0.36999810 0.54079527 1.95922494 166 166 166
-0.34508738 0.52857393 1.91494870 184 182 179
-0.34081480 0.52708501 1.90955448 180 179 174
-0.34039083 0.53157717 1.92582905 183 183 176
0.09444965 0.33714443 1.22142673 114 109 105
0.09814143 0.33533186 1.21485996 92 82 92
0.08940114 0.16089009 0.58288205 55 54 56
0.08979096 0.15979092 0.57889998 55 54 55
0.09032871 0.15897635 0.57594889 53 52 53
0.09093788 0.15830387 0.57351255 51 50 52
0.09131113 0.15723963 0.56965703 51 50 53
0.09415065 0.15870668 0.57497185 48 47 49
0.09458288 0.15776996 0.57157826 47 46 48
0.09565146 0.15790309 0.57206064 46 45 47
0.09655873 0.15776996 0.57157826 45 44 46
0.09787676 0.15830387 0.57351255 42 41 47
-0.40620974 0.54734552 1.97061586 188 185 179
-0.40163615 0.54575896 1.96490383 188 181 177
-0.39939764 0.54734552 1.97061586 185 177 174
-0.39947540 0.55216086 1.98795259 182 176 174
-0.39373010 0.54894125 1.97636104 182 176 175
-0.39031413 0.54894125 1.97636104 182 177 176
-0.37677082 0.54418164 1.95922494 179 179 172
-0.37230843 0.54261339 1.95357883 177 177 176
-0.36999810 0.54418164 1.95922494 175 175 174
-0.36767438 0.54575896 1.96490383 178 178 178
-0.36217862 0.54261339 1.95357883 180 180 180
-0.35037675 0.53490585 1.92582905 180 180 180
-0.34508738 0.53188378 1.91494870 185 184 180
-0.34081480 0.53038549 1.90955448 178 178 171
-0.33942655 0.53339052 1.92037344 182 182 175
-0.08085428 0.14395019 0.51826596 192 188 187
0.09779093 0.33622652 1.21052110 92 85 94
0.08932433 0.16175847 0.58238131 57 53 56
0.08971434 0.16065431 0.57840604 54 51 54
0.09025203 0.15983604 0.57545996 51 50 52
0.09070765 0.15889186 0.57206064 51 50 52
0.09655873 0.15875788 0.57157826 44 44 45
-0.20723271 0.13552113 0.48490116 193 193 189
-0.20326442 0.13455862 0.48145726 192 191 190
-0.20128857 0.13379839 0.47873718 185 184 184
-0.40163615 0.54915518 1.96490383 189 180 179
-0.39823997 0.54915518 1.96490383 184 176 175
-0.39830732 0.55397230 1.98213995 181 177 174
-0.39373010 0.55235726 1.97636104 181 177 174
-0.39031413 0.55235726 1.97636104 182 178 175
-0.38354355 0.54756802 1.95922494 182 182 175
-0.37677082 0.54756802 1.95922494 178 178 170
-0.37230843 0.54598999 1.95357883 177 176 172
-0.36999810 0.54756802 1.95922494 180 180 178
-0.36767438 0.54915518 1.96490383 180 179 178
-0.36217862 0.54598999 1.95357883 180 179 177
-0.34606498 0.53670973 1.92037344 182 180 176
-0.34177756 0.53519356 1.91494870 175 173 167
-0.08085428 0.14484598 0.51826596 194 188 188
0.09638712 0.34075275 1.21922994 103 98 98
0.09761661 0.33771574 1.20836341 98 89 96
0.08979096 0.16179208 0.57889998 56 53 55
0.09025203 0.16083068 0.57545996 53 51 54
0.09639617 0.15947688 0.57061601 44 43 43
-0.20996025 0.13704544 0.48734137 196 193 189
-0.20881768 0.13684867 0.48664168 197 193 190
-0.20767838 0.13665248 0.48594397 196 193 190
-0.20639460 0.13635923 0.48490116 193 193 189
-0.20526284 0.13616444 0.48420846 194 194 191
-0.20384352 0.13577650 0.48282894 193 193 191
-0.20185879 0.13500723 0.48009336 192 192 190
-0.40163615 0.55255133 1.96490383 183 174 173
-0.39031413 0.55577320 1.97636104 177 176 172
-0.38354355 0.55095434 1.95922494 174 173 169
-0.37906164 0.54936659 1.95357883 175 173 168
-0.37677082 0.55095434 1.95922494 177 175 170
-0.37230843 0.54936659 1.95357883 178 177 173
-0.36999810 0.55095434 1.95922494 185 184 182
-0.36661172 0.55095434 1.95922494 183 182 180
-0.36217862 0.54936659 1.95357883 181 179 178
-0.35471311 0.54310602 1.93131578 180 178 176
-0.35237890 0.54465777 1.93683386 179 177 175
-0.34704810 0.54156309 1.92582905 176 170 168
-0.34177756 0.53850341 1.91494870 174 170 165
-0.34039083 0.54156309 1.92582905 168 165 159
-0.08060777 0.14529742 0.51668584 191 183 186
0.08979096 0.16279267 0.57889998 57 54 56
0.09631510 0.16032818 0.57013613 44 43 43
-0.21125820 0.13818580 0.48839471 196 192 188
-0.21026257 0.13808632 0.48804307 196 192 189
-0.20926836 0.13798697 0.48769197 193 192 190
-0.20812596 0.13778871 0.48699126 192 191 189
-0.20669030 0.13739391 0.48559588 196 196 195
-0.20540956 0.13709928 0.48455456 203 203 202
-0.20413430 0.13680592 0.48351771 204 204 204
-0.39145541 0.56082428 1.98213995 167 164 162
-0.38354355 0.55434072 1.95922494 162 159 157
-0.38015717 0.55434072 1.95922494 171 167 164
-0.37677082 0.55434072 1.95922494 173 169 166
-0.37338445 0.55434072 1.95922494 180 176 175
-0.37107056 0.55594754 1.96490383 187 183 182
-0.34903124 0.54800540 1.93683386 173 165 163
-0.34371948 0.54489172 1.92582905 169 160 159
-0.34233591 0.54800540 1.93683386 171 162 160
-0.08125310 0.14574611 0.51511538 179 174 174
-0.08042388 0.14585695 0.51550710 184 178 178
-0.07941209 0.14563546 0.51472425 186 182 182
-0.21294650 0.13902995 0.48839471 201 198 191
-0.21225527 0.13913019 0.48874682 198 195 189
-0.21156305 0.13923058 0.48909944 196 192 188
-0.21056576 0.13913019 0.48874682 194 190 187
-0.20941903 0.13892986 0.48804307 193 192 191
-0.20842542 0.13882990 0.48769197 196 195 194
-0.20698684 0.13843155 0.48629257 202 201 201
-0.20570363 0.13813427 0.48524827 209 209 208
-0.20428000 0.13773988 0.48386285 211 211 208
-0.45286936 0.50649232 1.77924371 188 188 184
-0.38006619 0.56260514 1.97636104 172 168 166
-0.37446672 0.55934370 1.96490383 181 177 175
-0.37323424 0.56260514 1.97636104 183 179 177
-0.35103717 0.55452174 1.94796503 172 162 159
-0.34667408 0.55293286 1.94238353 171 159 157
-0.08125310 0.14663646 0.51511538 181 180 178
-0.08042388 0.14674796 0.51550710 179 178 176
-0.07941209 0.14652511 0.51472425 179 178 176
0.26914060 0.15351915 0.53929341 23 25 40
0.27100486 0.15351915 0.53929341 25 24 40
0.27237034 0.15376380 0.54015285 25 24 39
-0.21363674 0.13977340 0.48804307 200 197 189
-0.21294650 0.13987410 0.48839471 198 195 189
-0.21225527 0.13997495 0.48874682 199 196 189
-0.21156305 0.14007594 0.48909944 198 197 192
-0.21071768 0.14007594 0.48909944 199 198 193
-0.20956990 0.13987410 0.48839471 200 199 199
-0.20857547 0.13977340 0.48804307 200 199 199
-0.20728424 0.13947217 0.48699126 198 197 197
-0.20585099 0.13907254 0.48559588 202 202 199
-0.45050451 0.50690669 1.76995254 181 181 177
-0.44512090 0.50427341 1.76075804 185 185 182
-0.38455075 0.57269984 1.99968100 169 165 164
-0.37885931 0.56934094 1.98795259 176 170 169
-0.37652746 0.57101548 1.99379957 181 175 175
-0.36981824 0.56602114 1.97636104 182 176 176
-0.34867221 0.55949640 1.95357883 176 165 163
-0.08652936 0.14741477 0.51472425 180 176 173
-0.08550984 0.14719124 0.51394379 183 180 177
-0.08455743 0.14707974 0.51355445 189 189 183
-0.08137678 0.14775133 0.51589942 187 186 184
-0.08054638 0.14786386 0.51629233 188 188 186
-0.07953287 0.14763898 0.51550710 180 179 176
0.03985060 0.15096831 0.52713209 109 107 105
0.04076171 0.15096831 0.52713209 103 103 101
0.26914060 0.15445128 0.53929341 23 24 42
0.27028775 0.15457425 0.53972280 23 24 42
0.27078941 0.15432850 0.53886473 23 24 42
0.27215350 0.15457425 0.53972280 25 23 42
-0.21547896 0.14071825 0.48839471 197 192 185
-0.21432598 0.14051577 0.48769197 197 191 184
-0.21363674 0.14061694 0.48804307 197 189 183
-0.21279319 0.14061694 0.48804307 198 193 185
-0.21225527 0.14081971 0.48874682 203 199 191
-0.21141051 0.14081971 0.48874682 205 204 196
-0.21056576 0.14081971 0.48874682 203 203 195
-0.20956990 0.14071825 0.48839471 206 205 203
-0.20857547 0.14061694 0.48804307 199 198 196
-0.20743325 0.14041476 0.48734137 191 190 188
-0.20644251 0.14031389 0.48699126 190 189 185
-0.20486492 0.13981169 0.48524827 189 188 182
-0.44282052 0.50469494 1.75165856 175 174 173
-0.37763816 0.57615614 1.99968100 181 175 173
-0.08748545 0.14841713 0.51511538 174 168 167
-0.08646370 0.14819191 0.51433372 172 167 166
-0.08550984 0.14807956 0.51394379 181 177 176
-0.08455743 0.14796738 0.51355445 192 189 183
-0.08366979 0.14796738 0.51355445 189 188 182
-0.08290777 0.14819191 0.51433372 181 181 174
-0.08214343 0.14841713 0.51511538 181 180 178
-0.08131489 0.14852999 0.51550710 190 189 187
-0.08048508 0.14864303 0.51589942 196 196 193
-0.07953287 0.14852999 0.51550710 185 185 181
0.03906099 0.15235330 0.52877676 107 103 102
0.03985060 0.15187941 0.52713209 102 100 98
0.04076171 0.15187941 0.52713209 100 99 97
0.26863590 0.15563102 0.54015285 25 23 42
0.26935488 0.15550712 0.53972280 25 23 42
0.27028775 0.15550712 0.53972280 25 23 42
0.27078941 0.15525989 0.53886473 25 23 42
0.27193698 0.15538341 0.53929341 25 23 42
-0.21616738 0.14146049 0.48804307 192 190 183
-0.21547896 0.14156240 0.48839471 194 189 182
-0.21448028 0.14146049 0.48804307 192 185 179
-0.21363674 0.14146049 0.48804307 188 180 174
-0.21294650 0.14156240 0.48839471 193 185 179
-0.21225527 0.14166448 0.48874682 196 188 182
-0.21056576 0.14166448 0.48874682 205 205 198
-0.20956990 0.14156240 0.48839471 206 206 204
-0.20857547 0.14146049 0.48804307 195 195 193
-0.20743325 0.14125709 0.48734137 187 187 185
-0.20629431 0.14105429 0.48664168 190 190 187
-0.20471838 0.14054979 0.48490116 190 189 187
-0.20107827 0.14034902 0.48420846 203 201 198
-0.44887573 0.50772250 1.75165856 179 178 173
-0.44469902 0.50641394 1.74714386 176 176 172
-0.44167924 0.50641394 1.74714386 174 173 170
-0.44554937 0.51436812 1.77458596 174 173 171
-0.44598463 0.51843965 1.78863287 176 175 171
-0.44406483 0.51981115 1.79336464 178 178 173
-0.44213480 0.52118999 1.79812157 179 178 173
-0.43671012 0.51843965 1.78863287 185 184 182
-0.08735269 0.14908089 0.51433372 178 172 170
-0.08639815 0.14896786 0.51394379 177 173 170
-0.08544507 0.14885502 0.51355445 181 177 174
-0.08455743 0.14885502 0.51355445 188 184 181
-0.08054638 0.14964861 0.51629233 201 201 197
0.03912203 0.15350673 0.52960300 104 103 99
0.03988161 0.15290943 0.52754229 101 100 96
0.04076171 0.15279053 0.52713209 103 102 98
0.26655629 0.15643997 0.53972280 23 23 41
0.26885012 0.15668949 0.54058361 24 23 42
0.26956952 0.15656464 0.54015285 25 23 42
0.27028775 0.15643997 0.53972280 25 23 41
0.27078941 0.15619127 0.53886473 25 24 40
0.27172080 0.15619127 0.53886473 25 24 40
-0.21732384 0.14250922 0.48874682 188 186 179
-0.21632312 0.14240655 0.48839471 192 188 181
-0.21563432 0.14250922 0.48874682 193 188 181
-0.21325378 0.14261205 0.48909944 190 184 177
-0.21071768 0.14261205 0.48909944 206 206 202
-0.20972100 0.14250922 0.48874682 203 203 201
-0.20872575 0.14240655 0.48839471 192 192 190
-0.20743325 0.14209943 0.48734137 188 188 186
-0.20644251 0.14199734 0.48699126 190 189 187
-0.20501167 0.14159048 0.48559588 190 186 185
-0.20480010 0.14261205 0.48909944 179 172 172
-0.20263889 0.14169197 0.48594397 180 175 174
-0.20122199 0.14128685 0.48455456 189 184 183
-0.45425087 0.51340336 1.76075804 186 186 181
-0.45003861 0.51207334 1.75619650 185 184 180
-0.44700319 0.51207334 1.75619650 178 177 173
-0.44282052 0.51075011 1.75165856 175 174 170
-0.44554937 0.51743531 1.77458596 175 175 170
-0.44481102 0.52015871 1.78392589 172 172 165
-0.44406483 0.52291083 1.79336464 166 166 161
-0.44096512 0.52291083 1.79336464 169 169 166
-0.43556088 0.52015871 1.78392589 184 183 181
-0.08639815 0.14985618 0.51394379 180 174 168
-0.08550984 0.14985618 0.51394379 181 176 171
-0.08455743 0.14974265 0.51355445 184 179 176
0.03988161 0.15382124 0.52754229 97 93 90
0.04076171 0.15370163 0.52713209 99 94 92
0.04160810 0.15346296 0.52631354 101 94 92
0.10851744 0.13688387 0.46945420 42 44 57
0.11102857 0.13697873 0.46977952 41 44 61
0.26562342 0.15737285 0.53972280 24 22 41
0.26655629 0.15737285 0.53972280 24 22 41
0.26885012 0.15762384 0.54058361 24 23 42
0.26956952 0.15749824 0.54015285 25 24 41
0.27028775 0.15737285 0.53972280 25 24 41
0.27150500 0.15699786 0.53843671 25 24 40
-0.21086982 0.14356099 0.48945260 200 200 196
-0.20987231 0.14345741 0.48909944 200 201 199
-0.20872575 0.14325070 0.48839471 192 193 191
-0.20743325 0.14294176 0.48734137 188 188 186
-0.20629431 0.14273652 0.48664168 186 183 182
-0.20486492 0.14232783 0.48524827 184 178 178
-0.20494796 0.14356099 0.48945260 179 170 171
-0.20336780 0.14304459 0.48769197 181 171 173
-0.20223388 0.14283906 0.48699126 189 179 181
-0.20314340 0.14408115 0.49122596 193 187 189
-0.20214787 0.14397681 0.49087027 193 187 188
-0.20115378 0.14387263 0.49051508 192 188 187
-0.20016113 0.14376861 0.49016041 192 189 187
-0.45003861 0.51510876 1.75619650 183 183 179
-0.44700319 0.51510876 1.75619650 182 182 178
-0.44282052 0.51377773 1.75165856 179 180 175
-0.44438607 0.51914352 1.76995254 174 174 169
-0.44481102 0.52324206 1.78392589 163 162 159
-0.44289315 0.52462262 1.78863287 160 157 155
-0.43980163 0.52462262 1.78863287 166 162 161
-0.43441769 0.52186871 1.77924371 180 176 175
-0.08639815 0.15074448 0.51394379 187 181 175
-0.08550984 0.15074448 0.51394379 189 184 178
-0.08455743 0.15063028 0.51355445 190 184 180
-0.08156299 0.15166436 0.51707995 192 192 187
0.03903055 0.15497427 0.52836466 108 101 100
0.03988161 0.15473306 0.52754229 96 88 88
0.04076171 0.15461273 0.52713209 91 82 82
0.04160810 0.15437266 0.52631354 97 88 88
0.04248481 0.15425289 0.52590525 98 89 90
0.04352887 0.15473306 0.52754229 90 81 82
0.04440613 0.15461273 0.52713209 82 73 76
0.10793025 0.13798194 0.47043154 41 43 56
0.10859264 0.13779069 0.46977952 42 44 57
0.10932885 0.13769528 0.46945420 42 45 55
0.11029302 0.13788626 0.47010529 42 44 56
0.11125988 0.13807777 0.47075823 43 45 58
0.11199576 0.13798194 0.47043154 43 45 60
0.26617399 0.15919293 0.54274768 22 23 41
0.26562342 0.15830572 0.53972280 23 22 41
0.26676866 0.15843186 0.54015285 24 22 41
0.26885012 0.15855820 0.54058361 23 24 42
0.26935488 0.15830572 0.53972280 25 24 40
-0.20987231 0.14430279 0.48909944 196 197 195
-0.20599855 0.14337181 0.48594397 186 184 182
-0.20486492 0.14316654 0.48524827 178 176 173
-0.20549721 0.14419875 0.48874682 171 163 162
-0.20450500 0.14409485 0.48839471 171 162 162
-0.20220405 0.14306414 0.48490116 180 169 171
-0.20165442 0.14326909 0.48559588 191 180 182
-0.20299630 0.14482525 0.49087027 195 186 186
-0.20200160 0.14472045 0.49051508 194 185 186
-0.44469902 0.51547337 1.74714386 186 186 183
-0.44167924 0.51547337 1.74714386 177 177 175
-0.44322881 0.52084285 1.76534331 172 172 172
-0.44364351 0.52494401 1.77924371 152 151 151
-0.44172764 0.52632540 1.78392589 152 149 150
-0.43864426 0.52632540 1.78392589 164 160 162
-0.43441769 0.52494401 1.77924371 181 177 177
-0.08639815 0.15163280 0.51394379 179 175 171
-0.08550984 0.15163280 0.51394379 182 180 177
-0.08462153 0.15163280 0.51394379 185 184 182
-0.08379675 0.15174785 0.51433372 191 191 189
-0.08264584 0.15290800 0.51826596 192 192 188
-0.08175007 0.15290800 0.51826596 188 189 183
-0.08097810 0.15314215 0.51905960 188 189 182
0.03900015 0.15576608 0.52795315 101 94 99
0.03988161 0.15564488 0.52754229 95 89 94
