ply
format ascii 1.0
element vertex 548
property float x
property float y
property float z
property uchar red
property uchar green
property uchar blue
end_header
-0.84899681 -0.16363510 1.51813942 206 207 200
-0.85131643 -0.17077736 1.52974871 213 214 207
-0.84598104 -0.15533848 1.49865715 212 209 203
-0.84551227 -0.15648786 1.50978637 208 208 200
-0.84587812 -0.13771063 1.52335250 215 215 206
-0.83184676 -0.16294155 1.51315746 203 203 200
-0.82466445 -0.14873028 1.49859223 205 206 200
-0.83077546 -0.15574240 1.50670962 205 205 200
-0.82846166 -0.13503243 1.50948929 208 208 200
-0.81204051 -0.16150010 1.49976075 202 201 199
-0.81903696 -0.16185819 1.50308609 197 197 193
-0.81282132 -0.14889673 1.49395012 206 207 202
-0.81773800 -0.15796125 1.50308609 195 195 192
-0.81542115 -0.13786189 1.49646091 213 213 206
-0.81514004 -0.13587857 1.50308609 211 211 205
-0.54737740 0.47425967 1.20968631 166 163 159
-0.55055436 0.48451046 1.21287893 165 162 157
-0.55576043 0.49203503 1.22231021 162 161 154
-0.52725828 -0.06088040 1.38119867 208 208 204
-0.52533843 -0.05708048 1.37782896 208 207 202
-0.52790830 -0.05363874 1.38165040 210 209 203
-0.52395743 0.47450677 1.16476262 165 166 157
-0.53619586 0.47237950 1.19393466 175 171 168
-0.53592998 0.48019956 1.19137776 162 161 155
-0.50300069 -0.27611405 1.01701290 201 199 193
-0.50074989 -0.06880274 1.35850072 216 209 206
-0.50695261 -0.06501215 1.37328683 215 214 209
-0.50665619 -0.06250627 1.38302371 216 216 213
-0.50790081 -0.05463939 1.37636558 212 212 208
-0.50854403 -0.04752415 1.38658385 211 210 204
-0.50586005 0.47043568 1.12911493 173 173 169
-0.51533161 0.46927409 1.14705145 170 170 165
-0.50618134 0.48577984 1.13628360 172 171 167
-0.51183107 0.48999099 1.14219427 174 174 172
-0.49071588 -0.28089825 1.01193368 198 198 193
-0.48990092 -0.27465089 1.01593318 195 195 191
-0.48454414 -0.27110180 1.02092147 198 198 194
-0.49770249 -0.06840959 1.36627020 213 211 208
-0.49738176 -0.06286542 1.39034675 212 211 210
-0.49920850 -0.05651014 1.37364244 211 210 209
-0.49564009 -0.05171662 1.39261035 210 207 204
-0.49364654 -0.04438820 1.40324683 209 206 205
-0.49321955 -0.03010989 1.39443113 210 207 205
-0.49206069 -0.02978097 1.40060294 209 208 206
-0.49554951 -0.01878780 1.39341298 202 197 195
-0.48903148 0.45633342 1.10840700 178 177 173
-0.49059174 0.46166568 1.11085534 173 172 164
-0.49802291 0.46892425 1.12313957 175 173 168
-0.49930683 0.48549074 1.13170588 171 171 165
-0.47812811 -0.27717984 1.01763894 195 195 189
-0.44512177 0.51238644 1.75134272 178 178 175
-0.44831863 0.51171753 1.76997668 180 180 176
-0.44502473 0.51912540 1.79099876 177 176 172
-0.44519866 0.52539417 1.75506201 174 175 174
-0.44445407 0.53003844 1.77229146 173 173 173
-0.44277560 0.52694920 1.78817461 170 169 167
-0.44518116 0.54032040 1.77924371 178 177 177
-0.44294968 0.54712353 1.78471039 167 166 166
-0.42314279 0.37054980 1.83710527 200 200 196
-0.42497990 0.36991356 1.85622306 194 193 189
-0.42925677 0.36937008 1.86644454 201 200 195
-0.43671012 0.51843965 1.78863287 185 184 182
-0.42417349 0.53645064 1.75279886 186 186 183
-0.42993477 0.53213648 1.77143611 188 187 186
-0.43816276 0.52589972 1.78510264 173 170 170
-0.42879051 0.54242772 1.75619650 176 176 176
-0.43692033 0.54422206 1.77691483 171 170 170
-0.43864426 0.55099237 1.78392589 169 168 169
-0.40146017 -0.10087663 1.25149361 205 204 201
-0.40531859 -0.09482482 1.25474643 213 209 205
-0.40223985 -0.02296517 0.55952215 197 195 190
-0.40511147 -0.02140773 0.56096568 199 199 196
-0.40238269 -0.00888206 0.55835134 196 196 190
-0.40528572 -0.01381800 0.56144365 202 203 199
-0.40266647 0.35513126 1.81352210 192 190 190
-0.40953375 0.35568035 1.82597378 190 187 188
-0.41000893 0.37642211 1.79693234 199 198 195
-0.40620002 0.36936129 1.81158871 194 191 189
-0.41457801 0.36971587 1.82906693 188 187 185
-0.41792479 0.36837283 1.84209740 189 188 185
-0.40618888 0.38963373 1.77459002 184 180 179
-0.40656650 0.38606547 1.79127411 185 182 181
-0.40645783 0.38129586 1.80530775 180 181 178
-0.40035817 0.53085577 1.73818421 184 180 179
-0.41004589 0.53444882 1.75048151 187 186 182
-0.41529432 0.53323340 1.76766398 189 189 185
-0.41088237 0.54250515 1.75317121 185 185 182
-0.40860096 0.54687995 1.76075804 190 189 186
-0.40370244 0.54806725 1.96833768 186 179 176
-0.40065032 0.54344648 1.99379957 187 181 179
-0.38490951 -0.10330126 1.23735433 226 199 203
-0.39336384 -0.10220500 1.24355975 207 203 201
-0.38819997 -0.08685567 1.23846803 216 195 197
-0.39230740 -0.09263548 1.24867419 214 201 199
-0.39290514 -0.07875805 1.23815966 210 195 197
-0.39895823 -0.02312051 0.55808886 195 194 191
-0.39227055 0.35241613 1.80771896 190 189 188
-0.39326989 0.36400542 1.80465215 191 190 189
-0.39597671 0.39116938 1.77924371 189 187 186
-0.39685267 0.38791187 1.78549488 176 175 174
-0.39532655 0.52814734 1.72931588 186 184 182
-0.38015717 0.53063619 1.95922494 191 182 179
-0.38125908 0.52877808 1.96490383 195 188 183
-0.39947540 0.53326276 1.98795259 192 186 186
-0.38269696 0.55180095 1.95922494 172 170 166
-0.39372003 0.55069585 1.97390355 181 176 174
-0.39908604 0.55161933 1.98601504 181 176 173
-0.38006619 0.56260514 1.97636104 172 168 166
-0.38800308 0.56676206 1.99091047 168 164 163
-0.36227222 -0.08207570 0.84341156 213 213 212
-0.36671438 -0.07289162 0.84158652 212 212 210
-0.36426750 0.15307549 0.81445857 204 203 197
-0.36491072 0.16402828 0.81691631 202 201 196
-0.37059915 0.16553618 0.82069230 202 202 197
-0.36035675 0.51394302 1.99968100 191 190 186
-0.37302577 0.53688943 1.95734290 176 171 169
-0.37422841 0.53192099 1.96854177 189 185 179
-0.37125880 0.53165060 1.98407749 178 178 172
-0.37115263 0.54771445 1.95690007 177 176 173
-0.37022151 0.55255134 1.96490383 181 179 178
-0.37152624 0.56431314 1.97636104 182 177 176
-0.37767498 0.57217085 1.99381105 179 173 172
-0.35892299 -0.08334279 0.84570806 211 211 211
-0.35637848 -0.07004271 0.83897507 216 216 213
-0.35697425 -0.07294960 0.84125751 214 215 213
-0.34928565 0.13665627 0.81166320 193 192 193
-0.35339371 0.14941327 0.81016409 197 197 193
-0.34117174 0.35173780 1.37782896 192 191 186
-0.34940649 0.51494585 1.99108932 184 183 178
-0.34255991 0.53193753 1.91315063 179 177 172
-0.34522977 0.53148305 1.92897773 180 179 176
-0.34826987 0.52984713 1.95134623 179 179 177
-0.35069349 0.52877808 1.96490383 179 178 176
-0.35196316 0.52702566 1.99129372 179 178 176
-0.34708823 0.54454178 1.93132922 173 168 165
-0.34879449 0.55565033 1.94797579 172 162 159
-0.33012848 0.01337924 0.47815169 202 202 198
-0.33629044 0.01581966 0.48088909 200 201 195
-0.32276141 0.33409573 1.37380209 191 191 186
-0.32714714 0.35296286 1.37602698 186 186 181
-0.32038975 0.34290889 1.38063514 190 189 185
-0.32751021 0.36266731 1.37713027 178 172 169
-0.33709398 0.36199942 1.38063514 183 181 181
-0.33467468 0.50986530 1.97062691 176 176 172
-0.32850130 0.51088851 1.99100815 170 169 168
-0.33942655 0.53339052 1.92037344 182 182 175
-0.32703274 0.52181265 1.99674028 178 178 179
-0.30570607 -0.12497899 0.50986161 202 201 195
-0.30748999 -0.11476029 0.50896489 207 207 201
-0.31942751 0.01171121 0.47722064 209 209 205
-0.31575450 0.33315693 1.37197486 191 191 186
-0.31144106 0.33634652 1.38063514 182 182 180
-0.31147525 0.35066737 1.37428478 181 180 176
-0.31015559 0.34183237 1.38110475 175 175 173
-0.31692955 0.36077514 1.37596579 179 174 169
-0.31439234 0.50872707 1.99459065 169 168 170
-0.28405784 0.07320561 0.56540312 201 201 198
-0.29358830 0.34936930 1.35603366 179 175 173
-0.29807243 0.35018888 1.36122859 180 176 172
-0.27193511 0.05555274 0.55678284 210 209 205
-0.27742508 0.05979356 0.56070459 211 204 194
-0.27294708 0.06101251 0.55918561 209 205 197
-0.27642634 0.06780606 0.56295845 196 192 188
-0.26525588 0.15288961 0.92670338 197 194 190
-0.26220953 0.16074385 0.92355835 205 200 200
-0.24851050 0.15804775 0.91718972 202 200 197
-0.25032772 0.14996655 0.92494900 201 199 195
-0.25020377 0.16249959 0.91319526 198 193 187
-0.22236234 -0.10874290 0.47866325 202 201 194
-0.22011445 -0.11144411 0.48009336 187 187 185
-0.22908524 0.05632450 0.63368996 203 200 195
-0.22663479 0.06881692 0.63306193 197 193 191
-0.22254470 0.08179903 0.63108170 205 202 197
-0.23016995 0.13490357 1.99968100 179 169 165
-0.23823047 0.15612903 0.91524922 202 199 197
-0.23171552 0.14822549 1.99909285 182 172 167
-0.23885438 0.16058984 0.91360086 199 198 197
-0.23146542 0.16808825 1.99693863 188 177 170
-0.22500599 0.18801657 1.99478555 200 187 173
-0.20605068 -0.26333169 0.65253549 209 209 205
-0.20462324 -0.25734666 0.65043548 207 207 204
-0.21642726 -0.11384673 0.47958403 197 196 191
-0.21504254 -0.11152567 0.48106376 197 197 193
-0.21815945 0.07503927 0.63027189 208 207 206
-0.21691894 0.08470711 0.62965471 205 202 198
-0.20128857 0.13379839 0.47873718 185 184 184
-0.20807854 0.13798465 0.48632396 197 195 192
-0.20558065 0.14546958 0.48871881 191 188 185
-0.20532421 0.16831781 0.97482661 203 200 194
-0.20317269 0.17330243 0.98969510 193 190 188
-0.20121287 0.17946975 1.00131738 195 192 190
-0.20541306 0.18335616 0.99426457 194 192 185
-0.20308121 0.18940820 1.01034837 195 192 187
-0.20015998 0.19032843 1.02246130 195 194 189
-0.21267616 0.21098611 0.53935812 162 160 154
-0.20861222 0.21181899 0.54107491 168 165 160
-0.20850225 0.22016914 0.54274768 165 154 154
-0.18519160 -0.38143520 0.78824703 208 210 207
-0.18985369 -0.36224470 0.77896237 212 212 205
-0.18429045 -0.36841836 0.78507614 209 209 205
-0.19055024 -0.35673332 0.77881767 209 210 207
-0.18513941 -0.35830722 0.78245937 209 210 208
-0.19780355 -0.26116185 0.65244661 203 203 201
-0.19610859 -0.25744059 0.64941722 206 206 204
-0.18015736 0.05932167 0.47538021 206 206 197
-0.18059899 0.06042729 0.47438198 200 200 192
-0.18156298 0.07330262 0.57263246 218 166 180
-0.19692864 0.15123067 0.48999295 194 194 191
-0.19798055 0.17382826 0.99645956 190 190 188
-0.19529798 0.17660838 1.00804951 192 190 184
-0.19867419 0.18478369 1.01215455 187 187 184
-0.19522783 0.19040902 1.02493609 189 187 181
-0.18068401 0.21587621 0.56656283 169 167 157
-0.16022019 -0.68601400 1.51315141 210 210 207
-0.17931345 -0.36629377 0.78694270 208 208 205
-0.17856091 0.05901926 0.47405040 210 210 202
-0.17438836 0.06681056 0.47034432 204 203 198
-0.16120190 0.07776480 0.55951475 230 199 206
-0.17180892 0.07252534 0.56960318 181 150 159
-0.17006964 0.21538144 0.56506032 179 173 163
-0.17179125 0.22164648 0.56457896 179 175 171
-0.14452803 -0.70170617 1.51315141 205 205 200
-0.15015934 -0.69257680 1.51722271 207 207 204
-0.14467812 -0.69009686 1.52506799 205 205 203
-0.15848930 0.07763600 0.55845739 215 193 197
-0.14571004 0.09840532 0.58776773 201 200 198
-0.14720172 0.10731281 0.58569930 197 195 193
-0.13331984 -0.70503938 1.51751568 207 205 202
-0.13172981 -0.70339870 1.52335250 209 207 206
-0.12727676 -0.69236720 1.51880348 212 212 208
-0.13324147 -0.69035381 1.52564033 210 209 206
-0.12678653 -0.67858195 1.51993692 202 200 200
-0.12177751 -0.30936339 0.70884635 206 205 199
-0.12318238 -0.18122821 0.47272804 207 207 207
-0.12542984 -0.17276551 0.46954267 210 210 208
-0.12962215 -0.12744604 0.47201503 205 203 200
-0.13925223 0.10236988 0.58624474 196 196 191
-0.11132865 -0.32058299 0.70577148 216 215 208
-0.11122212 -0.31180581 0.70717744 209 209 203
-0.11879560 -0.17621639 0.47206968 211 212 212
-0.08399683 0.15382548 0.51688747 179 177 175
-0.08026533 0.15664201 0.52025467 182 182 179
-0.08187461 0.16031948 0.51905990 166 167 164
-0.07909357 0.15397348 0.51795098 168 168 166
-0.04574775 -0.20666606 0.76822393 209 208 206
-0.04614169 -0.19840321 0.77077081 207 205 203
-0.05032885 0.07771907 0.75930268 183 173 171
-0.04769521 0.07562771 0.76099232 184 176 172
-0.04617996 0.08368756 0.75610196 183 172 168
-0.05425929 0.08507908 0.76082134 183 177 176
-0.03873995 -0.20891931 0.76597947 211 211 210
-0.03711574 0.08754540 0.75297569 207 182 183
-0.02565516 0.37601580 1.07858753 163 163 162
-0.02553670 0.37110074 1.08615190 153 152 154
-0.01216599 0.37182129 1.09489111 167 163 161
-0.01241224 0.37823135 1.10271272 166 161 154
-0.00996686 0.38276743 1.09640932 171 169 161
-0.01210207 0.38155404 1.10243009 173 167 159
0.03363517 0.09393125 1.99821064 59 56 73
0.03668336 0.11852777 1.97636104 66 65 76
0.03585558 0.11036901 1.99383398 63 62 74
0.03657673 0.12158927 1.97061586 66 64 76
0.03700704 0.12646584 1.99379957 65 63 77
0.03926288 0.15606885 0.52758145 98 93 94
0.03893949 0.16007936 0.52713209 110 103 104
0.04997107 0.07745880 0.74782580 141 98 110
0.05071886 0.09065986 0.73844484 89 76 79
0.04923679 0.08482148 0.74366937 130 94 101
0.04432464 0.15683100 0.52542241 83 80 79
0.04432853 0.16244250 0.52627467 81 79 80
0.05407843 0.33678049 1.66968429 171 163 157
0.05749253 0.35007853 1.67670721 176 167 161
0.05237104 0.35169001 1.68781945 171 163 157
0.05558909 0.37283582 1.67795014 179 170 162
0.05568763 0.36842535 1.68579081 183 176 164
0.05572915 0.38292749 1.67587858 177 170 164
0.05738840 0.38871330 1.68211377 176 171 164
0.07934800 0.33087061 1.24957556 147 146 142
0.06294582 0.35176539 1.67529108 176 168 162
0.07108428 0.35483059 1.68967488 170 162 156
0.07764684 0.35412177 1.70849433 173 166 161
0.06542020 0.36801744 1.67436216 179 172 164
0.06567742 0.37007234 1.68793488 176 169 162
0.07812954 0.36558134 1.70646355 155 153 149
0.06475939 0.38498028 1.67536069 177 172 166
0.06460260 0.38685920 1.68799912 177 172 167
0.07734399 0.38819708 1.70539099 183 180 172
0.07674964 0.59796524 1.49315381 156 154 151
0.07768819 0.61295073 1.47597120 116 113 107
0.07246715 0.60923234 1.48946354 160 157 152
0.06694262 0.60651147 1.50475621 164 163 158
0.07963141 0.62020844 1.45159519 0 0 0
0.07822775 0.62527921 1.47239923 0 0 0
0.07264592 0.62850115 1.48975071 10 10 9
0.06690547 0.63217255 1.50392115 10 10 9
0.09076008 0.13809032 0.56383039 51 49 50
0.09262333 0.14987185 0.57091738 50 47 50
0.08926686 0.15813431 0.58200660 56 55 56
0.09117268 0.16127958 0.57636042 52 50 52
0.08936274 0.16132428 0.58263168 56 53 56
0.09970548 0.31369646 1.20836717 87 82 84
0.09581459 0.31480850 1.23255208 121 116 114
0.09378318 0.31119830 1.24774849 137 134 132
0.09090231 0.31185481 1.26439089 143 137 135
0.09079004 0.31467112 1.28938150 144 139 136
0.08982866 0.31804361 1.30783097 143 136 136
0.09821811 0.33347900 1.21580917 98 89 94
0.09295580 0.32934787 1.22974132 122 116 115
0.08564288 0.32790603 1.24918120 144 139 137
0.08653430 0.32236386 1.26385362 153 149 148
0.08767543 0.32484680 1.29289345 155 148 146
0.08765685 0.32411828 1.30914947 151 146 142
0.09638712 0.34075275 1.21922994 103 98 98
0.08291911 0.35415103 1.70646627 178 173 168
0.08439261 0.36177647 1.69897699 167 162 162
0.08186643 0.36359900 1.70753610 161 157 156
0.08344803 0.38357390 1.69474018 182 176 168
0.08176358 0.38377377 1.70539099 181 177 169
0.09535602 0.59986633 1.42414248 0 0 0
0.09479760 0.60568633 1.42818673 0 0 0
0.09428128 0.60881790 1.44540274 0 0 0
0.08473230 0.61697522 1.46929112 21 19 18
0.08231308 0.60617379 1.48708189 172 165 157
0.08346461 0.62156363 1.46603346 0 0 0
0.09093958 0.62510331 1.48254579 0 0 0
0.11161986 0.13893359 0.47055508 42 44 58
0.11281422 0.14443005 0.47158362 49 50 67
0.10033120 0.31566414 1.21595049 93 90 92
0.10290600 0.31527242 1.23164561 89 83 84
0.10048242 0.31108248 1.24383819 115 116 109
0.10048160 0.32490693 1.21777328 98 96 97
0.10365225 0.32433609 1.22621828 85 85 86
0.17946456 -0.25747392 0.57448459 123 123 121
0.18559396 -0.26142882 0.57413814 130 122 121
0.18803672 -0.25564092 0.57395258 122 106 107
0.18882626 -0.25192077 0.58347393 99 99 101
0.19974552 0.01025398 0.56501290 102 100 108
0.19510169 0.01111333 0.59115828 62 61 74
0.18718030 0.19590336 0.48714138 24 23 31
0.18884144 0.20105683 0.48866783 20 18 26
0.21904382 -0.03033409 0.75132875 79 74 86
0.21959243 -0.02021321 0.76425624 80 76 81
0.21850318 -0.01785578 0.75238888 79 77 85
0.21909840 -0.01884976 0.76253685 83 79 84
0.20109504 0.00787606 0.57174044 102 100 106
0.20136754 0.00911629 0.58515580 92 91 98
0.23014962 -0.02705133 0.75535419 64 64 85
0.22442999 -0.02627582 0.76686869 75 72 84
0.22341414 -0.02623289 0.78622972 74 70 76
0.22873045 -0.01875845 0.75447898 68 66 88
0.26958944 0.15618598 0.53943026 24 23 41
0.26857800 0.15785013 0.54061764 23 23 41
0.26578293 0.16852392 0.54340767 24 25 41
0.31675922 -0.00147865 1.17137843 46 44 56
0.31455459 0.00607592 1.16934743 47 45 58
0.31286910 0.00450243 1.18512559 46 45 58
0.30792834 0.07335338 1.11587814 68 69 80
0.30759846 0.07585407 1.12435926 61 62 74
0.31125800 0.08057750 1.11801910 70 70 79
0.31147800 0.08993797 1.12701778 62 61 73
0.30662658 0.10344951 1.11758118 49 49 66
0.30955492 0.10171899 1.12334255 53 52 69
0.32915218 -0.00552178 1.17056933 73 70 80
0.32606775 -0.00265765 1.18099630 67 62 75
0.32904094 0.00690226 1.17064224 74 71 81
0.32866520 0.00730381 1.18254387 70 68 77
0.33595306 0.09715243 0.59671021 17 16 19
0.33406428 0.09838374 0.60307419 16 16 19
0.32462629 0.09359483 1.12976781 69 68 79
0.33293312 0.09396556 1.14380348 69 71 83
0.33733189 0.10609512 0.59861036 17 16 21
0.33604421 0.10578251 0.60216318 17 16 21
0.33046924 0.10154901 1.13645625 65 64 77
0.34982515 -0.00443420 1.17093038 73 72 89
0.34423833 -0.00604709 1.18458793 81 79 93
0.35290893 0.00402562 1.17264006 73 71 91
0.34887068 0.01088751 1.18864522 78 76 95
0.34869975 0.02225945 1.19367841 80 78 91
0.34086460 0.11374435 0.59990430 18 17 25
0.34097808 0.11487998 0.60132438 18 17 25
0.36498529 -0.00061319 1.17485583 59 60 80
0.36550368 -0.00317087 1.18228534 61 62 82
0.36485018 0.00604637 1.17211237 60 60 82
0.36409583 0.00852949 1.18430167 65 65 87
0.47618947 0.16744620 0.97639034 18 17 25
0.47875244 0.17204399 0.98197939 19 18 27
0.48446747 0.17653614 0.97867008 18 17 26
0.49185479 0.17121199 0.99015789 17 16 24
0.48604049 0.18269639 0.97843585 18 17 26
0.49185646 0.18397190 0.98513060 18 17 26
0.50243235 0.17896588 0.97961247 16 15 24
0.50533101 0.17718577 0.99313949 17 15 24
0.50831999 0.17563294 1.00578459 18 17 26
0.50376171 0.18550259 0.98781284 17 16 25
0.53999162 -0.44979042 0.79751980 65 72 76
0.55118939 -0.44517607 0.79574864 71 75 79
0.54997524 -0.44719994 0.80422860 67 71 78
0.55151772 -0.43446480 0.79537311 62 66 73
0.55224772 -0.43358343 0.80340421 57 60 71
0.56136580 -0.44323863 0.79502146 81 81 81
0.56365258 -0.44144437 0.80176528 78 82 85
0.56363076 -0.43535506 0.79534800 85 87 88
0.56597639 -0.43438020 0.80596145 65 70 75
0.59801668 -0.76647979 1.48660493 145 145 145
0.59945065 -0.77497739 1.50308609 142 142 142
0.58767444 -0.74173865 1.43621159 141 141 141
0.59909791 -0.74729967 1.46412921 141 139 139
0.58274901 -0.72875130 1.41818380 140 140 140
0.58562116 -0.73255082 1.42719154 140 140 138
0.60743910 -0.78060263 1.51654416 144 144 144
0.60851184 -0.78368368 1.53023771 142 143 142
0.61269712 -0.78829916 1.54973367 145 145 145
0.61895818 -0.78283986 1.56557012 150 144 147
0.60196079 -0.76489592 1.49480918 140 141 140
0.60338509 -0.76889312 1.50643003 143 144 143
0.61146156 -0.77346351 1.53126012 144 144 145
0.61518337 -0.76842737 1.54476571 150 146 148
0.61753201 -0.77563661 1.56196272 149 142 146
0.60365915 -0.74789846 1.47528321 143 141 141
0.60627669 -0.75051811 1.49063411 146 146 146
0.61124124 -0.75036665 1.50883990 153 153 153
0.61468433 -0.75591689 1.53024292 158 157 157
0.61478174 -0.73983800 1.48987222 151 151 150
0.61777171 -0.30897420 0.54389610 68 76 91
0.61406505 -0.11173052 1.43408433 95 85 83
0.61457617 -0.10528949 1.44695715 102 85 85
0.61811979 -0.08648740 1.43773940 112 91 93
0.61738003 -0.09443553 1.45160034 103 88 89
0.61930001 0.15080976 1.12295997 35 31 35
0.61869565 0.16501406 1.11165973 22 19 24
0.61831322 0.16527351 1.12234056 22 20 24
0.61824307 0.30581467 0.79615231 23 23 27
0.61904433 0.30547880 0.80081758 23 22 28
0.62711534 -0.80627900 1.59316748 152 151 151
0.62039095 -0.78465199 1.56919408 151 144 149
0.62877074 -0.78631106 1.59038550 150 145 146
0.63381761 -0.79402125 1.61019444 148 142 142
0.62446576 -0.77516022 1.56920248 149 148 148
0.62233990 -0.30821247 0.54878986 59 65 76
0.62291602 -0.10268053 1.44540627 106 90 89
0.63270473 -0.08112119 1.40933859 154 87 90
0.63655405 -0.08263228 1.43560944 145 87 88
0.62734971 -0.08804534 1.44895347 123 88 90
0.62575573 -0.09079761 1.46729839 104 89 91
0.63823009 -0.07967918 1.42714071 152 86 88
0.63295444 -0.07870395 1.45470798 132 89 90
0.63866912 -0.07545838 1.46493179 134 88 93
0.62519791 0.15568087 1.11280095 29 26 31
0.62678746 0.15246807 1.12603194 35 29 33
0.62177037 0.16663932 1.11120512 22 19 24
0.62369080 0.16461466 1.12271342 23 21 26
0.62660054 0.29761486 0.79330195 23 22 28
0.62880363 0.30784967 0.79663045 24 23 28
0.62754088 0.30886753 0.80133251 24 23 27
0.65828661 -0.20243217 0.85747105 72 72 72
0.65818592 -0.20400326 0.86172862 72 73 73
0.65896112 -0.19944118 0.85917848 72 71 69
0.65626031 -0.19533587 0.86623275 71 70 71
0.64092875 -0.08497035 1.43317509 152 85 89
0.64438576 -0.08996701 1.44712298 145 87 90
0.65274251 -0.09719398 1.46810439 143 87 90
0.66906744 -0.20451989 0.85624379 71 71 74
0.66260874 -0.20417509 0.86424318 71 71 72
0.66774095 -0.19631731 0.85643872 73 71 71
0.66995342 -0.19354430 0.86782200 71 70 69
0.67217785 -0.19371080 0.88037902 68 67 65
0.68482421 -0.20352445 0.85809199 71 70 72
0.68137354 -0.19966091 0.85376805 72 71 73
0.68285603 -0.19333704 0.86989021 73 71 70
0.68155646 -0.18963838 0.88267165 67 66 66
0.71833426 0.13742107 1.95357883 96 87 92
0.71429765 0.14438750 1.95640188 98 92 93
0.71844755 0.15033057 1.96776813 95 90 93
0.72508803 0.13657749 1.95358691 99 90 94
0.73098898 0.13651963 1.96490383 98 90 94
0.72498834 0.14171911 1.95696650 97 89 92
0.72890577 0.15117135 1.96821603 93 89 91
0.73112019 0.15884397 1.98213995 87 83 89
0.73369415 0.16692168 1.98991877 79 70 82
0.74356166 0.13711607 1.97348845 97 92 94
0.74513803 0.13398016 1.98602649 97 91 93
0.74425893 0.14740584 1.97420660 94 91 94
0.74534350 0.15336024 1.98504627 91 88 90
0.74597912 0.16929763 1.99498619 83 75 83
0.75811511 0.22570422 0.70320731 37 36 38
0.76649877 0.21813488 0.70767421 37 36 39
0.76575079 0.22450217 0.70954097 35 34 37
0.77399308 0.23311407 0.72342808 33 32 34
0.78289908 0.23243576 0.73206460 34 33 37
0.79450753 0.23561956 0.74412197 32 32 36
0.97344407 -0.74642998 1.19859765 62 65 77
0.97481831 -0.74793545 1.20653299 67 73 86
0.97112762 -0.73795514 1.19829553 73 80 95
0.97678930 -0.73439342 1.20497409 70 77 94
0.99848428 -0.76491358 1.21813548 33 33 47
0.99635539 -0.74881663 1.19910200 31 30 44
0.99126915 -0.75138204 1.20957918 53 55 70
0.98620005 -0.74464454 1.22615965 59 65 82
0.98546429 -0.73359500 1.21088076 64 72 86
0.99780563 -0.73628131 1.22586191 57 65 80
0.99454263 -0.32973568 1.32661885 74 74 74
1.00450047 -0.76363228 1.21777197 33 32 45
1.00517149 -0.76474218 1.22316130 39 38 52
1.00404210 -0.74780389 1.21414881 53 53 69
1.00795089 -0.74825086 1.22649300 64 70 85
1.01795018 -0.74288114 1.24231946 57 63 79
1.01428604 -0.73870987 1.23178498 61 67 84
1.01512045 -0.36225784 1.35173258 76 76 76
1.01870042 -0.36213553 1.36673963 76 76 77
1.01240802 -0.35204695 1.35123790 76 75 76
1.01578755 -0.35255643 1.36466146 75 75 75
1.00105095 -0.33265705 1.33838600 73 73 73
1.00677219 -0.33688723 1.34837401 73 73 74
1.02062833 -0.74235559 1.24383819 54 60 78
1.03738204 -0.38075770 1.35106406 74 74 75
1.03796864 -0.38097930 1.37503421 76 76 76
1.03408334 -0.37411172 1.33772799 74 73 74
1.03389805 -0.37303845 1.35276213 74 74 74
1.03347848 -0.37366548 1.37067156 76 76 77
1.03147178 -0.37103962 1.38224849 76 76 78
1.02474916 -0.35876429 1.37643158 75 75 74
1.04231322 -0.38463479 1.35443062 73 73 75
1.04360525 -0.38389157 1.37411388 75 75 75
1.04696929 -0.38730380 1.38063514 76 76 76
1.04069940 -0.37758023 1.37132661 75 75 76
1.19971550 -0.63682005 1.10047376 18 17 41
1.21009499 -0.64526920 1.11175728 17 16 37
1.21866316 -0.64505804 1.12140989 21 22 51
1.20662334 -0.63510120 1.10798434 26 29 64
1.21967113 -0.63880283 1.12233746 33 47 95
1.23097938 -0.66045907 1.13454783 16 15 35
1.22640132 -0.65088066 1.12984435 22 25 56
1.23625922 -0.65350217 1.14123201 30 34 71
1.25113702 -0.66042423 1.15681207 36 43 97
1.25911538 -0.66668685 1.16543086 30 39 88
1.24688148 -0.65618521 1.15287733 32 51 110
1.26408356 -0.68038738 1.16878253 16 15 36
1.27822196 -0.68535209 1.18374674 18 18 43
1.26716812 -0.67299119 1.17351369 28 40 80
1.27655542 -0.67702818 1.18409872 36 45 94
1.29006797 -0.70280737 1.19663262 16 15 36
1.28538687 -0.69002389 1.19243177 22 26 57
1.29539328 -0.68987843 1.20621479 30 52 100
1.30737492 -0.70768072 1.21639490 19 20 48
1.31042203 -0.70731465 1.22832248 30 49 102
1.31919014 -0.71095288 1.24156010 41 83 141
1.30524266 -0.69767296 1.21617014 24 41 85
1.30719030 -0.69786646 1.22363150 40 83 129
