ply
format ascii 1.0
element vertex 1059
property float x
property float y
property float z
property uchar red
property uchar green
property uchar blue
end_header
0.23636529 0.11404952 0.46240917 173 171 162
0.23843770 0.11389413 0.46177918 172 169 161
0.23761721 0.11312354 0.45865482 174 171 163
0.23855709 0.11281821 0.45741689 178 175 167
0.99904794 0.40879363 1.65743732 143 137 135
0.99946898 0.40779656 1.65339470 135 129 127
0.99988800 0.40680435 1.64937186 131 124 123
0.99788290 0.40483436 1.64138460 139 130 129
1.00071990 0.40483436 1.64138460 144 136 133
1.00844038 0.40680435 1.64937186 147 139 134
1.01872718 0.40979555 1.66149962 152 144 139
1.02663147 0.41181427 1.66968429 157 152 145
1.03205943 0.41283110 1.67380702 160 155 148
1.03495240 0.41283110 1.67380702 162 158 149
1.03274548 0.41080242 1.66558194 161 157 149
1.03308606 0.40979555 1.66149962 154 153 143
1.03850317 0.41080242 1.66558194 146 146 135
1.04394698 0.41181427 1.66968429 144 144 138
1.05201519 0.41385293 1.67795014 148 148 146
1.06016374 0.41591191 1.68629813 156 156 154
1.06307840 0.41591191 1.68629813 164 164 162
1.09040499 0.42543662 1.72491562 167 167 165
1.09338641 0.42543662 1.72491562 167 167 163
1.09636784 0.42543662 1.72491562 168 168 164
1.10780573 0.42870921 1.73818421 172 173 166
1.11942101 0.43203253 1.75165856 172 173 166
1.11955559 0.43091905 1.74714386 171 170 167
1.14020753 0.43768740 1.77458596 170 169 166
1.14028966 0.43654463 1.76995254 169 168 163
1.13740945 0.43427685 1.76075804 169 167 162
1.14342272 0.43540779 1.76534331 170 168 163
0.65191501 0.16472571 0.66787374 162 163 159
0.65050584 0.16407908 0.66525203 164 165 161
0.64974278 0.16359745 0.66329926 167 167 163
0.64709026 0.16264260 0.65942788 165 165 161
0.64571750 0.16201220 0.65687191 164 164 159
0.64622670 0.16185535 0.65623605 163 163 156
-0.32169425 0.31179309 1.25535524 104 107 113
-0.31543550 0.30780306 1.23929036 102 102 111
0.09628287 0.19286171 0.77650839 176 176 174
0.09784917 0.19330455 0.77829146 178 178 176
0.09885390 0.19264103 0.77561998 178 178 176
0.10007998 0.19242088 0.77473354 178 178 176
0.10153509 0.19264103 0.77561998 177 175 174
0.10299353 0.19286171 0.77650839 174 171 170
0.10445531 0.19308288 0.77739888 169 165 163
0.10567779 0.19286171 0.77650839 157 151 151
0.10689747 0.19264103 0.77561998 135 127 133
0.10823807 0.19264103 0.77561998 128 119 128
0.10932849 0.19220123 0.77384913 137 126 135
0.11066602 0.19220123 0.77384913 148 138 142
0.11200356 0.19220123 0.77384913 155 145 147
0.11308292 0.19176340 0.77208638 155 148 145
0.11415736 0.19132759 0.77033162 156 151 148
0.11509645 0.19067754 0.76771444 157 153 150
0.11602917 0.19003190 0.76511496 144 143 141
0.07885359 0.12218307 0.49193892 135 136 138
0.07993590 0.12253877 0.49337107 137 138 140
0.08090642 0.12271740 0.49409026 140 139 139
0.16292141 0.17375466 0.69957876 166 167 164
0.16379252 0.17339678 0.69813782 171 171 169
0.16482945 0.17321838 0.69741958 172 172 170
0.16552401 0.17268540 0.69527370 172 172 170
0.16570599 0.17162922 0.69102126 173 173 171
0.16639152 0.17110597 0.68891448 173 173 171
0.16707289 0.17058589 0.68682051 173 173 171
0.16791974 0.17024092 0.68543160 172 172 170
0.16876318 0.16989735 0.68404830 168 167 163
0.16926230 0.16921434 0.68129832 168 167 163
0.17026874 0.16904445 0.68061429 168 167 163
0.17161743 0.16921434 0.68129832 165 164 160
0.17279501 0.16921434 0.68129832 162 161 158
0.17344961 0.16870569 0.67925036 158 157 155
0.17444885 0.16853681 0.67857039 159 158 156
0.17527081 0.16820008 0.67721462 158 157 155
0.17626522 0.16803220 0.67653877 160 159 157
0.17743456 0.16803220 0.67653877 160 159 159
0.17896111 0.16836827 0.67789185 161 159 158
0.17995284 0.16820008 0.67721462 165 161 160
0.17950939 0.16670126 0.67118007 172 171 167
0.22158481 0.16870569 0.67925036 180 181 174
0.22275884 0.16870569 0.67925036 180 181 174
0.22415747 0.16887489 0.67993164 182 183 175
0.22926737 0.17093225 0.68821508 186 182 173
0.22906160 0.16989735 0.68404830 183 178 170
0.22931832 0.16921434 0.68129832 182 175 167
0.22980301 0.16870569 0.67925036 178 170 163
0.23051509 0.16836827 0.67789185 168 160 154
0.23168677 0.16836827 0.67789185 158 151 148
0.23309155 0.16853681 0.67857039 144 138 139
0.23460586 0.11438062 0.46052435 170 169 164
0.23556186 0.11445837 0.46083742 165 165 156
0.23555772 0.11407065 0.45927632 164 164 155
0.23619151 0.11399341 0.45896536 167 165 157
0.23730613 0.11414798 0.45958769 168 166 158
0.23713587 0.11368553 0.45772576 171 168 160
0.23792702 0.11368553 0.45772576 172 169 162
0.23823558 0.11345571 0.45680043 175 172 166
0.99618316 0.41165838 1.65743732 151 146 144
0.99904794 0.41165838 1.65743732 145 140 138
0.99946898 0.41065431 1.65339470 142 138 136
0.99988800 0.40965515 1.64937186 141 137 135
0.99788290 0.40767136 1.64138460 144 138 137
1.00314879 0.40866086 1.64536858 148 142 140
1.01090002 0.41065431 1.65339470 150 145 138
1.01872718 0.41266733 1.66149962 151 146 139
1.02663147 0.41470018 1.66968429 155 150 143
1.02951741 0.41470018 1.66968429 156 151 144
1.03240323 0.41470018 1.66968429 156 152 143
1.03021431 0.41266733 1.66149962 156 153 143
1.03056014 0.41165838 1.65743732 150 149 139
1.03342485 0.41165838 1.65743732 145 145 135
1.03628957 0.41165838 1.65743732 143 143 136
1.04426074 0.41368124 1.66558194 147 147 143
1.04971874 0.41470018 1.66968429 153 153 150
1.05260468 0.41470018 1.66968429 155 155 152
1.06865132 0.41987100 1.69050336 158 158 155
1.08236992 0.42410144 1.70753610 158 158 156
1.09081662 0.42624879 1.71618187 154 154 152
1.09934914 0.42841798 1.72491562 163 163 161
1.11081004 0.43171352 1.73818421 164 164 162
1.11096573 0.43060938 1.73373878 163 163 161
0.65255797 0.16604365 0.66853237 162 163 159
0.65114486 0.16539122 0.66590554 164 165 161
0.65101677 0.16506693 0.66459984 164 165 163
0.64709026 0.16378236 0.65942788 162 163 161
0.64571750 0.16314755 0.65687191 161 162 158
0.64560169 0.16283198 0.65560138 160 160 154
0.09494074 0.19420384 0.77650839 174 174 174
0.09639329 0.19442655 0.77739888 173 173 172
0.09796164 0.19487351 0.77918601 176 176 176
0.09896713 0.19420384 0.77650839 179 179 179
0.10019450 0.19398163 0.77561998 178 177 176
0.10153509 0.19398163 0.77561998 180 178 177
0.10299353 0.19420384 0.77650839 178 175 173
0.10445531 0.19442655 0.77739888 169 165 162
0.10567779 0.19420384 0.77650839 162 156 154
0.10689747 0.19398163 0.77561998 138 132 134
0.10823807 0.19398163 0.77561998 131 124 129
0.10932849 0.19353876 0.77384913 130 120 130
0.11066602 0.19353876 0.77384913 121 110 118
0.11415736 0.19265904 0.77033162 143 137 137
0.11509645 0.19200447 0.76771444 142 138 137
0.07485495 0.12205900 0.48804307 136 136 136
0.07591712 0.12241152 0.48945260 136 136 137
0.07665241 0.12223501 0.48874682 134 134 137
0.07862536 0.12267724 0.49051508 128 128 134
0.07964607 0.12294412 0.49158219 130 129 136
0.16345584 0.17424455 0.69670284 167 168 167
0.16449098 0.17406566 0.69598752 171 171 169
0.16518515 0.17353117 0.69385040 172 172 170
0.16553725 0.17264761 0.69031757 172 172 171
0.16622260 0.17212178 0.68821508 174 174 173
0.16690379 0.17159913 0.68612534 174 174 174
0.16741192 0.17090721 0.68335873 170 170 170
0.16842327 0.17073509 0.68267053 170 169 168
0.16892275 0.17005010 0.67993164 169 168 166
0.16975743 0.16970967 0.67857039 167 166 164
0.17127317 0.17005010 0.67993164 166 165 163
0.17244838 0.17005010 0.67993164 163 163 161
0.17327599 0.16970967 0.67857039 160 159 157
0.17427440 0.16953996 0.67789185 159 155 156
0.17509589 0.16920155 0.67653877 156 152 153
0.17591409 0.16886449 0.67519110 158 154 155
0.17690492 0.16869646 0.67451924 163 154 154
0.17842583 0.16903286 0.67586422 165 156 155
0.17923662 0.16869646 0.67451924 170 161 160
0.17880127 0.16719916 0.66853237 176 175 171
0.17872298 0.16605285 0.66394889 181 181 177
0.22298227 0.17005010 0.67993164 173 174 165
0.22438253 0.17022084 0.68061429 178 179 170
0.22926737 0.17212178 0.68821508 183 178 169
0.22929297 0.17125247 0.68473923 180 175 166
0.22931832 0.17039192 0.68129832 181 173 167
0.23003350 0.17005010 0.67993164 176 168 162
0.23051509 0.16953996 0.67789185 168 160 154
0.23191869 0.16970967 0.67857039 160 152 148
0.23355913 0.17005010 0.67993164 146 140 139
0.23476389 0.11486447 0.45927632 167 167 159
0.23507991 0.11463147 0.45834473 165 165 157
0.23682445 0.11470903 0.45865482 165 164 158
0.23697586 0.11439943 0.45741689 165 165 158
0.23760614 0.11432229 0.45710847 168 168 161
0.23775494 0.11401476 0.45587885 172 169 163
0.23758423 0.11355656 0.45404679 172 169 163
0.99819958 0.41656008 1.66558194 163 160 154
0.99375349 0.41351208 1.65339470 159 155 152
0.99904794 0.41452309 1.65743732 148 144 141
0.99946898 0.41351208 1.65339470 142 138 136
0.99988800 0.41250595 1.64937186 146 142 141
1.00030494 0.41150475 1.64536858 145 141 140
1.00558960 0.41250595 1.64937186 146 142 141
1.01090002 0.41351208 1.65339470 147 143 140
1.01872718 0.41553909 1.66149962 148 144 141
1.02410901 0.41656008 1.66558194 150 147 142
1.02447069 0.41553909 1.66149962 153 150 144
1.02986670 0.41656008 1.66558194 154 153 145
1.02769542 0.41452309 1.65743732 156 156 147
1.02804661 0.41351208 1.65339470 155 155 146
1.03090429 0.41351208 1.65339470 150 151 143
1.03376210 0.41351208 1.65339470 149 150 142
1.03915441 0.41452309 1.65743732 149 149 143
1.04201913 0.41452309 1.65743732 155 156 150
1.04744482 0.41553909 1.66149962 157 157 153
1.05809677 0.41861716 1.67380702 157 157 153
1.07694447 0.42491215 1.69897699 157 157 154
1.09081662 0.42921507 1.71618187 158 158 155
1.10497248 0.43360600 1.73373878 159 159 158
1.11653590 0.43695864 1.74714386 159 159 159
1.11955559 0.43695864 1.74714386 159 159 158
0.65644222 0.16819440 0.67251176 159 160 158
0.65242660 0.16687003 0.66721636 162 163 161
0.65165567 0.16637875 0.66525203 158 159 157
0.64709026 0.16492213 0.65942788 157 158 156
0.64509243 0.16412386 0.65623605 156 157 155
0.64373404 0.16349079 0.65370476 157 158 152
0.09494074 0.19554597 0.77650839 173 173 173
0.09639329 0.19577022 0.77739888 173 173 173
0.09807437 0.19644606 0.78008264 174 174 174
0.09896713 0.19554597 0.77650839 176 176 176
0.10030927 0.19554597 0.77650839 176 175 175
0.10165140 0.19554597 0.77650839 176 172 170
0.10311164 0.19577022 0.77739888 176 172 168
0.10457524 0.19599499 0.77829146 169 166 158
0.10567779 0.19554597 0.77650839 158 153 146
0.10689747 0.19532223 0.77561998 146 142 138
0.10823807 0.19532223 0.77561998 139 135 136
0.10945344 0.19509901 0.77473354 139 134 140
0.11066602 0.19487630 0.77384913 135 129 134
0.11428723 0.19421118 0.77120799 139 132 134
0.07458646 0.12246171 0.48629257 128 126 130
0.07575303 0.12299109 0.48839471 133 131 136
0.07654203 0.12290254 0.48804307 124 124 131
0.07744133 0.12299109 0.48839471 128 127 135
0.07851174 0.12334655 0.48980623 127 126 135
0.07947318 0.12352506 0.49051508 113 112 121
0.08037915 0.12361450 0.49087027 114 114 123
0.16467950 0.17419554 0.69172639 173 174 174
0.16520080 0.17348742 0.68891448 175 176 176
0.16605403 0.17313553 0.68751711 179 179 179
0.16639853 0.17226198 0.68404830 179 179 179
0.16673958 0.17139722 0.68061429 176 176 176
0.16791597 0.17139722 0.68061429 177 176 176
0.16858457 0.17088251 0.67857039 175 174 173
0.16941825 0.17054109 0.67721462 173 173 171
0.17093028 0.17088251 0.67857039 169 169 167
0.17227559 0.17105374 0.67925036 163 163 161
0.17310271 0.17071164 0.67789185 160 159 158
0.17427440 0.17071164 0.67789185 158 152 153
0.17509589 0.17037089 0.67653877 155 148 149
0.17573906 0.16986232 0.67451924 153 144 144
0.17672907 0.16969347 0.67384875 151 142 142
0.17789376 0.16969347 0.67384875 159 150 149
0.17852606 0.16918893 0.67184526 168 162 160
0.17880127 0.16835466 0.66853237 175 173 169
0.17872298 0.16720042 0.66394889 176 175 171
0.17864576 0.16606189 0.65942788 176 177 171
0.17891532 0.16525811 0.65623605 171 171 167
0.22415747 0.17122531 0.67993164 168 166 161
0.22880280 0.17296012 0.68682051 173 170 163
0.22906160 0.17226198 0.68404830 170 166 160
0.22931832 0.17156948 0.68129832 165 162 157
0.23003350 0.17122531 0.67993164 165 161 156
0.23074584 0.17088251 0.67857039 165 160 155
0.23215108 0.17105374 0.67925036 150 148 144
0.23379363 0.17139722 0.68061429 140 139 136
0.23508243 0.11581522 0.45989949 170 170 164
0.23523895 0.11550178 0.45865482 169 168 163
0.23682445 0.11550178 0.45865482 168 168 165
0.23697586 0.11519004 0.45741689 166 166 161
0.23776647 0.11519004 0.45741689 163 163 157
0.23807514 0.11495733 0.45649281 168 166 161
0.23774348 0.11441799 0.45435110 169 167 161
0.99819958 0.41943890 1.66558194 168 167 163
0.99618316 0.41738784 1.65743732 160 159 155
1.00149655 0.41841087 1.66149962 147 145 142
1.00191271 0.41738784 1.65743732 133 131 129
0.99988800 0.41535676 1.64937186 137 135 133
1.00030494 0.41434863 1.64536858 140 137 135
1.00558960 0.41535676 1.64937186 141 137 136
1.01090002 0.41636983 1.65339470 139 136 133
1.01623642 0.41738784 1.65743732 144 141 137
1.02410901 0.41943890 1.66558194 150 149 143
1.02698779 0.41943890 1.66558194 154 154 148
1.02986670 0.41943890 1.66558194 157 157 151
1.02769542 0.41738784 1.65743732 160 160 153
1.02804661 0.41636983 1.65339470 161 161 155
1.03342485 0.41738784 1.65743732 161 161 156
1.03628957 0.41738784 1.65743732 166 166 162
1.03915441 0.41738784 1.65743732 170 171 164
1.04457307 0.41841087 1.66149962 168 169 162
1.05001843 0.41943890 1.66558194 168 169 163
1.06071579 0.42255354 1.67795014 165 166 161
1.07694447 0.42784870 1.69897699 165 165 161
1.09358513 0.43327826 1.72053766 164 164 160
1.10497248 0.43660265 1.73373878 161 161 158
1.11942101 0.44111532 1.75165856 159 159 158
1.12535644 0.44225812 1.75619650 160 160 158
0.65384758 0.16868739 0.66985363 155 156 154
0.65178508 0.16785805 0.66656029 157 158 156
0.64974278 0.16703682 0.66329926 156 157 155
0.64583379 0.16573945 0.65814739 156 157 155
0.64384586 0.16493878 0.65496796 159 160 158
0.63941777 0.16351689 0.64932168 163 164 158
0.09494074 0.19688810 0.77650839 172 173 173
0.09650396 0.19734021 0.77829146 173 173 173
0.09841412 0.19847958 0.78278506 173 173 173
0.09896713 0.19688810 0.77650839 173 173 173
0.10030927 0.19688810 0.77650839 174 173 172
0.10176797 0.19711389 0.77739888 172 167 163
0.10334868 0.19756703 0.77918601 167 161 156
0.10469544 0.19756703 0.77918601 164 159 152
0.10579898 0.19711389 0.77739888 158 154 146
0.10689747 0.19666283 0.77561998 149 146 140
0.10823807 0.19666283 0.77561998 141 140 139
0.10945344 0.19643807 0.77473354 139 139 139
0.11066602 0.19621383 0.77384913 139 138 138
0.11187585 0.19599010 0.77296674 140 139 139
0.11428723 0.19554415 0.77120799 138 134 137
0.07575303 0.12383524 0.48839471 124 123 132
0.07648697 0.12365706 0.48769197 122 124 132
0.07738557 0.12374608 0.48804307 123 126 134
0.07839845 0.12401394 0.48909944 126 129 137
0.07935833 0.12419315 0.48980623 121 121 128
0.16212288 0.17521235 0.69102126 172 172 172
0.16315094 0.17503393 0.69031757 174 174 174
0.16434409 0.17503393 0.69031757 176 176 176
0.16503307 0.17450082 0.68821508 178 179 179
0.16571787 0.17397097 0.68612534 180 180 180
0.16589633 0.17292084 0.68198377 180 180 180
0.16640544 0.17222777 0.67925036 180 180 180
0.16757947 0.17222777 0.67925036 179 178 178
0.16824774 0.17171161 0.67721462 176 175 174
0.16941825 0.17171161 0.67721462 175 174 172
0.17075935 0.17188331 0.67789185 171 171 169
0.17210314 0.17205536 0.67857039 167 167 165
0.17310271 0.17188331 0.67789185 163 162 158
0.17444885 0.17205536 0.67857039 158 153 151
0.17509589 0.17154023 0.67653877 148 142 140
0.17608948 0.17136921 0.67586422 132 130 128
0.17690492 0.17102817 0.67451924 136 133 133
0.17789376 0.17085816 0.67384875 142 137 138
0.17834930 0.17018150 0.67118007 152 151 150
0.17862511 0.16934316 0.66787374 161 160 158
0.17872298 0.16834800 0.66394889 162 161 159
0.17864576 0.16720167 0.65942788 150 150 147
0.17908868 0.16655360 0.65687191 146 146 144
0.18057398 0.16687700 0.65814739 148 147 147
0.22929297 0.17361951 0.68473923 162 157 157
0.22954902 0.17292084 0.68198377 171 166 165
0.23003350 0.17240052 0.67993164 171 166 164
0.23074584 0.17205536 0.67857039 175 170 165
0.23215108 0.17222777 0.67925036 172 171 165
0.23402859 0.17274705 0.68129832 167 166 161
0.23778978 0.11676855 0.46052435 172 172 170
0.23729610 0.11613737 0.45803502 171 171 168
0.23855709 0.11598064 0.45741689 170 170 163
0.99575305 0.42128262 1.66149962 172 172 163
0.99375349 0.41922760 1.65339470 162 163 154
0.99904794 0.42025259 1.65743732 147 148 140
1.00191271 0.42025259 1.65743732 134 134 130
0.99988800 0.41820759 1.64937186 134 133 131
0.99788290 0.41618237 1.64138460 138 136 135
1.00314879 0.41719252 1.64536858 136 132 132
1.00844038 0.41820759 1.64937186 130 128 126
1.01375782 0.41922760 1.65339470 135 135 129
1.02159894 0.42128262 1.66149962 151 151 146
1.02447069 0.42128262 1.66149962 157 157 153
1.02734244 0.42128262 1.66149962 160 159 155
1.02769542 0.42025259 1.65743732 160 160 156
1.02804661 0.41922760 1.65339470 161 161 157
1.03342485 0.42025259 1.65743732 165 164 160
1.03628957 0.42025259 1.65743732 173 172 168
1.04170132 0.42128262 1.66149962 171 171 164
1.04457307 0.42128262 1.66149962 170 171 164
1.05520368 0.42440325 1.67380702 168 169 160
1.07400799 0.43078524 1.69897699 167 167 159
1.08510315 0.43404877 1.71184814 168 169 161
1.09636784 0.43736213 1.72491562 169 170 164
1.11639333 0.44414294 1.75165856 166 167 163
1.13407302 0.44995633 1.77458596 160 161 160
1.14012492 0.45113730 1.77924371 160 160 159
0.64657950 0.16736448 0.66006994 166 167 164
0.64458215 0.16655360 0.65687191 169 170 167
0.64075047 0.16527241 0.65181905 171 172 170
0.63637006 0.16385445 0.64622670 172 173 168
-0.01669460 0.12169831 0.47671717 203 200 192
0.09343376 0.20075986 0.78641742 165 166 166
0.09381353 0.19868541 0.77829146 169 170 170
0.09504961 0.19845757 0.77739888 172 173 173
0.09739855 0.20052722 0.78550619 174 174 174
0.09887080 0.20075986 0.78641742 173 173 173
0.09919439 0.19868541 0.77829146 173 173 173
0.10042430 0.19845757 0.77739888 170 168 166
0.10188481 0.19868541 0.77829146 166 159 159
0.10346761 0.19914268 0.78008264 160 151 151
0.10469544 0.19891378 0.77918601 157 151 148
0.10567779 0.19823024 0.77650839 156 152 148
0.10689747 0.19800343 0.77561998 146 143 139
0.10823807 0.19800343 0.77561998 142 141 139
0.10945344 0.19777714 0.77473354 141 140 139
0.11066602 0.19755137 0.77384913 144 143 143
0.11187585 0.19732611 0.77296674 147 144 146
0.11308292 0.19710135 0.77208638 149 145 149
0.11415736 0.19665340 0.77033162 148 146 150
0.07643198 0.12441050 0.48734137 133 137 140
0.07727432 0.12441050 0.48734137 135 140 142
0.07828549 0.12467939 0.48839471 132 138 140
0.07924382 0.12485930 0.48909944 132 135 136
0.16162859 0.17586890 0.68891448 174 174 174
0.16265403 0.17569035 0.68821508 176 176 176
0.16384356 0.17569035 0.68821508 175 175 175
0.16436560 0.17497978 0.68543160 176 176 176
0.16438681 0.17375000 0.68061429 177 177 177
0.16506600 0.17322822 0.67857039 179 178 178
0.16590671 0.17288211 0.67721462 179 177 177
0.16924918 0.17270957 0.67653877 174 173 171
0.17175928 0.17288211 0.67721462 171 170 166
0.17292978 0.17288211 0.67721462 164 164 157
0.17427440 0.17305499 0.67789185 157 157 150
0.17527081 0.17288211 0.67721462 148 148 141
0.17626522 0.17270957 0.67653877 126 125 123
0.17725766 0.17253739 0.67586422 131 127 127
0.17824812 0.17236553 0.67519110 133 127 129
0.17870317 0.17168154 0.67251176 139 133 135
0.17880127 0.17066568 0.66853237 140 134 136
0.17907377 0.16982825 0.66525203 138 132 135
0.17969456 0.16932975 0.66329926 138 134 137
0.18048781 0.16899902 0.66200376 151 147 150
0.18163204 0.16899902 0.66200376 151 147 150
0.18385352 0.16999508 0.66590554 160 159 161
0.18573429 0.17066568 0.66853237 159 158 160
0.18688980 0.17066568 0.66853237 156 156 158
0.18767513 0.17032972 0.66721636 156 156 158
0.22952482 0.17497978 0.68543160 164 163 163
0.22978018 0.17427492 0.68267053 177 171 171
0.23003350 0.17357571 0.67993164 179 173 173
0.23074584 0.17322822 0.67857039 187 182 175
0.23215108 0.17340180 0.67925036 183 181 174
0.99045372 0.42311734 1.65743732 176 176 168
0.99089569 0.42208534 1.65339470 174 174 165
0.98892945 0.42003641 1.64536858 166 166 157
0.99661124 0.42208534 1.65339470 156 156 147
0.99946898 0.42208534 1.65339470 147 145 139
0.99746108 0.42003641 1.64536858 137 133 131
0.99547255 0.41800722 1.63741994 131 128 126
1.00071990 0.41901937 1.64138460 128 126 125
1.00355697 0.41901937 1.64138460 127 125 124
1.01129127 0.42105839 1.64937186 138 138 135
1.01910114 0.42311734 1.65743732 156 156 153
1.02196586 0.42311734 1.65743732 159 160 156
1.02483070 0.42311734 1.65743732 160 160 156
1.02269447 0.42105839 1.64937186 160 160 156
1.02554524 0.42105839 1.64937186 164 164 160
1.02839601 0.42105839 1.64937186 168 167 163
1.03124690 0.42105839 1.64937186 171 170 166
1.03661990 0.42208534 1.65339470 170 169 165
1.03947759 0.42208534 1.65339470 170 169 165
1.05001843 0.42519656 1.66558194 168 167 162
1.08763754 0.43922588 1.72053766 166 166 159
1.11914945 0.44949350 1.76075804 165 166 162
1.14297414 0.45781744 1.79336464 166 166 163
1.15216994 0.46025264 1.80290389 166 167 166
1.15528619 0.46025264 1.80290389 164 165 164
0.64395821 0.16752662 0.65623605 173 174 167
0.63829547 0.16576149 0.64932168 174 175 168
0.63515908 0.16465746 0.64499700 174 175 168
-0.02003273 0.12278131 0.47772506 201 199 191
-0.01838131 0.12278131 0.47772506 200 198 190
-0.01754324 0.12269484 0.47738862 201 200 192
-0.01668287 0.12243617 0.47638217 202 201 192
-0.01583722 0.12226433 0.47571358 202 201 192
-0.01347454 0.12321547 0.47941431 200 200 191
-0.01018885 0.12356502 0.48077434 186 181 174
-0.00937782 0.12382849 0.48179945 175 170 167
0.09254029 0.20618542 0.80223888 161 162 162
0.09304598 0.20425168 0.79471493 166 166 166
0.09386935 0.20306139 0.79008371 171 171 171
0.09413777 0.20072198 0.78098136 173 174 173
0.09537775 0.20049100 0.78008264 175 175 173
0.09933173 0.20306139 0.79008371 173 173 171
0.09965203 0.20095348 0.78188217 170 169 166
0.10077099 0.20049100 0.78008264 163 159 158
0.10235487 0.20095348 0.78188217 158 151 151
0.10382604 0.20118554 0.78278506 152 143 144
0.10481592 0.20049100 0.78008264 143 134 135
0.10579898 0.19980124 0.77739888 140 135 135
0.10689747 0.19934402 0.77561998 139 135 135
0.10823807 0.19934402 0.77561998 139 138 136
0.10957867 0.19934402 0.77561998 143 142 142
0.11079250 0.19911620 0.77473354 148 147 147
0.11187585 0.19866212 0.77296674 153 152 152
0.11308292 0.19843584 0.77208638 157 156 158
0.11415736 0.19798486 0.77033162 158 157 159
0.11509645 0.19731221 0.76771444 150 150 153
0.07531892 0.12480421 0.48559588 144 145 148
0.07632224 0.12507299 0.48664168 145 147 148
0.07710801 0.12498327 0.48629257 144 147 148
0.07800449 0.12507299 0.48664168 141 145 145
0.07890225 0.12516284 0.48699126 143 144 144
0.15946551 0.17598654 0.68473923 165 165 165
0.16113733 0.17652145 0.68682051 168 168 168
0.16232444 0.17652145 0.68682051 172 171 171
0.16367738 0.17670049 0.68751711 172 172 172
0.16386853 0.17563173 0.68335873 173 173 173
0.16389316 0.17440107 0.67857039 173 172 171
0.16473621 0.17405263 0.67721462 173 172 170
0.17292978 0.17405263 0.67721462 165 163 158
0.17410029 0.17405263 0.67721462 158 156 152
0.17527081 0.17405263 0.67721462 150 148 145
0.17644131 0.17405263 0.67721462 131 125 125
0.17725766 0.17370556 0.67586422 126 119 120
0.17842583 0.17370556 0.67586422 135 126 128
0.17923662 0.17335987 0.67451924 134 125 129
0.17915462 0.17216074 0.66985363 140 132 136
0.17924967 0.17114605 0.66590554 138 132 136
0.18022360 0.17097810 0.66525203 144 141 143
0.18137343 0.17097810 0.66525203 155 152 154
0.18234432 0.17081046 0.66459984 160 159 160
0.18421544 0.17148295 0.66721636 164 163 164
0.18591763 0.17199080 0.66919231 169 168 168
0.18725914 0.17216074 0.66985363 169 169 169
0.18804529 0.17182118 0.66853237 170 170 170
0.18901439 0.17165190 0.66787374 168 169 169
0.19016875 0.17165190 0.66787374 162 162 162
0.19113481 0.17148295 0.66721636 155 155 155
0.22954902 0.17527835 0.68198377 177 177 170
0.23003350 0.17475092 0.67993164 177 177 168
0.23074584 0.17440107 0.67857039 181 176 169
0.99331844 0.42598209 1.65743732 173 172 163
0.99375349 0.42494312 1.65339470 171 171 161
0.99904794 0.42598209 1.65743732 164 164 153
1.00191271 0.42598209 1.65743732 154 153 144
1.00232673 0.42494312 1.65339470 139 134 131
1.00030494 0.42288029 1.64536858 123 119 116
1.00558960 0.42390919 1.64937186 102 101 99
1.00844038 0.42390919 1.64937186 115 114 112
1.01375782 0.42494312 1.65339470 143 144 140
1.01910114 0.42598209 1.65743732 163 164 160
1.02196586 0.42598209 1.65743732 159 161 155
1.02233100 0.42494312 1.65339470 157 159 153
1.02269447 0.42390919 1.64937186 157 158 152
1.02057898 0.42185634 1.64138460 160 160 155
1.02589989 0.42288029 1.64536858 163 163 158
1.02625287 0.42185634 1.64138460 163 163 159
1.03158772 0.42288029 1.64536858 163 163 159
1.03694844 0.42390919 1.64937186 163 163 159
1.04488385 0.42598209 1.65743732 162 162 158
1.12511516 0.45371529 1.76534331 172 172 171
0.64458215 0.16882430 0.65687191 172 174 167
0.63890749 0.16704379 0.64994425 172 174 167
0.63515908 0.16577229 0.64499700 172 174 167
-0.02000454 0.12343305 0.47705266 200 200 191
-0.01835544 0.12343305 0.47705266 197 197 188
-0.01751857 0.12334624 0.47671717 200 200 191
-0.01665945 0.12308656 0.47571358 201 201 192
-0.01581503 0.12291405 0.47504684 201 201 192
-0.01501499 0.12308656 0.47571358 199 199 190
-0.01427289 0.12378148 0.47839934 198 197 189
-0.01345551 0.12386890 0.47873718 197 197 188
-0.01259248 0.12351997 0.47738862 197 197 188
-0.01175907 0.12343305 0.47705266 194 194 185
-0.01015284 0.12395643 0.47907552 177 176 168
-0.00934461 0.12421980 0.48009336 162 158 155
-0.00850277 0.12404410 0.47941431 140 136 135
-0.00766330 0.12386890 0.47873718 132 128 129
-0.00601688 0.12404410 0.47941431 145 144 144
0.09254029 0.20757201 0.80223888 164 164 164
0.09315519 0.20586662 0.79564768 170 170 166
0.09408867 0.20490462 0.79192972 176 176 174
0.09490312 0.20371470 0.78733081 175 175 173
0.09626395 0.20371470 0.78733081 173 173 171
0.09877197 0.20610853 0.79658264 173 173 169
0.09944764 0.20466553 0.79100567 167 167 164
0.10023005 0.20347837 0.78641742 158 158 155
0.10147160 0.20324259 0.78550619 151 151 151
0.10282928 0.20324259 0.78550619 142 140 141
0.10418697 0.20324259 0.78550619 138 135 136
0.10493667 0.20207185 0.78098136 131 128 129
0.10592045 0.20137584 0.77829146 127 123 126
0.10701992 0.20091450 0.77650839 125 121 125
0.10836206 0.20091450 0.77650839 130 130 130
0.10957867 0.20068462 0.77561998 141 141 141
0.11079250 0.20045526 0.77473354 150 150 150
0.11187585 0.19999813 0.77296674 159 159 159
0.11415736 0.19931631 0.77033162 167 166 166
0.07426681 0.12528454 0.48420846 162 163 162
0.07521116 0.12546377 0.48490116 156 157 156
0.07615823 0.12564352 0.48559588 156 157 157
0.07694243 0.12555358 0.48524827 154 155 155
0.07778114 0.12555358 0.48524827 146 147 147
0.07856362 0.12546377 0.48490116 144 145 145
0.16401006 0.17825036 0.68891448 169 168 168
0.17410029 0.17522313 0.67721462 158 153 152
0.17527081 0.17522313 0.67721462 149 141 142
0.17644131 0.17522313 0.67721462 134 125 126
0.17743456 0.17504826 0.67653877 130 121 122
0.17842583 0.17487374 0.67586422 132 123 126
0.17923662 0.17452572 0.67451924 134 125 129
0.17933182 0.17348997 0.67051619 136 128 133
0.17960252 0.17263618 0.66721636 152 149 152
0.18075575 0.17263618 0.66721636 157 156 157
0.18190898 0.17263618 0.66721636 169 169 169
0.18288220 0.17246643 0.66656029 170 171 171
0.18457878 0.17297669 0.66853237 172 172 171
0.18628542 0.17348997 0.67051619 174 174 173
0.18744436 0.17348997 0.67051619 176 177 176
0.18823093 0.17314744 0.66919231 178 179 178
0.18901439 0.17280626 0.66787374 178 179 177
0.19035630 0.17297669 0.66853237 177 177 174
0.19132313 0.17280626 0.66787374 174 173 171
0.19228804 0.17263618 0.66721636 169 168 167
0.22954902 0.17645709 0.68198377 177 178 170
0.23003350 0.17592613 0.67993164 177 178 169
0.23074584 0.17557393 0.67857039 176 176 168
0.99618316 0.42884684 1.65743732 173 170 160
1.00395727 0.43095419 1.66558194 166 163 153
1.00683606 0.43095419 1.66558194 152 149 140
1.00232673 0.42780086 1.65339470 128 119 119
1.00273883 0.42675999 1.64937186 117 108 108
1.00558960 0.42675999 1.64937186 103 101 100
1.00844038 0.42675999 1.64937186 126 125 123
1.01623642 0.42884684 1.65743732 154 155 149
1.01910114 0.42884684 1.65743732 163 164 157
1.02196586 0.42884684 1.65743732 157 159 151
1.02233100 0.42780086 1.65339470 154 156 148
1.02021217 0.42572418 1.64536858 155 157 149
1.02057898 0.42469335 1.64138460 157 158 151
1.02341592 0.42469335 1.64138460 159 160 153
1.02377403 0.42366752 1.63741994 162 163 157
1.02908993 0.42469335 1.64138460 165 165 159
1.03443158 0.42572418 1.64536858 168 169 163
1.04233539 0.42780086 1.65339470 172 172 167
0.64458215 0.16995965 0.65687191 172 174 166
0.64013493 0.16849026 0.65119290 171 173 166
-0.01999047 0.12417021 0.47671717 197 197 188
-0.01911274 0.12382191 0.47537997 200 200 191
-0.01832964 0.12408295 0.47638217 198 198 189
-0.01749396 0.12399581 0.47604764 198 198 191
-0.01663611 0.12373514 0.47504684 200 200 193
-0.01580395 0.12364849 0.47471419 199 199 192
-0.01498345 0.12364849 0.47471419 200 200 192
-0.01423271 0.12425759 0.47705266 201 200 192
-0.01342706 0.12443273 0.47772506 198 197 189
-0.01256593 0.12408295 0.47638217 197 197 189
-0.01170962 0.12373514 0.47504684 193 193 186
-0.01093452 0.12425759 0.47705266 185 185 178
-0.01013136 0.12452048 0.47806194 175 175 168
-0.00931821 0.12469635 0.47873718 170 166 167
-0.00849076 0.12469635 0.47873718 160 158 158
-0.00764710 0.12443273 0.47772506 156 156 156
-0.00681658 0.12434509 0.47738862 159 159 159
-0.00599568 0.12443273 0.47772506 162 162 160
-0.00519192 0.12496110 0.47975361 168 167 165
0.09158723 0.20995249 0.80605453 159 157 155
0.09275983 0.20945437 0.80414218 167 166 162
0.09359460 0.20821938 0.79940075 173 173 169
0.09430902 0.20675649 0.79378438 171 171 168
0.09523495 0.20579259 0.79008371 169 169 167
0.09923843 0.20846522 0.80034459 165 164 163
0.09968027 0.20651467 0.79285598 159 158 158
0.10046315 0.20531400 0.78824633 147 147 148
0.10182557 0.20531400 0.78824633 138 138 140
0.10306814 0.20507553 0.78733081 132 132 135
0.10442898 0.20507553 0.78733081 124 124 127
0.10505771 0.20365633 0.78188217 119 119 122
0.10592045 0.20272106 0.77829146 114 113 117
0.10701992 0.20225663 0.77650839 117 114 120
0.10836206 0.20225663 0.77650839 127 127 129
0.10970419 0.20225663 0.77650839 137 138 140
0.11091927 0.20202522 0.77561998 144 145 146
0.07353494 0.12630188 0.48490116 173 174 167
0.07426681 0.12612146 0.48420846 176 177 170
0.07526500 0.12639229 0.48524827 175 176 169
0.07610371 0.12639229 0.48524827 171 172 167
0.07688739 0.12630188 0.48490116 159 160 156
0.07766994 0.12621161 0.48455456 152 153 150
0.07845138 0.12612146 0.48420846 144 145 145
0.17661776 0.17657004 0.67789185 143 134 136
0.17761183 0.17639364 0.67721462 140 131 135
0.17878233 0.17639364 0.67721462 131 122 129
0.17959401 0.17604192 0.67586422 138 130 138
0.17986555 0.17516869 0.67251176 147 140 149
0.17995676 0.17413218 0.66853237 161 161 161
0.18093383 0.17396063 0.66787374 174 174 173
0.18208820 0.17396063 0.66787374 176 176 174
0.18306221 0.17378941 0.66721636 178 178 176
0.18476099 0.17430408 0.66919231 180 180 178
0.18665467 0.17499508 0.67184526 184 184 182
0.18762995 0.17482182 0.67118007 185 185 183
0.18841693 0.17447633 0.66985363 181 181 179
0.18920080 0.17413218 0.66853237 180 180 178
0.19035630 0.17413218 0.66853237 180 180 178
0.19132313 0.17396063 0.66787374 180 180 178
0.22978018 0.17781474 0.68267053 171 172 165
0.23026447 0.17727916 0.68061429 171 171 163
0.25444129 0.11771336 0.45192790 183 184 175
0.25505239 0.11763494 0.45162681 184 183 175
0.25600353 0.11771336 0.45192790 185 183 175
0.25678465 0.11771336 0.45192790 186 183 175
1.00395727 0.43383300 1.66558194 154 153 143
1.00683606 0.43383300 1.66558194 136 134 124
1.00232673 0.43065864 1.65339470 121 114 116
1.00030494 0.42856807 1.64536858 123 115 119
1.00558960 0.42961079 1.64937186 115 112 116
1.00599277 0.42856807 1.64536858 128 127 131
1.01375782 0.43065864 1.65339470 142 141 142
1.01910114 0.43171158 1.65743732 150 149 149
1.01947331 0.43065864 1.65339470 152 152 147
1.01984358 0.42961079 1.64937186 151 152 143
1.01528358 0.42649767 1.63741994 153 155 146
1.01321900 0.42444721 1.62954772 156 158 150
1.01848376 0.42546996 1.63347435 156 158 149
1.01885211 0.42444721 1.62954772 157 159 150
1.02166855 0.42444721 1.62954772 162 164 154
1.03192687 0.42753035 1.64138460 168 170 160
0.40275586 0.12757951 0.48980623 149 149 145
0.40331104 0.12748739 0.48945260 154 154 150
0.64458215 0.17109500 0.65687191 167 169 161
0.64136720 0.16994229 0.65244645 167 169 161
-0.48043340 0.31514490 1.20193589 143 143 143
-0.48091400 0.31683016 1.20836341 135 135 136
-0.48053861 0.31796372 1.21268666 129 129 131
-0.47758821 0.31739593 1.21052110 128 128 130
-0.01826547 0.12446899 0.47471419 199 199 192
-0.01744496 0.12446899 0.47471419 197 197 190
-0.01660120 0.12429491 0.47405025 199 199 192
-0.01577082 0.12420805 0.47371897 197 197 190
-0.01414313 0.12429491 0.47405025 201 199 193
-0.01338932 0.12490634 0.47638217 199 196 190
-0.01253070 0.12455621 0.47504684 199 196 190
-0.01168506 0.12429491 0.47405025 195 191 188
-0.01088092 0.12446899 0.47471419 187 184 181
-0.01009576 0.12490634 0.47638217 181 180 176
-0.00929197 0.12517023 0.47738862 176 175 175
-0.00847280 0.12525843 0.47772506 173 173 173
-0.00762560 0.12490634 0.47638217 172 172 172
-0.00679267 0.12473103 0.47571358 172 173 171
-0.00596625 0.12464356 0.47537997 171 172 171
-0.00517727 0.12543523 0.47839934 172 173 171
-0.00435039 0.12543523 0.47839934 174 174 172
0.09062506 0.21235570 0.80990660 134 134 132
0.09191511 0.21210229 0.80894017 143 143 140
0.09298043 0.21134569 0.80605453 144 143 140
0.09414973 0.21084426 0.80414218 151 147 145
0.09464148 0.20886219 0.79658264 153 151 149
0.09545746 0.20764220 0.79192972 152 151 149
0.09820292 0.21059446 0.80318940 154 150 151
0.09982773 0.21109468 0.80509722 154 149 151
0.10050309 0.20960109 0.79940075 148 144 147
0.10330811 0.20691702 0.78916395 129 129 133
0.10455041 0.20667642 0.78824633 125 125 129
0.10517902 0.20524448 0.78278506 121 121 125
0.10604220 0.20430082 0.77918601 116 115 120
0.10848632 0.20383225 0.77739888 126 126 128
0.10970419 0.20359877 0.77650839 134 135 137
0.11079250 0.20313339 0.77473354 143 144 146
0.07306266 0.12777981 0.48734137 172 173 166
0.07358757 0.12723100 0.48524827 174 175 168
0.07431989 0.12704912 0.48455456 175 176 169
0.07531892 0.12732215 0.48559588 176 177 170
0.07615823 0.12732215 0.48559588 176 177 168
0.07688739 0.12714000 0.48490116 170 171 163
0.07766994 0.12704912 0.48455456 164 165 157
0.07839538 0.12686776 0.48386285 151 151 148
0.17679454 0.17791964 0.67857039 144 136 138
0.17778943 0.17774172 0.67789185 144 136 137
0.17896111 0.17774172 0.67789185 130 125 133
0.17977326 0.17738694 0.67653877 141 137 145
0.18022314 0.17668162 0.67384875 158 156 163
0.18031241 0.17563412 0.66985363 170 170 170
0.18129106 0.17546073 0.66919231 177 177 177
0.18244770 0.17546073 0.66919231 178 178 176
0.18342328 0.17528769 0.66853237 177 177 175
0.18512650 0.17580783 0.67051619 178 178 176
0.18665467 0.17615631 0.67184526 178 178 176
0.18781590 0.17615631 0.67184526 178 178 176
0.18860330 0.17580783 0.67051619 179 179 177
0.18938757 0.17546073 0.66919231 179 179 177
0.19035630 0.17528769 0.66853237 179 179 177
0.19151181 0.17528769 0.66853237 180 180 178
0.22837026 0.17881460 0.68198377 161 161 158
0.22954902 0.17881460 0.68198377 161 161 158
0.23049589 0.17863490 0.68129832 164 163 160
0.24864192 0.11833670 0.45132613 160 160 158
0.24892482 0.11810081 0.45042646 163 163 161
0.24970335 0.11810081 0.45042646 167 167 163
0.25512162 0.11881131 0.45313627 180 177 172
0.25590482 0.11881131 0.45313627 182 177 172
1.00643003 0.43778747 1.66968429 143 143 135
1.00931597 0.43778747 1.66968429 132 132 124
1.00477743 0.43457633 1.65743732 129 127 123
1.00273883 0.43246159 1.64937186 130 127 126
1.00804222 0.43351638 1.65339470 120 118 119
1.01090002 0.43351638 1.65339470 116 115 118
1.01375782 0.43351638 1.65339470 116 115 119
1.01661551 0.43351638 1.65339470 109 108 113
1.01947331 0.43351638 1.65339470 110 109 112
1.01736832 0.43141195 1.64536858 117 116 118
1.01528358 0.42932782 1.63741994 133 132 134
1.01321900 0.42726374 1.62954772 137 138 137
1.01603556 0.42726374 1.62954772 142 142 141
1.01640880 0.42623913 1.62563992 149 149 144
1.01921856 0.42623913 1.62563992 159 159 154
0.40161908 0.12833337 0.48945260 147 147 143
0.40217468 0.12824078 0.48909944 143 143 139
0.40302005 0.12824078 0.48909944 142 142 138
0.40328348 0.12805599 0.48839471 151 151 147
0.55495042 0.16879556 0.64377195 167 165 154
0.55239099 0.16768086 0.63952059 166 165 154
0.64520741 0.17239740 0.65750909 163 165 158
0.64260411 0.17139992 0.65370476 164 166 159
-0.48251086 0.31722233 1.20193589 137 138 138
-0.48043340 0.31722233 1.20193589 138 138 138
-0.48091400 0.31891870 1.20836341 128 129 130
-0.47968051 0.31948823 1.21052110 119 119 121
-0.47673690 0.31891870 1.20836341 122 123 125
-0.01740839 0.12502684 0.47371897 200 200 193
-0.01658960 0.12502684 0.47371897 201 201 194
-0.01575981 0.12493952 0.47338817 201 201 194
-0.01492075 0.12476527 0.47272792 198 198 191
-0.01333310 0.12520182 0.47438198 202 199 193
-0.01250442 0.12511426 0.47405025 199 196 190
-0.01166874 0.12493952 0.47338817 192 188 185
-0.01085053 0.12493952 0.47338817 188 185 182
-0.01006041 0.12528950 0.47471419 183 182 180
-0.00925287 0.12546521 0.47537997 182 181 179
-0.00844899 0.12572972 0.47638217 182 181 180
-0.00759890 0.12528950 0.47471419 181 181 179
-0.00676891 0.12511426 0.47405025 177 178 176
-0.00594540 0.12502684 0.47371897 179 180 178
-0.00513379 0.12520182 0.47438198 175 175 173
-0.00434732 0.12617306 0.47806194 175 175 173
-0.00271967 0.12734050 0.48248529 177 177 175
-0.00188574 0.12734050 0.48248529 178 178 176
-0.00105031 0.12715949 0.48179945 180 179 177
-0.00021771 0.12724993 0.48214212 181 180 178
0.09084213 0.21426755 0.81184649 127 126 125
0.09191511 0.21350048 0.80894017 135 134 134
0.09309112 0.21299215 0.80701411 143 142 141
0.09437363 0.21273889 0.80605453 147 143 142
0.09508843 0.21123187 0.80034459 152 148 147
0.09579318 0.20974608 0.79471493 153 150 149
0.10006541 0.21299215 0.80701411 133 126 132
0.10152563 0.21023901 0.79658264 131 129 136
0.10290246 0.21023901 0.79658264 129 129 133
0.10367017 0.20901099 0.79192972 125 125 129
0.10467212 0.20828103 0.78916395 124 124 128
0.10517902 0.20659746 0.78278506 123 123 127
0.10604220 0.20564759 0.77918601 122 122 126
0.10957867 0.20470640 0.77561998 133 133 135
0.07301018 0.12852974 0.48699126 169 170 163
0.07353494 0.12797812 0.48490116 176 176 169
0.07431989 0.12788664 0.48455456 176 174 168
0.07542697 0.12834534 0.48629257 179 178 170
0.07615823 0.12816146 0.48559588 180 178 170
0.07688739 0.12797812 0.48490116 176 174 167
0.07766994 0.12788664 0.48455456 177 173 167
0.07833946 0.12761298 0.48351771 165 161 158
0.17796740 0.17909250 0.67857039 144 141 142
0.17914025 0.17909250 0.67857039 141 140 144
0.17995284 0.17873466 0.67721462 146 145 149
0.18040247 0.17802328 0.67451924 163 162 165
0.18066947 0.17714198 0.67118007 168 168 169
0.18147020 0.17679189 0.66985363 171 171 170
0.18262799 0.17679189 0.66985363 173 173 171
0.18360434 0.17661737 0.66919231 174 174 172
0.18530978 0.17714198 0.67118007 176 176 174
0.18665467 0.17731754 0.67184526 176 176 174
0.18800223 0.17749345 0.67251176 175 175 173
0.18879002 0.17714198 0.67118007 176 176 174
0.24819233 0.11927560 0.45192790 152 153 155
0.24897344 0.11927560 0.45192790 153 153 155
0.24942200 0.11911678 0.45132613 156 156 157
0.25020209 0.11911678 0.45132613 158 158 157
0.25165233 0.11943485 0.45253128 159 158 157
0.25209793 0.11927560 0.45192790 165 161 161
0.25321668 0.11943485 0.45253128 170 166 165
0.25573388 0.11951463 0.45283356 177 172 169
1.01180816 0.44176149 1.67380702 139 140 133
1.00724006 0.43851325 1.66149962 141 141 135
1.00518453 0.43637416 1.65339470 137 136 132
1.01050687 0.43744108 1.65743732 125 123 121
1.01090002 0.43637416 1.65339470 116 114 114
1.01623642 0.43744108 1.65743732 116 114 116
1.01910114 0.43744108 1.65743732 115 112 119
1.01947331 0.43637416 1.65339470 115 112 120
1.01736832 0.43425584 1.64536858 118 116 123
1.01528358 0.43215796 1.63741994 125 123 131
1.01566052 0.43111664 1.63347435 132 131 134
1.01848376 0.43111664 1.63347435 142 142 144
1.01885211 0.43008029 1.62954772 154 154 154
1.02166855 0.43008029 1.62954772 160 160 159
0.40190926 0.12927268 0.48980623 144 144 140
0.40217468 0.12908615 0.48909944 139 139 135
0.40302005 0.12908615 0.48909944 131 131 128
0.40357423 0.12899308 0.48874682 139 139 136
0.55600643 0.17023160 0.64499700 171 168 158
0.55343521 0.16910529 0.64072955 170 167 157
0.55245399 0.16846836 0.63831621 166 165 154
0.64595050 0.17404027 0.65942788 161 163 156
0.64458215 0.17336570 0.65687191 163 165 158
0.64013493 0.17186686 0.65119290 163 165 158
-0.48631281 0.32043609 1.20621324 129 133 132
-0.48336789 0.31986693 1.20407081 121 124 124
-0.48128676 0.31986693 1.20407081 114 117 116
-0.48263463 0.32215577 1.21268666 105 108 109
-0.48053861 0.32215577 1.21268666 103 107 108
-0.47673690 0.32100728 1.20836341 121 123 124
-0.01657802 0.12575774 0.47338817 201 201 194
-0.01574881 0.12566999 0.47305781 201 201 194
-0.01491036 0.12549482 0.47239849 202 200 193
-0.01410368 0.12558234 0.47272792 203 200 194
-0.01330517 0.12575774 0.47338817 203 200 194
-0.01248695 0.12575774 0.47338817 200 197 191
-0.01166060 0.12566999 0.47305781 192 188 185
-0.01084295 0.12566999 0.47305781 189 185 182
-0.01003932 0.12584563 0.47371897 183 182 180
-0.00922699 0.12593362 0.47405025 183 182 180
-0.00841940 0.12611000 0.47471419 183 182 180
-0.00758827 0.12593362 0.47405025 183 183 181
-0.00675946 0.12575774 0.47338817 178 179 175
-0.00593710 0.12566999 0.47305781 179 180 176
-0.00434426 0.12690985 0.47772506 177 177 174
-0.00352850 0.12726861 0.47907552 177 177 174
-0.00271388 0.12790133 0.48145726 179 179 175
-0.00188306 0.12799224 0.48179945 181 180 176
-0.00104881 0.12781057 0.48111558 184 181 176
-0.00021694 0.12762940 0.48043361 186 183 177
0.00061651 0.12826572 0.48282894 185 182 176
0.00145311 0.12844871 0.48351771 181 176 171
0.09127939 0.21670888 0.81575429 126 126 126
0.09213500 0.21541278 0.81087542 123 122 122
0.09320208 0.21464252 0.80797595 144 140 141
0.09448598 0.21438700 0.80701411 161 153 154
0.09542643 0.21337095 0.80318940 164 157 156
0.09647176 0.21261521 0.80034459 164 158 156
0.09890604 0.21489866 0.80894017 149 143 142
0.10030423 0.21489866 0.80894017 140 134 136
0.10158120 0.21464252 0.80797595 133 127 131
0.10261082 0.21387777 0.80509722 126 125 132
0.10412603 0.21413209 0.80605453 122 122 127
0.10403478 0.21111967 0.79471493 129 129 133
0.10479411 0.20988937 0.79008371 128 129 133
0.10517902 0.20795044 0.78278506 129 130 134
0.10604220 0.20699434 0.77918601 128 129 132
0.10957867 0.20604700 0.77561998 131 131 133
0.11066602 0.20557658 0.77384913 137 137 139
0.07295776 0.12927860 0.48664168 145 144 143
0.07353494 0.12881622 0.48490116 162 160 158
0.07626750 0.12918586 0.48629257 180 172 168
0.07694243 0.12890844 0.48524827 179 171 167
0.17995284 0.17990518 0.67721462 153 153 153
0.18058215 0.17936762 0.67519110 158 158 158
0.18120770 0.17883325 0.67317957 161 161 161
0.18200976 0.17847878 0.67184526 165 165 165
0.18298963 0.17830206 0.67118007 165 165 165
0.18414971 0.17830206 0.67118007 165 165 165
0.18586186 0.17883325 0.67317957 165 165 164
0.18721130 0.17901102 0.67384875 173 172 172
0.18856344 0.17918913 0.67451924 172 171 169
0.24852370 0.12021701 0.45253128 163 164 166
0.24930586 0.12021701 0.45253128 163 163 165
0.24992119 0.12013681 0.45222938 157 157 159
0.25087017 0.12021701 0.45253128 152 152 152
0.25182045 0.12029731 0.45283356 155 155 155
0.25226611 0.12013681 0.45222938 161 157 158
0.25338581 0.12029731 0.45283356 163 159 160
0.25433841 0.12037773 0.45313627 164 162 162
0.25512162 0.12037773 0.45313627 167 164 164
0.25590482 0.12037773 0.45313627 167 165 162
0.25685972 0.12045825 0.45343935 170 167 164
0.25764346 0.12045825 0.45343935 174 171 166
1.00232673 0.43923190 1.65339470 140 139 134
1.00030494 0.43709973 1.64536858 136 132 129
1.00558960 0.43816322 1.64937186 123 120 117
1.00844038 0.43816322 1.64937186 119 115 114
1.01129127 0.43816322 1.64937186 116 112 112
1.01414204 0.43816322 1.64937186 122 114 123
1.01452434 0.43709973 1.64536858 121 114 123
1.01245344 0.43498811 1.63741994 120 117 126
1.00797939 0.43185872 1.62563992 118 116 124
1.00837100 0.43082556 1.62175083 139 138 141
1.01603556 0.43289682 1.62954772 154 153 153
1.01640880 0.43185872 1.62563992 159 159 158
1.02166855 0.43289682 1.62954772 164 164 162
0.40219986 0.13021336 0.49016041 141 141 139
0.40246505 0.13002533 0.48945260 137 137 135
0.40331104 0.13002533 0.48945260 127 127 125
0.40357423 0.12983784 0.48874682 131 131 129
0.55495042 0.17102097 0.64377195 173 173 163
0.55187035 0.16973147 0.63891786 174 173 163
0.64532274 0.17500980 0.65878701 157 159 152
0.64395821 0.17433213 0.65623605 162 164 158
0.63890749 0.17266068 0.64994425 162 164 158
-0.48979893 0.32483292 1.21485996 137 141 140
-0.48509112 0.32309583 1.20836341 123 127 127
-0.48386508 0.32367280 1.21052110 113 117 118
-0.48436761 0.32541609 1.21704102 106 111 111
-0.48226404 0.32541609 1.21704102 114 120 120
-0.47844258 0.32425180 1.21268666 124 128 129
-0.47380376 0.32252094 1.20621324 130 134 135
-0.01657802 0.12657595 0.47338817 201 201 194
-0.01575981 0.12657595 0.47338817 202 202 195
-0.01491036 0.12631133 0.47239849 202 202 195
-0.01410368 0.12639941 0.47272792 201 201 194
-0.01331446 0.12666440 0.47371897 201 201 194
-0.01249568 0.12666440 0.47371897 197 194 186
-0.01166060 0.12648763 0.47305781 190 187 182
-0.01084295 0.12648763 0.47305781 185 181 178
-0.01003231 0.12657595 0.47338817 181 180 177
-0.00922054 0.12666440 0.47371897 182 181 179
-0.00841351 0.12684168 0.47438198 183 182 179
-0.00758297 0.12666440 0.47371897 183 183 178
-0.00676418 0.12666440 0.47371897 180 181 175
-0.00594125 0.12657595 0.47338817 180 180 175
-0.00514820 0.12719773 0.47571358 179 179 175
-0.00435039 0.12791586 0.47839934 178 178 174
-0.00352850 0.12809666 0.47907552 179 178 174
-0.00271003 0.12855090 0.48077434 179 178 174
-0.00187905 0.12855090 0.48077434 179 175 172
-0.00104733 0.12845980 0.48043361 177 172 165
-0.00021663 0.12827796 0.47975361 176 170 163
0.00061651 0.12910026 0.48282894 173 168 161
0.00145311 0.12928443 0.48351771 170 165 160
0.00228720 0.12919228 0.48317310 168 163 160
0.00312455 0.12928443 0.48351771 165 160 159
0.00396877 0.12956166 0.48455456 162 159 158
0.00479942 0.12937671 0.48386285 162 155 156
0.00561171 0.12882499 0.48179945 160 151 154
0.09213500 0.21681431 0.81087542 141 139 140
0.09320208 0.21603905 0.80797595 153 151 151
0.09448598 0.21578185 0.80701411 165 162 160
0.09553962 0.21501395 0.80414218 167 164 161
0.09670009 0.21450505 0.80223888 170 167 162
0.09890604 0.21629685 0.80894017 155 150 146
0.10030423 0.21629685 0.80894017 151 147 145
0.10158120 0.21603905 0.80797595 131 127 128
0.10412603 0.21552528 0.80605453 119 119 123
0.10452493 0.21349442 0.79845917 127 128 132
0.10516182 0.21199621 0.79285598 129 130 134
0.18076219 0.18071462 0.67586422 159 159 159
0.18156832 0.18035498 0.67451924 158 158 158
0.18255253 0.18017571 0.67384875 157 157 157
0.18371722 0.18017571 0.67384875 158 157 157
0.18506588 0.18035498 0.67451924 162 161 161
0.18795864 0.18089497 0.67653877 172 171 171
0.24840483 0.12132313 0.45374286 174 176 171
0.24902239 0.12124198 0.45343935 172 173 169
0.24963915 0.12116094 0.45313627 170 170 168
0.25025508 0.12108000 0.45283356 164 164 162
0.25120556 0.12116094 0.45313627 159 159 159
0.25198877 0.12116094 0.45313627 158 158 158
0.25243452 0.12099917 0.45253128 157 156 156
0.25355521 0.12116094 0.45313627 157 155 155
0.25450853 0.12124198 0.45343935 157 156 156
0.25529227 0.12124198 0.45343935 153 152 152
0.25607601 0.12124198 0.45343935 153 152 152
0.25685972 0.12124198 0.45343935 153 152 152
