ply
format ascii 1.0
element vertex 1058
property float x
property float y
property float z
property uchar red
property uchar green
property uchar blue
end_header
0.33837563 0.04836714 0.76253301 165 160 160
0.33931193 0.04831279 0.76167625 165 159 160
0.96755564 0.05980304 0.94282591 112 118 118
0.96649683 0.05963716 0.94021058 108 114 114
0.96544379 0.05947218 0.93760973 107 113 113
0.96974695 0.05963716 0.94021058 111 117 117
0.97002667 0.05955455 0.93890840 115 121 122
0.97030556 0.05947218 0.93760973 118 124 126
0.97192615 0.05947218 0.93760973 118 124 126
0.97220206 0.05939004 0.93631470 114 121 122
0.97247720 0.05930812 0.93502325 112 121 119
0.97275156 0.05922643 0.93373531 117 126 124
-0.25902569 0.09837432 1.50978136 134 134 139
-0.25359216 0.09729090 1.49315381 150 151 155
-0.24734098 0.09686419 1.48660493 146 146 149
-0.24423590 0.09665223 1.48335195 130 130 133
-0.24167204 0.09665223 1.48335195 92 95 101
-0.23806633 0.09623109 1.47688854 72 75 83
-0.23551364 0.09623109 1.47688854 84 87 96
-0.23296095 0.09623109 1.47688854 104 106 119
-0.23040828 0.09623109 1.47688854 97 97 109
-0.22785559 0.09623109 1.47688854 126 125 135
-0.22481312 0.09602189 1.47367787 139 138 145
-0.22178385 0.09581360 1.47048128 141 141 148
-0.21971886 0.09602189 1.47367787 124 126 130
-0.21717173 0.09602189 1.47367787 112 116 117
-0.21462460 0.09602189 1.47367787 116 120 121
-0.21207745 0.09602189 1.47367787 125 126 127
-0.20817268 0.09539972 1.46412921 131 130 132
0.13063663 0.04182772 0.64194304 160 159 161
0.13199617 0.04190709 0.64316112 168 167 167
0.13336088 0.04198676 0.64438391 159 160 160
0.13473079 0.04206673 0.64561129 140 141 142
0.13597617 0.04210683 0.64622670 130 131 133
0.13722393 0.04214701 0.64684337 143 144 146
0.13834195 0.04214701 0.64684337 138 138 142
0.13959317 0.04218727 0.64746118 132 133 138
0.14071225 0.04218727 0.64746118 135 134 141
0.14196692 0.04222760 0.64808017 137 136 142
0.14295042 0.04218727 0.64746118 126 125 131
0.14406951 0.04218727 0.64746118 147 147 150
0.14518858 0.04218727 0.64746118 155 155 158
0.14644754 0.04222760 0.64808017 129 129 133
0.14770891 0.04226801 0.64870036 137 137 139
0.14897269 0.04230849 0.64932168 146 146 147
0.15023890 0.04234906 0.64994425 154 154 154
0.15150754 0.04238970 0.65056801 181 181 181
0.15263200 0.04238970 0.65056801 186 186 183
0.52313268 0.09358066 1.43621159 119 118 119
0.52339727 0.09318580 1.43015158 125 124 126
0.53170627 0.09377934 1.43926084 143 140 141
0.53533053 0.09397887 1.44232309 153 149 150
0.53782344 0.09397887 1.44232309 157 154 154
0.53916925 0.09377934 1.43926084 158 156 156
0.54165691 0.09377934 1.43926084 158 157 157
0.54646498 0.09417925 1.44539833 158 158 159
0.54896325 0.09417925 1.44539833 144 145 146
0.32651386 0.04968512 0.76253301 136 130 130
0.32709596 0.04957359 0.76082134 137 131 131
0.32878000 0.04962929 0.76167625 144 138 138
0.33009648 0.04962929 0.76167625 146 140 141
0.33178577 0.04968512 0.76253301 142 136 137
0.33347887 0.04974107 0.76339173 140 134 136
0.33442172 0.04968512 0.76253301 132 126 128
0.33536246 0.04962929 0.76167625 140 134 134
0.33705768 0.04968512 0.76253301 164 158 158
0.33837563 0.04968512 0.76253301 164 158 160
0.33969361 0.04968512 0.76253301 156 150 153
0.34062842 0.04962929 0.76167625 135 130 133
0.34194493 0.04962929 0.76167625 127 126 129
0.96783918 0.06134732 0.94151646 113 121 121
0.96812189 0.06126223 0.94021058 108 114 114
0.97109383 0.06134732 0.94151646 115 121 121
0.97002667 0.06117738 0.93890840 121 127 128
0.97030556 0.06109276 0.93760973 128 134 136
0.97192615 0.06109276 0.93760973 131 137 139
0.97489512 0.06117738 0.93890840 123 130 130
-0.25527903 0.10053603 1.50308609 147 148 150
-0.25156549 0.10009217 1.49644995 132 133 138
-0.24843058 0.09987170 1.49315381 100 99 107
-0.24477150 0.09943366 1.48660493 105 104 113
-0.24220203 0.09943366 1.48660493 123 126 134
-0.23858611 0.09899946 1.48011315 132 133 139
-0.23602787 0.09899946 1.48011315 137 138 144
-0.23346961 0.09899946 1.48011315 138 140 146
-0.23091136 0.09899946 1.48011315 132 131 138
-0.22785559 0.09878377 1.47688854 130 128 135
-0.22530292 0.09878377 1.47688854 129 129 133
-0.22226599 0.09856902 1.47367787 135 136 138
-0.22019754 0.09878377 1.47688854 149 150 150
-0.21764487 0.09878377 1.47688854 157 158 158
-0.21253951 0.09878377 1.47688854 141 140 142
-0.20862328 0.09814232 1.46729839 132 130 133
0.13336088 0.04310052 0.64438391 155 157 158
0.13460259 0.04314153 0.64499700 133 136 137
0.13597617 0.04322378 0.64622670 138 141 142
0.13709313 0.04322378 0.64622670 139 142 143
0.13821007 0.04322378 0.64622670 135 137 140
0.13945997 0.04326503 0.64684337 132 132 139
0.14057799 0.04326503 0.64684337 127 126 133
0.14183134 0.04330635 0.64746118 138 137 144
0.14281401 0.04326503 0.64684337 138 137 144
0.14393203 0.04326503 0.64684337 140 139 146
0.14505005 0.04326503 0.64684337 148 147 154
0.14756770 0.04334775 0.64808017 130 130 132
0.14883015 0.04338923 0.64870036 154 154 156
0.15121730 0.04343079 0.64932168 171 172 172
0.52010548 0.09505608 1.42115688 160 161 160
0.53668159 0.09626698 1.43926084 141 140 140
0.53802693 0.09606303 1.43621159 138 137 137
0.54050928 0.09606303 1.43621159 132 131 131
0.54530227 0.09647181 1.44232309 147 146 146
0.32519588 0.05100309 0.76253301 154 150 151
0.32651386 0.05100309 0.76253301 148 144 145
0.32709596 0.05088861 0.76082134 152 147 149
0.32878000 0.05094578 0.76167625 156 151 153
0.33009648 0.05094578 0.76167625 137 132 134
0.33178577 0.05100309 0.76253301 127 122 123
0.33310375 0.05100309 0.76253301 131 126 127
0.33442172 0.05100309 0.76253301 139 134 135
0.33536246 0.05094578 0.76167625 143 138 138
0.33705768 0.05100309 0.76253301 151 146 146
0.33837563 0.05100309 0.76253301 151 147 149
0.33969361 0.05100309 0.76253301 149 147 149
0.34062842 0.05094578 0.76167625 147 147 149
0.34194493 0.05094578 0.76167625 151 151 153
0.96649683 0.06288731 0.94021058 135 143 144
0.96812189 0.06288731 0.94021058 138 143 143
0.96974695 0.06288731 0.94021058 138 143 143
0.97002667 0.06280021 0.93890840 137 142 142
0.97030556 0.06271335 0.93760973 138 142 141
0.97192615 0.06271335 0.93760973 139 142 141
0.97354674 0.06271335 0.93760973 135 139 138
-0.27418208 0.10643806 1.55123997 127 127 136
-0.26638144 0.10547263 1.53716969 136 136 140
-0.26135400 0.10452457 1.52335250 144 144 147
-0.25641614 0.10359339 1.50978136 129 129 131
-0.25268108 0.10313399 1.50308609 112 112 124
-0.24897900 0.10267866 1.49644995 96 97 110
-0.24530946 0.10222732 1.48987222 126 127 140
-0.24273434 0.10222732 1.48987222 140 143 153
-0.23910819 0.10177994 1.48335195 150 151 156
-0.23602787 0.10155771 1.48011315 154 154 158
-0.23346961 0.10155771 1.48011315 146 146 148
-0.23091136 0.10155771 1.48011315 136 135 139
-0.22785559 0.10133645 1.47688854 129 128 132
-0.22481312 0.10111616 1.47367787 111 110 115
-0.22178385 0.10089681 1.47048128 121 122 125
-0.21971886 0.10111616 1.47367787 147 148 150
-0.21670064 0.10089681 1.47048128 150 151 153
0.13460259 0.04425636 0.64499700 97 98 100
0.13597617 0.04434074 0.64622670 113 113 120
0.13709313 0.04434074 0.64622670 135 137 143
0.13821007 0.04434074 0.64622670 151 153 158
0.13945997 0.04438305 0.64684337 155 156 158
0.14057799 0.04438305 0.64684337 147 147 152
0.14183134 0.04442544 0.64746118 130 130 136
0.14281401 0.04438305 0.64684337 120 120 125
0.14379482 0.04434074 0.64622670 133 131 140
0.14505005 0.04438305 0.64684337 138 136 145
0.14756770 0.04446791 0.64808017 128 127 133
0.14868785 0.04446791 0.64808017 146 146 151
0.14980800 0.04446791 0.64808017 152 153 155
0.15107259 0.04451046 0.64870036 144 144 146
0.51901740 0.09730843 1.41818380 153 154 154
0.51929581 0.09690298 1.41227472 148 149 149
0.52612114 0.09771729 1.42414248 150 150 150
0.53802693 0.09854540 1.43621159 161 160 161
0.54050928 0.09854540 1.43621159 143 143 147
0.54414451 0.09875463 1.43926084 148 148 152
0.32651386 0.05232107 0.76253301 134 131 131
0.32746348 0.05226228 0.76167625 140 138 138
0.32914981 0.05232107 0.76253301 160 160 160
0.33046779 0.05232107 0.76253301 163 162 161
0.33178577 0.05232107 0.76253301 158 158 155
0.33310375 0.05232107 0.76253301 156 156 151
0.33442172 0.05232107 0.76253301 154 153 147
0.33536246 0.05226228 0.76167625 153 151 146
0.33705768 0.05232107 0.76253301 146 145 140
0.33799544 0.05226228 0.76167625 140 139 138
0.33931193 0.05226228 0.76167625 153 153 153
0.34062842 0.05226228 0.76167625 162 163 165
0.34194493 0.05226228 0.76167625 167 168 168
0.34287617 0.05220363 0.76082134 164 165 164
0.96918523 0.06469183 0.94282591 124 129 129
0.97081488 0.06469183 0.94282591 125 126 128
0.97244447 0.06469183 0.94282591 117 118 120
0.97137207 0.06451239 0.94021058 113 115 116
0.97164947 0.06442303 0.93890840 117 118 118
0.97327232 0.06442303 0.93890840 123 124 124
0.97624725 0.06451239 0.94021058 129 130 130
0.97787237 0.06451239 0.94021058 133 134 134
0.97976363 0.06442303 0.93890840 138 139 139
-0.27355611 0.10887012 1.54769826 112 111 120
-0.26903829 0.10812951 1.53716969 119 118 127
-0.26577875 0.10788487 1.53369200 126 126 130
-0.26135400 0.10715756 1.52335250 128 128 132
-0.25641614 0.10620292 1.50978136 116 116 120
-0.25324258 0.10596692 1.50642633 122 121 132
-0.24952984 0.10549804 1.49976075 118 117 129
-0.24584979 0.10503329 1.49315381 116 115 129
-0.24326900 0.10503329 1.49315381 126 125 136
-0.23910819 0.10434379 1.48335195 126 126 132
-0.23654434 0.10434379 1.48335195 132 132 136
-0.23449360 0.10457262 1.48660493 132 132 136
-0.23192412 0.10457262 1.48660493 132 131 135
-0.22835310 0.10411596 1.48011315 127 127 131
-0.22530292 0.10388914 1.47688854 115 114 121
-0.22178385 0.10343842 1.47048128 123 122 129
-0.21924224 0.10343842 1.47048128 133 133 139
-0.21623158 0.10321453 1.46729839 131 131 138
0.13460259 0.04537118 0.64499700 159 160 162
0.13597617 0.04545769 0.64622670 152 153 158
0.13834195 0.04550106 0.64684337 144 144 150
0.14057799 0.04550106 0.64684337 170 170 171
0.14183134 0.04554452 0.64746118 172 173 173
0.14267787 0.04545769 0.64622670 157 156 156
0.14379482 0.04545769 0.64622670 140 135 142
0.14491178 0.04545769 0.64622670 143 139 147
0.52092534 0.10060150 1.43015158 132 135 135
0.52119809 0.10017881 1.42414248 119 122 121
0.52365965 0.10017881 1.42414248 115 115 115
0.52834105 0.10060150 1.43015158 133 133 133
0.53802693 0.10102778 1.43621159 138 137 137
0.54050928 0.10102778 1.43621159 133 133 136
0.54414451 0.10124227 1.43926084 146 146 149
0.32725009 0.05375999 0.76425236 133 133 134
0.32783183 0.05363905 0.76253301 161 161 162
0.32952049 0.05369945 0.76339173 176 176 178
0.33046779 0.05363905 0.76253301 185 185 184
0.33178577 0.05363905 0.76253301 186 187 179
0.33347887 0.05369945 0.76339173 186 187 176
0.33442172 0.05363905 0.76253301 187 188 174
0.33705768 0.05363905 0.76253301 183 183 174
0.33837563 0.05363905 0.76253301 164 164 162
0.33969361 0.05363905 0.76253301 159 159 157
0.34101158 0.05363905 0.76253301 159 160 158
0.34194493 0.05357878 0.76167625 166 166 164
0.34287617 0.05351865 0.76082134 165 165 163
0.96918523 0.06632143 0.94282591 113 117 116
0.97081488 0.06632143 0.94282591 121 125 126
0.97379881 0.06641380 0.94413906 116 120 120
0.97272116 0.06622932 0.94151646 112 115 116
0.97299713 0.06613746 0.94021058 121 123 122
0.97597581 0.06622932 0.94151646 130 131 131
0.97760320 0.06622932 0.94151646 138 139 139
0.97923052 0.06622932 0.94151646 144 145 145
0.98222202 0.06632143 0.94282591 144 145 145
0.98112249 0.06613746 0.94021058 140 141 141
0.98274761 0.06613746 0.94021058 127 128 128
0.98874044 0.06632143 0.94282591 130 131 131
-0.27418208 0.11180044 1.55123997 109 108 112
-0.26577875 0.11053573 1.53369200 152 153 156
-0.26194263 0.11003783 1.52678347 156 157 160
-0.25814092 0.10954438 1.51993692 149 150 152
-0.25494221 0.10929932 1.51653659 141 142 146
-0.25063887 0.10857065 1.50642633 135 135 140
-0.24693762 0.10809025 1.49976075 132 132 139
-0.24434541 0.10809025 1.49976075 131 130 137
-0.23963255 0.10714209 1.48660493 131 131 136
-0.23706308 0.10714209 1.48660493 134 135 139
-0.23500897 0.10737757 1.48987222 128 128 135
-0.23243384 0.10737757 1.48987222 128 128 135
-0.22885278 0.10690764 1.48335195 129 129 136
-0.22579484 0.10667422 1.48011315 129 129 138
0.13460259 0.04648601 0.64499700 151 152 154
0.13584667 0.04653028 0.64561129 147 148 152
0.14267787 0.04657464 0.64622670 174 173 171
0.14365788 0.04653028 0.64561129 158 157 155
0.14477377 0.04653028 0.64561129 152 151 149
0.14588965 0.04653028 0.64561129 144 144 143
0.51845348 0.10307340 1.43015158 166 167 165
0.52092534 0.10307340 1.43015158 164 165 163
0.52229536 0.10285641 1.42714071 145 146 145
0.52476209 0.10285641 1.42714071 156 156 157
0.52722877 0.10285641 1.42714071 158 159 159
0.53193521 0.10329132 1.43317509 159 160 160
0.53554457 0.10351016 1.43621159 161 161 159
0.53688943 0.10329132 1.43317509 160 160 158
0.53936660 0.10329132 1.43317509 163 163 163
0.54299170 0.10351016 1.43621159 156 156 157
0.32783183 0.05495702 0.76253301 162 162 162
0.32952049 0.05501891 0.76339173 171 171 172
0.33083993 0.05501891 0.76339173 179 179 179
0.33215940 0.05501891 0.76339173 174 175 169
0.33385482 0.05508094 0.76425236 170 171 162
0.33479834 0.05501891 0.76339173 172 173 160
0.33743724 0.05501891 0.76339173 171 171 164
0.33875668 0.05501891 0.76339173 167 166 163
0.33969361 0.05495702 0.76253301 163 162 159
0.34101158 0.05495702 0.76253301 151 150 149
0.34232956 0.05495702 0.76253301 159 159 158
0.96918523 0.06795103 0.94282591 138 142 139
0.97081488 0.06795103 0.94282591 132 136 134
0.97244447 0.06795103 0.94282591 132 136 135
0.97272116 0.06785665 0.94151646 135 139 137
0.97299713 0.06776255 0.94021058 144 145 143
0.97462219 0.06776255 0.94021058 145 146 144
0.97624725 0.06776255 0.94021058 143 144 142
0.97923052 0.06785665 0.94151646 144 145 145
0.98085785 0.06785665 0.94151646 142 143 143
0.98112249 0.06776255 0.94021058 137 138 138
0.98274761 0.06776255 0.94021058 127 128 128
0.98848563 0.06804568 0.94413906 128 129 129
0.98736721 0.06785665 0.94151646 136 137 137
-0.26253393 0.11293110 1.53022993 148 154 152
-0.25930372 0.11267675 1.52678347 144 148 148
-0.25608802 0.11242354 1.52335250 143 144 147
-0.25232100 0.11192053 1.51653659 139 140 142
-0.24858753 0.11142199 1.50978136 144 145 147
-0.24543139 0.11117439 1.50642633 141 142 146
-0.24068820 0.11019488 1.49315381 133 135 138
-0.23810740 0.11019488 1.49315381 129 131 135
-0.23604654 0.11043813 1.49644995 127 130 135
-0.23294581 0.11019488 1.49315381 127 129 135
0.13584667 0.04764616 0.64561129 123 122 128
0.14365788 0.04764616 0.64561129 146 145 145
0.14463602 0.04760083 0.64499700 146 145 145
0.14588965 0.04764616 0.64561129 155 150 150
0.14700554 0.04764616 0.64561129 149 143 144
0.52092534 0.10554530 1.43015158 178 179 177
0.52229536 0.10532311 1.42714071 177 178 176
0.52476209 0.10532311 1.42714071 177 178 176
0.52722877 0.10532311 1.42714071 177 178 176
0.53193521 0.10576844 1.43317509 181 182 178
0.53441232 0.10576844 1.43317509 187 188 182
0.53575677 0.10554530 1.43015158 187 187 180
0.53822869 0.10554530 1.43015158 183 183 179
0.54184371 0.10576844 1.43317509 171 171 168
0.54547405 0.10599253 1.43621159 153 153 152
0.33385482 0.05640189 0.76425236 162 162 160
0.33743724 0.05633837 0.76339173 158 155 153
0.33875668 0.05633837 0.76339173 161 157 156
0.34007615 0.05633837 0.76339173 158 155 154
0.34139562 0.05633837 0.76339173 142 138 139
0.34232956 0.05627500 0.76253301 144 141 143
0.34403452 0.05633837 0.76339173 147 146 148
0.96918523 0.06958063 0.94282591 166 170 167
0.97081488 0.06958063 0.94282591 163 166 163
0.97244447 0.06958063 0.94282591 159 162 159
0.97272116 0.06948400 0.94151646 155 158 155
0.97434849 0.06948400 0.94151646 151 152 150
0.97597581 0.06948400 0.94151646 144 144 142
0.97624725 0.06938762 0.94021058 134 134 132
0.97923052 0.06948400 0.94151646 134 135 134
0.98085785 0.06948400 0.94151646 137 137 137
0.97976363 0.06929152 0.93890840 142 142 142
0.98274761 0.06938762 0.94021058 137 138 137
0.98711085 0.06958063 0.94282591 141 142 142
0.98736721 0.06948400 0.94151646 152 153 152
0.98489082 0.06919568 0.93760973 162 163 160
0.98651141 0.06919568 0.93760973 159 161 156
0.98813200 0.06919568 0.93760973 148 149 144
0.98975253 0.06919568 0.93760973 153 154 150
0.52202672 0.10824557 1.43317509 171 171 170
0.52229536 0.10778980 1.42714071 174 174 174
0.52476209 0.10778980 1.42714071 177 177 177
0.52834105 0.10801721 1.43015158 178 178 177
0.53193521 0.10824557 1.43317509 181 181 175
0.53441232 0.10824557 1.43317509 180 178 173
0.53575677 0.10801721 1.43015158 179 176 170
0.53822869 0.10801721 1.43015158 174 174 170
0.54070055 0.10801721 1.43015158 165 165 162
0.32746348 0.05752826 0.76167625 138 137 138
0.32878000 0.05752826 0.76167625 148 148 148
0.33046779 0.05759298 0.76253301 157 157 157
0.33178577 0.05759298 0.76253301 163 163 163
0.33385482 0.05772284 0.76425236 159 159 159
0.33743724 0.05765783 0.76339173 154 150 151
0.33875668 0.05765783 0.76339173 161 157 158
0.34007615 0.05765783 0.76339173 160 156 157
0.34139562 0.05765783 0.76339173 148 144 145
0.34271505 0.05765783 0.76339173 144 140 141
0.97515696 0.07140887 0.94545585 154 155 152
0.97679114 0.07140887 0.94545585 156 157 154
0.97842526 0.07140887 0.94545585 148 149 147
0.98005944 0.07140887 0.94545585 139 140 138
0.98169357 0.07140887 0.94545585 130 130 129
0.98470110 0.07150860 0.94677633 128 129 129
0.98633748 0.07150860 0.94677633 134 135 135
0.98659599 0.07140887 0.94545585 149 150 150
0.98823017 0.07140887 0.94545585 156 157 154
0.99124676 0.07150860 0.94677633 163 164 160
0.99149841 0.07140887 0.94545585 170 171 167
0.99037004 0.07121023 0.94282591 172 174 167
0.99062186 0.07111133 0.94151646 168 170 161
0.99224919 0.07111133 0.94151646 156 158 149
0.99112338 0.07091434 0.93890840 155 155 148
0.19015992 0.07816692 1.01177883 113 112 123
0.51982868 0.11025650 1.42714071 170 170 170
0.52119809 0.11002487 1.42414248 173 173 171
0.52365965 0.11002487 1.42414248 174 174 169
0.52722877 0.11025650 1.42714071 172 172 167
0.53193521 0.11072270 1.43317509 164 163 159
0.53441232 0.11072270 1.43317509 149 148 144
0.53575677 0.11048911 1.43015158 147 146 142
0.53822869 0.11048911 1.43015158 155 156 155
0.32672927 0.05871282 0.75996846 163 163 163
0.32841098 0.05877872 0.76082134 160 160 160
0.32972601 0.05877872 0.76082134 158 158 158
0.33141297 0.05884476 0.76167625 152 152 152
0.33913860 0.05904378 0.76425236 154 151 152
0.34007615 0.05897729 0.76339173 155 152 153
0.97788471 0.07324732 0.94810051 141 142 139
0.97952342 0.07324732 0.94810051 146 146 143
0.98116213 0.07324732 0.94810051 145 145 144
0.98797393 0.07314502 0.94677633 149 150 150
0.99099439 0.07324732 0.94810051 156 157 155
0.99402338 0.07334992 0.94942838 162 163 159
0.99288321 0.07314502 0.94677633 169 169 165
0.99174941 0.07294128 0.94413906 173 174 167
0.99476671 0.07304301 0.94545585 176 177 168
0.99501312 0.07294128 0.94413906 177 178 169
0.99249804 0.07263777 0.94021058 175 175 166
0.18869278 0.08003516 1.01329124 140 140 141
0.18959397 0.07967786 1.00876760 146 145 156
0.19105324 0.07955946 1.00726867 117 117 128
0.51656616 0.11201573 1.41818380 162 162 162
0.51685482 0.11154900 1.41227472 166 166 164
0.51821619 0.11131708 1.40933859 171 170 167
0.52065212 0.11131708 1.40933859 176 175 171
0.52637100 0.11201573 1.41818380 169 169 167
0.53016430 0.11178187 1.41522300 142 142 143
0.32599834 0.05989208 0.75826830 160 160 160
0.32767546 0.05995915 0.75911742 159 159 159
0.32898754 0.05995915 0.75911742 158 158 158
0.98935568 0.07488604 0.94810051 145 146 146
0.99238235 0.07499092 0.94942838 147 147 147
0.99263316 0.07488604 0.94810051 147 147 147
0.99149841 0.07467715 0.94545585 150 150 150
0.99174941 0.07457314 0.94413906 153 153 151
0.99338126 0.07457314 0.94413906 156 157 150
0.99501312 0.07457314 0.94413906 158 158 152
0.99112338 0.07415999 0.93890840 160 160 154
0.18785040 0.08142143 1.00876760 141 140 140
0.18875133 0.08105955 1.00428426 138 137 139
0.19048715 0.08105955 1.00428426 136 136 138
0.20263793 0.08105955 1.00428426 141 145 147
0.51578027 0.11375301 1.40933859 150 150 150
0.51607037 0.11328199 1.40350282 158 156 156
0.52065212 0.11375301 1.40933859 158 156 155
0.52637100 0.11446694 1.41818380 145 145 145
0.53016430 0.11422797 1.41522300 134 134 140
0.32636338 0.06127122 0.75911742 148 148 151
0.32804281 0.06133991 0.75996846 160 160 162
0.32935634 0.06133991 0.75996846 161 161 161
0.98797393 0.07641788 0.94677633 137 137 137
0.99099439 0.07652476 0.94810051 138 138 138
0.99124676 0.07641788 0.94677633 138 138 138
0.98736721 0.07599333 0.94151646 138 138 138
0.98489082 0.07567801 0.93760973 138 138 137
0.98651141 0.07567801 0.93760973 138 138 136
0.98813200 0.07567801 0.93760973 140 140 138
-0.32694143 0.04569655 0.55428606 105 106 106
-0.32598341 0.04569655 0.55428606 102 105 106
-0.32502535 0.04569655 0.55428606 105 110 111
0.18729298 0.08291822 1.00577426 135 134 138
0.20060490 0.08267290 1.00279856 141 142 143
0.20174129 0.08242903 0.99984050 151 152 154
0.51685482 0.11643100 1.41227472 143 143 145
0.32541573 0.06265345 0.75996846 124 125 129
0.32563409 0.06244344 0.75742108 128 132 135
0.32730892 0.06251329 0.75826830 141 144 147
0.32788602 0.06237375 0.75657570 153 154 156
0.99124676 0.07805430 0.94677633 160 160 159
0.98736721 0.07762067 0.94151646 152 152 151
0.98489082 0.07729859 0.93760973 144 144 143
0.98378998 0.07708535 0.93502325 137 137 135
0.98676717 0.07719182 0.93631470 138 138 137
-0.32709712 0.04654042 0.55292970 141 142 142
-0.32694143 0.04665459 0.55428606 131 133 133
-0.32571709 0.04661647 0.55383319 122 127 127
-0.32502535 0.04665459 0.55428606 117 124 124
0.18729298 0.08465662 1.00577426 136 136 140
0.19857790 0.08428148 1.00131738 137 138 138
0.20030859 0.08428148 1.00131738 133 134 134
0.20144418 0.08403323 0.99836797 137 138 139
0.20287099 0.08390965 0.99689978 129 130 134
0.20834658 0.08403323 0.99836797 107 106 113
0.21007217 0.08403323 0.99836797 110 109 116
0.51471019 0.11837876 1.40641463 126 125 132
0.32446593 0.06403879 0.76082134 121 123 126
0.32541573 0.06396700 0.75996846 131 133 137
0.32563409 0.06375258 0.75742108 141 145 147
0.32694322 0.06375258 0.75742108 145 149 151
0.32679185 0.06346893 0.75405097 144 148 149
0.99124676 0.07969073 0.94677633 177 179 174
0.98874044 0.07935822 0.94282591 174 175 170
0.98625493 0.07902848 0.93890840 167 168 163
-0.32736415 0.04753489 0.55338109 137 141 141
-0.32694143 0.04761263 0.55428606 129 133 133
-0.32598341 0.04761263 0.55428606 121 128 127
-0.32502535 0.04761263 0.55428606 120 129 128
0.18673885 0.08613941 1.00279856 127 127 134
0.18791614 0.08588532 0.99984050 129 128 134
0.18964429 0.08588532 0.99984050 124 124 130
0.19109058 0.08575883 0.99836797 113 113 117
0.19482872 0.08588532 0.99984050 102 103 105
0.19684720 0.08601218 1.00131738 114 115 116
0.19828501 0.08588532 0.99984050 117 117 118
0.20001315 0.08588532 0.99984050 114 114 116
0.20144418 0.08575883 0.99836797 127 127 131
0.20287099 0.08563271 0.99689978 130 129 137
0.20834658 0.08575883 0.99836797 140 136 141
0.21007217 0.08575883 0.99836797 141 137 142
0.32505131 0.06520744 0.75911742 129 131 135
0.32527065 0.06498911 0.75657570 142 143 148
0.32657835 0.06498911 0.75657570 140 141 146
0.32642874 0.06470027 0.75321317 138 139 140
0.99263316 0.08144090 0.94810051 165 169 161
0.99149841 0.08121373 0.94545585 170 172 164
-0.32832062 0.04849137 0.55338109 133 137 138
-0.32736415 0.04849137 0.55338109 131 135 136
-0.32694143 0.04857067 0.55428606 128 132 133
-0.32598341 0.04857067 0.55428606 122 130 129
-0.32502535 0.04857067 0.55428606 121 130 129
-0.32380256 0.04853098 0.55383319 122 131 130
-0.32310930 0.04857067 0.55428606 123 131 130
0.18673885 0.08787267 1.00279856 115 117 127
0.18791614 0.08761346 0.99984050 119 120 130
0.18936498 0.08748443 0.99836797 122 122 132
0.19109058 0.08748443 0.99836797 121 121 130
0.19310057 0.08761346 0.99984050 122 122 131
0.19482872 0.08761346 0.99984050 124 124 132
0.19684720 0.08774287 1.00131738 117 118 122
0.19828501 0.08761346 0.99984050 110 111 115
0.20030859 0.08774287 1.00131738 112 112 117
0.20174129 0.08761346 0.99984050 125 124 133
0.20316978 0.08748443 0.99836797 131 131 142
0.20662098 0.08748443 0.99836797 134 133 142
0.20834658 0.08748443 0.99836797 139 139 145
0.21007217 0.08748443 0.99836797 152 151 155
0.21179777 0.08748443 0.99836797 163 161 161
0.21352336 0.08748443 0.99836797 178 178 177
0.32541573 0.06659409 0.75996846 120 120 124
0.32563409 0.06637087 0.75742108 119 119 125
0.32694322 0.06637087 0.75742108 123 122 129
0.32679185 0.06607556 0.75405097 125 124 128
0.99566442 0.08319597 0.94942838 168 170 161
-0.33035579 0.04960983 0.55519396 132 135 137
-0.32858884 0.04948824 0.55383319 134 135 137
-0.32763159 0.04948824 0.55383319 135 138 140
-0.32720900 0.04956923 0.55473965 130 134 135
-0.32598341 0.04952870 0.55428606 126 130 131
-0.32502535 0.04952870 0.55428606 123 126 127
-0.32406732 0.04952870 0.55428606 122 126 127
-0.32310930 0.04952870 0.55428606 125 129 130
-0.32188806 0.04948824 0.55383319 128 131 132
0.18701550 0.08973867 1.00428426 111 111 122
0.18847211 0.08960593 1.00279856 109 110 122
0.18992442 0.08947357 1.00131738 112 114 127
0.19137244 0.08934160 0.99984050 117 117 128
0.19338581 0.08947357 1.00131738 122 122 132
0.19511651 0.08947357 1.00131738 122 122 131
0.19713840 0.08960593 1.00279856 106 107 111
0.19857790 0.08947357 1.00131738 108 108 113
0.20060490 0.08960593 1.00279856 110 110 116
0.20174129 0.08934160 0.99984050 117 117 127
0.20316978 0.08921002 0.99836797 121 120 133
0.20459406 0.08907883 0.99689978 127 127 140
0.20662098 0.08921002 0.99836797 130 130 141
0.20865387 0.08934160 0.99984050 136 135 143
0.21007217 0.08921002 0.99836797 145 145 151
0.21179777 0.08921002 0.99836797 151 151 155
0.32563409 0.06768001 0.75742108 130 126 132
0.32642874 0.06730401 0.75321317 130 125 133
-0.33035579 0.05056944 0.55519396 114 116 116
-0.32885751 0.05048674 0.55428606 115 117 117
-0.32789949 0.05048674 0.55428606 115 116 118
-0.32720900 0.05052806 0.55473965 114 115 117
-0.32625017 0.05052806 0.55473965 113 114 116
-0.32502535 0.05048674 0.55428606 113 114 115
-0.32406732 0.05048674 0.55428606 116 117 118
-0.32310930 0.05048674 0.55428606 121 122 123
-0.32215124 0.05048674 0.55428606 125 126 128
-0.32066882 0.05040431 0.55338109 127 128 130
0.18785040 0.09188287 1.00876760 113 113 123
0.18903138 0.09161022 1.00577426 111 112 123
0.19048715 0.09147450 1.00428426 110 112 125
0.19193862 0.09133918 1.00279856 108 110 120
0.19395880 0.09147450 1.00428426 123 124 133
0.19540514 0.09133918 1.00279856 131 131 139
0.19743045 0.09147450 1.00428426 128 128 134
0.19916627 0.09147450 1.00428426 114 114 121
0.20060490 0.09133918 1.00279856 109 109 116
0.20174129 0.09106974 0.99984050 116 115 129
0.20346944 0.09106974 0.99984050 125 124 138
0.20489538 0.09093562 0.99836797 134 133 147
0.20865387 0.09106974 0.99984050 136 135 142
0.21007217 0.09093562 0.99836797 137 137 143
-0.33008546 0.05148688 0.55473965 97 101 102
-0.32858884 0.05140275 0.55383319 97 101 102
-0.32763159 0.05140275 0.55383319 95 97 99
-0.32694143 0.05144478 0.55428606 97 98 101
-0.32598341 0.05144478 0.55428606 97 98 101
-0.32475981 0.05140275 0.55383319 98 98 102
-0.32406732 0.05144478 0.55428606 104 105 108
-0.32310930 0.05144478 0.55428606 110 110 114
-0.32188806 0.05140275 0.55383319 113 114 119
-0.32066882 0.05136079 0.55338109 116 119 124
0.18931225 0.09348732 1.00726867 100 104 114
0.19076978 0.09334861 1.00577426 107 111 121
0.19222298 0.09321032 1.00428426 120 123 131
0.19395880 0.09321032 1.00428426 124 125 134
0.19569463 0.09321032 1.00428426 120 120 129
0.19743045 0.09321032 1.00428426 126 126 136
0.19916627 0.09321032 1.00428426 117 116 129
0.20060490 0.09307244 1.00279856 113 112 128
0.20174129 0.09279789 0.99984050 117 116 131
0.20346944 0.09279789 0.99984050 131 130 143
0.20865387 0.09279789 0.99984050 132 133 137
0.21007217 0.09266122 0.99836797 132 132 136
-0.32954609 0.05236001 0.55383319 131 135 136
-0.32805282 0.05227459 0.55292970 135 139 140
-0.32709712 0.05227459 0.55292970 121 125 126
-0.32640767 0.05231727 0.55338109 112 115 117
-0.32545120 0.05231727 0.55338109 111 115 117
-0.32449472 0.05231727 0.55338109 113 117 120
-0.32380256 0.05236001 0.55383319 117 119 122
-0.32284531 0.05236001 0.55383319 122 122 126
-0.32162529 0.05231727 0.55338109 123 124 128
-0.32014611 0.05223199 0.55247909 123 127 129
0.18992442 0.09466565 1.00131738 134 137 146
0.19482872 0.09452603 0.99984050 112 111 120
0.19684720 0.09466565 1.00131738 114 113 127
0.20001315 0.09452603 0.99984050 103 102 118
0.20144418 0.09438682 0.99836797 116 116 125
0.20316978 0.09438682 0.99836797 132 132 139
0.20804018 0.09424801 0.99689978 129 129 136
0.20976324 0.09424801 0.99689978 131 131 138
-0.32927707 0.05327374 0.55338109 155 157 157
-0.32805282 0.05323029 0.55292970 154 156 156
-0.32709712 0.05323029 0.55292970 148 149 149
-0.32640767 0.05327374 0.55338109 146 146 146
-0.32545120 0.05327374 0.55338109 142 144 143
-0.32449472 0.05327374 0.55338109 139 142 141
-0.32353824 0.05327374 0.55338109 137 139 139
-0.32258177 0.05327374 0.55338109 136 137 138
-0.32162529 0.05327374 0.55338109 134 135 135
-0.32014611 0.05318690 0.55247909 130 134 134
-0.31919122 0.05318690 0.55247909 127 131 131
0.20804018 0.09597107 0.99689978 127 128 134
0.20945522 0.09583015 0.99543589 131 131 138
-0.32927707 0.05423021 0.55338109 150 151 151
-0.32805282 0.05418598 0.55292970 137 139 139
-0.32709712 0.05418598 0.55292970 127 128 125
-0.32545120 0.05423021 0.55338109 136 137 133
-0.32449472 0.05423021 0.55338109 144 145 142
-0.32380256 0.05427452 0.55383319 149 151 147
-0.32258177 0.05423021 0.55338109 152 153 148
-0.32162529 0.05423021 0.55338109 144 147 142
-0.31988543 0.05409773 0.55202919 135 139 137
0.20773469 0.09755068 0.99543589 132 137 139
0.20914809 0.09740764 0.99397629 133 138 141
-0.32900849 0.05514167 0.55292970 148 150 149
-0.32805282 0.05514167 0.55292970 140 143 141
-0.32709712 0.05514167 0.55292970 130 132 128
-0.32380256 0.05523178 0.55383319 149 150 145
-0.32284531 0.05523178 0.55383319 155 157 150
-0.32162529 0.05518669 0.55338109 154 156 150
-0.32014611 0.05509673 0.55247909 147 148 146
0.20853655 0.09883580 0.99106997 133 134 136
1.31105173 0.14172682 1.42115688 130 131 129
1.31842077 0.14172682 1.42115688 131 132 132
1.32890534 0.14232357 1.42714071 135 136 136
1.33418083 0.14262383 1.43015158 136 137 137
1.33665276 0.14262383 1.43015158 137 138 138
1.34195578 0.14292535 1.43317509 137 138 138
1.34443295 0.14292535 1.43317509 137 138 138
1.34691012 0.14292535 1.43317509 130 131 131
-0.32969528 0.05605165 0.55247909 148 152 149
-0.32874036 0.05605165 0.55247909 153 155 152
-0.32778546 0.05605165 0.55247909 152 153 150
-0.32380256 0.05618903 0.55383319 139 140 136
-0.32258177 0.05614316 0.55338109 138 138 135
-0.32162529 0.05614316 0.55338109 138 138 136
1.32029009 0.14601991 1.43926084 151 152 150
1.31718457 0.14540248 1.43317509 154 155 153
1.31687760 0.14509572 1.43015158 143 144 142
1.31105173 0.14418317 1.42115688 130 131 129
1.30802369 0.14358115 1.41522300 116 117 115
1.31872904 0.14448608 1.42414248 121 122 122
1.31842077 0.14418317 1.42115688 125 126 126
1.32087708 0.14418317 1.42115688 128 129 129
1.32611358 0.14448608 1.42414248 130 131 131
1.33418083 0.14509572 1.43015158 136 137 137
1.33665276 0.14509572 1.43015158 143 144 144
1.33912468 0.14509572 1.43015158 147 148 148
1.34159660 0.14509572 1.43015158 142 143 143
1.34406853 0.14509572 1.43015158 132 133 133
1.34654033 0.14509572 1.43015158 122 123 123
1.34617221 0.14479026 1.42714071 129 130 130
1.35148418 0.14509572 1.43015158 140 141 141
-0.32996419 0.05705306 0.55292970 148 150 149
-0.32900849 0.05705306 0.55292970 147 148 146
-0.32778546 0.05700656 0.55247909 150 150 148
-0.32709712 0.05705306 0.55292970 153 153 151
1.32029009 0.14850755 1.43926084 150 151 151
1.31718457 0.14787960 1.43317509 151 152 152
1.31687760 0.14756763 1.43015158 144 145 144
1.31105173 0.14663953 1.42115688 134 135 135
1.30802369 0.14602725 1.41522300 127 128 127
1.31872904 0.14694759 1.42414248 134 135 135
1.31842077 0.14663953 1.42115688 140 141 141
1.32087708 0.14663953 1.42115688 139 140 140
1.32611358 0.14694759 1.42414248 131 132 132
1.33418083 0.14756763 1.43015158 135 136 136
1.33665276 0.14756763 1.43015158 149 150 150
1.33912468 0.14756763 1.43015158 152 153 153
1.34159660 0.14756763 1.43015158 150 151 151
1.34406853 0.14756763 1.43015158 142 143 143
1.34654033 0.14756763 1.43015158 135 138 138
1.34334421 0.14694759 1.42414248 138 141 141
1.34863901 0.14725696 1.42714071 145 148 148
-0.32900849 0.05800876 0.55292970 136 139 139
-0.32778546 0.05796148 0.55247909 135 137 137
1.30975318 0.15035674 1.43317509 117 118 120
1.32029009 0.15099519 1.43926084 123 124 124
1.31718457 0.15035674 1.43317509 128 129 129
1.31687760 0.15003952 1.43015158 127 128 128
1.31105173 0.14909588 1.42115688 124 125 125
1.31076014 0.14878397 1.41818380 128 129 129
1.31872904 0.14940910 1.42414248 133 135 136
1.31842077 0.14909588 1.42115688 135 139 140
1.32087708 0.14909588 1.42115688 130 134 135
1.32333350 0.14909588 1.42115688 123 127 128
1.33137202 0.14972365 1.42714071 119 123 124
1.33665276 0.15003952 1.43015158 121 125 125
1.33912468 0.15003952 1.43015158 121 125 125
1.33877218 0.14972365 1.42714071 124 128 127
1.34123886 0.14972365 1.42714071 132 136 135
1.34052789 0.14909588 1.42115688 136 140 139
-0.32874036 0.05891639 0.55247909 132 138 138
-0.32751852 0.05886842 0.55202919 128 134 135
1.30698991 0.15251143 1.43015158 123 127 128
1.30946183 0.15251143 1.43015158 122 126 127
1.31749284 0.15315767 1.43621159 117 121 120
1.31440568 0.15251143 1.43015158 114 118 117
1.31134450 0.15187062 1.42414248 110 114 113
1.30557752 0.15091945 1.41522300 103 107 106
1.30258489 0.15029192 1.40933859 123 127 126
1.31596434 0.15155223 1.42115688 132 139 137
1.31291580 0.15091945 1.41522300 132 143 141
1.31536198 0.15091945 1.41522300 127 138 136
1.32056499 0.15123518 1.41818380 122 130 130
1.32857513 0.15187062 1.42414248 120 124 125
1.33103657 0.15187062 1.42414248 122 126 127
1.33349812 0.15187062 1.42414248 128 132 132
1.33595967 0.15187062 1.42414248 133 137 136
1.33842111 0.15187062 1.42414248 135 139 138
1.33772349 0.15123518 1.41818380 137 141 140
-0.32809094 0.05957996 0.54979062 131 136 139
-0.32740620 0.05962833 0.55023688 127 133 135
-0.32645515 0.05962833 0.55023688 122 128 130
1.29605281 0.15368639 1.41818380 153 157 156
1.30122626 0.15400860 1.42115688 151 155 154
1.31193376 0.15498333 1.43015158 141 145 144
1.30888295 0.15433213 1.42414248 136 140 139
1.30585766 0.15368639 1.41818380 131 136 134
1.30014896 0.15272786 1.40933859 123 131 127
1.29719114 0.15209544 1.40350282 123 132 128
1.31046975 0.15336555 1.41522300 124 134 129
1.30745673 0.15272786 1.40933859 122 134 130
1.30989265 0.15272786 1.40933859 127 140 136
1.31780803 0.15336555 1.41522300 131 143 139
1.32578981 0.15400860 1.42115688 133 144 140
1.32824612 0.15400860 1.42115688 131 142 138
1.33070254 0.15400860 1.42115688 131 140 137
1.33315885 0.15400860 1.42115688 133 139 137
1.33561528 0.15400860 1.42115688 134 140 138
1.33807158 0.15400860 1.42115688 133 139 138
1.33214962 0.15304604 1.41227472 130 136 136
1.33181608 0.15272786 1.40933859 123 129 129
-0.33217612 0.06023711 0.54712820 134 135 137
-0.33123043 0.06023711 0.54712820 136 137 139
-0.33108643 0.06038332 0.54845619 135 137 139
-0.32960513 0.06028577 0.54757017 134 137 140
-0.32945707 0.06043221 0.54890031 136 140 143
-0.32797718 0.06033450 0.54801279 134 137 140
-0.32755959 0.06043221 0.54890031 129 131 134
-0.32661086 0.06043221 0.54890031 129 132 133
-0.32592604 0.06048118 0.54934508 130 134 134
-0.32445070 0.06038332 0.54845619 126 130 130
1.29605281 0.15613762 1.41818380 130 134 135
1.30122626 0.15646495 1.42115688 131 134 135
1.30917180 0.15712374 1.42714071 127 130 131
1.30613899 0.15646495 1.42115688 124 128 129
1.30585766 0.15613762 1.41818380 122 126 127
1.30014896 0.15516378 1.40933859 113 120 119
1.29988241 0.15484187 1.40641463 113 121 120
1.31046975 0.15581165 1.41522300 116 125 124
1.31018066 0.15548705 1.41227472 118 127 126
1.30989265 0.15516378 1.40933859 126 135 134
1.31780803 0.15581165 1.41522300 132 142 140
1.32578981 0.15646495 1.42115688 130 141 137
1.32824612 0.15646495 1.42115688 129 140 136
1.33070254 0.15646495 1.42115688 131 140 137
1.33036983 0.15613762 1.41818380 137 144 142
-0.33271319 0.06128170 0.54801279 127 131 135
-0.33162305 0.06143068 0.54934508 134 139 142
-0.32987159 0.06128170 0.54801279 137 142 144
-0.32919052 0.06133128 0.54845619 139 144 146
-0.32797718 0.06128170 0.54801279 140 144 145
-0.32755959 0.06138094 0.54890031 132 135 137
-0.32687554 0.06143068 0.54934508 130 134 134
-0.32592604 0.06143068 0.54934508 131 135 134
-0.32445070 0.06133128 0.54845619 125 129 129
1.29605281 0.15858883 1.41818380 116 117 119
1.30888295 0.15925516 1.42414248 119 120 122
1.31046975 0.15825774 1.41522300 115 119 120
1.33103657 0.15925516 1.42414248 129 138 137
-0.33162305 0.06238018 0.54934508 131 137 138
-0.32987159 0.06222889 0.54801279 137 142 142
-0.32919052 0.06227924 0.54845619 137 141 142
-0.32797718 0.06222889 0.54801279 137 141 142
-0.32729459 0.06227924 0.54845619 136 141 142
-0.32634664 0.06227924 0.54845619 131 135 136
-0.32539865 0.06227924 0.54845619 123 128 129
-0.32418841 0.06222889 0.54801279 122 127 127
1.29334712 0.16070384 1.41522300 130 131 131
-0.33135453 0.06327840 0.54890031 133 139 139
-0.32960513 0.06312506 0.54757017 138 144 144
-0.32892439 0.06317609 0.54801279 141 147 147
-0.32771227 0.06312506 0.54757017 146 152 152
-0.32703000 0.06317609 0.54801279 149 155 155
-0.32608280 0.06317609 0.54801279 148 153 154
-0.32513562 0.06317609 0.54801279 144 149 150
-0.32418841 0.06317609 0.54801279 140 145 145
1.29605281 0.16349126 1.41818380 135 136 136
-0.32933912 0.06401978 0.54712820 136 141 142
-0.32865870 0.06407149 0.54757017 134 140 141
-0.32744777 0.06401978 0.54712820 131 138 140
-0.32676584 0.06407149 0.54757017 131 139 141
-0.32581940 0.06407149 0.54757017 131 137 139
-0.32487297 0.06407149 0.54757017 134 140 141
-0.32418841 0.06412329 0.54801279 136 141 142
1.30423844 0.16699053 1.42714071 135 136 136
-0.32744777 0.06496544 0.54712820 114 122 127
-0.32676584 0.06501792 0.54757017 112 120 125
-0.32581940 0.06501792 0.54757017 111 118 124
0.63086265 0.10152432 0.80797595 116 120 119
0.63150650 0.10140346 0.80701411 111 117 115
0.63214880 0.10128289 0.80605453 123 129 127
0.63354200 0.10128289 0.80605453 133 139 137
0.63493520 0.10128289 0.80605453 136 142 140
0.63557267 0.10116260 0.80509722 138 144 142
0.63107830 0.10341388 0.81184649 126 130 131
0.63097024 0.10316677 0.80990660 124 128 129
0.63086265 0.10292085 0.80797595 117 121 122
0.63150650 0.10279832 0.80701411 106 112 111
0.63290131 0.10279832 0.80701411 106 112 110
0.63354200 0.10267609 0.80605453 111 117 116
0.63493520 0.10267609 0.80605453 119 125 125
0.63632840 0.10267609 0.80605453 118 124 124
0.49651641 0.06946950 0.54536754 131 130 130
0.62892193 0.10469171 0.81087542 114 118 119
0.63032347 0.10469171 0.81087542 117 121 121
0.63021725 0.10444185 0.80894017 116 120 120
0.63011163 0.10419318 0.80701411 112 116 117
0.63075560 0.10406929 0.80605453 100 105 105
0.63214880 0.10406929 0.80605453 97 103 103
0.63354200 0.10406929 0.80605453 110 116 115
0.63493520 0.10406929 0.80605453 127 134 133
0.63632840 0.10406929 0.80605453 127 134 132
0.49740559 0.07121421 0.55158001 143 143 143
0.49553654 0.07081090 0.54845619 137 137 137
0.49528235 0.07063945 0.54712820 131 131 131
0.49582782 0.07058248 0.54668695 128 127 127
0.49637243 0.07052560 0.54624647 127 126 126
0.49651641 0.07041212 0.54536754 123 122 122
0.49586332 0.07018626 0.54361814 120 119 119
0.62742090 0.10584004 0.80894017 113 117 119
0.62881911 0.10584004 0.80894017 113 117 119
0.62871677 0.10558804 0.80701411 112 116 115
0.62936240 0.10546249 0.80605453 113 117 116
0.63075560 0.10546249 0.80605453 115 120 118
0.63214880 0.10546249 0.80605453 119 125 123
0.63278955 0.10533723 0.80509722 129 135 132
0.63493520 0.10546249 0.80605453 141 148 144
0.63632840 0.10546249 0.80605453 146 153 148
0.49726143 0.07228521 0.55247909 133 137 135
0.49781066 0.07222635 0.55202919 133 133 133
0.49593776 0.07181697 0.54890031 128 128 128
0.49568242 0.07164294 0.54757017 123 124 124
0.49622801 0.07158511 0.54712820 118 118 119
0.49677274 0.07152738 0.54668695 112 112 113
0.49691617 0.07141220 0.54580665 112 111 113
0.49705914 0.07129739 0.54492915 114 113 115
0.05817084 0.15002610 1.13170588 143 143 147
0.06012690 0.15002610 1.13170588 156 157 158
0.62677068 0.10736635 0.80990660 102 106 111
0.62742090 0.10723823 0.80894017 100 105 108
0.62881911 0.10723823 0.80894017 100 106 108
0.62871677 0.10698289 0.80701411 110 114 116
0.62936240 0.10685569 0.80605453 116 120 122
0.63075560 0.10685569 0.80605453 126 130 130
0.63214880 0.10685569 0.80605453 138 142 139
0.63278955 0.10672878 0.80509722 136 140 137
0.63493520 0.10685569 0.80605453 134 137 134
0.63632840 0.10685569 0.80605453 134 137 133
0.63772160 0.10685569 0.80605453 134 137 134
0.49630654 0.07324012 0.55247909 128 132 131
0.49685651 0.07318048 0.55202919 125 128 128
0.49700120 0.07306149 0.55113161 122 124 125
0.49553654 0.07270683 0.54845619 118 120 120
0.49528235 0.07253078 0.54712820 114 116 117
0.49622801 0.07253078 0.54712820 110 113 114
0.49677274 0.07247228 0.54668695 115 117 118
0.49731660 0.07241388 0.54624647 122 124 125
0.49745902 0.07229737 0.54536754 130 133 134
0.05453184 0.15274717 1.13740242 142 142 145
0.05640310 0.15249132 1.13549721 133 134 136
0.05846365 0.15274717 1.13740242 142 142 144
0.06032833 0.15249132 1.13549721 137 138 140
0.06208297 0.15198216 1.13170588 128 129 133
0.06425357 0.15249132 1.13549721 124 125 132
0.06632729 0.15274717 1.13740242 122 122 129
0.06806479 0.15223631 1.13359845 116 114 122
0.62892193 0.10889631 0.81087542 95 99 100
0.62957036 0.10876621 0.80990660 96 101 102
0.62946612 0.10850693 0.80797595 108 111 113
0.63011163 0.10837775 0.80701411 119 121 123
0.63150650 0.10837775 0.80701411 130 131 133
0.63214880 0.10824889 0.80605453 145 145 144
0.63354200 0.10824889 0.80605453 142 143 142
0.63569105 0.10837775 0.80701411 138 138 137
0.63632840 0.10824889 0.80605453 135 136 134
0.49535161 0.07419504 0.55247909 124 129 128
0.49590236 0.07413462 0.55202919 117 122 122
0.49604860 0.07401408 0.55113161 112 117 116
0.49619439 0.07389393 0.55023688 112 117 118
0.49513593 0.07359524 0.54801279 115 120 121
0.49488294 0.07341719 0.54668695 119 124 125
0.49622801 0.07347644 0.54712820 122 128 128
0.49637243 0.07335803 0.54624647 128 134 135
0.49691617 0.07329897 0.54580665 132 139 139
0.49705914 0.07318112 0.54492915 133 140 140
0.49760100 0.07312234 0.54449141 138 145 145
0.49734369 0.07294656 0.54318255 141 148 148
0.49828255 0.07294656 0.54318255 143 150 149
0.05301065 0.15602198 1.14702511 159 163 160
0.05462348 0.15497310 1.13931406 152 153 151
0.05659270 0.15497310 1.13931406 142 143 143
0.05866050 0.15523399 1.14123201 136 137 140
0.06042956 0.15471308 1.13740242 126 127 132
0.06218679 0.15419565 1.13359845 117 117 124
0.06436138 0.15471308 1.13740242 118 118 126
0.06632729 0.15471308 1.13740242 122 122 131
0.06806479 0.15419565 1.13359845 121 120 129
0.07002412 0.15419565 1.13359845 117 117 126
0.13849421 0.15628643 1.14896917 134 133 142
0.14071861 0.15655178 1.15091991 127 126 134
0.14246601 0.15628643 1.14896917 128 127 134
0.14420749 0.15602198 1.14702511 136 133 137
0.14619003 0.15602198 1.14702511 142 141 144
0.14817257 0.15602198 1.14702511 129 128 133
0.62034762 0.10977262 0.80701411 155 159 160
0.62827188 0.11042994 0.81184649 139 144 145
0.62967509 0.11042994 0.81184649 127 131 132
0.63032347 0.11029784 0.81087542 121 125 126
0.63021725 0.11003460 0.80894017 124 126 128
0.63086265 0.10990345 0.80797595 128 128 130
0.63150650 0.10977262 0.80701411 129 129 131
0.63290131 0.10977262 0.80701411 132 132 132
0.63354200 0.10964209 0.80605453 136 136 136
0.63644874 0.10990345 0.80797595 138 138 137
0.49334127 0.07484496 0.55023688 106 111 111
0.49389142 0.07478426 0.54979062 104 109 110
0.49444067 0.07472366 0.54934508 103 108 108
0.49418876 0.07454244 0.54801279 102 107 109
0.49433669 0.07442211 0.54712820 104 109 111
0.49448416 0.07430217 0.54624647 107 112 115
0.49542829 0.07430217 0.54624647 115 121 123
0.49597278 0.07424235 0.54580665 119 125 127
0.49611726 0.07412299 0.54492915 122 128 130
0.49626130 0.07400401 0.54405445 123 132 133
0.49720165 0.07400401 0.54405445 122 131 132
0.49734369 0.07388541 0.54318255 121 130 130
0.49868211 0.07394467 0.54361814 118 127 125
0.49962172 0.07394467 0.54361814 128 137 134
0.05111459 0.15827234 1.14896917 164 164 161
0.05310049 0.15827234 1.14896917 148 148 145
0.05480771 0.15747163 1.14315653 146 147 145
0.05668797 0.15720652 1.14123201 149 150 151
0.05875942 0.15747163 1.14315653 137 138 141
0.06042956 0.15667899 1.13740242 128 130 135
0.06218679 0.15615498 1.13359845 120 123 126
0.06436138 0.15667899 1.13740242 122 122 129
0.06632729 0.15667899 1.13740242 122 122 129
0.06806479 0.15615498 1.13359845 121 122 127
0.07002412 0.15615498 1.13359845 122 123 127
0.13276152 0.15854105 1.15091991 115 115 124
0.13475080 0.15854105 1.15091991 130 130 139
0.13650832 0.15827234 1.14896917 138 138 147
0.13849421 0.15827234 1.14896917 135 134 141
0.14071861 0.15854105 1.15091991 128 127 135
0.14246601 0.15827234 1.14896917 130 129 137
0.14420749 0.15800452 1.14702511 131 130 137
0.14643781 0.15827234 1.14896917 130 129 136
0.14817257 0.15800452 1.14702511 127 126 134
0.15015511 0.15800452 1.14702511 126 125 133
0.30458689 0.06530117 0.47405025 112 118 120
0.30540627 0.06530117 0.47405025 100 108 112
0.30643991 0.06534687 0.47438198 103 112 117
0.62406224 0.11183315 0.81184649 134 138 139
0.62772077 0.11223639 0.81477386 130 134 135
0.62837380 0.11210165 0.81379575 126 130 130
0.63053733 0.11223639 0.81477386 127 131 130
0.63118696 0.11210165 0.81379575 128 132 131
0.63183498 0.11196724 0.81281996 127 131 130
0.63097024 0.11156593 0.80990660 126 129 129
0.63237005 0.11156593 0.80990660 125 126 126
0.63225919 0.11129997 0.80797595 118 119 119
0.63290131 0.11116748 0.80701411 122 122 122
0.63354200 0.11103529 0.80605453 127 127 127
0.63796949 0.11156593 0.80990660 130 130 130
0.49309158 0.07561188 0.54890031 104 106 109
0.49364060 0.07555071 0.54845619 108 110 113
0.49378955 0.07542866 0.54757017 109 111 113
0.49354002 0.07524631 0.54624647 109 111 113
0.49408603 0.07518573 0.54580665 107 110 112
0.49502939 0.07518573 0.54580665 110 114 116
0.49557376 0.07512524 0.54536754 111 116 118
0.49571878 0.07500456 0.54449141 112 117 118
0.49626130 0.07494436 0.54405445 112 118 120
0.49680293 0.07488427 0.54361814 108 115 116
0.49734369 0.07482426 0.54318255 102 109 110
0.49908236 0.07494436 0.54405445 95 102 103
0.50042433 0.07500456 0.54449141 102 109 109
0.04879786 0.15917905 1.14123201 146 144 145
0.05094191 0.15971681 1.14508760 137 134 135
0.05292110 0.15971681 1.14508760 123 121 123
0.05462348 0.15891153 1.13931406 118 117 121
0.05649774 0.15864490 1.13740242 120 120 128
0.05856191 0.15891153 1.13931406 118 118 126
0.06032833 0.15837915 1.13549721 108 109 116
0.06218679 0.15811431 1.13359845 109 112 118
0.06425357 0.15837915 1.13549721 117 118 124
0.06621619 0.15837915 1.13549721 118 118 124
0.06806479 0.15811431 1.13359845 124 125 129
0.06979071 0.15758726 1.12981975 130 130 134
0.12813036 0.15971681 1.14508760 118 118 120
0.13321386 0.16107728 1.15484130 129 128 135
0.13520992 0.16107728 1.15484130 137 136 142
0.13697262 0.16080333 1.15287733 140 140 145
0.13896528 0.16080333 1.15287733 143 142 148
0.14119807 0.16107728 1.15484130 142 143 146
0.14295059 0.16080333 1.15287733 145 147 149
0.14469716 0.16053031 1.15091991 145 145 148
0.14693590 0.16080333 1.15287733 137 136 142
0.14867571 0.16053031 1.15091991 134 133 140
0.15066497 0.16053031 1.15091991 130 129 136
0.30480006 0.06616680 0.47438198 119 124 129
0.30540627 0.06612053 0.47405025 110 118 123
0.30643991 0.06616680 0.47438198 110 119 123
0.62912905 0.11364466 0.81477386 123 127 128
0.63053733 0.11364466 0.81477386 126 130 131
0.63118696 0.11350823 0.81379575 129 133 133
