ply
format ascii 1.0
element vertex 1062
property float x
property float y
property float z
property uchar red
property uchar green
property uchar blue
end_header
0.50989675 -0.07004901 0.83235905 152 153 156
0.51023044 -0.05005728 0.83216838 151 151 153
0.51011817 -0.02991400 0.83198531 145 146 150
0.51003949 -0.00978006 0.83185702 143 144 147
0.50998079 0.01034794 0.83176130 140 141 144
0.50991577 0.03047088 0.83165516 137 137 140
0.50982768 0.05058621 0.83151139 140 141 144
0.50988817 0.07017716 0.83135110 146 147 149
0.50995085 0.08938523 0.83122431 143 142 142
0.51026802 0.10945170 0.83105752 142 142 143
0.51016901 0.12953638 0.83089627 141 141 141
0.51007728 0.14961553 0.83074683 141 141 144
0.51002250 0.16969964 0.83065751 138 138 140
0.51000232 0.18979237 0.83062465 143 144 147
0.50999845 0.20989011 0.83061846 138 139 140
0.50994260 0.22996399 0.83052745 139 138 140
0.50986531 0.25002304 0.83040152 143 144 146
0.50979782 0.27008123 0.83029162 140 142 144
0.50977426 0.29015940 0.83025324 136 137 139
0.50982804 0.31028272 0.83034084 142 143 144
0.50996844 0.33038731 0.83049163 141 142 144
0.50999123 0.35032856 0.83048609 143 143 146
0.50970816 0.37039576 0.83033907 62 63 64
0.51002116 0.39024941 0.82948802 0 0 0
0.51011553 0.40981718 0.82856493 0 0 0
0.50993173 0.43023225 0.82746203 0 0 0
0.50997385 0.44995834 0.82601537 0 0 0
0.51004281 0.46436204 0.82488465 0 0 0
0.53004717 -0.56189346 0.83506145 0 0 0
0.53020025 -0.54988313 0.83537907 112 114 115
0.52995287 -0.52986464 0.83512980 154 155 154
0.53009839 -0.51017839 0.83484896 148 149 149
0.52972083 -0.49014786 0.83454880 160 162 163
0.53008106 -0.46969351 0.83436849 165 167 168
0.52992211 -0.44957246 0.83434851 168 170 171
0.53016372 -0.42985019 0.83427719 165 165 165
0.53029644 -0.41016227 0.83408548 165 167 169
0.52999960 -0.39021306 0.83377717 167 168 170
0.52990773 -0.37005488 0.83340034 164 166 168
0.53011713 -0.34969545 0.83304454 168 169 170
0.52996309 -0.32989918 0.83278829 166 167 169
0.53008661 -0.31030839 0.83259023 167 168 167
0.52981767 -0.29035201 0.83243413 160 160 161
0.52970507 -0.27015144 0.83225725 166 166 167
0.53004686 -0.24980513 0.83213013 156 156 159
0.53027143 -0.22980764 0.83201811 165 166 167
0.53018341 -0.20963976 0.83188000 150 150 153
0.52999226 -0.18956369 0.83172093 154 154 154
0.52987757 -0.16987898 0.83153416 155 155 156
0.53002485 -0.15036562 0.83135621 152 151 153
0.52978369 -0.13046023 0.83125283 157 157 159
0.52972966 -0.11033437 0.83116801 156 157 159
0.52969054 -0.09021523 0.83110667 153 154 156
0.52987926 -0.07025461 0.83101794 137 138 145
0.53023308 -0.04997679 0.83083074 147 149 153
0.53011620 -0.02986589 0.83064758 144 144 146
0.53002976 -0.00976430 0.83051216 145 146 148
0.52995024 0.01033082 0.83038771 144 145 147
0.52988788 0.03042091 0.83029003 142 141 142
0.52981358 0.05050489 0.83017352 142 143 145
0.52976469 0.07062684 0.83001135 144 145 147
0.53046884 0.09046401 0.82983700 141 141 143
0.53028373 0.11004618 0.82975418 138 139 142
0.53009750 0.12966719 0.82962564 136 138 141
0.53000726 0.14947952 0.82949444 136 137 142
0.53004452 0.16944540 0.82941254 137 138 141
0.53002329 0.18950773 0.82937926 140 141 144
0.52999682 0.20956646 0.82933789 138 138 141
0.52994188 0.22961087 0.82925200 132 132 136
0.52987242 0.24964422 0.82914323 140 141 146
0.52980503 0.26967335 0.82903776 142 143 146
0.52977766 0.28971960 0.82899492 144 146 148
0.52982002 0.30980455 0.82906131 142 143 145
0.52990173 0.32991697 0.82918928 142 144 146
0.52991048 0.34998697 0.82920295 139 141 144
0.52984750 0.37000729 0.82910427 81 82 83
0.53011935 0.38978628 0.82827324 0 0 0
0.53007105 0.41012665 0.82741100 0 0 0
0.52992368 0.42997390 0.82643704 0 0 0
0.52996016 0.45027856 0.82502983 0 0 0
0.53013080 0.46456200 0.82397452 0 0 0
0.54924772 -0.56159649 0.83408471 30 30 29
0.55045528 -0.55008436 0.83398652 147 151 151
0.55008787 -0.53000840 0.83371833 152 153 151
0.54975308 -0.50984843 0.83344385 157 159 158
0.54968853 -0.48995696 0.83316612 154 155 157
0.55018045 -0.47033870 0.83306414 167 170 172
0.55014337 -0.45043795 0.83307030 166 168 168
0.55032622 -0.43020076 0.83298734 169 171 171
0.55019041 -0.40994328 0.83278179 163 164 165
0.54989897 -0.38974488 0.83247524 162 163 164
0.54967768 -0.36990861 0.83212665 169 171 173
0.55041646 -0.35027408 0.83177094 165 165 165
0.55009509 -0.33028723 0.83155014 164 164 165
0.54998350 -0.31010250 0.83138139 168 169 170
0.54987115 -0.28992559 0.83121155 165 168 170
0.54974767 -0.26975144 0.83102490 158 159 162
0.55004793 -0.24976852 0.83087668 161 162 163
0.55020318 -0.22955676 0.83076184 154 156 158
0.55012109 -0.20983351 0.83064077 149 149 152
0.55028528 -0.19033137 0.83047795 157 158 159
0.54997567 -0.17049068 0.83028434 154 155 157
0.54985926 -0.15036757 0.83010858 152 153 155
0.54979537 -0.13026544 0.83001208 161 162 164
0.54974651 -0.11017116 0.82993832 158 159 161
0.54973951 -0.09003104 0.82984547 155 155 157
0.55029864 -0.06998489 0.82969008 149 151 154
0.55019858 -0.04989903 0.82953929 148 149 152
0.55010527 -0.02982097 0.82939849 148 148 148
0.54999398 -0.00974929 0.82923080 141 142 143
0.54989396 0.01031452 0.82908005 140 140 141
0.54982260 0.03037263 0.82897253 143 143 145
0.54975152 0.05042534 0.82886537 141 144 149
0.54970639 0.07042564 0.82872490 145 146 148
0.55027848 0.09050782 0.82857956 139 141 144
0.55021996 0.11054579 0.82849137 139 139 142
0.55013626 0.13057361 0.82836539 133 133 137
0.55005689 0.15059670 0.82824585 136 136 137
0.55013211 0.17047925 0.82817472 135 135 136
0.55004495 0.19025486 0.82816117 133 132 135
0.54999246 0.21013137 0.82813209 136 136 138
0.54991192 0.23008930 0.82802744 132 132 135
0.54983639 0.25003902 0.82790826 139 140 140
0.54977027 0.26999049 0.82781422 141 142 143
0.54973876 0.28995607 0.82777232 132 132 135
0.54974970 0.30985221 0.82782767 139 140 142
0.54978464 0.32971607 0.82792479 138 140 142
0.54988196 0.34970883 0.82793342 137 139 143
0.54995069 0.37000400 0.82784502 93 96 99
0.54977042 0.39012194 0.82701554 0 0 0
0.55002555 0.41004200 0.82621138 0 0 0
0.55023185 0.43008225 0.82529799 0 0 0
0.54976403 0.44979592 0.82407209 0 0 0
0.55008496 0.46410925 0.82310059 0 0 0
0.56839544 -0.56105574 0.83239103 150 155 152
0.57006986 -0.55006963 0.83237989 152 154 153
0.57007106 -0.53011211 0.83225551 146 148 148
0.56991365 -0.51014175 0.83202683 156 157 158
0.57022648 -0.48984279 0.83177711 162 163 163
0.57035147 -0.46981273 0.83174673 166 167 167
0.57036631 -0.44969802 0.83176839 166 167 169
0.57017018 -0.42972045 0.83170619 170 171 171
0.57015108 -0.40997422 0.83148550 162 164 165
0.57015271 -0.39026090 0.83120138 162 163 166
0.56976212 -0.37023545 0.83088709 170 171 172
0.57026151 -0.34999516 0.83056796 166 168 170
0.57011306 -0.32981122 0.83035174 168 169 171
0.56999277 -0.30965306 0.83017655 162 161 164
0.56979482 -0.28960516 0.83001745 163 164 166
0.56967430 -0.26977108 0.82984322 159 160 162
0.57018085 -0.24997300 0.82966765 163 163 164
0.57039989 -0.23042293 0.82954426 158 159 161
0.57020084 -0.21045748 0.82943618 153 153 155
0.57010180 -0.19035394 0.82929209 154 154 156
0.56998109 -0.17025081 0.82911633 157 157 160
0.56986441 -0.15015710 0.82894657 161 162 163
0.56979709 -0.13008284 0.82884871 153 153 155
0.56974586 -0.11001665 0.82877415 159 159 161
0.56971878 -0.08999481 0.82866493 157 157 158
0.57027460 -0.06988461 0.82850125 150 150 153
0.57016308 -0.04982692 0.82833927 149 150 151
0.57004735 -0.02977687 0.82817129 143 141 142
0.56992936 -0.00973482 0.82799980 147 148 150
0.56982732 0.01029920 0.82785157 148 148 150
0.56993584 0.03046879 0.82769772 142 143 144
0.57033368 0.05034529 0.82754879 136 137 141
0.57026486 0.07036175 0.82744877 138 138 142
0.57020357 0.09037465 0.82735987 137 137 139
0.57015594 0.11038564 0.82729078 142 142 143
0.57006898 0.13038432 0.82716453 136 137 138
0.56998930 0.15037911 0.82704893 134 135 137
0.56995077 0.17038050 0.82699307 134 133 133
0.56994355 0.19038956 0.82698253 137 137 138
0.56993070 0.21039592 0.82696390 137 136 136
0.56985801 0.23037715 0.82685846 140 141 144
0.56976223 0.25034339 0.82671946 137 137 138
0.56969800 0.27031775 0.82662624 135 136 136
0.56967759 0.29031011 0.82659664 139 139 140
0.56969596 0.31032219 0.82662341 130 132 135
0.56972131 0.33033944 0.82666039 137 140 142
0.56969285 0.35032514 0.82661920 132 133 138
0.56975644 0.37022368 0.82657194 108 108 110
0.57011262 0.39007854 0.82573116 0 0 0
0.57017372 0.40986263 0.82498076 0 0 0
0.56977327 0.42996048 0.82417899 0 0 0
0.57014449 0.45002974 0.82300040 0 0 0
0.56972352 0.46369718 0.82220724 0 0 0
0.58978881 -0.56044594 0.83077598 162 163 162
0.58984242 -0.54981588 0.83091948 155 157 156
0.58973441 -0.52985071 0.83084610 148 150 150
0.58965658 -0.50991610 0.83064851 157 161 162
0.59015589 -0.49016700 0.83046740 165 167 166
0.59032941 -0.47020789 0.83044254 166 166 167
0.59037212 -0.45033033 0.83046096 161 161 164
0.59023256 -0.43029447 0.83038967 163 165 166
0.59007289 -0.41009011 0.83016494 161 163 164
0.58987404 -0.38987039 0.82988516 163 165 167
0.59009956 -0.36949737 0.82960929 165 167 168
0.59007282 -0.34967192 0.82937199 160 162 164
0.59004611 -0.32991524 0.82917802 166 169 170
0.59002730 -0.31017208 0.82899522 166 166 168
0.58996115 -0.29039066 0.82882497 158 159 160
0.58971606 -0.27041470 0.82865571 160 162 163
0.59002853 -0.25046538 0.82846387 158 160 163
0.59020171 -0.23022110 0.82833181 152 152 155
0.59012413 -0.21014962 0.82822290 155 155 156
0.59002659 -0.19007706 0.82808594 156 156 159
0.58992282 -0.17000927 0.82794026 159 159 160
0.58980304 -0.14994442 0.82777212 159 159 160
0.59002598 -0.12976544 0.82763804 159 160 162
0.59036031 -0.10985425 0.82755100 157 159 161
0.59029538 -0.08981945 0.82746004 157 157 160
0.59020613 -0.06978623 0.82733498 149 150 153
0.59008332 -0.04975618 0.82716276 148 150 150
0.58994981 -0.02973392 0.82697562 147 148 149
0.58982603 -0.00972074 0.82680219 148 149 150
0.58971143 0.01028411 0.82664158 140 141 142
0.58979935 0.03014292 0.82649249 137 139 142
0.59022621 0.05027311 0.82636146 135 134 137
0.59018188 0.07026405 0.82629936 138 137 139
0.59012268 0.09024967 0.82621639 139 141 143
0.59005220 0.11022914 0.82611777 135 136 138
0.58997808 0.13020298 0.82601397 133 134 137
0.58988599 0.15016746 0.82588511 135 136 137
0.58983383 0.17013717 0.82581213 131 132 133
0.58981896 0.19011534 0.82579134 136 138 140
0.58980688 0.21009330 0.82577446 129 130 134
0.59013600 0.23020766 0.82564791 136 138 140
0.59032221 0.24997334 0.82549759 134 135 137
0.59025290 0.26991698 0.82540066 126 127 129
0.59021349 0.28987072 0.82534569 133 134 137
0.59020686 0.30983898 0.82533653 137 139 142
0.59020765 0.32981076 0.82533766 133 134 136
0.59018083 0.34976615 0.82530007 136 140 142
0.59010848 0.36969098 0.82519909 124 125 127
0.59003152 0.38971421 0.82449778 0 0 0
0.58995063 0.41034414 0.82377727 0 0 0
0.58996925 0.42987927 0.82301459 0 0 0
0.59006103 0.45001800 0.82194399 0 0 0
0.59008894 0.46370826 0.82120114 0 0 0
0.61016922 -0.55023616 0.82953405 147 147 148
0.61032693 -0.53014040 0.82941606 151 154 154
0.61021847 -0.50997965 0.82926845 158 160 162
0.61015245 -0.48985978 0.82917866 161 164 166
0.61014804 -0.46979193 0.82917265 160 163 164
0.61015948 -0.44973629 0.82918826 164 164 164
0.61003921 -0.42966552 0.82909001 159 163 165
0.60982915 -0.40974780 0.82890938 158 160 162
0.60976577 -0.39000741 0.82865308 164 167 168
0.61006665 -0.37044581 0.82839676 166 168 170
0.61018257 -0.35037308 0.82818143 165 168 169
0.60999653 -0.33030572 0.82799370 163 165 166
0.60986365 -0.31020244 0.82781336 163 163 166
0.61008794 -0.28992938 0.82761589 159 160 160
0.61028788 -0.27001111 0.82741900 161 162 165
0.61016670 -0.24993959 0.82725465 156 157 160
0.61007153 -0.22988594 0.82712566 157 157 158
0.60999047 -0.20984323 0.82701573 157 158 160
0.60991716 -0.18980852 0.82691626 155 156 159
0.60981322 -0.16977005 0.82677535 154 156 157
0.60969630 -0.14973510 0.82661679 158 159 160
0.60988972 -0.12983727 0.82648012 157 158 160
0.61022469 -0.10969680 0.82636463 149 149 152
0.61014760 -0.08968925 0.82626022 155 157 159
0.61005008 -0.06968443 0.82612816 147 149 152
0.60993859 -0.04968481 0.82597720 149 150 151
0.60999569 -0.02954783 0.82576481 147 147 148
0.61033157 -0.00970595 0.82554367 142 145 149
0.61022310 0.01026866 0.82539690 141 143 144
0.61012317 0.03023663 0.82526181 137 137 139
0.61005049 0.05020022 0.82516352 142 141 142
0.61002066 0.07016413 0.82512314 138 137 137
0.60998928 0.09012566 0.82508059 137 138 139
0.60993534 0.11008103 0.82500745 136 135 137
0.60985485 0.13002714 0.82489865 138 140 142
0.60974065 0.14995999 0.82474425 138 140 141
0.60967183 0.16989794 0.82465122 133 134 137
0.60964649 0.18984500 0.82461695 139 142 146
0.60963695 0.20979552 0.82460402 139 140 141
0.60993160 0.22954170 0.82446805 131 131 133
0.61012606 0.24961118 0.82430168 141 143 145
0.61006360 0.26953004 0.82421728 138 138 139
0.61011684 0.28960451 0.82412966 135 139 143
0.61001685 0.30978297 0.82409583 140 143 145
0.60997765 0.32992020 0.82408184 133 135 138
0.60994152 0.35005830 0.82407186 138 140 143
0.60975976 0.37033664 0.82394979 127 131 134
0.61011227 0.39019475 0.82332191 2 2 2
0.60986210 0.40963008 0.82265671 0 0 0
0.61011486 0.43015778 0.82183936 0 0 0
0.61848764 0.45828272 0.81995845 0 0 0
0.60977295 0.44977402 0.82087374 0 0 0
0.61589945 0.46360718 0.81982172 0 0 0
0.60697949 0.46289842 0.82035438 0 0 0
0.62982009 -0.54975629 0.82829119 152 154 153
0.63011985 -0.52992950 0.82812845 158 160 159
0.63006321 -0.51002751 0.82801527 163 165 167
0.63002565 -0.49014545 0.82792708 165 168 169
0.63000607 -0.47025768 0.82791607 164 165 166
0.63000954 -0.45032403 0.82791106 169 170 170
0.62995351 -0.43034999 0.82782778 162 167 168
0.63012395 -0.41009498 0.82762852 163 165 168
0.63028887 -0.39012908 0.82739191 168 169 170
0.63012481 -0.37001149 0.82717640 166 167 168
0.62997836 -0.34991418 0.82698413 167 168 169
0.62984579 -0.32983352 0.82681002 169 171 172
0.62970432 -0.30975687 0.82662431 163 164 166
0.62991183 -0.28986358 0.82644389 160 161 162
0.63013670 -0.26963092 0.82625404 161 164 166
0.63002104 -0.24959145 0.82610239 154 155 157
0.62992884 -0.22956789 0.82598142 153 153 154
0.62985709 -0.20955687 0.82588731 155 155 157
0.62988828 -0.18946277 0.82578660 157 158 159
0.63035704 -0.16953029 0.82560781 156 158 158
0.63023017 -0.14952225 0.82544167 154 154 155
0.63013015 -0.12952764 0.82531071 157 158 159
0.63004896 -0.10954278 0.82520432 154 155 156
0.62997494 -0.08956409 0.82510739 156 157 158
0.62986346 -0.06958606 0.82496143 150 154 156
0.62972966 -0.04961321 0.82478627 144 146 147
0.62976708 -0.02978630 0.82458147 141 140 141
0.63013267 -0.00969227 0.82438050 138 140 143
0.63001425 0.01025407 0.82422561 147 147 147
0.62989712 0.03019303 0.82407236 138 139 141
0.62983134 0.05012868 0.82398627 135 136 138
0.62980336 0.07006436 0.82394967 138 139 140
0.63032696 0.09010940 0.82389257 142 144 147
0.63043531 0.10992599 0.82384537 140 139 140
0.63035173 0.12984389 0.82373607 141 141 143
0.63023034 0.14974777 0.82357741 140 142 144
0.63015555 0.16965660 0.82347968 138 138 141
0.63013270 0.18957627 0.82344977 136 139 142
0.63011732 0.20949673 0.82342973 134 135 138
0.63019782 0.22968272 0.82330247 131 132 138
0.62987530 0.25006824 0.82315659 131 132 135
0.62968938 0.27037517 0.82306175 135 136 138
0.62975693 0.29045472 0.82295893 138 139 140
0.62970467 0.31034299 0.82289076 134 135 137
0.62968324 0.33024403 0.82286276 139 141 142
0.62968956 0.35015907 0.82287091 132 134 136
0.62967173 0.36998743 0.82278518 133 134 137
0.63008617 0.38984471 0.82225920 18 19 19
0.63002066 0.41003661 0.82155565 0 0 0
0.63821991 0.43777014 0.81993984 0 0 0
0.62966950 0.42974945 0.82077370 0 0 0
0.63218918 0.45206478 0.81953960 0 0 0
0.62519222 0.44521234 0.82026220 0 0 0
0.62936553 0.46313522 0.81913487 0 0 0
0.64996717 -0.54929304 0.82695602 157 161 161
0.64988692 -0.52993168 0.82685368 160 163 165
0.64979517 -0.50985172 0.82673692 164 167 168
0.64973701 -0.48980235 0.82666297 163 167 167
0.64972072 -0.46978713 0.82664227 144 148 155
0.64970822 -0.44977554 0.82662643 163 167 168
0.64965772 -0.42973966 0.82656213 165 169 172
0.64986370 -0.40982362 0.82638523 159 162 163
0.65002661 -0.38960652 0.82618289 168 169 170
0.64988599 -0.36963291 0.82599483 166 169 169
0.64998748 -0.34958328 0.82580383 169 171 171
0.65032941 -0.32988014 0.82561810 151 151 153
0.65018112 -0.30992357 0.82542125 159 161 162
0.65005616 -0.28998685 0.82525397 162 164 164
0.64994653 -0.27006466 0.82510611 156 157 157
0.64982316 -0.25010101 0.82495813 158 159 160
0.64972499 -0.23010399 0.82483350 156 157 158
0.64964106 -0.21007175 0.82473560 147 146 148
0.64966088 -0.19008502 0.82463084 151 151 151
0.65014823 -0.16995647 0.82446120 152 151 147
0.65004076 -0.14982488 0.82429300 153 153 154
0.65004135 -0.12955897 0.82414963 154 154 154
0.64992991 -0.10930360 0.82405219 152 153 155
0.65041984 -0.08943389 0.82390772 154 155 156
0.65030121 -0.06948452 0.82375746 145 148 151
0.65014421 -0.04953938 0.82355864 146 147 149
0.64999313 -0.02960415 0.82336728 140 141 143
0.64987062 -0.00967850 0.82321208 140 141 144
0.64974474 0.01023945 0.82305264 145 147 149
0.64962201 0.03015001 0.82289721 141 141 139
0.64955462 0.05005720 0.82281182 143 144 145
0.64952985 0.06996497 0.82278043 141 142 143
0.65004745 0.08975198 0.82273871 136 138 141
0.65017887 0.10977337 0.82270139 136 136 138
0.65010026 0.12966514 0.82260192 136 137 139
0.64999081 0.14954523 0.82246338 133 135 138
0.64999665 0.16953391 0.82236186 135 135 138
0.64996672 0.18983104 0.82232612 135 136 138
0.64969870 0.21031574 0.82230755 132 133 135
0.65044234 0.23048248 0.82213627 137 139 140
0.65032955 0.25033303 0.82199367 132 135 137
0.65022047 0.27017820 0.82185590 131 132 135
0.65014124 0.29003005 0.82175574 135 136 138
0.65006454 0.30987836 0.82165878 131 132 135
0.65004475 0.32975078 0.82163372 140 141 144
0.65008196 0.34965273 0.82168065 136 137 139
0.65020535 0.36972113 0.82165200 134 136 139
0.64971291 0.39003368 0.82127924 32 34 35
0.65780758 0.41760984 0.81986906 0 0 0
0.64950805 0.40975470 0.82058779 0 0 0
0.65191557 0.43153949 0.81952609 0 0 0
0.64426702 0.42504066 0.82022060 0 0 0
0.64998329 0.45011645 0.81868045 0 0 0
0.65003530 0.46263432 0.81804713 0 0 0
0.67013743 -0.54890553 0.82560237 155 159 159
0.67025367 -0.53013277 0.82553524 162 166 167
0.67020695 -0.51014975 0.82544394 166 168 167
0.67013883 -0.49021635 0.82535164 163 167 167
0.67007640 -0.47027008 0.82531682 166 169 169
0.67005871 -0.45028721 0.82529499 161 165 165
0.67000205 -0.43028062 0.82522526 160 163 165
0.66994848 -0.41030440 0.82510881 163 165 167
0.66984507 -0.39036992 0.82497292 160 164 166
0.66965813 -0.37037468 0.82480145 163 167 168
0.66977165 -0.35050481 0.82464140 165 169 171
0.67007675 -0.33031271 0.82443911 142 145 149
0.66991354 -0.31028743 0.82423827 154 156 159
0.67035282 -0.29018388 0.82402091 158 158 160
0.67032841 -0.27027792 0.82387313 156 157 159
0.67021624 -0.25030000 0.82373525 155 156 158
0.67011983 -0.23033429 0.82361678 157 158 159
0.67002948 -0.21037596 0.82350572 154 155 156
0.66995778 -0.19042862 0.82341763 156 157 157
0.66985579 -0.17047777 0.82329223 153 153 152
0.66973175 -0.15052798 0.82313972 152 151 150
0.66963266 -0.13059030 0.82301789 153 155 156
0.66946213 -0.11045511 0.82291449 152 155 155
0.67027215 -0.08977504 0.82273774 146 149 152
0.67000391 -0.06938689 0.82260007 146 148 152
0.67013783 -0.04929948 0.82237590 148 149 151
0.67035535 -0.02956075 0.82215959 146 147 149
0.67021838 -0.00966418 0.82199168 144 145 148
0.67009308 0.01022436 0.82183797 142 144 145
0.66996938 0.03010560 0.82168619 141 142 141
0.66989523 0.04998315 0.82159528 145 147 149
0.66986355 0.06986090 0.82155649 135 136 139
0.66987928 0.08974301 0.82157572 136 136 136
0.66987484 0.10962250 0.82157021 127 130 131
0.66981143 0.12949025 0.82149233 130 130 131
0.66987914 0.14978220 0.82136068 136 136 138
0.66945078 0.17032442 0.82126766 134 136 137
0.66955775 0.19047334 0.82118136 122 122 126
0.66953362 0.21033644 0.82115174 131 134 138
0.67012040 0.23016412 0.82100079 132 133 138
0.66998951 0.24998175 0.82084049 128 129 134
0.67024898 0.26994766 0.82064759 131 133 137
0.67990226 0.29293946 0.81995993 136 138 141
0.67002010 0.28944728 0.82055397 136 137 139
0.67919239 0.31027661 0.81992896 128 130 132
0.66919438 0.30962037 0.82050246 124 125 128
0.67916150 0.33048072 0.81992117 135 136 138
0.66902998 0.32995723 0.82051454 134 137 140
0.67977799 0.34761811 0.81995250 123 124 130
0.66979409 0.35039710 0.82055356 131 134 137
0.67991881 0.37656552 0.81997989 133 133 135
0.67012904 0.37018611 0.82054571 135 138 140
0.67744358 0.39258248 0.81986599 31 31 31
0.66797639 0.38940995 0.82039244 51 52 53
0.67136317 0.41088958 0.81949785 0 0 0
0.66309360 0.40443024 0.82015514 0 0 0
0.66998185 0.43012910 0.81867423 0 0 0
0.67009930 0.44995113 0.81761870 0 0 0
0.66961577 0.46236191 0.81698938 0 0 0
0.68993961 -0.54826460 0.82433538 164 166 166
0.68990109 -0.52971280 0.82428936 158 161 162
0.69000121 -0.50960391 0.82421658 167 168 168
0.69045236 -0.48970674 0.82409747 161 165 166
0.69041434 -0.46973947 0.82405210 164 167 168
0.69039191 -0.44978456 0.82402539 162 166 167
0.69033144 -0.42980740 0.82395321 164 166 167
0.69023334 -0.40981127 0.82383614 161 163 163
0.69015200 -0.38983026 0.82373903 165 168 168
0.69003094 -0.36983262 0.82359444 165 167 169
0.68990552 -0.34983983 0.82344465 156 159 163
0.68975102 -0.32984040 0.82326027 161 163 165
0.68958665 -0.30984544 0.82306410 154 155 157
0.69000750 -0.28993837 0.82284600 156 158 160
0.68998476 -0.26988992 0.82269032 158 159 160
0.69015503 -0.24976079 0.82251598 154 155 157
0.69041351 -0.22998132 0.82235469 158 160 161
0.69033007 -0.21005654 0.82225529 156 158 158
0.69026033 -0.19014061 0.82217219 155 156 158
0.69016610 -0.17022255 0.82205996 151 151 152
0.69005929 -0.15030721 0.82193267 155 156 157
0.68996126 -0.13039958 0.82181590 154 155 155
0.68988160 -0.11050066 0.82172094 152 153 154
0.68973069 -0.09055270 0.82159736 143 144 146
0.68968671 -0.06995420 0.82143604 139 140 141
0.68977330 -0.04956720 0.82124378 142 144 146
0.69000894 -0.02952011 0.82102711 148 150 152
0.69032889 -0.00951252 0.82079357 137 138 141
0.69038071 0.01020932 0.82062603 134 136 138
0.69936126 0.03172037 0.81994901 137 139 140
0.68937133 0.02989723 0.82055548 138 138 141
0.69861485 0.05088097 0.81990729 134 136 137
0.68856876 0.04972336 0.82050184 137 138 142
0.69828792 0.06972135 0.81991496 136 138 140
0.68814362 0.06977061 0.82049428 139 139 140
0.69884715 0.08899368 0.81990596 139 140 142
0.68875531 0.08971904 0.82049120 137 139 140
0.69898254 0.10939948 0.81989853 138 142 143
0.68884755 0.10947819 0.82048851 131 132 133
0.69848595 0.13092774 0.81989147 128 132 136
0.68851987 0.12966439 0.82045790 131 134 136
0.69724856 0.15116871 0.81983166 129 129 131
0.68708336 0.15011405 0.82041766 128 129 131
0.69606396 0.17062491 0.81976947 135 136 139
0.68596329 0.17022311 0.82034984 131 132 135
0.69506050 0.19032746 0.81971412 134 135 137
0.68495994 0.19008447 0.82029733 128 129 130
0.69438922 0.21016588 0.81969211 134 137 139
0.68429085 0.20986840 0.82028560 141 142 144
0.69342231 0.23004118 0.81963094 136 138 140
0.68334463 0.22949594 0.82022607 135 137 140
0.69204954 0.24979196 0.81955848 133 134 138
0.68197591 0.24914561 0.82014796 134 134 137
0.69071085 0.27004463 0.81947295 135 138 139
0.68103823 0.26387643 0.82007639 137 139 141
0.68989618 0.29025239 0.81941100 127 127 130
0.68999033 0.31041236 0.81931988 141 142 144
0.68998018 0.33023352 0.81930784 136 138 139
0.69004808 0.35009364 0.81938845 127 128 130
0.69011325 0.36995557 0.81946570 132 131 134
0.68999820 0.38971930 0.81932878 67 68 68
0.69004737 0.40993126 0.81860007 0 0 0
0.69008283 0.42999972 0.81763781 0 0 0
0.68980087 0.44980851 0.81657361 0 0 0
0.69013814 0.46213221 0.81585445 0 0 0
0.70951253 -0.54813262 0.82314481 163 168 167
0.70951609 -0.53024296 0.82312620 160 164 165
0.70964522 -0.51037181 0.82306159 162 165 165
0.71004680 -0.49027159 0.82291567 164 167 168
0.71000916 -0.47022781 0.82286368 160 163 164
0.70999960 -0.45020445 0.82284416 163 167 167
0.70994494 -0.43015495 0.82277242 168 171 172
0.71033089 -0.40995539 0.82261409 165 168 169
0.71042285 -0.39004397 0.82248985 166 168 168
0.71031219 -0.36998597 0.82235397 163 166 168
0.71020940 -0.34993862 0.82222724 163 165 166
0.71005735 -0.32987444 0.82204338 162 164 164
0.70989998 -0.30981693 0.82185338 163 163 164
0.70981341 -0.28967784 0.82166075 157 160 162
0.70962428 -0.26955091 0.82150310 156 157 157
0.70971638 -0.24973507 0.82132574 151 152 153
0.70999069 -0.22964718 0.82115980 156 158 160
0.71028934 -0.20957486 0.82102275 152 155 156
0.71050140 -0.18985343 0.82093041 151 154 157
0.71039203 -0.16996251 0.82080403 152 153 154
0.71029640 -0.15008054 0.82069351 157 158 159
0.71961791 -0.12231574 0.81999763 153 155 156
0.71007511 -0.13032023 0.82060396 154 154 155
0.71926586 -0.10868843 0.81995536 149 149 149
0.70928924 -0.11049359 0.82057055 152 152 152
0.71834027 -0.08946977 0.81988750 148 149 148
0.70832266 -0.09067797 0.82050260 144 145 146
0.71681580 -0.06990349 0.81981063 139 142 144
0.70674542 -0.07084385 0.82041567 145 147 148
0.71506705 -0.04942284 0.81971745 143 145 147
0.70510647 -0.05049445 0.82032526 147 148 150
0.71335606 -0.02895701 0.81961848 126 129 131
0.70342055 -0.03032449 0.82024048 141 143 144
0.71164042 -0.00931795 0.81953410 135 136 137
0.70214194 -0.01180676 0.82012182 133 133 134
0.71036906 0.01049176 0.81943723 137 139 142
0.70122051 0.00453269 0.82002979 138 138 140
0.71050478 0.03001811 0.81929797 140 143 145
0.71043267 0.04983840 0.81921480 139 141 142
0.71041676 0.06966025 0.81919649 138 139 139
0.71043806 0.08948580 0.81922105 137 137 138
0.71048042 0.10997245 0.81921884 135 137 140
0.71035814 0.13049188 0.81918312 126 132 137
0.71031177 0.15034489 0.81907535 130 132 134
0.71020231 0.17013856 0.81894913 134 135 136
0.71011115 0.18993108 0.81884403 136 139 141
0.71005322 0.20972821 0.81877724 133 135 137
0.71007757 0.22965941 0.81866746 134 134 136
0.70980376 0.25002936 0.81852658 132 133 135
0.70963719 0.27035571 0.81839753 136 138 140
0.70962695 0.29021965 0.81828567 129 131 132
0.70954043 0.30998273 0.81818588 136 139 141
0.70952926 0.32977612 0.81817300 131 134 137
0.70960818 0.34961329 0.81826400 129 132 135
0.70987708 0.36971411 0.81838438 131 132 134
0.70955186 0.39020234 0.81838401 75 78 79
0.71013864 0.41024967 0.81758120 0 0 0
0.70986663 0.42995103 0.81661745 0 0 0
0.71012491 0.45002047 0.81550911 0 0 0
0.70928131 0.46157555 0.81487040 0 0 0
0.72979382 -0.54743281 0.82195175 163 170 170
0.72989396 -0.52967631 0.82194323 160 164 164
0.72977232 -0.50968477 0.82185942 163 166 166
0.72966609 -0.48972607 0.82173975 159 164 165
0.72962223 -0.46981338 0.82169036 162 169 169
0.72959980 -0.44991654 0.82166529 150 153 155
0.72952740 -0.42999141 0.82158380 143 144 147
0.72989960 -0.41018268 0.82144297 146 149 151
0.72999435 -0.39010026 0.82130991 154 154 154
0.73053265 -0.37013966 0.82111755 158 160 162
0.73039272 -0.35020331 0.82096031 160 162 163
0.73023621 -0.33026704 0.82078436 161 164 165
0.73943042 -0.30371794 0.81996472 163 167 167
0.72985549 -0.31050243 0.82062844 161 163 165
0.73824529 -0.28893876 0.81989851 152 153 154
0.72831293 -0.29070516 0.82053275 158 160 161
0.73685654 -0.26965512 0.81981548 153 154 155
0.72679633 -0.27071929 0.82045261 152 153 154
0.73558232 -0.24989616 0.81974611 159 160 162
0.72558072 -0.25045818 0.82036790 153 154 155
0.73437576 -0.22985346 0.81968763 158 159 159
0.72450585 -0.23001826 0.82029057 156 158 160
0.73323368 -0.20944289 0.81960892 151 149 149
0.72346010 -0.21050935 0.82022214 152 153 153
0.73236906 -0.18930341 0.81955949 155 156 157
0.72304298 -0.19035399 0.82015312 160 162 162
0.73198426 -0.16950451 0.81946698 152 153 153
0.72201276 -0.17090091 0.82008847 151 151 152
0.73103736 -0.14976123 0.81941715 150 150 150
0.72107281 -0.15137840 0.82004039 153 151 153
0.73039392 -0.13001134 0.81936963 154 154 154
0.73032418 -0.11017394 0.81929142 151 153 155
0.73022012 -0.09033603 0.81917469 146 147 148
0.73008281 -0.07050053 0.81902064 144 146 148
0.72992231 -0.04996329 0.81884059 142 145 147
0.72973557 -0.02943393 0.81863119 137 139 139
0.72957628 -0.00962259 0.81845248 135 136 139
0.72956871 0.01006731 0.81828295 136 136 137
0.72999488 0.02997531 0.81812850 135 135 136
0.72994370 0.04976885 0.81807105 140 140 141
0.72993308 0.06956354 0.81805906 139 140 141
0.73005908 0.08992391 0.81807395 133 134 135
0.72988017 0.11045636 0.81807123 127 130 133
0.73056123 0.13034913 0.81797129 127 130 134
0.73048572 0.15012678 0.81788678 128 131 133
0.73038527 0.16989446 0.81777424 131 132 135
0.73028425 0.18965665 0.81766115 135 136 138
0.73038333 0.20976020 0.81756799 132 134 136
0.72994915 0.23020369 0.81748918 131 133 136
0.73000098 0.25032964 0.81734397 133 133 135
0.72987475 0.27006095 0.81720264 135 137 140
0.72979571 0.28980419 0.81711405 132 133 136
0.72985213 0.30969906 0.81704356 133 135 137
0.72975965 0.32992717 0.81702256 134 137 141
0.72964743 0.35029552 0.81713191 134 135 137
0.72994077 0.37037996 0.81727636 134 138 141
0.73000321 0.39018960 0.81734619 92 94 95
0.73015340 0.41006196 0.81661458 0 0 0
0.72976072 0.42996058 0.81562896 0 0 0
0.73011169 0.45021590 0.81451457 0 0 0
0.72967931 0.46165810 0.81383336 0 0 0
0.75021348 -0.54740560 0.82091060 157 162 161
0.75018032 -0.53035602 0.82087440 163 166 166
0.75003801 -0.51037745 0.82077023 166 169 170
0.74990242 -0.49030147 0.82065090 159 164 164
0.74984060 -0.47016057 0.82056833 156 159 161
0.75929685 -0.44262227 0.81999175 159 162 156
0.74969979 -0.45014315 0.82051198 149 150 148
0.75850601 -0.42858915 0.81993358 161 166 165
0.74862076 -0.43006423 0.82045511 137 137 138
0.75683663 -0.40916180 0.81985100 158 163 163
0.74691515 -0.40995780 0.82041411 142 145 146
0.75530198 -0.38911657 0.81974714 166 167 165
0.74522424 -0.39000070 0.82034808 156 157 157
0.75386475 -0.36916235 0.81967412 162 165 166
0.74452304 -0.37020600 0.82023616 162 165 166
0.75302113 -0.34911894 0.81957659 159 160 163
0.74319195 -0.35080386 0.82016330 163 166 168
0.75158563 -0.32948778 0.81950466 162 162 162
0.74169418 -0.33194187 0.82008588 169 170 171
0.75039312 -0.30976951 0.81940053 156 160 161
0.74089345 -0.31790998 0.82001539 166 173 173
0.75008587 -0.28999152 0.81922197 155 158 160
0.74993517 -0.27011381 0.81905740 156 157 157
0.74980148 -0.25024969 0.81891140 158 159 159
0.74968690 -0.23039855 0.81878628 153 155 155
0.74942570 -0.21035468 0.81865989 157 158 161
0.74952911 -0.18991981 0.81855033 155 158 159
0.75013215 -0.16957300 0.81840607 150 151 152
0.74997496 -0.14964791 0.81832802 149 151 153
0.74992257 -0.12983699 0.81827082 147 148 149
0.75046573 -0.10997571 0.81814403 150 152 155
0.75040138 -0.09020895 0.81802229 146 148 150
0.75025900 -0.07040124 0.81786708 139 144 148
0.74991855 -0.05030509 0.81768856 137 140 142
0.75005872 -0.02982716 0.81745882 142 143 145
0.74974099 -0.00960901 0.81730231 138 140 141
0.74960784 0.01016613 0.81715711 138 141 142
0.74949447 0.02993520 0.81703352 141 143 144
0.74945370 0.04970307 0.81698911 133 134 136
0.74945906 0.06947303 0.81699495 132 134 136
0.74945919 0.08994861 0.81699519 130 132 135
0.74947429 0.11037550 0.81696007 128 130 132
0.75004627 0.13017290 0.81686528 126 128 134
0.74996395 0.14992282 0.81677563 128 132 134
0.75046138 0.16974284 0.81665247 133 135 137
0.75061088 0.18982735 0.81652243 136 137 141
0.75019511 0.21024950 0.81645131 131 133 137
0.75028042 0.23027198 0.81635216 128 131 134
0.75017444 0.24999061 0.81623685 131 133 135
0.75006910 0.26970391 0.81612209 130 130 131
0.75018506 0.28976810 0.81605022 129 132 135
0.74980208 0.31018756 0.81602861 131 131 134
0.74994659 0.33030606 0.81598877 133 137 142
0.75001264 0.35008233 0.81606067 129 131 134
0.75015528 0.36989945 0.81621588 128 130 133
0.75025042 0.38969957 0.81631935 108 110 113
0.74987375 0.40966679 0.81566541 0 0 0
0.75029581 0.43006885 0.81463900 0 0 0
0.74986147 0.44994027 0.81361536 0 0 0
0.74995490 0.46115123 0.81293984 0 0 0
0.77487875 -0.54684775 0.81980433 154 158 159
0.76542542 -0.54677615 0.82021408 153 160 160
0.77388240 -0.52928191 0.81976515 162 165 166
0.76443467 -0.53040150 0.82019148 163 166 167
0.77287030 -0.50914333 0.81970140 160 165 166
0.76317126 -0.51098760 0.82013774 162 167 167
0.77178294 -0.48969540 0.81961497 157 161 162
0.76168502 -0.49123543 0.82007068 161 164 164
0.77071724 -0.46986654 0.81955339 161 164 165
0.76075349 -0.47311856 0.82003417 157 161 163
0.77014913 -0.45013461 0.81947675 165 171 169
0.77003902 -0.43024368 0.81935966 168 170 171
0.76988217 -0.41033343 0.81919275 168 170 169
0.76970148 -0.39041904 0.81900048 164 167 167
0.76942367 -0.37033864 0.81885967 150 154 157
0.76993064 -0.35025366 0.81871736 161 161 161
0.77013285 -0.32979002 0.81857223 161 162 163
0.77009580 -0.30941389 0.81839395 153 153 154
0.77035006 -0.28962475 0.81818580 155 157 157
0.77017276 -0.26976435 0.81799758 153 155 156
0.77002219 -0.24992157 0.81783770 157 159 160
0.76990862 -0.23009768 0.81771703 158 160 160
0.76979864 -0.21028054 0.81760016 160 162 163
0.76972572 -0.19047829 0.81752267 160 164 166
0.76960765 -0.17001725 0.81744406 155 157 158
0.76963269 -0.14952363 0.81737399 150 152 154
0.76952650 -0.12968474 0.81731100 149 150 152
0.77005361 -0.10993634 0.81717764 143 145 147
0.76997885 -0.09010078 0.81704124 141 142 145
0.77022141 -0.07014839 0.81685821 143 145 149
0.77031885 -0.05053557 0.81665342 134 138 141
0.77012167 -0.03006087 0.81644444 138 142 145
0.76998339 -0.00959719 0.81629785 123 127 134
0.76987362 0.01015404 0.81618137 134 137 139
0.76977685 0.02990025 0.81607870 135 139 140
0.76973813 0.04964518 0.81603762 138 140 141
0.76980664 0.07000695 0.81602310 140 141 143
0.76962806 0.09044579 0.81601269 132 136 137
0.76967465 0.11028566 0.81597042 124 127 132
0.76962694 0.13002221 0.81591981 122 124 130
0.76953391 0.14974761 0.81582117 125 128 131
0.77016487 0.16959027 0.81570549 135 137 141
0.76990527 0.19007782 0.81561235 139 140 140
0.76995471 0.21030341 0.81551982 132 134 136
0.77006816 0.23014881 0.81541620 127 130 133
0.77044408 0.24970134 0.81529213 130 134 136
0.77052485 0.26988221 0.81520811 137 138 140
0.77014542 0.29027048 0.81514939 137 140 142
0.77028461 0.31023136 0.81512326 133 134 135
0.77026669 0.32994804 0.81510428 133 133 133
0.77032522 0.34969857 0.81516625 131 131 132
0.77060890 0.36972701 0.81529316 125 127 128
0.76997720 0.39008842 0.81542002 116 118 120
0.76993528 0.41007341 0.81475360 0 0 0
0.77010948 0.43016108 0.81378405 0 0 0
0.77007446 0.44999894 0.81277729 0 0 0
0.76872929 0.46089413 0.81217738 0 0 0
0.78951351 -0.54678677 0.81922633 156 162 163
0.78960796 -0.53012492 0.81913314 162 166 167
0.78988562 -0.51010091 0.81904082 157 162 164
0.79027881 -0.48966529 0.81890647 160 165 166
0.79002614 -0.46957126 0.81879134 164 168 168
0.78991232 -0.44969338 0.81867337 168 174 174
0.79009248 -0.42964185 0.81853352 165 167 169
0.79030716 -0.40991118 0.81834979 164 167 167
0.79012458 -0.39001873 0.81816074 164 167 168
0.78997416 -0.37015044 0.81800503 162 165 166
0.78984942 -0.35030114 0.81787589 163 165 165
0.78971429 -0.33045382 0.81773604 162 164 165
0.78956682 -0.31046571 0.81757637 156 158 159
0.79021070 -0.28979677 0.81735773 153 156 157
0.78986428 -0.26948805 0.81715975 153 156 158
0.79038572 -0.24965613 0.81696898 156 159 161
0.79026701 -0.22985263 0.81684628 157 159 159
0.79017251 -0.21006148 0.81674861 155 160 161
0.79011302 -0.19028356 0.81668709 152 158 160
0.79006063 -0.17051015 0.81663294 152 154 155
0.78998732 -0.15002979 0.81655716 146 150 152
0.78992040 -0.12955413 0.81648801 147 150 152
0.78981397 -0.10978223 0.81637801 146 149 150
0.78968143 -0.09001258 0.81624102 139 144 147
0.78988830 -0.07041257 0.81605057 142 146 149
0.78998598 -0.05048448 0.81582687 140 143 144
0.79023177 -0.02986909 0.81558460 136 139 141
0.79031635 -0.00958711 0.81544050 132 135 138
0.79021056 0.01014354 0.81533138 132 136 139
0.79013873 0.02987020 0.81525721 138 140 141
0.79011712 0.04959637 0.81523488 131 133 136
0.79012230 0.07002832 0.81524013 136 139 142
0.79011372 0.09045894 0.81523126 127 131 136
0.79007064 0.11017973 0.81518678 123 127 133
0.79001700 0.12989657 0.81513148 123 124 129
0.78992453 0.14960351 0.81503611 130 129 129
0.78983514 0.17001082 0.81494395 134 135 138
0.78974217 0.19041256 0.81484799 129 130 131
0.78965302 0.21010639 0.81475596 139 142 144
0.78973785 0.22965393 0.81464595 137 140 141
0.79030549 0.24978151 0.81453003 132 135 136
0.78990985 0.27015013 0.81446536 136 137 139
0.79002367 0.29025355 0.81441193 134 137 139
0.79002382 0.30996071 0.81441204 135 136 137
0.79001652 0.32966476 0.81440448 135 136 137
0.79022337 0.34980395 0.81444699 130 130 132
0.78999283 0.37023978 0.81455261 129 130 132
0.78971500 0.39036581 0.81457203 132 134 136
0.79027026 0.41019043 0.81394149 1 1 1
0.78970765 0.42987108 0.81306013 0 0 0
0.78995758 0.45005402 0.81208263 0 0 0
0.78994207 0.46099949 0.81143604 0 0 0
0.81022665 -0.54648416 0.81846794 162 164 164
0.81013821 -0.53015814 0.81837871 161 167 167
0.81005198 -0.51030077 0.81829167 158 163 164
0.80994632 -0.49043599 0.81818496 163 168 168
0.80965182 -0.47031542 0.81805357 163 167 168
0.80966708 -0.45003051 0.81791620 165 168 167
0.80999336 -0.42986983 0.81776332 164 166 167
0.81007471 -0.40953596 0.81760070 161 165 164
0.80990377 -0.38966945 0.81742816 162 167 167
0.81037618 -0.36976041 0.81724009 164 167 167
0.81027582 -0.34996507 0.81709117 164 167 167
0.81012140 -0.33013030 0.81693549 159 161 162
0.80996837 -0.31030357 0.81678118 153 155 157
0.80980625 -0.29048105 0.81661767 154 155 156
0.80947268 -0.27018167 0.81644293 156 157 158
0.81028651 -0.24969384 0.81623116 158 160 161
0.81001028 -0.22964599 0.81611199 159 161 163
0.80991505 -0.20987309 0.81601604 152 157 160
0.80995015 -0.19002494 0.81594384 146 150 152
0.81046858 -0.17034955 0.81586362 155 158 159
0.81021594 -0.15015813 0.81578429 151 157 158
0.81048642 -0.12972338 0.81570416 151 153 154
0.81021463 -0.10967868 0.81560792 149 152 152
0.81008896 -0.08992878 0.81548144 147 151 154
0.80990671 -0.07018018 0.81529797 145 150 154
0.80968777 -0.05043811 0.81507757 143 147 149
0.80991312 -0.03016578 0.81484270 136 138 138
0.81000585 -0.00957826 0.81468882 137 140 140
0.80990060 0.01013427 0.81458292 132 135 138
0.81004170 0.02998360 0.81451251 136 138 140
0.81036004 0.04943839 0.81448092 130 133 136
0.80985865 0.06996837 0.81454067 128 132 134
0.80987425 0.09038404 0.81455633 125 130 134
0.81011591 0.11025189 0.81448408 119 126 131
0.81041603 0.12977895 0.81439363 124 127 133
0.81047584 0.14980350 0.81427132 133 135 137
0.81002488 0.17016813 0.81418229 134 137 139
0.81011490 0.19023574 0.81409106 134 137 139
0.81005348 0.20991901 0.81402928 134 138 140
0.80996063 0.22959049 0.81393597 133 135 136
0.80988382 0.24996571 0.81385877 131 133 135
0.80981128 0.27033850 0.81378576 131 133 135
0.80977693 0.29001812 0.81375119 133 134 135
0.80979520 0.30971625 0.81376955 131 131 133
0.80997008 0.32984176 0.81377102 122 123 126
0.80966185 0.35023113 0.81381230 130 131 132
0.80988636 0.37023890 0.81386126 133 134 136
0.80979861 0.38989007 0.81377322 132 133 134
0.81004689 0.41001857 0.81317291 13 13 13
0.80986347 0.42983502 0.81233241 0 0 0
0.81010616 0.44992038 0.81144181 0 0 0
0.80971269 0.46067776 0.81086973 0 0 0
0.83008453 -0.54605345 0.81782280 162 165 165
0.82995362 -0.52971454 0.81769389 159 164 164
0.82989164 -0.50981041 0.81757990 161 166 166
0.83037645 -0.48997437 0.81741484 162 164 164
0.83023603 -0.47011521 0.81727664 159 162 163
0.83010515 -0.45026778 0.81714775 162 167 167
0.82997051 -0.43042476 0.81701522 161 165 166
0.82964760 -0.41033000 0.81685902 164 168 169
0.82962672 -0.38996204 0.81665750 160 161 159
0.83020128 -0.36970812 0.81646130 159 162 164
0.82997554 -0.34963718 0.81632560 158 162 162
0.83017177 -0.32964671 0.81615988 158 162 163
0.83033135 -0.31000007 0.81598218 156 159 160
0.83016198 -0.29019580 0.81581576 149 151 152
0.82998762 -0.27039806 0.81564441 150 150 149
0.82963118 -0.25022020 0.81547201 155 156 156
0.82984085 -0.22976444 0.81532149 154 156 159
0.82956079 -0.20966968 0.81522500 153 155 156
0.82957089 -0.19000481 0.81514172 149 152 153
0.83008926 -0.17018008 0.81505193 148 153 154
0.83000435 -0.15044218 0.81496859 149 153 154
0.82993648 -0.13000671 0.81490196 147 149 151
0.83033450 -0.10943194 0.81478948 147 152 153
0.83037298 -0.08983595 0.81463951 145 148 151
0.83019683 -0.07010858 0.81446670 146 149 152
0.82998822 -0.05038763 0.81426200 139 142 144
0.82977835 -0.02997295 0.81405605 137 139 141
0.82963869 -0.00956918 0.81391902 134 135 138
0.82954597 0.01012489 0.81382803 134 136 138
0.82966182 0.02967847 0.81375406 129 130 131
0.82997837 0.04962081 0.81371818 131 133 135
0.82948541 0.06990207 0.81376869 128 133 135
0.82951294 0.09029964 0.81379569 119 122 126
0.82973610 0.10981726 0.81373045 121 122 129
0.83004300 0.12965658 0.81362565 121 125 131
0.83006094 0.15014284 0.81349769 134 137 140
0.83046845 0.17038202 0.81335391 133 136 139
0.83040785 0.19004968 0.81329453 135 138 140
0.83037292 0.20972072 0.81326029 130 132 135
0.83032542 0.23003343 0.81317069 133 135 138
0.83016464 0.25038602 0.81310191 130 131 133
0.83018338 0.27010233 0.81307452 134 136 138
0.83018368 0.28977705 0.81307473 131 132 133
0.83037412 0.30979513 0.81308367 134 135 135
0.83002537 0.33015371 0.81309654 134 135 136
0.83020154 0.35021409 0.81309231 135 137 138
0.83024468 0.36990824 0.81313457 129 130 132
0.83024239 0.38993455 0.81296278 134 136 138
0.82975172 0.40991248 0.81240432 22 22 22
0.83010062 0.43017354 0.81157665 0 0 0
0.82999533 0.45010525 0.81078132 0 0 0
0.83009839 0.46032447 0.81024788 0 0 0
0.84964601 -0.54605117 0.81721503 157 164 165
0.84978748 -0.52995559 0.81704736 160 165 167
0.84983938 -0.50972775 0.81690708 157 162 164
0.85011085 -0.48954145 0.81669241 157 164 165
0.84994112 -0.46968541 0.81652942 161 166 167
0.85030878 -0.44971288 0.81638928 161 166 166
0.85034709 -0.43001747 0.81624204 157 161 163
0.85016899 -0.41018026 0.81607107 162 166 167
0.84997214 -0.39034268 0.81588212 159 164 164
0.84965535 -0.37032738 0.81571717 162 166 168
0.84965872 -0.34996721 0.81555639 159 165 165
0.84990227 -0.32982128 0.81537501 158 160 159
0.85001345 -0.30965413 0.81519387 156 158 158
0.85044579 -0.28990022 0.81498472 152 153 154
0.85026637 -0.27012237 0.81481280 153 156 156
0.85008605 -0.25035248 0.81464000 154 156 157
0.84978109 -0.23017022 0.81451403 152 155 159
0.84998854 -0.20974500 0.81437795 154 158 161
0.84971532 -0.18972388 0.81428478 150 154 156
0.84963273 -0.17000340 0.81420563 154 156 158
0.84955176 -0.15028700 0.81412802 154 158 160
0.84933370 -0.13009810 0.81407226 149 154 156
0.85002426 -0.10985110 0.81395591 148 152 155
0.85022650 -0.08957640 0.81380026 146 147 149
0.85041159 -0.07003436 0.81360439 142 144 147
0.85019906 -0.05033429 0.81340104 142 145 146
0.85001006 -0.02994212 0.81322019 134 137 142
0.84987616 -0.00955945 0.81309206 135 136 139
0.84978929 0.01011472 0.81300895 132 134 137
0.84974324 0.02978621 0.81296486 130 131 134
0.84987932 0.04988909 0.81292929 132 135 138
0.84956259 0.07024227 0.81296014 122 125 130
0.84974313 0.09020746 0.81296482 115 119 126
0.84969159 0.10987266 0.81291547 119 123 127
0.84967904 0.12962767 0.81282106 119 124 130
0.84952182 0.14985214 0.81270414 128 132 136
0.85001228 0.17021367 0.81255026 135 137 139
0.84994679 0.18986115 0.81248769 127 129 132
0.85044010 0.20992845 0.81244311 131 133 137
0.85038194 0.23007848 0.81238522 130 132 135
0.85048124 0.25019756 0.81232758 130 132 135
0.85047184 0.26985122 0.81231858 130 131 134
0.85066136 0.28976138 0.81234365 131 133 135
0.85037057 0.31011054 0.81237416 135 137 138
0.85051775 0.33024216 0.81236236 133 134 134
0.85038724 0.34979275 0.81237372 128 128 131
0.84998636 0.36970040 0.81244387 132 134 137
0.85022915 0.39002771 0.81223826 133 135 137
0.84990492 0.40985213 0.81168671 30 30 31
0.85016877 0.43001972 0.81090313 0 0 0
0.85007841 0.45001667 0.81015932 0 0 0
0.84503282 0.46006771 0.80979595 0 0 0
0.87040880 -0.54589801 0.81653310 158 165 165
0.87022642 -0.53026285 0.81636198 157 165 166
0.87005286 -0.51040685 0.81619923 156 159 161
0.86968513 -0.49036748 0.81596613 161 166 167
0.86953856 -0.47009166 0.81577190 162 168 168
0.87007654 -0.44985907 0.81559872 160 163 164
0.87018303 -0.42942341 0.81541366 162 168 169
0.87041777 -0.40975248 0.81521992 158 162 162
0.87020153 -0.38992905 0.81501743 160 163 165
0.87000691 -0.37012446 0.81483521 164 170 171
0.86985340 -0.35034542 0.81469145 160 163 166
0.86951081 -0.33022974 0.81454072 156 159 160
0.86971930 -0.30981255 0.81435319 149 151 152
0.87033490 -0.28941863 0.81409581 157 160 160
0.87039991 -0.26981514 0.81388591 151 155 156
0.87022642 -0.25007081 0.81372364 150 152 154
0.87009827 -0.23034650 0.81360380 149 154 157
0.86985175 -0.21005681 0.81347984 153 159 160
0.86995202 -0.18965596 0.81335596 155 157 159
0.86975086 -0.16980987 0.81327893 150 154 157
0.86967651 -0.15011742 0.81320943 149 152 154
0.86962028 -0.13043101 0.81315682 150 155 158
0.86953017 -0.11004041 0.81307255 150 153 156
0.86979929 -0.08969582 0.81290533 143 144 147
0.87049827 -0.06995343 0.81266442 147 152 154
0.87029354 -0.05027685 0.81247328 144 146 148
0.87010603 -0.02990814 0.81229821 138 140 142
0.86999800 -0.00954886 0.81219731 133 135 137
0.86993262 0.01010387 0.81213623 121 123 129
0.86986892 0.02975369 0.81207680 132 136 139
0.86983354 0.05010399 0.81204380 130 132 137
0.86984732 0.07045670 0.81205665 119 124 129
0.86985953 0.09010794 0.81206807 121 127 132
0.86980441 0.10975117 0.81201665 125 129 133
0.86969828 0.13008601 0.81191757 128 131 134
0.86958868 0.15041548 0.81181519 128 130 132
0.86946992 0.17003642 0.81170426 130 131 136
0.86937734 0.18965786 0.81161788 123 127 131
0.86969743 0.20980739 0.81157864 123 127 131
0.86998450 0.23031455 0.81152967 126 128 131
0.87059171 0.24998197 0.81148596 129 133 137
0.87043548 0.26951581 0.81149319 132 134 137
0.86993154 0.29003148 0.81155571 127 129 132
0.87003250 0.31028351 0.81157444 132 134 135
0.87002516 0.32991910 0.81156757 129 132 133
0.86998927 0.34979236 0.81160243 130 131 133
0.86941799 0.37005978 0.81173185 132 134 137
0.86996933 0.39018828 0.81156499 129 130 131
0.87015730 0.41024249 0.81101299 36 37 38
0.86985420 0.43004982 0.81027270 0 0 0
0.86999694 0.45008356 0.80954232 0 0 0
0.89005404 -0.54539616 0.81578252 154 160 160
0.89018281 -0.52960883 0.81561281 155 160 162
0.89033064 -0.50990123 0.81539051 156 161 163
0.89004113 -0.49001115 0.81512544 156 161 162
0.88980562 -0.47016239 0.81490980 160 166 167
0.88962650 -0.45035254 0.81474582 163 167 169
0.88948331 -0.43042556 0.81456575 157 161 161
0.89045596 -0.40984128 0.81432529 158 161 162
0.89046178 -0.38968244 0.81408972 160 163 163
0.89008151 -0.36968806 0.81387432 156 162 163
0.88990352 -0.34992408 0.81371164 157 163 164
0.88971369 -0.33016356 0.81353809 156 162 164
0.88949244 -0.31036678 0.81337844 153 157 159
0.89007514 -0.29018115 0.81312525 149 152 154
0.89054765 -0.26972220 0.81286659 151 155 157
0.89021310 -0.24975941 0.81271036 153 155 156
0.89008855 -0.23006133 0.81259663 150 154 157
0.88996666 -0.21036934 0.81248530 153 155 156
0.88986214 -0.18998450 0.81238982 153 155 158
0.88976346 -0.16960543 0.81229973 153 157 160
0.88967731 -0.14993498 0.81222108 150 151 153
0.88961177 -0.13027137 0.81216131 148 153 155
0.88951486 -0.10990508 0.81207289 144 147 151
0.88997300 -0.08951084 0.81189502 144 147 148
0.89047061 -0.06986735 0.81166459 139 144 147
0.89026820 -0.05021537 0.81148010 132 133 136
0.89009507 -0.02987220 0.81132224 137 141 142
0.88998040 -0.00953734 0.81121774 131 133 137
0.88992057 0.01009176 0.81116322 123 128 133
0.88985939 0.02971814 0.81110744 127 131 137
0.88980870 0.05004337 0.81106124 123 127 134
0.88981675 0.07037095 0.81106863 121 126 131
0.88980138 0.08999547 0.81105469 126 129 136
0.88973845 0.10961343 0.81099729 129 133 137
0.88964548 0.12992498 0.81091249 126 129 136
0.88955378 0.15023278 0.81082887 126 131 136
0.88945804 0.16983474 0.81074154 128 131 134
0.88950969 0.18995738 0.81066140 128 133 136
0.88960843 0.21040743 0.81063717 126 129 134
