ply
format ascii 1.0
element vertex 334
property float x
property float y
property float z
property uchar red
property uchar green
property uchar blue
end_header
-0.94224787 -0.36095443 1.70753610 188 189 191
-0.92866255 -0.38209621 1.70970300 187 188 188
-0.92325279 -0.38511426 1.72053766 187 188 189
-0.92889186 -0.36979264 1.69776344 190 191 191
-0.92863592 -0.37366361 1.70866694 186 187 188
-0.92713057 -0.35834285 1.68966651 187 188 189
-0.93693650 -0.35710359 1.70324588 192 192 194
-0.90928017 -0.38490292 1.71264004 188 189 189
-0.90909600 -0.37631624 1.71028013 181 182 184
-0.91949713 -0.35848781 1.68211377 190 191 191
-0.89435306 -0.64391299 1.99968100 179 179 180
-0.89628385 -0.63566798 1.99821064 186 187 187
-0.88883508 -0.38545967 1.70590277 189 191 191
-0.88466704 -0.36501825 1.69897699 183 183 183
-0.88961816 -0.37538580 1.70753853 180 182 182
-0.86749580 -0.62932800 1.99454336 186 186 185
-0.86733770 -0.61347247 1.99186587 187 187 187
-0.87952614 -0.36410570 1.69472957 184 184 184
-0.85990143 -0.62467432 1.98795259 185 186 186
-0.85990143 -0.61608428 1.98795259 187 188 188
-0.82034934 0.08787054 1.62954772 177 180 177
-0.80607856 0.07106790 1.61041045 185 185 187
-0.80513970 0.08219328 1.61677974 179 180 182
-0.81135534 0.08742206 1.62715157 176 177 177
-0.80364770 0.47378969 1.97636104 178 178 177
-0.80490847 0.47183211 1.98704565 167 165 164
-0.81047964 0.48916160 1.97636104 161 160 162
-0.80746079 0.48814656 1.99052569 163 162 163
-0.80923344 0.50391712 1.99130845 164 163 163
-0.79094687 0.07509122 1.61430992 179 176 176
-0.78548013 0.07681742 1.62662624 185 182 182
-0.79858792 0.08005939 1.61402822 142 142 143
-0.79062660 0.08354365 1.62752242 182 182 182
-0.79668007 0.47316059 1.99527854 164 159 159
-0.77335666 0.06941718 1.61211654 189 187 188
-0.77129168 0.07251202 1.63257693 176 177 177
-0.76825688 0.07487922 1.64629762 144 149 151
-0.77638455 0.08361294 1.62890895 183 184 184
-0.76913992 0.08659705 1.64712183 180 181 181
-0.75927089 0.07478203 1.65138823 104 105 110
-0.75891341 0.08654757 1.65138575 172 174 176
-0.62062332 -0.02982906 1.29740185 185 186 186
-0.62142432 -0.03228640 1.30615318 166 165 164
-0.60823064 -0.04393028 1.29104095 184 184 181
-0.61034384 -0.02826989 1.29292730 184 183 183
-0.61538281 -0.03216382 1.30113602 150 147 148
-0.61047502 -0.01700093 1.27711599 178 178 179
-0.60869179 -0.01433509 1.28855942 181 181 182
-0.59968245 -0.01835332 1.27904117 181 181 183
-0.59866495 -0.01688339 1.28774103 186 186 187
-0.52995089 0.61711886 1.38157512 167 166 168
-0.52723494 0.62670665 1.37717137 168 169 171
-0.53018497 0.62377095 1.38106862 174 175 176
-0.51898783 0.61766813 1.37782896 171 171 172
-0.51539988 0.61826224 1.38204396 174 174 174
-0.51274427 0.62949770 1.37531372 166 167 166
-0.51054821 0.62331533 1.38119867 162 163 162
-0.50877407 0.64510533 1.36617079 18 19 19
-0.48563647 0.11443349 0.81601964 135 134 134
-0.49188091 0.11695254 0.82069230 131 130 129
-0.48290816 0.12194464 0.81719059 130 128 129
-0.48400699 0.12726112 0.83177064 137 136 137
-0.48346011 0.13057118 0.84032735 138 137 138
-0.46152334 0.01758688 0.75863275 180 180 180
-0.46956422 0.01739260 0.76420391 186 186 186
-0.46308905 0.02413166 0.75886382 187 187 188
-0.46924091 0.02361523 0.76264168 188 189 189
-0.47389535 0.11124954 0.81360416 155 154 156
-0.47735898 0.12231533 0.81729186 141 140 141
-0.47767158 0.12314402 0.82772561 150 150 151
-0.45518929 0.01736259 0.75600276 187 187 186
-0.45493582 0.02397423 0.75639663 186 186 186
-0.45131924 0.02460206 0.76124880 179 179 175
-0.30113995 0.26667453 0.90385741 160 161 163
-0.30144864 0.28374185 0.90536706 149 149 149
-0.28383468 0.25777551 0.89668389 163 161 158
-0.29353141 0.25842833 0.90398162 148 148 150
-0.28711224 0.26806144 0.89791454 156 155 154
-0.29351063 0.27013800 0.90192021 163 163 162
-0.29410324 0.28390428 0.89906079 168 168 162
-0.29156978 0.28296576 0.90247833 160 158 155
-0.27800987 0.27558827 0.89727669 144 141 142
-0.24585191 -0.16992118 0.51919906 186 186 186
-0.24868619 -0.16511286 0.52071597 185 186 186
-0.23922782 -0.16835805 0.51820046 174 175 175
-0.19365098 0.17442186 0.51852377 167 166 167
-0.18907072 0.17417677 0.52025467 178 175 170
-0.19275214 0.18082506 0.51750579 161 163 161
-0.16042642 0.21837084 0.77179358 156 156 155
-0.16743489 0.22863889 0.77051409 165 163 163
-0.15431911 0.21874351 0.77097008 169 168 168
-0.15387150 0.22630660 0.77191638 174 171 171
-0.12143368 -0.39157867 0.92734861 178 177 177
-0.10237882 -0.40197715 0.91855375 179 179 180
-0.10591899 -0.40179078 0.92136198 177 178 178
-0.10168635 -0.39335201 0.91927455 179 181 181
-0.10975129 -0.39157541 0.92408388 180 180 181
-0.09154552 -0.40249257 0.91751715 182 182 183
-0.09179854 -0.39325165 0.91729670 182 182 184
-0.07863079 -0.39630489 0.91421732 182 183 185
-0.03021773 -0.19015031 0.75975570 88 62 59
-0.02507396 -0.18544405 0.76565814 89 63 60
-0.02161176 -0.17617768 0.76887711 90 64 61
-0.02277614 0.39675223 1.03487216 156 156 159
-0.02388759 0.39481999 1.04211036 166 166 169
-0.02995004 0.40618875 1.03498032 154 154 156
-0.03106709 0.40141573 1.04130852 156 157 163
-0.01563961 -0.18370624 0.76601111 90 63 61
-0.01624742 -0.17442394 0.76654641 89 62 59
-0.01864420 0.39583319 1.03120322 159 158 160
-0.01795356 0.40495355 1.02893911 151 151 154
0.01609537 0.09809555 0.65285456 176 175 177
0.01362526 0.10456246 0.65377961 177 176 178
0.02217342 0.09795597 0.64994509 173 173 174
0.02200777 0.10452432 0.65366027 176 173 174
0.05365564 0.10967599 0.67150942 179 178 179
0.05774802 0.27325951 0.89727929 179 177 178
0.05548194 0.27790696 0.90404442 164 162 164
0.05683236 0.28663714 0.90543609 160 158 158
0.06403529 0.10614812 0.66984594 183 182 184
0.06019823 0.27613452 0.89906079 164 155 159
0.06288615 0.27926341 0.90415990 152 144 148
0.06404119 0.29924552 0.89846539 170 170 170
0.06684524 0.29191311 0.90636752 167 164 164
0.07331046 0.30068135 0.90748572 137 135 135
0.08527498 -0.24614035 0.53607720 180 181 182
0.08584921 -0.23911196 0.53558072 181 182 183
0.13804587 -0.22608819 0.49838006 185 187 188
0.13985701 -0.23286793 0.50028920 186 190 191
0.13975386 -0.21887104 0.49992025 187 188 188
0.13942465 -0.21989729 0.50028920 188 188 188
0.12880119 0.09678897 0.48901375 175 174 175
0.12837102 0.10240700 0.48897267 173 172 174
0.13379901 0.23619889 0.73908848 183 183 180
0.13751929 0.23687532 0.74137846 166 164 162
0.13739755 0.24048380 0.74127114 149 148 150
0.14456539 -0.22496156 0.49788468 187 187 188
0.14314076 -0.21982923 0.49817535 185 186 185
0.14756962 0.23518843 0.73855395 153 148 150
0.14495937 0.23334212 0.74074656 162 157 157
0.14679891 0.24185841 0.73792784 168 169 168
0.14036991 0.24008979 0.74005657 138 137 138
0.21880102 -0.22302146 0.47802081 178 178 178
0.21596459 -0.21470161 0.47574191 185 186 186
0.22122517 -0.22426875 0.47776618 180 181 182
0.22182897 -0.21411444 0.47590021 182 183 185
0.31969571 0.03957715 0.82669735 165 164 165
0.31912730 0.04388116 0.82707835 181 181 182
0.31766957 0.07899670 0.67018702 156 156 159
0.31611265 0.08520882 0.66781591 166 167 170
0.32701429 0.03967773 0.83381570 172 171 173
0.33031613 0.04877438 0.82923098 178 177 181
0.32498563 0.07801703 0.67303497 170 170 172
0.33343888 0.06156235 0.82770759 179 179 180
0.32341644 0.08484267 0.66890004 167 168 171
0.35627734 0.03816331 0.45969176 182 182 183
0.35790932 0.03664844 0.46111392 178 179 180
0.35988158 0.04387686 0.45989949 178 179 180
0.35809581 0.04242325 0.46107287 182 182 182
0.34194282 0.04823836 0.83615520 180 178 182
0.36067647 0.03871001 0.45989949 182 183 184
0.36306733 0.03715226 0.46091598 174 175 177
0.36089662 0.04283181 0.45977477 182 182 183
0.36531505 0.04221145 0.46147756 181 182 182
0.41657479 0.21840248 1.18151155 173 173 175
0.41344714 0.23796797 0.61602309 168 168 170
0.41632766 0.23759077 1.17791897 177 176 180
0.41750120 0.23036484 1.18559935 169 167 170
0.41622644 0.24760612 0.61467073 167 167 168
0.41574658 0.24710132 1.17186181 176 176 177
0.41180050 0.24229310 1.18099630 170 170 172
0.43332525 -0.26078238 0.74812209 171 171 174
0.43367055 -0.25170047 0.74606876 175 176 176
0.42398824 0.23729501 0.61325521 123 126 135
0.42127287 0.23983401 1.17894232 183 183 185
0.42563983 0.23277322 1.18733354 175 173 175
0.42180024 0.24591713 0.61520411 166 167 169
0.42192604 0.24777400 1.17791897 173 173 176
0.43292898 0.25070921 1.18506362 175 175 176
0.43893300 0.27311655 1.17894232 170 171 172
0.43471758 0.26720980 1.18557770 173 171 172
0.44219580 -0.26047686 0.74863836 172 171 171
0.44224851 -0.25366584 0.74763217 174 174 176
0.45404972 0.05493158 0.47805286 172 173 174
0.45204715 0.06195646 0.47761141 177 179 178
0.45865094 0.06348702 0.51808787 166 169 171
0.45228406 0.15659284 0.45441444 164 166 167
0.44442107 0.14774323 0.52456630 155 157 160
0.45277027 0.16079987 0.45404767 164 164 166
0.45899946 0.18869982 0.68577881 157 158 160
0.44012946 0.23824464 1.19137406 165 165 166
0.44643017 0.25381256 1.18665839 158 157 159
0.45089303 0.27363814 1.17826009 169 170 171
0.45003432 0.26847680 1.18599390 170 171 171
0.46764331 -0.03076097 0.47968575 176 178 181
0.46663846 -0.02616265 0.48147463 176 178 180
0.46554908 -0.01863698 0.48234176 175 177 179
0.46257809 0.05982304 0.51892722 173 174 176
0.46542305 0.06419032 0.51861775 172 174 175
0.47116552 0.06792799 0.52032127 175 176 178
0.46601464 0.17676819 0.69171196 169 170 173
0.46412372 0.18428219 0.68851051 161 161 163
0.46461228 0.27211785 1.18555015 170 170 169
0.49394806 -0.20462801 0.80703668 172 173 174
0.49909818 -0.19895169 0.80605453 171 171 174
0.50908126 -0.20641991 0.80834562 170 171 173
0.50607627 -0.19883343 0.80840961 164 165 169
0.51425499 -0.08025307 0.90506256 176 176 180
0.51743666 -0.07420894 0.90893335 177 178 180
0.51428741 0.23927943 0.77809401 164 165 171
0.51712480 0.23607705 0.78128319 161 161 163
0.51549832 0.24440180 0.77674862 165 166 170
0.52056770 -0.20986141 0.81107008 169 169 174
0.52776126 -0.08207204 0.90789285 166 165 167
0.52862941 -0.07232278 0.90858376 171 171 173
0.53598665 -0.05174572 0.91425240 170 169 170
0.52466451 0.23724414 0.77737484 160 163 166
0.52091925 0.23527742 0.78030732 159 161 164
0.53005406 0.24856784 0.77197596 162 162 164
0.53663301 0.26277840 0.76514665 149 149 152
0.54303618 -0.06050928 0.91401184 172 172 176
0.54546434 -0.04968144 0.91655861 170 171 172
0.54708097 -0.04826759 0.92158576 164 164 165
0.54267639 -0.03847859 0.91607004 183 182 183
0.54229311 0.25472492 0.76305933 155 155 159
0.54175090 0.26329863 0.76460326 166 166 167
0.57945639 -0.24153627 0.50177044 166 168 169
0.57835269 -0.11047483 0.95723783 164 164 165
0.57867957 -0.10888162 0.96466125 171 170 171
0.58510383 -0.24106697 0.49968591 164 168 171
0.58282823 -0.24200961 0.50172825 164 168 170
0.58573254 -0.23724081 0.49851421 144 146 153
0.58271190 -0.23893699 0.50202635 163 166 169
0.58583811 -0.12059207 0.96498281 163 164 164
0.58151531 -0.10817610 0.95842234 167 167 168
0.59011656 -0.10677788 0.96377945 163 164 166
0.59535116 -0.09496413 0.95882863 166 167 169
0.59480738 -0.09681145 0.96197073 163 165 167
0.59595138 0.13893747 0.67721543 171 175 176
0.59583252 0.14676088 0.67864826 162 164 167
0.59462392 0.15339412 0.68085370 163 169 173
0.60146987 -0.10355919 0.96389457 160 160 162
0.60045138 0.14179279 0.67687669 153 153 155
0.65963292 0.21903022 0.89431643 173 174 174
0.66290178 0.21807293 0.89040222 174 174 178
0.66958362 0.23089447 0.89598747 167 168 171
0.67622842 0.23321977 0.90089965 167 169 171
0.67711788 0.24039358 0.89906079 165 166 166
0.67811322 0.47463703 1.27904117 153 153 156
0.67957261 0.47199422 1.28389066 163 165 169
0.68644167 -0.00177491 1.13816707 168 168 171
0.68661356 -0.00728880 1.14653369 166 166 168
0.69486357 0.01041726 1.13778861 167 167 170
0.69183036 0.00816472 1.14958699 171 171 173
0.69296191 0.01549113 1.16409898 172 172 175
0.68512004 0.23345254 0.89613804 166 169 170
0.68739169 0.23210955 0.90235339 164 167 168
0.69929403 0.45771149 1.29368675 147 146 146
0.69316344 0.47294916 1.29446477 166 168 170
0.69713619 0.47102937 1.30113602 179 179 182
0.69750230 0.48037778 1.29451128 168 168 168
0.70149948 0.01205765 1.14898242 168 166 168
0.70322672 0.23746400 0.90566754 166 166 168
0.70287374 0.45554251 1.29503855 150 149 151
0.70449339 0.46834047 1.29692434 162 164 166
0.71238813 0.47233699 1.30479249 166 168 173
0.71581846 0.48168788 1.30615318 177 178 182
0.72009379 0.47184081 1.31120276 150 145 159
0.81367223 -0.18131302 0.79892996 176 181 180
0.81713372 -0.18309396 0.80105437 172 175 175
0.81678740 -0.17264373 0.79860742 173 173 174
0.81864429 -0.17487124 0.80103362 171 172 173
0.82975383 -0.18120693 0.79846248 165 170 170
0.82662130 -0.18502487 0.80354791 167 173 174
0.82410492 -0.16976625 0.79350456 167 169 169
0.82521197 -0.17590458 0.80258935 167 170 170
0.84833765 -0.17589429 0.80894187 169 169 171
0.89521424 -0.28909110 0.93215638 140 139 140
0.89846079 -0.28141765 0.94086441 161 163 163
0.89544421 -0.27380887 0.93554227 170 171 173
0.89648687 -0.27233137 0.94177907 173 175 178
0.90174003 -0.28536005 0.93071105 140 136 140
0.90619993 -0.27248122 0.93452172 168 168 169
0.90840526 -0.26976612 0.94458288 171 171 174
1.09418452 -0.31735361 1.30867147 163 164 164
1.09811284 0.27478173 0.95576352 155 158 159
1.09777292 0.27827945 0.96246248 160 162 164
1.09835002 0.29009888 0.95855777 159 163 164
1.09770809 0.28384638 0.96307864 164 167 170
1.10396761 -0.31692777 1.31629729 171 171 171
1.11541112 -0.31126789 1.33076145 168 169 171
1.11992896 -0.31919470 1.34502351 171 174 175
1.10972112 -0.29843684 1.31501931 173 173 174
1.10911828 -0.29906696 1.32790929 162 162 163
1.10198461 0.27678800 0.95567830 154 160 160
1.10134494 0.27910316 0.96291453 159 163 164
1.10293074 0.28270565 0.95707036 160 163 164
1.10684547 0.28990260 0.96258778 154 154 155
1.12621290 -0.31100247 1.33114413 173 174 174
1.12109345 -0.31454872 1.34502882 168 172 174
1.12117326 0.29408534 0.96565789 157 158 159
1.14103425 -0.31730598 1.33706474 172 172 172
1.27873170 -0.08373643 1.59880149 173 173 175
1.27660330 -0.08379312 1.60465751 168 169 170
1.27844061 -0.07774511 1.60829264 177 182 182
1.28149509 -0.10031683 1.59880149 177 178 180
1.28175473 -0.10055398 1.60258114 173 174 176
1.28425848 -0.08373643 1.59880149 174 177 178
1.28879690 -0.09090212 1.60718588 174 175 176
1.28987931 -0.07160334 1.61204411 175 176 176
1.29676297 -0.06409995 1.62662625 176 179 180
1.29384847 -0.06160216 1.64737348 167 170 173
1.29446781 -0.04494434 1.59504666 179 180 182
1.28983167 -0.05054931 1.60877774 180 181 182
1.29293107 -0.05145708 1.62652293 179 181 182
1.29479405 -0.05780707 1.64737993 168 171 173
1.30325788 -0.08533139 1.61147845 172 175 177
1.31599927 -0.09239006 1.62955242 176 178 180
1.30346256 -0.07755652 1.61403280 177 177 179
1.31035326 -0.07171509 1.62956655 175 176 177
1.30199540 -0.06140590 1.64838564 171 176 178
1.30053496 -0.04632130 1.59503961 180 181 183
1.30114424 -0.04515534 1.60258114 179 181 182
1.30595934 -0.05851496 1.62761259 178 178 179
1.30223238 -0.05794755 1.65138328 171 175 177
1.32057989 -0.09684572 1.63347435 174 176 176
1.32413793 -0.09731471 1.64138460 175 176 176
1.32477735 -0.07272275 1.63516802 175 175 177
1.33460797 -0.06990832 1.64353130 176 176 178
1.34249926 -0.07060969 1.63610474 177 177 179
1.34286215 -0.07178169 1.64138460 171 171 173
1.57966924 0.07455476 1.98795259 177 177 179
1.58938268 0.07028389 1.99213883 175 176 177
1.60691720 0.06634308 1.99382252 182 183 184
