ply
format ascii 1.0
element vertex 1065
property float x
property float y
property float z
property uchar red
property uchar green
property uchar blue
end_header
0.38247275 -0.06010300 0.48769197 168 168 166
0.38331568 -0.06010300 0.48769197 167 167 165
0.38471216 -0.06018961 0.48839471 168 167 165
0.38611266 -0.06027646 0.48909944 165 164 162
0.38695803 -0.06027646 0.48909944 158 153 152
0.38780341 -0.06027646 0.48909944 146 137 136
0.38836858 -0.06023300 0.48874682 126 117 116
-0.05809632 -0.07815132 0.64316112 36 35 42
-0.05698466 -0.07815132 0.64316112 36 35 42
-0.05545212 -0.07756262 0.63831621 36 35 42
-0.05404351 -0.07712687 0.63473016 38 37 44
-0.05309558 -0.07734413 0.63651818 39 37 47
-0.05189795 -0.07719915 0.63532507 40 37 50
-0.05084749 -0.07727157 0.63592106 40 36 54
-0.04974836 -0.07727157 0.63592106 49 45 69
-0.04860362 -0.07719915 0.63532507 99 97 113
-0.04750552 -0.07719915 0.63532507 133 130 136
-0.04645094 -0.07727157 0.63592106 147 144 145
-0.04530930 -0.07719915 0.63532507 159 159 159
-0.04429422 -0.07734413 0.63651818 174 173 176
-0.04315353 -0.07727157 0.63592106 178 177 180
-0.04201498 -0.07719915 0.63532507 179 178 180
-0.04091687 -0.07719915 0.63532507 179 178 180
-0.03989354 -0.07734413 0.63651818 180 179 181
-0.03872065 -0.07719915 0.63532507 180 179 181
-0.03751706 -0.07698271 0.63354379 180 179 181
-0.03638802 -0.07691082 0.63295221 180 179 181
-0.03532700 -0.07698271 0.63354379 181 180 182
-0.03420001 -0.07691082 0.63295221 180 179 181
0.05004932 -0.07219237 0.59412080 182 179 182
0.12426490 -0.08261935 0.67993164 182 178 182
0.12569225 -0.08278542 0.68129832 179 176 180
0.12686981 -0.08278542 0.68129832 180 178 180
0.12843463 -0.08303578 0.68335873 180 179 181
0.12935495 -0.08286870 0.68198377 180 179 181
0.13053371 -0.08286870 0.68198377 179 178 180
0.13118456 -0.08253657 0.67925036 179 178 179
0.13235860 -0.08253657 0.67925036 177 176 176
0.13353261 -0.08253657 0.67925036 173 173 173
0.13484176 -0.08261935 0.67993164 159 158 159
0.13601696 -0.08261935 0.67993164 149 148 150
0.13719217 -0.08261935 0.67993164 140 135 140
0.13822873 -0.08253657 0.67925036 107 104 111
0.13940276 -0.08253657 0.67925036 67 66 77
0.14071779 -0.08261935 0.67993164 51 49 56
0.14203547 -0.08270230 0.68061429 43 41 49
0.14306821 -0.08261935 0.67993164 40 39 46
0.14482446 -0.08295216 0.68267053 38 37 44
0.14498237 -0.08237150 0.67789185 38 36 42
0.14600804 -0.08228920 0.67721462 39 37 43
0.14688507 -0.08212512 0.67586422 37 36 40
0.14805324 -0.08212512 0.67586422 37 36 41
0.14966910 -0.08237150 0.67789185 37 35 42
0.15069008 -0.08228920 0.67721462 37 35 42
0.15201245 -0.08237150 0.67789185 38 36 41
0.28660345 -0.07387578 0.60797477 35 34 36
0.28739652 -0.07380958 0.60742998 35 34 37
0.28844643 -0.07380958 0.60742998 36 34 38
0.28949630 -0.07380958 0.60742998 37 35 39
0.29054621 -0.07380958 0.60742998 40 37 41
0.29159608 -0.07380958 0.60742998 42 38 43
0.29264599 -0.07380958 0.60742998 42 38 43
0.29343295 -0.07374351 0.60688615 42 38 43
0.29448190 -0.07374351 0.60688615 42 40 48
0.29553086 -0.07374351 0.60688615 35 32 40
0.29657981 -0.07374351 0.60688615 57 53 61
0.29762876 -0.07374351 0.60688615 127 124 129
0.29867771 -0.07374351 0.60688615 140 141 139
0.29999524 -0.07380958 0.60742998 151 152 150
0.30104515 -0.07380958 0.60742998 160 161 159
0.30209503 -0.07380958 0.60742998 168 169 167
0.30314493 -0.07380958 0.60742998 173 173 171
0.30419481 -0.07380958 0.60742998 174 173 173
0.30524471 -0.07380958 0.60742998 175 174 174
0.30656931 -0.07387578 0.60797477 172 171 172
0.30407488 -0.07302438 0.60096794 170 169 171
0.30538434 -0.07308917 0.60150117 174 173 175
0.30724183 -0.07328425 0.60310662 174 173 175
0.30801022 -0.07321911 0.60257053 174 173 175
0.30850327 -0.07308917 0.60150117 174 173 175
0.31064546 -0.07334951 0.60364366 174 173 175
0.41798404 -0.08237150 0.67789185 174 174 174
0.41790202 -0.08212512 0.67586422 174 174 174
0.41575411 -0.08147527 0.67051619 174 174 174
0.41527003 -0.08115418 0.66787374 174 174 174
0.41560549 -0.08099458 0.66656029 174 174 174
0.41757879 -0.08115418 0.66787374 174 174 174
0.37768686 -0.05930273 0.48804307 172 172 172
0.37880310 -0.05934546 0.48839471 173 173 173
0.37937394 -0.05930273 0.48804307 172 172 171
0.38076574 -0.05938824 0.48874682 169 169 167
0.38133556 -0.05934546 0.48839471 169 169 168
0.38245526 -0.05938824 0.48874682 169 168 168
0.38274810 -0.05930273 0.48804307 169 168 167
0.38359165 -0.05930273 0.48804307 169 168 167
0.38498953 -0.05938824 0.48874682 172 167 165
0.38611266 -0.05943109 0.48909944 163 157 155
0.38695803 -0.05943109 0.48909944 155 148 146
0.38780341 -0.05943109 0.48909944 145 136 135
0.38864878 -0.05943109 0.48909944 128 119 118
-0.05804125 -0.07696665 0.64255148 35 35 39
-0.05687674 -0.07689376 0.64194304 36 36 41
-0.05545212 -0.07645933 0.63831621 38 38 42
-0.05399296 -0.07595866 0.63413644 38 38 42
-0.05304577 -0.07617243 0.63592106 39 37 46
-0.05189795 -0.07610104 0.63532507 39 36 53
-0.05079984 -0.07610104 0.63532507 42 39 59
-0.04974836 -0.07617243 0.63592106 50 47 73
-0.04860362 -0.07610104 0.63532507 99 96 121
-0.04750552 -0.07610104 0.63532507 129 128 140
-0.04645094 -0.07617243 0.63592106 142 143 145
-0.04530930 -0.07610104 0.63532507 161 161 163
-0.04429422 -0.07624396 0.63651818 169 168 172
-0.04315353 -0.07617243 0.63592106 179 179 182
-0.04201498 -0.07610104 0.63532507 178 178 182
-0.04091687 -0.07610104 0.63532507 179 178 180
-0.03996859 -0.07638741 0.63771576 179 178 180
-0.03872065 -0.07610104 0.63532507 180 179 181
-0.03751706 -0.07588767 0.63354379 180 179 181
-0.03642203 -0.07588767 0.63354379 180 179 180
-0.03536005 -0.07595866 0.63413644 179 178 178
-0.03423198 -0.07588767 0.63354379 180 176 178
0.12321328 -0.08152591 0.68061429 182 178 180
0.12451468 -0.08160786 0.68129832 182 176 178
0.12594540 -0.08177222 0.68267053 182 176 178
0.12712534 -0.08177222 0.68267053 181 177 179
0.12856422 -0.08193725 0.68404830 181 177 180
0.12948522 -0.08177222 0.68267053 180 179 181
0.13066517 -0.08177222 0.68267053 181 180 180
0.13131614 -0.08144414 0.67993164 179 178 178
0.13235860 -0.08136254 0.67925036 178 178 178
0.13353261 -0.08136254 0.67925036 172 172 172
0.13484176 -0.08144414 0.67993164 162 162 163
0.13601696 -0.08144414 0.67993164 148 148 149
0.13719217 -0.08144414 0.67993164 134 134 138
0.13822873 -0.08136254 0.67925036 104 103 109
0.13940276 -0.08136254 0.67925036 66 65 74
0.14071779 -0.08144414 0.67993164 44 43 51
0.14189300 -0.08144414 0.67993164 43 42 50
0.14292485 -0.08136254 0.67925036 40 39 47
0.14453335 -0.08160786 0.68129832 38 37 44
0.14483753 -0.08111870 0.67721462 38 37 44
0.14586233 -0.08103774 0.67653877 37 35 42
0.14659277 -0.08079583 0.67451924 36 34 41
0.14761174 -0.08071552 0.67384875 35 34 40
0.14937034 -0.08103774 0.67653877 35 34 40
0.15053970 -0.08103774 0.67653877 36 35 40
0.15170904 -0.08103774 0.67653877 38 37 42
0.15287837 -0.08103774 0.67653877 35 34 38
0.28660345 -0.07282495 0.60797477 34 33 35
0.28739652 -0.07275969 0.60742998 34 33 35
0.28870511 -0.07282495 0.60797477 34 33 36
0.28975594 -0.07282495 0.60797477 36 35 39
0.29080677 -0.07282495 0.60797477 40 38 42
0.29159608 -0.07275969 0.60742998 41 38 43
0.29264599 -0.07275969 0.60742998 42 38 43
0.29343295 -0.07269455 0.60688615 42 38 43
0.29448190 -0.07269455 0.60688615 44 38 46
0.29553086 -0.07269455 0.60688615 38 32 40
0.29657981 -0.07269455 0.60688615 59 53 59
0.29762876 -0.07269455 0.60688615 130 126 130
0.29867771 -0.07269455 0.60688615 140 141 142
0.29999524 -0.07275969 0.60742998 150 152 152
0.30104515 -0.07275969 0.60742998 160 161 161
0.30209503 -0.07275969 0.60742998 168 168 168
0.30314493 -0.07275969 0.60742998 172 172 172
0.30419481 -0.07275969 0.60742998 173 173 173
0.30524471 -0.07275969 0.60742998 174 174 174
0.30656931 -0.07282495 0.60797477 173 173 175
0.30407488 -0.07198565 0.60096794 175 175 177
0.30538434 -0.07204952 0.60150117 175 175 177
0.30724183 -0.07224183 0.60310662 173 173 175
0.30801022 -0.07217761 0.60257053 173 173 175
0.30877724 -0.07211351 0.60203540 173 173 175
0.31092235 -0.07237060 0.60418171 173 173 175
0.41590452 -0.08079583 0.67451924 174 174 174
0.41624203 -0.08063537 0.67317957 174 174 174
0.41452408 -0.08007871 0.66853237 174 174 174
0.41445339 -0.07984249 0.66656029 174 174 174
0.41478977 -0.07968578 0.66525203 173 173 173
0.37741512 -0.05841713 0.48769197 172 172 172
0.37853038 -0.05845919 0.48804307 173 173 173
0.37937394 -0.05845919 0.48804307 171 171 170
0.38076574 -0.05854348 0.48874682 167 166 164
0.38106102 -0.05845919 0.48804307 171 170 167
0.38245526 -0.05854348 0.48874682 170 169 166
0.38274810 -0.05845919 0.48804307 170 169 165
0.38359165 -0.05845919 0.48804307 169 168 163
0.38471216 -0.05850131 0.48839471 172 167 160
0.38611266 -0.05858572 0.48909944 164 159 152
0.38667905 -0.05854348 0.48874682 154 147 142
0.38780341 -0.05858572 0.48909944 145 134 132
0.38836858 -0.05854348 0.48874682 135 124 121
-0.05539996 -0.07528517 0.63771576 39 38 42
-0.05384186 -0.07465311 0.63236177 39 38 42
-0.05304577 -0.07507329 0.63592106 39 37 46
-0.05189795 -0.07500294 0.63532507 39 37 50
-0.05079984 -0.07500294 0.63532507 40 39 53
-0.04974836 -0.07507329 0.63592106 51 50 68
-0.04860362 -0.07500294 0.63532507 95 94 109
-0.04750552 -0.07500294 0.63532507 126 126 135
-0.04640741 -0.07500294 0.63532507 147 148 150
-0.04526687 -0.07493271 0.63473016 161 161 163
-0.04429422 -0.07514378 0.63651818 176 176 176
-0.04315353 -0.07507329 0.63592106 186 184 185
-0.04197564 -0.07493271 0.63473016 179 178 180
-0.04087856 -0.07493271 0.63473016 179 178 180
-0.03993103 -0.07521441 0.63711637 179 178 180
-0.03868440 -0.07493271 0.63473016 180 179 181
-0.03748203 -0.07472281 0.63295221 182 181 183
-0.03642203 -0.07479265 0.63354379 181 179 181
-0.03536005 -0.07486261 0.63413644 181 178 181
-0.03420001 -0.07472281 0.63295221 182 178 181
0.12358552 -0.08059227 0.68267053 182 178 179
0.12501726 -0.08075493 0.68404830 182 177 179
0.12645479 -0.08091823 0.68543160 181 178 179
0.12751058 -0.08083650 0.68473923 180 178 180
0.12882422 -0.08091823 0.68543160 181 179 181
0.12974654 -0.08075493 0.68404830 179 178 179
0.13079688 -0.08067352 0.68335873 176 176 176
0.13144799 -0.08034953 0.68061429 178 178 178
0.13249135 -0.08026894 0.67993164 180 180 180
0.13353261 -0.08018851 0.67925036 174 174 174
0.13497715 -0.08034953 0.68061429 163 163 163
0.13601696 -0.08026894 0.67993164 146 146 146
0.13719217 -0.08026894 0.67993164 122 120 123
0.13822873 -0.08018851 0.67925036 107 104 108
0.13940276 -0.08018851 0.67925036 73 71 78
0.14071779 -0.08026894 0.67993164 37 37 40
0.14189300 -0.08026894 0.67993164 41 41 44
0.14292485 -0.08018851 0.67925036 40 40 43
0.14453335 -0.08043028 0.68129832 39 39 42
0.14483753 -0.07994819 0.67721462 36 37 40
0.14571689 -0.07978877 0.67586422 34 34 38
0.14644705 -0.07955083 0.67384875 34 34 38
0.14746515 -0.07947183 0.67317957 34 34 38
0.14937034 -0.07986840 0.67653877 34 34 38
0.15038960 -0.07978877 0.67586422 34 34 38
0.15170904 -0.07986840 0.67653877 34 34 38
0.15287837 -0.07986840 0.67653877 33 33 38
0.15404771 -0.07986840 0.67653877 33 33 38
0.28660345 -0.07177411 0.60797477 35 34 36
0.28765428 -0.07177411 0.60797477 35 34 38
0.28870511 -0.07177411 0.60797477 35 34 38
0.28975594 -0.07177411 0.60797477 37 36 39
0.29080677 -0.07177411 0.60797477 39 38 42
0.29185763 -0.07177411 0.60797477 39 38 42
0.29264599 -0.07170980 0.60742998 41 38 43
0.29369590 -0.07170980 0.60742998 42 38 43
0.29448190 -0.07164560 0.60688615 40 38 45
0.29553086 -0.07164560 0.60688615 27 25 32
0.29684556 -0.07170980 0.60742998 60 60 64
0.29789546 -0.07170980 0.60742998 114 115 118
0.29894534 -0.07170980 0.60742998 138 142 144
0.29999524 -0.07170980 0.60742998 154 157 158
0.30104515 -0.07170980 0.60742998 163 164 164
0.30236596 -0.07177411 0.60797477 170 170 170
0.30314493 -0.07170980 0.60742998 171 171 171
0.30446765 -0.07177411 0.60797477 173 173 172
0.30524471 -0.07170980 0.60742998 173 173 173
0.30656931 -0.07177411 0.60797477 174 174 175
0.30407488 -0.07094692 0.60096794 176 176 177
0.30538434 -0.07100987 0.60150117 174 173 175
0.30696872 -0.07113612 0.60257053 173 173 175
0.30801022 -0.07113612 0.60257053 174 173 175
0.30877724 -0.07107294 0.60203540 175 174 176
0.31064546 -0.07126281 0.60364366 175 174 176
0.41186994 -0.07907918 0.66985363 174 174 174
0.41343626 -0.07915740 0.67051619 173 173 173
0.41418549 -0.07907918 0.66985363 174 174 174
0.41411567 -0.07884545 0.66787374 175 175 175
0.41404626 -0.07861309 0.66590554 174 174 174
0.41438311 -0.07845895 0.66459984 171 171 171
0.41634819 -0.07861309 0.66590554 176 176 176
0.37687287 -0.05749147 0.48699126 173 172 172
0.37825808 -0.05757419 0.48769197 173 173 172
0.37910101 -0.05757419 0.48769197 173 172 170
0.38049141 -0.05765716 0.48839471 171 170 166
0.38106102 -0.05761565 0.48804307 173 172 168
0.38217971 -0.05765716 0.48839471 171 171 165
0.38247275 -0.05757419 0.48769197 170 170 163
0.38359165 -0.05761565 0.48804307 171 170 163
0.38471216 -0.05765716 0.48839471 172 168 161
0.38611266 -0.05774035 0.48909944 165 160 153
0.38667905 -0.05769873 0.48874682 156 148 141
0.38780341 -0.05774035 0.48909944 146 134 129
0.38836858 -0.05769873 0.48874682 137 125 120
-0.05539996 -0.07418293 0.63771576 38 37 42
-0.05399296 -0.07376656 0.63413644 39 37 44
-0.05309558 -0.07404362 0.63651818 39 37 46
-0.05194663 -0.07397415 0.63592106 39 38 47
-0.05084749 -0.07397415 0.63592106 39 38 48
-0.04974836 -0.07397415 0.63592106 54 53 67
-0.04860362 -0.07390483 0.63532507 99 91 107
-0.04750552 -0.07390483 0.63532507 128 121 133
-0.04640741 -0.07390483 0.63532507 148 142 148
-0.04522453 -0.07376656 0.63413644 162 160 161
-0.04425267 -0.07397415 0.63592106 174 170 172
-0.04311308 -0.07390483 0.63532507 181 178 179
-0.04197564 -0.07383563 0.63473016 180 177 179
-0.04084032 -0.07376656 0.63413644 180 177 180
-0.03989354 -0.07404362 0.63651818 180 178 181
-0.03868440 -0.07383563 0.63473016 180 179 181
-0.03748203 -0.07362881 0.63295221 183 179 182
-0.03638802 -0.07362881 0.63295221 181 179 181
-0.03532700 -0.07369762 0.63354379 181 180 182
-0.03416811 -0.07356012 0.63236177 183 179 182
0.12346119 -0.07933245 0.68198377 180 179 181
0.12501726 -0.07957260 0.68404830 180 179 181
0.12645479 -0.07973352 0.68543160 180 179 181
0.12751058 -0.07965298 0.68473923 180 179 181
0.12895460 -0.07981422 0.68612534 179 178 180
0.12974654 -0.07957260 0.68404830 181 180 180
0.13079688 -0.07949239 0.68335873 177 177 177
0.13158008 -0.07925271 0.68129832 176 176 176
0.13249135 -0.07909373 0.67993164 175 175 175
0.13353261 -0.07901448 0.67925036 173 173 173
0.13511279 -0.07925271 0.68129832 164 164 164
0.13615353 -0.07917314 0.68061429 147 143 144
0.13719217 -0.07909373 0.67993164 134 129 132
0.13822873 -0.07901448 0.67925036 109 103 108
0.13940276 -0.07901448 0.67925036 69 65 72
0.14071779 -0.07909373 0.67993164 46 44 52
0.14189300 -0.07909373 0.67993164 41 40 47
0.14292485 -0.07901448 0.67925036 38 39 43
0.14453335 -0.07925271 0.68129832 37 37 43
0.14483753 -0.07877767 0.67721462 33 34 39
0.14571689 -0.07862059 0.67586422 33 33 40
0.14644705 -0.07838614 0.67384875 34 34 38
0.14746515 -0.07830829 0.67317957 34 34 38
0.14907280 -0.07854228 0.67519110 33 33 37
0.15023981 -0.07854228 0.67519110 34 32 40
0.15155777 -0.07862059 0.67586422 34 32 40
0.15272595 -0.07862059 0.67586422 34 32 41
0.15374085 -0.07854228 0.67519110 34 32 40
0.28580895 -0.07078676 0.60852051 39 35 38
0.28686070 -0.07078676 0.60852051 38 34 37
0.28765428 -0.07072327 0.60797477 36 33 37
0.28896427 -0.07078676 0.60852051 35 33 36
0.29001606 -0.07078676 0.60852051 35 34 36
0.29080677 -0.07072327 0.60797477 37 36 38
0.29185763 -0.07072327 0.60797477 38 37 40
0.29264599 -0.07065991 0.60742998 40 39 42
0.29369590 -0.07065991 0.60742998 40 39 43
0.29474577 -0.07065991 0.60742998 41 39 45
0.29579568 -0.07065991 0.60742998 29 28 34
0.29684556 -0.07065991 0.60742998 76 79 82
0.29789546 -0.07065991 0.60742998 111 115 118
0.29894534 -0.07065991 0.60742998 139 145 147
0.30026430 -0.07072327 0.60797477 156 160 162
0.30131513 -0.07072327 0.60797477 165 165 165
0.30236596 -0.07072327 0.60797477 172 171 171
0.30314493 -0.07065991 0.60742998 172 171 170
0.30446765 -0.07072327 0.60797477 174 173 172
0.30524471 -0.07065991 0.60742998 174 173 172
0.30656931 -0.07072327 0.60797477 175 173 173
0.30407488 -0.06990820 0.60096794 176 173 174
0.30511361 -0.06990820 0.60096794 172 169 173
0.30669612 -0.07003237 0.60203540 175 171 176
0.30773669 -0.07003237 0.60203540 178 174 179
0.30822977 -0.06990820 0.60096794 178 174 178
0.30981782 -0.07003237 0.60203540 178 174 176
0.41146335 -0.07784447 0.66919231 174 174 174
0.41261998 -0.07784447 0.66919231 173 173 173
0.41377664 -0.07784447 0.66919231 174 174 174
0.41370809 -0.07761462 0.66721636 175 175 175
0.41404626 -0.07746213 0.66590554 176 176 175
0.41438311 -0.07731025 0.66459984 175 175 173
0.37687287 -0.05664975 0.48699126 175 172 171
0.37825808 -0.05673126 0.48769197 175 172 171
0.37910101 -0.05673126 0.48769197 175 172 170
0.38049141 -0.05681301 0.48839471 173 172 168
0.38106102 -0.05677210 0.48804307 173 172 168
0.38217971 -0.05681301 0.48839471 174 171 166
0.38274810 -0.05677210 0.48804307 174 171 165
0.38359165 -0.05677210 0.48804307 173 169 163
0.38498953 -0.05685396 0.48874682 174 166 160
0.38611266 -0.05689499 0.48909944 167 158 153
0.38695803 -0.05689499 0.48909944 158 148 142
-0.05820676 -0.07384484 0.64438391 34 34 36
-0.05698466 -0.07370471 0.64316112 34 34 38
-0.05550439 -0.07321844 0.63891786 35 34 40
-0.05319548 -0.07308069 0.63771576 39 37 46
-0.05204428 -0.07301200 0.63711637 40 38 48
-0.05094307 -0.07301200 0.63711637 37 35 45
-0.04979507 -0.07294345 0.63651818 63 58 73
-0.04864922 -0.07287502 0.63592106 106 101 114
-0.04755008 -0.07287502 0.63592106 128 124 135
-0.04645094 -0.07287502 0.63592106 146 143 152
-0.04530930 -0.07280672 0.63532507 162 160 164
-0.04433585 -0.07301200 0.63711637 178 176 180
-0.04319405 -0.07294345 0.63651818 186 182 186
-0.04201498 -0.07280672 0.63532507 181 176 184
-0.04091687 -0.07280672 0.63532507 181 176 184
-0.04000623 -0.07314950 0.63831621 181 176 184
-0.03875698 -0.07287502 0.63592106 182 177 184
-0.03758732 -0.07273855 0.63473016 182 178 183
-0.03649024 -0.07273855 0.63473016 182 178 183
-0.03539316 -0.07273855 0.63473016 182 179 184
0.12358552 -0.07823239 0.68267053 180 180 184
0.12501726 -0.07839029 0.68404830 179 179 183
0.12658277 -0.07862831 0.68612534 180 180 182
0.12776870 -0.07862831 0.68612534 179 179 181
0.12908526 -0.07870797 0.68682051 178 178 180
0.12987761 -0.07846946 0.68473923 180 179 180
0.13106112 -0.07846946 0.68473923 178 177 179
0.13171247 -0.07815369 0.68198377 177 176 177
0.13262437 -0.07799675 0.68061429 176 176 177
0.13380076 -0.07799675 0.68061429 169 169 170
0.13538493 -0.07823239 0.68267053 162 162 162
0.13629037 -0.07807515 0.68129832 146 145 145
0.13732992 -0.07799675 0.68061429 137 131 135
0.13836738 -0.07791852 0.67993164 115 108 113
0.13954258 -0.07791852 0.67993164 66 65 71
0.14085908 -0.07799675 0.68061429 43 43 52
0.14203547 -0.07799675 0.68061429 40 40 49
0.14306821 -0.07791852 0.67993164 38 38 47
0.14467876 -0.07815369 0.68198377 37 37 46
0.14483753 -0.07760716 0.67721462 34 35 44
0.14586233 -0.07752971 0.67653877 33 33 42
0.14673877 -0.07737527 0.67519110 33 32 40
0.14775862 -0.07729828 0.67451924 33 32 39
0.14937034 -0.07752971 0.67653877 33 32 39
0.15038960 -0.07745241 0.67586422 34 32 41
0.15186059 -0.07760716 0.67721462 34 32 41
0.15287837 -0.07752971 0.67653877 34 32 41
0.15389413 -0.07745241 0.67586422 34 32 41
0.28580895 -0.06973498 0.60852051 37 34 37
0.28686070 -0.06973498 0.60852051 36 33 36
0.28765428 -0.06967244 0.60797477 35 33 35
0.28896427 -0.06973498 0.60852051 35 33 35
0.29001606 -0.06973498 0.60852051 35 34 36
0.29106784 -0.06973498 0.60852051 36 35 38
0.29185763 -0.06967244 0.60797477 39 37 41
0.29264599 -0.06961001 0.60742998 41 39 43
0.29369590 -0.06961001 0.60742998 42 39 43
0.29474577 -0.06961001 0.60742998 38 38 42
0.29579568 -0.06961001 0.60742998 31 31 35
0.29711178 -0.06967244 0.60797477 83 85 88
0.29789546 -0.06961001 0.60742998 105 106 110
0.29894534 -0.06961001 0.60742998 132 132 136
0.30026430 -0.06967244 0.60797477 157 157 159
0.30131513 -0.06967244 0.60797477 165 164 164
0.30236596 -0.06967244 0.60797477 170 169 169
0.30314493 -0.06961001 0.60742998 171 170 170
0.30419481 -0.06961001 0.60742998 174 172 172
0.30551848 -0.06967244 0.60797477 176 172 173
0.30656931 -0.06967244 0.60797477 177 172 174
0.30380553 -0.06880847 0.60043561 179 173 175
0.30484334 -0.06880847 0.60043561 179 174 176
0.30642396 -0.06893059 0.60150117 180 176 177
0.30773669 -0.06899180 0.60203540 179 175 176
0.30768424 -0.06874758 0.59990430 179 175 176
0.30954292 -0.06893059 0.60150117 178 174 175
0.41227731 -0.07683954 0.67051619 176 176 176
0.41302773 -0.07676361 0.66985363 175 175 175
0.41377664 -0.07668783 0.66919231 175 175 175
0.41370809 -0.07646139 0.66721636 175 175 175
0.41404626 -0.07631117 0.66590554 176 176 176
0.41397727 -0.07608695 0.66394889 176 176 174
0.37687287 -0.05580802 0.48699126 174 173 171
0.37825808 -0.05588832 0.48769197 174 173 171
0.37910101 -0.05588832 0.48769197 174 173 170
0.38049141 -0.05596885 0.48839471 173 172 168
0.38106102 -0.05592856 0.48804307 172 171 167
0.38245526 -0.05600921 0.48874682 174 172 167
0.38302386 -0.05596885 0.48839471 175 171 165
0.38386801 -0.05596885 0.48839471 174 169 163
0.38498953 -0.05600921 0.48874682 173 165 160
0.38639146 -0.05609009 0.48945260 165 157 151
-0.05809632 -0.07259306 0.64316112 35 35 37
-0.05687674 -0.07245558 0.64194304 35 34 38
-0.05555675 -0.07218216 0.63952059 36 35 40
-0.05329575 -0.07211412 0.63891786 39 37 46
-0.05214229 -0.07204622 0.63831621 40 38 48
-0.05099100 -0.07197845 0.63771576 43 42 53
-0.04984187 -0.07191080 0.63711637 63 60 76
-0.04869490 -0.07184327 0.63651818 101 99 111
-0.04759473 -0.07184327 0.63651818 125 123 134
-0.04649456 -0.07184327 0.63651818 146 144 153
-0.04539439 -0.07184327 0.63651818 156 154 161
-0.04441934 -0.07204622 0.63831621 173 171 177
-0.04327532 -0.07197845 0.63771576 179 178 181
-0.04205439 -0.07177588 0.63592106 178 175 180
-0.04011956 -0.07225032 0.64012450 180 178 182
-0.03879337 -0.07184327 0.63651818 181 179 183
-0.03769320 -0.07184327 0.63651818 181 179 183
0.12501726 -0.07720796 0.68404830 181 181 185
0.12658277 -0.07744240 0.68612534 179 179 181
0.12789814 -0.07752086 0.68682051 179 179 181
0.12908526 -0.07752086 0.68682051 179 178 180
0.13000892 -0.07736409 0.68543160 179 178 182
0.13119364 -0.07736409 0.68543160 178 177 181
0.13184510 -0.07705246 0.68267053 177 176 180
0.13262437 -0.07682037 0.68061429 177 177 178
0.13393523 -0.07689758 0.68129832 175 175 175
0.13538493 -0.07705246 0.68267053 159 160 160
0.13629037 -0.07689758 0.68129832 146 146 146
0.13732992 -0.07682037 0.68061429 134 133 137
0.13836738 -0.07674332 0.67993164 108 107 114
0.13954258 -0.07674332 0.67993164 65 64 75
0.14085908 -0.07682037 0.68061429 41 41 52
0.14203547 -0.07682037 0.68061429 39 39 50
0.14306821 -0.07674332 0.67993164 36 39 47
0.14467876 -0.07697494 0.68198377 36 38 46
0.14498237 -0.07651309 0.67789185 35 35 44
0.14600804 -0.07643665 0.67721462 36 35 42
0.14703166 -0.07636037 0.67653877 34 32 40
0.14790578 -0.07620826 0.67519110 34 32 39
0.14966910 -0.07651309 0.67789185 33 31 38
0.15053970 -0.07636037 0.67653877 34 32 41
0.15201245 -0.07651309 0.67789185 34 32 41
0.15318413 -0.07651309 0.67789185 34 32 41
0.15404771 -0.07636037 0.67653877 34 32 40
0.28580895 -0.06868320 0.60852051 34 33 37
0.28686070 -0.06868320 0.60852051 35 34 38
0.28791249 -0.06868320 0.60852051 35 34 38
0.28896427 -0.06868320 0.60852051 35 33 37
0.29001606 -0.06868320 0.60852051 36 34 39
0.29106784 -0.06868320 0.60852051 38 35 39
0.29185763 -0.06862161 0.60797477 41 37 41
0.29290846 -0.06862161 0.60797477 43 39 42
0.29369590 -0.06856012 0.60742998 43 39 42
0.29474577 -0.06856012 0.60742998 39 38 40
0.29606095 -0.06862161 0.60797477 39 38 40
0.29711178 -0.06862161 0.60797477 83 82 86
0.29816264 -0.06862161 0.60797477 115 114 117
0.29894534 -0.06856012 0.60742998 148 147 148
0.30026430 -0.06862161 0.60797477 156 155 156
0.30131513 -0.06862161 0.60797477 164 163 163
0.30236596 -0.06862161 0.60797477 168 167 167
0.30341679 -0.06862161 0.60797477 168 167 167
0.30446765 -0.06862161 0.60797477 171 170 170
0.30551848 -0.06862161 0.60797477 173 172 172
0.30656931 -0.06862161 0.60797477 176 173 174
0.30380553 -0.06777067 0.60043561 177 173 174
0.30484334 -0.06777067 0.60043561 177 173 174
0.30669612 -0.06795123 0.60203540 177 173 174
0.30773669 -0.06795123 0.60203540 177 173 174
0.30768424 -0.06771070 0.59990430 177 173 174
0.30954292 -0.06789094 0.60150117 175 173 173
0.40955436 -0.07560582 0.66985363 176 176 176
0.41071215 -0.07560582 0.66985363 176 176 176
0.41268551 -0.07575554 0.67118007 175 175 175
0.41302773 -0.07560582 0.66985363 174 175 175
0.41336858 -0.07545669 0.66853237 174 175 175
0.41370809 -0.07530816 0.66721636 174 175 175
0.41404626 -0.07516021 0.66590554 175 176 176
0.41397727 -0.07493936 0.66394889 175 176 176
0.37741512 -0.05504539 0.48769197 169 167 165
0.37853038 -0.05508502 0.48804307 169 168 166
0.37937394 -0.05508502 0.48804307 173 172 170
0.38049141 -0.05512470 0.48839471 173 172 170
0.38133556 -0.05512470 0.48839471 172 171 169
0.38273120 -0.05520425 0.48909944 172 169 166
0.38330001 -0.05516445 0.48874682 172 168 163
0.38414478 -0.05516445 0.48874682 172 167 163
-0.05909583 -0.07134603 0.64194304 35 34 39
-0.05798629 -0.07134603 0.64194304 36 35 41
-0.05682293 -0.07127853 0.64133573 35 33 40
-0.05339640 -0.07114392 0.64012450 37 35 44
-0.05224067 -0.07107680 0.63952059 39 38 47
-0.05103901 -0.07094295 0.63831621 39 38 47
-0.04988876 -0.07087620 0.63771576 60 58 74
-0.04878652 -0.07087620 0.63771576 95 93 106
-0.04763946 -0.07080960 0.63711637 125 123 134
-0.04653826 -0.07080960 0.63711637 150 143 150
-0.04446121 -0.07100981 0.63891786 174 172 175
-0.04327532 -0.07087620 0.63771576 179 178 179
-0.04209388 -0.07074311 0.63651818 179 178 180
-0.04019548 -0.07127853 0.64133573 179 178 180
-0.03879337 -0.07074311 0.63651818 180 179 181
-0.03769320 -0.07074311 0.63651818 179 179 181
0.12438966 -0.07564399 0.68061429 180 179 182
0.12619959 -0.07602564 0.68404830 180 179 181
0.12751058 -0.07610243 0.68473923 179 178 180
0.12869409 -0.07610243 0.68473923 179 178 180
0.12974654 -0.07602564 0.68404830 179 178 180
0.13092887 -0.07602564 0.68404830 178 177 180
0.13158008 -0.07572000 0.68129832 177 176 180
0.13235860 -0.07549239 0.67925036 178 178 180
0.13366656 -0.07556811 0.67993164 175 175 177
0.13511279 -0.07572000 0.68129832 159 159 161
0.13615353 -0.07564399 0.68061429 146 145 152
0.13732992 -0.07564399 0.68061429 133 132 139
0.13822873 -0.07549239 0.67925036 107 106 113
0.13954258 -0.07556811 0.67993164 71 70 81
0.14071779 -0.07556811 0.67993164 46 45 58
0.14203547 -0.07564399 0.68061429 39 38 50
0.14306821 -0.07556811 0.67993164 38 37 48
0.14482446 -0.07587252 0.68267053 40 36 45
0.14527291 -0.07549239 0.67925036 39 34 42
0.14615405 -0.07534140 0.67789185 38 33 41
0.14717855 -0.07526614 0.67721462 37 32 40
0.14820100 -0.07519103 0.67653877 35 31 39
0.14981891 -0.07541683 0.67857039 35 30 39
0.15084077 -0.07534140 0.67789185 35 30 39
0.15246986 -0.07556811 0.67993164 35 30 39
0.28686070 -0.06763142 0.60852051 36 33 38
0.28791249 -0.06763142 0.60852051 35 34 38
0.28922391 -0.06769219 0.60906726 35 34 38
0.29027662 -0.06769219 0.60906726 36 34 37
0.29106784 -0.06763142 0.60852051 37 34 37
0.29211959 -0.06763142 0.60852051 39 35 38
0.29290846 -0.06757077 0.60797477 41 37 40
0.29395929 -0.06757077 0.60797477 43 39 42
0.29501012 -0.06757077 0.60797477 28 25 32
0.29606095 -0.06757077 0.60797477 39 37 45
0.29737851 -0.06763142 0.60852051 86 85 90
0.29843026 -0.06763142 0.60852051 116 115 121
0.29921347 -0.06757077 0.60797477 143 142 142
0.30053383 -0.06763142 0.60852051 155 155 155
0.30158561 -0.06763142 0.60852051 165 165 165
0.30236596 -0.06757077 0.60797477 170 170 170
0.30341679 -0.06757077 0.60797477 173 173 173
0.30446765 -0.06757077 0.60797477 173 173 173
0.30551848 -0.06757077 0.60797477 173 173 173
0.30684450 -0.06763142 0.60852051 175 173 173
0.30380553 -0.06673287 0.60043561 176 173 174
0.30484334 -0.06673287 0.60043561 176 174 174
0.30669612 -0.06691066 0.60203540 175 174 174
0.30773669 -0.06691066 0.60203540 175 174 174
0.30741218 -0.06661486 0.59937388 175 174 174
0.30981782 -0.06691066 0.60203540 174 173 173
0.41227731 -0.07452167 0.67051619 174 174 175
0.41261998 -0.07437454 0.66919231 174 174 174
0.41336858 -0.07430119 0.66853237 174 175 175
0.41411567 -0.07422799 0.66787374 176 176 176
0.41404626 -0.07400924 0.66590554 175 176 176
0.41397727 -0.07379178 0.66394889 176 176 175
0.37795895 -0.05428055 0.48839471 171 170 168
0.37880310 -0.05428055 0.48839471 170 170 168
0.37992099 -0.05431969 0.48874682 171 171 169
0.38104045 -0.05435888 0.48909944 170 170 168
0.38161051 -0.05431969 0.48874682 171 171 169
0.38300753 -0.05439813 0.48945260 171 169 166
0.38357657 -0.05435888 0.48909944 170 168 164
0.38442194 -0.05435888 0.48909944 170 167 164
-0.05354810 -0.07023648 0.64194304 38 37 43
-0.05233942 -0.07010371 0.64072955 38 37 44
-0.05108711 -0.06990549 0.63891786 41 40 48
-0.04988876 -0.06977396 0.63771576 49 51 60
-0.04878652 -0.06977396 0.63771576 93 95 102
-0.04653826 -0.06970839 0.63711637 155 144 150
-0.04441934 -0.06983966 0.63831621 175 172 173
-0.04323464 -0.06970839 0.63711637 179 178 178
-0.04205439 -0.06957760 0.63592106 179 178 180
-0.04015748 -0.07010371 0.64072955 179 179 181
-0.03879337 -0.06964294 0.63651818 179 179 184
0.12531441 -0.07431836 0.67925036 181 179 181
0.12686981 -0.07454244 0.68129832 181 178 181
0.12804739 -0.07454244 0.68129832 181 178 181
0.12909521 -0.07446760 0.68061429 181 177 180
0.13040252 -0.07454244 0.68129832 180 177 180
0.13131614 -0.07439291 0.67993164 179 178 180
0.13209388 -0.07416973 0.67789185 179 178 180
0.13353261 -0.07431836 0.67925036 177 176 178
0.13484176 -0.07439291 0.67993164 161 160 162
0.13601696 -0.07439291 0.67993164 146 143 150
0.13705471 -0.07431836 0.67925036 131 128 135
0.13809037 -0.07424397 0.67857039 106 102 109
0.13940276 -0.07431836 0.67925036 64 63 74
0.14071779 -0.07439291 0.67993164 47 45 58
0.14203547 -0.07446760 0.68061429 40 38 52
0.14306821 -0.07439291 0.67993164 38 36 50
0.14482446 -0.07469258 0.68267053 37 36 46
0.14541861 -0.07439291 0.67993164 37 35 44
0.14630035 -0.07424397 0.67857039 35 33 42
0.14732572 -0.07416973 0.67789185 35 32 41
0.14834906 -0.07409563 0.67721462 35 31 41
0.15027016 -0.07446760 0.68061429 36 31 39
0.15129465 -0.07439291 0.67993164 36 31 39
0.15323836 -0.07476787 0.68335873 35 30 38
0.28711846 -0.06663947 0.60906726 35 34 36
0.28791249 -0.06657965 0.60852051 35 34 37
0.28948399 -0.06669939 0.60961497 35 34 36
0.29027662 -0.06663947 0.60906726 35 34 36
0.29132935 -0.06663947 0.60906726 36 34 36
0.29238206 -0.06663947 0.60906726 38 34 37
0.29317138 -0.06657965 0.60852051 39 37 41
0.29422316 -0.06657965 0.60852051 39 38 42
0.29501012 -0.06651993 0.60797477 28 27 35
0.29632673 -0.06657965 0.60852051 43 41 50
0.29737851 -0.06657965 0.60852051 91 87 95
0.29843026 -0.06657965 0.60852051 118 114 122
0.29921347 -0.06651993 0.60797477 147 147 147
0.30053383 -0.06657965 0.60852051 157 157 157
0.30158561 -0.06657965 0.60852051 164 164 164
0.30236596 -0.06651993 0.60797477 170 170 170
0.30341679 -0.06651993 0.60797477 172 171 171
0.30446765 -0.06651993 0.60797477 173 173 173
0.30551848 -0.06651993 0.60797477 174 173 173
0.30656931 -0.06651993 0.60797477 175 173 173
0.30380553 -0.06569506 0.60043561 176 173 174
0.30457357 -0.06563693 0.59990430 176 174 174
0.30588114 -0.06569506 0.60043561 175 174 174
0.30719104 -0.06575330 0.60096794 176 175 175
0.30714062 -0.06552096 0.59884441 176 175 175
0.30899456 -0.06569506 0.60043561 175 175 175
0.41268551 -0.07343537 0.67118007 174 175 175
0.41261998 -0.07321789 0.66919231 173 174 175
0.41296130 -0.07307362 0.66787374 174 175 175
0.41370809 -0.07300170 0.66721636 175 175 175
0.41445339 -0.07292992 0.66656029 174 175 175
0.41397727 -0.07264420 0.66394889 174 174 173
0.41593960 -0.07278678 0.66525203 173 173 173
0.41749915 -0.07285827 0.66590554 173 173 173
0.37823147 -0.05347493 0.48874682 173 171 169
0.37934974 -0.05351351 0.48909944 172 170 169
0.38383895 -0.05366840 0.49051508 171 168 166
0.38525581 -0.05362959 0.49016041 170 166 163
-0.05364971 -0.06925811 0.64316112 38 37 40
-0.05238894 -0.06906154 0.64133573 40 39 42
-0.05118360 -0.06893111 0.64012450 43 42 49
-0.04993573 -0.06873639 0.63831621 46 46 53
0.12648845 -0.07314433 0.67925036 182 178 181
0.12766248 -0.07314433 0.67925036 184 180 183
0.13014093 -0.07321770 0.67993164 181 177 180
0.13118456 -0.07314433 0.67925036 179 177 179
0.13196191 -0.07292512 0.67721462 180 177 179
0.13470665 -0.07314433 0.67925036 161 158 160
0.13574466 -0.07307111 0.67857039 147 143 149
0.13691752 -0.07307111 0.67857039 134 130 137
0.13795228 -0.07299805 0.67789185 109 104 112
0.13926323 -0.07307111 0.67857039 58 57 69
0.14057679 -0.07314433 0.67925036 42 41 56
0.14189300 -0.07321770 0.67993164 36 35 52
0.14306821 -0.07321770 0.67993164 36 36 47
0.14467876 -0.07343867 0.68198377 38 37 47
0.14541861 -0.07321770 0.67993164 36 35 44
0.14644694 -0.07314433 0.67925036 35 33 42
0.14747320 -0.07307111 0.67857039 33 31 40
0.14849740 -0.07299805 0.67789185 33 31 40
0.15042120 -0.07336487 0.68129832 34 32 41
0.15159877 -0.07336487 0.68129832 34 32 40
0.15370318 -0.07380995 0.68543160 33 31 39
0.15410879 -0.07343867 0.68198377 33 31 38
0.28711846 -0.06558675 0.60906726 36 36 36
0.28817117 -0.06558675 0.60906726 37 36 38
0.28974456 -0.06570481 0.61016369 35 34 36
0.29053766 -0.06564572 0.60961497 35 34 36
0.29159135 -0.06564572 0.60961497 36 34 36
0.29264501 -0.06564572 0.60961497 38 35 38
0.29343480 -0.06558675 0.60906726 40 37 42
0.29448751 -0.06558675 0.60906726 41 38 44
0.29527494 -0.06552787 0.60852051 32 28 36
0.29659295 -0.06558675 0.60906726 45 40 48
0.29764569 -0.06558675 0.60906726 93 92 95
0.29869840 -0.06558675 0.60906726 116 116 118
0.29948205 -0.06552787 0.60852051 152 152 152
0.30080387 -0.06558675 0.60906726 158 158 158
0.30185658 -0.06558675 0.60906726 165 165 165
0.30263740 -0.06552787 0.60852051 169 169 169
0.30341679 -0.06546910 0.60797477 172 171 171
0.30474094 -0.06552787 0.60852051 173 172 172
0.30551848 -0.06546910 0.60797477 172 172 172
0.30629459 -0.06541044 0.60742998 173 173 173
0.30380553 -0.06465726 0.60043561 173 173 173
0.30457357 -0.06460004 0.59990430 175 174 174
0.30588114 -0.06465726 0.60043561 176 175 175
0.30719104 -0.06471458 0.60096794 176 175 175
0.30714062 -0.06448591 0.59884441 175 174 174
0.30872113 -0.06460004 0.59990430 175 175 175
0.41227731 -0.07220380 0.67051619 174 174 176
0.41261998 -0.07206125 0.66919231 174 175 176
0.41296130 -0.07191925 0.66787374 175 175 176
0.41370809 -0.07184847 0.66721636 175 175 175
0.41445339 -0.07177782 0.66656029 175 175 175
0.41397727 -0.07149661 0.66394889 174 174 174
0.41634819 -0.07170732 0.66590554 174 174 174
0.41749915 -0.07170732 0.66590554 174 174 174
0.38720104 -0.05328324 0.49481156 171 167 161
0.38525581 -0.05278239 0.49016041 170 167 159
-0.14367545 -0.10578257 0.99836797 34 29 37
0.13105324 -0.07189826 0.67857039 179 175 176
0.13169877 -0.07161153 0.67586422 187 179 183
0.13560891 -0.07182636 0.67789185 152 148 153
0.13691752 -0.07189826 0.67857039 135 131 136
0.13795228 -0.07182636 0.67789185 108 104 111
0.13926323 -0.07189826 0.67857039 50 50 65
0.14057679 -0.07197031 0.67925036 44 44 58
0.14189300 -0.07204249 0.67993164 39 39 52
0.14306821 -0.07204249 0.67993164 38 38 43
0.14467876 -0.07225993 0.68198377 38 38 42
0.14541861 -0.07204249 0.67993164 36 36 40
0.14659382 -0.07204249 0.67993164 34 33 39
0.14762098 -0.07197031 0.67925036 34 33 39
0.14864606 -0.07189826 0.67857039 34 32 38
0.15087610 -0.07240561 0.68335873 33 32 37
0.15221067 -0.07247867 0.68404830 32 32 37
0.15401465 -0.07277241 0.68682051 33 32 37
0.28817117 -0.06453402 0.60906726 36 35 37
0.28974456 -0.06465019 0.61016369 35 34 36
0.29053766 -0.06459206 0.60961497 35 34 36
0.29159135 -0.06459206 0.60961497 35 34 36
0.29264501 -0.06459206 0.60961497 36 35 39
0.29343480 -0.06453402 0.60906726 40 36 43
0.29448751 -0.06453402 0.60906726 43 38 46
0.29554024 -0.06453402 0.60906726 32 26 32
0.29659295 -0.06453402 0.60906726 44 38 44
0.29791334 -0.06459206 0.60961497 95 94 96
0.29869840 -0.06453402 0.60906726 120 120 122
0.29948205 -0.06447609 0.60852051 152 152 152
0.30107436 -0.06459206 0.60961497 160 160 160
0.30212805 -0.06459206 0.60961497 165 165 165
0.30263740 -0.06447609 0.60852051 170 170 170
0.30368918 -0.06447609 0.60852051 173 173 173
0.30474094 -0.06447609 0.60852051 173 173 173
0.30551848 -0.06441826 0.60797477 174 174 173
0.30629459 -0.06436054 0.60742998 174 174 173
0.30380553 -0.06361946 0.60043561 174 174 173
0.30484334 -0.06361946 0.60043561 174 174 174
0.30615231 -0.06367586 0.60096794 175 175 175
0.30746362 -0.06373236 0.60150117 175 175 175
0.30768424 -0.06356315 0.59990430 175 175 175
0.41302773 -0.07097467 0.66985363 174 174 174
0.41336858 -0.07083468 0.66853237 174 174 174
0.41370809 -0.07069524 0.66721636 175 175 175
0.41445339 -0.07062573 0.66656029 175 175 175
0.41438311 -0.07041800 0.66459984 175 175 175
0.41634819 -0.07055635 0.66590554 175 175 175
0.41749915 -0.07055635 0.66590554 174 174 174
0.41823927 -0.07048711 0.66525203 174 174 174
-0.14669456 -0.10375137 0.99543589 35 31 35
-0.14540105 -0.10405697 0.99836797 34 31 35
-0.14346416 -0.10390394 0.99689978 32 31 36
-0.14132544 -0.10359924 0.99397629 32 30 37
0.13130604 -0.07023329 0.67384875 188 179 183
0.13781446 -0.07058410 0.67721462 101 99 108
0.13912396 -0.07065468 0.67789185 57 57 67
0.14043608 -0.07072541 0.67857039 41 41 50
0.14189300 -0.07086729 0.67993164 40 40 48
0.14306821 -0.07086729 0.67993164 38 38 42
0.14453335 -0.07100973 0.68129832 38 38 41
0.14556462 -0.07093844 0.68061429 36 36 39
0.14659382 -0.07086729 0.67993164 34 34 37
0.14776903 -0.07086729 0.67993164 34 34 37
0.14879499 -0.07079627 0.67925036 34 34 38
0.15118089 -0.07136837 0.68473923 34 33 37
0.28817117 -0.06348129 0.60906726 35 34 36
0.28974456 -0.06359557 0.61016369 35 34 36
0.29079917 -0.06359557 0.61016369 35 34 37
0.29159135 -0.06353838 0.60961497 35 34 38
0.29264501 -0.06353838 0.60961497 36 35 39
0.29369867 -0.06353838 0.60961497 40 37 43
0.29475233 -0.06353838 0.60961497 43 38 46
0.29580602 -0.06353838 0.60961497 26 22 26
0.29685968 -0.06353838 0.60961497 55 51 55
0.29818150 -0.06359557 0.61016369 99 100 102
0.29896703 -0.06353838 0.60961497 122 123 125
0.29975113 -0.06348129 0.60906726 148 148 146
0.30134535 -0.06359557 0.61016369 160 160 158
0.30239996 -0.06359557 0.61016369 166 166 164
0.30290931 -0.06348129 0.60906726 173 173 171
0.30396202 -0.06348129 0.60906726 173 173 171
0.30501476 -0.06348129 0.60906726 174 173 171
0.30551848 -0.06336743 0.60797477 174 174 172
0.30629459 -0.06331065 0.60742998 175 174 172
0.30434468 -0.06269271 0.60150117 175 174 172
0.30538434 -0.06269271 0.60150117 174 173 172
0.30642396 -0.06269271 0.60150117 175 174 173
0.30746362 -0.06269271 0.60150117 177 176 174
0.30768424 -0.06252627 0.59990430 177 176 174
0.41425574 -0.07002446 0.67184526 174 174 174
0.41459519 -0.06988594 0.67051619 174 174 174
0.41411567 -0.06961052 0.66787374 174 174 174
0.41486132 -0.06954201 0.66721636 175 175 175
0.41438311 -0.06926930 0.66459984 175 175 175
0.41634819 -0.06940538 0.66590554 175 175 175
0.41749915 -0.06940538 0.66590554 175 174 174
0.41823927 -0.06933727 0.66525203 175 174 174
-0.15074933 -0.10128717 0.98818052 33 31 35
-0.14904134 -0.10128717 0.98818052 33 31 34
-0.14819747 -0.10188124 0.99397629 34 31 34
-0.14605115 -0.10158333 0.99106997 33 32 34
-0.14476146 -0.10188124 0.99397629 33 32 34
-0.14304344 -0.10188124 0.99397629 32 31 33
-0.14091220 -0.10158333 0.99106997 32 31 34
-0.13919923 -0.10158333 0.99106997 32 31 35
0.13898498 -0.06941359 0.67721462 58 58 67
0.14029564 -0.06948300 0.67789185 40 41 47
0.14160892 -0.06955256 0.67857039 39 40 42
0.14292485 -0.06962225 0.67925036 37 38 40
0.14438824 -0.06976205 0.68061429 37 37 39
0.14556462 -0.06976205 0.68061429 35 35 37
0.14659382 -0.06969208 0.67993164 34 34 36
0.14776903 -0.06969208 0.67993164 34 34 37
0.29000559 -0.06259730 0.61071336 35 34 38
0.29106116 -0.06259730 0.61071336 35 34 38
0.29185379 -0.06254096 0.61016369 36 35 39
0.29290840 -0.06254096 0.61016369 38 37 41
0.29396302 -0.06254096 0.61016369 40 38 44
0.29501766 -0.06254096 0.61016369 42 39 46
0.29607227 -0.06254096 0.61016369 29 27 33
0.29712689 -0.06254096 0.61016369 54 52 59
0.29845014 -0.06259730 0.61071336 94 93 101
0.29923612 -0.06254096 0.61016369 133 132 140
0.30029073 -0.06254096 0.61016369 148 147 145
0.30188882 -0.06265374 0.61126405 162 161 158
0.30267242 -0.06259730 0.61071336 168 167 163
0.30318171 -0.06248472 0.60961497 173 172 168
0.30423537 -0.06248472 0.60961497 174 173 170
0.30556384 -0.06254096 0.61016369 175 174 171
0.30565554 -0.06170782 0.60203540 176 175 173
0.30642396 -0.06165306 0.60150117 174 173 171
0.30746362 -0.06165306 0.60150117 176 175 173
0.30768424 -0.06148938 0.59990430 177 176 174
0.41507849 -0.06900000 0.67317957 175 174 174
0.41541699 -0.06886324 0.67184526 175 174 175
0.41493329 -0.06859131 0.66919231 176 175 175
0.41486132 -0.06838878 0.66721636 176 175 175
0.41478977 -0.06818744 0.66525203 175 174 174
0.41634819 -0.06825442 0.66590554 174 174 174
-0.15564640 -0.09943423 0.98674214 33 32 34
-0.15327159 -0.09900191 0.98245192 32 31 35
-0.15223540 -0.09943423 0.98674214 32 31 34
-0.15052989 -0.09943423 0.98674214 32 31 33
-0.14882439 -0.09943423 0.98674214 35 31 32
-0.14776415 -0.09987035 0.99106997 35 31 34
-0.14583795 -0.09972455 0.98962313 34 31 34
-0.14433818 -0.09987035 0.99106997 33 31 33
-0.14262520 -0.09987035 0.99106997 32 31 35
-0.14050138 -0.09957919 0.98818052 33 31 36
-0.13879339 -0.09957919 0.98818052 33 31 35
-0.13668691 -0.09928971 0.98530793 33 30 36
0.29106116 -0.06154173 0.61071336 36 35 38
0.29211673 -0.06154173 0.61071336 38 37 40
0.29317230 -0.06154173 0.61071336 39 38 41
0.29396302 -0.06148634 0.61016369 39 38 42
0.29501766 -0.06148634 0.61016369 40 39 43
0.29607227 -0.06148634 0.61016369 32 28 39
0.29739457 -0.06154173 0.61071336 49 43 58
0.29845014 -0.06154173 0.61071336 95 92 107
0.29950571 -0.06154173 0.61071336 134 132 146
0.30056128 -0.06154173 0.61071336 149 148 146
0.30188882 -0.06159722 0.61126405 165 164 162
0.30267242 -0.06154173 0.61071336 170 169 165
0.30345461 -0.06148634 0.61016369 171 170 167
0.30450922 -0.06148634 0.61016369 174 173 171
0.30611488 -0.06159722 0.61126405 175 174 172
0.30669612 -0.06066725 0.60203540 175 174 172
0.30773669 -0.06066725 0.60203540 176 175 173
0.41493329 -0.06743467 0.66919231 176 175 175
0.41486132 -0.06723555 0.66721636 175 174 174
0.41478977 -0.06703760 0.66525203 175 174 174
0.41634819 -0.06710346 0.66590554 174 173 173
-0.15564640 -0.09772873 0.98674214 34 30 33
-0.15327159 -0.09730382 0.98245192 32 30 35
-0.15223540 -0.09772873 0.98674214 33 31 34
-0.15052989 -0.09772873 0.98674214 34 32 35
-0.14904134 -0.09787119 0.98818052 35 31 34
-0.14798050 -0.09830108 0.99252099 34 30 34
-0.14583795 -0.09801407 0.98962313 34 30 34
-0.14454950 -0.09830108 0.99252099 33 31 34
-0.14262520 -0.09815737 0.99106997 32 31 35
-0.14050138 -0.09787119 0.98818052 33 32 36
-0.13879339 -0.09787119 0.98818052 33 32 36
-0.13668691 -0.09758668 0.98530793 30 30 34
0.29871926 -0.06054070 0.61126405 101 99 112
0.29977578 -0.06054070 0.61126405 134 133 145
0.30083230 -0.06054070 0.61126405 143 142 143
0.30216128 -0.06059534 0.61181575 168 167 168
0.30294535 -0.06054070 0.61126405 168 168 166
0.30372798 -0.06048616 0.61071336 169 169 167
0.30478355 -0.06048616 0.61071336 171 170 168
0.30694523 -0.06070492 0.61292207 174 173 171
0.41438311 -0.06582318 0.66459984 176 175 177
0.41593960 -0.06588777 0.66525203 175 174 176
0.41708943 -0.06588777 0.66525203 178 177 177
-0.15564640 -0.09602323 0.98674214 31 29 33
-0.15349405 -0.09574450 0.98387784 31 29 33
-0.15245731 -0.09616321 0.98818052 32 30 34
-0.15074933 -0.09616321 0.98818052 33 31 35
-0.14925891 -0.09630359 0.98962313 32 30 35
-0.14819747 -0.09672721 0.99397629 30 29 33
-0.14605115 -0.09644438 0.99106997 30 29 33
-0.14454950 -0.09658559 0.99252099 31 30 34
-0.14283401 -0.09658559 0.99252099 32 31 35
-0.14070649 -0.09630359 0.98962313 31 30 35
-0.13899602 -0.09630359 0.98962313 30 29 34
-0.13688587 -0.09602323 0.98674214 28 27 34
0.41438311 -0.06467447 0.66459984 175 175 176
-0.15564640 -0.09431773 0.98674214 30 28 35
-0.15371715 -0.09418064 0.98530793 30 28 35
-0.15245731 -0.09445521 0.98818052 31 29 36
-0.15074933 -0.09445521 0.98818052 30 29 35
-0.14947712 -0.09473140 0.99106997 29 27 33
-0.14819747 -0.09500920 0.99397629 30 28 34
-0.14605115 -0.09473140 0.99106997 30 28 34
-0.14454950 -0.09487010 0.99252099 29 28 33
-0.14283401 -0.09487010 0.99252099 29 28 35
-0.14091220 -0.09473140 0.99106997 30 28 35
-0.13899602 -0.09459311 0.98962313 30 29 36
-0.13708541 -0.09445521 0.98818052 31 29 36
-0.15564640 -0.09261222 0.98674214 31 30 34
-0.15371715 -0.09247761 0.98530793 32 31 35
-0.15245731 -0.09274723 0.98818052 32 31 35
-0.15052989 -0.09261222 0.98674214 30 29 33
-0.14925891 -0.09288262 0.98962313 30 29 33
-0.14819747 -0.09329119 0.99397629 30 29 33
-0.14605115 -0.09301841 0.99106997 29 28 32
-0.14454950 -0.09315461 0.99252099 28 27 31
-0.14283401 -0.09315461 0.99252099 28 27 31
-0.14091220 -0.09301841 0.99106997 28 27 31
-0.13899602 -0.09288262 0.98962313 30 28 35
-0.13708541 -0.09274723 0.98818052 30 28 35
-0.15587330 -0.09103923 0.98818052 32 31 35
-0.15394090 -0.09090672 0.98674214 32 31 35
-0.15223540 -0.09090672 0.98674214 30 29 33
-0.15052989 -0.09090672 0.98674214 30 29 33
-0.14904134 -0.09103923 0.98818052 30 29 33
-0.14798050 -0.09143911 0.99252099 29 28 32
-0.14605115 -0.09130543 0.99106997 28 27 31
-0.14454950 -0.09143911 0.99252099 28 27 31
-0.14283401 -0.09143911 0.99252099 28 27 31
-0.14091220 -0.09130543 0.99106997 28 27 31
-0.13899602 -0.09117214 0.98962313 28 26 34
-0.13728553 -0.09117214 0.98962313 27 26 34
-0.15394090 -0.08920121 0.98674214 32 30 37
-0.15223540 -0.08920121 0.98674214 30 28 35
-0.15031110 -0.08907156 0.98530793 30 29 33
-0.14882439 -0.08920121 0.98674214 29 28 32
-0.14798050 -0.08972362 0.99252099 28 27 31
-0.14605115 -0.08959245 0.99106997 28 27 31
-0.14476146 -0.08985518 0.99397629 28 27 31
-0.14304344 -0.08985518 0.99397629 28 27 31
-0.14091220 -0.08959245 0.99106997 28 27 31
-0.13899602 -0.08946165 0.98962313 28 26 33
-0.13728553 -0.08946165 0.98962313 28 26 33
-0.15371715 -0.08736853 0.98530793 32 30 37
-0.15179349 -0.08724173 0.98387784 32 30 36
-0.14987542 -0.08711530 0.98245192 29 28 32
-0.14839239 -0.08724173 0.98387784 28 27 31
-0.14776415 -0.08787946 0.99106997 28 27 31
-0.14583795 -0.08775117 0.98962313 28 27 31
-0.14454950 -0.08800813 0.99252099 28 27 31
-0.14283401 -0.08800813 0.99252099 28 27 31
-0.14070649 -0.08775117 0.98962313 28 27 31
-0.13859136 -0.08749571 0.98674214 28 27 31
-0.15201412 -0.08566551 0.98530793 30 29 33
-0.14987542 -0.08541720 0.98245192 29 28 32
-0.14860807 -0.08566551 0.98530793 28 27 31
-0.14776415 -0.08616648 0.99106997 28 27 31
-0.14583795 -0.08604069 0.98962313 28 27 31
-0.14454950 -0.08629264 0.99252099 27 27 31
-0.14283401 -0.08629264 0.99252099 28 27 31
-0.14050138 -0.08591527 0.98818052 28 27 31
-0.13838993 -0.08566551 0.98530793 29 28 34
-0.15245731 -0.08420727 0.98818052 29 28 34
-0.15009294 -0.08384062 0.98387784 29 28 34
-0.14798050 -0.08457714 0.99252099 28 26 34
-0.14605115 -0.08445349 0.99106997 28 26 33
-0.14476146 -0.08470116 0.99397629 28 27 31
-0.14283401 -0.08457714 0.99252099 28 27 32
-0.14050138 -0.08420727 0.98818052 30 28 35
-0.13838993 -0.08396249 0.98530793 30 28 35
-0.15245731 -0.08249928 0.98818052 30 28 35
-0.15031110 -0.08225946 0.98530793 27 26 33
-0.14798050 -0.08286165 0.99252099 29 27 36
-0.14583795 -0.08261972 0.98962313 28 26 34
-0.14454950 -0.08286165 0.99252099 28 26 33
-0.14283401 -0.08286165 0.99252099 29 27 34
-0.14029688 -0.08237920 0.98674214 30 28 35
-0.13818906 -0.08214007 0.98387784 29 27 31
-0.15031110 -0.08055644 0.98530793 28 26 34
