ply
format ascii 1.0
element vertex 1054
property float x
property float y
property float z
property uchar red
property uchar green
property uchar blue
end_header
-0.88946944 -0.56384639 1.85385501 97 130 146
-0.88202500 -0.56906253 1.86747062 96 131 146
-0.88197190 -0.55822182 1.83710527 94 130 146
-0.86274660 -0.60607043 1.85723794 106 128 145
-0.86588380 -0.61264652 1.86748481 105 129 145
-0.86188143 -0.58830684 1.77924371 105 129 148
-0.86901634 -0.58761138 1.79447011 105 129 148
-0.87149514 -0.58504574 1.81094968 103 130 147
-0.86938713 -0.58666456 1.82679905 102 130 146
-0.86707340 -0.58854916 1.85310119 101 129 146
-0.86632569 -0.58979112 1.86585497 103 128 147
-0.86844830 -0.56810862 1.81221088 103 130 144
-0.87114778 -0.56922777 1.82886267 102 129 146
-0.86929542 -0.56827357 1.85361731 98 129 145
-0.86631689 -0.57266633 1.86343959 99 129 146
-0.86732986 -0.55340904 1.81094251 96 129 145
-0.86789829 -0.55464626 1.82941435 99 128 145
-0.87119165 -0.55235720 1.85470074 102 126 145
-0.86500905 -0.30378958 1.99497585 90 112 137
-0.85160609 -0.60441239 1.85145438 106 128 146
-0.85664058 -0.61340758 1.86490542 105 128 145
-0.85745877 -0.58600086 1.79574311 104 130 148
-0.85090708 -0.59242749 1.83214605 104 129 145
-0.84913410 -0.59122486 1.85247501 104 128 144
-0.85375696 -0.58990625 1.86447788 103 128 146
-0.85859448 -0.56191581 1.79812157 103 130 143
-0.85523695 -0.56008863 1.81740439 102 129 146
-0.84870776 -0.57039121 1.85578811 101 129 146
-0.85018060 -0.57150197 1.86490542 102 129 147
-0.85859448 -0.55570000 1.79812157 102 130 145
-0.85170150 -0.55291277 1.80773739 101 128 146
-0.84983572 -0.54803213 1.83116178 99 125 145
-0.84853647 -0.55254406 1.84759304 98 125 144
-0.84493726 -0.53954649 1.82228994 99 127 147
-0.84070235 -0.31426103 1.95922494 87 114 136
-0.84584425 -0.30559626 1.97253092 87 113 136
-0.85669833 -0.30661611 1.98649943 89 112 136
-0.84414123 -0.29536983 1.97253092 90 111 138
-0.85521577 -0.29781684 1.98504627 90 112 139
-0.83820176 -0.60272163 1.84209740 105 129 146
-0.83512230 -0.59281224 1.83115778 108 129 144
-0.83723120 -0.57195216 1.85001242 102 126 147
-0.83656528 -0.55218877 1.83710527 101 125 143
-0.83660981 -0.55416688 1.84209740 101 126 144
-0.83974302 -0.32026622 1.96490383 88 113 136
-0.82105136 -0.31234333 1.93683386 92 113 138
-0.82728781 -0.30901068 1.95306264 87 113 136
-0.83804491 -0.30498341 1.96490383 86 115 137
-0.82694550 -0.29069446 1.95749016 87 110 135
-0.83251157 -0.29182056 1.96547503 85 107 132
-0.80912548 -0.31093082 1.93499450 89 112 137
-0.81056575 -0.30643659 1.94974971 86 114 136
-0.80651018 -0.28348619 1.93407482 91 113 141
-0.81139180 -0.29008961 1.95118061 84 109 132
-0.81596977 -0.29649296 1.96490383 85 113 133
-0.79040176 -0.30661077 1.93332520 87 113 137
-0.79656810 -0.30583706 1.94517428 87 113 136
-0.78833498 -0.28777336 1.93201728 89 112 133
-0.79654592 -0.29421385 1.94238353 87 114 135
-0.78421967 -0.27324554 1.93022470 69 75 101
-0.79575833 -0.27557477 1.94397824 68 77 101
-0.77977127 -0.30391136 1.92582905 88 113 138
-0.77939908 -0.28531713 1.92765796 92 112 134
-0.77866274 -0.27396451 1.92583942 68 77 103
-0.72529819 0.61297443 1.99576004 83 88 92
-0.72113955 0.62443033 1.99379957 98 102 102
-0.72494195 0.64886781 1.99477981 124 126 127
-0.70863426 0.60513616 1.95922494 85 94 94
-0.70984066 0.61516172 1.98798696 85 91 95
-0.70868347 0.63365755 1.97636104 116 118 119
-0.71207089 0.63090784 1.98898739 101 103 105
-0.71397825 0.64544268 1.97636104 127 129 130
-0.70996627 0.64341605 1.98504627 127 130 130
-0.68154335 0.60513616 1.95922494 118 120 129
-0.68503666 0.61606461 1.97253092 126 127 129
-0.69497667 0.61058333 1.98796403 89 91 100
-0.68364725 0.62572226 1.97226681 116 120 119
-0.68652566 0.63770120 1.98505199 109 113 110
-0.68859967 0.64760449 1.99382251 109 110 112
-0.67208046 0.59487265 1.93683386 107 109 117
-0.67762643 0.59829146 1.94796503 102 101 113
-0.67282605 0.62027526 1.95357883 118 122 122
-0.67505378 0.63046624 1.97492474 124 125 125
-0.67265446 0.63892320 1.98796976 130 130 130
-0.66765332 0.64735387 1.99186969 122 123 124
-0.64405817 0.56951475 1.87005001 108 110 118
-0.65542549 0.57830656 1.89355266 99 98 109
-0.65910763 0.58484674 1.90419054 107 107 115
-0.62128621 0.25794533 1.30113602 119 119 119
-0.62907439 0.27765258 1.29864335 110 110 110
-0.62652795 0.27068020 1.30571096 120 122 121
-0.62009597 0.28214177 1.29864335 110 114 112
-0.62626502 0.28190631 1.30447702 112 113 113
-0.63124716 0.55940777 1.84209740 114 114 123
-0.60933858 0.25871437 1.31484560 125 129 129
-0.61356380 0.27611046 1.29670114 128 129 129
-0.60891357 0.27009755 1.30803402 110 114 116
-0.61270303 0.26425186 1.32142663 109 114 121
-0.60947672 0.28138817 1.29517467 119 120 117
-0.60438646 0.28260230 1.30595034 123 123 122
-0.59246513 0.25670740 1.30934974 121 124 127
-0.59256709 0.26950102 1.31107559 114 118 121
-0.59024578 0.26442390 1.32228692 132 135 139
-0.59370531 0.28423669 1.30903379 145 145 144
-0.57962167 0.26498619 1.31374383 99 107 113
-0.48406409 0.37410445 1.15093558 89 93 93
-0.48389235 0.38389957 1.15264261 91 91 94
-0.49034234 0.38482545 1.16143743 81 82 85
-0.46351197 0.21440360 1.13549780 131 134 135
-0.46862229 0.35925470 1.12842548 103 105 105
-0.46707512 0.36659499 1.13002623 95 95 98
-0.47693817 0.37233353 1.14412802 93 95 97
-0.47321437 0.38178739 1.13597989 106 107 109
-0.47781952 0.38203261 1.14703330 101 102 104
-0.44198013 0.21467550 1.11863339 121 121 125
-0.44777325 0.21457262 1.12524607 122 124 127
-0.44133565 0.22176488 1.11863339 140 141 144
-0.44668985 0.22151543 1.12582067 123 123 129
-0.44427302 0.35319030 1.10619060 113 115 117
-0.45562175 0.35769784 1.12048233 95 96 99
-0.44713866 0.36299177 1.10755756 103 105 107
-0.45276147 0.36397385 1.12252668 100 101 104
-0.42439392 0.19809173 1.10935033 121 121 124
-0.42315857 0.21102908 1.09869015 110 112 115
-0.42524294 0.21034577 1.10569453 112 115 119
-0.42269850 0.20663813 1.12048233 134 135 133
-0.42326857 0.22244932 1.09615862 115 115 122
-0.43014014 0.22240122 1.10367318 127 128 130
-0.43647587 0.35441116 1.09829509 120 122 123
-0.43809129 0.34644722 1.10316080 124 127 129
-0.43663242 0.36086899 1.09869015 102 108 109
-0.43535484 0.36289598 1.11183398 103 107 110
-0.43827146 0.36281602 1.12233953 112 112 115
-0.41197827 0.19633818 1.10544919 126 125 129
-0.41793704 0.21858295 1.09780127 103 106 111
-0.41405406 0.21200705 1.10696887 121 125 127
-0.40856634 0.22760449 1.07393576 101 102 106
-0.41225465 0.22513342 1.08822293 119 123 125
-0.41335870 0.22081525 1.10149630 107 115 117
-0.36132916 0.28530005 1.31057239 95 92 101
-0.34750820 0.27925820 1.30615318 112 114 116
-0.34331976 0.28953984 1.29527113 119 121 125
-0.35053681 0.28597282 1.30509847 112 114 117
-0.32559761 -0.64376169 1.93683386 103 117 129
-0.32447830 -0.64570208 1.94518235 101 114 128
-0.32423770 -0.63087446 1.94878084 100 112 128
-0.32288553 -0.61636519 1.95077193 102 112 129
-0.32512014 -0.07187918 0.75267274 57 68 87
-0.33301660 0.27957409 1.29369930 144 146 145
-0.32614559 0.29495096 1.23929036 127 128 129
-0.32741627 0.29757342 1.24959391 125 126 127
-0.33062342 0.29456711 1.26897316 102 102 110
-0.33537107 0.28784530 1.29163594 113 116 118
-0.33567482 0.28043440 1.30113602 145 146 145
-0.32862931 0.30574402 1.25352682 114 116 118
-0.33181772 0.31158355 1.26203448 109 113 114
-0.32148620 0.33379346 0.95747435 113 117 116
-0.32404578 0.33268668 0.96981995 101 104 109
-0.32191455 0.34679346 0.94777223 109 111 113
-0.31101048 -0.64823088 1.94931241 103 114 131
-0.31069098 -0.62666516 1.93573024 99 112 128
-0.31564043 -0.62774292 1.94424403 98 112 128
-0.30441855 -0.61381205 1.93290133 101 111 129
-0.31248491 -0.61335212 1.94468369 100 111 128
-0.31112821 -0.08229750 0.75455592 63 70 88
-0.31237768 -0.07298113 0.75318897 60 66 86
-0.30307645 0.25890519 0.75011140 97 101 102
-0.30413055 0.26393585 0.75031153 112 114 114
-0.31141651 0.29402956 1.22861754 125 128 130
-0.31767105 0.29281151 1.24384242 138 139 141
-0.31415201 0.30227838 1.23422870 111 113 115
-0.31903806 0.30599380 1.24498987 112 114 116
-0.31220322 0.33629442 0.93596573 129 129 127
-0.31468271 0.33405464 0.94889284 122 124 122
-0.31850549 0.33035885 0.96629063 103 106 110
-0.30386395 0.34287060 0.91125919 133 139 139
-0.31073428 0.34392145 0.93094936 120 125 125
-0.31487804 0.34384149 0.94627070 124 124 123
-0.29703247 -0.64805436 1.93339290 103 113 129
-0.29631528 -0.65903527 1.94238353 108 114 131
-0.28311113 -0.62129283 1.89885676 103 112 129
-0.28634607 -0.62854102 1.91315399 102 113 129
-0.29284146 -0.63052727 1.92271156 103 114 130
-0.28435674 -0.60731769 1.89620471 104 112 128
-0.28900753 -0.61028085 1.90928014 103 112 129
-0.29117931 -0.60538563 1.92790219 103 112 129
-0.28624353 -0.60867649 1.94238353 105 112 129
-0.29047513 -0.59511465 1.91494870 104 110 128
-0.28963840 -0.59846014 1.92037344 105 111 129
-0.28766912 0.25587629 0.73259709 112 116 116
-0.29337192 0.25528411 0.74534646 100 104 105
-0.28692430 0.26186311 0.73674873 109 112 113
-0.29632256 0.26336487 0.74179329 114 115 115
-0.29875092 0.34204763 0.89668469 140 142 143
-0.27857436 -0.62612017 1.92037344 102 112 129
-0.27466029 -0.60649066 1.89591004 104 113 128
-0.27616663 -0.60996040 1.91135255 104 113 129
-0.26339510 0.08064642 1.51993692 139 139 140
-0.26253526 0.10896732 1.53023773 141 140 147
-0.26960338 0.11283692 1.54868766 138 139 143
-0.27877709 0.11257326 1.56196272 100 99 104
-0.27233622 0.24830891 0.71795701 127 129 129
-0.27692244 0.25445944 0.72741428 127 130 130
-0.27813622 0.26093064 0.73391529 144 144 144
-0.24742743 0.07633083 1.48705677 133 133 136
-0.25787699 0.07715438 1.50308609 163 162 162
-0.24181983 0.08854434 1.47642987 136 139 141
-0.24982596 0.08723832 1.48417684 131 133 139
-0.25902569 0.08010758 1.50978136 132 132 134
-0.24626290 0.10520795 1.49563688 123 122 130
-0.25120096 0.10794580 1.50979890 128 127 135
-0.25584306 0.11172502 1.52817450 143 144 147
-0.23103315 0.07720629 1.47432419 126 127 131
-0.23185754 0.07421678 1.48150323 117 119 124
-0.22937219 0.08944601 1.47020715 135 136 139
-0.22645615 0.10263558 1.47224249 129 130 135
-0.23481996 0.10580912 1.48424429 130 132 138
-0.21540317 0.07961421 1.45314604 132 132 136
-0.21829519 0.07768532 1.46412921 122 122 126
-0.21517854 0.09102839 1.45502303 136 136 138
-0.21806047 0.09151211 1.46255490 147 147 149
-0.21518027 0.10211132 1.45161510 135 135 140
-0.21782473 0.10024446 1.46097374 144 144 147
-0.20575697 0.15594116 0.60972663 126 127 128
-0.20802870 0.15914608 0.67234794 126 129 130
-0.20755246 0.16329263 0.60954581 123 124 123
-0.20230281 0.16940428 0.65674218 130 131 131
-0.20850718 0.16662996 0.66988831 123 124 127
-0.20125649 0.17905094 0.94721772 117 117 120
-0.20114607 0.18064456 0.94413906 121 121 122
-0.18412696 -0.30102325 0.66204241 117 132 138
-0.18095093 -0.29155481 0.65942788 115 132 142
-0.18416171 -0.29681971 0.66177596 114 130 141
-0.19845345 0.15664051 0.60766996 146 147 146
-0.19102643 0.15935087 0.64911815 134 138 139
-0.18301710 0.15969153 0.92671520 135 136 138
-0.19793335 0.16074157 0.60508319 142 143 139
-0.19322847 0.16769748 0.65075213 121 122 124
-0.18006250 0.17757730 0.91979897 109 110 114
-0.18793717 0.17156538 0.93140945 125 126 130
-0.19584045 0.17839126 0.94086352 126 126 129
-0.19195213 0.18171263 0.93424287 116 117 120
-0.19288042 0.18544069 0.94361674 108 110 113
-0.17622817 -0.30220354 0.65934777 114 129 136
-0.17821197 -0.30154097 0.66043792 112 128 135
-0.17510702 -0.29563129 0.65914758 114 130 139
-0.17808705 -0.29686202 0.66049910 115 131 138
-0.16261644 0.07472205 0.74930235 125 125 133
-0.17508043 0.15838113 0.91452889 115 114 119
-0.17804079 0.15802707 0.92167526 130 131 129
-0.17473011 0.16706988 0.91202676 124 125 130
-0.17871520 0.16388895 0.92104870 129 129 134
-0.14231526 -0.26344932 0.69649591 106 121 131
-0.14176822 -0.25714546 0.69503769 108 119 132
-0.15122825 0.07484846 0.74424326 133 134 137
-0.14762702 0.08060129 0.74377075 135 135 139
-0.14862414 0.15684607 0.49839662 122 125 128
-0.14440284 0.15727009 0.50112256 105 107 111
-0.15076373 0.15860622 0.67874278 134 135 139
-0.15334982 0.15877558 0.68198536 139 141 142
-0.14878833 0.16927149 0.49253097 138 141 141
-0.14363664 0.16147709 0.50155898 112 113 117
-0.15144151 0.17157230 0.65234522 144 144 143
-0.15038415 0.16620453 0.67156524 126 127 128
-0.15413529 0.16113330 0.68198377 131 131 134
-0.14950864 0.18186405 0.49407017 196 197 188
-0.13675095 -0.26256501 0.69857150 106 119 131
-0.12467951 -0.26175223 0.70489305 104 118 132
-0.13517800 -0.25752468 0.69751673 106 119 133
-0.12626308 -0.25890371 0.70276517 104 119 131
-0.12696238 0.03570862 0.59428145 136 136 139
-0.12761875 0.04496093 0.59497023 134 135 139
-0.11887457 0.04589998 0.59412128 132 134 139
-0.10103977 0.10930058 0.49272575 130 130 130
-0.10117442 0.12792145 1.35307753 145 148 149
-0.08943834 0.09331905 0.47907587 125 125 132
-0.09287415 0.09790728 0.48537614 135 136 138
-0.09400221 0.10721082 0.49010501 136 137 137
-0.09776259 0.11843712 1.33838600 130 131 133
-0.08902934 0.11559472 1.35023957 126 127 132
-0.08908548 0.12878535 1.35322550 142 142 146
-0.09564033 0.13671710 1.36305821 142 142 145
-0.09243993 0.14320832 1.35231205 177 178 179
-0.09472559 0.14045593 1.36122859 122 122 125
-0.07606949 0.13063025 1.35520768 191 190 189
-0.07590340 0.13692677 1.36122859 196 193 192
-0.06574829 0.33261760 0.82487809 194 194 185
-0.06423185 0.34695678 0.82819707 138 137 132
-0.04578139 0.31776906 0.81567114 161 161 156
-0.05298337 0.31879684 0.82268429 162 161 159
-0.04828430 0.32394042 0.81912755 167 167 160
-0.05329699 0.32805392 0.82497293 169 168 162
-0.02430809 0.25003647 0.61031088 153 152 149
-0.03340210 0.31664772 0.80886843 150 149 143
-0.02979833 0.32052770 0.81087542 145 145 138
-0.02950712 0.41704506 1.11863339 158 157 155
-0.03154470 0.41842601 1.12233746 146 145 144
-0.02796435 0.42659606 1.13025847 151 150 147
-0.02682950 0.43599816 1.14722453 149 148 147
-0.02702701 0.44937123 1.15676150 159 159 154
-0.02848777 0.45174029 1.16387607 155 155 150
-0.03734094 0.45742193 1.18305731 141 141 140
-0.02533513 0.46118589 1.15760438 169 169 163
-0.03035206 0.46597421 1.16956432 165 165 160
-0.03356039 0.47080513 1.18462402 160 159 155
-0.03029169 0.48056957 1.18720478 174 175 168
-0.00026563 -0.04199515 0.58827768 163 135 118
-0.00026571 -0.03997342 0.58844781 166 140 122
-0.01058868 0.12939815 0.47180224 178 175 171
-0.00467349 0.12561620 0.48199579 166 164 161
-0.00321760 0.17347745 0.59065136 155 152 149
-0.00094151 0.18544174 0.91545303 198 194 189
-0.01821354 0.25153545 0.60881281 165 164 162
-0.01084570 0.39486105 1.10579996 159 159 158
-0.01325176 0.40669629 1.10764842 163 163 158
-0.01524644 0.41712551 1.12196767 172 172 165
-0.01212041 0.42755732 1.13172327 163 163 158
-0.01267922 0.43729942 1.14987001 159 159 154
-0.01516295 0.43191985 1.90955953 181 176 172
-0.00751531 0.43450098 1.92340434 142 140 138
-0.00087707 0.43710767 1.94238353 148 148 149
-0.01152558 0.44446608 1.15730810 156 156 151
-0.01569538 0.44753678 1.16477091 153 153 149
-0.00913927 0.44417316 1.91494870 145 141 141
-0.00603542 0.44364764 1.92463749 141 137 138
-0.00087707 0.44214353 1.94238353 148 148 144
0.01006541 -0.04317797 0.58990050 166 137 129
0.00560559 -0.03498188 0.59006351 155 125 117
0.00060871 0.12746608 0.47671717 172 167 164
0.01794646 0.17947993 0.47772695 165 163 155
0.01473009 0.17994401 0.48043361 168 168 159
0.00561618 0.17418489 0.57674752 154 152 152
0.00178171 0.16972048 0.58545051 151 150 149
0.01835207 0.17763757 0.87470556 182 181 180
0.01548349 0.17661637 0.88980415 175 175 175
0.01054161 0.17942525 0.90506256 161 161 159
0.01822719 0.18537514 0.47726146 168 167 163
0.01406687 0.18570780 0.48364732 161 161 159
0.01771950 0.18022911 0.87359039 175 175 174
0.01190895 0.18447618 0.89073261 174 174 174
0.00576493 0.18544626 0.91257722 154 151 152
0.01681666 0.42448880 1.89356449 169 169 168
0.01358102 0.43261657 1.90956205 163 161 162
0.00855806 0.43469880 1.92675910 165 164 163
0.00248018 0.43542904 1.94238353 160 156 157
0.01899432 0.44582808 1.91494870 179 179 178
0.01168842 0.44970510 1.92709305 166 163 166
0.00248493 0.44298734 1.94610453 156 154 152
0.01753756 0.46264006 1.93683386 175 173 173
0.01814736 0.46900156 1.94238353 171 168 166
0.02164835 0.13907881 0.45155395 168 164 163
0.02123505 0.14076582 0.45271329 171 169 167
0.02556460 0.17964104 0.47462206 142 141 139
0.03875800 0.17389804 0.49092547 167 166 162
0.02484166 0.17689901 0.85863471 174 171 165
0.02305752 0.17715043 0.86985822 176 175 170
0.02176504 0.17685747 0.88439938 177 177 175
0.02392549 0.18446850 0.47458770 153 152 148
0.03795391 0.18424509 0.49761323 158 156 151
0.03677533 0.18573675 0.50377277 157 155 151
0.03152131 0.43435718 1.87262940 179 179 175
0.02489548 0.43644895 1.89224511 174 175 172
0.03160862 0.44042885 1.87781680 183 183 180
0.02684454 0.44885220 1.89438230 179 177 174
0.02224144 0.45448236 1.90956457 177 175 173
0.02532779 0.46048388 1.89355266 142 136 137
0.02228321 0.46524671 1.91315063 160 154 155
0.04148095 0.16861198 0.47930219 174 174 164
0.04074079 0.17303070 0.48483584 165 164 157
0.04096228 0.18140839 0.49438047 146 144 137
0.05659113 0.21139997 0.67874143 158 154 149
0.05716228 0.21501468 0.68356308 164 163 157
0.05745718 0.22874008 0.68985151 171 169 163
0.05793770 0.27279040 0.71229494 151 147 142
0.05931558 0.28167316 0.71886730 131 132 131
0.05767674 0.28480853 0.72430257 132 130 129
0.05808424 0.41597170 1.79336464 178 175 172
0.05839320 0.42285857 1.80290389 167 165 158
0.07302195 0.17926611 0.49225735 135 134 131
0.07293418 0.18320533 0.49244870 151 151 148
0.07401026 0.21264994 0.67405237 153 153 153
0.06560376 0.21395478 0.68376419 138 137 136
0.07338068 0.22526224 0.67642494 144 144 144
0.06435344 0.22590969 0.68478550 148 144 141
0.06175866 0.26387477 0.69871449 135 133 129
0.06261607 0.27388872 0.70689602 135 135 133
0.06400209 0.28240760 0.71467763 122 122 122
0.06149576 0.28722652 0.72409545 112 113 115
0.07202406 0.36838922 1.73707286 167 165 162
0.06967899 0.37404697 1.75207956 168 167 162
0.06639403 0.37640421 1.76767200 167 166 163
0.07058001 0.38699724 1.77296347 159 155 153
0.06808971 0.39587414 1.78781246 153 152 153
0.07274346 0.40767796 1.77304149 171 169 165
0.07343962 0.40800763 1.79003040 173 171 169
0.07126446 0.41595757 1.80450932 177 175 172
0.07978204 0.42372090 1.79336464 124 124 127
0.07303929 0.42404390 1.81062200 148 146 144
0.06871686 0.42789573 1.82885671 153 149 145
0.07478715 0.43681555 1.84879899 135 133 137
0.07258470 0.44394158 1.87436807 128 123 132
0.07168178 0.44991715 1.89039381 132 127 137
0.07154743 0.45648837 1.90419054 139 138 145
0.09480435 -0.00246186 0.59550463 135 134 135
0.09458084 0.00196934 0.59701320 141 141 142
0.09889227 0.16246740 0.57509430 118 117 118
0.09750464 0.17627491 0.81831747 174 173 174
0.09562008 0.17132366 0.82230705 172 171 171
0.08061368 0.18354273 0.49230252 119 119 121
0.09654535 0.18604586 0.77660009 175 174 172
0.09427800 0.19496728 0.78712086 169 169 168
0.09811137 0.18140075 0.81730115 177 175 176
0.09484023 0.18182411 0.82218660 176 175 176
0.08176551 0.21450202 0.65942788 141 138 137
0.08216450 0.21261076 0.66783222 160 157 155
0.08099897 0.20703466 0.68175572 179 178 175
0.09554532 0.20640658 0.79188757 164 161 160
0.09170191 0.21331018 0.80515381 146 142 144
0.08203927 0.22541709 0.65857466 181 180 172
0.08246911 0.22350223 0.66617147 153 153 152
0.09698974 0.37683062 1.71401501 150 151 154
0.09108200 0.37673758 1.72582262 151 150 152
0.08165730 0.37578189 1.75053570 158 152 149
0.09179498 0.38136510 1.72785668 155 155 157
0.08743423 0.38642948 1.74805148 144 144 146
0.08433256 0.39110958 1.76799439 142 138 141
0.08409595 0.39734733 1.78627938 146 143 145
0.08208561 0.40737927 1.77613854 156 155 153
0.08266304 0.40096235 1.78863287 156 156 155
0.08063532 0.43138552 1.81254506 134 135 138
0.09538995 0.65620130 1.92037344 180 177 169
0.09566095 0.66139412 1.92582905 179 173 165
0.09704016 0.67599970 1.95359498 178 170 164
0.09475502 0.67874849 1.97636104 181 180 172
0.09817100 0.68899643 1.97636104 170 162 157
0.09559110 0.68818355 1.99379957 181 177 170
0.10193194 -0.00358861 0.59448370 138 137 137
0.10178959 0.00175061 0.59643614 138 138 139
0.11027816 0.15975712 0.57877754 171 170 167
0.10269153 0.15811060 0.81458340 152 146 150
0.10917718 0.16510937 0.57795547 146 144 144
0.11187005 0.17388411 0.58161070 142 137 135
0.10339056 0.16995633 0.81761099 171 169 168
0.10607119 0.17259929 0.82325085 165 163 162
0.11907109 0.17980243 1.17282331 163 162 162
0.11068566 0.18859896 0.77612026 156 155 154
0.10485270 0.19432129 0.78206473 162 161 157
0.11880877 0.19892766 1.13170588 160 160 158
0.11954709 0.19851074 1.15780079 150 152 154
0.11798091 0.19266957 1.16933656 158 155 156
0.10604220 0.20026055 0.77918601 140 138 139
0.10358621 0.20750706 0.78849176 131 130 133
0.10062175 0.21676520 0.80034459 152 151 146
0.11763828 0.20321880 1.13931406 153 152 149
0.11810641 0.20219573 1.15029172 161 159 158
0.11794883 0.20119919 1.16176927 164 165 164
0.13607255 0.03326988 0.64649190 143 142 144
0.13487797 0.04308551 0.64491556 144 144 148
0.13644527 0.17731952 1.13740510 155 156 157
0.12751502 0.17424461 1.14953532 140 139 139
0.12219276 0.17764068 1.16396623 148 146 145
0.13343244 0.19496177 0.55700832 129 128 127
0.13208567 0.19305111 0.56024116 119 117 125
0.13142276 0.18057285 1.13931406 123 123 126
0.12634476 0.18734582 1.15399982 142 139 140
0.12227220 0.18943368 1.16328350 152 148 148
0.13121557 0.20026825 0.55519396 150 150 147
0.12082589 0.20031576 1.15091991 158 159 158
0.13150187 0.33319685 1.77459569 178 176 176
0.13630968 0.33012390 1.78675008 180 178 179
0.13208303 0.35089287 1.74715555 182 174 172
0.13241501 0.34556542 1.77408732 176 174 173
0.14375895 0.03264824 0.64881128 155 153 153
0.14548274 0.04353845 0.64781486 143 142 145
0.15975137 0.10305355 0.59062728 174 171 170
0.14410247 0.15681065 1.13835824 128 129 133
0.14406807 0.15899947 1.14277294 136 137 140
0.14563680 0.17309215 1.13596905 170 168 167
0.14363261 0.16545079 1.14245730 146 146 148
0.14096189 0.19102790 0.55648274 136 135 134
0.14403495 0.18346932 1.13292058 146 144 145
0.14656559 0.18300355 1.14219427 150 150 151
0.15200242 0.31375294 1.75053570 160 151 153
0.15137521 0.31631957 1.76484986 168 161 162
0.14449318 0.31749168 1.78863287 180 176 175
0.15401462 0.32084039 1.75619650 132 130 130
0.14977115 0.32907989 1.77216007 162 158 158
0.14853097 0.33288187 1.78573627 169 165 166
0.16649479 0.09457466 0.58860413 166 165 165
0.16336182 0.10248406 0.58791043 160 159 159
0.17178037 0.16718107 0.67450127 159 156 154
0.16476300 0.16750020 0.68884301 158 158 157
0.16487644 0.25179933 0.65639411 138 135 130
0.16455842 0.25712607 0.66443175 145 144 139
0.17896705 0.25195597 1.11252264 121 121 127
0.17960371 0.24924472 1.12048233 144 143 143
0.16574997 0.26477376 0.66914587 154 151 144
0.16392958 0.31342398 1.74866043 154 147 148
0.16133943 0.31570545 1.76995254 162 154 156
0.17587230 0.31833160 1.79336464 143 138 138
0.17727928 0.31775376 1.80771160 160 157 156
0.16395363 0.32369577 1.77183495 154 145 147
0.16949384 0.33054723 1.79337350 146 140 141
0.17432002 0.33680101 1.80933996 161 154 151
0.17555927 0.33921438 1.82228994 165 157 154
0.17991197 0.32503024 1.86747062 160 159 159
0.16701508 0.34093133 1.79812157 168 165 163
0.17708775 0.34311023 1.81376636 160 154 152
0.18510774 0.23819935 1.11863339 160 161 162
0.18232400 0.23850297 1.12234056 146 146 148
0.19020519 0.25444410 1.10955722 157 156 158
0.18567830 0.24633870 1.12322556 139 138 139
0.19508334 0.26411888 1.10798580 150 146 145
0.18065144 0.32061407 1.84209740 162 161 161
0.21967557 -0.36361429 0.75321317 110 119 118
0.20997734 0.14905808 0.51771660 160 158 154
0.20683183 0.14990200 0.52629182 175 175 169
0.20915984 0.17082015 0.51974709 143 143 139
0.20673889 0.16994993 0.52134439 146 145 142
0.21326074 0.18148418 0.51972290 145 145 142
0.21124755 0.18338610 0.52180965 155 154 147
0.20036001 0.25575453 1.10676289 163 161 161
0.20689610 0.26757072 1.07730520 122 119 130
0.20492907 0.26864273 1.09131885 127 125 128
0.20273178 0.26410122 1.10405955 146 145 144
0.21754138 0.30967450 1.77924371 183 182 180
0.21784827 0.31571085 1.79022678 155 151 150
0.21955870 0.32651739 1.79574311 173 170 165
0.21773727 0.33222078 1.81159387 176 174 168
0.21708868 0.33697054 1.82720172 162 158 157
0.21896005 0.34216815 1.82969761 149 148 150
0.23476906 -0.36453973 0.73924953 109 117 121
0.22903560 -0.36552248 0.75135779 110 118 119
0.23151752 -0.35812107 0.74990271 110 116 117
0.22998219 0.31506602 1.77320807 152 152 152
0.22673903 0.31686505 1.78510264 155 153 152
0.22676721 0.32351325 1.77924371 125 125 126
0.23057828 0.32945455 1.78977646 142 141 141
0.22043422 0.33560571 1.80290389 176 171 170
0.23724576 0.34436432 1.79337471 130 129 132
0.23017566 0.34140312 1.80611761 150 149 149
0.22104836 0.34862296 1.84713048 152 152 154
0.22248591 0.35505831 1.87262940 150 150 152
0.25103519 0.11901934 0.45095536 161 160 157
0.25381323 0.12524880 0.45364974 160 158 154
0.25848523 0.13428010 0.46052435 130 124 124
0.24479299 0.17644767 0.89787104 178 177 179
0.24489734 0.17852667 0.90732679 168 167 167
0.24490927 0.18159449 0.91500497 162 161 164
0.24747063 0.18713977 0.92991165 151 148 150
0.24997646 0.19541041 0.94522813 138 135 137
0.25224878 0.20707002 0.95168727 160 158 155
0.24709356 0.20971719 0.96374415 167 166 166
0.25736022 0.29204452 1.67795014 178 172 170
0.25687771 0.29306470 1.69389277 176 174 172
0.25479719 0.29498239 1.70610603 180 177 175
0.25993380 0.30228797 1.69472957 152 151 149
0.25663988 0.30386388 1.71185176 170 166 163
0.25375565 0.30966171 1.72992515 166 161 158
0.24710307 0.31155497 1.74771987 170 167 164
0.24489495 0.31628650 1.76811848 161 160 157
0.25536338 0.32228105 1.73670240 146 138 138
0.25035721 0.32638496 1.75336902 148 142 144
0.24786805 0.32943551 1.77123930 139 135 138
0.24460093 0.33267891 1.79053305 130 130 133
0.24765462 0.34321760 1.77461503 150 150 153
0.24916147 0.34402023 1.78549764 146 146 148
0.24224743 0.34183806 1.80290389 130 130 132
0.27950692 0.03267804 0.47881009 157 154 151
0.26064273 0.12947338 0.45871828 167 168 155
0.26164139 0.13174684 0.46094277 155 156 144
0.27693233 0.13432128 0.59100731 162 162 160
0.27720910 0.14192976 0.59239745 167 169 166
0.26571951 0.18651866 0.91772585 185 183 178
0.26627004 0.19207044 0.92937104 177 175 173
0.26401354 0.19850338 0.94661772 160 159 159
0.26822233 0.20180432 0.93631470 183 178 174
0.26544668 0.20449276 0.95035841 160 158 158
0.26254297 0.30647154 1.69897699 147 147 146
0.26271197 0.31116679 1.70324588 142 142 144
0.29293633 -0.52663567 1.13835915 111 119 122
0.29685009 -0.52963296 1.14315939 109 119 120
0.29286212 -0.51167211 1.13249615 109 118 121
0.29339123 -0.50359005 1.14123201 112 117 124
0.28343791 0.03146523 0.47823965 154 153 149
0.28656838 0.13388808 0.59232185 172 171 167
0.29444076 0.13633827 0.75589659 170 168 167
0.29748242 0.13251845 0.76328487 160 160 159
0.29403149 0.14270663 0.75270649 167 164 162
0.29257469 0.14275589 0.76486989 181 181 179
0.28788365 0.25527860 0.69766196 153 145 138
0.28808168 0.25682220 0.70426288 151 145 138
0.29216476 0.26871950 0.71205230 165 163 160
0.29272347 0.27685996 0.72251323 168 168 164
0.28895832 0.29069664 0.71589672 147 143 141
0.29136910 0.28646919 0.72641775 155 154 150
0.29290590 0.28965242 0.74086541 142 142 140
0.30271924 -0.52677430 1.13645580 110 119 120
0.30096089 -0.53147158 1.14251721 110 119 121
0.30316983 -0.51326843 1.12882671 108 120 122
0.31566696 0.06650601 0.53841432 133 134 134
0.31743658 0.06231964 0.54058361 107 114 121
0.30815360 0.13763260 0.75867646 143 142 144
0.30703105 0.13484455 0.76655810 147 147 148
0.30797839 0.14365748 0.75661479 144 143 145
0.30525413 0.14153320 0.76210701 130 129 131
0.32806356 0.06551383 0.53953895 129 131 132
0.32729673 0.06808927 0.54069640 130 131 133
0.32986825 0.17837765 0.49929466 130 131 127
0.32861590 0.17888226 0.50243724 128 128 126
0.33036807 0.18153974 0.49992025 140 140 136
0.32741326 0.18269763 0.50382036 150 148 142
0.35956724 -0.24304314 0.49654517 105 112 116
0.35943463 -0.23330787 0.49662405 100 112 112
0.36174274 -0.24193244 0.49508791 107 112 114
0.36302887 -0.23584858 0.49589798 103 112 112
0.37686948 0.08739588 0.46901265 166 166 160
0.37298706 0.19685946 0.49237915 138 138 132
0.36953210 0.20278165 0.48985357 158 158 151
0.37121323 0.67787147 1.88827813 161 161 159
0.37165186 0.68659212 1.89885676 150 150 150
0.37296693 0.68656276 1.91063938 151 152 150
0.37415757 0.69024133 1.92583942 148 147 145
0.37483758 0.69477721 1.95135269 150 149 145
0.37634633 0.69390099 1.96848214 150 147 145
0.37071574 0.70199776 1.93683386 146 146 146
0.36989269 0.70468358 1.94424403 145 145 145
0.38225209 0.08877316 0.46789305 173 173 167
0.38796780 0.37966174 1.18928397 170 166 165
0.38995071 0.38862762 1.19790524 150 148 149
0.39251758 0.39327157 1.20450691 146 145 144
0.39887424 0.40299090 1.21414590 132 132 131
0.39722609 0.41587881 1.22516951 115 112 113
0.39790802 0.63079777 1.89885676 146 145 147
0.39793980 0.63675880 1.90687251 146 146 147
0.39594635 0.64381303 1.91315063 162 162 157
0.39783612 0.65313953 1.92765796 169 169 161
0.38873794 0.67591814 1.95172371 166 160 154
0.38337366 0.68618019 1.93315514 151 149 148
0.39097369 0.68663655 1.95118522 148 144 142
0.38710840 0.68479806 1.96919614 163 158 154
0.38794172 0.68545145 1.99087608 173 173 168
0.40852907 0.40833459 1.21547446 140 139 136
0.40590269 0.41403914 1.22314272 131 131 129
0.40992555 0.42619112 1.23082093 140 140 137
0.41266202 0.43469442 1.24844390 124 124 123
0.41804379 0.44419076 1.26473536 136 136 134
0.40606086 0.63495297 1.89290074 146 145 147
0.40067136 0.63750654 1.90419054 145 145 145
0.40988795 0.64212719 1.89355266 138 138 139
0.40852296 0.64751039 1.90821728 138 138 139
0.40679542 0.65420978 1.92427475 145 145 144
0.41533700 0.66954022 1.91109569 138 137 133
0.41659488 0.67152264 1.93446897 141 140 136
0.40959490 0.67331083 1.94915538 158 156 148
0.41607053 0.68795319 1.93499450 129 129 129
0.40862115 0.68804341 1.95029132 140 136 132
0.43103088 0.13149794 0.55719068 149 148 141
0.42994515 0.13553751 0.56343999 143 143 137
0.43014932 0.14105164 0.55857970 170 171 162
0.42749597 0.14161034 0.56459005 159 159 153
0.43968837 0.18211219 0.59127170 175 176 169
0.42145477 0.44415118 1.25535959 162 163 155
0.42232651 0.45232446 1.26775812 144 144 141
0.42336202 0.45665830 1.28755897 135 133 132
0.42674257 0.46414872 1.27603477 131 132 132
0.42813072 0.46847610 1.28949648 132 132 133
0.42917002 0.47257526 1.30472434 125 126 127
0.43143824 0.48110864 1.30867147 137 138 136
0.43706158 0.48765362 1.33271583 131 131 130
0.43888996 0.49053305 1.34824941 129 129 129
0.44113470 0.18719131 0.59566945 170 170 162
0.44408042 0.19229439 0.60541464 169 170 161
0.45152457 0.19898602 0.62163514 176 177 167
0.45046156 0.20486867 0.61597878 144 144 141
0.45506378 0.20589625 0.62797386 156 155 150
0.44718676 0.45493175 1.23553220 173 173 165
0.44892302 0.45961434 1.24728060 171 171 162
0.45442745 0.44750947 1.31629479 141 135 133
0.45843713 0.45948787 1.32790929 179 177 167
0.44628860 0.46694976 1.23014379 167 163 156
0.45057130 0.47015426 1.25286633 163 161 155
0.45238148 0.47312259 1.26864537 160 158 154
0.45867789 0.47762927 1.29616034 165 165 162
0.45158362 0.48410219 1.25768435 163 164 157
0.45230994 0.48457108 1.26888490 148 146 142
0.45704328 0.48707573 1.29154113 140 137 136
0.45736607 0.49425281 1.30953157 118 115 116
0.44067137 0.49676105 1.35444146 135 135 132
0.44170675 0.50043029 1.36122859 138 138 135
0.47254165 0.07922795 0.55428642 126 127 128
0.47196370 0.08497699 0.55503163 156 157 154
0.47277848 0.08996194 0.56145074 168 169 165
0.46275340 0.45688175 1.33706474 153 151 146
0.46829667 0.46976849 1.35083677 169 167 159
0.47783812 0.47419850 1.36699578 176 173 164
0.46150716 0.48824021 1.31163118 148 147 145
0.46819065 0.49348751 1.33446106 158 158 154
0.47268207 0.48820313 1.35266350 164 164 160
0.47495051 0.48280051 1.36294317 164 163 158
0.46945688 0.50409621 1.33970726 125 121 121
0.46884571 0.50443908 1.34681328 132 131 128
0.49248362 0.07886570 0.53872252 105 106 109
0.49604212 0.07522265 0.54818349 119 121 122
0.48948361 0.09549239 0.45476154 152 153 148
0.49494509 0.09132539 0.46228536 151 152 148
0.49085142 0.08129539 0.53940094 124 124 127
0.49069000 0.08074756 0.54222150 126 126 129
0.48985062 0.10139341 0.45730869 141 142 137
0.49199950 0.10255749 0.46104670 142 142 139
0.48308662 0.47829488 1.35850072 171 166 159
0.48485452 0.47582391 1.37013286 170 166 158
0.48906989 0.47583327 1.38204396 162 163 155
0.48166109 0.48156559 1.35669299 163 161 160
0.48246512 0.48236892 1.36671746 170 165 161
0.51710908 0.24644353 0.61664683 120 120 116
0.51884893 0.24627980 0.62110672 115 118 114
0.53284729 0.23879030 0.62884325 132 128 124
0.52480098 0.24587025 0.61664764 135 134 131
0.53278235 0.24601068 0.62878897 118 118 112
0.54199451 0.23932755 0.62811662 139 139 134
0.54205765 0.24282733 0.63005834 138 138 130
0.57712954 -0.27432045 0.59892628 101 111 110
0.57882375 -0.27325594 0.60043561 102 113 111
0.59409698 -0.40261797 0.71585757 115 120 119
0.59291714 -0.40336606 0.72248293 115 120 119
0.59059031 -0.39510271 0.71336125 110 121 118
0.59295017 -0.39578251 0.72436111 109 120 118
0.58142215 -0.27301413 0.59990430 102 113 111
0.58619433 -0.26955300 0.60595942 99 111 110
0.61505615 0.29424837 0.69072019 151 152 143
0.61882210 0.29184826 0.70054287 161 161 153
0.62250674 0.29111721 0.69575312 170 170 157
0.62342785 0.29117711 0.70122441 166 166 155
0.67478487 0.45789687 1.02539174 158 159 152
0.67741507 0.46052709 1.02400815 116 117 111
0.69642705 0.39979452 0.93760973 136 136 129
0.69720380 0.39391050 0.95232327 128 128 125
0.69505479 0.40547278 0.93576224 135 135 129
0.69758114 0.40443331 0.95118534 140 135 126
0.68946744 0.43664359 1.01358555 168 167 158
0.69229698 0.43774223 1.02246130 162 162 153
0.69022873 0.44450822 1.01829423 163 163 158
0.69340536 0.45012274 1.02943076 150 150 146
0.69857138 0.45458179 1.04314366 151 151 148
0.69025935 0.46316816 1.03287077 122 121 122
0.69424534 0.46265040 1.04349894 141 141 137
0.71328146 0.17723682 0.60528413 131 128 126
0.71285110 0.18337759 0.60491696 148 146 142
0.70310526 0.39632468 0.95303660 120 120 117
0.70221325 0.41002628 0.95289184 135 134 126
0.70606724 0.41638950 0.96557962 137 136 127
0.70621711 0.42150405 0.95747435 162 163 150
0.70594595 0.42418473 0.96864326 135 135 129
0.70865837 0.43414946 0.99099023 106 105 104
0.71393433 0.43853313 1.00503474 125 123 119
0.71265710 0.44151063 1.00728205 146 146 140
0.70038271 0.44692454 1.03971136 159 159 150
0.70213719 0.45542502 1.05010357 151 151 149
0.70090452 0.46250649 1.04855722 140 140 138
0.72442253 0.19436254 0.61750469 159 160 152
0.73286710 0.19627498 0.62595803 160 162 154
0.72709631 0.20266560 0.61941882 160 159 153
0.73162347 0.20674066 0.62253388 151 152 145
0.74168670 0.20107677 0.63502762 159 160 155
0.77377811 0.05932954 1.23929036 150 149 147
0.77312503 0.05745515 1.24828188 148 145 144
0.77256632 0.05814420 1.26002204 144 142 142
0.76831435 0.07405389 1.23490813 149 149 146
0.77243434 0.06893813 1.24751878 149 147 145
0.77256632 0.06395179 1.26002204 135 133 131
0.77734961 0.39141371 1.19108180 156 157 147
0.77988988 0.40304595 1.19768882 170 172 163
0.79370146 0.05592659 1.23435221 163 163 159
0.79027272 0.05328206 1.24582249 145 145 143
0.78855254 0.06639589 1.23505287 151 149 145
0.78253086 0.06646565 1.24513174 147 145 142
0.78403499 0.39752571 1.19769625 156 157 149
0.78265548 0.39824283 1.20193589 159 160 151
0.78749156 0.40375930 1.19980860 177 177 168
0.79270441 0.40390977 1.20801458 165 165 158
0.80220779 0.04997503 1.23591130 153 153 150
0.80428426 0.04462224 1.24757066 132 135 136
0.80209601 0.40409805 1.21486577 153 153 149
0.80379170 0.41314539 1.22142673 178 178 167
0.81263219 0.42281314 1.23216190 156 157 151
0.83612409 -0.52310499 0.91437374 112 121 118
0.83336488 -0.51114943 0.91292969 112 121 119
0.83065589 -0.51910426 0.92230525 115 124 120
0.83539110 -0.49882680 0.90385580 112 119 118
0.82122341 0.41345413 1.23815966 152 153 150
0.83112407 0.41703620 1.24843413 145 146 144
0.83572388 0.41748878 1.26002204 129 130 130
0.83262086 0.42232962 1.23180672 149 150 142
0.82975399 0.42592094 1.25008311 164 165 157
0.83572388 0.43491155 1.26002204 155 157 148
0.84152765 -0.52395385 0.91499250 112 122 119
0.84124360 -0.50806997 0.91403773 110 120 118
0.84664288 -0.50377068 0.92293352 111 117 115
0.84698033 0.41982985 1.26708758 130 131 131
0.85010734 0.43270880 1.23815966 145 147 139
0.84340245 0.42848337 1.25397332 156 157 150
0.84949428 0.42937405 1.26710114 149 151 145
0.85526332 0.44220747 1.23477978 176 178 165
0.85843072 0.44574213 1.24766592 174 173 163
0.85406083 0.44188078 1.27384631 156 157 148
0.85727261 0.44491174 1.28470433 156 157 148
0.87916398 0.34728026 0.97678941 160 162 149
0.86420383 0.42819831 1.27376006 132 132 132
0.87286869 0.42850391 1.29329561 134 135 131
0.87662195 0.42748684 1.30552441 140 141 134
0.86052960 0.44060788 1.23929036 164 169 159
0.86351328 0.44545408 1.25205745 163 164 154
0.86887965 0.44851498 1.27174668 146 145 136
0.86946321 0.45217687 1.28878314 155 155 143
0.86524206 0.45135143 1.30113602 151 152 143
0.88170048 0.35098624 0.97773176 163 163 151
0.88861193 0.35428082 0.98808138 157 158 145
0.89252512 0.36272653 0.99132026 171 170 159
0.89950979 0.36811560 1.00131738 172 173 160
0.89536307 0.40952478 1.31121254 152 152 145
0.89929092 0.41042650 1.32142663 156 157 148
0.88433858 0.43245004 1.29616976 150 150 143
0.89062818 0.43148161 1.31004368 150 150 141
0.89451588 0.42868177 1.33040254 154 153 146
0.88038784 0.44642380 1.27423275 142 143 136
0.88926420 0.45169649 1.29247189 137 138 131
0.90815480 0.36752782 1.01211643 154 155 142
0.91812152 0.37645659 1.02400577 171 171 159
0.91812152 0.38176632 1.02400577 179 179 167
0.90514886 0.41727556 1.32869582 166 163 156
0.91121697 0.41924846 1.34236014 176 174 166
0.90701485 0.42742355 1.33372054 158 155 147
0.90889680 0.42736903 1.34236014 159 156 147
0.92544308 0.36857915 1.03416538 151 153 140
0.93538193 0.37166880 1.04614006 153 155 145
0.92581815 0.38228753 1.03259009 175 176 162
0.93470687 0.38038659 1.04451752 154 155 145
0.94506547 0.36933947 1.05516310 160 162 152
0.95454880 0.36904641 1.06726128 166 168 157
0.94342887 0.38849162 1.05426419 171 172 159
0.95347834 0.38541565 1.06963199 149 150 141
0.96666076 0.05815289 0.93464220 121 128 127
0.96487170 0.05963716 0.94021058 111 112 112
0.96959254 0.06559942 0.93596053 132 136 134
0.97255464 0.07044791 0.94300212 142 144 140
0.96249573 0.36890254 1.07004416 166 168 156
0.96343648 0.37283744 1.08289707 163 165 156
0.97042090 0.38935801 1.09251992 149 150 142
0.97836380 0.38316025 1.10181585 158 160 153
0.96184498 0.48982322 1.34502351 159 160 153
0.97598121 0.49704283 1.36809796 158 159 151
0.97402337 0.50076321 1.36535352 166 165 160
0.98616464 0.07247764 0.93714094 152 152 150
0.98734802 0.07545130 0.94403887 151 152 149
0.98634189 0.08277565 0.93847551 168 171 161
0.99006146 0.08238121 0.94522346 170 171 162
0.98035508 0.37917057 1.10405838 166 167 158
0.98407415 0.39190007 1.11040813 157 159 150
0.99490321 0.39796512 1.12482127 156 157 148
0.99840242 0.41940627 1.61019444 146 147 146
0.99308041 0.41619219 1.63348516 129 129 124
0.99748227 0.41211840 1.64972665 143 142 135
0.99845471 0.41537172 1.66313255 154 154 147
0.99133825 0.42887406 1.59880149 120 122 127
0.99439776 0.42960830 1.60795846 119 120 125
0.99600978 0.42442286 1.63242232 120 121 121
0.99647983 0.42442202 1.65287143 153 154 145
0.98798239 0.49077901 1.39166591 158 159 152
0.99430006 0.49406259 1.40467236 158 159 153
0.99094859 0.50829940 1.39245240 162 162 156
0.99809861 0.50187312 1.40935481 153 155 150
1.00212350 0.07385987 0.94546045 167 163 162
1.01774192 0.39632335 1.64138460 169 170 160
1.00648120 0.41063138 1.61627759 158 159 153
1.01102928 0.41094689 1.62761334 159 159 152
1.01079689 0.41048911 1.65057844 151 147 141
1.00601023 0.40725081 1.66518580 150 147 145
1.00445197 0.42596635 1.61321063 142 143 143
1.00499947 0.43032936 1.63270788 129 130 131
1.00725664 0.42765655 1.64443804 134 135 135
1.00272691 0.43474077 1.66354078 145 144 138
1.00876081 0.44377920 1.61788034 140 140 140
1.01248276 0.44160038 1.62272310 134 136 137
1.01343658 0.49338629 1.43379526 167 168 160
1.01896060 0.48910965 1.44232309 164 164 156
1.00324218 0.50952027 1.41522801 160 161 154
1.00890914 0.51039310 1.43060260 163 164 156
1.01541913 0.50769198 1.44437766 170 171 162
1.00523502 0.52422144 1.41596633 165 166 162
1.01585940 0.52646356 1.43493213 166 166 160
1.01792693 0.52415866 1.44617376 170 171 161
1.02412587 0.39825429 1.64938164 166 166 156
1.02319101 0.40946589 1.63348067 163 163 159
1.03287937 0.40586921 1.65092817 155 155 149
1.02367792 0.40349756 1.66394901 166 160 154
1.03947759 0.42637199 1.65339470 168 169 160
1.02328763 0.49263849 1.45103907 166 166 158
1.03229475 0.49667032 1.46838232 157 157 152
1.02299738 0.50103301 1.45158851 173 174 165
1.03140536 0.50619922 1.46866444 167 168 159
1.02538948 0.53209417 1.45285578 165 165 160
1.03119278 0.53748457 1.46202556 162 162 160
1.03586145 0.54579186 1.46625113 167 168 164
1.05617788 -0.58403112 1.72614022 97 105 107
1.05371905 -0.58427704 1.75043363 97 106 107
1.05188513 -0.58371073 1.76534331 95 108 108
1.05563781 -0.57262672 1.72697073 98 105 105
1.05233078 -0.57584798 1.74507454 97 107 107
1.05051905 -0.57837975 1.76305068 96 106 106
1.04339494 0.41222260 1.65205705 160 160 156
1.05088888 0.40849888 1.66695610 161 160 157
1.04437416 0.42233660 1.65662880 165 166 159
1.05147481 0.42087731 1.66559196 169 169 165
1.04224604 0.55383629 1.47528321 171 172 164
1.07172155 -0.60049272 1.76535529 100 106 108
1.07168729 -0.58226187 1.72784913 99 104 108
1.06249450 -0.59128636 1.75016920 95 104 106
1.06307419 -0.58776047 1.76536735 98 106 108
1.07172426 -0.57325361 1.72678416 98 105 108
1.06568265 -0.57161677 1.75166437 99 106 108
1.06800389 -0.57759905 1.76844835 98 107 108
1.07654407 0.21064474 1.01816175 162 163 153
1.07936931 0.21378280 1.02194802 168 170 161
1.07844660 0.22290034 1.02432501 172 172 164
1.06556058 0.37654307 1.16377056 128 129 125
1.07872444 0.37932929 1.18824255 145 146 143
1.07554388 0.38384360 1.17689562 137 135 131
1.07736295 0.38379944 1.18472066 153 151 144
1.07786024 0.39866090 1.21268666 165 166 155
1.07791758 0.39280747 1.22564447 156 155 146
1.07769370 0.40987748 1.21486384 152 156 154
1.07591419 0.40660735 1.23231508 150 151 147
1.06375295 0.41334201 1.67587858 168 167 163
1.07337883 0.41323496 1.68966651 174 174 168
1.07935250 0.43046591 1.23477566 144 148 143
1.06625521 0.42650947 1.68211377 166 167 163
1.08334413 -0.58425909 1.72687880 100 105 110
1.08587281 -0.57536556 1.71618187 97 106 108
1.08449973 -0.57455056 1.72372569 96 105 108
1.08369565 0.19950376 1.03337169 163 163 157
1.08745581 0.21076442 1.03328820 163 165 154
1.09438585 0.20806411 1.04319217 163 163 154
1.08665378 0.22368806 1.03234520 173 174 165
1.09389172 0.22276274 1.04275184 175 176 167
1.08053875 0.37826979 1.19137406 125 125 124
1.08261985 0.38487265 1.19114132 147 145 139
1.09004708 0.39365839 1.21461160 166 165 155
1.08608863 0.39468691 1.22569186 169 167 157
1.08165056 0.40571766 1.21813548 154 155 147
1.08704086 0.40956286 1.23048803 156 158 151
1.08835361 0.41606893 1.24652270 143 145 141
1.08281755 0.41463426 1.69897699 178 178 171
1.08785144 0.42489448 1.23542532 157 161 155
1.09623748 0.42619810 1.25151224 147 150 147
1.09863034 0.42659599 1.26119524 134 137 136
1.10080016 0.20255736 1.04451996 159 160 153
1.10476847 0.39437305 1.22981915 167 166 155
1.11517644 0.39637209 1.24498987 158 159 147
1.11290832 0.40117204 1.24766870 176 173 164
1.10163804 0.42922515 1.25613161 155 156 154
1.10393226 0.43291940 1.26559123 144 145 144
1.11769569 0.43773201 1.28755432 138 139 138
1.11784315 0.44092941 1.28388608 144 145 144
1.12342376 0.39713302 1.25419503 144 145 135
1.13380730 0.40306276 1.26946032 161 160 149
1.12853408 0.44850905 1.29616505 144 145 144
1.13490349 0.44831446 1.30867636 138 139 138
1.15324390 0.40774062 1.29122257 145 145 136
1.14819884 0.45699689 1.32400751 141 142 141
1.16755092 0.45787920 1.35714221 135 135 134
1.17342627 0.45992744 1.36671746 135 133 133
1.17029798 0.46578860 1.35398682 138 138 136
1.17579007 0.46465163 1.36672115 137 138 136
1.18293077 0.47056524 1.37364244 138 138 135
1.18972734 0.46914524 1.38650722 135 133 131
1.20672707 0.46955781 1.40738928 128 124 123
1.21525383 0.47579104 1.42115688 126 121 121
1.20482957 0.48740788 1.39580174 140 139 136
1.20755476 0.48594216 1.40790400 144 142 136
1.21455034 0.48914223 1.43875263 170 171 161
1.21648088 0.49280140 1.44747351 172 173 163
1.21847036 0.50424811 1.44462952 166 166 155
1.23104784 0.47274937 1.43567118 128 127 120
1.23723233 0.47266714 1.44540164 132 132 125
1.23759659 0.47841923 1.47208420 156 155 148
1.22670967 0.49041166 1.43520370 141 138 133
1.22822695 0.49244621 1.44688637 161 160 151
1.23194813 0.48813285 1.46853631 161 161 153
1.23159789 0.50494042 1.44812997 152 151 144
1.22655818 0.50432292 1.46700615 172 172 164
1.23550323 0.50935803 1.48499271 166 167 159
1.24432105 0.43522947 1.48823857 179 182 169
1.24843073 0.44053671 1.49315381 177 178 165
1.25673521 0.44606507 1.50308609 173 174 162
1.24198127 0.47332013 1.45315269 131 131 123
1.25139041 0.47686347 1.47145681 137 136 128
1.24755351 0.47583731 1.48698862 170 170 159
1.24409544 0.48051029 1.45783186 145 143 136
1.25080627 0.48519917 1.47208743 140 139 134
1.24415234 0.48963452 1.48692535 167 168 159
1.25673521 0.48763245 1.50308609 176 176 167
1.24197350 0.50769600 1.45117767 141 139 134
1.24425149 0.51184797 1.46097374 144 144 133
1.24248336 0.50871411 1.49462846 167 168 160
1.25352490 0.50733473 1.50756959 171 171 163
1.27390969 0.44913924 1.52678347 178 179 169
1.26055169 0.47762132 1.48011315 139 139 130
1.26585835 0.47416233 1.51399770 147 147 137
1.26657856 0.48489293 1.51485914 170 170 160
1.27667189 0.49324747 1.52851447 175 175 166
1.26556997 0.50798603 1.51993692 173 174 166
1.27303810 0.50839036 1.52954998 172 173 164
1.29736533 0.14713681 1.41641476 149 151 150
1.29887671 0.14823966 1.42235112 142 144 143
1.29311556 0.45685548 1.55301887 175 176 167
1.28257573 0.48806240 1.53716969 162 161 152
1.28950740 0.49145883 1.55127555 163 163 154
1.29601761 0.49394837 1.56517298 161 161 152
1.28724415 0.50915851 1.54772175 174 175 166
1.29844757 0.50545849 1.56919968 165 167 158
1.29544842 0.52413934 1.56557012 173 174 165
1.30770149 0.14783698 1.41625557 129 130 130
1.30818829 0.15208345 1.42469221 129 132 132
1.30698991 0.16239904 1.43015158 124 129 131
1.31879485 0.45908555 1.58385944 174 175 164
1.30252451 0.46569365 1.56922770 171 172 163
1.31382480 0.47243690 1.58945493 167 168 159
1.31672585 0.47394499 1.60638779 158 159 152
1.30498779 0.49401296 1.57163815 161 161 151
1.31442938 0.48963158 1.59146164 165 166 155
1.31685510 0.48848885 1.60400751 169 170 158
1.30469950 0.50525450 1.57248600 169 169 161
1.30762069 0.50406388 1.58757920 163 164 156
1.31655192 0.50249919 1.60447997 174 175 165
1.31127882 0.52397178 1.58139809 173 174 166
1.32546735 0.13897911 1.41818380 137 138 140
1.33035539 0.14857562 1.41621408 130 133 133
1.32985997 0.14541008 1.42207553 133 134 136
1.32259101 0.47265580 1.59504843 170 171 163
1.33058399 0.47062053 1.61084551 170 171 162
1.33511877 0.47484343 1.62369537 167 168 159
1.32327667 0.48484322 1.59396982 160 160 151
1.32257245 0.49469653 1.61250200 173 174 164
1.33130848 0.49848782 1.62761259 174 175 166
1.32124090 0.50011587 1.61019444 177 178 168
1.33430469 0.50331038 1.62954772 175 176 167
1.34262586 0.14388153 1.41818380 150 150 152
1.34152949 0.47174296 1.61788034 175 176 167
1.34577215 0.47431803 1.63152993 170 172 160
1.35279632 0.47795093 1.64404380 170 171 160
1.35472393 0.47871798 1.66149962 171 173 159
1.35262489 0.48125528 1.65541601 168 169 158
1.35472393 0.48158973 1.66149962 169 171 158
