ply
format ascii 1.0
element vertex 1055
property float x
property float y
property float z
property uchar red
property uchar green
property uchar blue
end_header
-0.23040828 0.10133645 1.47688854 140 141 143
-0.22736026 0.10111616 1.47367787 128 130 133
-0.22432546 0.10089681 1.47048128 112 112 117
-0.22082582 0.10046098 1.46412921 123 123 127
-0.21782473 0.10024446 1.46097374 144 144 147
-0.21345939 0.09938768 1.44848680 155 155 157
0.13460259 0.04425636 0.64499700 114 114 117
0.13584667 0.04429851 0.64561129 121 120 127
0.13696256 0.04429851 0.64561129 140 139 148
0.13821007 0.04434074 0.64622670 151 150 158
0.13932702 0.04434074 0.64622670 155 155 161
0.14071225 0.04442544 0.64746118 149 149 152
0.14183134 0.04442544 0.64746118 129 130 132
0.14281401 0.04438305 0.64684337 126 126 128
0.14393203 0.04438305 0.64684337 134 133 135
0.14505005 0.04438305 0.64684337 138 137 141
0.14616807 0.04438305 0.64684337 133 129 139
0.14742675 0.04442544 0.64746118 138 136 145
0.14868785 0.04446791 0.64808017 146 144 150
0.15009500 0.04455309 0.64932168 155 152 153
0.15150754 0.04463861 0.65056801 147 146 146
0.27966228 0.03287168 0.47907552 151 149 147
0.28009441 0.03282529 0.47839934 146 144 142
0.28072318 0.03280214 0.47806194 154 153 154
0.28154948 0.03280214 0.47806194 160 160 161
0.28237575 0.03280214 0.47806194 160 160 161
0.28360206 0.03284847 0.47873718 160 160 161
0.28402835 0.03280214 0.47806194 156 155 154
0.28485465 0.03280214 0.47806194 148 147 144
0.28568092 0.03280214 0.47806194 140 139 136
0.96382326 0.06433393 0.93760973 126 133 134
0.96544379 0.06433393 0.93760973 124 128 129
0.96706438 0.06433393 0.93760973 122 126 127
0.96734703 0.06424507 0.93631470 120 124 124
0.96629602 0.06406809 0.93373531 120 124 123
0.96790993 0.06406809 0.93373531 124 128 127
-0.13102777 0.04190256 0.59568703 137 140 142
-0.12999818 0.04190256 0.59568703 140 142 145
-0.12885535 0.04186577 0.59516406 137 139 141
-0.12782665 0.04186577 0.59516406 135 137 139
-0.12668674 0.04182905 0.59464198 136 139 140
-0.12565894 0.04182905 0.59464198 138 139 143
-0.12452193 0.04179239 0.59412080 142 143 145
-0.12338690 0.04175579 0.59360057 145 146 148
-0.27355611 0.10887012 1.54769826 117 117 126
-0.26698685 0.10837526 1.54066324 126 125 133
-0.26194263 0.10739890 1.52678347 127 126 134
-0.25641614 0.10620292 1.50978136 117 116 123
-0.25380662 0.10620292 1.50978136 124 122 131
-0.25008312 0.10573196 1.50308609 120 119 128
-0.24584979 0.10503329 1.49315381 127 126 135
-0.24273434 0.10480244 1.48987222 124 125 134
-0.23910819 0.10434379 1.48335195 127 128 136
-0.23602787 0.10411596 1.48011315 129 130 137
-0.23398048 0.10434379 1.48335195 129 133 137
-0.23141663 0.10434379 1.48335195 132 135 140
-0.22785559 0.10388914 1.47688854 127 129 135
-0.22481312 0.10366329 1.47367787 115 115 122
-0.22082582 0.10299160 1.46412921 125 124 131
-0.21735629 0.10254863 1.45783186 134 134 140
-0.21300425 0.10167401 1.44539833 137 137 141
0.13460259 0.04537118 0.64499700 160 159 160
0.13584667 0.04541439 0.64561129 148 146 153
0.13696256 0.04541439 0.64561129 147 147 154
0.13932702 0.04545769 0.64622670 153 153 155
0.14057799 0.04550106 0.64684337 172 172 171
0.14183134 0.04554452 0.64746118 172 172 169
0.14267787 0.04545769 0.64622670 164 161 158
0.14379482 0.04545769 0.64622670 142 138 140
0.14491178 0.04545769 0.64622670 138 134 138
0.14602873 0.04545769 0.64622670 127 122 132
0.14728609 0.04550106 0.64684337 121 116 126
0.14854585 0.04554452 0.64746118 128 123 131
0.15136229 0.04571919 0.64994425 173 167 169
0.27883422 0.03369972 0.47907552 177 178 171
0.27946478 0.03367593 0.47873718 174 175 171
0.28009441 0.03365216 0.47839934 159 159 156
0.28072318 0.03362843 0.47806194 153 153 150
0.28154948 0.03362843 0.47806194 154 154 151
0.28217676 0.03360473 0.47772506 156 156 152
0.28340191 0.03365216 0.47839934 158 159 154
0.28382820 0.03360473 0.47772506 155 155 150
0.28485465 0.03362843 0.47806194 146 147 141
0.28547961 0.03360473 0.47772506 142 142 137
0.96755564 0.06632143 0.94282591 105 109 112
0.96649683 0.06613746 0.94021058 112 115 117
0.96678102 0.06604587 0.93890840 115 119 120
0.96840382 0.06604587 0.93890840 114 118 119
0.96868497 0.06595451 0.93760973 114 118 119
0.96629602 0.06568197 0.93373531 118 122 122
0.96924496 0.06577257 0.93502325 125 129 129
0.97086108 0.06577257 0.93502325 134 138 137
0.97247720 0.06577257 0.93502325 148 150 148
0.97409332 0.06577257 0.93502325 148 150 147
0.97436547 0.06568197 0.93373531 142 143 141
-0.13091274 0.04289446 0.59516406 134 139 141
-0.12988403 0.04289446 0.59516406 136 140 143
-0.12874232 0.04285683 0.59464198 134 138 141
-0.12782665 0.04289446 0.59516406 135 138 140
-0.12668674 0.04285683 0.59464198 138 139 141
-0.12565894 0.04285683 0.59464198 150 151 153
-0.12452193 0.04281928 0.59412080 140 141 143
-0.12338690 0.04278178 0.59360057 133 134 136
-0.12236091 0.04278178 0.59360057 134 134 136
-0.27877709 0.11257326 1.56196272 100 99 104
-0.27481094 0.11205687 1.55479777 115 114 120
-0.27088103 0.11154519 1.54769826 138 137 144
-0.26759502 0.11129110 1.54417276 155 155 161
-0.26312789 0.11053573 1.53369200 155 155 160
-0.25930372 0.11003783 1.52678347 145 146 151
-0.25608802 0.10979055 1.52335250 141 141 146
-0.25288674 0.10954438 1.51993692 134 134 141
-0.24803512 0.10857065 1.50642633 131 131 139
-0.24434541 0.10809025 1.49976075 123 124 132
-0.23963255 0.10714209 1.48660493 125 127 135
-0.23706308 0.10714209 1.48660493 128 131 139
-0.23449360 0.10714209 1.48660493 125 128 136
-0.23192412 0.10714209 1.48660493 131 134 140
-0.22835310 0.10667422 1.48011315 126 129 135
-0.22530292 0.10644182 1.47688854 129 129 136
-0.22082582 0.10552223 1.46412921 132 133 138
0.13447464 0.04644182 0.64438391 153 152 152
0.13584667 0.04653028 0.64561129 151 149 156
0.13919432 0.04653028 0.64561129 154 154 156
0.14365788 0.04653028 0.64561129 163 162 158
0.14477377 0.04653028 0.64561129 152 152 148
0.14588965 0.04653028 0.64561129 149 146 149
0.27883422 0.03452777 0.47907552 163 163 156
0.27966228 0.03452777 0.47907552 162 162 156
0.28009441 0.03447904 0.47839934 161 161 157
0.28072318 0.03445472 0.47806194 165 165 161
0.28154948 0.03445472 0.47806194 171 171 167
0.28237575 0.03445472 0.47806194 172 172 167
0.28340191 0.03447904 0.47839934 160 161 154
0.28382820 0.03443044 0.47772506 144 145 138
0.28485465 0.03445472 0.47806194 138 138 131
0.28568092 0.03445472 0.47806194 142 142 136
0.28691190 0.03450339 0.47873718 143 143 139
0.96890324 0.06804568 0.94413906 139 140 139
0.96649683 0.06776255 0.94021058 138 139 138
0.96678102 0.06766869 0.93890840 134 137 137
0.96840382 0.06766869 0.93890840 135 138 137
0.96868497 0.06757510 0.93760973 136 139 138
0.96762884 0.06738868 0.93502325 143 147 143
0.97058374 0.06748176 0.93631470 144 148 142
0.97220206 0.06748176 0.93631470 141 146 140
0.97247720 0.06738868 0.93502325 142 146 142
0.97409332 0.06738868 0.93502325 141 145 142
0.97570944 0.06738868 0.93502325 137 140 137
0.97597933 0.06729586 0.93373531 127 128 125
0.97920710 0.06729586 0.93373531 138 138 136
-0.13194142 0.04392315 0.59516406 136 137 143
-0.13102777 0.04396175 0.59568703 134 134 141
-0.12999818 0.04396175 0.59568703 134 134 141
-0.12885535 0.04392315 0.59516406 130 131 136
-0.12793899 0.04396175 0.59568703 136 137 141
-0.12679796 0.04392315 0.59516406 134 135 137
-0.12474058 0.04392315 0.59516406 121 120 124
-0.12349503 0.04384616 0.59412080 109 108 113
-0.27544269 0.11500799 1.55837202 135 136 137
-0.27212361 0.11474421 1.55479777 149 150 150
-0.26881969 0.11448164 1.55123997 156 160 159
-0.26432392 0.11370108 1.54066324 149 153 153
-0.26166102 0.11370108 1.54066324 144 148 149
-0.25782618 0.11318660 1.53369200 142 146 147
-0.25517532 0.11318660 1.53369200 141 144 146
-0.25082204 0.11242354 1.52335250 146 147 149
-0.24597800 0.11142199 1.50978136 144 144 151
-0.23243384 0.10995269 1.48987222 128 131 137
0.13460259 0.04760083 0.64499700 144 144 144
0.13584667 0.04764616 0.64561129 125 124 131
0.14588965 0.04764616 0.64561129 151 151 149
0.14700554 0.04764616 0.64561129 149 149 149
0.27903143 0.03538082 0.47941431 142 138 136
0.27986005 0.03538082 0.47941431 142 139 138
0.28009441 0.03530591 0.47839934 147 146 144
0.28072318 0.03528101 0.47806194 158 157 154
0.28154948 0.03528101 0.47806194 162 161 157
0.28237575 0.03528101 0.47806194 167 168 162
0.28340191 0.03530591 0.47839934 173 174 165
0.28382820 0.03525615 0.47772506 165 166 157
0.28485465 0.03528101 0.47806194 152 153 144
0.28547961 0.03525615 0.47772506 153 154 145
0.28650722 0.03528101 0.47806194 156 157 150
0.97025454 0.06977472 0.94545585 165 165 162
0.96918523 0.06958063 0.94282591 166 167 163
0.96812189 0.06938762 0.94021058 162 164 158
0.96974695 0.06938762 0.94021058 159 161 154
0.97002667 0.06929152 0.93890840 157 159 152
0.96896535 0.06910010 0.93631470 153 157 149
0.97192615 0.06919568 0.93760973 145 149 142
0.97354674 0.06919568 0.93760973 132 136 129
0.97382039 0.06910010 0.93631470 129 133 127
0.97678792 0.06919568 0.93760973 130 134 129
0.97705710 0.06910010 0.93631470 136 140 135
0.97732556 0.06900480 0.93502325 133 136 134
0.98029375 0.06910010 0.93631470 140 142 141
0.98191214 0.06910010 0.93631470 151 153 152
0.98217386 0.06900480 0.93502325 159 159 159
0.98243487 0.06890974 0.93373531 156 156 156
0.98540610 0.06900480 0.93502325 146 146 146
0.98702222 0.06900480 0.93502325 152 151 150
-0.13194142 0.04495185 0.59516406 128 128 134
-0.13114300 0.04503092 0.59621096 133 134 140
-0.13011251 0.04503092 0.59621096 131 131 138
-0.12896858 0.04499135 0.59568703 131 131 138
-0.12793899 0.04499135 0.59568703 134 135 141
-0.12690938 0.04499135 0.59568703 129 130 134
-0.12587978 0.04499135 0.59568703 123 123 127
-0.12485019 0.04499135 0.59568703 114 113 119
-0.12360337 0.04491242 0.59464198 110 109 118
-0.12268319 0.04495185 0.59516406 132 130 139
-0.12062580 0.04495185 0.59516406 141 141 148
-0.11949220 0.04491242 0.59464198 135 136 141
-0.11825694 0.04483376 0.59360057 137 139 144
-0.26943627 0.11743155 1.55479777 140 141 143
0.27966228 0.03618386 0.47907552 160 154 154
0.28009441 0.03613279 0.47839934 153 148 148
0.28072318 0.03610730 0.47806194 156 153 151
0.28154948 0.03610730 0.47806194 161 160 156
0.28237575 0.03610730 0.47806194 169 169 163
0.28402835 0.03610730 0.47806194 186 187 178
0.28505567 0.03613279 0.47839934 185 186 177
0.28588253 0.03613279 0.47839934 178 179 170
0.28691190 0.03615830 0.47873718 161 162 154
0.97188872 0.07140887 0.94545585 155 155 148
0.97216696 0.07130941 0.94413906 155 156 149
0.97244447 0.07121023 0.94282591 156 157 150
0.97272116 0.07111133 0.94151646 157 158 151
0.97164947 0.07091434 0.93890840 148 149 143
0.97733325 0.07121023 0.94282591 138 139 133
0.97760320 0.07111133 0.94151646 127 129 123
0.97787237 0.07101270 0.94021058 126 130 125
0.98222202 0.07121023 0.94282591 133 137 133
0.98112249 0.07101270 0.94021058 146 151 146
0.98138642 0.07091434 0.93890840 153 158 154
0.98573983 0.07111133 0.94151646 160 165 161
0.98463207 0.07091434 0.93890840 166 171 167
0.98489082 0.07081626 0.93760973 168 170 168
0.98514879 0.07071844 0.93631470 164 164 163
0.98676717 0.07071844 0.93631470 152 152 151
0.98838550 0.07071844 0.93631470 151 149 148
0.99000382 0.07071844 0.93631470 157 154 153
-0.13297012 0.04598054 0.59516406 136 137 140
-0.13194142 0.04598054 0.59516406 136 137 141
-0.13102777 0.04602095 0.59568703 132 133 137
-0.12988403 0.04598054 0.59516406 135 136 140
-0.12874232 0.04594021 0.59464198 148 149 153
-0.12782665 0.04598054 0.59516406 146 147 151
-0.12679796 0.04598054 0.59516406 149 150 154
-0.12576927 0.04598054 0.59516406 139 139 146
-0.12474058 0.04598054 0.59516406 128 128 136
-0.12360337 0.04594021 0.59464198 125 125 134
-0.12257557 0.04594021 0.59464198 129 131 139
-0.12165450 0.04598054 0.59516406 130 133 140
-0.12051999 0.04594021 0.59464198 125 130 135
0.28588253 0.03695966 0.47839934 180 180 171
0.97488254 0.07314502 0.94677633 147 148 142
0.97515696 0.07304301 0.94545585 144 145 139
0.97543073 0.07294128 0.94413906 145 146 140
0.97434849 0.07273866 0.94151646 143 144 139
0.97869444 0.07294128 0.94413906 139 140 136
0.98032629 0.07294128 0.94413906 134 135 132
0.98195815 0.07294128 0.94413906 134 137 134
0.98496187 0.07304301 0.94545585 138 144 140
0.98385161 0.07283983 0.94282591 150 156 152
0.98548126 0.07283983 0.94282591 160 165 161
0.98848563 0.07294128 0.94413906 168 172 168
0.98736721 0.07273866 0.94151646 170 173 170
0.98899454 0.07273866 0.94151646 172 173 171
0.98787773 0.07253717 0.93890840 173 173 171
0.99087298 0.07263777 0.94021058 172 171 169
0.99249804 0.07263777 0.94021058 171 169 167
0.99688840 0.07283983 0.94282591 171 167 166
1.00410414 0.07324732 0.94810051 173 169 168
1.00154054 0.07294128 0.94413906 163 159 159
-0.13376392 0.04692683 0.59412080 139 140 144
-0.13308696 0.04705054 0.59568703 138 138 140
-0.13194142 0.04700923 0.59516406 131 131 133
-0.13091274 0.04700923 0.59516406 129 129 131
-0.12988403 0.04700923 0.59516406 129 130 132
-0.12874232 0.04696800 0.59464198 140 141 144
-0.12782665 0.04700923 0.59516406 133 134 138
-0.12668674 0.04696800 0.59464198 135 135 139
-0.12565894 0.04696800 0.59464198 131 130 138
-0.12474058 0.04700923 0.59516406 126 125 134
-0.12360337 0.04696800 0.59464198 133 133 142
-0.12257557 0.04696800 0.59464198 140 142 149
-0.12165450 0.04700923 0.59516406 142 145 151
-0.12051999 0.04696800 0.59464198 139 143 146
-0.11949220 0.04696800 0.59464198 132 135 138
-0.11825694 0.04688574 0.59360057 126 129 133
0.97815537 0.07478145 0.94677633 146 146 143
0.97842526 0.07467715 0.94545585 139 139 137
0.98142821 0.07478145 0.94677633 131 132 130
0.98443955 0.07488604 0.94810051 130 131 129
0.98607826 0.07488604 0.94810051 131 133 131
0.98633748 0.07478145 0.94677633 134 137 134
0.98522192 0.07457314 0.94413906 139 143 140
0.98685378 0.07457314 0.94413906 147 149 146
0.98848563 0.07457314 0.94413906 153 152 150
0.98736721 0.07436600 0.94151646 153 153 151
0.98899454 0.07436600 0.94151646 154 153 151
0.98787773 0.07415999 0.93890840 156 156 154
0.99087298 0.07426286 0.94021058 160 159 157
0.99249804 0.07426286 0.94021058 164 162 161
1.00270176 0.07478145 0.94677633 169 165 164
1.00014758 0.07446942 0.94282591 164 160 159
-0.13376392 0.04795372 0.59412080 142 145 148
-0.13308696 0.04808014 0.59568703 136 137 139
-0.13194142 0.04803793 0.59516406 134 135 137
-0.13091274 0.04803793 0.59516406 128 128 130
-0.12977010 0.04799579 0.59464198 117 118 120
-0.12874232 0.04799579 0.59464198 129 130 135
-0.12771453 0.04799579 0.59464198 123 123 130
-0.12463115 0.04799579 0.59464198 112 111 120
-0.12360337 0.04799579 0.59464198 117 117 126
0.98089528 0.07663193 0.94942838 165 165 163
0.98253632 0.07663193 0.94942838 157 157 154
0.98417729 0.07663193 0.94942838 140 140 138
0.98771697 0.07652476 0.94810051 130 130 128
0.98659599 0.07631130 0.94545585 132 133 131
0.98823017 0.07631130 0.94545585 135 135 133
0.98848563 0.07620502 0.94413906 139 138 136
0.98599774 0.07588793 0.94021058 137 136 134
0.98762280 0.07588793 0.94021058 137 136 134
0.98651141 0.07567801 0.93760973 140 139 137
0.98950058 0.07578283 0.93890840 143 142 140
0.99112338 0.07578283 0.93890840 148 146 144
0.99990875 0.07620502 0.94413906 159 157 155
-0.13285348 0.04902358 0.59464198 141 144 146
-0.13182569 0.04902358 0.59464198 142 144 146
-0.13079789 0.04902358 0.59464198 143 144 146
-0.12965637 0.04898061 0.59412080 143 144 145
-0.12862948 0.04898061 0.59412080 134 135 138
-0.09359790 0.11088667 1.34502351 126 126 130
-0.08714231 0.11155066 1.35307753 142 142 149
0.98771697 0.07816347 0.94810051 142 142 139
0.98659599 0.07794544 0.94545585 148 148 145
0.98823017 0.07794544 0.94545585 156 155 153
0.98848563 0.07783688 0.94413906 161 160 158
0.98599774 0.07751301 0.94021058 151 150 148
0.98762280 0.07751301 0.94021058 142 141 139
0.98651141 0.07729859 0.93760973 138 137 135
0.98813200 0.07729859 0.93760973 138 137 135
0.98975253 0.07729859 0.93760973 138 136 135
-0.09378398 0.11343651 1.34769750 112 113 117
-0.09163678 0.11366247 1.35038221 115 116 120
-0.08948100 0.11388934 1.35307753 134 135 139
-0.08731660 0.11411712 1.35578370 152 153 155
-0.08480363 0.11388934 1.35307753 144 145 148
0.98910034 0.07991395 0.94942838 164 164 159
0.98797393 0.07969073 0.94677633 170 171 165
0.99099439 0.07980219 0.94810051 176 177 171
0.98986429 0.07957958 0.94545585 179 179 174
0.98874044 0.07935822 0.94282591 172 173 168
0.98899454 0.07924800 0.94151646 164 164 159
0.98787773 0.07902848 0.93890840 157 157 153
0.99087298 0.07913809 0.94021058 150 150 145
-0.09359790 0.11553620 1.34502351 105 103 114
-0.09145460 0.11576589 1.34769750 112 110 121
-0.08930275 0.11599650 1.35038221 127 128 130
-0.08714231 0.11622803 1.35307753 132 133 135
-0.08463470 0.11599650 1.35038221 132 133 135
0.98935568 0.08144090 0.94810051 169 170 163
0.99099439 0.08144090 0.94810051 171 172 165
0.99124676 0.08132716 0.94677633 170 171 162
0.99011749 0.08110062 0.94413906 172 173 163
0.98899454 0.08087534 0.94151646 175 176 167
0.98787773 0.08065131 0.93890840 175 176 167
-0.09766608 0.11716356 1.33706474 121 121 123
-0.09378398 0.11809528 1.34769750 101 100 115
-0.09145460 0.11809528 1.34769750 118 117 131
-0.08948100 0.11856671 1.35307753 131 132 135
-0.08714231 0.11856671 1.35307753 134 135 138
-0.08463470 0.11833052 1.35038221 133 134 137
-0.08213705 0.11809528 1.34769750 134 135 137
0.99099439 0.08307961 0.94810051 165 166 159
0.99124676 0.08296358 0.94677633 167 168 160
0.99011749 0.08273248 0.94413906 169 170 161
0.98899454 0.08250267 0.94151646 172 173 163
0.98787773 0.08227413 0.93890840 173 174 164
-0.15294091 0.06685828 0.74822497 137 139 141
-0.09785910 0.11971068 1.33970726 140 143 144
-0.09592266 0.12018573 1.34502351 134 134 140
-0.09378398 0.12042467 1.34769750 127 128 133
-0.09163678 0.12066455 1.35038221 129 130 134
-0.08948100 0.12090540 1.35307753 134 135 139
-0.08714231 0.12090540 1.35307753 134 135 139
-0.08463470 0.12066455 1.35038221 136 137 140
0.99124676 0.08460001 0.94677633 169 172 164
0.98736721 0.08413000 0.94151646 171 174 165
-0.15260404 0.06800142 0.74657691 137 138 138
-0.09824743 0.12251049 1.34502351 162 163 163
-0.09630483 0.12299858 1.35038221 149 150 148
-0.09415837 0.12324408 1.35307753 140 141 142
-0.09181968 0.12324408 1.35307753 132 133 137
-0.08965996 0.12349057 1.35578370 126 127 131
-0.08731660 0.12349057 1.35578370 130 131 135
-0.08480363 0.12324408 1.35307753 135 136 140
-0.08246494 0.12324408 1.35307753 136 137 140
0.98327023 0.08540151 0.93760973 158 163 153
-0.15389444 0.06929182 0.74657691 136 141 140
-0.15260404 0.06929182 0.74657691 133 136 137
-0.15098108 0.06913953 0.74493611 123 124 126
-0.14840597 0.06913953 0.74493611 122 122 125
-0.14679578 0.06898791 0.74330246 126 126 130
-0.09824743 0.12483525 1.34502351 151 152 154
-0.09649705 0.12558277 1.35307753 143 144 144
-0.09415837 0.12558277 1.35307753 126 126 129
-0.09181968 0.12558277 1.35307753 117 117 124
-0.08965996 0.12583393 1.35578370 127 127 134
-0.08731660 0.12583393 1.35578370 114 114 122
-0.08480363 0.12558277 1.35307753 106 106 115
-0.08246494 0.12558277 1.35307753 94 93 107
-0.08044741 0.12608610 1.35850072 114 113 125
-0.07809935 0.12608610 1.35850072 154 153 161
-0.07575129 0.12608610 1.35850072 188 188 189
-0.16401100 0.07105172 0.75154305 139 137 145
-0.15518484 0.07058221 0.74657691 139 139 140
-0.15372515 0.07050456 0.74575561 132 132 134
-0.15243617 0.07050456 0.74575561 130 131 133
-0.15081535 0.07034978 0.74411839 127 127 129
-0.14969352 0.07042709 0.74493611 122 122 125
-0.14824305 0.07034978 0.74411839 113 113 117
-0.14663500 0.07019567 0.74248832 109 107 116
-0.14519264 0.07011887 0.74167597 119 116 126
-0.10117442 0.12792145 1.35307753 145 148 149
-0.09844276 0.12741283 1.34769750 146 147 151
-0.09669004 0.12817730 1.35578370 146 147 151
-0.09434669 0.12817730 1.35578370 144 145 150
-0.09200332 0.12817730 1.35578370 141 141 147
-0.08965996 0.12817730 1.35578370 133 133 139
-0.08731660 0.12817730 1.35578370 109 109 115
-0.08480363 0.12792145 1.35307753 103 104 110
-0.08246494 0.12792145 1.35307753 112 113 123
-0.08044741 0.12843417 1.35850072 159 159 162
-0.07809935 0.12843417 1.35850072 187 187 188
-0.07559979 0.12817730 1.35578370 194 194 191
-0.07325643 0.12817730 1.35578370 194 194 190
-0.16382937 0.07227057 0.75071079 124 122 132
-0.15372515 0.07179354 0.74575561 130 130 132
-0.15226865 0.07171465 0.74493611 133 133 135
-0.15064999 0.07155738 0.74330246 132 132 134
-0.14936525 0.07155738 0.74330246 130 129 133
-0.14791833 0.07147900 0.74248832 126 124 131
-0.14631447 0.07132276 0.74086541 116 113 124
-0.14487562 0.07124490 0.74005657 117 114 125
-0.09669004 0.13052066 1.35578370 137 141 144
-0.09434669 0.13052066 1.35578370 147 151 154
-0.09200332 0.13052066 1.35578370 154 155 158
-0.08948100 0.13026014 1.35307753 145 145 147
-0.08714231 0.13026014 1.35307753 137 137 140
-0.08463470 0.13000065 1.35038221 150 150 153
-0.08230067 0.13000065 1.35038221 175 174 174
-0.08012626 0.13026014 1.35307753 193 193 191
-0.07778757 0.13026014 1.35307753 196 196 193
-0.07544889 0.13026014 1.35307753 196 195 192
-0.07311021 0.13026014 1.35307753 196 195 191
-0.16382937 0.07356812 0.75071079 106 104 113
-0.16217265 0.07340553 0.74905175 106 105 114
-0.16087796 0.07340553 0.74905175 114 117 127
-0.15923139 0.07324367 0.74740005 123 123 132
-0.15518484 0.07316301 0.74657691 138 138 140
-0.15389444 0.07316301 0.74657691 134 134 136
-0.15243617 0.07308252 0.74575561 125 125 126
-0.15081535 0.07292207 0.74411839 118 117 119
-0.14952920 0.07292207 0.74411839 119 118 122
-0.14808051 0.07284211 0.74330246 114 112 121
-0.14647456 0.07268272 0.74167597 116 115 126
-0.14503396 0.07260329 0.74086541 125 124 135
-0.09453575 0.13313028 1.35850072 126 130 133
-0.09200332 0.13286403 1.35578370 117 117 121
-0.08965996 0.13286403 1.35578370 118 117 122
-0.08714231 0.13259882 1.35307753 123 122 126
-0.08463470 0.13233468 1.35038221 160 158 162
-0.08213705 0.13207158 1.34769750 192 190 188
-0.07996664 0.13233468 1.35038221 194 193 191
-0.07778757 0.13259882 1.35307753 195 194 192
-0.07559979 0.13286403 1.35578370 196 195 193
-0.07311021 0.13259882 1.35307753 196 195 193
1.32546735 0.13897911 1.41818380 137 138 140
-0.16199364 0.07461776 0.74822497 143 146 152
-0.15905604 0.07445341 0.74657691 132 134 144
-0.15759207 0.07437150 0.74575561 130 132 140
-0.15501411 0.07437150 0.74575561 141 141 142
-0.15355621 0.07428977 0.74493611 146 146 146
-0.15210150 0.07420822 0.74411839 161 161 161
-0.15064999 0.07412685 0.74330246 165 166 166
-0.14936525 0.07412685 0.74330246 158 159 160
-0.14791833 0.07404567 0.74248832 135 135 137
-0.14647456 0.07396466 0.74167597 125 125 133
-0.14503396 0.07388382 0.74086541 131 131 138
-0.09746981 0.13629776 1.36671746 138 139 142
-0.09472559 0.13575038 1.36122859 144 145 148
-0.09218770 0.13547835 1.35850072 131 134 136
-0.08983964 0.13547835 1.35850072 123 123 129
-0.08731660 0.13520738 1.35578370 152 152 157
-0.08480363 0.13493751 1.35307753 186 184 189
-0.08230067 0.13466871 1.35038221 200 196 195
-0.08012626 0.13493751 1.35307753 199 195 194
-0.07809935 0.13547835 1.35850072 198 194 193
-0.07590340 0.13575038 1.36122859 197 193 192
-0.07325643 0.13520738 1.35578370 196 195 191
1.29876995 0.14172682 1.42115688 146 147 147
1.30122626 0.14172682 1.42115688 148 149 149
1.30340648 0.14143032 1.41818380 147 148 148
1.29771304 0.14054821 1.40933859 141 142 142
1.30529857 0.14084102 1.41227472 127 128 128
1.31321132 0.14143032 1.41818380 130 131 132
1.32857513 0.14202456 1.42414248 136 137 138
1.32824612 0.14172682 1.42115688 139 140 140
1.33349812 0.14202456 1.42414248 141 142 142
1.33595967 0.14202456 1.42414248 139 140 140
1.33561528 0.14172682 1.42115688 132 133 133
1.33807158 0.14172682 1.42115688 119 120 122
-0.16199364 0.07591101 0.74822497 144 144 151
-0.15888105 0.07566047 0.74575561 137 137 144
-0.15741889 0.07557733 0.74493611 133 133 140
-0.15630309 0.07566047 0.74575561 126 126 129
-0.15484378 0.07557733 0.74493611 128 128 129
-0.15338765 0.07549437 0.74411839 130 130 131
-0.15176831 0.07532900 0.74248832 147 147 148
-0.15032034 0.07524658 0.74167597 154 155 155
-0.14936525 0.07541160 0.74330246 154 155 155
-0.14791833 0.07532900 0.74248832 135 136 138
-0.14647456 0.07524658 0.74167597 125 126 129
-0.14503396 0.07516434 0.74086541 126 127 130
-0.09472559 0.13810316 1.36122859 144 144 146
-0.09218770 0.13782640 1.35850072 136 137 139
-0.08948100 0.13727619 1.35307753 148 149 151
-0.08696872 0.13700274 1.35038221 184 185 186
-0.08463470 0.13700274 1.35038221 198 198 198
-0.07590340 0.13810316 1.36122859 196 194 192
1.29605281 0.14388153 1.41818380 155 156 156
1.29850399 0.14388153 1.41818380 152 153 153
1.30642140 0.14448608 1.42414248 148 149 149
1.30613899 0.14418317 1.42115688 143 144 144
1.30313146 0.14358115 1.41522300 138 139 139
1.30285764 0.14328203 1.41227472 131 132 132
1.30802369 0.14358115 1.41522300 122 123 123
1.31321132 0.14388153 1.41818380 126 127 128
1.31566250 0.14388153 1.41818380 129 130 131
1.32087708 0.14418317 1.42115688 130 131 133
1.32611358 0.14448608 1.42414248 136 137 138
1.32857513 0.14448608 1.42414248 140 141 143
1.32824612 0.14418317 1.42115688 144 145 147
1.33070254 0.14418317 1.42115688 147 148 150
1.33315885 0.14418317 1.42115688 143 144 145
1.33561528 0.14418317 1.42115688 134 135 136
1.33807158 0.14418317 1.42115688 121 121 123
1.33772349 0.14388153 1.41818380 129 130 132
1.33737683 0.14358115 1.41522300 142 142 144
1.34262586 0.14388153 1.41818380 150 150 152
-0.16364814 0.07737506 0.74988037 131 132 138
-0.16199364 0.07720426 0.74822497 134 134 141
-0.15905604 0.07703420 0.74657691 116 116 123
-0.15759207 0.07694945 0.74575561 112 112 119
-0.15647523 0.07703420 0.74657691 109 108 115
-0.15484378 0.07686490 0.74493611 121 121 126
-0.15355621 0.07686490 0.74493611 130 130 134
-0.15210150 0.07678052 0.74411839 138 138 140
-0.15064999 0.07669633 0.74330246 138 139 141
-0.14969352 0.07686490 0.74493611 144 145 147
-0.14824305 0.07678052 0.74411839 154 155 157
-0.14679578 0.07669633 0.74330246 158 161 162
-0.14551103 0.07669633 0.74330246 151 155 156
-0.09472559 0.14045593 1.36122859 122 122 125
-0.09200332 0.13989411 1.35578370 152 151 158
-0.08930275 0.13933676 1.35038221 183 183 184
1.29903686 0.14694759 1.42414248 141 142 142
1.29876995 0.14663953 1.42115688 144 145 145
1.30395997 0.14694759 1.42414248 146 147 147
1.30917180 0.14725696 1.42714071 146 147 147
1.30888295 0.14694759 1.42414248 146 147 147
1.30585766 0.14633276 1.41818380 142 143 144
1.30557752 0.14602725 1.41522300 134 135 137
1.31076014 0.14633276 1.41818380 123 124 126
1.31596434 0.14663953 1.42115688 131 132 134
1.31842077 0.14663953 1.42115688 137 138 140
1.32087708 0.14663953 1.42115688 134 135 137
1.32611358 0.14694759 1.42414248 131 132 134
1.32857513 0.14694759 1.42414248 134 135 137
1.32824612 0.14663953 1.42115688 145 146 148
1.33349812 0.14694759 1.42414248 147 148 150
1.33315885 0.14663953 1.42115688 144 145 147
1.33282101 0.14633276 1.41818380 137 138 140
1.33807158 0.14663953 1.42115688 128 128 130
-0.16181503 0.07841095 0.74740005 116 116 125
-0.15905604 0.07832460 0.74657691 134 135 138
-0.15759207 0.07823844 0.74575561 135 136 138
-0.15647523 0.07832460 0.74657691 130 136 137
-0.15484378 0.07815246 0.74493611 139 142 143
-0.15338765 0.07806667 0.74411839 149 150 150
-0.15193473 0.07798107 0.74330246 142 142 144
-0.15064999 0.07798107 0.74330246 131 131 133
-0.14952920 0.07806667 0.74411839 141 141 143
-0.14824305 0.07806667 0.74411839 154 155 157
-0.14679578 0.07798107 0.74330246 165 167 169
-0.14551103 0.07798107 0.74330246 152 154 155
-0.14406833 0.07789566 0.74248832 144 145 146
-0.09434669 0.14223747 1.35578370 143 143 148
-0.09181968 0.14195356 1.35307753 185 186 189
-0.08930275 0.14167079 1.35038221 198 198 196
1.30177176 0.14972365 1.42714071 118 119 119
1.30149841 0.14940910 1.42414248 122 123 123
1.30395997 0.14940910 1.42414248 124 125 125
1.31193376 0.15003952 1.43015158 125 126 126
1.30888295 0.14940910 1.42414248 127 128 128
1.30585766 0.14878397 1.41818380 126 127 127
1.30285764 0.14816403 1.41227472 124 125 127
1.31076014 0.14878397 1.41818380 132 133 135
1.31596434 0.14909588 1.42115688 136 139 140
1.31842077 0.14909588 1.42115688 136 141 142
1.32087708 0.14909588 1.42115688 127 133 133
1.32333350 0.14909588 1.42115688 118 124 124
1.32578981 0.14909588 1.42115688 112 117 118
1.32546735 0.14878397 1.41818380 114 119 120
1.33070254 0.14909588 1.42115688 121 124 126
1.33036983 0.14878397 1.41818380 129 130 132
1.33003855 0.14847335 1.41522300 137 138 140
1.33527231 0.14878397 1.41818380 135 136 136
-0.15923139 0.07970277 0.74740005 150 151 153
-0.15759207 0.07952741 0.74575561 154 155 157
-0.15647523 0.07961500 0.74657691 150 158 157
-0.15484378 0.07944002 0.74493611 147 150 151
-0.15338765 0.07935282 0.74411839 147 148 148
-0.15193473 0.07926581 0.74330246 135 136 138
-0.15064999 0.07926581 0.74330246 113 114 116
-0.14952920 0.07935282 0.74411839 115 116 119
-0.14824305 0.07935282 0.74411839 139 140 142
-0.14695691 0.07935282 0.74411839 150 150 152
-0.14551103 0.07926581 0.74330246 144 144 146
-0.14422630 0.07926581 0.74330246 125 125 127
-0.14247289 0.07900592 0.74086541 115 114 121
-0.09669004 0.14458083 1.35578370 144 148 150
-0.09415837 0.14429225 1.35307753 182 186 187
-0.09163678 0.14400481 1.35038221 194 195 194
-0.08912521 0.14371853 1.34769750 193 194 192
1.30177176 0.15219036 1.42714071 133 135 134
1.29876995 0.15155223 1.42115688 132 133 133
1.30122626 0.15155223 1.42115688 129 130 130
1.30917180 0.15219036 1.42714071 122 123 123
1.30888295 0.15187062 1.42414248 119 120 120
1.30585766 0.15123518 1.41818380 118 119 119
1.30285764 0.15060504 1.41227472 115 116 116
1.30802369 0.15091945 1.41522300 129 130 130
1.31596434 0.15155223 1.42115688 134 137 137
1.31566250 0.15123518 1.41818380 133 138 138
1.32578981 0.15155223 1.42115688 122 128 126
1.32546735 0.15123518 1.41818380 121 127 125
1.32791865 0.15123518 1.41818380 123 129 127
1.32759249 0.15091945 1.41522300 126 132 130
1.32450819 0.15029192 1.40933859 133 139 137
1.32970858 0.15060504 1.41227472 136 140 139
-0.15355621 0.08072758 0.74493611 125 126 128
-0.15210150 0.08063897 0.74411839 124 125 129
-0.14840597 0.08072758 0.74493611 133 133 135
-0.14695691 0.08063897 0.74411839 137 137 139
-0.14551103 0.08055054 0.74330246 142 141 144
-0.14438461 0.08063897 0.74411839 135 133 140
-0.14247289 0.08028644 0.74086541 152 150 158
1.29903686 0.15433213 1.42414248 150 154 152
1.29605281 0.15368639 1.41818380 150 154 151
1.29850399 0.15368639 1.41818380 147 151 148
1.30642140 0.15433213 1.42414248 143 145 143
1.30613899 0.15400860 1.42115688 138 139 138
1.30585766 0.15368639 1.41818380 133 134 133
1.30285764 0.15304604 1.41227472 128 129 129
1.30802369 0.15336555 1.41522300 131 132 132
1.31321132 0.15368639 1.41818380 133 135 135
1.30177176 0.15712374 1.42714071 130 136 137
1.30149841 0.15679365 1.42414248 128 134 133
1.30395997 0.15679365 1.42414248 126 132 131
1.30917180 0.15712374 1.42714071 129 132 134
1.30888295 0.15679365 1.42414248 129 130 133
1.31134450 0.15679365 1.42414248 124 126 128
1.30830884 0.15613762 1.41818380 119 120 122
1.30423844 0.15959044 1.42714071 110 114 117
1.30670512 0.15959044 1.42714071 109 114 116
1.31193376 0.15992713 1.43015158 117 121 124
1.31440568 0.15992713 1.43015158 120 124 127
1.31410515 0.15959044 1.42714071 116 120 123
1.30698991 0.16239904 1.43015158 124 129 131
0.31481472 0.06217090 0.53929341 94 101 109
0.31549585 0.06212148 0.53886473 99 106 113
0.31743658 0.06231964 0.54058361 107 114 121
0.31761110 0.06217090 0.53929341 110 114 120
0.31854323 0.06217090 0.53929341 124 125 131
0.31947535 0.06217090 0.53929341 138 138 142
0.32066259 0.06222040 0.53972280 137 138 140
0.32210836 0.06231964 0.54058361 132 133 136
0.32252830 0.06222040 0.53972280 128 129 132
0.32371891 0.06226998 0.54015285 125 126 130
0.32465252 0.06226998 0.54015285 121 122 126
0.32600021 0.06217090 0.53929341 112 112 119
0.32745335 0.06226998 0.54015285 123 124 130
0.32838696 0.06226998 0.54015285 130 132 135
0.32905838 0.06222040 0.53972280 128 130 133
0.32972872 0.06217090 0.53929341 126 130 133
0.33066085 0.06217090 0.53929341 126 130 132
0.33159298 0.06217090 0.53929341 127 131 132
0.33199686 0.06207214 0.53843671 127 131 132
0.33239946 0.06197369 0.53758276 120 124 127
0.31431463 0.06300278 0.53843671 158 159 158
0.31524527 0.06300278 0.53843671 152 152 155
0.31693110 0.06315327 0.53972280 147 147 153
0.31735864 0.06305286 0.53886473 126 126 133
0.31829002 0.06305286 0.53886473 114 114 121
0.31922141 0.06305286 0.53886473 123 123 130
0.32040748 0.06310303 0.53929341 122 122 129
0.32185170 0.06320359 0.54015285 124 125 131
0.32252830 0.06315327 0.53972280 126 127 131
0.32346117 0.06315327 0.53972280 132 133 137
0.32439405 0.06315327 0.53972280 134 135 139
0.32506809 0.06310303 0.53929341 128 129 133
0.32600021 0.06310303 0.53929341 115 114 121
0.32719263 0.06315327 0.53972280 125 124 131
0.32812551 0.06315327 0.53972280 121 122 124
0.32905838 0.06315327 0.53972280 121 122 124
0.32999125 0.06315327 0.53972280 118 121 123
0.33092412 0.06315327 0.53972280 114 118 119
0.33185700 0.06315327 0.53972280 113 117 119
0.33226079 0.06305286 0.53886473 118 121 123
0.31171057 0.06378145 0.53715676 159 159 157
0.31263900 0.06378145 0.53715676 159 159 155
0.31381610 0.06383202 0.53758276 157 157 152
0.31499508 0.06388269 0.53800941 159 159 155
0.31642723 0.06398425 0.53886473 165 165 161
0.31710654 0.06393342 0.53843671 153 153 152
0.31829002 0.06398425 0.53886473 124 125 130
0.31922141 0.06398425 0.53886473 130 130 135
0.32040748 0.06403515 0.53929341 135 136 141
0.32185170 0.06413720 0.54015285 136 136 141
0.32252830 0.06408613 0.53972280 136 137 140
0.32371891 0.06413720 0.54015285 136 137 140
0.32465252 0.06413720 0.54015285 140 140 143
0.32532692 0.06408613 0.53972280 140 140 143
0.32600021 0.06403515 0.53929341 134 134 138
0.32745335 0.06413720 0.54015285 127 127 131
0.32838696 0.06413720 0.54015285 114 115 119
0.32905838 0.06408613 0.53972280 113 114 118
0.32999125 0.06408613 0.53972280 113 116 121
0.33092412 0.06408613 0.53972280 113 117 122
0.33185700 0.06408613 0.53972280 116 120 125
0.33252510 0.06403515 0.53929341 121 125 131
0.31146377 0.06465864 0.53673148 154 155 151
0.31263900 0.06470988 0.53715676 155 156 150
0.31356743 0.06470988 0.53715676 154 155 147
0.31474528 0.06476119 0.53758276 149 150 142
0.31642723 0.06491563 0.53886473 155 155 147
0.31710654 0.06486407 0.53843671 155 155 149
0.31803721 0.06486407 0.53843671 127 127 128
0.31922141 0.06491563 0.53886473 129 129 130
0.32040748 0.06496727 0.53929341 130 131 133
0.32185170 0.06507081 0.54015285 129 130 132
0.32252830 0.06501900 0.53972280 127 128 128
0.32371891 0.06507081 0.54015285 128 129 130
0.32491142 0.06512270 0.54058361 130 130 131
0.32532692 0.06501900 0.53972280 129 130 131
0.32625979 0.06501900 0.53972280 124 125 128
0.32771447 0.06512270 0.54058361 117 117 121
0.32864884 0.06512270 0.54058361 101 104 108
0.32958320 0.06512270 0.54058361 101 106 110
0.33025420 0.06507081 0.54015285 113 119 123
0.33118781 0.06507081 0.54015285 114 121 125
0.33212140 0.06507081 0.54015285 110 117 120
0.33278984 0.06501900 0.53972280 111 118 120
0.33372271 0.06501900 0.53972280 115 122 123
0.31121737 0.06553445 0.53630686 142 143 139
0.31239146 0.06558634 0.53673148 145 146 141
0.31356743 0.06563831 0.53715676 145 146 139
0.31499508 0.06574250 0.53800941 147 148 141
0.31642723 0.06584702 0.53886473 154 155 148
0.31710654 0.06579471 0.53843671 154 154 147
0.31803721 0.06579471 0.53843671 130 129 127
0.31896785 0.06579471 0.53843671 130 129 127
0.32040748 0.06589940 0.53929341 129 129 130
0.32185170 0.06600442 0.54015285 133 133 134
0.32278532 0.06600442 0.54015285 138 138 138
0.32397705 0.06605706 0.54058361 136 136 136
0.32517073 0.06610978 0.54101503 132 135 134
0.32558614 0.06600442 0.54015285 129 133 132
0.32651976 0.06600442 0.54015285 117 118 120
0.32797602 0.06610978 0.54101503 100 101 103
0.32891113 0.06610978 0.54101503 83 88 90
0.32984623 0.06610978 0.54101503 76 82 85
0.33051756 0.06605706 0.54058361 80 88 91
0.33145189 0.06605706 0.54058361 85 93 98
0.33238626 0.06605706 0.54058361 86 95 98
0.33305502 0.06600442 0.54015285 96 105 107
0.33398864 0.06600442 0.54015285 102 111 113
0.33518931 0.06605706 0.54058361 112 121 122
0.31171057 0.06656674 0.53715676 116 116 114
0.31288695 0.06661953 0.53758276 129 129 127
0.31524527 0.06672536 0.53843671 156 157 154
0.31667897 0.06683153 0.53929341 158 158 154
0.31710654 0.06672536 0.53843671 152 152 148
0.31803721 0.06672536 0.53843671 138 137 136
0.31922141 0.06677840 0.53886473 132 131 131
0.32040748 0.06683153 0.53929341 130 129 129
0.32210836 0.06699141 0.54058361 130 129 129
0.32304272 0.06699141 0.54058361 136 136 138
0.32449460 0.06709842 0.54144716 139 140 142
0.32569060 0.06715206 0.54187995 138 139 140
0.32610583 0.06704488 0.54101503 138 139 139
0.32678014 0.06699141 0.54058361 142 143 144
0.32850036 0.06715206 0.54187995 150 151 153
0.32917383 0.06709842 0.54144716 160 162 164
0.32984623 0.06704488 0.54101503 160 164 165
0.33051756 0.06699141 0.54058361 152 157 158
0.33145189 0.06699141 0.54058361 135 144 145
0.33238626 0.06699141 0.54058361 112 120 121
0.33305502 0.06693803 0.54015285 102 106 109
0.33398864 0.06693803 0.54015285 106 110 113
0.33518931 0.06699141 0.54058361 122 127 128
0.31127545 0.06760231 0.53800941 132 131 131
0.31171057 0.06749517 0.53715676 121 120 120
0.31288695 0.06754870 0.53758276 118 117 117
0.31406516 0.06760231 0.53800941 121 122 122
0.31549585 0.06770978 0.53886473 118 118 118
0.31667897 0.06776365 0.53929341 115 116 117
0.31710654 0.06765600 0.53843671 119 120 121
0.31803721 0.06765600 0.53843671 126 127 130
0.31896785 0.06765600 0.53843671 129 129 133
0.32040748 0.06776365 0.53929341 125 125 128
0.32210836 0.06792577 0.54058361 118 118 121
0.32304272 0.06792577 0.54058361 122 122 124
0.32449460 0.06803427 0.54144716 131 131 134
0.32543045 0.06803427 0.54144716 136 136 139
0.32584578 0.06792577 0.54058361 138 139 141
0.32651976 0.06787164 0.54015285 139 139 141
0.32797602 0.06797998 0.54101503 135 135 137
0.32891113 0.06797998 0.54101503 128 129 131
0.32958320 0.06792577 0.54058361 127 128 130
0.33025420 0.06787164 0.54015285 130 132 133
0.33118781 0.06787164 0.54015285 134 138 139
0.33212140 0.06787164 0.54015285 141 144 145
0.33305502 0.06787164 0.54015285 142 146 146
0.33398864 0.06787164 0.54015285 136 139 140
0.33492225 0.06787164 0.54015285 130 133 132
0.31177032 0.06864117 0.53886473 132 132 132
0.31220534 0.06853221 0.53800941 130 130 130
0.31574684 0.06869578 0.53929341 117 118 119
0.31693110 0.06875047 0.53972280 120 121 125
0.31735864 0.06864117 0.53886473 121 121 128
0.31829002 0.06864117 0.53886473 125 125 132
0.31922141 0.06864117 0.53886473 128 129 135
0.32236543 0.06891508 0.54101503 130 130 134
0.32304272 0.06886012 0.54058361 131 131 135
0.32449460 0.06897012 0.54144716 132 132 136
0.32517073 0.06891508 0.54101503 135 135 139
0.32584578 0.06886012 0.54058361 138 139 141
0.32651976 0.06880525 0.54015285 143 144 145
0.32797602 0.06891508 0.54101503 147 147 147
0.32864884 0.06886012 0.54058361 150 151 151
0.32932058 0.06880525 0.54015285 151 152 152
0.32999125 0.06875047 0.53972280 147 147 147
0.33092412 0.06875047 0.53972280 129 130 128
0.33212140 0.06880525 0.54015285 153 153 152
0.33278984 0.06875047 0.53972280 163 163 161
0.33372271 0.06875047 0.53972280 153 153 151
0.33465558 0.06875047 0.53972280 143 143 142
0.31133389 0.06968334 0.53972280 128 129 131
0.31177032 0.06957255 0.53886473 130 131 131
0.31245333 0.06951729 0.53843671 129 130 130
0.31735864 0.06957255 0.53886473 127 128 132
0.31803721 0.06951729 0.53843671 131 131 135
0.31922141 0.06957255 0.53886473 131 132 134
0.32236543 0.06985018 0.54101503 130 130 134
0.32304272 0.06979448 0.54058361 138 138 141
0.32449460 0.06990597 0.54144716 144 144 145
0.32543045 0.06990597 0.54144716 139 140 141
0.32584578 0.06979448 0.54058361 135 136 137
0.32651976 0.06973886 0.54015285 142 142 143
0.32797602 0.06985018 0.54101503 149 149 149
0.32864884 0.06979448 0.54058361 160 160 160
0.32958320 0.06979448 0.54058361 161 164 161
0.32999125 0.06968334 0.53972280 156 159 156
0.33092412 0.06968334 0.53972280 142 143 139
0.33212140 0.06973886 0.54015285 155 155 151
0.33278984 0.06968334 0.53972280 158 158 155
0.33372271 0.06968334 0.53972280 152 152 149
0.33492225 0.06973886 0.54015285 145 144 142
0.33558846 0.06968334 0.53972280 139 139 137
0.49984586 0.07156359 0.55428606 141 142 142
0.49957845 0.07138848 0.55292970 134 135 135
0.49850109 0.07109851 0.55068386 129 130 131
0.49864274 0.07098319 0.54979062 126 127 129
0.49838042 0.07081090 0.54845619 126 127 128
0.49771765 0.07058248 0.54668695 124 125 127
0.31177032 0.07050394 0.53886473 126 127 129
0.31245333 0.07044794 0.53843671 128 128 129
0.31667897 0.07056002 0.53929341 126 126 125
0.31710654 0.07044794 0.53843671 122 122 124
0.31778479 0.07039203 0.53800941 121 121 123
0.31871471 0.07039203 0.53800941 120 120 122
0.31989849 0.07044794 0.53843671 123 123 125
0.32185170 0.07067247 0.54015285 128 128 131
0.32278532 0.07067247 0.54015285 140 140 142
0.32423562 0.07078528 0.54101503 143 143 144
0.32491142 0.07072883 0.54058361 136 136 137
0.32558614 0.07067247 0.54015285 130 130 130
0.32932058 0.07067247 0.54015285 149 150 147
0.32999125 0.07061620 0.53972280 145 145 143
0.33092412 0.07061620 0.53972280 147 147 143
0.33212140 0.07067247 0.54015285 146 145 141
0.49860248 0.07275960 0.55610490 137 138 138
0.49792978 0.07252163 0.55428606 137 138 138
0.49929607 0.07258098 0.55473965 136 136 136
0.49902979 0.07240323 0.55338109 133 134 134
0.49917129 0.07228521 0.55247909 126 127 127
0.49890637 0.07210890 0.55113161 120 121 121
0.49904749 0.07199185 0.55023688 115 116 116
0.49878398 0.07181697 0.54890031 116 117 117
0.49811935 0.07158511 0.54712820 116 118 119
0.31152269 0.07137858 0.53843671 119 123 124
0.32423562 0.07172038 0.54101503 133 133 135
0.32491142 0.07166319 0.54058361 132 132 134
0.32558614 0.07160608 0.54015285 130 130 130
0.32999125 0.07154907 0.53972280 134 133 131
0.33092412 0.07154907 0.53972280 127 126 124
0.49807331 0.07335970 0.55338109 125 125 125
0.49862275 0.07329986 0.55292970 125 125 125
0.49876478 0.07318048 0.55202919 124 124 124
0.49809647 0.07294288 0.55023688 121 121 122
0.49864274 0.07288373 0.54979062 118 118 119
0.49878398 0.07276569 0.54890031 123 123 124
0.49811935 0.07253078 0.54712820 126 129 129
0.31152269 0.07230923 0.53843671 119 123 125
0.32252830 0.07248194 0.53972280 127 128 132
0.32423562 0.07265548 0.54101503 136 136 138
0.32491142 0.07259754 0.54058361 135 135 137
0.32532692 0.07248194 0.53972280 135 135 137
0.33025420 0.07253969 0.54015285 132 132 132
0.49535161 0.07419504 0.55247909 124 124 124
0.49590236 0.07413462 0.55202919 115 116 116
0.49726143 0.07419504 0.55247909 108 109 110
0.49781066 0.07413462 0.55202919 113 114 116
0.49754927 0.07395395 0.55068386 118 118 121
0.49688652 0.07371443 0.54890031 121 121 124
0.49743247 0.07365479 0.54845619 122 123 127
0.49757528 0.07353579 0.54757017 127 129 132
0.49771765 0.07341719 0.54668695 133 135 138
0.49745902 0.07324000 0.54536754 140 141 143
0.32449460 0.07364935 0.54144716 137 138 141
0.32517073 0.07359058 0.54101503 131 131 134
0.32558614 0.07347330 0.54015285 130 130 133
0.49439669 0.07514995 0.55247909 112 113 112
0.49494824 0.07508876 0.55202919 110 111 112
0.49549887 0.07502766 0.55158001 109 110 111
0.49685651 0.07508876 0.55202919 106 107 108
0.49740559 0.07502766 0.55158001 108 109 113
0.49633968 0.07472366 0.54934508 110 112 117
0.49608314 0.07454244 0.54801279 112 114 119
0.49662885 0.07448222 0.54757017 116 119 125
0.49717370 0.07442211 0.54712820 120 123 129
0.49771765 0.07436209 0.54668695 123 126 131
0.49705914 0.07412299 0.54492915 129 130 133
0.49720165 0.07400401 0.54405445 129 130 133
0.14150664 0.15720652 1.14123201 128 129 133
0.14299770 0.15667899 1.13740242 128 129 132
0.14520724 0.15694231 1.13931406 129 130 134
0.32553464 0.07482426 0.54318255 139 140 144
0.32595113 0.07470454 0.54231346 130 130 134
0.32610583 0.07452568 0.54101503 125 125 129
0.49439669 0.07610487 0.55247909 101 101 103
0.49494824 0.07604290 0.55202919 102 102 104
0.49549887 0.07598102 0.55158001 105 105 107
0.49645224 0.07598102 0.55158001 107 107 109
0.49659747 0.07585758 0.55068386 109 110 113
0.49593776 0.07561188 0.54890031 111 113 115
0.49568242 0.07542866 0.54757017 111 114 116
0.49622801 0.07536778 0.54712820 115 118 122
0.49677274 0.07530700 0.54668695 115 119 122
0.49731660 0.07524631 0.54624647 113 116 120
0.49705914 0.07506485 0.54492915 114 116 119
0.14198470 0.15971681 1.14508760 144 145 147
0.14347917 0.15917905 1.14123201 140 141 143
0.14569698 0.15944749 1.14315653 138 139 141
0.14767283 0.15944749 1.14315653 134 134 137
0.32605717 0.07588471 0.54405445 137 137 138
0.32673529 0.07582387 0.54361814 138 138 138
0.49399409 0.07699703 0.55202919 108 109 111
0.49414343 0.07687183 0.55113161 112 112 114
0.49469385 0.07680939 0.55068386 117 118 120
0.49564564 0.07680939 0.55068386 120 121 123
0.49579194 0.07668480 0.54979062 121 122 124
0.49513593 0.07643683 0.54801279 121 122 124
0.49528235 0.07631344 0.54712820 123 124 126
0.49637243 0.07619046 0.54624647 125 129 130
0.49691617 0.07612912 0.54580665 117 121 122
0.49665990 0.07594567 0.54449141 114 116 117
0.14198470 0.16169602 1.14508760 150 150 152
0.14347917 0.16115159 1.14123201 146 145 145
0.14569698 0.16142334 1.14315653 139 139 140
0.14767283 0.16142334 1.14315653 134 133 136
0.32579571 0.07676347 0.54361814 143 143 144
0.49174470 0.07744663 0.54845619 130 131 133
0.49269265 0.07744663 0.54845619 128 129 131
0.49364060 0.07744663 0.54845619 126 127 129
0.49418876 0.07738402 0.54801279 124 126 127
0.49557376 0.07701049 0.54536754 124 128 129
0.49611726 0.07694858 0.54492915 126 130 131
0.49546599 0.07670195 0.54318255 131 133 135
0.14174527 0.16339919 1.14315653 127 127 131
0.14323802 0.16284995 1.13931406 135 134 135
0.14545169 0.16312411 1.14123201 139 138 139
0.14742422 0.16312411 1.14123201 138 137 138
0.47244900 0.07929274 0.55473965 126 127 128
0.47263429 0.07916317 0.55383319 126 127 128
0.49368852 0.07795312 0.54536754 123 125 125
0.49423355 0.07789045 0.54492915 120 123 123
0.49438056 0.07776543 0.54405445 115 119 120
0.49452716 0.07764080 0.54318255 116 120 121
0.49388304 0.07739275 0.54144716 122 125 127
0.12791429 0.16537504 1.14315653 123 123 127
0.14174527 0.16537504 1.14315653 126 129 132
0.14323802 0.16481917 1.13931406 141 141 143
0.14520724 0.16481917 1.13931406 153 153 155
0.14717644 0.16481917 1.13931406 157 157 159
0.47227791 0.08071391 0.55793566 138 139 139
0.47130272 0.08038311 0.55564904 129 129 129
0.47167704 0.08012043 0.55383319 112 112 112
0.47224846 0.08005502 0.55338109 109 109 109
0.47320494 0.08005502 0.55338109 108 109 110
0.47685289 0.08018593 0.55428606 113 113 122
0.49274591 0.07889574 0.54536754 130 130 130
0.49210492 0.07864267 0.54361814 127 127 127
0.49304453 0.07864267 0.54361814 122 122 123
0.49319312 0.07851674 0.54274768 113 115 116
0.49334124 0.07839121 0.54187995 110 111 113
0.49309534 0.07820367 0.54058361 106 108 110
0.49245885 0.07795501 0.53886473 102 103 105
0.49339023 0.07795501 0.53886473 113 114 116
0.12522967 0.16906147 1.15484130 129 127 129
0.12700935 0.16877395 1.15287733 135 133 136
0.12813036 0.16763358 1.14508760 131 131 135
0.14174527 0.16735090 1.14315653 158 162 163
0.14323802 0.16678837 1.13931406 160 161 163
0.14520724 0.16678837 1.13931406 171 171 172
0.14717644 0.16678837 1.13931406 174 173 175
0.16478804 0.08629485 0.58947116 127 123 126
0.16580689 0.08629485 0.58947116 133 132 134
0.16653612 0.08614504 0.58844781 134 133 135
0.16799068 0.08636996 0.58998418 135 135 137
0.47229278 0.08201577 0.56024116 128 133 132
0.47209066 0.08181293 0.55885559 134 137 137
0.47072816 0.08141024 0.55610490 131 132 132
0.47053137 0.08121038 0.55473965 126 127 127
0.47033551 0.08101150 0.55338109 125 126 125
0.47167704 0.08107768 0.55383319 125 125 123
0.47186327 0.08094542 0.55292970 121 121 120
0.47281897 0.08094542 0.55292970 116 116 116
0.47416142 0.08101150 0.55338109 114 115 115
