ply
format ascii 1.0
element vertex 1072
property float x
property float y
property float z
property uchar red
property uchar green
property uchar blue
end_header
-0.74995147 -0.50988681 0.85651352 55 92 111
-0.74972153 -0.48965769 0.85510416 95 157 187
-0.75001973 -0.47015332 0.85484772 92 149 179
-0.75006089 -0.45025110 0.85464866 86 139 170
-0.74991053 -0.43022269 0.85447732 76 130 162
-0.74978603 -0.41021644 0.85433545 76 121 152
-0.75009030 -0.39041731 0.85424480 68 113 149
-0.75038988 -0.37028046 0.85418251 65 107 141
-0.75054295 -0.34992734 0.85415624 67 99 140
-0.75018087 -0.33002007 0.85414627 64 95 137
-0.75037025 -0.30974041 0.85416018 60 92 132
-0.75040693 -0.28982382 0.85420186 57 86 128
-0.74991597 -0.26975536 0.85425571 57 84 127
-0.74978344 -0.24976311 0.85614447 121 110 130
-0.74989626 -0.23026749 0.85784036 120 88 90
-0.74987493 -0.21024491 0.85781594 103 92 87
-0.74985986 -0.19022512 0.85779873 94 87 82
-0.74984756 -0.17020672 0.85778467 96 87 82
-0.74984142 -0.15019024 0.85777766 99 85 83
-0.74983808 -0.13017457 0.85777384 103 99 91
-0.74984253 -0.11016015 0.85777885 109 103 95
-0.74936378 -0.09030913 0.85782353 109 102 95
-0.74920408 -0.07013933 0.85789552 99 97 91
-0.74929452 -0.05012746 0.85799839 90 85 83
-0.74937692 -0.03011055 0.85809243 79 77 72
-0.74945615 -0.01008914 0.85818310 66 66 60
-0.74953325 0.00993640 0.85827154 54 53 50
-0.74959571 0.02996546 0.85834333 43 43 40
-0.74966249 0.04999824 0.85842016 33 32 30
-0.74971549 0.07003326 0.85848114 18 18 19
-0.74975937 0.09007006 0.85853163 10 11 15
-0.74979625 0.11010815 0.85857399 9 10 13
-0.74982492 0.13014677 0.85860686 8 9 12
-0.74984754 0.15018574 0.85863274 8 9 12
-0.74986914 0.17022567 0.85865744 8 9 12
-0.74989184 0.19026707 0.85868344 8 9 13
-0.74991154 0.21030879 0.85870601 9 9 12
-0.74976011 0.22990786 0.85872800 11 10 14
-0.75013494 0.24993130 0.85876994 11 11 14
-0.74999303 0.26970638 0.85879960 14 13 16
-0.75002353 0.28975716 0.85883469 15 15 21
-0.75005682 0.30981071 0.85887296 19 19 25
-0.75008946 0.32986577 0.85891047 22 22 28
-0.75012143 0.34992223 0.85894716 24 25 32
-0.75015196 0.36997971 0.85898220 29 29 36
-0.75018310 0.39003911 0.85901789 32 31 38
-0.75021742 0.41010191 0.85905720 32 31 39
-0.75024871 0.43016479 0.85909304 32 32 39
-0.75027736 0.45022777 0.85912585 32 31 40
-0.75030502 0.47029166 0.85915754 32 31 40
-0.75032388 0.48441114 0.85917914 32 31 40
-0.73008007 -0.56996410 0.85807600 0 0 0
-0.73002821 -0.54990303 0.85801505 0 0 0
-0.72994942 -0.52982525 0.85792244 0 0 0
-0.73019139 -0.50988232 0.85656069 54 85 102
-0.72995271 -0.49002609 0.85492098 101 160 190
-0.73010295 -0.47018312 0.85463027 93 152 181
-0.72992612 -0.45013236 0.85442327 87 141 174
-0.72977709 -0.43010764 0.85424881 81 133 163
-0.72965092 -0.41010395 0.85410111 77 123 155
-0.72998319 -0.38995625 0.85400897 73 116 151
-0.73026588 -0.37018270 0.85395702 71 111 145
-0.73024344 -0.35024591 0.85393077 68 103 140
-0.73024614 -0.33032177 0.85393393 64 97 139
-0.73025786 -0.30966336 0.85394763 64 94 134
-0.73027100 -0.28974279 0.85396297 60 89 131
-0.72980252 -0.26999287 0.85401841 59 86 127
-0.72983696 -0.24969506 0.85580278 117 108 130
-0.72979747 -0.23024153 0.85774371 123 92 93
-0.72977842 -0.21022173 0.85772135 102 95 90
-0.72976753 -0.19020511 0.85770856 95 89 84
-0.72976107 -0.17019011 0.85770097 98 90 83
-0.72975912 -0.15017640 0.85769867 101 94 89
-0.72975719 -0.13016282 0.85769642 109 102 94
-0.72975628 -0.11014947 0.85769535 113 106 101
-0.72975935 -0.09013667 0.85769897 116 111 104
-0.72976394 -0.07012387 0.85770436 125 120 112
-0.72976797 -0.05011075 0.85770910 130 127 119
-0.72977678 -0.03009762 0.85771947 136 134 125
-0.72979290 -0.01008409 0.85773842 139 137 129
-0.72981470 0.00993040 0.85776404 138 137 130
-0.72984980 0.02994665 0.85780527 138 138 127
-0.72989904 0.04996577 0.85786312 131 130 122
-0.72996439 0.06998917 0.85793992 95 96 100
-0.73003143 0.09001628 0.85801873 63 67 82
-0.73009165 0.11004608 0.85808953 57 62 79
-0.73014616 0.13007813 0.85815361 53 59 77
-0.73019751 0.15011257 0.85821399 50 54 69
-0.73025018 0.17015011 0.85827591 43 48 63
-0.73030922 0.19019224 0.85834531 37 40 53
-0.73031214 0.21029136 0.85842056 33 33 44
-0.72969793 0.23029011 0.85849886 31 30 39
-0.72976760 0.25034592 0.85858083 29 29 36
-0.72983331 0.26966203 0.85865815 28 27 34
-0.72989866 0.28972360 0.85873502 27 27 36
-0.72995683 0.30978569 0.85880346 28 29 35
-0.73000643 0.32984713 0.85886183 28 28 36
-0.73005004 0.34990839 0.85891314 29 29 37
-0.73008830 0.36996937 0.85895816 30 30 38
-0.73012388 0.39003101 0.85900002 31 30 37
-0.73015963 0.41009471 0.85904210 31 31 39
-0.73019347 0.43015923 0.85908192 32 31 38
-0.73022519 0.45022432 0.85911924 31 31 39
-0.73025576 0.47029039 0.85915522 31 31 40
-0.73027670 0.48441155 0.85917986 32 31 40
-0.71003130 -0.56994265 0.85804370 0 0 0
-0.70997979 -0.54988150 0.85798146 0 0 0
-0.70990144 -0.52980323 0.85788677 0 0 0
-0.70983605 -0.51082132 0.85694753 38 63 75
-0.71007654 -0.49005093 0.85476916 100 162 189
-0.70999612 -0.47007376 0.85443142 96 153 182
-0.70982012 -0.45002505 0.85421961 88 144 175
-0.71006548 -0.43018620 0.85405307 87 136 164
-0.71030116 -0.41001243 0.85391052 80 128 160
-0.71021907 -0.39004236 0.85381184 78 121 151
-0.71016927 -0.37009381 0.85375197 72 113 147
-0.71014834 -0.35016227 0.85372682 67 106 144
-0.71014631 -0.33024072 0.85372436 65 101 138
-0.71031782 -0.31002419 0.85372660 64 96 135
-0.70998762 -0.29013194 0.85373398 64 92 132
-0.71022288 -0.26977024 0.85381638 63 90 130
-0.71020428 -0.24943772 0.85536202 112 107 132
-0.70970032 -0.23021462 0.85764356 130 95 97
-0.70969174 -0.21020012 0.85763321 107 93 90
-0.70968354 -0.19018620 0.85762333 95 83 80
-0.70967885 -0.17017358 0.85761766 100 94 88
-0.70967851 -0.15016214 0.85761726 106 97 89
-0.70967989 -0.13015105 0.85761893 110 103 97
-0.70968166 -0.11013993 0.85762107 109 98 96
-0.70968599 -0.09012904 0.85762631 114 105 102
-0.70969221 -0.07011809 0.85763383 127 120 114
-0.70970080 -0.05010696 0.85764422 131 127 116
-0.70971266 -0.03009547 0.85765857 136 133 123
-0.70973068 -0.01008340 0.85768035 132 125 121
-0.70975443 0.00992976 0.85770905 136 134 125
-0.70978605 0.02994461 0.85774726 137 137 128
-0.70982652 0.04996185 0.85779616 134 134 125
-0.70988464 0.06998318 0.85786638 106 106 106
-0.70995586 0.09000935 0.85795246 67 69 82
-0.71002079 0.11003858 0.85803094 61 64 79
-0.71007957 0.13007032 0.85810198 54 60 78
-0.71013617 0.15010497 0.85817041 47 52 66
-0.71019429 0.17014313 0.85824067 41 45 58
-0.71025523 0.19018538 0.85831432 36 38 48
-0.71026629 0.21018284 0.85839209 32 32 41
-0.70964516 0.23028336 0.85847366 31 30 38
-0.70971313 0.25033864 0.85855588 29 28 36
-0.70977615 0.26965385 0.85863211 27 26 35
-0.70983801 0.28971413 0.85870695 27 26 35
-0.70989484 0.30977568 0.85877569 27 27 33
-0.70994563 0.32983766 0.85883714 26 26 34
-0.70999105 0.34989983 0.85889210 28 28 35
-0.71003107 0.36996178 0.85894052 28 28 36
-0.71006777 0.39002415 0.85898491 30 29 37
-0.71010468 0.41008873 0.85902957 30 30 38
-0.71014005 0.43015445 0.85907237 31 31 39
-0.71017382 0.45022117 0.85911322 31 31 39
-0.71020620 0.47028885 0.85915240 31 31 39
-0.71022794 0.48441090 0.85917870 32 31 39
-0.68998582 -0.56992270 0.85801366 0 0 0
-0.68993415 -0.54986095 0.85794939 0 0 0
-0.68985861 -0.52978390 0.85785547 0 0 0
-0.68985527 -0.51063751 0.85712128 31 51 60
-0.69020583 -0.49011555 0.85461321 103 162 192
-0.68989246 -0.46996032 0.85422515 97 155 183
-0.68971312 -0.44991097 0.85400304 90 146 177
-0.68998736 -0.42972257 0.85383384 87 137 167
-0.69021175 -0.40991463 0.85370687 82 132 163
-0.69013633 -0.38995181 0.85361361 78 125 155
-0.69008730 -0.37000753 0.85355296 73 116 150
-0.69006960 -0.35008198 0.85353108 69 111 143
-0.69006237 -0.33016252 0.85352213 67 103 139
-0.69005307 -0.31024254 0.85351061 66 99 135
-0.69006039 -0.29033002 0.85351966 65 95 132
-0.69012246 -0.26970073 0.85359644 66 92 132
-0.69005675 -0.24956508 0.85476879 104 107 134
-0.68961313 -0.23018951 0.85755008 134 101 104
-0.68961081 -0.21017902 0.85754720 110 100 96
-0.68960942 -0.19016893 0.85754549 101 93 89
-0.68960769 -0.17015883 0.85754336 101 93 88
-0.68960915 -0.15014951 0.85754517 107 101 93
-0.68961188 -0.13014036 0.85754857 111 106 99
-0.68961550 -0.11013120 0.85755308 114 108 104
-0.68962025 -0.09012196 0.85755899 121 115 109
-0.68962565 -0.07011252 0.85756569 129 125 117
-0.68963435 -0.05010300 0.85757651 132 129 121
-0.68964644 -0.03009312 0.85759154 137 135 126
-0.68966405 -0.01008261 0.85761344 140 135 130
-0.68968810 0.00992900 0.85764334 139 136 128
-0.68971936 0.02994234 0.85768222 139 138 129
-0.68975696 0.04995793 0.85772897 138 137 128
-0.68980845 0.06997717 0.85779298 119 119 114
-0.68987833 0.09000174 0.85787987 78 77 87
-0.68994752 0.11003026 0.85796593 61 64 78
-0.69001159 0.13006179 0.85804562 54 58 73
-0.69007415 0.15009677 0.85812344 46 49 62
-0.69013705 0.17013542 0.85820168 43 44 54
-0.69020077 0.19017799 0.85828094 39 39 47
-0.69026658 0.21022485 0.85836277 34 33 40
-0.69033394 0.23027608 0.85844654 31 30 39
-0.68998706 0.25050783 0.85852894 30 29 37
-0.68971881 0.26964512 0.85860432 27 26 35
-0.68977960 0.28970505 0.85868001 26 26 35
-0.68983623 0.30976659 0.85875051 26 25 33
-0.68988774 0.32982902 0.85881463 26 25 34
-0.68993451 0.34989200 0.85887287 26 26 35
-0.68997592 0.36995485 0.85892442 26 26 34
-0.69001348 0.39001792 0.85897119 27 27 35
-0.69005135 0.41008338 0.85901834 29 28 36
-0.69008795 0.43015022 0.85906391 29 29 37
-0.69012316 0.45021831 0.85910775 30 30 38
-0.69015689 0.47028740 0.85914974 31 30 39
-0.69017875 0.48440991 0.85917696 24 23 30
-0.66994395 -0.56990460 0.85798640 0 0 0
-0.66989233 -0.54984230 0.85792030 0 0 0
-0.66981889 -0.52976583 0.85782623 0 0 0
-0.66968318 -0.51094919 0.85741286 17 28 33
-0.67011966 -0.49000969 0.85442839 102 161 190
-0.66979840 -0.46984676 0.85401868 96 155 182
-0.67029896 -0.44985020 0.85378814 93 147 175
-0.67021518 -0.42978573 0.85360951 85 140 170
-0.67011720 -0.40980795 0.85348473 83 134 163
-0.67004629 -0.38985167 0.85339441 80 128 156
-0.66999896 -0.36991267 0.85333414 76 119 150
-0.66998097 -0.34999181 0.85331121 73 113 147
-0.66997467 -0.33007782 0.85330319 69 106 139
-0.66996972 -0.31016485 0.85329692 68 100 137
-0.66998387 -0.29026039 0.85331499 67 96 135
-0.67004885 -0.26963793 0.85339775 66 94 132
-0.67009309 -0.24928041 0.85432933 97 105 133
-0.67028114 -0.23016777 0.85746909 140 100 104
-0.67028390 -0.21016074 0.85747265 113 101 97
-0.67028638 -0.19015347 0.85747582 105 96 91
-0.67028717 -0.17014562 0.85747683 105 95 87
-0.67029017 -0.15013822 0.85748068 106 97 92
-0.67029487 -0.13013097 0.85748670 113 107 100
-0.67029946 -0.11012342 0.85749258 117 111 105
-0.67030391 -0.09011559 0.85749827 123 117 110
-0.67030791 -0.07010743 0.85750338 131 126 117
-0.67031580 -0.05009932 0.85751348 130 124 117
-0.67032737 -0.03009090 0.85752828 138 136 129
-0.67034399 -0.01008186 0.85754954 140 139 130
-0.67036685 0.00992825 0.85757878 140 140 131
-0.67017237 0.03009939 0.85761544 141 139 131
-0.66968765 0.04995380 0.85765805 140 138 129
-0.66973211 0.06997079 0.85771497 131 130 122
-0.66979519 0.08999292 0.85779574 94 93 95
-0.66986975 0.11002070 0.85789124 60 61 72
-0.66994042 0.13005213 0.85798178 50 52 64
-0.67000965 0.15008753 0.85807047 45 46 57
-0.67007778 0.17012672 0.85815774 43 43 51
-0.67014466 0.19016969 0.85824341 40 40 47
-0.67021163 0.21021663 0.85832920 36 35 41
-0.67027879 0.23026769 0.85841522 32 31 38
-0.66995737 0.25014361 0.85849769 30 29 37
-0.66966227 0.26963621 0.85857592 28 27 36
-0.66972303 0.28969622 0.85865383 27 26 34
-0.66978031 0.30975822 0.85872727 26 25 33
-0.66983277 0.32982131 0.85879453 25 25 34
-0.66988077 0.34988517 0.85885609 26 25 34
-0.66992323 0.36994887 0.85891053 26 25 34
-0.66996138 0.39001260 0.85895946 26 26 34
-0.66999992 0.41007886 0.85900887 28 28 36
-0.67003717 0.43014658 0.85905664 29 29 36
-0.67007311 0.45021568 0.85910272 30 29 36
-0.67010746 0.47028577 0.85914676 30 29 37
-0.67013172 0.48441043 0.85917787 9 8 12
-0.64990524 -0.56988817 0.85796166 0 0 0
-0.64985364 -0.54982516 0.85789355 0 0 0
-0.64978106 -0.52974823 0.85779773 0 0 0
-0.64954113 -0.51045806 0.85757514 10 17 20
-0.65022109 -0.48946947 0.85425580 101 162 191
-0.64973067 -0.46974545 0.85383437 98 156 183
-0.65031173 -0.44973427 0.85357324 90 148 176
-0.65002909 -0.42978424 0.85338364 87 141 171
-0.65003070 -0.40969978 0.85325946 85 135 164
-0.64995994 -0.38974759 0.85316657 79 127 157
-0.64991279 -0.36981320 0.85310467 77 120 151
-0.64989834 -0.34989932 0.85308573 75 114 145
-0.64989726 -0.32999314 0.85308435 73 106 139
-0.64990439 -0.31009097 0.85309375 71 103 136
-0.64992469 -0.29019421 0.85312039 68 98 135
-0.65007819 -0.26967490 0.85320214 66 95 132
-0.64996024 -0.24934581 0.85387810 86 103 134
-0.65021794 -0.23014818 0.85739618 143 106 110
-0.65022354 -0.21014380 0.85740357 115 104 100
-0.65022670 -0.19013837 0.85740772 107 98 93
-0.65022873 -0.17013244 0.85741040 108 98 92
-0.65023294 -0.15012688 0.85741596 110 96 94
-0.65023847 -0.13012134 0.85742325 116 107 101
-0.65024343 -0.11011536 0.85742979 119 113 107
-0.65024753 -0.09010896 0.85743520 126 120 114
-0.65025229 -0.07010237 0.85744148 132 127 121
-0.65026022 -0.05009572 0.85745193 132 120 118
-0.65027216 -0.03008878 0.85746769 139 138 130
-0.65028798 -0.01008115 0.85748854 140 139 130
-0.65030861 0.00992752 0.85751574 141 140 131
-0.65013294 0.02978327 0.85754876 141 134 130
-0.64962263 0.04994974 0.85758848 141 136 130
-0.64966034 0.06996450 0.85763824 139 138 130
-0.64971178 0.08998351 0.85770611 114 111 108
-0.64978960 0.11001017 0.85780885 66 66 71
-0.64986828 0.13004169 0.85791276 51 51 58
-0.64994417 0.15007749 0.85801298 47 46 53
-0.65001791 0.17011734 0.85811035 45 44 49
-0.65008858 0.19016090 0.85820367 42 41 46
-0.65015742 0.21020815 0.85829455 38 36 43
-0.65022543 0.23025941 0.85838435 34 33 38
-0.65029097 0.25031386 0.85847087 31 30 37
-0.65035149 0.26962832 0.85855078 29 28 36
-0.64981968 0.28981518 0.85863036 27 26 34
-0.64972684 0.30975049 0.85870583 26 25 33
-0.64978016 0.32981431 0.85877631 26 25 34
-0.64982929 0.34987913 0.85884125 26 25 34
-0.64987289 0.36994386 0.85889889 25 25 34
-0.64991187 0.39000849 0.85895041 26 25 34
-0.64995061 0.41007540 0.85900161 27 27 34
-0.64998783 0.43014367 0.85905081 28 27 36
-0.65002359 0.45021324 0.85909807 29 28 36
-0.65005838 0.47028430 0.85914406 26 26 34
-0.65008717 0.48441283 0.85918213 0 0 0
-0.62986887 -0.56987280 0.85793853 0 0 0
-0.62981831 -0.54980986 0.85786966 0 0 0
-0.62974652 -0.52973227 0.85777187 0 0 0
-0.62981581 -0.51050836 0.85764646 1 2 2
-0.63010547 -0.48926067 0.85432158 98 157 185
-0.62995057 -0.46981679 0.85366093 99 154 182
-0.63021644 -0.45032491 0.85338882 95 148 177
-0.63007218 -0.43031365 0.85319348 91 140 170
-0.63015707 -0.40999159 0.85306887 84 135 163
-0.62973110 -0.39006819 0.85296985 83 128 157
-0.62986243 -0.36972857 0.85290947 79 121 151
-0.62985296 -0.34982176 0.85289666 74 114 145
-0.62985960 -0.32992399 0.85290566 73 108 139
-0.62987408 -0.31002973 0.85292529 71 104 136
-0.62989052 -0.29013541 0.85294754 70 99 135
-0.62993966 -0.27025387 0.85301405 69 97 134
-0.63019608 -0.25025004 0.85331724 78 99 132
-0.62997077 -0.23049188 0.85714794 148 110 114
-0.63017227 -0.21012884 0.85734250 117 103 100
-0.63017494 -0.19012471 0.85734614 110 101 96
-0.63017683 -0.17012019 0.85734870 109 101 97
-0.63018132 -0.15011618 0.85735482 114 105 98
-0.63018687 -0.13011210 0.85736237 118 112 105
-0.63019237 -0.11010766 0.85736985 119 115 108
-0.63019637 -0.09010266 0.85737529 126 120 115
-0.63020198 -0.07009758 0.85738293 133 127 122
-0.63021002 -0.05009233 0.85739386 135 133 125
-0.63022146 -0.03008673 0.85740943 139 138 128
-0.63023520 -0.01008044 0.85742811 142 141 132
-0.63025324 0.00992678 0.85745265 143 141 132
-0.63027588 0.02993538 0.85748344 145 144 136
-0.63030285 0.04994575 0.85752013 145 142 135
-0.63033426 0.06995834 0.85756284 142 142 133
-0.63037549 0.08997433 0.85761891 128 128 118
-0.62975559 0.11004780 0.85771671 87 81 81
-0.62979436 0.13003022 0.85783688 58 54 57
-0.62987735 0.15006650 0.85794995 51 50 52
-0.62995764 0.17010725 0.85805936 47 46 48
-0.63003308 0.19015171 0.85816215 42 42 46
-0.63010545 0.21019988 0.85826075 38 38 42
-0.63017539 0.23025182 0.85835602 34 33 39
-0.63024139 0.25030659 0.85844593 32 31 37
-0.63030171 0.26962120 0.85852810 30 29 36
-0.62978754 0.28954875 0.85860902 27 26 34
-0.62967678 0.30974395 0.85868769 26 26 33
-0.62973078 0.32980857 0.85876134 26 25 33
-0.62978037 0.34987413 0.85882897 26 25 34
-0.62982444 0.36993964 0.85888907 27 26 35
-0.62986373 0.39000498 0.85894267 27 26 35
-0.62990238 0.41007242 0.85899537 27 27 33
-0.62993922 0.43014107 0.85904562 28 27 35
-0.62997458 0.45021102 0.85909383 28 28 35
-0.63001025 0.47028345 0.85914248 19 19 25
-0.63004119 0.48441428 0.85918468 0 0 0
-0.60983362 -0.56985747 0.85791546 0 0 0
-0.60978473 -0.54979513 0.85784668 0 0 0
-0.60971404 -0.52971706 0.85774722 0 0 0
-0.60981277 -0.51024581 0.85763149 0 0 0
-0.61019211 -0.49003185 0.85458364 78 133 160
-0.60976379 -0.46989366 0.85347356 96 150 179
-0.61018614 -0.45023807 0.85322433 90 145 175
-0.61005306 -0.43023537 0.85303830 87 140 170
-0.60996796 -0.41027353 0.85291932 85 135 163
-0.60989966 -0.39032807 0.85282382 82 129 157
-0.60985669 -0.36966538 0.85276375 80 121 152
-0.60985193 -0.34976451 0.85275712 77 113 145
-0.60986264 -0.32987232 0.85277211 75 108 142
-0.60987818 -0.30998196 0.85279385 72 104 137
-0.60989551 -0.29009134 0.85281808 73 102 136
-0.60994093 -0.27021194 0.85288161 73 99 134
-0.61006445 -0.25036160 0.85305440 78 97 131
-0.61012387 -0.23059921 0.85678060 149 114 120
-0.61012796 -0.21011528 0.85728716 120 102 97
-0.61012979 -0.19011220 0.85728973 103 88 87
-0.61013145 -0.17010895 0.85729206 110 101 94
-0.61013538 -0.15010616 0.85729759 115 107 97
-0.61013970 -0.13010319 0.85730366 118 111 103
-0.61014418 -0.11009997 0.85730994 120 112 106
-0.61014890 -0.09009649 0.85731658 121 112 107
-0.61015492 -0.07009284 0.85732503 133 128 120
-0.61016331 -0.05008900 0.85733683 138 134 126
-0.61017252 -0.03008465 0.85734976 141 138 128
-0.61018390 -0.01007972 0.85736574 140 133 128
-0.61019936 0.00992602 0.85738746 143 143 132
-0.61021918 0.02993300 0.85741529 146 145 136
-0.61024208 0.04994150 0.85744746 147 144 136
-0.61026882 0.06995198 0.85748502 144 143 135
-0.61030543 0.08996566 0.85753645 135 133 125
-0.60967846 0.10993295 0.85761721 106 102 96
-0.60971877 0.13001766 0.85775372 67 61 62
-0.60981137 0.15005499 0.85788405 55 52 53
-0.60989787 0.17009665 0.85800576 50 48 50
-0.60997873 0.19014229 0.85811954 46 44 48
-0.61005531 0.21019171 0.85822730 40 39 43
-0.61012791 0.23024471 0.85832946 36 35 41
-0.61019508 0.25030019 0.85842397 32 32 37
-0.61025540 0.26961515 0.85850884 30 30 36
-0.61031563 0.28967590 0.85859357 29 28 35
-0.61025188 0.30983479 0.85867484 27 26 33
-0.60968480 0.32980428 0.85875016 26 25 33
-0.60973418 0.34987037 0.85881973 27 26 35
-0.60977811 0.36993643 0.85888161 29 28 36
-0.60981699 0.39000213 0.85893638 29 28 36
-0.60985494 0.41006978 0.85898983 29 28 36
-0.60989123 0.43013873 0.85904094 27 26 35
-0.60992567 0.45020873 0.85908946 27 26 34
-0.60996286 0.47028313 0.85914185 12 12 15
-0.60999407 0.48441491 0.85918582 0 0 0
-0.58979861 -0.56984132 0.85789114 0 0 0
-0.58975076 -0.54977901 0.85782154 0 0 0
-0.58973543 -0.52975051 0.85772181 0 0 0
-0.59033368 -0.51035126 0.85759137 0 0 0
-0.59010590 -0.49024246 0.85491316 68 108 132
-0.59006421 -0.47037497 0.85331547 93 147 176
-0.59016849 -0.45015511 0.85306718 89 142 171
-0.59005197 -0.43016498 0.85289877 86 138 166
-0.58997270 -0.41020853 0.85278420 87 133 161
-0.58991027 -0.39026862 0.85269397 81 127 156
-0.58987578 -0.36961352 0.85264414 80 119 150
-0.58987557 -0.34971804 0.85264385 77 114 144
-0.58988580 -0.32982843 0.85265864 74 110 139
-0.58990516 -0.30994298 0.85268666 74 104 137
-0.58992698 -0.29005738 0.85271826 74 102 135
-0.58997528 -0.27018234 0.85278808 75 98 133
-0.59010297 -0.25033749 0.85297265 77 98 131
-0.59009559 -0.23053040 0.85633900 145 117 126
-0.59008900 -0.21010273 0.85723591 122 104 99
-0.59008824 -0.19010002 0.85723478 113 102 96
-0.59008968 -0.17009800 0.85723687 111 102 95
-0.59009304 -0.15009638 0.85724176 113 104 97
-0.59009595 -0.13009445 0.85724599 116 109 102
-0.59009929 -0.11009238 0.85725083 123 116 111
-0.59010418 -0.09009032 0.85725793 128 120 113
-0.59011065 -0.07008812 0.85726733 135 129 122
-0.59011897 -0.05008564 0.85727942 138 135 128
-0.59012661 -0.03008257 0.85729051 144 142 132
-0.59013676 -0.01007900 0.85730525 149 142 135
-0.59015056 0.00992530 0.85732530 148 145 136
-0.59016696 0.02993068 0.85734912 147 146 137
-0.59018589 0.04993737 0.85737661 149 147 137
-0.59020812 0.06994576 0.85740888 148 144 137
-0.59023991 0.08995710 0.85745504 144 139 131
-0.59028541 0.10997321 0.85752110 127 122 114
-0.59014240 0.13015807 0.85766189 82 76 76
-0.58974774 0.15004330 0.85781701 59 55 55
-0.58984009 0.17008589 0.85795139 52 49 50
-0.58992674 0.19013299 0.85807745 47 44 47
-0.59000736 0.21018375 0.85819475 41 40 44
-0.59008220 0.23023779 0.85830363 38 36 42
-0.59015066 0.25029416 0.85840324 34 33 39
-0.59021174 0.26960990 0.85849209 31 31 38
-0.59027224 0.28967136 0.85858010 29 28 36
-0.59022234 0.30964451 0.85866344 28 27 34
-0.58964076 0.32980079 0.85874107 26 26 33
-0.58968961 0.34986731 0.85881221 26 25 33
-0.58973286 0.36993367 0.85887520 28 27 34
-0.58977115 0.38999967 0.85893097 29 29 36
-0.58980827 0.41006749 0.85898503 30 29 37
-0.58984366 0.43013654 0.85903657 30 29 37
-0.58987704 0.45020649 0.85908519 28 27 35
-0.58991633 0.47028345 0.85914242 5 5 7
-0.58994631 0.48441506 0.85918608 0 0 0
-0.56976398 -0.56982443 0.85786571 0 0 0
-0.56971669 -0.54976170 0.85779451 0 0 0
-0.56971063 -0.52963156 0.85769348 0 0 0
-0.57030030 -0.51033104 0.85755736 0 0 0
-0.57003639 -0.49082539 0.85555219 50 79 96
-0.57009360 -0.46995406 0.85318879 90 142 172
-0.57016944 -0.45008099 0.85292673 91 138 168
-0.57006265 -0.43009850 0.85276699 90 133 163
-0.56998824 -0.41014672 0.85265571 85 129 157
-0.56993104 -0.39021193 0.85257014 79 124 152
-0.57003511 -0.37013318 0.85252924 81 119 144
-0.56978276 -0.35026201 0.85253684 76 113 142
-0.56992751 -0.32979218 0.85256499 77 109 139
-0.56995582 -0.30991413 0.85260738 77 105 137
-0.56998595 -0.29003499 0.85265250 74 103 134
-0.57003437 -0.27016238 0.85272493 76 100 133
-0.57014830 -0.25031481 0.85289526 76 99 132
-0.57009809 -0.23038279 0.85584230 142 118 129
-0.57005460 -0.21009094 0.85718784 123 102 99
-0.57005289 -0.19008904 0.85718527 114 103 97
-0.57005247 -0.17008764 0.85718463 110 101 94
-0.57005491 -0.15008702 0.85718829 113 102 93
-0.57005807 -0.13008641 0.85719305 118 107 102
-0.57006194 -0.11008571 0.85719887 124 116 110
-0.57006583 -0.09008473 0.85720471 127 123 116
-0.57007119 -0.07008366 0.85721277 135 128 122
-0.57007936 -0.05008247 0.85722505 139 134 127
-0.57008661 -0.03008066 0.85723596 148 146 138
-0.57009534 -0.01007835 0.85724908 149 147 137
-0.57010638 0.00992460 0.85726567 151 148 139
-0.57011997 0.02992847 0.85728609 149 148 138
-0.57013496 0.04993340 0.85730862 151 151 142
-0.57015370 0.06993987 0.85733679 151 151 143
-0.57018022 0.08994886 0.85737665 148 147 137
-0.57021539 0.10996143 0.85742951 139 137 129
-0.57007752 0.12983668 0.85754771 110 99 98
-0.56968249 0.15003038 0.85774287 65 58 59
-0.56978404 0.17007490 0.85789583 54 49 50
-0.56987669 0.19012369 0.85803538 47 44 46
-0.56996125 0.21017592 0.85816273 43 42 45
-0.57003846 0.23023120 0.85827899 40 38 43
-0.57010840 0.25028865 0.85838431 37 36 41
-0.57017021 0.26960529 0.85847740 33 32 39
-0.57023073 0.28966746 0.85856852 30 29 37
-0.57028780 0.30973198 0.85865446 29 28 35
-0.57034042 0.32979796 0.85873368 27 26 33
-0.57009013 0.35003557 0.85880641 26 25 33
-0.56968826 0.36993114 0.85886932 26 25 32
-0.56972600 0.38999752 0.85892622 27 27 36
-0.56976235 0.41006558 0.85898103 29 28 37
-0.56979677 0.43013472 0.85903292 29 28 35
-0.56982958 0.45020503 0.85908240 27 26 34
-0.56987126 0.47028499 0.85914524 0 0 0
-0.56989812 0.48441486 0.85918572 0 0 0
-0.54972935 -0.56980630 0.85783841 0 0 0
-0.54968229 -0.54974277 0.85776497 0 0 0
-0.55029778 -0.52971804 0.85766407 0 0 0
-0.55026906 -0.51031129 0.85752416 0 0 0
-0.55013914 -0.49067572 0.85592153 39 59 72
-0.54998705 -0.47026156 0.85308464 91 138 169
-0.55018579 -0.45001415 0.85280005 88 135 163
-0.55008547 -0.43003676 0.85264459 87 130 158
-0.55001566 -0.41008933 0.85253641 84 126 153
-0.54996123 -0.39015788 0.85245205 81 121 149
-0.54993636 -0.37025017 0.85241351 79 116 144
-0.54995024 -0.35036902 0.85243504 76 114 141
-0.54998145 -0.32976061 0.85248348 78 109 139
-0.55002134 -0.30989154 0.85254537 78 106 135
-0.55006930 -0.29002381 0.85261979 77 103 134
-0.55011880 -0.27015346 0.85269658 76 102 132
-0.55021305 -0.25029939 0.85284261 79 101 131
-0.54985979 -0.23043172 0.85528262 140 124 136
-0.55002187 -0.21007894 0.85713892 129 104 102
-0.55002279 -0.19007909 0.85714037 115 106 97
-0.55002139 -0.17007844 0.85713820 112 101 95
-0.55002226 -0.15007849 0.85713954 114 99 92
-0.55002445 -0.13007881 0.85714294 118 104 101
-0.55002763 -0.11007916 0.85714789 121 115 109
-0.55003096 -0.09007931 0.85715308 128 122 115
-0.55003567 -0.07007938 0.85716041 134 128 122
-0.55004299 -0.05007936 0.85717182 136 125 123
-0.55004961 -0.03007877 0.85718213 146 145 136
-0.55005698 -0.01007770 0.85719362 148 145 136
-0.55006494 0.00992390 0.85720600 150 147 137
-0.55007599 0.02992627 0.85722323 147 140 135
-0.55008765 0.04992948 0.85724138 150 148 140
-0.55010351 0.06993409 0.85726608 152 152 142
-0.55012567 0.08994087 0.85730061 146 146 135
-0.55015607 0.10995097 0.85734798 149 147 139
-0.55021766 0.12997075 0.85744388 134 118 115
-0.55024488 0.15011303 0.85766212 76 64 64
-0.54973023 0.17006380 0.85783969 58 52 53
-0.54982825 0.19011426 0.85799270 49 46 47
-0.54991677 0.21016814 0.85813087 44 43 46
-0.54999622 0.23022474 0.85825488 42 40 42
-0.55006772 0.25028345 0.85836647 39 38 41
-0.55013006 0.26960102 0.85846376 35 34 39
-0.55019057 0.28966399 0.85855820 32 31 37
-0.55024686 0.30972894 0.85864605 29 28 35
-0.55029846 0.32979523 0.85872656 28 27 34
-0.55007237 0.34969424 0.85879908 26 25 33
-0.54964430 0.36992885 0.85886401 26 25 32
-0.54968123 0.38999548 0.85892173 26 26 33
-0.54971690 0.41006388 0.85897746 26 26 33
-0.54975038 0.43013314 0.85902978 27 26 33
-0.54978376 0.45020482 0.85908195 21 20 26
-0.54982528 0.47028584 0.85914682 0 0 0
-0.54985023 0.48441491 0.85918581 0 0 0
-0.52969450 -0.56978657 0.85780871 0 0 0
-0.52964816 -0.54972272 0.85773367 0 0 0
-0.53027258 -0.52959602 0.85763079 0 0 0
-0.53023690 -0.51028920 0.85748701 0 0 0
-0.53002022 -0.49126726 0.85665128 20 33 39
-0.53003028 -0.46980965 0.85295838 90 134 161
-0.53021306 -0.44995155 0.85268145 88 132 159
-0.53012386 -0.42998300 0.85253805 85 129 154
-0.53006465 -0.41004431 0.85244285 85 124 152
-0.53001206 -0.39011496 0.85235826 81 120 145
-0.52998720 -0.37020881 0.85231828 81 117 142
-0.53000429 -0.35033231 0.85234579 79 113 142
-0.53004354 -0.32973174 0.85240894 81 109 138
-0.53009766 -0.30987357 0.85249608 79 108 135
-0.53016326 -0.29001759 0.85260169 77 104 133
-0.53022310 -0.27015389 0.85269797 77 102 131
-0.53030900 -0.25029750 0.85283616 79 102 129
-0.52999613 -0.23011199 0.85501034 135 122 136
-0.52999029 -0.21006648 0.85708811 133 102 101
-0.52999535 -0.19006931 0.85709631 116 105 98
-0.52999412 -0.17006974 0.85709433 111 101 96
-0.52999318 -0.15007031 0.85709281 114 102 95
-0.52999418 -0.13007145 0.85709443 117 108 101
-0.52999604 -0.11007268 0.85709741 121 113 105
-0.52999838 -0.09007386 0.85710120 126 119 109
-0.53000280 -0.07007513 0.85710835 132 126 119
-0.53000983 -0.05007632 0.85711973 139 134 129
-0.53001593 -0.03007693 0.85712958 143 142 133
-0.53002112 -0.01007706 0.85713796 146 142 133
-0.53002716 0.00992322 0.85714773 146 144 136
-0.53003561 0.02992410 0.85716138 150 145 138
-0.53004487 0.04992568 0.85717635 149 148 139
-0.53005748 0.06992843 0.85719672 147 147 137
-0.53007626 0.08993315 0.85722707 144 144 134
-0.53010405 0.10994122 0.85727201 154 153 144
-0.53015165 0.12995625 0.85734894 157 132 130
-0.53018118 0.14990648 0.85755727 93 74 75
-0.52967869 0.17005261 0.85778304 63 54 55
-0.52978181 0.19010483 0.85795007 52 47 49
-0.52987300 0.21016005 0.85809778 47 44 46
-0.52995445 0.23021800 0.85822969 43 41 43
-0.53002714 0.25027791 0.85834743 39 38 40
-0.52991432 0.27001027 0.85845146 36 35 39
-0.53032989 0.29004682 0.85854938 32 32 37
-0.53020624 0.30972587 0.85863750 31 30 36
-0.53025657 0.32979233 0.85871903 30 29 34
-0.53030221 0.34985946 0.85879293 28 27 34
-0.53034258 0.36992640 0.85885832 27 26 33
-0.53031773 0.39004576 0.85891706 26 26 32
-0.52967149 0.41006208 0.85897369 26 26 32
-0.52970450 0.43013187 0.85902723 27 26 33
-0.52973919 0.45020565 0.85908350 14 13 17
-0.52977880 0.47028634 0.85914774 0 0 0
-0.52980193 0.48441459 0.85918524 0 0 0
-0.50976690 -0.56985608 0.85777696 0 0 0
-0.51035729 -0.54970326 0.85770331 0 0 0
-0.51029655 -0.52962690 0.85760124 0 0 0
-0.51021471 -0.51027532 0.85746373 0 0 0
-0.50993763 -0.49097097 0.85698520 11 16 20
-0.51003414 -0.46971556 0.85285784 91 130 157
-0.51025905 -0.44990057 0.85258488 88 129 155
-0.51017568 -0.42993639 0.85244560 85 125 151
-0.51012210 -0.41000256 0.85235610 83 123 147
-0.51007457 -0.39007764 0.85227672 81 120 143
-0.51004996 -0.37017290 0.85223560 83 116 141
-0.51007181 -0.35030201 0.85227217 82 113 140
-0.51012299 -0.32971189 0.85235778 83 112 136
-0.51019809 -0.30986890 0.85248340 80 108 135
-0.51005896 -0.28986587 0.85262169 78 106 132
-0.50961242 -0.27016599 0.85273632 80 103 130
-0.50970949 -0.25031581 0.85289878 80 102 128
-0.50988179 -0.23029615 0.85454180 126 121 135
-0.50996585 -0.21005602 0.85704545 138 104 104
-0.50997019 -0.19005965 0.85705273 112 96 93
-0.50996756 -0.17006061 0.85704829 109 92 91
-0.50996646 -0.15006219 0.85704644 114 102 96
-0.50996625 -0.13006412 0.85704607 116 106 101
-0.50996617 -0.11006607 0.85704593 119 112 104
-0.50996830 -0.09006843 0.85704952 120 103 103
-0.50997274 -0.07007092 0.85705697 131 123 115
-0.50997942 -0.05007331 0.85706820 136 130 119
-0.50998435 -0.03007507 0.85707647 140 136 128
-0.50998809 -0.01007641 0.85708277 139 130 126
-0.50999296 0.00992256 0.85709095 143 138 132
-0.50999925 0.02992200 0.85710150 147 142 134
-0.51000586 0.04992196 0.85711259 147 145 136
-0.51001564 0.06992290 0.85712902 144 140 133
-0.51003309 0.08992595 0.85715836 142 139 131
-0.51005847 0.10993210 0.85720101 156 154 147
-0.51010002 0.12994438 0.85727082 169 136 134
-0.51020702 0.14997959 0.85745054 111 84 86
-0.51013195 0.17019594 0.85772778 67 57 57
-0.50973676 0.19009518 0.85790638 55 50 50
-0.50982953 0.21015143 0.85806256 48 45 46
-0.50991216 0.23021049 0.85820165 44 42 44
-0.50998546 0.25027140 0.85832504 41 39 41
-0.51005154 0.27033430 0.85843628 37 36 41
-0.51011187 0.29039906 0.85853783 33 33 38
-0.51016472 0.30972200 0.85862678 32 31 37
-0.51021393 0.32978872 0.85870960 31 30 36
-0.51025829 0.34985593 0.85878426 30 29 36
-0.51029764 0.36992304 0.85885051 28 27 34
-0.51027971 0.38994098 0.85891006 27 26 33
-0.50962576 0.41005989 0.85896908 27 26 32
-0.50965902 0.43013084 0.85902516 26 25 32
-0.50969578 0.45020755 0.85908712 7 7 8
-0.50973205 0.47028661 0.85914826 0 0 0
-0.50975360 0.48441421 0.85918457 0 0 0
-0.48974678 -0.56964760 0.85774308 0 0 0
-0.49032643 -0.54968362 0.85767267 0 0 0
-0.49027049 -0.52961059 0.85757485 0 0 0
-0.49019728 -0.51026524 0.85744682 0 0 0
-0.49004162 -0.49071997 0.85723840 2 3 4
-0.48988614 -0.46921743 0.85294727 90 126 149
-0.49030069 -0.44984129 0.85247272 86 125 148
-0.49024253 -0.42989913 0.85237177 87 123 146
-0.49019930 -0.40997394 0.85229670 83 121 144
-0.49016112 -0.39005642 0.85223040 84 119 141
-0.49014712 -0.37016008 0.85220614 86 116 140
-0.49017670 -0.35029599 0.85225761 85 114 139
-0.49024080 -0.32971621 0.85236912 82 112 136
-0.49032602 -0.30988118 0.85251731 82 109 132
-0.49021797 -0.29019648 0.85267653 82 105 132
-0.48976370 -0.27019281 0.85282123 78 104 129
-0.48986673 -0.25034580 0.85300074 82 103 128
-0.49000543 -0.22995721 0.85439007 122 119 136
-0.48995157 -0.21004905 0.85701700 143 108 109
-0.48995158 -0.19005174 0.85701699 117 105 99
-0.48994645 -0.17005262 0.85700800 112 99 94
-0.48994203 -0.15005411 0.85700024 114 102 96
-0.48994038 -0.13005672 0.85699734 116 105 99
-0.48993945 -0.11005962 0.85699571 118 109 103
-0.48994173 -0.09006319 0.85699970 121 110 105
-0.48994541 -0.07006677 0.85700612 129 122 114
-0.48995063 -0.05007021 0.85701526 135 128 120
-0.48995501 -0.03007319 0.85702292 139 134 126
-0.48995829 -0.01007578 0.85702864 141 133 128
-0.48996299 0.00992193 0.85703686 142 137 130
-0.48996684 0.02991997 0.85704358 143 138 130
-0.48997071 0.04991833 0.85705034 145 142 133
-0.48997925 0.06991770 0.85706529 145 139 133
-0.48999676 0.08991940 0.85709592 143 139 133
-0.49002048 0.10992393 0.85713741 159 158 150
-0.49005846 0.12993422 0.85720382 181 143 142
-0.49013864 0.14996082 0.85734391 118 89 89
-0.49009960 0.16987734 0.85765450 74 63 63
-0.48969182 0.19008479 0.85785938 60 53 53
-0.48978621 0.21014219 0.85802477 51 47 47
-0.48987003 0.23020245 0.85817163 47 43 45
-0.48994385 0.25026438 0.85830096 43 41 43
-0.49001032 0.27032837 0.85841743 39 38 41
-0.49007050 0.29039400 0.85852287 35 34 38
-0.49012266 0.30971748 0.85861424 32 32 38
-0.49017075 0.32978446 0.85869850 31 30 38
-0.49021408 0.34985192 0.85877441 31 30 37
-0.49025256 0.36991931 0.85884183 30 29 36
-0.49028746 0.38998697 0.85890296 28 28 35
-0.49032234 0.41005750 0.85896408 27 26 33
-0.49035595 0.43012975 0.85902297 26 25 32
-0.48995729 0.45039729 0.85909130 1 1 1
-0.48968473 0.47028637 0.85914782 0 0 0
-0.48970469 0.48441322 0.85918282 0 0 0
-0.47033607 -0.56972321 0.85771333 0 0 0
-0.47044811 -0.54988195 0.85764430 0 0 0
-0.47009203 -0.52983486 0.85754955 0 0 0
-0.47018008 -0.51025456 0.85742889 0 0 0
-0.47009507 -0.49015911 0.85727395 0 0 0
-0.46979382 -0.46871019 0.85324413 84 116 134
-0.46993620 -0.44995697 0.85235861 91 124 142
-0.47030207 -0.42985187 0.85227830 91 121 141
-0.47028722 -0.40995214 0.85225164 88 121 140
-0.47028443 -0.39006388 0.85224687 89 120 139
-0.47010079 -0.37004633 0.85224014 89 117 138
-0.46958007 -0.35031565 0.85230546 88 114 137
-0.46964915 -0.32974010 0.85243089 86 112 136
-0.46972920 -0.30990253 0.85257612 86 109 133
-0.46982855 -0.29007009 0.85275650 82 107 130
-0.46993388 -0.27023285 0.85294784 81 105 129
-0.47005660 -0.25039565 0.85317081 82 103 128
-0.47009423 -0.23016092 0.85414865 113 117 136
-0.46994124 -0.21004324 0.85699335 149 108 111
-0.46994095 -0.19004638 0.85699283 118 104 98
-0.46993547 -0.17004763 0.85698283 112 98 92
-0.46992854 -0.15004886 0.85697017 114 100 95
-0.46992379 -0.13005129 0.85696150 111 98 93
-0.46992333 -0.11005512 0.85696067 117 107 101
-0.46992544 -0.09005950 0.85696451 121 112 106
-0.46992783 -0.07006373 0.85696887 129 120 113
-0.46993062 -0.05006781 0.85697393 128 121 113
-0.46993444 -0.03007171 0.85698089 136 130 123
-0.46993750 -0.01007528 0.85698649 138 132 125
-0.46994008 0.00992140 0.85699118 140 136 127
-0.46994145 0.02991822 0.85699365 140 135 127
-0.46994448 0.04991535 0.85699918 141 138 130
-0.46995278 0.06991354 0.85701431 142 139 132
-0.46996990 0.08991411 0.85704552 142 139 131
-0.46999194 0.10991729 0.85708571 162 161 153
-0.47002630 0.12992579 0.85714836 185 142 144
-0.47008304 0.14994453 0.85725175 118 89 91
-0.47025114 0.17000828 0.85755819 86 77 75
-0.47000491 0.19026614 0.85781035 63 57 56
-0.46974319 0.21013229 0.85798425 56 50 50
-0.46982839 0.23019396 0.85813989 50 44 46
-0.46990296 0.25025715 0.85827613 45 42 43
-0.46996982 0.27032235 0.85839827 40 39 41
-0.47002946 0.29038871 0.85850721 37 36 40
-0.47008075 0.30971267 0.85860091 34 33 38
-0.47012761 0.32977985 0.85868651 32 32 37
-0.47016992 0.34984759 0.85876378 31 30 37
-0.47020779 0.36991549 0.85883296 31 30 37
-0.47024196 0.38998353 0.85889538 29 28 35
-0.47027631 0.41005467 0.85895813 27 26 33
-0.47031069 0.43012874 0.85902093 21 21 26
-0.46993895 0.45002060 0.85909213 0 0 0
-0.46963659 0.47028527 0.85914583 0 0 0
-0.46965485 0.48441120 0.85917924 0 0 0
-0.45030801 -0.56970490 0.85768576 0 0 0
-0.45027273 -0.55039006 0.85761855 0 0 0
-0.45022347 -0.53032073 0.85752473 0 0 0
-0.45016159 -0.51024145 0.85740688 0 0 0
-0.45008813 -0.49015505 0.85726695 0 0 0
-0.44980427 -0.46928554 0.85399153 72 95 108
-0.44876446 -0.44960302 0.85276942 97 126 141
-0.44930192 -0.42993416 0.85260159 95 124 141
-0.44995009 -0.41015579 0.85238610 93 123 140
-0.45046662 -0.39012332 0.85237686 91 121 138
-0.45026032 -0.37030499 0.85238921 93 117 138
-0.44982473 -0.35032777 0.85246377 91 116 137
-0.44983508 -0.32979618 0.85257577 88 113 134
-0.44991095 -0.30995467 0.85271953 88 111 132
-0.45000641 -0.29011901 0.85290039 87 109 131
-0.44994665 -0.26987694 0.85312067 86 106 129
-0.44998930 -0.24990354 0.85340298 85 102 126
-0.44969451 -0.23007214 0.85409815 107 114 132
-0.44995095 -0.21004633 0.85700596 163 121 125
-0.44995037 -0.19004905 0.85700491 145 115 115
-0.44994754 -0.17005096 0.85699964 141 112 111
-0.44994133 -0.15005196 0.85698791 145 115 114
-0.44993916 -0.13005466 0.85698386 143 109 110
-0.44994415 -0.11005932 0.85699341 145 116 114
-0.44994503 -0.09006271 0.85699505 143 116 114
-0.44994319 -0.07006560 0.85699145 145 119 117
-0.44994122 -0.05006864 0.85698762 145 114 115
-0.44993870 -0.03007179 0.85698274 148 125 121
-0.44993773 -0.01007524 0.85698081 150 129 126
-0.44993574 0.00992122 0.85697692 150 132 127
-0.44993471 0.02991756 0.85697494 147 125 123
-0.44993785 0.04991429 0.85698096 149 133 130
-0.44994534 0.06991197 0.85699523 148 134 130
-0.44995695 0.08991114 0.85701726 146 133 129
-0.44997721 0.10991347 0.85705580 164 147 142
-0.45000672 0.12992021 0.85711191 184 133 136
-0.45004644 0.14993324 0.85718743 114 90 92
-0.45018864 0.16998841 0.85745819 94 90 87
-0.44997736 0.18986532 0.85773559 75 68 67
-0.44970097 0.21012189 0.85794171 61 53 53
-0.44978801 0.23018536 0.85810779 51 47 47
-0.44986321 0.25024992 0.85825128 47 43 44
-0.44992974 0.27031604 0.85837822 43 40 43
-0.44998865 0.29038311 0.85849063 39 38 42
-0.45003879 0.30970740 0.85858629 36 35 39
-0.45008448 0.32977485 0.85867346 33 32 38
-0.45012565 0.34984280 0.85875201 32 31 37
-0.45016313 0.36991143 0.85882354 31 30 37
-0.45019703 0.38998027 0.85888820 29 28 35
-0.45023080 0.41005205 0.85895264 28 27 34
-0.45026674 0.43012892 0.85902123 15 15 19
-0.45030429 0.45021053 0.85909287 0 0 0
-0.45033072 0.47028388 0.85914328 0 0 0
-0.45034754 0.48440902 0.85917536 0 0 0
-0.43028176 -0.56968730 0.85765925 0 0 0
-0.43024744 -0.55037228 0.85759084 0 0 0
-0.43019971 -0.53030278 0.85749569 0 0 0
-0.43014178 -0.51022558 0.85738023 0 0 0
-0.43006987 -0.49013790 0.85723693 0 0 0
-0.43027730 -0.46919164 0.85481617 63 82 89
-0.42987542 -0.45032576 0.85669238 139 136 130
-0.43008996 -0.42993403 0.85703570 145 141 130
-0.43078068 -0.40989474 0.85683421 145 142 133
-0.43121464 -0.39003470 0.85647580 142 141 134
-0.43105818 -0.37005231 0.85639932 140 138 134
-0.43105143 -0.35004393 0.85620217 141 139 135
-0.43095714 -0.33003500 0.85613256 135 135 133
-0.43086334 -0.31002249 0.85589280 133 133 131
-0.43076207 -0.29010413 0.85576347 128 128 130
-0.43081453 -0.26984132 0.85540333 118 122 128
-0.43004220 -0.25012792 0.85553279 118 122 129
-0.43014901 -0.23011177 0.85565740 122 123 128
-0.43001547 -0.21007653 0.85712956 150 131 124
-0.43002479 -0.19008069 0.85714765 154 129 119
-0.43002249 -0.17007940 0.85714296 151 124 110
-0.43001884 -0.15007781 0.85713563 156 129 115
-0.43001989 -0.13007801 0.85713770 149 121 110
-0.43002405 -0.11007891 0.85714600 151 122 110
-0.43002440 -0.09007867 0.85714670 151 125 110
-0.43001704 -0.07007711 0.85713203 150 121 109
-0.43000992 -0.05007626 0.85711787 141 114 104
-0.43000200 -0.03007601 0.85710216 146 120 115
-0.42999357 -0.01007650 0.85708545 147 122 114
-0.42998600 0.00992229 0.85707038 146 121 114
-0.42998250 0.02992064 0.85706332 145 120 113
-0.42998304 0.04991913 0.85706427 145 118 114
-0.42998693 0.06991819 0.85707192 141 110 105
-0.42998661 0.08991675 0.85707119 138 101 101
-0.42998878 0.10991589 0.85707541 141 102 99
-0.42999324 0.12991593 0.85708416 139 100 99
-0.43001925 0.14992424 0.85713596 103 91 91
-0.43015088 0.16997652 0.85739830 111 110 109
-0.43028428 0.19004169 0.85766415 98 95 94
-0.42998656 0.21028707 0.85789361 67 62 62
-0.42974894 0.23017666 0.85807526 55 49 50
-0.42982456 0.25024264 0.85822630 49 45 46
-0.42989009 0.27030942 0.85835717 44 42 44
-0.42994817 0.29037720 0.85847315 41 39 42
-0.42999743 0.30970207 0.85857150 37 36 40
-0.43004215 0.32976999 0.85866082 33 32 38
-0.43008241 0.34983840 0.85874121 32 31 38
-0.43011942 0.36990781 0.85881511 31 31 37
-0.43015289 0.38997744 0.85888196 31 30 38
-0.43018562 0.41004951 0.85894732 33 32 39
-0.43022380 0.43013011 0.85902358 10 10 13
-0.43025790 0.45020989 0.85909164 0 0 0
-0.43028248 0.47028247 0.85914071 0 0 0
-0.43029810 0.48440707 0.85917190 0 0 0
-0.41025625 -0.56966898 0.85763168 0 0 0
-0.41022294 -0.55035379 0.85756203 0 0 0
-0.41017683 -0.53028420 0.85746565 0 0 0
-0.41012265 -0.51020901 0.85735240 0 0 0
-0.41005824 -0.49012690 0.85721777 0 0 0
-0.41002782 -0.47051292 0.85531537 41 53 58
-0.40989781 -0.45008606 0.85520279 133 135 129
-0.40997535 -0.43003363 0.85704448 147 138 116
-0.40997678 -0.41003707 0.85704753 149 139 120
-0.40998304 -0.39004495 0.85706062 148 137 117
-0.40999418 -0.37005661 0.85708387 148 137 119
-0.41000659 -0.35006830 0.85710976 149 137 120
-0.41001615 -0.33007650 0.85712974 148 135 116
-0.41002472 -0.31008300 0.85714765 150 137 119
-0.41003486 -0.29008977 0.85716883 148 136 116
-0.41004526 -0.27009574 0.85719056 147 133 113
-0.41005219 -0.25009859 0.85720505 149 135 116
-0.41005341 -0.23009758 0.85720760 148 133 115
-0.41004928 -0.21009371 0.85719903 146 130 111
-0.41004389 -0.19008962 0.85718782 150 132 113
-0.41004030 -0.17008681 0.85718034 144 128 109
-0.41003606 -0.15008410 0.85717147 145 129 108
-0.41003299 -0.13008218 0.85716505 143 125 106
-0.41003357 -0.11008152 0.85716622 150 133 112
-0.41003106 -0.09008017 0.85716093 143 126 105
-0.41002520 -0.07007847 0.85714868 145 126 106
-0.41001956 -0.05007737 0.85713689 143 125 103
-0.41001527 -0.03007689 0.85712793 142 123 103
-0.41001156 -0.01007689 0.85712017 142 123 103
-0.41000639 0.00992274 0.85710937 140 122 102
-0.41000004 0.02992176 0.85709611 138 120 102
-0.40999477 0.04992032 0.85708507 137 116 98
-0.40999049 0.06991851 0.85707610 136 115 97
-0.40998478 0.08991598 0.85706415 130 108 91
-0.40998143 0.10991353 0.85705712 133 112 93
-0.40997864 0.12991092 0.85705127 139 119 99
-0.41000000 0.14991723 0.85709593 107 98 92
-0.41012537 0.16996854 0.85735806 109 110 110
-0.41024904 0.19003111 0.85761657 115 116 118
-0.40996933 0.20991858 0.85783777 98 96 96
-0.40970901 0.23016664 0.85803779 69 65 66
-0.40978657 0.25023507 0.85820026 54 49 50
-0.40985156 0.27030289 0.85833640 47 44 47
-0.40990850 0.29037129 0.85845567 42 41 43
-0.40995704 0.30969697 0.85855734 40 38 43
-0.41000111 0.32976571 0.85864964 36 36 43
-0.41004069 0.34983488 0.85873255 38 37 44
-0.41007706 0.36990506 0.85880871 42 42 48
-0.41011008 0.38997559 0.85887787 46 47 54
-0.41014209 0.41004837 0.85894492 52 53 60
-0.41018145 0.43013200 0.85902738 4 5 5
-0.41021171 0.45020940 0.85909072 0 0 0
-0.41023470 0.47028146 0.85913887 0 0 0
-0.41024948 0.48440589 0.85916981 0 0 0
-0.39023149 -0.56964990 0.85760294 0 0 0
-0.39019921 -0.55033452 0.85753201 0 0 0
-0.39015555 -0.53026591 0.85743606 0 0 0
-0.39010600 -0.51019399 0.85732718 0 0 0
-0.39004426 -0.49011191 0.85719150 0 0 0
-0.39010568 -0.47073546 0.85592913 29 36 39
-0.39010380 -0.44985404 0.85365775 121 131 131
-0.38996758 -0.43002286 0.85702304 150 138 117
-0.38997147 -0.41002941 0.85703156 150 137 118
-0.38997872 -0.39003899 0.85704750 149 136 114
-0.38998913 -0.37005081 0.85707040 149 136 117
-0.38999840 -0.35006055 0.85709076 151 136 118
-0.39000657 -0.33006839 0.85710870 147 135 114
-0.39001409 -0.31007489 0.85712521 151 136 116
-0.39002107 -0.29008021 0.85714055 149 134 116
-0.39002914 -0.27008557 0.85715826 147 131 111
-0.39003400 -0.25008806 0.85716891 149 134 115
-0.39003526 -0.23008792 0.85717168 149 133 115
-0.39003531 -0.21008701 0.85717180 145 130 109
-0.39003306 -0.19008497 0.85716687 147 128 110
-0.39003095 -0.17008322 0.85716224 146 131 110
-0.39002671 -0.15008086 0.85715292 145 128 108
-0.39002334 -0.13007921 0.85714550 147 128 109
-0.39002065 -0.11007812 0.85713956 148 131 112
-0.39001541 -0.09007671 0.85712802 147 128 108
-0.39000922 -0.07007567 0.85711442 146 129 108
-0.39000316 -0.05007528 0.85710109 143 126 106
-0.38999875 -0.03007562 0.85709139 140 121 101
-0.38999488 -0.01007645 0.85708289 139 120 100
-0.38999060 0.00992232 0.85707347 140 121 102
-0.38998499 0.02992054 0.85706114 136 116 96
-0.38997889 0.04991814 0.85704775 137 117 96
-0.38997322 0.06991518 0.85703528 135 115 96
-0.38996837 0.08991183 0.85702464 130 108 90
-0.38996357 0.10990800 0.85701408 133 110 93
-0.38996024 0.12990418 0.85700675 134 112 94
-0.38998105 0.14990969 0.85705251 106 102 98
-0.39010539 0.16996215 0.85732580 120 121 121
-0.39022367 0.19002429 0.85758577 120 122 126
-0.39032427 0.21008892 0.85780686 140 141 142
-0.38977130 0.23024898 0.85800280 123 123 124
-0.38974867 0.25022676 0.85817175 85 84 87
-0.38981358 0.27029606 0.85831469 67 65 70
-0.38986963 0.29036536 0.85843812 57 57 61
-0.38991742 0.30969194 0.85854338 54 55 58
-0.38996138 0.32976208 0.85864018 55 55 60
-0.39000070 0.34983254 0.85872679 63 64 70
-0.39003646 0.36990370 0.85880555 78 80 85
-0.39006920 0.38997549 0.85887764 89 92 95
-0.39010171 0.41005045 0.85894925 83 86 88
-0.39013927 0.43013425 0.85903193 0 0 0
-0.39016599 0.45020941 0.85909075 0 0 0
-0.39018760 0.47028117 0.85913834 0 0 0
-0.39020158 0.48440549 0.85916911 0 0 0
-0.37020715 -0.56962938 0.85757206 0 0 0
-0.37017681 -0.55031512 0.85750178 0 0 0
-0.37013620 -0.53024837 0.85740771 0 0 0
-0.37009120 -0.51017987 0.85730348 0 0 0
-0.37003223 -0.49009787 0.85716688 0 0 0
-0.36999709 -0.47123957 0.85661466 12 16 17
-0.37037531 -0.44941538 0.85160096 107 127 131
-0.36967178 -0.43039461 0.85667035 145 135 118
-0.36996708 -0.41002198 0.85701601 151 139 118
-0.36997554 -0.39003357 0.85703562 151 137 116
-0.36998569 -0.37004594 0.85705913 151 137 119
-0.36999334 -0.35005487 0.85707685 152 138 118
-0.36999988 -0.33006196 0.85709199 149 135 115
-0.37000608 -0.31006806 0.85710632 152 137 116
-0.37001099 -0.29007248 0.85711769 150 134 115
-0.37001596 -0.27007642 0.85712917 148 132 113
-0.37001859 -0.25007824 0.85713525 148 132 112
-0.37001878 -0.23007826 0.85713568 151 134 115
-0.37001861 -0.21007806 0.85713528 147 132 112
-0.37001722 -0.19007725 0.85713208 146 129 108
-0.37001597 -0.17007665 0.85712917 150 132 113
-0.37001249 -0.15007529 0.85712112 147 129 108
-0.37000883 -0.13007422 0.85711262 151 134 115
-0.37000431 -0.11007332 0.85710216 145 128 108
-0.36999783 -0.09007242 0.85708713 148 131 111
-0.36999127 -0.07007219 0.85707192 145 128 108
-0.36998534 -0.05007277 0.85705819 146 128 106
-0.36998077 -0.03007408 0.85704760 142 125 103
-0.36997629 -0.01007591 0.85703721 140 120 100
-0.36997205 0.00992179 0.85702738 140 120 102
-0.36996664 0.02991893 0.85701485 138 117 98
-0.36996079 0.04991543 0.85700131 138 117 96
-0.36995483 0.06991128 0.85698749 136 116 95
-0.36995031 0.08990684 0.85697702 134 111 94
-0.36994560 0.10990184 0.85696609 134 113 93
-0.36994083 0.12989633 0.85695502 134 111 92
-0.36996591 0.14990290 0.85701321 118 114 107
-0.37008941 0.16995691 0.85729936 112 115 114
-0.37020334 0.19001931 0.85756329 107 112 115
-0.37030048 0.21008438 0.85778831 135 137 138
-0.36975652 0.23005565 0.85798454 127 130 131
-0.36971730 0.25022200 0.85815539 117 120 123
-0.36977991 0.27029167 0.85830072 104 109 114
-0.36983478 0.29036198 0.85842809 88 91 97
-0.36988147 0.30968946 0.85853646 87 92 95
-0.36992475 0.32976085 0.85863695 80 83 90
-0.36996427 0.34983332 0.85872870 85 90 96
-0.36999989 0.36990623 0.85881140 93 100 102
-0.37003180 0.38997904 0.85888546 112 119 121
