ply
format ascii 1.0
element vertex 1058
property float x
property float y
property float z
property uchar red
property uchar green
property uchar blue
end_header
-0.49902141 -0.38982667 0.72372977 137 173 187
-0.49455232 -0.38587791 0.79755198 128 161 173
-0.48844720 -0.39248709 0.80310840 132 160 174
-0.49471360 -0.37556718 0.68993857 133 173 186
-0.49057202 -0.36975557 0.79596921 127 158 171
-0.48279980 -0.37834488 0.80039961 132 158 173
-0.49048347 -0.34959324 0.79357790 123 152 168
-0.49054616 -0.32997349 0.79552526 122 147 164
-0.48123694 -0.32153924 0.80024084 114 148 160
-0.49275592 -0.31053194 0.79777052 116 142 159
-0.48336564 -0.30874105 0.80061320 118 143 159
-0.49668316 -0.29510688 0.79891424 113 138 155
-0.48891123 -0.28879564 0.80324527 113 137 154
-0.49015892 -0.27025463 0.80930834 108 133 151
-0.49020688 -0.24976126 0.81276729 106 130 148
-0.48906210 -0.23004511 0.53275371 91 120 144
-0.49540037 -0.23197101 0.54906862 91 119 145
-0.49166320 -0.23157933 0.81712269 102 128 145
-0.48447055 -0.22467436 0.82105271 103 127 146
-0.48359850 -0.21394043 0.51724519 94 114 140
-0.48710230 -0.21374945 0.53377726 87 111 138
-0.49435070 -0.20830492 0.55134600 85 110 139
-0.49798914 -0.21872861 0.81907458 102 127 145
-0.48990327 -0.20971537 0.82435884 101 124 143
-0.48211833 -0.19911494 0.51821679 81 110 138
-0.48533660 -0.18737272 0.53376875 85 103 136
-0.49288607 -0.18843348 0.54815219 86 105 134
-0.49904613 -0.19573891 0.56071901 87 108 135
-0.49007675 -0.19000630 0.83052081 97 121 141
-0.48501750 -0.17392442 0.53127007 80 100 132
-0.49390033 -0.16882996 0.55015455 79 98 132
-0.49702185 -0.16303371 0.56417376 81 99 131
-0.49016232 -0.17021149 0.83650466 97 118 139
-0.48305267 -0.14796060 0.53656030 76 99 128
-0.48843676 -0.15176285 0.55054200 78 99 129
-0.49631500 -0.15049170 0.56843741 80 101 130
-0.48970371 -0.15728281 0.83944067 94 115 136
-0.49028044 -0.14689651 0.84144352 94 114 138
-0.48103294 -0.13673037 0.52984691 74 92 130
-0.48774604 -0.12870477 0.55215121 76 94 127
-0.49565485 -0.12919275 0.56446812 77 95 125
-0.49009684 -0.12957453 0.84878881 89 109 136
-0.48110784 -0.11931964 0.54657876 76 95 120
-0.49004618 -0.11609250 0.85797777 70 79 104
-0.48999963 -0.10629550 0.86215473 69 77 98
-0.48997185 -0.08962200 0.86639110 68 74 96
-0.48986019 -0.06993346 0.87415022 68 73 94
-0.49092944 -0.05871859 0.87882922 64 69 94
-0.48987005 -0.04966810 0.89039066 104 119 142
-0.49045560 -0.04091827 0.90007753 140 150 163
-0.48991159 -0.03020752 0.90470159 146 150 158
-0.48994368 -0.00991634 0.90911862 147 149 149
-0.49015691 0.00976266 0.91108942 145 145 141
-0.49004483 0.02942286 0.91222522 145 145 141
-0.48967578 0.05007983 0.91302374 130 132 131
-0.48990610 0.06978996 0.91355829 123 125 127
-0.49012019 0.08956664 0.91395751 141 143 143
-0.49029248 0.11014132 0.91427879 142 143 143
-0.49042255 0.12992882 0.91452134 149 149 148
-0.49005553 0.14952272 0.91471594 140 140 139
-0.48982789 0.17030402 0.91488681 82 83 90
-0.48990010 0.19009831 0.91502170 49 51 60
-0.48996085 0.20989360 0.91513517 44 44 52
-0.49001497 0.23048161 0.91523625 39 39 47
-0.49006070 0.25027881 0.91532166 38 38 44
-0.49010107 0.27007681 0.91539707 36 35 41
-0.49013630 0.28987498 0.91546286 34 34 39
-0.49016720 0.30967330 0.91552058 33 32 37
-0.49019571 0.33026374 0.91557384 32 32 36
-0.49021988 0.35006217 0.91561898 32 31 36
-0.49024157 0.36986070 0.91565948 31 31 35
-0.49026138 0.39045083 0.91569648 31 31 34
-0.49027740 0.41024806 0.91572640 30 29 32
-0.48967182 0.43018802 0.91575292 30 29 33
-0.48951144 0.44984037 0.91577395 29 28 32
-0.48951869 0.46963283 0.91578751 4 4 4
-0.48952372 0.49021510 0.91579691 0 0 0
-0.48952927 0.51000690 0.91580730 0 0 0
-0.48953246 0.52029911 0.91581326 0 0 0
-0.47012178 -0.60833586 0.91346744 0 0 0
-0.47009329 -0.59014327 0.91341208 0 0 0
-0.47005372 -0.57036085 0.91333520 0 0 0
-0.46999948 -0.54977535 0.91322983 0 0 0
-0.46992272 -0.52995828 0.91308070 0 0 0
-0.46975597 -0.51192969 0.91264991 11 14 15
-0.46890155 -0.48330905 0.87300406 131 162 174
-0.46861318 -0.48850197 0.88238406 128 161 175
-0.46971379 -0.49862867 0.90208548 130 156 170
-0.47102468 -0.46569025 0.85419456 133 162 174
-0.46920416 -0.47535793 0.86367308 131 162 173
-0.47110568 -0.44587952 0.83353946 131 164 176
-0.46885844 -0.45570639 0.84439361 132 164 174
-0.47919447 -0.43462781 0.81961614 134 166 177
-0.47043876 -0.43104958 0.82775926 133 163 174
-0.47093812 -0.40783336 0.81525015 131 160 175
-0.46611693 -0.41711386 0.82204439 132 162 174
-0.47507806 -0.38046737 0.79957470 132 158 174
-0.46996632 -0.39005677 0.80672967 130 159 172
-0.47302641 -0.36801073 0.79843015 130 156 172
-0.46621940 -0.37242890 0.80132439 129 157 170
-0.47051700 -0.35036505 0.79719022 127 153 167
-0.46337200 -0.34216573 0.80028189 128 153 167
-0.47548496 -0.33319594 0.79848025 121 151 166
-0.46761065 -0.32835730 0.80140163 122 149 165
-0.47022454 -0.30989615 0.80293493 119 143 159
-0.47014876 -0.28995384 0.80643400 113 139 154
-0.47015345 -0.27001362 0.81156196 110 134 151
-0.47015374 -0.25008404 0.81614801 108 131 149
-0.46115218 -0.24003466 0.82028145 109 131 150
-0.46975572 -0.22260305 0.51320114 91 120 144
-0.47787812 -0.22683930 0.52441342 89 120 144
-0.47454420 -0.23896719 0.81953864 107 129 148
-0.46956163 -0.22953481 0.82232718 105 128 146
-0.46339583 -0.20707191 0.49677550 94 116 141
-0.46731190 -0.21295380 0.51247717 91 117 143
-0.47298084 -0.20774489 0.52589295 88 114 141
-0.46999098 -0.21037298 0.82682534 103 126 145
-0.46584225 -0.18652302 0.51453487 84 107 137
-0.47432308 -0.18677519 0.52881285 87 108 136
-0.46986316 -0.19028439 0.83211159 99 122 142
-0.46505438 -0.17335055 0.51193750 83 102 133
-0.47396185 -0.17609738 0.52434626 82 103 133
-0.47004053 -0.17040656 0.83663387 96 120 140
-0.46950219 -0.14657984 0.52859825 78 100 129
-0.47638593 -0.14814996 0.54361985 82 99 131
-0.47038050 -0.15678840 0.83909759 94 118 139
-0.46958778 -0.14656431 0.84179825 96 115 139
-0.46187672 -0.13778419 0.51168972 80 99 129
-0.46948420 -0.12892863 0.53257299 77 95 127
-0.47896654 -0.13014658 0.54737253 77 96 127
-0.47000067 -0.12959085 0.84907728 91 110 136
-0.46407477 -0.11824107 0.51707435 77 92 131
-0.46615455 -0.11812158 0.52787867 77 94 125
-0.47880154 -0.11851493 0.54289258 76 95 121
-0.47021854 -0.11617979 0.85829783 71 78 106
-0.47005389 -0.10624511 0.86234441 70 77 100
-0.47001454 -0.08950381 0.86660937 69 75 97
-0.47002040 -0.06996392 0.87498581 69 75 94
-0.47273451 -0.05951588 0.87957618 68 70 92
-0.46974186 -0.05052110 0.88979371 99 112 136
-0.47020553 -0.04091604 0.90002842 133 142 160
-0.46999105 -0.03019783 0.90468252 149 154 161
-0.46999990 -0.01006860 0.90909569 151 151 150
-0.46981196 0.00986496 0.91109744 144 144 141
-0.47027353 0.02948328 0.91223066 145 144 141
-0.46995838 0.04996316 0.91302321 136 137 136
-0.47010029 0.06985025 0.91356342 130 132 133
-0.46958569 0.08956696 0.91396068 136 138 137
-0.46975029 0.11014159 0.91428104 151 151 146
-0.46987476 0.12992910 0.91452329 152 153 148
-0.46997527 0.14971960 0.91471891 140 141 140
-0.47006173 0.17030409 0.91488719 103 105 109
-0.47013113 0.19009843 0.91502227 67 67 75
-0.47018990 0.20989394 0.91513665 46 46 55
-0.47024211 0.23048212 0.91523827 41 40 49
-0.47028590 0.25027932 0.91532350 39 38 45
-0.47032445 0.27007724 0.91539853 37 36 43
-0.47035815 0.28987538 0.91546411 35 34 39
-0.47038778 0.30967371 0.91552178 33 33 37
-0.47041511 0.33026416 0.91557499 32 32 36
-0.47043821 0.35006254 0.91561994 32 31 36
-0.47045882 0.36986092 0.91566004 32 31 35
-0.47047758 0.39045086 0.91569656 32 31 34
-0.47049265 0.41024783 0.91572588 32 31 35
-0.46990843 0.42989492 0.91575132 33 31 35
-0.46972463 0.44983913 0.91577143 31 29 32
-0.46973031 0.46963025 0.91578249 0 0 0
-0.46973517 0.49021246 0.91579197 0 0 0
-0.46974044 0.51000407 0.91580223 0 0 0
-0.46974348 0.52029621 0.91580817 0 0 0
-0.45036319 -0.60830489 0.91342094 0 0 0
-0.45033531 -0.59011247 0.91336441 0 0 0
-0.45029745 -0.57033113 0.91328761 0 0 0
-0.45024707 -0.54974861 0.91318544 0 0 0
-0.45017847 -0.52993831 0.91304632 0 0 0
-0.44984498 -0.51114735 0.91279384 4 5 5
-0.45245110 -0.48169860 0.87327551 131 158 170
-0.45200132 -0.48936307 0.88950290 133 157 170
-0.44973183 -0.49761882 0.90583179 128 155 165
-0.45075527 -0.46506156 0.85644235 132 159 171
-0.45054040 -0.47415208 0.86489421 132 159 171
-0.45105606 -0.44334398 0.83794912 132 160 170
-0.45000210 -0.45281688 0.84497524 132 160 170
-0.44996181 -0.43073862 0.83382835 131 160 171
-0.45270278 -0.40348262 0.81839150 132 158 173
-0.44916334 -0.41226111 0.82331941 131 158 172
-0.45020469 -0.38970879 0.81133326 130 158 170
-0.45859149 -0.36119614 0.79974470 131 156 170
-0.45001616 -0.36999356 0.80355748 127 155 168
-0.45431442 -0.35210122 0.79932158 127 153 166
-0.44699890 -0.34803638 0.80167338 126 152 165
-0.45005563 -0.33015448 0.80376481 123 149 163
-0.44993463 -0.30985630 0.80530343 120 143 160
-0.44997745 -0.29004947 0.80840906 115 139 157
-0.44988674 -0.27008086 0.81248467 111 135 152
-0.45064256 -0.25249254 0.81696194 109 132 150
-0.44824197 -0.24298236 0.82118847 107 130 147
-0.45004814 -0.22996763 0.82498352 106 129 146
-0.44973383 -0.20962995 0.48951910 91 118 142
-0.45278239 -0.20918979 0.50159828 89 119 144
-0.44993669 -0.20984320 0.82927915 103 127 145
-0.44316371 -0.19153531 0.47502184 89 110 137
-0.44961771 -0.18827036 0.49338838 85 110 137
-0.45518958 -0.18704061 0.50515420 84 108 138
-0.44997504 -0.19002203 0.83362789 101 123 142
-0.44368149 -0.17821287 0.47778966 85 110 139
-0.44752665 -0.16911237 0.49116948 83 103 134
-0.45593923 -0.17348496 0.50452589 83 105 134
-0.44987650 -0.17034204 0.83769981 99 120 142
-0.44085342 -0.16065485 0.84013907 94 119 138
-0.45272719 -0.15880460 0.49583137 78 98 132
-0.45347189 -0.14251021 0.51300092 77 100 130
-0.45795294 -0.14595015 0.52027273 80 100 131
-0.45403007 -0.15818322 0.83935502 96 120 139
-0.44928894 -0.14860457 0.84244977 97 118 139
-0.44485513 -0.13266833 0.49423230 78 97 127
-0.45077433 -0.13561755 0.50879789 79 99 129
-0.45771384 -0.12925568 0.52308263 79 96 130
-0.44988634 -0.12972712 0.84988241 90 111 137
-0.44061272 -0.11374123 0.48998919 68 86 125
-0.45042301 -0.11578369 0.50941207 75 94 125
-0.45118649 -0.11697529 0.85853576 72 81 103
-0.44968237 -0.10729940 0.86250172 71 79 100
-0.44992101 -0.08971445 0.86680768 68 75 98
-0.45027442 -0.07055520 0.87537873 69 75 93
-0.44615776 -0.06131412 0.88020764 68 75 95
-0.44989085 -0.05080971 0.88997087 98 109 133
-0.45360378 -0.04091527 0.90001163 134 142 156
-0.45008155 -0.03011296 0.90469639 148 152 159
-0.44999774 -0.00975581 0.90914778 154 155 153
-0.45000501 0.00976283 0.91109813 147 147 145
-0.44978053 0.02948356 0.91223943 150 149 145
-0.45017137 0.05002394 0.91303212 132 134 133
-0.45037404 0.06973460 0.91356716 127 130 131
-0.44984183 0.08956744 0.91396572 140 141 140
-0.44999864 0.11014198 0.91428432 150 151 147
-0.45011744 0.12992944 0.91452568 158 159 155
-0.45021336 0.14971987 0.91472056 139 141 141
-0.44967709 0.17044732 0.91488906 128 130 133
-0.44957118 0.19009847 0.91502245 107 108 112
-0.44962744 0.20989401 0.91513697 71 70 77
-0.44967786 0.23048245 0.91523958 46 46 54
-0.44971988 0.25027976 0.91532512 41 40 46
-0.44975666 0.27007767 0.91539998 39 38 43
-0.44978882 0.28987580 0.91546543 37 36 41
-0.44981709 0.30967411 0.91552297 35 35 39
-0.44984314 0.33026452 0.91557598 34 33 36
-0.44986515 0.35006286 0.91562078 34 33 37
-0.44988471 0.36986115 0.91566060 35 33 36
-0.44990252 0.39045099 0.91569685 36 34 38
-0.44991670 0.41024774 0.91572570 38 37 40
-0.44992892 0.43004389 0.91575057 43 41 44
-0.44993784 0.44983779 0.91576871 30 28 30
-0.44994215 0.46962768 0.91577747 0 0 0
-0.44994663 0.49020958 0.91578660 0 0 0
-0.44995160 0.51000100 0.91579670 0 0 0
-0.44995453 0.52029309 0.91580267 0 0 0
-0.42981574 -0.60827181 0.91337127 0 0 0
-0.42978911 -0.59008033 0.91331465 0 0 0
-0.42975264 -0.57029963 0.91323715 0 0 0
-0.42970478 -0.54971851 0.91313544 0 0 0
-0.42964053 -0.52991079 0.91299893 0 0 0
-0.42939899 -0.51059514 0.91277897 0 0 0
-0.42091619 -0.48721369 0.89118636 130 153 159
-0.42922699 -0.49814446 0.90945451 73 89 94
-0.42914597 -0.46399456 0.85632550 129 156 167
-0.43065708 -0.47224306 0.86478201 131 156 167
-0.43301477 -0.44405939 0.83847860 132 157 169
-0.42750680 -0.45102492 0.84493745 132 157 168
-0.43018522 -0.43099241 0.83637216 131 156 168
-0.42137357 -0.43886874 0.84062791 130 155 167
-0.43703416 -0.40147941 0.81949369 126 156 170
-0.42991958 -0.40997027 0.82531658 130 156 168
-0.43032601 -0.38930235 0.81453800 129 155 165
-0.42357918 -0.39853452 0.82055429 128 153 166
-0.43015202 -0.36979958 0.80749014 127 152 166
-0.43017807 -0.34960576 0.80613816 126 151 164
-0.42989125 -0.32992119 0.80799823 123 147 162
-0.43004900 -0.31000566 0.80874230 119 143 159
-0.43008641 -0.29022241 0.81113351 118 139 156
-0.42993761 -0.26996265 0.81476260 112 135 151
-0.43270633 -0.25604431 0.81855106 110 133 149
-0.42869413 -0.24712714 0.82292553 109 131 149
-0.43014966 -0.23000983 0.82804006 105 128 146
-0.43244101 -0.20261275 0.47023478 94 119 145
-0.43781280 -0.20631672 0.48270719 93 120 145
-0.43020740 -0.20991284 0.83209637 104 126 146
-0.42569973 -0.18863868 0.45604265 93 113 139
-0.43023585 -0.19217753 0.46927760 90 114 140
-0.43483744 -0.18991156 0.48201876 86 113 139
-0.42999209 -0.19004095 0.83636580 100 124 142
-0.42585883 -0.17327717 0.45817111 86 107 138
-0.43335490 -0.16977792 0.47507609 85 105 135
-0.43762653 -0.16936914 0.48413050 82 105 134
-0.43162093 -0.17383358 0.83895874 100 121 141
-0.42842740 -0.16447880 0.84081629 96 121 140
-0.42927536 -0.15421384 0.47004517 79 100 132
-0.43014436 -0.15005877 0.84439855 99 118 140
-0.42608522 -0.12765613 0.47444551 78 99 127
-0.43221722 -0.13216764 0.48858191 79 100 129
-0.43840306 -0.12989923 0.50002629 76 96 128
-0.43001854 -0.12994659 0.85157703 93 112 135
-0.42245386 -0.11006463 0.47272609 73 91 126
-0.43163220 -0.11320016 0.48913406 77 95 126
-0.43138545 -0.11817410 0.85912043 71 79 103
-0.42975251 -0.10841645 0.86323284 71 80 99
-0.42989372 -0.08963326 0.86790929 69 75 95
-0.43032618 -0.07126798 0.87596180 68 74 93
-0.42780084 -0.06203093 0.88057028 69 74 93
-0.43000688 -0.05062984 0.89034957 101 109 131
-0.43830230 -0.04091483 0.90000191 132 139 157
-0.42999404 -0.03017811 0.90467668 153 156 162
-0.42993828 -0.00984086 0.90914715 156 156 154
-0.43020146 0.00966055 0.91110562 155 154 152
-0.43001275 0.02954429 0.91225361 147 147 145
-0.42965994 0.05002439 0.91304042 132 133 133
-0.42991150 0.06979123 0.91357495 132 135 135
-0.43009790 0.08956796 0.91397107 141 143 143
-0.43024724 0.11014247 0.91428842 152 152 148
-0.43036011 0.12992980 0.91452826 144 144 141
-0.43045139 0.14972014 0.91472223 140 142 142
-0.42993273 0.17015509 0.91488813 130 132 135
-0.42980245 0.19009871 0.91502364 115 118 120
-0.42985599 0.20989416 0.91513762 126 126 125
-0.42990425 0.23048264 0.91524035 89 88 90
-0.42994457 0.25028006 0.91532620 58 57 61
-0.42997970 0.27007796 0.91540097 48 46 51
-0.43001039 0.28987608 0.91546632 43 43 46
-0.43003740 0.30967439 0.91552381 44 42 45
-0.43006225 0.33026478 0.91557672 43 42 45
-0.43008329 0.35006314 0.91562152 46 45 48
-0.43010195 0.36986141 0.91566125 52 50 52
-0.43011888 0.39045117 0.91569728 60 59 60
-0.43013229 0.41024781 0.91572584 68 66 67
-0.43014371 0.43004369 0.91575015 73 72 73
-0.43015077 0.44983604 0.91576516 32 32 32
-0.43015413 0.46962504 0.91577232 0 0 0
-0.43015809 0.49020644 0.91578073 0 0 0
-0.43016277 0.50999765 0.91579069 0 0 0
-0.43016555 0.52028965 0.91579661 0 0 0
-0.41005993 -0.60823887 0.91332181 0 0 0
-0.41003402 -0.59004767 0.91326411 0 0 0
-0.40999896 -0.57026770 0.91318602 0 0 0
-0.40995305 -0.54968739 0.91308375 0 0 0
-0.40989266 -0.52988196 0.91294926 0 0 0
-0.40986137 -0.50997733 0.91273413 0 0 0
-0.41654171 -0.48039220 0.87870884 133 152 158
-0.40714285 -0.48383560 0.88807331 118 147 151
-0.40767823 -0.49695144 0.91079291 34 41 44
-0.40993815 -0.46375287 0.85585851 130 154 165
-0.41517710 -0.47349915 0.86769467 128 152 164
-0.41016579 -0.44984380 0.84730941 129 154 166
-0.40996269 -0.42853587 0.83724606 127 153 164
-0.40875309 -0.43833538 0.84102145 128 153 164
-0.40961169 -0.40966599 0.82738256 129 153 164
-0.41021650 -0.38702686 0.81656871 128 152 163
-0.40805179 -0.39695536 0.82173590 128 152 163
-0.40995702 -0.36967631 0.81131054 127 151 164
-0.41007242 -0.35024618 0.81075062 126 149 163
-0.40997744 -0.32987371 0.81143116 123 146 160
-0.40981013 -0.30963516 0.81233689 120 143 159
-0.41006862 -0.28992602 0.81413766 117 139 156
-0.41068180 -0.27101641 0.81709899 113 136 153
-0.40313224 -0.26377669 0.82095699 110 133 151
-0.41666663 -0.25947482 0.81962985 110 133 149
-0.40978770 -0.25001918 0.82461178 110 132 148
-0.40992232 -0.23000925 0.83025215 105 129 147
-0.40970372 -0.20997191 0.83436955 105 127 145
-0.41339235 -0.19268999 0.45420383 89 117 143
-0.41522446 -0.18185998 0.46087000 84 107 142
-0.41013443 -0.19009401 0.83810888 102 123 143
-0.40110137 -0.18047298 0.84001130 108 122 143
-0.41316116 -0.17086634 0.45390794 86 109 139
-0.41934741 -0.17285154 0.46234241 85 109 139
-0.41441850 -0.17676870 0.83956575 100 122 142
-0.40903266 -0.16828224 0.84169005 99 121 140
-0.41497016 -0.15123704 0.45436149 82 101 133
-0.41000201 -0.15033944 0.84585194 97 119 139
-0.40756618 -0.12169703 0.45742990 82 98 127
-0.41458248 -0.12528528 0.46871620 80 98 128
-0.41008187 -0.13032390 0.85289882 94 112 135
-0.40104064 -0.12086762 0.86012161 73 80 102
-0.40222157 -0.11293246 0.45696076 78 96 129
-0.41419339 -0.11129129 0.46873811 77 94 125
-0.41638889 -0.11930615 0.85958250 73 78 103
-0.40981800 -0.10998371 0.86421912 71 79 101
-0.40998157 -0.08983846 0.86929280 69 74 96
-0.41001425 -0.07242442 0.87643781 68 73 93
-0.40986536 -0.06286866 0.88068077 69 75 95
-0.41008591 -0.05051680 0.89020053 98 106 127
-0.40989816 -0.03017747 0.90465864 152 156 161
-0.41006235 -0.01004209 0.90913060 156 156 155
-0.40985973 0.00976303 0.91112235 154 154 152
-0.41031564 0.02942792 0.91226112 142 141 141
-0.40993772 0.05002489 0.91304983 135 136 137
-0.41017603 0.06979165 0.91358061 128 130 132
-0.40956371 0.08956845 0.91397606 143 143 142
-0.40970561 0.11014299 0.91429272 145 145 142
-0.40981237 0.12993018 0.91453096 146 146 144
-0.40989893 0.14972045 0.91472412 149 150 147
-0.40997365 0.17030478 0.91489086 126 129 132
-0.41003388 0.19009905 0.91502527 117 120 125
-0.41008504 0.20989458 0.91513943 142 141 139
-0.41013095 0.23048303 0.91524188 124 123 120
-0.41016933 0.25028042 0.91532753 97 97 99
-0.41020272 0.27007828 0.91540204 77 76 79
-0.41023181 0.28987628 0.91546697 68 68 70
-0.41025754 0.30967459 0.91552439 69 67 70
-0.41028132 0.33026505 0.91557745 73 72 73
-0.41030150 0.35006351 0.91562249 78 77 78
-0.41031941 0.36986190 0.91566245 91 90 89
-0.41033554 0.39045167 0.91569844 104 103 101
-0.41034824 0.41024823 0.91572679 112 113 109
-0.41035875 0.43004373 0.91575023 120 118 116
-0.41036370 0.44983411 0.91576125 25 25 25
-0.41036623 0.46962226 0.91576691 0 0 0
-0.41036977 0.49020326 0.91577479 0 0 0
-0.41037417 0.50999427 0.91578463 0 0 0
-0.41037682 0.52028620 0.91579053 0 0 0
-0.39030525 -0.60820434 0.91326995 0 0 0
-0.39027971 -0.59001284 0.91321018 0 0 0
-0.39024551 -0.57023281 0.91313014 0 0 0
-0.39020083 -0.54965236 0.91302557 0 0 0
-0.39014508 -0.52985055 0.91289516 0 0 0
-0.39005394 -0.51000844 0.91268192 0 0 0
-0.38628071 -0.48552476 0.89660096 125 152 152
-0.38936315 -0.49595112 0.91100410 28 33 34
-0.39045832 -0.46230351 0.85479619 127 152 159
-0.38575054 -0.46807413 0.86334208 126 151 156
-0.39016922 -0.44906821 0.84655476 129 151 161
-0.39039394 -0.42763965 0.83799957 128 152 163
-0.38855216 -0.43613264 0.84140447 129 151 161
-0.38974477 -0.40960996 0.83080090 129 151 164
-0.39635533 -0.38348660 0.81900850 128 152 163
-0.38878917 -0.39071008 0.82329417 128 151 163
-0.39063584 -0.36926229 0.81677420 126 150 163
-0.38226808 -0.37781396 0.82055167 126 151 162
-0.39022260 -0.35011444 0.81630317 127 148 162
-0.38024567 -0.34557596 0.82008201 127 146 157
-0.39019497 -0.32986452 0.81597859 123 145 160
-0.39077299 -0.31053788 0.81730426 121 143 157
-0.38127140 -0.30506932 0.82042574 120 141 156
-0.39473810 -0.29102106 0.81839424 118 139 157
-0.38492946 -0.28871095 0.82117676 118 139 156
-0.39739428 -0.27665202 0.81917565 112 136 151
-0.38928367 -0.26921000 0.82309811 113 134 152
-0.39009527 -0.24993354 0.82819397 111 132 149
-0.38984064 -0.22989851 0.83347716 107 128 146
-0.39014728 -0.20991735 0.83728229 104 126 145
-0.39318526 -0.19277330 0.83915966 103 123 143
-0.38654869 -0.18660117 0.84080316 103 120 143
-0.38997586 -0.17026255 0.84343399 99 120 141
-0.38981128 -0.15012014 0.84807857 97 118 140
-0.39051540 -0.13122822 0.85442539 98 115 138
-0.38769034 -0.12196642 0.86113577 74 85 108
-0.39830809 -0.11205257 0.45289621 77 96 128
-0.39003556 -0.11046947 0.86611612 71 79 101
-0.39010571 -0.09004562 0.87091169 68 74 95
-0.39007037 -0.07260058 0.87706559 69 73 93
-0.38973206 -0.06302738 0.88082411 68 76 96
-0.39003456 -0.05046515 0.88987021 99 106 128
-0.38998313 -0.03027993 0.90460483 148 152 158
-0.39006385 -0.00995405 0.90915999 152 153 152
-0.38984165 0.00994828 0.91114711 149 148 147
-0.38988009 0.02948471 0.91227541 139 139 139
-0.39021475 0.05002536 0.91305846 133 134 135
-0.39044045 0.06979211 0.91358657 127 128 132
-0.38981886 0.08956887 0.91398033 144 144 143
-0.38995356 0.11014340 0.91429614 148 147 145
-0.39005493 0.12993059 0.91453381 148 147 144
-0.39013705 0.14972081 0.91472634 150 149 145
-0.39020820 0.17030520 0.91489316 126 129 134
-0.39005606 0.19024495 0.91502838 127 130 134
-0.38952331 0.20989509 0.91514167 148 149 147
-0.38956675 0.23048349 0.91524372 151 150 147
-0.38960325 0.25028095 0.91532946 116 119 123
-0.38963500 0.27007888 0.91540407 102 104 108
-0.38966271 0.28987698 0.91546917 100 101 104
-0.38968708 0.30967528 0.91552642 92 93 94
-0.38970969 0.33026580 0.91557954 98 98 99
-0.38972895 0.35006439 0.91562479 95 97 99
-0.38974598 0.36986285 0.91566481 113 114 113
-0.38976120 0.39045257 0.91570056 119 120 118
-0.38977301 0.41024890 0.91572830 131 132 130
-0.38978240 0.43004378 0.91575036 129 130 127
-0.38978489 0.44983161 0.91575618 2 2 2
-0.38978709 0.46961941 0.91576135 0 0 0
-0.38979037 0.49020019 0.91576905 0 0 0
-0.38979451 0.50999102 0.91577879 0 0 0
-0.38979695 0.52028278 0.91578452 0 0 0
-0.36976082 -0.60816525 0.91321125 0 0 0
-0.36973619 -0.58997423 0.91315042 0 0 0
-0.36970254 -0.57019357 0.91306729 0 0 0
-0.36965824 -0.54961159 0.91295784 0 0 0
-0.36960576 -0.52981169 0.91282821 0 0 0
-0.36963723 -0.51008107 0.91262605 0 0 0
-0.36628223 -0.48364650 0.89887050 124 148 154
-0.36957696 -0.49501999 0.91150093 18 23 24
-0.37322927 -0.46193141 0.85828223 129 150 157
-0.36997670 -0.46683177 0.86495756 128 150 156
-0.36603410 -0.47727005 0.88512822 128 147 155
-0.36946704 -0.44887764 0.84761305 129 150 159
-0.37242409 -0.42709193 0.83867511 128 150 162
-0.36791978 -0.43248536 0.84160227 128 150 160
-0.37000513 -0.41035031 0.83539173 129 149 161
-0.37000364 -0.38980885 0.82811863 128 149 161
-0.37862551 -0.36480569 0.81933745 128 150 163
-0.36945572 -0.37029976 0.82378877 127 148 161
-0.37896210 -0.35397320 0.81940438 128 146 162
-0.36943373 -0.34999228 0.82334573 126 145 161
-0.37889336 -0.32981179 0.81938760 124 144 159
-0.36892286 -0.32979458 0.82337271 122 143 158
-0.37937684 -0.31921869 0.81973648 123 143 158
-0.37009147 -0.30988279 0.82421804 121 141 155
-0.37023338 -0.28998960 0.82506761 118 137 154
-0.37010043 -0.26995214 0.82755958 112 134 152
-0.37013683 -0.25012470 0.83212851 109 131 149
-0.37017532 -0.23017863 0.83635683 107 127 146
-0.37208096 -0.21476451 0.83922655 104 125 145
-0.36801306 -0.20621272 0.84090052 106 124 144
-0.36989059 -0.19028380 0.84277460 101 122 142
-0.37009791 -0.16989995 0.84655983 99 120 140
-0.37002407 -0.14973244 0.85095181 98 118 140
-0.37051820 -0.13315188 0.85624379 96 118 139
-0.36844538 -0.12349545 0.86262986 85 96 119
-0.37019313 -0.11041476 0.86815946 70 78 101
-0.37003878 -0.09021420 0.87253281 68 73 92
-0.37024399 -0.07347559 0.87752744 68 72 91
-0.36971608 -0.06387272 0.88090799 69 75 94
-0.36992636 -0.05043055 0.88950267 95 103 125
-0.37001932 -0.03013925 0.90465033 144 147 155
-0.36988093 -0.00975650 0.90920678 156 156 154
-0.37018149 0.00958063 0.91113419 146 146 144
-0.36992089 0.02966268 0.91229277 137 137 138
-0.36970191 0.05002577 0.91306608 135 136 137
-0.36991461 0.06979247 0.91359137 132 133 135
-0.37007358 0.08956922 0.91398397 149 148 145
-0.37020112 0.11014374 0.91429896 149 149 149
-0.37029720 0.12993093 0.91453626 141 140 139
-0.37037505 0.14972116 0.91472852 137 137 136
-0.37044258 0.17030560 0.91489530 133 134 136
-0.37031056 0.18996024 0.91502881 130 131 133
-0.36975224 0.20989554 0.91514361 126 128 128
-0.36979336 0.23048391 0.91524538 139 140 138
-0.36982809 0.25028146 0.91533134 132 134 135
-0.36985842 0.27007956 0.91540640 111 114 118
-0.36988489 0.28987785 0.91547191 113 116 120
-0.36990811 0.30967628 0.91552940 104 107 108
-0.36992950 0.33026681 0.91558233 105 108 109
-0.36994772 0.35006540 0.91562742 103 105 106
-0.36996381 0.36986383 0.91566724 108 111 112
-0.36997813 0.39045348 0.91570269 110 111 112
-0.36998896 0.41024943 0.91572948 125 126 128
-0.36999707 0.43004340 0.91574956 116 117 116
-0.36999790 0.44982936 0.91575159 0 0 0
-0.36999996 0.46961702 0.91575670 0 0 0
-0.37000306 0.49019767 0.91576435 0 0 0
-0.37000691 0.50998829 0.91577390 0 0 0
-0.37000919 0.52027995 0.91577954 0 0 0
-0.35000747 -0.60812494 0.91315072 0 0 0
-0.34998302 -0.58993322 0.91308693 0 0 0
-0.34994971 -0.57015157 0.91300002 0 0 0
-0.34990514 -0.54956697 0.91288369 0 0 0
-0.34985288 -0.52976476 0.91274734 0 0 0
-0.34990357 -0.50981983 0.91254103 0 0 0
-0.35007576 -0.49360416 0.91114796 21 25 25
-0.35741206 -0.46064742 0.85888508 125 149 155
-0.35068407 -0.46576689 0.86803064 126 148 154
-0.34694471 -0.47687040 0.88913310 123 148 148
-0.34986027 -0.44996453 0.85359572 128 149 156
-0.35589869 -0.42633331 0.83955127 128 149 160
-0.34973297 -0.42986681 0.84379869 128 148 158
-0.35536886 -0.40722868 0.83856133 129 148 160
-0.34726654 -0.41237876 0.84191098 128 148 158
-0.35012960 -0.38970247 0.83457027 127 146 158
-0.34091347 -0.39978571 0.84017333 130 146 155
-0.34995388 -0.36969999 0.83022931 126 145 158
-0.34980625 -0.35006168 0.82944854 124 143 158
-0.34980526 -0.33007543 0.82941204 122 141 156
-0.34995382 -0.31013966 0.83065419 118 139 154
-0.35015877 -0.29009815 0.83091252 115 136 151
-0.35009812 -0.27020018 0.83218191 113 133 149
-0.35009707 -0.25012356 0.83554579 108 130 147
-0.35215315 -0.23219910 0.83836307 104 128 145
-0.34529386 -0.22558658 0.84114410 105 126 145
-0.35839758 -0.21911976 0.83974199 105 126 146
-0.35006997 -0.20990436 0.84322638 104 124 143
-0.35000067 -0.19001607 0.84660404 102 120 141
-0.35003844 -0.17033846 0.85049871 99 118 139
-0.34992175 -0.15033681 0.85432956 98 117 138
-0.35164132 -0.13586977 0.85837263 96 117 140
-0.34902329 -0.12603255 0.86372995 87 102 123
-0.34991521 -0.11013834 0.87009795 69 75 97
-0.35008393 -0.09023269 0.87393878 67 72 90
-0.35015310 -0.07427549 0.87801555 66 70 89
-0.34974255 -0.06459284 0.88107454 68 73 91
-0.34984925 -0.05039621 0.88940968 94 102 123
-0.34994550 -0.03011315 0.90470066 142 145 152
-0.34994356 -0.00985043 0.90921073 156 157 156
-0.35003081 0.00976340 0.91115759 142 142 141
-0.35023405 0.02931293 0.91228386 133 133 136
-0.34997741 0.05002613 0.91307261 136 137 137
-0.35017753 0.06979272 0.91359471 139 140 141
-0.34959483 0.08962603 0.91398804 147 146 143
-0.34965826 0.11014403 0.91430141 140 141 142
-0.34974891 0.12993124 0.91453844 137 139 140
-0.34982254 0.14972156 0.91473097 140 139 139
-0.34988622 0.17030601 0.91489748 123 125 127
-0.34993758 0.19010041 0.91503179 113 116 119
-0.34998110 0.20989599 0.91514558 123 125 127
-0.35001999 0.23048438 0.91524726 128 129 131
-0.35005295 0.25028205 0.91533347 122 125 128
-0.35008176 0.27008027 0.91540878 103 105 108
-0.35010688 0.28987866 0.91547446 118 121 123
-0.35012896 0.30967723 0.91553221 103 107 109
-0.35014927 0.33026789 0.91558533 130 131 131
-0.35016634 0.35006637 0.91562996 120 123 124
-0.35018144 0.36986471 0.91566943 105 107 109
-0.35019483 0.39045422 0.91570445 120 122 125
-0.35020469 0.41024976 0.91573022 159 160 160
-0.35021140 0.43004254 0.91574775 111 112 109
-0.35021150 0.44982760 0.91574800 0 0 0
-0.35021350 0.46961525 0.91575323 0 0 0
-0.35021631 0.49019566 0.91576060 0 0 0
-0.35021985 0.50998604 0.91576985 0 0 0
-0.35022201 0.52027765 0.91577549 0 0 0
-0.33025485 -0.60808112 0.91308491 0 0 0
-0.33023044 -0.58988829 0.91301738 0 0 0
-0.33019704 -0.57010475 0.91292503 0 0 0
-0.33032529 -0.54974834 0.91280376 0 0 0
-0.32992336 -0.52996980 0.91265894 0 0 0
-0.33002574 -0.50987948 0.91245130 0 0 0
-0.32988204 -0.49301879 0.91176326 16 19 20
-0.32598956 -0.46444430 0.87017291 125 146 149
-0.32544852 -0.47233349 0.88494495 124 144 148
-0.33155612 -0.44779958 0.85632861 129 145 154
-0.32828572 -0.45613640 0.86162942 127 145 150
-0.32956302 -0.42910890 0.84798408 127 145 154
-0.33007693 -0.41027690 0.84548016 127 145 153
-0.33425851 -0.38672540 0.83841520 126 144 154
-0.32637426 -0.39201573 0.84145102 127 142 154
-0.33013447 -0.36964834 0.83642375 125 142 154
-0.32176642 -0.37893964 0.84010313 125 143 151
-0.32979919 -0.35009809 0.83595895 122 140 153
-0.32974483 -0.32992509 0.83562864 120 138 151
-0.32986014 -0.30996737 0.83605748 116 136 150
-0.32994338 -0.28987578 0.83632378 113 133 148
-0.33100814 -0.27031508 0.83718425 112 130 148
-0.32151641 -0.26503594 0.84055773 110 129 146
-0.33444239 -0.25242619 0.83846510 108 128 146
-0.32633374 -0.24782042 0.84171641 108 127 145
-0.33927345 -0.23918819 0.83970834 102 129 146
-0.32981206 -0.22998869 0.84401188 106 125 143
-0.32990895 -0.21003252 0.84742204 101 122 141
-0.32995224 -0.18982825 0.85076954 99 119 139
-0.33015222 -0.16973265 0.85469882 98 116 137
-0.33100141 -0.15089970 0.85775263 98 116 138
-0.32513294 -0.14238813 0.86075068 97 115 139
-0.33871119 -0.13815549 0.85977137 97 117 143
-0.32994183 -0.12958885 0.86456660 89 104 127
-0.33005697 -0.10959778 0.87179783 68 74 95
-0.33003850 -0.08961175 0.87535098 65 69 88
-0.33036539 -0.07541084 0.87854241 65 69 87
-0.32963930 -0.06580860 0.88134276 67 72 90
-0.32992580 -0.05045847 0.88967797 96 101 123
-0.32993521 -0.03015157 0.90473249 147 149 155
-0.33013311 -0.01009004 0.90919947 158 158 158
-0.32974961 0.00990251 0.91117646 147 147 146
-0.32996979 0.02948539 0.91229716 131 132 135
-0.33025165 0.05002634 0.91307644 148 146 144
-0.33044025 0.06979297 0.91359788 150 150 150
-0.32985738 0.08950939 0.91398943 155 154 151
-0.32990552 0.11014435 0.91430406 132 134 137
-0.32999099 0.12993160 0.91454093 146 146 146
-0.33006050 0.14972199 0.91473359 134 134 135
-0.33012038 0.17030639 0.91489952 134 137 139
-0.33016877 0.19010079 0.91503363 125 128 132
-0.33020984 0.20989642 0.91514745 111 114 117
-0.33024656 0.23048488 0.91524921 127 129 131
-0.33000003 0.25045385 0.91533628 129 132 133
-0.32951394 0.27008102 0.91541133 108 111 116
-0.32953759 0.28987947 0.91547702 104 107 110
-0.32955839 0.30967811 0.91553480 106 108 112
-0.32957745 0.33026877 0.91558776 128 131 131
-0.32959346 0.35006723 0.91563223 118 121 123
-0.32960751 0.36986545 0.91567125 114 120 123
-0.32961985 0.39045468 0.91570553 168 169 167
-0.32962883 0.41024988 0.91573048 193 194 187
-0.32963375 0.43004083 0.91574413 75 75 73
-0.32963407 0.44982613 0.91574501 0 0 0
-0.32963601 0.46961379 0.91575040 0 0 0
-0.32963858 0.49019402 0.91575754 0 0 0
-0.32964179 0.50998415 0.91576646 0 0 0
-0.32964382 0.52027573 0.91577211 0 0 0
-0.30971254 -0.60803045 0.91300882 0 0 0
-0.30968816 -0.58983631 0.91293692 0 0 0
-0.30965461 -0.57005041 0.91283799 0 0 0
-0.30961197 -0.55025252 0.91271223 0 0 0
-0.30956063 -0.53044522 0.91256085 0 0 0
-0.30983501 -0.51002217 0.91234306 0 0 0
-0.30995441 -0.49238720 0.91182063 10 12 12
-0.30937350 -0.46207024 0.86994862 123 143 150
-0.31173135 -0.47251433 0.88739452 125 143 148
-0.30429623 -0.47957595 0.90241851 125 142 146
-0.31020796 -0.44428497 0.85714979 126 143 149
-0.30992082 -0.45417954 0.86343517 127 143 149
-0.31007322 -0.42958176 0.85190499 126 141 150
-0.30997887 -0.41013091 0.84932790 126 141 151
-0.31005690 -0.39009953 0.84434033 125 140 150
-0.31609277 -0.36625611 0.83932053 122 141 150
-0.30774176 -0.37110441 0.84160010 124 139 149
-0.31704183 -0.35056790 0.83936841 121 139 151
-0.30710284 -0.34985189 0.84158958 120 138 149
-0.31707179 -0.32996945 0.83927328 119 135 149
-0.30707500 -0.33012907 0.84176700 118 134 146
-0.31697735 -0.31075014 0.83938601 114 134 147
-0.30700431 -0.30974785 0.84188149 115 133 146
-0.31827154 -0.29237973 0.83959674 113 132 148
-0.30863223 -0.28953011 0.84194305 112 131 144
-0.31978215 -0.27919000 0.83997637 108 130 146
-0.30999170 -0.26998461 0.84313465 109 128 144
-0.31023203 -0.25002533 0.84567381 107 125 143
-0.31001574 -0.23008546 0.84917666 104 122 140
-0.30995000 -0.20996941 0.85206278 100 119 137
-0.31017288 -0.19032557 0.85482833 97 116 137
-0.31048870 -0.17094818 0.85797029 96 113 135
-0.30212489 -0.16358396 0.86027177 93 112 134
-0.31590606 -0.15492688 0.85938491 98 115 137
-0.30822058 -0.14841053 0.86156840 96 113 136
-0.31003762 -0.13003271 0.86666688 88 101 123
-0.31000061 -0.10996092 0.87317365 67 72 90
-0.30996986 -0.08998454 0.87647048 64 68 86
-0.31149432 -0.07680796 0.87907325 63 66 83
-0.30916901 -0.06711441 0.88184297 64 69 85
-0.31020863 -0.05007836 0.89044200 96 102 121
-0.31004797 -0.03024721 0.90475587 147 150 156
-0.31000562 -0.00989884 0.90924050 155 155 154
-0.31008222 0.00961884 0.91116228 146 144 143
-0.30982401 0.02968899 0.91231152 133 133 134
-0.30973628 0.05002649 0.91307926 152 152 150
-0.30991332 0.06979322 0.91360117 146 146 146
-0.31004658 0.08957020 0.91399400 157 156 152
-0.31015277 0.11014471 0.91430703 134 135 137
-0.31023285 0.12993191 0.91454310 135 137 138
-0.31029844 0.14972247 0.91473648 133 134 135
-0.31035462 0.17030686 0.91490207 125 127 130
-0.31039986 0.19010117 0.91503544 115 118 121
-0.31043838 0.20989677 0.91514899 121 123 126
-0.31047297 0.23048531 0.91525095 125 126 126
-0.31025228 0.25011642 0.91533681 131 132 131
-0.30973689 0.27008157 0.91541319 115 117 119
-0.30975931 0.28988023 0.91547944 137 139 139
-0.30977878 0.30967885 0.91553698 111 114 118
-0.30979657 0.33026942 0.91558957 118 119 121
-0.30981149 0.35006777 0.91563364 134 138 140
-0.30982454 0.36986584 0.91567223 172 174 172
-0.30983598 0.39045490 0.91570604 196 197 188
-0.30984405 0.41024960 0.91572986 197 198 189
-0.30984762 0.43003907 0.91574040 40 40 39
-0.30984819 0.44982470 0.91574210 0 0 0
-0.30985015 0.46961251 0.91574790 0 0 0
-0.30985255 0.49019266 0.91575500 0 0 0
-0.30985551 0.50998263 0.91576372 0 0 0
-0.30985744 0.52027421 0.91576943 0 0 0
-0.28996135 -0.60797717 0.91292880 0 0 0
-0.28993687 -0.58978128 0.91285173 0 0 0
-0.28990329 -0.56999296 0.91274598 0 0 0
-0.28986126 -0.55019308 0.91261362 0 0 0
-0.28981040 -0.53038281 0.91245342 0 0 0
-0.29011421 -0.50954305 0.91221491 0 0 0
-0.29008410 -0.49135854 0.91142076 10 11 12
-0.29318148 -0.47979047 0.90390000 119 141 143
-0.29402543 -0.44226187 0.85849607 125 140 147
-0.28875816 -0.45137563 0.86403670 125 140 145
-0.28998554 -0.42918116 0.85522119 126 140 146
-0.29012090 -0.41013591 0.85240144 125 139 146
-0.29023748 -0.38978989 0.84771346 123 139 146
-0.28998420 -0.36990747 0.84500114 121 137 147
-0.28991129 -0.34992674 0.84537170 119 135 145
-0.28994432 -0.33004814 0.84590849 116 133 144
-0.28976690 -0.30998664 0.84599135 113 131 143
-0.28993259 -0.28992130 0.84616613 111 128 141
-0.29016536 -0.27011090 0.84779953 108 126 142
-0.29005871 -0.24995976 0.85054227 106 122 140
-0.29002169 -0.22970263 0.85362340 102 119 138
-0.29003864 -0.21003003 0.85624613 98 116 136
-0.29152881 -0.19064178 0.85846172 98 113 135
-0.28313775 -0.18391278 0.86056830 98 110 133
-0.29641574 -0.17601095 0.85953156 94 113 135
-0.28878850 -0.16899883 0.86145685 94 111 133
-0.29030860 -0.15022648 0.86367743 95 111 134
-0.29003688 -0.13041191 0.86873870 88 98 121
-0.28996870 -0.11002520 0.87471945 65 69 86
-0.29000731 -0.08983948 0.87783712 61 65 81
-0.29333993 -0.07848389 0.87962581 62 65 79
-0.28957109 -0.06851006 0.88227323 63 65 82
-0.29008922 -0.05031350 0.89057104 94 98 117
-0.28664850 -0.04091703 0.90005032 147 151 163
-0.29009560 -0.03020177 0.90482113 148 149 156
-0.28981845 -0.00972801 0.90928647 151 150 151
-0.29019390 0.00976363 0.91118225 137 137 138
-0.29014012 0.02928099 0.91229729 136 137 138
-0.29000999 0.05002666 0.91308242 153 153 152
-0.29017555 0.06979341 0.91360369 150 150 149
-0.28968253 0.08971345 0.91399911 148 146 145
-0.28960964 0.11014503 0.91430969 129 131 134
-0.28968461 0.12993238 0.91454640 134 135 138
-0.28974591 0.14972303 0.91473991 143 143 144
-0.28979819 0.17030739 0.91490495 121 124 128
-0.28984022 0.19010162 0.91503765 124 126 130
-0.28987609 0.20989720 0.91515088 125 127 129
-0.28990843 0.23048582 0.91525298 128 131 133
-0.28993587 0.25028373 0.91533962 119 120 123
-0.28995981 0.27008216 0.91541519 118 120 122
-0.28998078 0.28988085 0.91548139 144 146 145
-0.28999900 0.30967951 0.91553893 128 131 135
-0.29001562 0.33027008 0.91559140 135 137 140
-0.29002947 0.35006834 0.91563512 183 184 180
-0.29004154 0.36986624 0.91567322 191 192 186
-0.29005205 0.39045504 0.91570638 198 199 190
-0.29005914 0.41024911 0.91572878 195 196 188
-0.29006158 0.43003722 0.91573646 8 8 8
-0.29006250 0.44982336 0.91573936 0 0 0
-0.29006437 0.46961117 0.91574529 0 0 0
-0.29006664 0.49019129 0.91575243 0 0 0
-0.29006943 0.50998126 0.91576126 0 0 0
-0.29007126 0.52027284 0.91576703 0 0 0
-0.27044064 -0.60820597 0.91284320 0 0 0
-0.26999150 -0.59004074 0.91276039 0 0 0
-0.27015442 -0.56993218 0.91264864 0 0 0
-0.27011379 -0.55013144 0.91251136 0 0 0
-0.27006355 -0.53031781 0.91234156 0 0 0
-0.26999134 -0.50968186 0.91209755 0 0 0
-0.26994339 -0.49042039 0.91145402 12 14 14
-0.27506541 -0.46146587 0.87221683 123 140 145
-0.27802554 -0.46983541 0.88745614 126 137 147
-0.26966805 -0.44989178 0.86635761 126 138 143
-0.27034690 -0.42800481 0.85790740 124 138 143
-0.26763258 -0.43761834 0.86155978 125 138 143
-0.27013547 -0.41034462 0.85478630 124 138 144
-0.27016442 -0.39005705 0.85061601 121 137 144
-0.26991956 -0.36965780 0.84845442 119 135 142
-0.26995024 -0.35020574 0.84870043 118 132 141
-0.26975946 -0.33001235 0.84934285 115 131 140
-0.26971626 -0.30992712 0.84979559 110 128 141
-0.27004222 -0.28988859 0.85076775 110 125 140
-0.26999320 -0.27000050 0.85256462 107 122 138
-0.27004357 -0.24987783 0.85483481 102 118 137
-0.26989849 -0.23002960 0.85754886 100 116 136
-0.27352194 -0.21212568 0.85900759 100 114 134
-0.26527298 -0.20721691 0.86072106 97 112 134
-0.27883570 -0.19790673 0.85977086 96 115 136
-0.26985321 -0.18991254 0.86166248 95 112 132
-0.26991145 -0.16992704 0.86392099 95 109 132
-0.27001011 -0.14974166 0.86643346 95 108 132
-0.27020840 -0.13023228 0.87088982 86 94 116
-0.27008107 -0.11035990 0.87602277 63 66 82
-0.27040564 -0.09147791 0.87875911 61 63 78
-0.26715219 -0.08213520 0.88030339 59 63 77
-0.27005330 -0.06978544 0.88288099 62 63 81
-0.26991811 -0.05053163 0.89080348 92 96 114
-0.26954365 -0.04091813 0.90007458 156 159 170
-0.27001299 -0.03014693 0.90486802 144 145 152
-0.27006734 -0.00996707 0.90927585 149 149 149
-0.26972371 0.00976375 0.91119430 134 134 137
-0.27005455 0.02948585 0.91231194 134 135 137
-0.27028361 0.05002684 0.91308573 151 151 150
-0.27043783 0.06979364 0.91360674 147 146 146
-0.26995695 0.08942139 0.91399620 147 145 144
-0.26985651 0.11014534 0.91431225 126 128 131
-0.26992647 0.12993279 0.91454929 129 130 133
-0.26998354 0.14972348 0.91474264 138 139 142
-0.27003206 0.17030778 0.91490702 111 113 118
-0.27007132 0.19010212 0.91504004 131 133 134
-0.27010460 0.20989764 0.91515279 111 113 116
-0.27013479 0.23048636 0.91525510 118 119 122
-0.27016033 0.25028427 0.91534161 113 115 119
-0.27018272 0.27008284 0.91541749 136 137 138
-0.27020211 0.28988142 0.91548318 116 120 123
-0.27021910 0.30968012 0.91554074 132 133 135
-0.27023455 0.33027068 0.91559308 183 184 179
-0.27024731 0.35006880 0.91563632 197 198 190
-0.27025841 0.36986653 0.91567394 189 190 185
-0.27026805 0.39045512 0.91570657 196 197 189
-0.27027432 0.41024867 0.91572781 169 169 162
-0.27027598 0.43003580 0.91573342 0 0 0
-0.27027693 0.44982204 0.91573667 0 0 0
-0.27027868 0.46960979 0.91574259 0 0 0
-0.27028081 0.49018988 0.91574980 0 0 0
-0.27028347 0.50997990 0.91575882 0 0 0
-0.27028521 0.52027152 0.91576470 0 0 0
-0.24967459 -0.60864486 0.91274697 0 0 0
-0.24965203 -0.59044906 0.91266445 0 0 0
-0.24961970 -0.56986825 0.91254624 0 0 0
-0.24958076 -0.55006665 0.91240387 0 0 0
-0.24953174 -0.53024986 0.91222462 0 0 0
-0.24993341 -0.50980928 0.91197515 0 0 0
-0.25015930 -0.49031015 0.91135985 4 5 5
-0.25391099 -0.46209868 0.87570144 126 138 140
-0.24329885 -0.46685258 0.88471034 122 134 138
-0.24059789 -0.47617280 0.90237266 119 135 138
-0.24992203 -0.45000025 0.86859121 125 137 140
-0.25434798 -0.42505622 0.85916884 121 137 141
-0.24750025 -0.43198813 0.86169069 123 137 141
-0.25014000 -0.40981846 0.85677770 123 135 141
-0.24195820 -0.41966559 0.86008307 120 136 140
-0.25000623 -0.38970312 0.85262599 121 134 141
-0.24985026 -0.36988431 0.85131950 119 133 140
-0.25004073 -0.35003891 0.85187540 118 132 140
-0.25012997 -0.32998070 0.85280289 113 129 138
-0.25021828 -0.30985036 0.85368694 111 125 138
-0.24995831 -0.29013894 0.85497152 107 123 137
-0.24988829 -0.27003297 0.85666660 104 118 135
-0.25141667 -0.25099960 0.85824055 102 116 134
-0.24329568 -0.24319092 0.86062918 102 113 133
-0.25667706 -0.23457677 0.85939113 101 115 133
-0.24822861 -0.22916720 0.86132050 99 114 133
-0.25014654 -0.20994928 0.86270853 98 111 133
-0.25023133 -0.19012524 0.86420879 96 109 132
-0.24983708 -0.17010533 0.86608362 95 107 131
-0.25014274 -0.14997827 0.86857046 94 107 131
-0.24979071 -0.12980620 0.87275851 84 91 111
-0.25021165 -0.10981246 0.87718807 63 64 80
-0.25063731 -0.09404766 0.87925064 61 62 78
-0.24870562 -0.08464002 0.88065943 60 62 76
-0.24996532 -0.07000966 0.88369186 62 63 78
-0.25007656 -0.05050378 0.89124756 89 92 108
-0.25009758 -0.04091819 0.90007571 128 135 146
-0.24992558 -0.03018445 0.90487171 141 143 150
-0.25018595 -0.01000301 0.90928496 148 146 147
-0.25003827 0.00976378 0.91119839 135 135 137
-0.24967109 0.02958998 0.91232081 141 141 144
-0.24976781 0.05002699 0.91308843 152 151 150
-0.24991051 0.06979390 0.91361010 139 138 140
-0.25001772 0.08957099 0.91400202 148 147 145
-0.25010335 0.11014568 0.91431509 130 131 135
-0.25016813 0.12993316 0.91455191 134 135 139
-0.25022083 0.14972379 0.91474455 125 128 133
-0.25026595 0.17030824 0.91490950 127 128 132
-0.25030236 0.19010265 0.91504260 117 119 124
-0.25033314 0.20989818 0.91515513 123 124 127
-0.25036104 0.23048687 0.91525713 112 114 117
-0.25038464 0.25028476 0.91534339 117 119 123
-0.25040536 0.27008332 0.91541914 126 128 130
-0.25042329 0.28988190 0.91548470 132 136 139
-0.25043907 0.30968067 0.91554237 187 188 182
-0.25045332 0.33027119 0.91559448 196 197 189
-0.25046504 0.35006918 0.91563732 199 200 191
-0.25047522 0.36986676 0.91567451 193 194 189
-0.25048401 0.39045515 0.91570664 198 199 191
-0.25048937 0.41024796 0.91572625 135 136 130
-0.25049061 0.43003455 0.91573075 0 0 0
-0.25049149 0.44982071 0.91573396 0 0 0
-0.25049310 0.46960839 0.91573987 0 0 0
-0.25049506 0.49018840 0.91574703 0 0 0
-0.25049756 0.50997841 0.91575615 0 0 0
-0.25049918 0.52027005 0.91576211 0 0 0
-0.22993116 -0.60858320 0.91265450 0 0 0
-0.22990979 -0.59038775 0.91256968 0 0 0
-0.22987972 -0.56980835 0.91245032 0 0 0
-0.22984257 -0.55000576 0.91230286 0 0 0
-0.22979498 -0.53018552 0.91211390 0 0 0
-0.23042812 -0.50970614 0.91185547 0 0 0
-0.22999155 -0.49026948 0.91140013 3 4 4
-0.23614799 -0.46135277 0.87716100 120 135 137
-0.22947174 -0.46933534 0.89213008 125 133 138
-0.23658223 -0.47910272 0.90792501 115 120 128
-0.23007947 -0.44900479 0.86905514 122 135 140
-0.22975387 -0.42920931 0.86235962 122 135 139
-0.23029989 -0.40829757 0.85792385 121 133 139
-0.22938369 -0.41778928 0.86048616 122 134 139
-0.22996080 -0.39013554 0.85448373 119 133 140
-0.22996313 -0.36993453 0.85373184 119 132 139
-0.23004272 -0.34997679 0.85483977 119 130 138
-0.23028254 -0.32982745 0.85614479 113 126 137
-0.22986257 -0.31013272 0.85741272 110 124 137
-0.23062062 -0.29067320 0.85825255 107 121 136
-0.22148787 -0.28494285 0.86034745 107 119 135
-0.23463436 -0.27194587 0.85919807 103 118 134
-0.22583903 -0.26843557 0.86089335 105 117 133
-0.23882222 -0.25688082 0.85979431 101 117 136
-0.22990999 -0.24970242 0.86194656 101 114 134
-0.22941436 -0.22990815 0.86391020 99 112 133
-0.23016312 -0.21013313 0.86538651 97 109 132
-0.23031866 -0.18993822 0.86664701 97 107 132
-0.22993743 -0.16998742 0.86826370 95 106 130
-0.22990193 -0.15019705 0.87074032 93 105 131
-0.22997758 -0.12959840 0.87452328 80 87 108
-0.22989062 -0.10992366 0.87838518 62 63 79
-0.23314774 -0.09719203 0.87967331 59 60 75
-0.22936627 -0.08827061 0.88099075 60 60 75
-0.22989089 -0.07014965 0.88450739 60 61 75
-0.23012397 -0.05055855 0.89148982 86 87 105
-0.23064621 -0.04091731 0.90005646 119 127 141
-0.22996107 -0.03030735 0.90485795 137 139 147
-0.22987623 -0.00989984 0.90931804 137 137 139
-0.23035346 0.00976385 0.91120574 138 138 139
-0.22997523 0.02937621 0.91231536 146 145 146
-0.23004089 0.05002712 0.91309071 149 147 148
-0.23017263 0.06979416 0.91361362 132 132 136
-0.22983118 0.08977518 0.91400883 150 149 148
-0.22955995 0.11014604 0.91431810 137 138 142
-0.22961931 0.12993353 0.91455452 126 126 130
-0.22966756 0.14972413 0.91474667 122 123 127
-0.22970912 0.17030875 0.91491222 124 127 132
-0.22974245 0.19010314 0.91504494 124 125 129
-0.22977067 0.20989869 0.91515737 113 116 120
-0.22979625 0.23048740 0.91525923 120 122 127
-0.22981792 0.25028535 0.91534554 132 135 136
-0.22983686 0.27008387 0.91542099 145 148 152
-0.22985337 0.28988254 0.91548673 195 196 190
-0.22986779 0.30968128 0.91554416 197 198 190
-0.22988071 0.33027160 0.91559564 198 199 190
-0.22989143 0.35006956 0.91563832 200 201 193
-0.22990069 0.36986704 0.91567521 199 200 192
-0.22990861 0.39045519 0.91570673 200 201 192
-0.22991307 0.41024718 0.91572450 99 99 95
-0.22991402 0.43003338 0.91572827 0 0 0
-0.22991479 0.44981942 0.91573133 0 0 0
-0.22991625 0.46960700 0.91573716 0 0 0
-0.22991803 0.49018691 0.91574425 0 0 0
-0.22992030 0.50997681 0.91575328 0 0 0
-0.22992176 0.52026833 0.91575909 0 0 0
-0.21019293 -0.60852498 0.91256718 0 0 0
-0.21017269 -0.59032925 0.91247925 0 0 0
-0.21014483 -0.56975089 0.91235830 0 0 0
-0.21010960 -0.54994694 0.91220527 0 0 0
-0.21006376 -0.53012291 0.91200615 0 0 0
-0.21000277 -0.51027069 0.91174132 0 0 0
-0.20989754 -0.49032763 0.91128446 1 1 1
-0.20963896 -0.47164396 0.89672743 114 134 137
-0.20998322 -0.44971243 0.87082320 121 133 137
-0.21007965 -0.42969243 0.86397232 120 132 137
-0.21140822 -0.40512619 0.85858357 122 132 137
-0.20851640 -0.41498040 0.86126978 121 132 137
-0.20984059 -0.38983420 0.85708633 120 131 138
-0.21018994 -0.36991968 0.85723638 119 131 138
-0.21069017 -0.35034162 0.85839781 116 129 135
-0.20153980 -0.34447274 0.86015421 113 127 135
-0.21392770 -0.33171433 0.85895724 113 126 137
-0.20506042 -0.32733651 0.86073972 113 126 135
-0.21747587 -0.31102619 0.85964824 111 124 136
-0.20741903 -0.30968980 0.86124761 112 123 134
-0.21886492 -0.29769581 0.85988156 113 123 137
-0.20966694 -0.28991768 0.86190310 107 119 134
-0.20993404 -0.26987420 0.86328441 104 116 133
-0.21031962 -0.25007616 0.86485221 101 113 132
-0.21011392 -0.23009947 0.86619617 100 110 132
-0.20960309 -0.20974405 0.86771887 98 109 132
-0.21007426 -0.18992574 0.86898568 97 108 131
-0.21017095 -0.16988054 0.87068413 96 106 130
-0.21013114 -0.14983541 0.87300814 93 104 129
-0.20983630 -0.13008064 0.87599873 80 86 107
-0.21122902 -0.11198210 0.87928588 62 63 77
-0.20691392 -0.10343939 0.88028925 60 59 74
-0.21011698 -0.09022697 0.88150193 59 59 72
-0.21003181 -0.07007644 0.88529979 60 61 73
-0.21010961 -0.05056576 0.89185155 84 86 103
