ply
format ascii 1.0
element vertex 1084
property float x
property float y
property float z
property uchar red
property uchar green
property uchar blue
end_header
-0.98929742 -0.61050974 1.72628511 156 155 146
-0.98157299 -0.59700525 1.69897699 158 158 149
-0.99364213 -0.58921120 1.71473730 159 157 147
-0.99447924 -0.57932061 1.71618187 160 160 151
-0.99700332 -0.57484335 1.72053766 156 156 150
-0.97169006 -0.62270501 1.73373878 53 57 46
-0.97969788 -0.62590656 1.74265254 102 105 93
-0.96373987 -0.63018763 1.76305068 45 44 44
-0.97133315 -0.60129386 1.68629813 160 157 150
-0.97964782 -0.60156769 1.71618187 156 155 144
-0.97042120 -0.60897608 1.72563474 103 106 98
-0.96414202 -0.58527480 1.67381382 158 159 147
-0.97224230 -0.58686340 1.69094280 158 157 148
-0.97063537 -0.58873379 1.71207243 145 147 133
-0.97282712 -0.59681969 1.72102410 143 145 132
-0.96312036 -0.57020197 1.67204014 159 158 148
-0.96845288 -0.57126106 1.69026959 158 157 148
-0.96616884 -0.57730248 1.70496197 154 156 140
-0.96559408 -0.55488339 1.67381722 157 157 151
-0.97183031 -0.55764455 1.68211377 157 156 150
-0.95751256 -0.62157220 1.75165856 44 43 45
-0.95295131 -0.60156769 1.71618187 46 47 48
-0.95071102 -0.60501251 1.72493525 45 46 48
-0.94927096 -0.58232248 1.69897699 56 56 62
-0.95106934 -0.59002165 1.70979721 51 54 54
-0.94050092 -0.59417310 1.72053766 42 43 44
-0.95224836 -0.56453920 1.67244977 138 139 130
-0.94909249 -0.57106157 1.69169132 94 95 90
-0.95754391 -0.57789779 1.70324588 116 118 98
-0.94923905 -0.55454080 1.67087678 154 154 147
-0.94504109 -0.48992774 1.63086603 158 157 149
-0.93811017 -0.58086669 1.69472957 46 46 50
-0.93811521 -0.58488889 1.71078101 44 44 46
-0.92766944 -0.56320555 1.67702945 45 46 46
-0.93106461 -0.57114155 1.68728307 46 46 46
-0.93252060 -0.57789779 1.70324588 44 44 44
-0.92906780 -0.54523052 1.65495108 95 96 90
-0.92891689 -0.55489292 1.66811425 62 63 62
-0.92858219 -0.52386729 1.61531226 156 156 147
-0.92821678 -0.52588045 1.63021471 157 155 148
-0.92977593 -0.53623215 1.64515261 138 137 130
-0.92414358 -0.50832944 1.61206532 157 156 149
-0.92902858 -0.51427013 1.62321158 157 156 149
-0.92093378 -0.49410117 1.59880149 157 157 150
-0.92486065 -0.48984393 1.61045523 156 155 147
-0.92093378 -0.47337568 1.59880149 157 157 150
-0.92615272 -0.47289935 1.60742270 157 157 150
-0.93975908 -0.47736749 1.62175083 158 155 148
-0.91722119 -0.56061453 1.67795014 44 44 44
-0.91949713 -0.56491303 1.68211377 46 45 45
-0.91031798 -0.54550076 1.65555077 45 45 44
-0.91389573 -0.55295990 1.66734873 42 42 44
-0.91035113 -0.52420230 1.63522900 59 57 59
-0.90853410 -0.53286017 1.64665895 48 45 44
-0.91588640 -0.50467072 1.61672471 143 142 133
-0.90961507 -0.51102398 1.62593225 86 86 82
-0.91017914 -0.49032245 1.61438997 124 124 117
-0.90275862 -0.49867079 1.62175083 43 44 46
-0.91091035 -0.46523766 1.59458040 154 154 148
-0.90859817 -0.47441972 1.60742352 141 141 134
-0.90477674 -0.44640370 1.57192892 158 153 149
-0.90766262 -0.45587727 1.58599392 155 154 149
-0.90394139 -0.26452708 1.29368675 38 39 39
-0.90045282 -0.24140283 1.23815966 151 152 143
-0.90330075 -0.24623169 1.25236045 150 151 139
-0.90278150 -0.25376619 1.26238161 109 111 105
-0.90020514 -0.23733927 1.23929036 151 149 142
-0.90162404 -0.23765903 1.24658539 154 151 141
-0.89874858 -0.54393935 1.64937186 41 41 41
-0.88966000 -0.52360599 1.63594034 42 40 41
-0.89403476 -0.53000781 1.64595294 42 40 40
-0.89289462 -0.50923869 1.63130338 42 42 43
-0.89452757 -0.51479496 1.64538240 40 41 41
-0.89335020 -0.48717370 1.61614780 42 42 48
-0.89190964 -0.49309373 1.62616846 42 42 44
-0.89039282 -0.46311346 1.59592476 79 78 74
-0.89063116 -0.47428560 1.60799936 49 47 50
-0.88650084 -0.47736749 1.62175083 42 41 41
-0.88742498 -0.44113325 1.57011682 139 141 137
-0.88867751 -0.45260265 1.58857757 91 91 88
-0.88374549 -0.44801795 1.63741994 40 40 41
-0.89166123 -0.44632914 1.65208642 38 38 40
-0.89325716 -0.42756062 1.55282304 158 154 145
-0.88616946 -0.43228358 1.56875474 151 151 146
-0.88321485 -0.40846223 1.53485644 156 155 147
-0.88914618 -0.41630818 1.54593551 157 155 147
-0.88169276 -0.38854245 1.52609727 160 156 147
-0.88076073 -0.37383977 1.51993692 156 151 144
-0.88010699 -0.37555752 1.52335250 160 155 148
-0.89189643 -0.34154892 1.51653659 47 44 45
-0.88008320 -0.32409263 1.49644995 44 40 43
-0.88726747 -0.33644770 1.50778027 44 41 42
-0.88200164 -0.30397409 1.48660493 41 40 40
-0.88352416 -0.29734210 1.48771795 38 37 39
-0.89293927 -0.26087695 1.27583555 38 39 39
-0.89879560 -0.26079792 1.28632224 36 39 39
-0.89116112 -0.24359658 1.25360232 76 76 73
-0.89039898 -0.25247899 1.26461959 39 41 42
-0.89116890 -0.22487659 1.23738901 146 146 137
-0.88986512 -0.23126930 1.24459346 102 102 95
-0.88246197 -0.20326605 1.21486384 151 152 143
-0.88451053 -0.21652063 1.23098826 138 139 131
-0.88041878 -0.21408655 1.26002204 39 40 42
-0.88088048 -0.19870783 1.21268666 152 152 145
-0.87204881 -0.46487582 1.59429429 44 40 42
-0.87809801 -0.46312493 1.60637879 42 40 43
-0.87233157 -0.44139181 1.57344449 44 48 50
-0.87125719 -0.45118295 1.58598772 43 43 46
-0.87809801 -0.45896021 1.60637879 41 41 44
-0.87651418 -0.44365343 1.62662154 39 40 41
-0.87127357 -0.42084154 1.55777631 93 93 91
-0.87114093 -0.43127658 1.56910717 53 55 57
-0.86557070 -0.43257337 1.58262877 42 43 45
-0.86641475 -0.43105466 1.61276449 38 38 40
-0.86832857 -0.40246139 1.53246335 149 148 140
-0.86826462 -0.41233038 1.54603172 113 110 105
-0.86683898 -0.38611517 1.51495134 157 155 147
-0.86855398 -0.39422875 1.52495465 155 154 146
-0.86129260 -0.37795004 1.49976075 159 155 147
-0.86813885 -0.37360913 1.51364688 157 154 146
-0.86388481 -0.35850844 1.49976075 157 153 146
-0.87725656 -0.32789034 1.49604160 44 40 42
-0.86750172 -0.30371395 1.47288918 40 39 40
-0.87172371 -0.31682149 1.48660493 41 39 42
-0.86555245 -0.29341530 1.46866640 40 39 40
-0.87531377 -0.24191988 1.25271188 38 38 38
-0.87824094 -0.24675424 1.26002204 38 38 38
-0.86938029 -0.22213449 1.23896730 41 40 41
-0.87452288 -0.23016371 1.24806212 38 37 40
-0.87359977 -0.20592964 1.19980860 152 152 143
-0.87056327 -0.20406383 1.20800818 139 141 132
-0.87177870 -0.21299382 1.23312484 58 59 58
-0.87289687 -0.21573116 1.24829370 38 38 39
-0.86340374 -0.19130612 1.19607422 151 151 145
-0.87140346 -0.19674045 1.20450385 151 150 144
-0.86128092 -0.17874207 1.19137406 148 149 142
-0.85589842 -0.44428504 1.57405980 41 41 43
-0.85006028 -0.42908303 1.55837202 40 40 43
-0.85304072 -0.42881702 1.56899476 41 41 43
-0.85010195 -0.43101879 1.59036371 40 40 40
-0.85940254 -0.43433076 1.60258114 40 40 40
-0.85031909 -0.40251440 1.53612639 47 49 47
-0.84992027 -0.41129394 1.54904712 44 42 44
-0.85743666 -0.38386673 1.49755355 158 157 148
-0.85695668 -0.38559050 1.51965356 152 152 146
-0.84948492 -0.39073913 1.52597495 69 66 64
-0.85737365 -0.37263700 1.49551029 158 155 147
-0.85276853 -0.37573391 1.51634548 122 125 116
-0.84719461 -0.37994584 1.52335250 44 47 41
-0.84737500 -0.30351656 1.45367408 43 40 41
-0.84280553 -0.30125833 1.46097374 42 41 41
-0.84413540 -0.28730309 1.43849853 40 39 40
-0.84608475 -0.29079161 1.45147965 40 39 40
-0.84154296 -0.29115763 1.46097374 42 41 40
-0.84505893 -0.27364154 1.43016429 41 36 38
-0.85462619 -0.20167627 1.20888050 69 72 68
-0.85691545 -0.20379731 1.22437437 40 40 41
-0.84974966 -0.18883448 1.19151417 97 97 93
-0.85115997 -0.19869079 1.20622087 40 42 38
-0.84312394 -0.16668840 1.17894232 143 144 138
-0.84971411 -0.17479121 1.18625183 127 128 121
-0.83600803 -0.38108055 1.51738667 51 42 46
-0.83898726 -0.39180170 1.52678605 46 40 44
-0.83657086 -0.37716987 1.51484400 48 45 46
-0.82723076 -0.32729406 1.45211655 49 49 52
-0.83035739 -0.33516968 1.46202556 54 54 58
-0.83532864 -0.30231580 1.43015579 42 41 41
-0.82652459 -0.30921207 1.44762953 45 44 46
-0.82670015 -0.29488610 1.41818380 41 40 40
-0.83292554 -0.29074697 1.42964002 42 39 40
-0.82834292 -0.29133845 1.44823383 44 43 44
-0.82857455 -0.27027255 1.41415760 41 37 39
-0.82806265 -0.27143454 1.43212717 42 39 41
-0.83219235 -0.27093054 1.44577477 42 39 42
-0.82527140 -0.24794883 1.43655609 43 40 42
-0.83299800 -0.25338973 1.44456203 42 40 41
-0.82156430 -0.22896071 1.42628949 42 38 40
-0.82032758 -0.21489511 1.42414248 39 38 40
-0.83617442 -0.18629455 1.18815354 40 40 42
-0.82877292 -0.16707827 1.17263993 50 51 55
-0.83009314 -0.17415877 1.18414970 39 39 40
-0.82469733 -0.15210916 1.15330143 127 128 120
-0.82753497 -0.15937671 1.16276479 86 88 91
-0.80415952 -0.32165751 1.43926084 143 142 147
-0.81007419 -0.32793962 1.44592080 97 97 98
-0.80291568 -0.31377995 1.43926084 141 140 138
-0.80915459 -0.30864859 1.44406504 100 93 100
-0.80951594 -0.29081322 1.44691410 104 99 102
-0.80947129 -0.26495898 1.39157256 43 38 40
-0.81645179 -0.26782913 1.40060294 42 38 40
-0.81086949 -0.26961151 1.43362650 51 48 53
-0.81584223 -0.27996191 1.44232309 47 46 48
-0.80939043 -0.25789504 1.39054883 42 38 41
-0.81082405 -0.24705810 1.41313621 44 41 43
-0.80772672 -0.25076639 1.42530051 48 44 49
-0.80027336 -0.22540239 1.39771509 43 40 42
-0.80461771 -0.23107572 1.41170377 45 41 42
-0.81192605 -0.23527718 1.42235365 45 42 44
-0.80027336 -0.21010209 1.39771509 41 39 41
-0.80709934 -0.20933396 1.41154494 41 39 40
-0.81860781 -0.20953189 1.42115688 38 37 39
-0.80464582 -0.19358730 1.40475418 40 39 39
-0.81689048 -0.16528410 1.16994948 37 36 41
-0.80103755 -0.17189954 1.39483917 41 37 40
-0.80899384 -0.14246742 1.13740402 92 96 90
-0.81115070 -0.15009092 1.15169237 49 49 51
-0.81427677 -0.15773553 1.16176927 41 38 45
-0.80096060 -0.12819269 1.11863339 145 143 138
-0.80553750 -0.13551437 1.12775425 124 127 120
-0.79503810 -0.32248672 1.43926084 153 154 146
-0.79714519 -0.32608129 1.44232309 153 154 146
-0.79130477 -0.31114387 1.43895591 157 156 147
-0.79401757 -0.30758798 1.44659085 157 155 148
-0.78954458 -0.28651951 1.43926084 157 156 148
-0.79369743 -0.29162031 1.44695494 158 155 148
-0.78954950 -0.26973061 1.42927741 150 148 145
-0.78339532 -0.24558942 1.41818380 144 142 137
-0.79116399 -0.25181482 1.42458480 132 127 127
-0.79862666 -0.22011687 1.39483917 43 39 40
-0.79050198 -0.22932839 1.41180624 95 88 91
-0.79849847 -0.20772973 1.39531849 38 37 37
-0.79082944 -0.20989394 1.40646099 71 66 68
-0.79309990 -0.18792344 1.39419571 43 41 42
-0.79014271 -0.19212303 1.40379099 58 56 58
-0.78451908 -0.16189881 1.37643439 40 39 40
-0.78694974 -0.17128508 1.38978045 43 41 43
-0.79804534 -0.14237791 1.13931406 37 38 38
-0.79672078 -0.14690361 1.14638581 35 35 37
-0.78381914 -0.15729926 1.37260708 42 41 41
-0.79445570 -0.12543763 1.11744999 97 96 94
-0.79543736 -0.13455354 1.12778506 48 49 49
-0.79347128 -0.13768628 1.14123201 36 36 37
-0.76787096 -0.28017879 1.41818380 159 160 152
-0.77610540 -0.28788071 1.43053746 158 157 150
-0.76307124 -0.26752424 1.41032000 159 158 152
-0.77566972 -0.26876527 1.42543375 158 157 151
-0.77372796 -0.24516513 1.41769034 159 158 150
-0.77666849 -0.25016097 1.42372138 159 157 149
-0.77237615 -0.22877411 1.40987160 159 155 150
-0.77439344 -0.23470952 1.42115688 157 157 151
-0.76826347 -0.21090737 1.39771509 160 154 148
-0.77132624 -0.20921085 1.40447024 159 153 148
-0.77151892 -0.18632921 1.39536475 147 144 136
-0.76969952 -0.19312736 1.40411440 158 155 148
-0.77459854 -0.16027734 1.37782896 47 43 46
-0.76966712 -0.16866233 1.38832642 118 117 117
-0.76203279 -0.17289777 1.40292284 156 155 150
-0.76979048 -0.15492985 1.37564430 80 78 81
-0.76525910 -0.02588411 1.07266026 48 47 49
-0.76376778 -0.00472884 1.05684830 37 37 39
-0.76582992 -0.01468623 1.06708437 40 39 41
-0.76356174 0.01008964 1.05536106 38 36 38
-0.77037237 0.00587430 1.06308238 40 36 38
-0.75678825 -0.24593701 1.39771509 159 159 151
-0.75743414 -0.25273234 1.40189177 159 158 150
-0.75485869 -0.23204987 1.39536742 158 158 151
-0.75271899 -0.20945717 1.39019957 159 154 150
-0.75293808 -0.18828163 1.38912910 160 157 149
-0.75532763 -0.16719256 1.38618265 156 155 150
-0.75697571 -0.15551441 1.37782896 155 155 151
-0.75358261 -0.15740566 1.38548682 157 157 151
-0.74420827 -0.06415396 1.31658596 158 156 148
-0.74288982 -0.06121513 1.32142663 156 155 143
-0.75696416 -0.04194241 1.07601881 151 147 145
-0.74505983 -0.05034581 1.31442019 156 155 149
-0.75136364 -0.05062846 1.32198040 155 155 149
-0.75490036 -0.02877546 1.07332051 145 142 139
-0.74549186 -0.03120194 1.31013144 157 155 149
-0.75578296 -0.03845030 1.32400751 158 155 149
-0.74807532 -0.00573568 1.05141676 69 64 68
-0.75139678 -0.01511393 1.06763856 127 124 121
-0.74253766 -0.00970309 1.30475448 159 156 149
-0.74764213 0.00860125 1.04797331 50 44 50
-0.74047834 0.00494317 1.30113602 160 157 150
-0.74702319 0.02232172 1.04453323 44 43 45
-0.74621839 0.17777036 1.26777184 32 27 30
-0.74509494 0.18217276 1.27065349 32 27 29
-0.72435233 -0.52151799 1.47688854 47 44 47
-0.72656091 -0.52769037 1.48227235 45 44 50
-0.72072506 -0.51007515 1.45158851 41 40 42
-0.72401153 -0.51217940 1.47069570 42 41 44
-0.72432870 -0.51023732 1.48119275 40 40 43
-0.72153699 -0.48792123 1.42714387 42 38 39
-0.72878950 -0.06463712 1.31555409 95 97 92
-0.72927502 -0.05046634 1.31487766 104 106 103
-0.73095023 -0.02310346 1.29740467 159 156 149
-0.73040707 -0.03108530 1.30476390 152 148 140
-0.73018369 -0.00811215 1.04821448 155 148 143
-0.73874909 -0.01341000 1.06252635 153 150 142
-0.72523791 -0.00950448 1.27823826 159 156 149
-0.72764973 -0.00995839 1.29566510 159 155 148
-0.73277022 0.01922497 1.03971136 121 117 116
-0.73526912 0.00861752 1.04629501 134 126 126
-0.72595048 0.01030393 1.28957608 157 155 147
-0.73138766 0.02373313 1.03812091 115 113 111
-0.73839539 0.02375404 1.04130852 31 29 32
-0.72183016 0.02647818 1.27835296 155 154 148
-0.72299907 0.02519467 1.28489302 156 155 148
-0.72440448 0.17698996 1.25509935 32 29 30
-0.73238419 0.17394788 1.26576832 32 29 31
-0.73683977 0.18094455 1.26590556 32 28 29
-0.71171566 -0.52392896 1.47648720 47 47 50
-0.71168815 -0.52983343 1.48127088 58 57 62
-0.71749717 -0.50007045 1.43015158 41 41 43
-0.71156757 -0.50513474 1.45036907 42 41 44
-0.71100861 -0.51449983 1.46779229 45 43 45
-0.71394420 -0.48853213 1.41818380 42 39 40
-0.71404278 -0.49421405 1.42654951 40 39 41
-0.71935976 -0.49676743 1.46412921 40 40 40
-0.70363986 -0.47181782 1.39771509 41 40 40
-0.71157227 -0.47671756 1.40862584 40 40 40
-0.71480464 -0.06661251 1.31524965 36 39 41
-0.71011727 -0.06667794 1.32408794 34 35 38
-0.71170764 -0.04878176 1.31511190 37 38 42
-0.71063372 -0.05414811 1.32453688 33 35 38
-0.71160694 -0.02448296 1.29856811 57 55 56
-0.70931616 -0.03322800 1.30587476 41 37 41
-0.71334826 -0.00725983 1.03466951 153 150 143
-0.70966985 -0.00955563 1.29558128 66 63 64
-0.70224690 -0.01754591 1.30113602 39 37 44
-0.70958840 0.00670308 1.02935405 156 149 142
-0.70936579 0.01046831 1.28954475 85 84 82
-0.71991366 0.03353530 1.27663243 157 157 150
-0.71008479 0.02868030 1.28506526 108 108 102
-0.70399023 0.17255603 1.22955213 32 30 31
-0.71607210 0.17607000 1.24688971 32 29 30
-0.69922756 -0.52532710 1.46968555 67 67 70
-0.69501013 -0.50757119 1.45159519 46 44 45
-0.69508284 -0.51589823 1.46097374 47 47 47
-0.69774746 -0.06933908 1.31431181 33 33 36
-0.68300919 -0.04766226 1.29451128 33 33 34
-0.69786075 -0.04757684 1.31444403 33 33 35
-0.69949424 -0.04636927 1.32142663 33 33 33
-0.69095495 -0.02372849 1.29651775 35 34 36
-0.69521855 -0.03118073 1.30656220 35 34 35
-0.69085679 -0.00819293 1.29369256 36 34 37
-0.69287123 -0.01312522 1.30216744 34 33 36
-0.69021544 0.01039441 1.29090480 36 35 37
-0.69518552 0.03470393 1.27904117 42 41 42
-0.69191303 0.02708161 1.28465278 38 37 39
-0.68073899 0.15905422 1.19980860 33 31 35
-0.68191107 0.15561946 1.20800630 35 32 34
-0.68317994 0.16964305 1.19954363 32 29 31
-0.68390108 0.16958456 1.20974381 34 31 33
-0.68168205 0.18163358 1.20514202 32 30 33
-0.67484689 -0.06256770 1.27904117 34 34 37
-0.67901111 -0.05127616 1.28693363 32 32 34
-0.66707771 -0.02933631 1.26885372 34 33 34
-0.67897496 -0.03152500 1.28806908 34 33 34
-0.66878633 -0.00887384 1.27557947 34 32 34
-0.67997885 -0.00290018 1.28876781 34 32 34
-0.66958237 0.00154121 1.27743534 34 33 35
-0.67636982 0.00637976 1.28755275 34 33 35
-0.67207310 0.15249067 1.19914617 35 33 36
-0.66676260 0.15525987 1.20346126 39 37 41
-0.66800838 0.17187056 1.19766669 36 33 37
-0.66727648 0.16356658 1.20249771 37 36 39
-0.66632742 0.18783762 1.19612804 34 34 35
-0.67851340 0.18445978 1.20321684 32 31 33
-0.64656949 0.15383003 1.19813260 157 156 149
-0.65174030 0.15532691 1.20371846 138 136 135
-0.64849292 0.17121416 1.19803430 136 133 130
-0.64755762 0.16424504 1.20367382 141 141 136
-0.65080027 0.18960627 1.19536956 100 98 97
-0.65483498 0.20276312 1.19519372 58 53 59
-0.63287574 0.15849318 1.19557643 157 157 148
-0.63907542 0.15536632 1.20335917 158 156 147
-0.63627827 0.17245013 1.19769624 158 155 148
-0.63864349 0.16802525 1.20254586 157 155 147
-0.63828468 0.18424532 1.19642138 156 154 149
-0.62373890 0.21394355 1.10565586 51 51 51
-0.63484412 0.21861947 1.12233746 51 50 50
-0.62046254 0.22883432 1.09691238 44 41 44
-0.62549988 0.22511179 1.10769207 47 43 47
-0.60387764 0.19207087 1.07332780 42 40 40
-0.60968769 0.19751896 1.08116722 44 45 41
-0.60320313 0.20877560 1.07549827 53 51 52
-0.61219153 0.20978026 1.08760201 51 50 50
-0.60472776 0.23095552 1.07590202 41 41 43
-0.61465141 0.23125417 1.09191855 42 41 43
-0.58905425 0.17881861 1.05535893 41 37 38
-0.59273726 0.17914075 1.06086361 41 37 38
-0.58814374 0.18757250 1.05439559 46 43 44
-0.59563555 0.19197527 1.06531812 44 43 42
-0.58804470 0.20907304 1.05463978 54 53 54
-0.59782793 0.20855059 1.06960718 55 53 54
-0.59925997 0.23784393 1.06923008 40 39 41
-0.57910115 0.19954276 1.04291058 57 56 55
-0.57778126 0.20865665 1.03891528 56 55 56
-0.57939859 0.20325227 1.04344622 61 60 57
-0.54054540 -0.20051627 1.08116722 164 164 157
-0.54266911 -0.19632614 1.08744510 162 162 153
-0.52569166 -0.20206270 1.07944560 162 161 156
-0.53528223 -0.20368644 1.08240165 162 161 156
-0.52019894 -0.19987869 1.07772946 164 161 153
-0.52946188 -0.19437356 1.08911841 162 161 153
-0.51822871 -0.20019697 1.07944560 165 162 154
-0.51625216 -0.20051627 1.08116722 164 163 155
-0.51770751 -0.19603344 1.08860759 164 161 154
-0.46200452 -0.20179352 0.61837351 35 34 36
-0.46168517 -0.19038979 0.61741944 34 33 35
-0.44476799 -0.30196818 0.94282958 41 38 39
-0.44021010 -0.29827882 0.93890840 40 36 37
-0.44673500 -0.28914468 0.94555396 38 35 36
-0.45096102 -0.27392508 0.94524781 36 35 37
-0.44682604 -0.22150509 0.60364366 39 38 38
-0.44342435 -0.20837501 0.59875708 35 35 37
-0.45285985 -0.21360650 0.60870133 35 34 36
-0.44302883 -0.19226588 0.59833401 37 36 37
-0.45047520 -0.18742760 0.60605795 36 34 36
-0.44451513 -0.17138897 0.59832446 34 34 36
-0.45171367 -0.17477216 0.60613292 35 34 36
-0.44460739 0.18904744 0.81807275 43 42 43
-0.45106805 0.19586018 0.82293547 39 39 42
-0.45416302 0.20814135 0.82927206 37 35 38
-0.43696445 -0.29827882 0.93890840 41 37 38
-0.43839419 -0.29058401 0.94291517 39 35 36
-0.42154872 -0.02012473 0.57351255 35 34 36
-0.42258567 -0.00811571 0.57581221 34 33 35
-0.42745596 -0.00130783 0.58154929 34 33 35
-0.42160343 0.00268412 0.57584254 37 33 35
-0.42972957 0.00171718 0.58464250 36 32 35
-0.43805416 0.18588420 0.81249936 47 45 45
-0.41745422 -0.02157700 0.57170767 36 35 37
-0.41865296 -0.01131012 0.57341785 36 34 36
-0.41550960 0.01107084 0.57009411 37 36 38
-0.41135551 0.02162239 0.56362085 44 43 47
-0.38234929 -0.34608143 0.79762929 162 161 150
-0.38692233 -0.34207682 0.80137037 160 160 151
-0.38153018 -0.33739189 0.79902412 160 161 152
-0.38666614 -0.33692565 0.80259025 159 160 151
-0.38589682 -0.04587969 0.53470192 42 40 43
-0.38204705 -0.03341150 0.53302375 43 41 47
-0.37772322 -0.34617626 0.79742483 161 161 152
-0.37662739 -0.34855595 0.80034459 162 162 153
-0.37824064 -0.33736860 0.79733325 160 161 152
-0.37596143 -0.04250350 0.53144791 129 123 121
-0.37639128 -0.03291142 0.53220598 124 121 119
-0.32524821 -0.46758175 1.25619222 103 109 122
-0.32209985 -0.47696169 1.26119524 102 108 121
-0.32840462 -0.45158848 1.25342631 101 110 121
-0.33523128 -0.45727935 1.26002204 105 111 125
-0.31533399 -0.47063285 1.25661005 104 108 123
-0.31820261 -0.47747289 1.26158631 102 108 119
-0.31952562 -0.44461223 1.24689249 96 110 122
-0.16257645 0.03346961 0.52279401 29 27 30
-0.16198355 0.04189166 0.52150330 28 25 28
-0.16647375 0.19530137 0.77192394 77 74 75
-0.16282811 0.20385303 0.75682893 82 79 80
-0.16755356 0.20330172 0.76740072 76 74 74
-0.14295474 -0.04335264 0.50578681 83 73 71
-0.14290461 -0.03909575 0.50357798 90 77 77
-0.14287001 0.01714264 0.49889473 112 87 80
-0.15331995 0.01974377 0.50326043 33 33 35
-0.14359087 0.02085077 0.49967476 109 85 75
-0.15372875 0.02822399 0.50915377 40 35 36
-0.14270551 0.04696254 0.49274749 52 41 43
-0.15793294 0.04221629 0.51474021 27 25 28
-0.14789199 0.19477422 0.73437030 76 76 77
-0.15501421 0.19603662 0.75199481 81 80 80
-0.15888462 0.19377153 0.76564238 83 81 81
-0.14899299 0.20274406 0.73781454 75 70 73
-0.15599213 0.20372786 0.74834455 76 74 75
-0.13759227 -0.04390232 0.50661663 54 54 58
-0.13710951 -0.03733190 0.50434890 53 54 63
-0.13999885 0.01526984 0.49918398 123 101 94
-0.13566613 0.04647680 0.49176936 87 73 73
-0.06600976 0.09423167 0.50866615 87 83 86
-0.06579961 0.10130042 0.50903051 94 91 93
-0.05692018 0.09679279 0.50790055 124 120 118
-0.05661271 0.10126459 0.51120571 165 162 155
-0.04367039 0.37331092 0.89486134 115 108 106
-0.04681179 0.37121086 0.90423604 137 132 126
-0.02219477 0.27449730 0.75855198 93 86 84
-0.02540515 0.36787150 0.87696640 93 85 81
-0.02957524 0.37421063 0.88842236 74 68 65
-0.03935921 0.36412176 0.90145195 121 113 108
-0.00526664 0.14732504 0.49482362 138 131 125
-0.00251496 0.25938759 0.82594277 138 134 123
-0.00195927 0.27750250 0.73873740 102 98 99
-0.01004890 0.27272768 0.75042444 114 109 106
-0.00912466 0.27397587 0.76196311 122 120 119
-0.00683860 0.26856058 0.83255940 135 127 125
-0.00033380 0.28071541 0.73924953 113 110 108
-0.00381835 0.28208672 0.74237482 106 102 101
-0.01640142 0.36666788 0.87498654 82 77 74
-0.01662883 0.37413194 0.88368539 17 16 14
0.00343737 0.14575209 0.49670993 130 124 120
0.00732585 0.14559097 0.50096722 134 126 121
0.00787877 0.19443508 0.62896010 108 102 98
0.00569883 0.20283190 0.62802111 117 113 107
0.00707448 0.27772233 0.73876637 107 106 100
0.01003632 0.27686012 0.74409583 107 100 96
0.00105538 0.26457607 0.82653202 139 132 128
0.01540612 0.28624986 0.73624888 110 100 96
0.01188224 0.28270113 0.74256047 116 107 103
0.03855229 0.19535617 0.51919402 94 91 88
0.03810645 0.19359773 0.52073541 105 99 93
0.02576346 0.27872392 0.71874119 67 64 65
0.02548327 0.27852776 0.72083332 61 58 59
0.02549467 0.28188252 0.71703192 104 98 98
0.02343319 0.28288931 0.72386458 90 81 82
0.02018712 0.28628054 0.74208748 84 76 70
0.05477506 0.01096223 0.49630458 130 127 130
0.05006492 0.13988774 0.45803525 78 72 74
0.05625787 0.14371145 0.45752502 93 90 90
0.05247145 0.14379238 0.46039937 82 77 80
0.04607928 0.19210700 0.51372028 112 106 104
0.04374213 0.19849494 0.52090167 119 112 113
0.04969026 0.20373989 0.51890268 109 100 98
0.04924936 0.20760877 0.52248526 109 104 99
0.07828315 -0.40376256 0.93890840 81 85 89
0.07927761 -0.40388441 0.94108117 84 88 94
0.06048143 0.13980663 0.45012739 120 119 115
0.06371638 0.14047541 0.45102774 99 93 90
0.07228596 0.23917468 0.71810660 127 112 99
0.07321605 0.23894571 0.72116154 125 113 99
0.07450597 0.25109218 0.71760078 120 110 101
0.07530805 0.25042287 0.72287346 120 112 107
0.07481526 0.26513839 0.71370268 107 101 96
0.06976435 0.26179209 0.72417811 134 125 121
0.07817654 0.26578239 0.97820094 139 132 134
0.07760429 0.26680299 0.98983295 134 128 129
0.07592277 0.26852855 1.00428426 129 120 121
0.07984545 0.28083104 0.71357036 75 65 66
0.07966083 0.29020992 0.72308978 81 77 78
0.07859164 0.53640887 1.99968100 104 98 100
0.07561883 0.55025095 1.99156926 119 116 116
0.07767513 0.56602114 1.97636104 119 112 108
0.07524453 0.56834882 1.98963789 126 118 111
0.07859164 0.58306873 1.99968100 91 84 84
0.08914438 -0.40367388 0.93284208 87 88 92
0.09269877 -0.39713251 0.93388488 86 87 95
0.08917867 0.23704633 0.71172763 110 109 110
0.08601165 0.23830767 0.72350759 67 66 69
0.08668607 0.25058455 0.71500512 96 94 94
0.08378702 0.25152371 0.72165803 83 80 82
0.09152551 0.25797595 0.93535144 124 112 109
0.09004904 0.25645181 0.94892783 132 122 118
0.08798248 0.25807729 0.96520001 135 126 126
0.08957249 0.26598096 0.69787169 118 112 104
0.08466480 0.27011728 0.70498199 101 93 93
0.09125301 0.26411479 0.93502971 90 85 87
0.08757568 0.26631258 0.95149084 93 89 89
0.08503315 0.26667963 0.96897456 117 111 113
0.08185502 0.26504555 0.98174104 140 131 134
0.08450929 0.28661178 0.70876984 101 94 92
0.08089573 0.29139791 0.72295657 79 76 77
0.09414607 0.47370929 1.71618187 129 122 118
0.09164381 0.47612002 1.72491562 133 124 123
0.09097986 0.48704301 1.77000087 132 126 126
0.08931738 0.49321881 1.79812157 129 123 123
0.08786566 0.49673553 1.81094253 132 127 127
0.08760370 0.50435355 1.82720172 135 128 126
0.08550774 0.50970272 1.85049963 131 127 125
0.08437364 0.51581872 1.87265793 132 128 128
0.08074117 0.51142059 1.88828790 113 109 109
0.08661591 0.53039899 1.90956962 136 130 127
0.08567503 0.53490585 1.92582905 138 130 127
0.08027217 0.53494138 1.95640188 114 112 114
0.08062101 0.53047618 1.96490383 108 103 104
0.08943343 0.54860125 1.95600321 130 122 119
0.08583583 0.55368780 1.97114418 132 125 121
0.08132821 0.55739826 1.98213995 139 133 126
0.09393345 0.56111348 1.95922494 98 84 87
0.08613319 0.56547434 1.97444598 109 100 101
0.08940834 0.57394774 1.98407749 88 84 85
0.08771303 0.58381534 1.99380449 81 79 83
0.10293857 -0.40141089 0.93437928 85 89 93
0.10372251 -0.39690454 0.93270853 84 89 95
0.10476909 0.09805379 0.47881115 117 107 102
0.10835928 0.09561565 0.48385017 118 112 111
0.10509704 0.10042579 0.47901013 89 81 84
0.11073167 0.10052417 0.48295662 115 113 111
0.13753884 0.05392371 0.65802653 95 90 91
0.15320315 -0.32594222 0.87779046 81 85 88
0.14665813 -0.32892456 0.88120906 82 83 88
0.15306933 -0.31899700 0.87620695 77 85 86
0.15328959 0.03893310 0.66712993 108 104 104
0.14160644 0.05465998 0.65906185 112 104 105
0.15238611 0.05047170 0.66517803 106 101 101
0.15342376 0.06089872 0.66395178 98 92 92
0.16428993 -0.32546743 0.87310131 80 82 89
0.16376241 -0.31973034 0.87132627 86 86 92
0.16268910 0.05374421 0.66749205 109 104 104
0.16195834 0.06148731 0.66525747 98 91 90
0.16808358 0.20895121 0.45499595 0 0 0
0.17124149 0.21590771 0.47014388 0 0 0
0.17521017 0.22465025 0.48918094 0 0 0
0.17885482 0.23267899 0.50666371 0 0 0
0.18078019 0.23692037 0.51589942 0 0 0
0.18210593 0.23984081 0.52225876 0 0 0
0.18416134 0.24436864 0.53211817 0 0 0
0.18776549 0.25230816 0.54940667 0 0 0
0.19080150 0.25899616 0.56396991 0 0 0
0.19320238 0.26428500 0.57548651 0 0 0
0.19655272 0.27166539 0.59155747 0 0 0
0.19918449 0.27746290 0.60418171 0 0 0
0.18466592 0.87452334 1.88303292 0 0 0
0.18984897 0.91519886 1.97061586 0 0 0
0.21719023 0.21710246 1.19515696 123 118 115
0.21499319 0.22909275 1.19552232 122 116 116
0.21551195 0.23620184 1.20193589 112 101 104
0.21755070 0.24195206 1.19161121 101 100 99
0.20100662 0.28147683 0.61292207 0 0 0
0.20384798 0.28773603 0.62655166 0 0 0
0.20782918 0.29650614 0.64564878 0 0 0
0.21206071 0.30582769 0.66594669 0 0 0
0.21656695 0.31575443 0.68756235 0 0 0
0.23249772 -0.16129623 0.45052643 83 84 87
0.23083342 -0.15717362 0.45031688 83 86 87
0.23027501 0.17683534 0.67891037 137 132 131
0.23133076 0.17902171 0.68277361 132 129 127
0.22394811 0.18527480 0.51985568 102 103 95
0.22556907 0.19386044 0.52583576 103 98 94
0.23152100 0.18446758 0.68696739 122 117 117
0.23424806 0.20126503 0.52819968 122 115 108
0.22092928 0.21713222 1.19305353 140 134 127
0.22508383 0.23326285 1.19510916 130 123 121
0.23211640 0.23291815 1.20568473 134 125 122
0.23173820 0.24058588 1.19277239 101 96 95
0.22137557 0.32634723 0.71062842 0 0 0
0.22518799 0.33474556 0.72891593 0 0 0
0.22922552 0.34363979 0.74828333 0 0 0
0.23345780 0.35296300 0.76858485 0 0 0
0.23641813 0.35948426 0.78278506 0 0 0
0.23948991 0.36625102 0.79751980 0 0 0
0.25321644 0.07869976 0.45218272 126 119 113
0.25212568 0.08290842 0.45091889 135 130 124
0.24961938 0.12485302 0.47435539 132 127 123
0.24819227 0.17970173 0.70712578 106 98 100
0.24579794 0.18873286 0.69570235 138 131 125
0.24740903 0.18678086 0.70331428 131 125 120
0.24187158 0.23758462 1.21432441 118 106 103
0.24267955 0.37327743 0.81281996 0 0 0
0.24599396 0.38057870 0.82871866 0 0 0
0.24944063 0.38817129 0.84525168 0 0 0
0.25302762 0.39607298 0.86245781 0 0 0
0.25676367 0.40430307 0.88037902 0 0 0
0.26623653 0.19529302 0.93503087 139 134 133
0.26566637 0.19392462 0.95070220 132 124 123
0.26427871 0.19544363 0.96567591 109 103 102
0.27280253 0.20519618 0.93538554 134 130 128
0.27260375 0.21235328 0.94776404 122 116 116
0.26934246 0.21703725 0.96723716 105 97 96
0.27866099 0.22162560 0.94843803 108 103 105
0.27111385 0.22271195 0.97185126 97 89 89
0.27083014 0.22299354 0.98712695 132 122 117
0.26065826 0.41288245 0.89906079 0 0 0
0.26472175 0.42183384 0.91855264 0 0 0
0.26896533 0.43118194 0.93890840 0 0 0
0.27340126 0.44095379 0.96018672 0 0 0
0.27804291 0.45117879 0.98245192 0 0 0
0.29411615 0.14976221 0.59241149 134 130 127
0.28078181 0.21041610 0.93502501 141 135 134
0.28148904 0.21704335 0.94708082 133 125 125
0.28156068 0.22083529 0.94854560 119 114 116
0.28290495 0.46188927 1.00577426 0 0 0
0.28800341 0.47312063 1.03023076 0 0 0
0.29335603 0.48491180 1.05590630 0 0 0
0.29898223 0.49730569 1.08289433 0 0 0
0.30265817 0.14945935 0.59338478 145 137 130
0.30857200 0.15228242 0.75490011 133 126 124
0.31550836 0.15442190 0.76292645 120 115 113
0.31133491 0.16223557 0.75676954 119 115 111
0.31763813 0.16209064 0.76240253 110 108 105
0.30875617 0.42815553 1.13788193 115 112 106
0.30984247 0.43305941 1.15045992 106 101 99
0.31078199 0.43564015 1.16578746 100 94 96
0.31003761 0.44939898 1.15713087 89 87 88
0.31163153 0.45141087 1.16587565 83 82 83
0.31491844 0.44080982 1.18512923 93 89 90
0.31853606 0.45343271 1.21058291 83 78 81
0.31566154 0.45873221 1.23618907 71 70 71
0.31596495 0.45750935 1.24156010 72 72 73
0.30876235 0.46274992 1.15766050 124 123 117
0.30794959 0.46694690 1.16993303 125 122 118
0.30745252 0.46975803 1.18639135 124 120 117
0.30919466 0.46957798 1.21632699 99 96 94
0.31144662 0.46913250 1.23358865 96 92 89
0.31234349 0.47026774 1.25232949 97 93 90
0.31144190 0.46735901 1.26236844 105 100 99
0.31231685 0.48269229 1.24842246 121 118 112
0.31304088 0.48282416 1.26002204 109 107 103
0.30490363 0.51034981 1.11129808 0 0 0
0.31114396 0.52409661 1.14123201 0 0 0
0.31772983 0.53860444 1.17282331 0 0 0
0.33898374 0.07808362 0.45958778 88 87 84
0.33484748 0.07660975 0.46222767 87 86 85
0.33790076 0.06496819 0.76776439 110 104 99
0.33912019 0.08246080 0.45896557 120 116 111
0.33539592 0.08263010 0.46355924 127 124 117
0.32300920 0.15634114 0.75796244 98 89 90
0.32393188 0.15543383 0.76244294 91 88 87
0.32322879 0.16461532 0.75658195 123 115 115
0.32240417 0.16163578 0.76216829 103 94 96
0.33082633 0.18923666 0.49148458 103 98 93
0.32071885 0.45082012 1.21485996 86 87 89
0.32209434 0.45640713 1.23255351 73 73 75
0.32192048 0.45834839 1.24384242 72 72 74
0.33184187 0.47167877 1.19441201 83 81 85
0.32102014 0.46208584 1.22806895 71 63 66
0.32469067 0.55393839 1.20621324 0 0 0
0.33205947 0.57017100 1.24156010 0 0 0
0.33987319 0.58738369 1.27904117 0 0 0
0.34057295 0.07681306 0.45958769 96 96 95
0.34097796 0.07860667 0.46157068 84 84 81
0.34870788 0.06987181 0.76842065 116 108 104
0.34000909 0.08163456 0.45989949 125 122 115
0.34032896 0.08225207 0.46237668 127 125 117
0.34553317 0.08201188 0.76462441 96 94 92
0.35896391 0.20587017 0.46289513 124 121 113
0.34817338 0.60566801 1.31885576 0 0 0
0.35700691 0.62512726 1.36122859 0 0 0
0.37152465 -0.32528278 0.60469820 88 91 91
0.36949863 -0.31766760 0.60509359 90 91 91
0.36582905 -0.17085839 0.46937319 87 89 88
0.36155303 0.07023166 0.77631890 121 111 108
0.36501688 0.19778789 0.46662217 100 91 91
0.36255025 0.20410020 0.46454407 109 108 103
0.37439543 0.38935795 1.13236265 102 97 95
0.37588392 0.38469478 1.14315653 78 79 81
0.37497454 0.40612994 1.13740599 133 127 121
0.37575044 0.40637824 1.14821090 131 128 121
0.36642689 0.64587837 1.40641463 0 0 0
0.37649372 0.66805446 1.45470357 0 0 0
0.38055310 -0.32725166 0.60346540 88 91 94
0.39989948 0.19034658 0.57448459 128 128 126
0.39510141 0.37224662 1.15602646 126 121 114
0.39706421 0.37502682 1.17022790 133 129 120
0.39281447 0.38891408 1.13362045 124 118 118
0.39320700 0.39287824 1.15123258 123 119 118
0.39571460 0.38717562 1.16855370 108 106 106
0.39615075 0.38907002 1.18129073 101 99 98
0.39543216 0.40320447 1.13408417 96 86 85
0.39242507 0.40720978 1.15304435 105 99 96
0.39452772 0.41365508 1.16105819 98 92 89
0.38727644 0.69180751 1.50642633 0 0 0
0.39885417 0.71731192 1.56196272 0 0 0
0.41565907 0.01946021 0.57157826 108 107 103
0.41402637 0.02662228 0.57328282 96 96 95
0.41850432 0.08602897 0.45080208 137 132 124
0.41714790 0.11996020 0.48980623 135 133 126
0.41572941 0.12771582 0.48799295 116 111 105
0.40832438 0.19288882 0.57350247 120 115 108
0.40995580 0.20110393 0.57685963 111 102 89
0.40351947 0.39111009 1.13315284 128 123 121
0.40235572 0.39568337 1.14445257 132 128 129
0.40219767 0.38792230 1.17323680 112 111 109
0.40077508 0.38891879 1.18460852 102 100 100
0.40605099 0.40303545 1.13361108 103 93 96
0.40419233 0.40453812 1.15387028 111 109 109
0.41131824 0.74476880 1.62175083 0 0 0
0.42124228 0.02315410 0.57335097 97 97 95
0.42068963 0.08443380 0.45095177 134 128 121
0.42632648 0.11433026 0.49105239 111 107 102
0.42227538 0.12683260 0.48948054 114 113 105
0.42477450 0.77441138 1.68629813 0 0 0
0.43934628 0.80651134 1.75619650 0 0 0
0.44389069 0.19228566 0.57644765 128 128 122
0.44670315 0.19140442 0.58753906 107 105 101
0.45517835 0.84138751 1.83214009 0 0 0
0.47458577 0.19662007 0.74988335 135 132 127
0.47318661 0.20139190 0.75250498 115 110 105
0.47244155 0.87941629 1.91494870 0 0 0
0.49725719 -0.10330317 0.77772919 47 46 48
0.49696963 -0.10294877 0.78188606 47 47 48
0.49249754 -0.09078178 0.77415506 46 45 45
0.49019694 0.19424514 0.75139507 115 110 109
0.49898635 0.18972918 0.76124880 126 118 113
0.48383504 0.20181662 0.75477850 115 109 105
0.50039035 -0.10252794 0.77740367 46 46 48
0.50061626 -0.09851229 0.77332253 46 46 46
0.51956341 0.14597964 0.56798655 88 86 82
0.51555475 0.23819721 0.57647607 103 103 93
0.51743308 0.23402401 0.58663845 109 105 99
0.51214965 0.24279497 0.57742557 94 94 85
0.51569739 0.24488534 0.59059289 86 83 79
0.51764961 0.24780507 0.60114681 91 87 85
0.52641939 0.13734934 0.56997834 119 112 105
0.52674674 0.14483906 0.56825655 114 111 103
0.52413461 0.23630593 0.59419815 108 102 98
0.52686990 0.23827516 0.60279915 125 122 107
0.52211709 0.24549584 0.59613483 86 77 75
0.52311852 0.24568773 0.60189616 101 92 88
0.59933679 0.17817870 0.60819306 105 98 96
0.59825804 0.20249753 0.60329057 103 102 100
0.61378731 0.17849895 0.61644723 100 99 95
0.61833434 0.17654525 0.62169372 122 116 114
0.61279084 0.18790688 0.61173692 113 110 106
0.60544473 0.20615416 0.59726513 127 128 125
0.61183636 0.20512519 0.60893059 112 110 105
0.61964999 0.31027416 0.79069904 66 63 63
0.62215585 0.17805035 0.61907971 112 110 108
0.62405150 0.17448559 0.62355882 127 125 121
0.62052518 0.18170120 0.61766922 102 102 101
0.62714332 0.30393574 0.77739888 105 99 90
0.62640017 0.31145232 0.79003925 101 97 91
0.62707651 0.31919335 0.80223998 71 68 65
0.63062597 0.32688802 0.79653680 85 84 82
0.63427319 0.32981156 0.80852475 87 84 80
0.63905039 0.33312096 0.82118970 97 94 88
0.64040695 0.33629916 0.82201950 99 94 88
0.73486199 0.01977958 0.77859030 131 124 120
0.73721148 0.01957006 0.78098220 134 128 123
0.73727028 0.02273921 0.77750034 125 118 118
0.75167388 0.01667811 0.78656251 132 129 119
0.75223348 0.02605378 0.77620630 123 120 113
0.75156158 0.02539060 0.78324933 109 107 103
0.76127172 0.01658951 0.78687412 140 137 131
0.76885246 0.03223990 0.76770938 98 96 94
0.76469212 0.04148281 0.76684638 87 91 85
0.79490483 0.41798211 1.16635064 122 120 112
0.79407490 0.42383572 1.16321178 133 134 129
0.80639935 0.41915217 1.17894232 106 106 100
0.80372173 0.41988242 1.18099630 110 111 103
0.80556813 0.42736913 1.17352130 130 128 120
0.81707877 0.42652715 1.18854844 112 110 103
0.83340326 0.41756830 1.19348167 111 110 105
0.83711463 0.41872102 1.20407081 105 104 103
0.83047588 0.42733793 1.19438258 96 93 90
0.83362186 0.42911830 1.20604875 104 100 97
0.83000386 0.44108719 1.19980860 129 123 121
0.83448637 0.44569275 1.20478495 127 120 117
0.85252213 0.35874085 1.26947818 138 135 127
0.85252993 0.36614979 1.27120532 139 135 121
0.85626012 0.36881887 1.28667561 143 139 131
0.84295097 0.41746132 1.20946538 108 107 105
0.84348992 0.42779550 1.19454695 108 100 99
0.84736621 0.42522387 1.20997054 107 102 98
0.84917583 0.42581155 1.22752184 101 98 98
0.84146601 0.45082012 1.21485996 125 117 112
0.86694725 0.34743653 1.25477946 135 128 115
0.87102209 0.35458967 1.26458970 136 133 124
0.87213761 0.36787082 1.27205430 106 98 94
0.86186641 0.37022733 1.29270108 138 133 124
0.87000304 0.36807691 1.30490375 141 137 130
0.87635286 0.38667284 1.27371148 106 102 98
0.87984747 0.38173690 1.28632224 94 88 85
0.88354357 0.37641210 1.27445662 98 90 91
0.88450103 0.38555552 1.27554823 118 117 113
0.88375876 0.39191946 1.29056925 109 99 96
0.88773113 0.39737764 1.30113602 87 73 69
0.88881701 0.40033865 1.29616034 119 111 105
0.89629177 0.40472232 1.31037207 115 104 99
0.91661468 0.41684946 1.33838600 118 110 105
0.92884088 0.37209114 1.01829423 115 117 113
0.93480075 0.37361597 1.02653146 110 113 108
0.92550820 0.42259574 1.35307753 118 109 106
0.93389982 0.42642874 1.36534250 117 110 107
0.94236112 0.37515599 1.03789382 108 111 108
0.94398435 0.37610335 1.04337249 103 108 104
0.94117427 0.38166511 1.03574067 123 125 117
0.94941141 0.38139523 1.04981026 103 107 105
0.94806945 0.43469432 1.39028697 113 108 105
0.95867622 0.43864331 1.41227472 117 113 107
0.95407331 0.44046056 1.39483917 107 110 109
0.95956004 0.44411585 1.40641463 98 100 99
0.96622679 0.38783846 1.07326660 94 98 96
0.97642932 0.39428452 1.09116745 90 92 91
0.97709630 0.39681809 1.10361642 94 86 88
0.97748739 0.40011492 1.09869015 94 94 92
0.97700647 0.40455496 1.10956795 112 107 98
0.97437835 0.41898370 1.53716969 110 97 95
0.97881746 0.41822353 1.54417276 106 93 90
0.97221593 0.42566058 1.53338153 97 93 88
0.97454526 0.43276813 1.54554733 97 91 86
0.96674706 0.44653182 1.41279050 107 109 108
0.97066870 0.45036542 1.42775805 94 94 93
0.97907358 0.45545498 1.44232309 84 84 83
0.97719835 0.45194743 1.50710325 107 99 98
0.97793478 0.44158712 1.55123997 91 83 81
0.98184580 0.39497730 1.09656253 87 90 88
0.98405009 0.39524983 1.10636457 81 79 79
0.99770075 0.39385268 1.12140989 72 72 72
0.98783508 0.40499667 1.09647578 113 116 112
0.98937982 0.41112278 1.10691901 103 102 98
0.98669233 0.40608436 1.12911790 115 112 105
0.99667718 0.40721433 1.14814637 115 113 107
0.99297649 0.41898370 1.53716969 113 105 107
0.99585567 0.41746056 1.54300559 120 111 111
0.99267936 0.42100388 1.09869015 107 103 104
0.99403914 0.42391710 1.10630722 101 100 100
0.99566281 0.42464031 1.12411396 92 90 87
0.99362870 0.43402330 1.53462043 119 114 114
0.99586547 0.42982813 1.54754076 117 110 109
0.98140252 0.45253268 1.51824054 99 94 94
0.99164110 0.44833145 1.53305066 95 92 94
0.99483132 0.44758227 1.54417276 82 78 81
0.99413180 0.44989604 1.57405412 87 82 80
0.98920882 0.46134448 1.46097374 83 83 79
0.99670315 0.46035546 1.55123997 93 92 90
1.01696762 0.03237907 1.67277634 120 116 116
1.01973689 0.03401082 1.68211377 118 112 113
1.00742711 0.40447985 1.15403689 110 107 102
1.00679535 0.41013315 1.16443596 131 130 121
1.01316333 0.41784192 1.54770231 127 126 116
1.00103092 0.42929036 1.11863339 104 104 103
1.00716548 0.42926605 1.12767032 95 97 96
1.00940210 0.42794830 1.14803666 111 112 105
1.01469139 0.42622819 1.17317720 136 134 123
1.00094712 0.43492493 1.53716969 130 126 124
1.00652722 0.43139703 1.54919959 127 122 118
1.01164019 0.43110052 1.56839993 119 112 109
1.01208404 0.43434379 1.58492419 114 104 102
1.00094712 0.44023868 1.53716969 125 125 123
1.01779974 0.44125551 1.55480599 135 132 127
1.00755482 0.44603664 1.57066393 100 94 97
1.01702121 0.45183410 1.59047695 99 96 98
1.00889810 0.46368503 1.57162694 77 76 75
1.01547496 0.46291634 1.58386636 73 73 73
1.03214547 0.03174090 1.67381320 114 113 111
1.02793728 0.03600011 1.68443841 118 115 114
1.03440595 0.05314373 1.67029067 110 106 102
1.03347649 0.04530160 1.68973456 135 133 127
1.02023399 0.40452397 1.14896917 76 76 76
1.02789850 0.43290910 1.19098690 135 132 123
1.03610420 0.43979183 1.20193589 134 127 123
1.02183384 0.42917782 1.55480599 128 124 119
1.02616780 0.43021497 1.56966808 119 117 114
1.03477651 0.43239657 1.58386809 118 115 112
1.02803377 0.44433347 1.57043008 134 130 126
1.02935829 0.45084585 1.58759317 111 106 106
1.02380145 0.45728335 1.60637879 101 97 100
1.02706795 0.46860762 1.60714552 68 67 68
1.03359866 0.46446234 1.62175083 80 76 79
1.04073846 0.01937767 1.67380702 117 117 117
1.04436128 0.03410193 1.67322777 111 107 105
1.04345327 0.04920102 1.67617743 122 119 113
1.04576255 0.04542902 1.68401575 120 118 114
1.04138672 0.43751410 1.59503961 116 116 116
1.05650556 0.44935250 1.22806489 134 127 122
1.04138672 0.44164944 1.59503961 122 119 113
1.04993916 0.47608145 1.64738965 71 69 69
1.07909656 0.25786534 0.95209527 111 110 110
1.07236275 0.27697215 0.93798285 126 126 115
1.07687554 0.27347373 0.94694890 125 124 116
1.07293022 0.28136411 0.94810051 123 123 117
1.07232547 0.43956524 1.46412921 101 101 94
1.08383234 0.25681871 0.95433403 117 117 111
1.09412118 0.25649392 0.96658017 121 119 111
1.08345538 0.27184140 0.95173313 123 122 114
1.09219366 0.26859248 0.96549253 116 116 111
1.08035743 0.28209260 0.95612389 123 123 120
1.09062020 0.28143261 0.96520650 123 122 118
1.08147383 0.44308485 1.48011315 98 95 90
1.09566152 0.44866303 1.50308609 97 92 87
1.09821808 0.65910387 1.82720172 139 131 125
1.09526587 0.66048181 1.82228994 137 130 119
1.10546601 0.45005670 1.51653659 101 94 91
1.11425751 0.45046099 1.52679121 109 99 98
1.10717094 0.66129309 1.84209740 139 131 126
1.11933768 0.66534114 1.86234021 137 129 125
1.13524675 0.43649870 1.55065775 140 138 130
1.12183481 0.45086616 1.53716969 125 115 115
1.13236605 0.44821544 1.54920664 136 131 126
1.13717031 0.45284646 1.56466827 135 132 125
1.12788117 0.46247205 1.55837202 111 108 103
1.13304130 0.46532431 1.56799722 116 110 104
1.13588432 0.67712073 1.89532069 134 127 123
1.13482475 0.68467426 1.89355266 137 129 120
1.12732617 0.75363908 1.71531513 89 88 85
1.13096859 0.75035587 1.72592444 79 76 73
1.13543522 0.75506316 1.74602687 78 72 73
1.12745909 0.76393282 1.71401501 86 85 87
1.12466775 0.76689855 1.72580690 79 77 79
1.13362239 0.77131509 1.74866043 75 73 73
1.13436615 0.78121620 1.76075804 85 79 79
1.14384577 0.43744102 1.55081141 138 131 125
1.14798635 0.43662004 1.56466827 139 133 127
1.15606412 0.43261743 1.58864096 130 128 120
1.14410758 0.45066151 1.55480325 138 131 125
1.14654820 0.44311112 1.56993237 140 138 130
1.15409359 0.45069505 1.58944456 141 139 131
1.15874040 0.45728644 1.60638962 138 136 123
1.14099598 0.46239996 1.57649267 113 109 107
1.14768811 0.46729540 1.59132222 122 118 111
1.15568109 0.46733209 1.60753433 124 124 114
1.15972221 0.46782230 1.62369537 126 124 110
1.14276892 0.68879685 1.90956962 130 123 117
1.15193260 0.68646069 1.92765796 130 123 118
1.15416825 0.70466644 1.92582905 116 111 105
1.14394996 0.74328457 1.73264435 80 73 72
1.14521986 0.74875958 1.74715555 80 73 73
1.15256321 0.75678632 1.76767200 82 76 76
1.14810400 0.77041463 1.77393099 80 75 76
1.15036886 0.77268843 1.78628115 90 83 83
1.14335410 0.78223469 1.76996060 78 74 75
1.15237534 0.78224528 1.78392589 77 74 75
1.17916119 -0.13192193 1.58016741 57 53 54
1.16009688 0.43957895 1.57283485 133 128 123
1.16544712 0.43200028 1.59503961 118 118 107
1.16506186 0.43532455 1.60734403 133 132 123
1.16544712 0.44302788 1.59503961 141 136 129
1.16607761 0.44995220 1.61243842 142 138 132
1.17134964 0.45641388 1.62732272 141 137 132
1.16256142 0.46754839 1.61788034 128 129 116
1.16533113 0.46544492 1.62739342 132 129 116
1.16518823 0.70401986 1.95172910 135 128 121
1.17334896 0.71287586 1.96919614 133 126 118
1.17421198 0.71499282 1.98213995 130 123 120
1.17711377 0.73955899 1.80771160 105 104 96
1.17760336 0.72105402 1.97061586 117 112 110
1.16826677 0.75511673 1.77195210 82 73 71
1.17136223 0.75500901 1.79287449 82 78 71
1.17438145 0.74960020 1.80651289 92 91 81
1.16622348 0.76416719 1.79397179 83 77 72
1.17714298 0.77493680 1.81740439 85 79 78
1.17715764 0.78016967 1.82228994 83 77 78
1.18728197 -0.13402829 1.57283485 55 54 54
1.19439510 -0.12831643 1.59481331 53 52 52
1.19208252 -0.11928566 1.59379152 54 50 49
1.18940365 0.39427940 1.43561714 119 111 106
1.19850922 0.39147148 1.44539833 126 121 113
1.18604863 0.40232232 1.44848680 132 125 112
1.18012571 0.73753637 1.78392589 95 89 88
1.18336272 0.73955899 1.80771160 101 98 94
1.19609278 0.73864096 1.82474583 113 113 108
1.18802679 0.72783038 1.99381679 119 114 110
1.18273973 0.75078088 1.79386798 85 79 76
1.18415466 0.74535468 1.80852148 92 89 84
1.19401215 0.74298438 1.82638752 109 107 102
1.19313669 0.75999451 1.84209740 103 100 92
1.18413877 0.77005748 1.82820539 85 82 72
1.19638777 0.76685423 1.84711671 96 94 84
1.20297209 -0.12638993 1.59654613 52 50 50
1.21255976 -0.12805984 1.60447997 53 51 50
1.20527438 -0.11796106 1.59719178 54 52 51
1.21358157 -0.11344551 1.60584142 53 52 51
1.21142423 0.37296334 1.46097374 138 138 128
1.21241601 0.36699519 1.49039258 121 121 111
1.21533934 0.37210457 1.50868301 107 105 93
1.20194844 0.39119893 1.45055461 126 120 108
1.21677752 0.39572152 1.47049499 129 123 112
1.21807432 0.39151418 1.51315141 117 112 105
1.20325772 0.40902327 1.47261234 132 128 118
1.20577967 0.73888320 1.83710527 123 124 115
1.20565504 0.74539125 1.82969761 116 109 103
1.21224022 0.74725884 1.84209740 120 120 113
1.20636165 0.79306030 1.86749907 91 84 81
1.22884735 -0.14172186 1.61403280 55 53 50
1.23822236 -0.14380276 1.62175083 52 51 48
1.22724346 -0.12946709 1.61275639 54 52 50
1.23752159 -0.13048820 1.62175083 54 52 52
1.22737795 -0.10953683 1.60848060 51 51 49
1.22981322 -0.10175678 1.62175083 51 50 49
1.22703848 -0.09539119 1.60892256 50 44 45
1.23705721 -0.09790197 1.62759382 50 46 47
1.22195828 0.37365937 1.47367787 132 131 124
1.22851217 0.37388142 1.49185708 128 126 118
1.23065691 0.37588264 1.50674765 119 117 111
1.22703493 0.37740629 1.53197396 119 117 105
1.22832700 0.39100865 1.48778919 140 136 125
1.23533762 0.38537285 1.50770032 138 136 128
1.23340745 0.38747019 1.53024240 115 107 98
1.23563490 0.38494991 1.54558940 126 115 104
1.22211984 0.40940604 1.49728131 134 130 123
1.23028562 0.40660811 1.50918499 137 135 127
1.23541945 0.41050943 1.53197396 135 135 126
1.23704123 0.40921678 1.54417676 121 118 111
1.23384353 0.42322508 1.51431998 127 124 115
1.23711205 0.42502674 1.53022993 132 132 123
1.22404832 0.79323006 1.89487869 89 86 76
1.24710387 -0.14607478 1.63152993 51 50 48
1.25746846 -0.14696221 1.64138460 52 50 48
1.25099944 -0.12920887 1.62940465 53 51 48
1.24732815 -0.11205026 1.61659630 51 50 48
1.25235757 -0.11181321 1.62409178 51 48 47
1.25330502 -0.10027325 1.64337659 49 46 46
1.25067425 -0.09625223 1.64738965 50 45 46
1.25995564 -0.09563552 1.66149962 51 45 45
1.24396469 0.39021074 1.51443408 141 138 129
1.24570988 0.39134660 1.53046483 127 121 114
1.24755436 0.38856332 1.54534970 114 101 93
1.24980736 0.40115112 1.51993692 140 137 129
1.24827556 0.40521323 1.52942908 139 136 128
1.24832927 0.41007090 1.54656934 131 128 120
1.24524500 0.42353034 1.53439066 134 131 123
1.25448459 0.42337470 1.54593551 138 136 126
1.24780273 0.81916589 1.93683386 97 91 85
1.26323092 -0.13507043 1.61788034 54 53 51
1.26701331 -0.12988563 1.63323077 52 50 48
1.26136665 -0.11363155 1.61788034 53 49 48
1.26379506 -0.11181975 1.62782346 52 47 47
