ply
format ascii 1.0
element vertex 1080
property float x
property float y
property float z
property uchar red
property uchar green
property uchar blue
end_header
-0.61006272 -0.20991708 0.72811091 78 83 107
-0.61006272 -0.18978138 0.72811091 75 81 103
-0.61006272 -0.16964569 0.72811091 71 79 99
-0.61006272 -0.14951000 0.72811091 72 76 94
-0.61006272 -0.13000355 0.72811091 70 73 93
-0.60654170 -0.12195895 0.83700275 75 82 95
-0.60791016 -0.12123891 0.84434775 75 80 100
-0.61006272 -0.11364330 0.72811091 69 72 88
-0.61021199 -0.10999140 0.84509112 74 76 98
-0.61021806 -0.09027328 0.84509952 49 48 57
-0.61021843 -0.06982372 0.84510003 47 46 54
-0.61021860 -0.05010446 0.84510027 48 47 55
-0.61021882 -0.03038519 0.84510056 98 101 116
-0.61021894 -0.00993556 0.84510074 119 119 121
-0.61021899 0.00978373 0.84510081 123 117 116
-0.61021900 0.02950303 0.84510082 105 100 95
-0.61021903 0.04995267 0.84510086 103 97 92
-0.61021905 0.07040231 0.84510088 125 120 111
-0.61021905 0.09012160 0.84510088 143 138 132
-0.61021905 0.10984090 0.84510088 95 92 93
-0.61021905 0.13029054 0.84510088 44 43 48
-0.61021905 0.15000983 0.84510088 38 37 41
-0.61021905 0.16972912 0.84510088 33 32 36
-0.61021905 0.19017876 0.84510088 30 28 33
-0.61021905 0.20989806 0.84510088 28 26 30
-0.61021905 0.22961735 0.84510088 27 25 27
-0.61021905 0.25006699 0.84510088 26 23 26
-0.61021905 0.26978629 0.84510088 24 23 27
-0.61021905 0.28950558 0.84510088 22 20 24
-0.61021909 0.30995524 0.84510094 21 20 23
-0.61021909 0.33040488 0.84510094 21 19 23
-0.61021909 0.35012418 0.84510094 23 20 23
-0.61021909 0.36984347 0.84510094 24 21 24
-0.61021909 0.39029311 0.84510094 23 21 24
-0.61021909 0.41001241 0.84510094 24 22 24
-0.61021909 0.42973171 0.84510094 24 22 24
-0.61021909 0.45018135 0.84510094 26 22 25
-0.61021909 0.46990064 0.84510094 4 4 4
-0.61021909 0.48012546 0.84510094 0 0 0
-0.58976941 -0.56572753 0.84510088 0 0 0
-0.58976941 -0.55039030 0.84510088 0 0 0
-0.58976941 -0.52994066 0.84510088 0 0 0
-0.58976941 -0.51022137 0.84510088 0 0 0
-0.58935879 -0.49314092 0.84505060 31 38 42
-0.59002638 -0.42382569 0.72811091 126 154 170
-0.58992703 -0.41001552 0.72811091 123 149 165
-0.58992703 -0.38987983 0.72811091 117 142 156
-0.58992703 -0.36974414 0.72811091 111 133 149
-0.58992703 -0.34960844 0.72811091 107 125 143
-0.58992703 -0.32947275 0.72811091 101 117 136
-0.58992703 -0.30996630 0.72811091 95 112 131
-0.58992703 -0.29045985 0.72811091 92 106 128
-0.58992703 -0.27032415 0.72811091 89 97 121
-0.58992703 -0.25018846 0.72811091 85 95 116
-0.58992703 -0.23005277 0.72811091 81 90 110
-0.58992703 -0.20991708 0.72811091 78 88 109
-0.58992703 -0.18978138 0.72811091 78 83 104
-0.58992703 -0.16964569 0.72811091 75 81 101
-0.58992703 -0.14951000 0.72811091 74 77 97
-0.58992703 -0.13000355 0.72811091 70 76 93
-0.59200880 -0.12339189 0.83690947 74 89 99
-0.58902705 -0.12256593 0.84490766 73 85 101
-0.58980118 -0.11284948 0.72811091 69 75 91
-0.59091467 -0.11853406 0.81349778 77 84 95
-0.58976455 -0.10999179 0.84509392 74 80 100
-0.58976850 -0.09027329 0.84509959 50 50 59
-0.58976885 -0.06982372 0.84510008 50 47 57
-0.58976900 -0.05010446 0.84510030 49 48 56
-0.58976919 -0.03038519 0.84510057 100 103 118
-0.58976931 -0.00993556 0.84510074 120 120 122
-0.58976936 0.00978373 0.84510081 122 120 118
-0.58976937 0.02950303 0.84510082 110 104 99
-0.58976939 0.04995267 0.84510086 111 108 101
-0.58976941 0.07040231 0.84510088 148 145 138
-0.58976941 0.09012160 0.84510088 158 155 148
-0.58976941 0.10984090 0.84510088 125 120 119
-0.58976941 0.13029054 0.84510088 54 53 57
-0.58976941 0.15000983 0.84510088 38 38 42
-0.58976941 0.16972912 0.84510088 34 32 37
-0.58976941 0.19017876 0.84510088 32 29 33
-0.58976941 0.20989806 0.84510088 28 26 30
-0.58976941 0.22961735 0.84510088 27 25 28
-0.58976941 0.25006699 0.84510088 26 24 27
-0.58976941 0.26978629 0.84510088 23 22 27
-0.58976941 0.28950558 0.84510088 23 21 24
-0.58976945 0.30995524 0.84510094 21 20 22
-0.58976945 0.33040488 0.84510094 21 19 23
-0.58976945 0.35012418 0.84510094 23 20 23
-0.58976945 0.36984347 0.84510094 23 21 23
-0.58976945 0.39029311 0.84510094 24 21 24
-0.58976945 0.41001241 0.84510094 26 22 25
-0.58976945 0.42973171 0.84510094 24 22 24
-0.58976945 0.45018135 0.84510094 22 20 23
-0.58976945 0.46990064 0.84510094 0 0 0
-0.58976945 0.48012546 0.84510094 0 0 0
-0.57005011 -0.56572753 0.84510088 0 0 0
-0.57005011 -0.55039030 0.84510088 0 0 0
-0.57005011 -0.52994066 0.84510088 0 0 0
-0.57005011 -0.51022137 0.84510088 0 0 0
-0.56987635 -0.49217352 0.84509973 22 27 30
-0.57025278 -0.42306177 0.72811091 127 155 171
-0.56979133 -0.41001552 0.72811091 125 150 165
-0.56979133 -0.38987983 0.72811091 122 143 156
-0.56979133 -0.36974414 0.72811091 113 136 151
-0.56979133 -0.34960844 0.72811091 110 130 144
-0.56979133 -0.32947275 0.72811091 104 122 139
-0.56979133 -0.30996630 0.72811091 99 114 131
-0.56979133 -0.29045985 0.72811091 94 108 126
-0.56979133 -0.27032415 0.72811091 89 101 120
-0.56979133 -0.25018846 0.72811091 86 96 117
-0.56979133 -0.23005277 0.72811091 82 92 113
-0.56979133 -0.20991708 0.72811091 81 89 112
-0.56979133 -0.18978138 0.72811091 80 86 107
-0.56979133 -0.16964569 0.72811091 78 83 105
-0.56979133 -0.14951000 0.72811091 75 82 97
-0.56979133 -0.13000355 0.72811091 74 78 97
-0.57011824 -0.12307809 0.84499839 80 87 105
-0.56965150 -0.11205854 0.72811091 73 75 95
-0.57004566 -0.10999184 0.84509428 76 83 104
-0.57004923 -0.09027329 0.84509958 51 52 65
-0.57004959 -0.06982372 0.84510011 50 50 59
-0.57004974 -0.05010446 0.84510032 51 51 58
-0.57004991 -0.03038519 0.84510058 98 100 118
-0.57005002 -0.00993556 0.84510074 121 122 124
-0.57005006 0.00978373 0.84510081 124 121 117
-0.57005007 0.02950303 0.84510082 113 106 100
-0.57005010 0.04995267 0.84510086 142 137 128
-0.57005011 0.07040231 0.84510088 162 160 150
-0.57005011 0.09012160 0.84510088 161 159 152
-0.57005011 0.10984090 0.84510088 145 142 137
-0.57005011 0.13029054 0.84510088 76 75 77
-0.57005011 0.15000983 0.84510088 40 39 44
-0.57005011 0.16972912 0.84510088 34 33 38
-0.57005011 0.19017876 0.84510088 32 30 34
-0.57005011 0.20989806 0.84510088 28 27 31
-0.57005011 0.22961735 0.84510088 27 26 28
-0.57005011 0.25006699 0.84510088 26 24 28
-0.57005011 0.26978629 0.84510088 25 23 27
-0.57005011 0.28950558 0.84510088 24 22 25
-0.57005015 0.30995524 0.84510094 23 20 23
-0.57005015 0.33040488 0.84510094 21 19 22
-0.57005015 0.35012418 0.84510094 22 19 21
-0.57005015 0.36984347 0.84510094 23 19 23
-0.57005015 0.39029311 0.84510094 23 21 24
-0.57005015 0.41001241 0.84510094 26 22 25
-0.57005015 0.42973171 0.84510094 25 22 25
-0.57005015 0.45018135 0.84510094 17 14 17
-0.57005015 0.46990064 0.84510094 0 0 0
-0.57005015 0.48012546 0.84510094 0 0 0
-0.55033082 -0.56572753 0.84510088 0 0 0
-0.55033082 -0.55039030 0.84510088 0 0 0
-0.55033082 -0.52994066 0.84510088 0 0 0
-0.55033082 -0.51022137 0.84510088 0 0 0
-0.55007216 -0.49077453 0.84509332 19 24 26
-0.54077173 -0.47948961 0.84499991 131 155 171
-0.55110773 -0.42230991 0.72811091 134 157 171
-0.54965564 -0.41001552 0.72811091 128 152 166
-0.54965564 -0.38987983 0.72811091 122 145 158
-0.54965564 -0.36974414 0.72811091 118 139 152
-0.54965564 -0.34960844 0.72811091 110 132 145
-0.54965564 -0.32947275 0.72811091 105 124 138
-0.54965564 -0.30996630 0.72811091 102 116 134
-0.54965564 -0.29045985 0.72811091 95 110 128
-0.54965564 -0.27032415 0.72811091 91 104 120
-0.54965564 -0.25018846 0.72811091 87 98 119
-0.54965564 -0.23005277 0.72811091 82 94 116
-0.54965564 -0.20991708 0.72811091 82 90 113
-0.54965564 -0.18978138 0.72811091 80 89 108
-0.54965564 -0.16964569 0.72811091 79 86 108
-0.54965564 -0.14951000 0.72811091 79 81 103
-0.54965564 -0.13000355 0.72811091 75 80 99
-0.54831868 -0.12510132 0.83867198 81 90 106
-0.55028293 -0.12244725 0.84492877 81 88 107
-0.54965564 -0.11238481 0.72811091 72 78 98
-0.55032583 -0.10999170 0.84509322 78 85 106
-0.55032994 -0.09027328 0.84509953 53 54 65
-0.55033032 -0.06982372 0.84510011 51 51 60
-0.55033047 -0.05010446 0.84510034 52 51 59
-0.55033062 -0.03038519 0.84510057 97 101 116
-0.55033073 -0.00993556 0.84510074 123 122 126
-0.55033077 0.00978373 0.84510081 129 124 121
-0.55033078 0.02950303 0.84510082 138 131 126
-0.55033080 0.04995267 0.84510085 162 158 148
-0.55033082 0.07040231 0.84510088 163 160 152
-0.55033082 0.09012160 0.84510088 163 160 154
-0.55033082 0.10984090 0.84510088 151 148 140
-0.55033082 0.13029054 0.84510088 85 84 84
-0.55033082 0.15000983 0.84510088 42 41 47
-0.55033082 0.16972912 0.84510088 35 34 39
-0.55033082 0.19017876 0.84510088 31 31 34
-0.55033082 0.20989806 0.84510088 28 27 31
-0.55033082 0.22961735 0.84510088 27 26 29
-0.55033082 0.25006699 0.84510088 28 24 28
-0.55033082 0.26978629 0.84510088 27 23 27
-0.55033082 0.28950558 0.84510088 25 23 26
-0.55033086 0.30995524 0.84510094 23 21 25
-0.55033086 0.33040488 0.84510094 21 20 23
-0.55033086 0.35012418 0.84510094 21 18 21
-0.55033086 0.36984347 0.84510094 21 18 22
-0.55033086 0.39029311 0.84510094 22 20 23
-0.55033086 0.41001241 0.84510094 23 20 23
-0.55033086 0.42973171 0.84510094 23 21 24
-0.55033086 0.45018135 0.84510094 11 9 11
-0.55033086 0.46990064 0.84510094 0 0 0
-0.55033086 0.48012546 0.84510094 0 0 0
-0.52988118 -0.56572753 0.84510088 0 0 0
-0.52988118 -0.55039030 0.84510088 0 0 0
-0.52988118 -0.52994066 0.84510088 0 0 0
-0.52988118 -0.51022137 0.84510088 0 0 0
-0.52988118 -0.49050207 0.84510087 5 6 7
-0.52814880 -0.47916017 0.84509674 125 147 159
-0.53119792 -0.42113210 0.72811091 130 157 171
-0.52951995 -0.41001552 0.72811091 127 153 166
-0.52951995 -0.38987983 0.72811091 123 147 161
-0.52951995 -0.36974414 0.72811091 118 142 152
-0.52951995 -0.34960844 0.72811091 116 135 147
-0.52951995 -0.32947275 0.72811091 108 129 142
-0.52951995 -0.30996630 0.72811091 102 122 133
-0.52951995 -0.29045985 0.72811091 97 113 129
-0.52951995 -0.27032415 0.72811091 93 105 126
-0.52951995 -0.25018846 0.72811091 90 100 120
-0.52951995 -0.23005277 0.72811091 88 96 117
-0.52951995 -0.20991708 0.72811091 83 95 112
-0.52951995 -0.18978138 0.72811091 82 91 109
-0.52951995 -0.16964569 0.72811091 81 89 109
-0.52951995 -0.14951000 0.72811091 80 86 106
-0.52951995 -0.13000355 0.72811091 76 82 105
-0.53920460 -0.12237487 0.82039398 79 87 104
-0.53038859 -0.12170705 0.84436768 81 90 108
-0.52993944 -0.11296162 0.72811091 75 82 98
-0.52987482 -0.10999136 0.84509074 77 85 108
-0.52988028 -0.09027327 0.84509944 55 55 65
-0.52988069 -0.06982372 0.84510010 52 53 62
-0.52988085 -0.05010446 0.84510035 53 52 62
-0.52988099 -0.03038519 0.84510058 96 100 118
-0.52988109 -0.00993556 0.84510074 130 129 133
-0.52988113 0.00978373 0.84510080 151 145 141
-0.52988114 0.02950303 0.84510082 164 160 150
-0.52988116 0.04995267 0.84510085 161 159 149
-0.52988118 0.07040231 0.84510088 162 159 151
-0.52988118 0.09012160 0.84510088 141 138 134
-0.52988118 0.10984090 0.84510088 102 101 98
-0.52988118 0.13029054 0.84510088 79 76 76
-0.52988118 0.15000983 0.84510088 49 48 53
-0.52988118 0.16972912 0.84510088 37 35 41
-0.52988118 0.19017876 0.84510088 32 31 35
-0.52988118 0.20989806 0.84510088 28 28 33
-0.52988118 0.22961735 0.84510088 27 26 30
-0.52988118 0.25006699 0.84510088 27 25 28
-0.52988118 0.26978629 0.84510088 26 24 27
-0.52988118 0.28950558 0.84510089 25 22 26
-0.52988122 0.30995524 0.84510094 23 21 25
-0.52988122 0.33040488 0.84510094 22 21 24
-0.52988122 0.35012418 0.84510094 22 20 24
-0.52988122 0.36984347 0.84510094 21 19 23
-0.52988122 0.39029311 0.84510094 22 19 22
-0.52988122 0.41001241 0.84510094 23 19 22
-0.52988122 0.42973171 0.84510094 21 19 23
-0.52988122 0.45018135 0.84510094 5 4 5
-0.52988122 0.46990064 0.84510094 0 0 0
-0.52988122 0.48012546 0.84510094 0 0 0
-0.51016188 -0.56572753 0.84510088 0 0 0
-0.51016188 -0.55039030 0.84510088 0 0 0
-0.51016188 -0.52994066 0.84510088 0 0 0
-0.51016188 -0.51022137 0.84510088 0 0 0
-0.51016188 -0.49050207 0.84510088 0 0 0
-0.50854581 -0.47789250 0.84509817 68 81 88
-0.51756438 -0.42071261 0.72811091 132 161 173
-0.51025616 -0.40932420 0.72811091 128 154 167
-0.51001350 -0.38987983 0.72811091 126 149 162
-0.51001350 -0.36974414 0.72811091 122 144 155
-0.51001350 -0.34960844 0.72811091 115 137 149
-0.51001350 -0.32947275 0.72811091 112 132 144
-0.51001350 -0.30996630 0.72811091 106 125 137
-0.51001350 -0.29045985 0.72811091 102 116 130
-0.51001350 -0.27032415 0.72811091 99 109 125
-0.51001350 -0.25018846 0.72811091 97 104 121
-0.51001350 -0.23005277 0.72811091 92 100 118
-0.51001350 -0.20991708 0.72811091 87 97 113
-0.51001350 -0.18978138 0.72811091 83 95 109
-0.51001350 -0.16964569 0.72811091 82 91 109
-0.51001350 -0.14951000 0.72811091 81 89 110
-0.51001350 -0.13000355 0.72811091 80 86 107
-0.51230051 -0.12190987 0.83666593 79 92 114
-0.51361739 -0.12085294 0.84414947 81 89 112
-0.51031553 -0.11424737 0.72811091 77 84 103
-0.50149487 -0.11967632 0.82133710 80 92 113
-0.51015004 -0.10999003 0.84508118 77 87 107
-0.51016097 -0.09027326 0.84509937 55 57 67
-0.51016141 -0.06982372 0.84510009 53 53 64
-0.51016157 -0.05010446 0.84510035 54 53 64
-0.51016170 -0.03038519 0.84510058 97 102 118
-0.51016180 -0.00993556 0.84510074 143 142 144
-0.51016184 0.00978373 0.84510080 168 162 155
-0.51016185 0.02950303 0.84510082 164 161 150
-0.51016187 0.04995267 0.84510085 157 154 146
-0.51016188 0.07040231 0.84510088 129 125 120
-0.51016188 0.09012160 0.84510088 104 103 100
-0.51016188 0.10984090 0.84510088 106 105 103
-0.51016188 0.13029054 0.84510088 98 95 92
-0.51016188 0.15000983 0.84510088 64 62 64
-0.51016188 0.16972912 0.84510088 39 37 43
-0.51016188 0.19017876 0.84510088 34 32 36
-0.51016188 0.20989806 0.84510088 30 29 34
-0.51016188 0.22961735 0.84510088 28 26 30
-0.51016188 0.25006699 0.84510088 27 25 28
-0.51016188 0.26978629 0.84510088 27 24 27
-0.51016189 0.28950559 0.84510089 25 23 26
-0.51016192 0.30995524 0.84510094 25 22 25
-0.51016192 0.33040488 0.84510094 24 22 25
-0.51016192 0.35012418 0.84510094 23 21 25
-0.51016192 0.36984347 0.84510094 22 20 24
-0.51016192 0.39029311 0.84510094 21 19 22
-0.51016192 0.41001241 0.84510094 23 20 23
-0.51016192 0.42973171 0.84510094 21 18 22
-0.51016192 0.45018135 0.84510094 0 0 0
-0.51016192 0.46990064 0.84510094 0 0 0
-0.51016192 0.48012546 0.84510094 0 0 0
-0.49044259 -0.56572753 0.84510088 0 0 0
-0.49044259 -0.55039030 0.84510088 0 0 0
-0.49044259 -0.52994066 0.84510088 0 0 0
-0.49044259 -0.51022137 0.84510088 0 0 0
-0.49044259 -0.49050207 0.84510088 0 0 0
-0.48999537 -0.47679819 0.84509304 38 45 48
-0.49066952 -0.40833459 0.72811091 129 154 168
-0.49050704 -0.38987983 0.72811091 129 151 161
-0.49050704 -0.36974414 0.72811091 124 145 158
-0.49050704 -0.34960844 0.72811091 116 140 149
-0.49050704 -0.32947275 0.72811091 113 133 143
-0.49050704 -0.30996630 0.72811091 106 127 136
-0.49050704 -0.29045985 0.72811091 104 119 132
-0.49050704 -0.27032415 0.72811091 101 112 126
-0.49050704 -0.25018846 0.72811091 97 107 125
-0.49050704 -0.23005277 0.72811091 94 104 120
-0.49050704 -0.20991708 0.72811091 93 100 118
-0.49050704 -0.18978138 0.72811091 87 97 115
-0.49050704 -0.16964569 0.72811091 85 95 110
-0.49050704 -0.14951000 0.72811091 84 92 109
-0.49050704 -0.13000355 0.72811091 82 89 109
-0.49034010 -0.11477336 0.72811091 80 86 108
-0.48026787 -0.11572440 0.83377653 74 82 100
-0.49078738 -0.10951673 0.84503656 78 88 109
-0.49044167 -0.09027325 0.84509930 55 58 68
-0.49044211 -0.06982372 0.84510006 55 55 65
-0.49044228 -0.05010446 0.84510035 54 55 66
-0.49044242 -0.03038519 0.84510059 98 102 119
-0.49044251 -0.00993556 0.84510074 165 164 161
-0.49044254 0.00978373 0.84510080 164 161 151
-0.49044256 0.02950303 0.84510082 147 144 133
-0.49044257 0.04995267 0.84510085 131 124 117
-0.49044259 0.07040231 0.84510088 113 107 106
-0.49044259 0.09012160 0.84510088 103 99 97
-0.49044259 0.10984090 0.84510088 110 107 103
-0.49044259 0.13029054 0.84510088 111 108 104
-0.49044259 0.15000983 0.84510088 84 80 78
-0.49044259 0.16972912 0.84510088 43 42 46
-0.49044259 0.19017876 0.84510088 34 33 37
-0.49044259 0.20989806 0.84510088 30 30 34
-0.49044259 0.22961735 0.84510088 29 27 31
-0.49044259 0.25006699 0.84510088 28 26 28
-0.49044259 0.26978629 0.84510088 26 24 27
-0.49044260 0.28950559 0.84510090 25 24 26
-0.49044262 0.30995524 0.84510094 26 22 24
-0.49044262 0.33040488 0.84510094 24 23 25
-0.49044262 0.35012418 0.84510094 24 22 25
-0.49044262 0.36984347 0.84510094 23 21 23
-0.49044262 0.39029311 0.84510094 23 19 23
-0.49044262 0.41001241 0.84510094 21 19 22
-0.49044262 0.42973171 0.84510094 16 14 17
-0.49044262 0.45018135 0.84510094 0 0 0
-0.49044262 0.46990064 0.84510094 0 0 0
-0.49044262 0.48012546 0.84510094 0 0 0
-0.46999295 -0.56572753 0.84510088 0 0 0
-0.46999295 -0.55039030 0.84510088 0 0 0
-0.46999295 -0.52994066 0.84510088 0 0 0
-0.46999295 -0.51022137 0.84510088 0 0 0
-0.46999295 -0.49050207 0.84510088 0 0 0
-0.46965440 -0.47482631 0.84509827 35 42 44
-0.47068052 -0.40678203 0.72811091 127 153 168
-0.47037135 -0.38987983 0.72811091 127 151 161
-0.47037135 -0.36974414 0.72811091 124 146 156
-0.47037135 -0.34960844 0.72811091 121 140 149
-0.47037135 -0.32947275 0.72811091 115 133 144
-0.47037135 -0.30996630 0.72811091 110 129 139
-0.47037135 -0.29045985 0.72811091 108 122 135
-0.47037135 -0.27032415 0.72811091 103 115 129
-0.47037135 -0.25018846 0.72811091 99 111 125
-0.47037135 -0.23005277 0.72811091 97 106 123
-0.47037135 -0.20991708 0.72811091 94 101 118
-0.47037135 -0.18978138 0.72811091 90 99 116
-0.47037135 -0.16964569 0.72811091 84 97 113
-0.47037135 -0.14951000 0.72811091 85 93 110
-0.47037135 -0.13000355 0.72811091 83 91 110
-0.47018019 -0.11433626 0.72811091 80 87 109
-0.47210842 -0.11286618 0.79342258 77 88 108
-0.47015575 -0.10801514 0.84502893 78 87 105
-0.46999202 -0.09027324 0.84509921 57 59 71
-0.46999247 -0.06982372 0.84510002 56 56 66
-0.46999265 -0.05010446 0.84510033 55 56 66
-0.46999279 -0.03038519 0.84510058 107 110 125
-0.46999287 -0.00993556 0.84510074 156 156 155
-0.46999291 0.00978373 0.84510080 138 132 126
-0.46999292 0.02950303 0.84510082 128 122 111
-0.46999293 0.04995267 0.84510085 128 121 113
-0.46999295 0.07040231 0.84510088 110 107 105
-0.46999295 0.09012160 0.84510088 108 106 102
-0.46999295 0.10984090 0.84510088 120 113 106
-0.46999295 0.13029054 0.84510088 119 114 110
-0.46999295 0.15000983 0.84510088 106 99 93
-0.46999295 0.16972912 0.84510088 57 55 55
-0.46999295 0.19017876 0.84510088 37 36 40
-0.46999295 0.20989806 0.84510088 32 32 35
-0.46999295 0.22961735 0.84510088 29 28 33
-0.46999295 0.25006699 0.84510088 27 26 28
-0.46999295 0.26978629 0.84510088 26 25 28
-0.46999296 0.28950559 0.84510090 26 24 27
-0.46999298 0.30995524 0.84510094 26 23 26
-0.46999298 0.33040488 0.84510094 25 23 25
-0.46999298 0.35012418 0.84510094 24 22 25
-0.46999298 0.36984347 0.84510094 23 21 24
-0.46999298 0.39029311 0.84510094 22 20 22
-0.46999298 0.41001241 0.84510094 21 20 23
-0.46999298 0.42973171 0.84510094 11 10 11
-0.46999298 0.45018135 0.84510094 0 0 0
-0.46999298 0.46990064 0.84510094 0 0 0
-0.46999298 0.48012546 0.84510094 0 0 0
-0.44954331 -0.56572753 0.84510088 0 0 0
-0.44954331 -0.55039030 0.84510088 0 0 0
-0.44954331 -0.52994066 0.84510088 0 0 0
-0.44954331 -0.51022137 0.84510088 0 0 0
-0.44954331 -0.49050207 0.84510088 0 0 0
-0.44930336 -0.47389521 0.84509996 20 24 25
-0.45046793 -0.40582199 0.72811091 130 151 165
-0.45023566 -0.38987983 0.72811091 125 149 158
-0.45023566 -0.36974414 0.72811091 124 146 155
-0.45023566 -0.34960844 0.72811091 122 140 148
-0.45023566 -0.32947275 0.72811091 119 134 143
-0.45023566 -0.30996630 0.72811091 116 131 138
-0.45023566 -0.29045985 0.72811091 110 124 136
-0.45023566 -0.27032415 0.72811091 105 118 133
-0.45023566 -0.25018846 0.72811091 100 113 126
-0.45023566 -0.23005277 0.72811091 99 107 123
-0.45023566 -0.20991708 0.72811091 95 104 120
-0.45023566 -0.18978138 0.72811091 93 101 117
-0.45023566 -0.16964569 0.72811091 88 97 115
-0.45023566 -0.14951000 0.72811091 86 95 112
-0.45023566 -0.13000355 0.72811091 85 92 109
-0.44996598 -0.11337362 0.72811091 82 88 111
-0.45528688 -0.11107118 0.79040790 85 90 110
-0.45970970 -0.11110412 0.80048817 77 85 101
-0.44955573 -0.10774030 0.84499601 80 87 105
-0.44954238 -0.09027324 0.84509912 58 59 71
-0.44954283 -0.06982371 0.84509996 57 57 69
-0.44954301 -0.05010446 0.84510031 55 56 67
-0.44954315 -0.03038519 0.84510058 102 104 117
-0.44954324 -0.00993556 0.84510073 131 131 132
-0.44954327 0.00978373 0.84510080 135 131 123
-0.44954328 0.02950303 0.84510082 129 120 111
-0.44954330 0.04995267 0.84510085 130 124 114
-0.44954331 0.07040231 0.84510088 103 100 99
-0.44954331 0.09012160 0.84510088 104 102 100
-0.44954331 0.10984090 0.84510088 126 119 115
-0.44954331 0.13029054 0.84510088 121 117 111
-0.44954331 0.15000983 0.84510088 115 105 96
-0.44954331 0.16972912 0.84510088 75 72 70
-0.44954331 0.19017876 0.84510088 41 40 44
-0.44954331 0.20989806 0.84510088 34 33 36
-0.44954331 0.22961735 0.84510088 31 29 32
-0.44954331 0.25006699 0.84510088 28 27 29
-0.44954331 0.26978629 0.84510088 27 25 28
-0.44954332 0.28950559 0.84510090 26 24 27
-0.44954334 0.30995524 0.84510094 26 23 26
-0.44954334 0.33040488 0.84510094 25 23 25
-0.44954334 0.35012418 0.84510094 23 21 23
-0.44954334 0.36984347 0.84510094 24 20 24
-0.44954334 0.39029311 0.84510094 22 19 22
-0.44954334 0.41001241 0.84510094 20 19 22
-0.44954334 0.42973171 0.84510094 6 5 6
-0.44954334 0.45018135 0.84510094 0 0 0
-0.44954334 0.46990064 0.84510094 0 0 0
-0.44954334 0.48012546 0.84510094 0 0 0
-0.42982402 -0.56572753 0.84510088 0 0 0
-0.42982402 -0.55039030 0.84510088 0 0 0
-0.42982402 -0.52994066 0.84510088 0 0 0
-0.42982402 -0.51022137 0.84510088 0 0 0
-0.42982402 -0.49050207 0.84510088 0 0 0
-0.42953151 -0.47236827 0.84510016 19 21 22
-0.43059066 -0.40428308 0.72811091 128 148 161
-0.43009997 -0.38987983 0.72811091 126 146 156
-0.43009997 -0.36974414 0.72811091 123 144 152
-0.43009997 -0.34960844 0.72811091 122 139 149
-0.43009997 -0.32947275 0.72811091 121 134 144
-0.43009997 -0.30996630 0.72811091 115 132 140
-0.43009997 -0.29045985 0.72811091 112 127 136
-0.43009997 -0.27032415 0.72811091 107 122 132
-0.43009997 -0.25018846 0.72811091 102 115 128
-0.43009997 -0.23005277 0.72811091 100 109 124
-0.43009997 -0.20991708 0.72811091 97 105 121
-0.43009997 -0.18978138 0.72811091 95 102 115
-0.43009997 -0.16964569 0.72811091 89 98 116
-0.43009997 -0.14951000 0.72811091 87 95 112
-0.43009997 -0.13000355 0.72811091 85 92 110
-0.42992678 -0.11198071 0.72811091 82 90 111
-0.42807533 -0.11497349 0.83881211 86 90 99
-0.42964997 -0.10824995 0.84505002 83 89 105
-0.42982310 -0.09027323 0.84509908 59 61 71
-0.42982353 -0.06982371 0.84509992 56 57 68
-0.42982372 -0.05010446 0.84510029 56 56 67
-0.42982386 -0.03038519 0.84510057 94 97 112
-0.42982394 -0.00993556 0.84510073 137 136 137
-0.42982398 0.00978373 0.84510080 137 131 122
-0.42982399 0.02950303 0.84510082 128 120 110
-0.42982400 0.04995267 0.84510085 131 123 114
-0.42982402 0.07040231 0.84510088 106 103 102
-0.42982402 0.09012160 0.84510088 104 99 98
-0.42982402 0.10984090 0.84510088 134 128 123
-0.42982402 0.13029054 0.84510088 122 116 110
-0.42982402 0.15000983 0.84510088 128 123 116
-0.42982402 0.16972912 0.84510088 96 93 90
-0.42982402 0.19017876 0.84510088 63 61 62
-0.42982402 0.20989806 0.84510088 38 37 40
-0.42982402 0.22961735 0.84510088 32 30 32
-0.42982402 0.25006699 0.84510088 29 28 31
-0.42982402 0.26978629 0.84510088 28 26 29
-0.42982403 0.28950559 0.84510091 26 24 27
-0.42982405 0.30995524 0.84510094 26 23 26
-0.42982405 0.33040488 0.84510094 25 23 25
-0.42982405 0.35012418 0.84510094 23 20 23
-0.42982405 0.36984347 0.84510094 25 21 24
-0.42982405 0.39029311 0.84510094 23 21 24
-0.42982405 0.41001241 0.84510094 24 20 23
-0.42982405 0.42973171 0.84510094 2 2 2
-0.42982405 0.45018135 0.84510094 0 0 0
-0.42982405 0.46990064 0.84510094 0 0 0
-0.42982405 0.48012546 0.84510094 0 0 0
-0.41010472 -0.56572753 0.84510088 0 0 0
-0.41010472 -0.55039030 0.84510088 0 0 0
-0.41010472 -0.52994066 0.84510088 0 0 0
-0.41010472 -0.51022137 0.84510088 0 0 0
-0.41010472 -0.49050207 0.84510088 0 0 0
-0.40977131 -0.47104672 0.84509788 16 18 19
-0.41128479 -0.40291663 0.72811091 123 144 151
-0.40996427 -0.38987983 0.72811091 123 143 150
-0.40996427 -0.36974414 0.72811091 123 141 147
-0.40996427 -0.34960844 0.72811091 118 138 144
-0.40996427 -0.32947275 0.72811091 116 135 142
-0.40996427 -0.30996630 0.72811091 114 132 139
-0.40996427 -0.29045985 0.72811091 114 128 138
-0.40996427 -0.27032415 0.72811091 109 123 132
-0.40996427 -0.25018846 0.72811091 105 116 127
-0.40996427 -0.23005277 0.72811091 100 111 123
-0.40996427 -0.20991708 0.72811091 96 106 122
-0.40996427 -0.18978138 0.72811091 97 102 118
-0.40996427 -0.16964569 0.72811091 90 100 113
-0.40996427 -0.14951000 0.72811091 90 96 114
-0.40996427 -0.13000355 0.72811091 85 94 111
-0.40985733 -0.11060404 0.72811091 85 91 111
-0.40013860 -0.11630990 0.83799499 89 95 113
-0.40997682 -0.10864001 0.84506864 81 88 106
-0.40430111 -0.09980001 0.72811091 84 94 114
-0.41010382 -0.09027323 0.84509902 59 60 70
-0.41010425 -0.06982371 0.84509990 57 57 67
-0.41010443 -0.05010446 0.84510028 57 57 67
-0.41010457 -0.03038519 0.84510056 92 93 107
-0.41010465 -0.00993556 0.84510073 136 135 136
-0.41010468 0.00978373 0.84510080 138 133 126
-0.41010469 0.02950303 0.84510082 131 125 116
-0.41010471 0.04995267 0.84510085 130 121 113
-0.41010472 0.07040231 0.84510088 110 106 105
-0.41010472 0.09012160 0.84510088 108 105 104
-0.41010472 0.10984090 0.84510088 134 128 123
-0.41010472 0.13029054 0.84510088 134 127 118
-0.41010472 0.15000983 0.84510088 129 121 115
-0.41010472 0.16972912 0.84510088 94 90 90
-0.41010472 0.19017876 0.84510088 85 82 81
-0.41010472 0.20989806 0.84510088 58 55 56
-0.41010472 0.22961735 0.84510088 38 36 40
-0.41010472 0.25006699 0.84510088 31 30 33
-0.41010472 0.26978629 0.84510088 28 26 29
-0.41010474 0.28950559 0.84510091 28 25 29
-0.41010475 0.30995524 0.84510094 26 24 28
-0.41010475 0.33040488 0.84510094 27 24 27
-0.41010475 0.35012418 0.84510094 27 24 27
-0.41010475 0.36984347 0.84510094 29 25 27
-0.41010475 0.39029311 0.84510094 31 26 29
-0.41010475 0.41001241 0.84510094 28 25 28
-0.41010475 0.42973171 0.84510094 0 0 0
-0.41010475 0.45018135 0.84510094 0 0 0
-0.41010475 0.46990064 0.84510094 0 0 0
-0.41010475 0.48012546 0.84510094 0 0 0
-0.38965508 -0.56572753 0.84510088 0 0 0
-0.38965508 -0.55039030 0.84510088 0 0 0
-0.38965508 -0.52994066 0.84510088 0 0 0
-0.38965508 -0.51022137 0.84510088 0 0 0
-0.38965508 -0.49050207 0.84510088 0 0 0
-0.38965505 -0.47005240 0.84510081 11 13 13
-0.38155373 -0.45901622 0.84495169 124 129 137
-0.39084505 -0.40154498 0.72811091 121 141 148
-0.38982858 -0.38987983 0.72811091 124 140 147
-0.38982858 -0.36974414 0.72811091 122 139 143
-0.38982858 -0.34960844 0.72811091 121 136 143
-0.38982858 -0.32947275 0.72811091 119 132 141
-0.38982858 -0.30996630 0.72811091 113 131 137
-0.38982858 -0.29045985 0.72811091 112 129 136
-0.38982858 -0.27032415 0.72811091 109 123 133
-0.38982858 -0.25018846 0.72811091 106 117 129
-0.38982858 -0.23005277 0.72811091 103 111 126
-0.38982858 -0.20991708 0.72811091 97 106 122
-0.38982858 -0.18978138 0.72811091 97 102 120
-0.38982858 -0.16964569 0.72811091 95 100 114
-0.38982858 -0.14951000 0.72811091 90 98 112
-0.38982858 -0.13000355 0.72811091 87 95 111
-0.38982858 -0.11049709 0.72811091 87 93 110
-0.38714436 -0.11393418 0.81078166 87 91 111
-0.39899762 -0.11784911 0.83864117 87 93 113
-0.38966391 -0.11002535 0.84499148 82 87 105
-0.38982858 -0.09980001 0.72811091 86 93 107
-0.38965421 -0.09027322 0.84509899 59 60 70
-0.38965463 -0.06982371 0.84509990 57 57 66
-0.38965481 -0.05010446 0.84510028 56 56 65
-0.38965493 -0.03038519 0.84510055 93 93 107
-0.38965502 -0.00993556 0.84510073 140 138 139
-0.38965505 0.00978373 0.84510080 142 135 126
-0.38965506 0.02950303 0.84510082 138 131 122
-0.38965507 0.04995267 0.84510085 131 122 116
-0.38965508 0.07040231 0.84510088 108 106 104
-0.38965508 0.09012160 0.84510088 116 110 109
-0.38965508 0.10984090 0.84510088 128 121 115
-0.38965508 0.13029054 0.84510088 122 114 107
-0.38965508 0.15000983 0.84510088 123 114 108
-0.38965508 0.16972912 0.84510088 115 108 106
-0.38965508 0.19017876 0.84510088 101 99 95
-0.38965508 0.20989806 0.84510088 103 99 97
-0.38965508 0.22961735 0.84510088 79 73 73
-0.38965508 0.25006699 0.84510088 48 46 49
-0.38965508 0.26978629 0.84510088 39 37 39
-0.38965510 0.28950559 0.84510091 36 33 37
-0.38965511 0.30995524 0.84510094 36 33 35
-0.38965511 0.33040488 0.84510094 37 34 37
-0.38965511 0.35012418 0.84510094 42 39 41
-0.38965511 0.36984347 0.84510094 49 45 46
-0.38965511 0.39029311 0.84510094 55 50 50
-0.38965511 0.41001241 0.84510094 35 33 33
-0.38965511 0.42973171 0.84510094 0 0 0
-0.38965511 0.45018135 0.84510094 0 0 0
-0.38965511 0.46990064 0.84510094 0 0 0
-0.38965511 0.48012546 0.84510094 0 0 0
-0.36993579 -0.56572753 0.84510088 0 0 0
-0.36993579 -0.55039030 0.84510088 0 0 0
-0.36993579 -0.52994066 0.84510088 0 0 0
-0.36993579 -0.51022137 0.84510088 0 0 0
-0.36993579 -0.49050207 0.84510088 0 0 0
-0.36993579 -0.47005243 0.84510088 0 0 0
-0.36831177 -0.45869023 0.84509850 88 98 100
-0.37787301 -0.40120616 0.72811091 126 137 144
-0.36978989 -0.38976791 0.72811091 124 136 141
-0.36969289 -0.36974414 0.72811091 119 136 140
-0.36969289 -0.34960844 0.72811091 117 134 138
-0.36969289 -0.32947275 0.72811091 116 131 138
-0.36969289 -0.30996630 0.72811091 115 128 137
-0.36969289 -0.29045985 0.72811091 111 127 135
-0.36969289 -0.27032415 0.72811091 109 122 132
-0.36969289 -0.25018846 0.72811091 105 119 128
-0.36969289 -0.23005277 0.72811091 103 112 125
-0.36969289 -0.20991708 0.72811091 100 107 120
-0.36969289 -0.18978138 0.72811091 94 104 118
-0.36969289 -0.16964569 0.72811091 94 100 117
-0.36969289 -0.14951000 0.72811091 91 97 113
-0.36969289 -0.13000355 0.72811091 90 95 113
-0.36230180 -0.12131790 0.83260328 87 88 105
-0.36716501 -0.12100835 0.84442252 86 92 109
-0.36969289 -0.11049709 0.72811091 87 95 110
-0.36992988 -0.10999090 0.84508743 82 87 104
-0.37598529 -0.09980001 0.72811091 86 92 105
-0.36993500 -0.09027323 0.84509908 59 60 70
-0.36993538 -0.06982371 0.84509994 57 57 65
-0.36993553 -0.05010446 0.84510030 55 55 63
-0.36993564 -0.03038519 0.84510055 90 90 104
-0.36993573 -0.00993556 0.84510073 141 139 139
-0.36993575 0.00978373 0.84510080 142 135 127
-0.36993576 0.02950303 0.84510082 140 132 123
-0.36993578 0.04995267 0.84510085 129 121 114
-0.36993579 0.07040231 0.84510088 112 108 105
-0.36993579 0.09012160 0.84510088 111 106 104
-0.36993579 0.10984090 0.84510088 129 121 114
-0.36993579 0.13029054 0.84510088 128 121 114
-0.36993579 0.15000983 0.84510088 129 121 117
-0.36993579 0.16972912 0.84510088 98 95 96
-0.36993579 0.19017876 0.84510088 90 87 87
-0.36993579 0.20989806 0.84510088 112 105 100
-0.36993579 0.22961735 0.84510088 103 95 89
-0.36993579 0.25006699 0.84510088 84 80 79
-0.36993579 0.26978629 0.84510088 73 69 68
-0.36993580 0.28950559 0.84510091 57 55 57
-0.36993582 0.30995524 0.84510094 54 51 52
-0.36993582 0.33040488 0.84510094 54 50 51
-0.36993582 0.35012418 0.84510094 57 55 55
-0.36993582 0.36984347 0.84510094 65 63 61
-0.36993582 0.39029311 0.84510094 79 74 72
-0.36993582 0.41001241 0.84510094 33 31 31
-0.36993582 0.42973171 0.84510094 0 0 0
-0.36993582 0.45018135 0.84510094 0 0 0
-0.36993582 0.46990064 0.84510094 0 0 0
-0.36993582 0.48012546 0.84510094 0 0 0
-0.35021649 -0.56572753 0.84510088 0 0 0
-0.35021649 -0.55039030 0.84510088 0 0 0
-0.35021649 -0.52994066 0.84510088 0 0 0
-0.35021649 -0.51022137 0.84510088 0 0 0
-0.35021649 -0.49050207 0.84510088 0 0 0
-0.35021649 -0.47005243 0.84510088 0 0 0
-0.34878673 -0.45722271 0.84509889 51 59 59
-0.34991676 -0.38866629 0.72811091 123 133 138
-0.34955720 -0.36974414 0.72811091 119 133 138
-0.34955720 -0.34960844 0.72811091 119 131 137
-0.34955720 -0.32947275 0.72811091 118 130 136
-0.34955720 -0.30996630 0.72811091 114 128 136
-0.34955720 -0.29045985 0.72811091 114 125 133
-0.34955720 -0.27032415 0.72811091 109 123 129
-0.34955720 -0.25018846 0.72811091 106 117 128
-0.34955720 -0.23005277 0.72811091 101 113 124
-0.34955720 -0.20991708 0.72811091 99 108 120
-0.34955720 -0.18978138 0.72811091 95 103 121
-0.34955720 -0.16964569 0.72811091 96 101 116
-0.34955720 -0.14951000 0.72811091 91 97 113
-0.34955720 -0.13000355 0.72811091 89 96 110
-0.35027309 -0.12529678 0.83998233 89 92 109
-0.34894810 -0.12313175 0.84490667 88 93 108
-0.34988482 -0.11100673 0.72811091 86 95 109
-0.35216186 -0.11136355 0.78285939 93 100 123
-0.35021360 -0.10999179 0.84509392 82 87 103
-0.35021578 -0.09027324 0.84509917 58 60 69
-0.35021612 -0.06982371 0.84509998 56 56 65
-0.35021626 -0.05010446 0.84510031 56 56 64
-0.35021636 -0.03038519 0.84510055 91 91 105
-0.35021643 -0.00993556 0.84510073 136 134 133
-0.35021646 0.00978373 0.84510080 141 136 128
-0.35021647 0.02950303 0.84510082 132 124 118
-0.35021648 0.04995267 0.84510085 121 114 111
-0.35021649 0.07040231 0.84510088 106 104 100
-0.35021649 0.09012160 0.84510088 113 107 103
-0.35021649 0.10984090 0.84510088 132 123 115
-0.35021649 0.13029054 0.84510088 129 118 108
-0.35021649 0.15000983 0.84510088 128 120 109
-0.35021649 0.16972912 0.84510088 104 100 98
-0.35021649 0.19017876 0.84510088 90 88 86
-0.35021649 0.20989806 0.84510088 114 109 105
-0.35021649 0.22961735 0.84510088 108 102 96
-0.35021649 0.25006699 0.84510088 77 76 77
-0.35021649 0.26978629 0.84510088 76 75 75
-0.35021651 0.28950559 0.84510092 67 65 65
-0.35021652 0.30995524 0.84510094 74 71 70
-0.35021652 0.33040488 0.84510094 64 63 63
-0.35021652 0.35012418 0.84510094 65 63 64
-0.35021652 0.36984347 0.84510094 76 74 72
-0.35021652 0.39029311 0.84510094 79 76 75
-0.35021652 0.41001241 0.84510094 15 15 14
-0.35021652 0.42973171 0.84510094 0 0 0
-0.35021652 0.45018135 0.84510094 0 0 0
-0.35021652 0.46990064 0.84510094 0 0 0
-0.35021652 0.48012546 0.84510094 0 0 0
-0.32976686 -0.56572753 0.84510088 0 0 0
-0.32976686 -0.55039030 0.84510088 0 0 0
-0.32976686 -0.52994066 0.84510088 0 0 0
-0.32976686 -0.51022137 0.84510088 0 0 0
-0.32976686 -0.49050207 0.84510088 0 0 0
-0.32976686 -0.47005243 0.84510088 0 0 0
-0.32962884 -0.45621767 0.84509984 39 42 43
-0.33023918 -0.38766908 0.72811091 121 131 136
-0.33005074 -0.36974414 0.72811091 119 130 136
-0.33005074 -0.34960844 0.72811091 117 129 134
-0.33005074 -0.32947275 0.72811091 117 129 135
-0.33005074 -0.30996630 0.72811091 114 126 134
-0.33005074 -0.29045985 0.72811091 114 124 133
-0.33005074 -0.27032415 0.72811091 112 121 130
-0.33005074 -0.25018846 0.72811091 106 118 126
-0.33005074 -0.23005277 0.72811091 102 112 124
-0.33005074 -0.20991708 0.72811091 99 108 121
-0.33005074 -0.18978138 0.72811091 96 103 120
-0.33005074 -0.16964569 0.72811091 95 100 115
-0.33005074 -0.14951000 0.72811091 91 98 110
-0.33005074 -0.13000355 0.72811091 88 96 111
-0.33074060 -0.12883026 0.83465654 90 95 117
-0.32918355 -0.12542656 0.84501422 88 93 112
-0.33021731 -0.11199617 0.72811091 89 93 112
-0.32976480 -0.10999203 0.84509563 81 86 103
-0.32976622 -0.09027325 0.84509926 58 57 68
-0.32976652 -0.06982372 0.84510002 55 54 64
-0.32976664 -0.05010446 0.84510033 54 54 63
-0.32976673 -0.03038519 0.84510055 88 89 99
-0.32976680 -0.00993556 0.84510073 134 131 132
-0.32976682 0.00978373 0.84510080 139 129 124
-0.32976683 0.02950303 0.84510082 127 119 114
-0.32976684 0.04995267 0.84510085 118 112 109
-0.32976686 0.07040231 0.84510088 112 108 105
-0.32976686 0.09012160 0.84510088 114 109 105
-0.32976686 0.10984090 0.84510088 126 119 114
-0.32976686 0.13029054 0.84510088 127 119 113
-0.32976686 0.15000983 0.84510088 113 108 101
-0.32976686 0.16972912 0.84510088 109 105 102
-0.32976686 0.19017876 0.84510088 94 91 89
-0.32976686 0.20989806 0.84510088 101 100 95
-0.32976686 0.22961735 0.84510088 107 102 98
-0.32976686 0.25006699 0.84510088 86 84 85
-0.32976686 0.26978629 0.84510088 74 73 75
-0.32976687 0.28950559 0.84510092 70 67 68
-0.32976688 0.30995524 0.84510094 75 72 70
-0.32976688 0.33040488 0.84510094 67 66 65
-0.32976688 0.35012418 0.84510094 71 68 69
-0.32976688 0.36984347 0.84510094 66 63 64
-0.32976688 0.39029311 0.84510094 77 76 75
-0.32976688 0.41001241 0.84510094 1 1 1
-0.32976688 0.42973171 0.84510094 0 0 0
-0.32976688 0.45018135 0.84510094 0 0 0
-0.32976688 0.46990064 0.84510094 0 0 0
-0.32976688 0.48012546 0.84510094 0 0 0
-0.31004756 -0.56572753 0.84510088 0 0 0
-0.31004756 -0.55039030 0.84510088 0 0 0
-0.31004756 -0.52994066 0.84510088 0 0 0
-0.31004756 -0.51022137 0.84510088 0 0 0
-0.31004756 -0.49050207 0.84510088 0 0 0
-0.31004756 -0.47005243 0.84510088 0 0 0
-0.30967669 -0.45488096 0.84509686 36 39 39
-0.31096985 -0.38666816 0.72811091 118 129 133
-0.31054429 -0.36974414 0.72811091 117 129 133
-0.31054429 -0.34960844 0.72811091 118 127 134
-0.31054429 -0.32947275 0.72811091 117 127 132
-0.31054429 -0.30996630 0.72811091 114 125 133
-0.31054429 -0.29045985 0.72811091 113 122 130
-0.31054429 -0.27032415 0.72811091 108 118 129
-0.31054429 -0.25018846 0.72811091 106 115 125
-0.31054429 -0.23005277 0.72811091 104 110 122
-0.31054429 -0.20991708 0.72811091 98 106 120
-0.31054429 -0.18978138 0.72811091 96 103 116
-0.31054429 -0.16964569 0.72811091 92 99 115
-0.31054429 -0.14951000 0.72811091 91 96 111
-0.31054429 -0.13000355 0.72811091 89 95 110
-0.30978214 -0.12731721 0.84500830 87 93 106
-0.31112911 -0.11379875 0.72811091 89 95 110
-0.31004596 -0.10999215 0.84509653 81 84 101
-0.31004700 -0.09027326 0.84509936 56 56 66
-0.31004726 -0.06982372 0.84510006 54 53 62
-0.31004736 -0.05010446 0.84510034 54 53 62
-0.31004744 -0.03038519 0.84510055 87 87 100
-0.31004751 -0.00993556 0.84510073 134 131 131
-0.31004753 0.00978373 0.84510080 140 131 123
-0.31004754 0.02950303 0.84510082 122 113 110
-0.31004755 0.04995267 0.84510085 114 108 106
-0.31004756 0.07040231 0.84510088 112 106 104
-0.31004756 0.09012160 0.84510088 128 121 115
-0.31004756 0.10984090 0.84510088 121 114 109
-0.31004756 0.13029054 0.84510088 116 111 109
-0.31004756 0.15000983 0.84510088 115 108 104
-0.31004756 0.16972912 0.84510088 100 94 93
-0.31004756 0.19017876 0.84510088 87 83 81
-0.31004756 0.20989806 0.84510088 89 85 85
-0.31004756 0.22961735 0.84510088 91 88 87
-0.31004756 0.25006699 0.84510088 81 78 80
-0.31004756 0.26978629 0.84510088 71 70 70
-0.31004758 0.28950560 0.84510092 71 69 70
-0.31004758 0.30995524 0.84510094 82 80 79
-0.31004758 0.33040488 0.84510094 85 81 82
-0.31004758 0.35012418 0.84510094 77 74 72
-0.31004758 0.36984347 0.84510094 70 70 69
-0.31004758 0.39029311 0.84510094 74 73 73
-0.31004758 0.41001241 0.84510094 0 0 0
-0.31004758 0.42973171 0.84510094 0 0 0
-0.31004758 0.45018135 0.84510094 0 0 0
-0.31004758 0.46990064 0.84510094 0 0 0
-0.31004758 0.48012546 0.84510094 0 0 0
-0.29032827 -0.56572753 0.84510088 0 0 0
-0.29032827 -0.55039030 0.84510088 0 0 0
-0.29032827 -0.52994066 0.84510088 0 0 0
-0.29032827 -0.51022137 0.84510088 0 0 0
-0.29032827 -0.49050207 0.84510088 0 0 0
-0.29032827 -0.47005243 0.84510088 0 0 0
-0.29024219 -0.45403010 0.84509935 31 32 33
-0.29070224 -0.38513955 0.72811091 117 126 129
-0.29040860 -0.36974414 0.72811091 118 126 130
-0.29040860 -0.34960844 0.72811091 117 125 131
-0.29040860 -0.32947275 0.72811091 115 125 131
-0.29040860 -0.30996630 0.72811091 114 122 130
-0.29040860 -0.29045985 0.72811091 111 119 127
-0.29040860 -0.27032415 0.72811091 107 115 125
-0.29040860 -0.25018846 0.72811091 103 112 124
-0.29040860 -0.23005277 0.72811091 102 108 120
-0.29040860 -0.20991708 0.72811091 100 106 116
-0.29040860 -0.18978138 0.72811091 96 101 116
-0.29040860 -0.16964569 0.72811091 91 98 114
-0.29040860 -0.14951000 0.72811091 90 96 111
-0.29040860 -0.13000355 0.72811091 90 94 109
-0.28695224 -0.13107336 0.81278294 87 88 103
-0.29019681 -0.12814265 0.84502637 87 90 107
-0.29138617 -0.11601418 0.72811091 89 93 112
-0.29032696 -0.10999222 0.84509709 79 81 97
-0.29032777 -0.09027327 0.84509944 56 55 65
-0.29032799 -0.06982372 0.84510008 53 53 60
-0.29032808 -0.05010446 0.84510035 53 52 61
-0.29032815 -0.03038519 0.84510055 90 89 100
-0.29032822 -0.00993556 0.84510073 134 130 130
-0.29032824 0.00978373 0.84510080 143 136 130
-0.29032825 0.02950303 0.84510082 122 115 111
-0.29032826 0.04995267 0.84510085 120 113 109
-0.29032827 0.07040231 0.84510088 126 118 114
-0.29032827 0.09012160 0.84510088 140 130 123
-0.29032827 0.10984090 0.84510088 116 107 103
-0.29032827 0.13029054 0.84510088 120 115 111
-0.29032827 0.15000983 0.84510088 114 106 104
-0.29032827 0.16972912 0.84510088 105 101 99
-0.29032827 0.19017876 0.84510088 92 88 88
-0.29032827 0.20989806 0.84510088 75 74 75
-0.29032827 0.22961735 0.84510088 94 92 91
-0.29032827 0.25006699 0.84510088 85 84 84
-0.29032827 0.26978629 0.84510088 67 66 67
-0.29032828 0.28950560 0.84510092 76 74 74
-0.29032829 0.30995524 0.84510094 81 78 78
-0.29032829 0.33040488 0.84510094 79 77 77
-0.29032829 0.35012418 0.84510094 74 73 73
-0.29032829 0.36984347 0.84510094 110 109 106
-0.29032829 0.39029311 0.84510094 91 90 85
-0.29032829 0.41001241 0.84510094 0 0 0
-0.29032829 0.42973171 0.84510094 0 0 0
-0.29032829 0.45018135 0.84510094 0 0 0
-0.29032829 0.46990064 0.84510094 0 0 0
-0.29032829 0.48012546 0.84510094 0 0 0
-0.26987863 -0.56572753 0.84510088 0 0 0
-0.26987863 -0.55039030 0.84510088 0 0 0
-0.26987863 -0.52994066 0.84510088 0 0 0
-0.26987863 -0.51022137 0.84510088 0 0 0
-0.26987863 -0.49050207 0.84510088 0 0 0
-0.26987863 -0.47005243 0.84510088 0 0 0
-0.26957785 -0.45359813 0.84510074 21 21 22
-0.27097206 -0.38414675 0.72811091 117 122 124
-0.27027291 -0.36974414 0.72811091 116 123 126
-0.27027291 -0.34960844 0.72811091 116 123 128
-0.27027291 -0.32947275 0.72811091 113 122 127
-0.27027291 -0.30996630 0.72811091 111 119 126
-0.27027291 -0.29045985 0.72811091 107 116 123
-0.27027291 -0.27032415 0.72811091 105 112 119
-0.27027291 -0.25018846 0.72811091 104 108 118
-0.27027291 -0.23005277 0.72811091 101 105 116
-0.27027291 -0.20991708 0.72811091 97 102 115
-0.27027291 -0.18978138 0.72811091 93 99 112
-0.27027291 -0.16964569 0.72811091 91 97 108
-0.27027291 -0.14951000 0.72811091 89 95 107
-0.27027291 -0.13000355 0.72811091 87 92 107
-0.26986533 -0.12824473 0.84505926 86 89 105
-0.27153139 -0.11804798 0.72811091 88 92 109
-0.26987750 -0.10999225 0.84509735 77 79 93
-0.26987819 -0.09027328 0.84509950 55 54 62
-0.26987838 -0.06982372 0.84510010 51 50 60
-0.26987846 -0.05010446 0.84510035 52 51 59
-0.26987852 -0.03038519 0.84510054 90 88 97
-0.26987858 -0.00993556 0.84510073 133 129 130
-0.26987860 0.00978373 0.84510080 142 132 127
-0.26987861 0.02950303 0.84510082 118 113 110
-0.26987862 0.04995267 0.84510085 121 115 110
-0.26987863 0.07040231 0.84510088 133 124 119
-0.26987863 0.09012160 0.84510088 139 129 121
-0.26987863 0.10984090 0.84510088 123 116 109
-0.26987863 0.13029054 0.84510088 112 106 104
-0.26987863 0.15000983 0.84510088 111 104 101
-0.26987863 0.16972912 0.84510088 97 93 93
-0.26987863 0.19017876 0.84510088 87 85 85
-0.26987863 0.20989806 0.84510088 87 85 84
-0.26987863 0.22961735 0.84510088 88 84 82
-0.26987863 0.25006699 0.84510088 87 83 82
-0.26987863 0.26978629 0.84510088 80 78 78
-0.26987864 0.28950560 0.84510093 94 91 89
-0.26987865 0.30995524 0.84510094 74 71 70
-0.26987865 0.33040488 0.84510094 87 83 84
-0.26987865 0.35012418 0.84510094 121 119 117
-0.26987865 0.36984347 0.84510094 159 157 149
-0.26987865 0.39029311 0.84510094 65 64 61
-0.26987865 0.41001241 0.84510094 0 0 0
-0.26987865 0.42973171 0.84510094 0 0 0
-0.26987865 0.45018135 0.84510094 0 0 0
-0.26987865 0.46990064 0.84510094 0 0 0
-0.26987865 0.48012546 0.84510094 0 0 0
-0.25015933 -0.56572753 0.84510088 0 0 0
-0.25015933 -0.55039030 0.84510088 0 0 0
-0.25015933 -0.52994066 0.84510088 0 0 0
-0.25015933 -0.51022137 0.84510088 0 0 0
-0.25015933 -0.49050207 0.84510088 0 0 0
-0.25015933 -0.47005243 0.84510088 0 0 0
-0.24989023 -0.45298248 0.84508861 16 17 17
-0.25035208 -0.38305027 0.72811091 115 121 122
-0.25013721 -0.36974414 0.72811091 114 119 122
-0.25013721 -0.34960844 0.72811091 114 119 121
-0.25013721 -0.32947275 0.72811091 111 116 119
-0.25013721 -0.30996630 0.72811091 110 115 119
-0.25013721 -0.29045985 0.72811091 106 111 117
-0.25013721 -0.27032415 0.72811091 101 108 116
-0.25013721 -0.25018846 0.72811091 99 105 114
-0.25013721 -0.23005277 0.72811091 99 102 112
-0.25013721 -0.20991708 0.72811091 94 100 110
-0.25013721 -0.18978138 0.72811091 91 97 109
-0.25013721 -0.16964569 0.72811091 88 94 107
-0.25013721 -0.14951000 0.72811091 88 92 104
-0.25013721 -0.13000355 0.72811091 85 90 106
-0.25014503 -0.12824362 0.84505241 84 88 102
-0.25065541 -0.11919542 0.72811091 88 89 104
-0.25015833 -0.10999227 0.84509748 75 77 88
-0.25015894 -0.09027328 0.84509955 52 51 59
-0.25015910 -0.06982372 0.84510010 50 49 55
-0.25015918 -0.05010446 0.84510036 51 50 57
-0.25015923 -0.03038519 0.84510054 88 88 96
-0.25015929 -0.00993556 0.84510073 134 130 130
-0.25015931 0.00978373 0.84510080 138 129 124
-0.25015932 0.02950303 0.84510082 114 108 106
-0.25015932 0.04995267 0.84510085 126 118 114
-0.25015933 0.07040231 0.84510088 134 124 121
-0.25015933 0.09012160 0.84510088 133 124 118
-0.25015933 0.10984090 0.84510088 118 111 108
-0.25015933 0.13029054 0.84510088 108 101 101
-0.25015933 0.15000983 0.84510088 120 113 110
-0.25015933 0.16972912 0.84510088 96 91 90
-0.25015933 0.19017876 0.84510088 96 93 92
-0.25015933 0.20989806 0.84510088 86 84 83
-0.25015933 0.22961735 0.84510088 92 89 89
-0.25015933 0.25006699 0.84510088 73 71 73
-0.25015933 0.26978629 0.84510088 87 84 82
-0.25015935 0.28950560 0.84510093 94 91 89
-0.25015935 0.30995524 0.84510094 87 86 86
-0.25015935 0.33040488 0.84510094 127 125 121
-0.25015935 0.35012418 0.84510094 155 152 144
-0.25015935 0.36984347 0.84510094 159 157 147
-0.25015935 0.39029311 0.84510094 38 37 35
-0.25015935 0.41001241 0.84510094 0 0 0
-0.25015935 0.42973171 0.84510094 0 0 0
-0.25015935 0.45018135 0.84510094 0 0 0
-0.25015935 0.46990064 0.84510094 0 0 0
-0.25015935 0.48012546 0.84510094 0 0 0
-0.23044004 -0.56572753 0.84510088 0 0 0
-0.23044004 -0.55039030 0.84510088 0 0 0
-0.23044004 -0.52994066 0.84510088 0 0 0
-0.23044004 -0.51022137 0.84510088 0 0 0
-0.23044004 -0.49050207 0.84510088 0 0 0
-0.23044004 -0.47005243 0.84510088 0 0 0
-0.23043949 -0.45179280 0.84509893 22 23 23
-0.23054087 -0.38259862 0.72811091 113 116 118
-0.23000152 -0.36974414 0.72811091 112 117 118
-0.23000152 -0.34960844 0.72811091 110 115 117
-0.23000152 -0.32947275 0.72811091 109 113 117
-0.23000152 -0.30996630 0.72811091 108 111 115
-0.23000152 -0.29045985 0.72811091 104 108 114
-0.23000152 -0.27032415 0.72811091 101 104 112
-0.23000152 -0.25018846 0.72811091 96 101 110
-0.23000152 -0.23005277 0.72811091 94 98 108
-0.23000152 -0.20991708 0.72811091 93 96 106
-0.23000152 -0.18978138 0.72811091 90 94 105
-0.23000152 -0.16964569 0.72811091 88 92 103
-0.23000152 -0.14951000 0.72811091 86 90 102
-0.23000152 -0.13000355 0.72811091 86 89 103
-0.23043139 -0.12824634 0.84506934 84 87 102
-0.23000152 -0.11930646 0.72811091 84 88 104
-0.23043916 -0.10999230 0.84509767 75 75 87
-0.23043969 -0.09027329 0.84509961 52 51 57
-0.23043983 -0.06982372 0.84510010 51 50 55
-0.23043989 -0.05010446 0.84510035 52 51 57
-0.23043995 -0.03038519 0.84510054 86 85 92
-0.23044000 -0.00993556 0.84510073 128 123 124
-0.23044002 0.00978373 0.84510080 135 126 122
-0.23044002 0.02950303 0.84510082 117 111 109
-0.23044003 0.04995267 0.84510085 126 118 115
-0.23044004 0.07040231 0.84510088 130 122 119
-0.23044004 0.09012160 0.84510088 131 122 117
-0.23044004 0.10984090 0.84510088 116 108 105
-0.23044004 0.13029054 0.84510088 111 105 103
-0.23044004 0.15000983 0.84510088 112 107 104
-0.23044004 0.16972912 0.84510088 85 82 81
-0.23044004 0.19017876 0.84510088 98 92 92
-0.23044004 0.20989806 0.84510088 81 79 79
-0.23044004 0.22961735 0.84510088 78 75 74
-0.23044004 0.25006699 0.84510088 79 78 78
-0.23044004 0.26978629 0.84510088 88 85 85
-0.23044005 0.28950560 0.84510093 80 78 79
-0.23044005 0.30995524 0.84510094 120 118 113
-0.23044005 0.33040488 0.84510094 160 156 148
-0.23044005 0.35012418 0.84510094 155 151 143
-0.23044005 0.36984347 0.84510094 157 154 145
