ply
format ascii 1.0
element vertex 995
property float x
property float y
property float z
property uchar red
property uchar green
property uchar blue
end_header
-0.46170026 0.17896847 0.91607340 95 97 107
-0.46054700 0.18215298 0.91483378 96 99 105
-0.46841593 0.18338018 0.92501210 103 105 110
-0.44325060 0.17667404 0.89550510 117 122 131
-0.45436668 0.17840298 0.91012417 111 114 125
-0.44520980 0.18241344 0.89668232 105 110 119
-0.45206759 0.18250995 0.90820643 104 109 115
-0.45048611 0.37725230 1.99576004 98 109 123
-0.42765701 0.15964711 0.88221313 128 136 144
-0.42650749 0.16502862 0.87881757 116 124 131
-0.43158789 0.16534453 0.88307671 116 123 130
-0.42369175 0.21393824 1.11013850 105 113 123
-0.42573623 0.21275424 1.12467179 106 113 123
-0.42300655 0.22072808 1.10859066 124 131 138
-0.41892657 0.16432535 0.87734193 139 147 156
-0.41939977 0.16714059 0.88152385 136 145 151
-0.40539134 0.21851013 1.09274973 100 115 125
-0.41237594 0.21499134 1.10558063 110 117 126
-0.40805598 0.22575035 1.09182017 106 119 127
-0.41424551 0.22142174 1.10249121 103 117 126
-0.39788881 0.21959324 1.07944560 113 126 134
-0.39979869 0.21877261 1.08462691 107 123 131
-0.39788881 0.22145899 1.07944560 121 131 136
-0.39770314 0.22315725 1.08659217 116 126 132
-0.36389869 -0.10590340 1.25552470 135 123 101
-0.36717303 -0.10446831 1.26002204 138 124 102
-0.36115798 -0.08732350 1.23815966 138 123 105
-0.36382639 -0.09118392 1.24707960 137 122 106
-0.36173338 -0.07651495 1.23646563 138 124 105
-0.36292008 -0.07008817 1.25535524 138 120 106
-0.35377643 -0.10482723 1.23853656 135 123 101
-0.35529260 -0.11030023 1.24384451 137 122 101
-0.34615433 -0.08176895 1.21922994 140 121 107
-0.35123515 -0.08824226 1.23088354 137 121 105
-0.35959053 -0.08664414 1.24383819 138 120 104
-0.35092372 -0.07542458 1.22968026 138 121 106
-0.35926124 -0.07367540 1.24269915 138 122 106
-0.33643099 -0.10105241 1.22733005 124 102 88
-0.33254740 -0.09107527 1.21525995 123 101 84
-0.33472804 -0.08674705 1.22407881 125 103 88
-0.33531636 -0.07748371 1.21813548 123 107 88
-0.33540546 -0.07731168 1.22540884 123 105 89
-0.30114472 0.25968504 0.75996846 83 91 96
-0.30643697 0.25771088 0.77194583 100 112 119
-0.30977781 0.25670515 0.78175437 94 107 113
-0.30179147 0.26392400 0.75521836 117 125 127
-0.30758936 0.26119349 0.76440994 101 111 119
-0.28868698 0.25683229 0.75145194 99 105 113
-0.29494714 0.25457084 0.76573872 86 95 101
-0.29096987 0.26397836 0.74877697 111 119 125
-0.26394366 0.05725109 0.47444556 134 142 145
-0.26102811 0.06188643 0.47349052 144 148 147
-0.27632412 0.25707735 0.73924953 116 125 131
-0.27819212 0.25590531 0.74175209 121 127 135
-0.27857978 0.26310736 0.74566895 125 133 142
-0.25909090 0.05659324 0.47462107 133 140 144
-0.25929366 0.06197429 0.47368345 134 138 138
-0.20332569 0.15562665 0.61406196 120 124 128
-0.20253178 0.16411988 0.61301935 118 123 126
-0.18399645 -0.12497239 0.59676454 141 129 113
-0.18564703 -0.11484139 0.59640762 141 127 112
-0.19738344 0.15451591 0.61197260 128 135 138
-0.18392513 0.16781211 0.59904458 101 111 121
-0.19279181 0.17047825 0.60929180 115 123 129
-0.19013463 0.18010326 0.60688615 109 117 123
-0.18034719 0.21346805 1.67587858 122 124 132
-0.18574043 0.23143792 1.67411024 128 131 140
-0.18809034 0.23008179 1.68295064 127 130 140
-0.18324381 0.24678992 1.67587858 113 117 132
-0.18795824 0.24403218 1.68350856 126 127 138
-0.17872520 -0.12592827 0.59474730 139 127 113
-0.16940800 0.21290230 1.67139447 125 127 139
-0.16876528 0.20567328 1.68315986 117 118 134
-0.17274797 0.22767534 1.66836685 125 129 139
-0.17751184 0.24267914 1.66558194 117 118 133
-0.14130093 -0.31171249 1.37179242 88 69 66
-0.14259410 -0.30655335 1.38548682 89 69 67
-0.14568686 0.15782411 0.50729200 112 122 129
-0.14745490 0.15723035 0.67596192 131 138 142
-0.14904801 0.17210443 0.49329549 130 139 145
-0.14644004 0.16289479 0.50633174 113 121 127
-0.14759845 0.17122512 0.65324093 141 145 148
-0.14732069 0.16449264 0.67643496 122 129 136
-0.14912649 0.17026780 0.68198514 111 115 124
-0.14589608 0.18048757 0.49467621 178 187 184
-0.15208006 0.21510865 1.66873098 135 139 147
-0.14758311 0.21136206 1.68211377 111 116 134
-0.14899901 0.22473368 1.65743732 164 168 173
-0.15051096 0.22332799 1.66430872 158 161 173
-0.12994776 -0.32281864 1.35408137 89 66 63
-0.12503238 -0.32119883 1.36466190 92 68 63
-0.13431829 -0.31855091 1.35714221 88 67 64
-0.13075494 -0.31496059 1.37206428 89 69 65
-0.12816825 -0.30773878 1.38752550 92 69 68
-0.12316134 -0.30555557 1.41084629 93 71 70
-0.12255178 -0.30476876 1.42774541 94 72 71
-0.13948502 0.15733005 0.50513577 95 104 116
-0.13926329 0.17100320 0.49051525 185 189 190
-0.13899696 0.16076064 0.50494742 103 110 121
-0.13597132 0.17103559 0.65317712 167 172 175
-0.13932889 0.16416528 0.67029577 121 126 131
-0.11644203 -0.32387316 1.37226382 91 69 65
-0.11635974 -0.32048693 1.38063514 93 69 67
-0.11612323 -0.31983554 1.37782896 92 69 67
-0.11364108 -0.31334953 1.39019856 92 69 68
-0.11047956 -0.30962419 1.40961828 92 71 70
-0.11010736 -0.30490990 1.42661479 93 75 67
-0.11339082 -0.29817876 1.43045520 93 76 69
-0.08874602 0.09685704 0.48541987 124 130 139
-0.09092233 0.10640128 0.49099036 130 135 141
-0.09894881 0.11534784 0.50102872 112 115 126
-0.06208995 0.33329339 0.82913706 194 197 196
-0.06023930 0.34736785 0.82468593 162 162 165
-0.04621027 0.33280382 0.81157203 137 138 140
-0.05130895 0.32987013 0.82579566 162 164 164
-0.05369483 0.32854103 0.84500301 184 186 188
-0.05376008 0.34407625 0.81483370 101 104 105
-0.05781428 0.34611712 0.82227202 120 121 124
-0.03735770 0.31963722 0.82301750 157 159 160
-0.03684154 0.32179334 0.81945245 159 160 160
-0.03764053 0.32079861 0.82143900 158 159 161
-0.02165129 0.42964195 1.13246672 137 141 145
-0.02349108 0.43656187 1.14549866 139 144 148
-0.02010526 0.44907816 1.13360155 163 168 168
-0.02242048 0.44796854 1.15163749 157 160 161
-0.02579112 0.45151393 1.16496315 146 149 151
-0.03111296 0.45629144 1.18879160 133 135 138
-0.02050530 0.46567148 1.15615737 172 176 176
-0.02427378 0.46711921 1.16897514 162 166 167
-0.02811210 0.46628370 1.18781810 149 151 152
-0.03400017 0.46658682 1.20946920 138 138 140
-0.03644086 0.47225723 1.22142673 142 143 145
-0.02592254 0.48094720 1.19068718 170 174 174
-0.02754956 0.48549569 1.20193589 171 175 176
-0.00786042 -0.12531157 0.47027187 83 67 65
-0.00688980 -0.11255443 0.47028815 92 72 69
-0.00147799 -0.08548175 0.45936377 105 85 81
-0.00488209 -0.08654273 0.46948213 106 84 80
-0.00121206 -0.07525447 0.45878014 110 89 83
-0.00985829 -0.06977507 0.47705078 107 84 79
-0.01250257 -0.06446440 0.48044800 108 84 79
-0.00436489 -0.04986010 0.47405407 119 96 86
-0.01013680 -0.05339263 0.48036168 112 90 82
-0.00585371 -0.03888073 0.47961789 122 102 88
-0.00710968 -0.03274653 0.48213055 124 102 92
-0.00807442 0.12767953 0.47100128 173 175 176
-0.00206997 0.17430379 0.59363628 161 162 163
-0.00437967 0.18058077 0.59464198 175 174 174
-0.00733139 0.43130522 1.13386029 152 154 158
-0.00515307 0.43583525 1.15124949 155 157 160
-0.00660526 0.43788393 1.17181051 162 164 164
-0.00891236 0.44351422 1.15327678 157 160 159
-0.00886397 0.44709227 1.16886764 153 155 157
-0.01178012 0.45640116 1.18305852 157 158 158
0.00328247 -0.08577564 0.46159620 105 84 82
0.00264446 0.12724851 0.47564248 166 166 167
0.00414964 0.12606596 0.48120160 171 173 174
0.01842776 0.17892340 0.47588263 163 169 169
0.00650644 0.17450766 0.57595820 145 150 155
0.00332067 0.17020513 0.59025035 143 144 149
0.01931282 0.18400447 0.47571569 157 163 166
0.01857455 0.41817375 1.87262940 160 165 170
0.00144625 0.42912261 1.13265216 158 159 161
0.01817294 0.43288243 1.83214009 165 169 177
0.01644091 0.43353370 1.85117071 153 161 167
0.01631138 0.42670135 1.87315387 148 151 157
0.02268447 0.17946131 0.47314040 161 163 167
0.03441347 0.17162957 0.49395008 147 149 153
0.02499493 0.18563514 0.47524446 155 158 159
0.03926108 0.18600768 0.49662530 156 160 161
0.03846841 0.18321726 0.50360872 156 161 162
0.03510295 0.19638636 0.71639813 157 162 167
0.03260711 0.19666262 0.72223598 143 148 157
0.03714740 0.20956316 0.71732302 160 163 167
0.03401530 0.20780415 0.72440636 148 151 158
0.03897684 0.40767136 1.64138460 140 146 152
0.03955144 0.41080242 1.66558194 133 136 144
0.03722133 0.41694909 1.69050336 135 136 144
0.03530358 0.41997710 1.81740439 176 180 183
0.03489700 0.41123189 1.83143844 166 167 173
0.02752457 0.41490285 1.84901960 161 164 171
0.02175115 0.41702175 1.86747062 163 169 172
0.03974676 0.43886843 1.67380702 169 171 171
0.03447137 0.42197561 1.69897699 146 146 155
0.03658142 0.42502742 1.72931588 133 132 142
0.03563232 0.43011636 1.75619650 136 135 142
0.03591966 0.43348037 1.76996464 131 131 136
0.03483660 0.43766949 1.79336464 135 135 138
0.03658199 0.43008705 1.81128125 167 168 171
0.03039809 0.43123925 1.83284940 171 174 179
0.02597097 0.43041588 1.84881582 163 167 175
0.02176324 0.42855155 1.86850805 156 161 169
0.03858267 0.44360001 1.68630856 164 167 168
0.03455798 0.44658723 1.70324588 166 170 169
0.03050993 0.44391686 1.81254506 162 163 163
0.02973460 0.44474510 1.82885671 164 165 165
0.02706538 0.44459897 1.84460706 175 176 177
0.04347015 0.16654595 0.47773065 163 168 167
0.04141132 0.17217074 0.48860429 159 163 164
0.04054287 0.18324856 0.49627177 154 157 157
0.04041544 0.18046314 0.50028920 157 159 160
0.04089764 0.19709925 0.71307135 162 165 168
0.05816504 0.20860888 0.67059577 155 156 157
0.04075407 0.20278632 0.71583343 149 150 156
0.04200963 0.20382772 0.72039515 155 156 158
0.05911928 0.22520250 0.67746994 168 170 170
0.05768311 0.23042829 0.68473923 171 172 171
0.05893321 0.26867415 0.69957876 161 162 158
0.05835384 0.26719984 0.70092243 161 163 163
0.05622712 0.35874143 1.49644995 140 140 149
0.05834684 0.36541045 1.51116252 155 158 162
0.05538210 0.36948969 1.53024240 147 150 156
0.05343878 0.37482776 1.54683301 143 148 152
0.05786446 0.38887124 1.55024421 169 172 176
0.05628124 0.39269697 1.57011694 166 170 174
0.05316283 0.39248011 1.58851346 157 161 166
0.05198706 0.39588604 1.60511291 152 157 163
0.05196040 0.38284105 1.69472957 133 134 152
0.05235327 0.38966337 1.70754337 150 151 159
0.04984136 0.38917824 1.72273222 141 140 147
0.04777409 0.38913785 1.75619650 154 154 154
0.04802291 0.39726712 1.76534331 134 134 143
0.04449197 0.39649590 1.78707214 163 163 163
0.05923462 0.40517831 1.57649267 165 165 165
0.05582882 0.40921915 1.59303428 161 163 165
0.05140570 0.41137825 1.60877261 165 167 171
0.04852983 0.41300908 1.62891837 164 166 171
0.04722006 0.40711768 1.64871113 147 151 157
0.04619705 0.41160262 1.67176595 141 146 152
0.04792263 0.41672945 1.70754701 143 145 153
0.05158716 0.40760222 1.73154992 167 167 167
0.05067825 0.41386693 1.75165856 167 167 167
0.04821132 0.41108060 1.77226925 175 178 178
0.04570192 0.41046138 1.79416998 166 167 171
0.04204584 0.41342791 1.80842052 170 172 176
0.04015004 0.41351139 1.82351789 166 167 175
0.05993150 0.42097270 1.59503961 128 128 137
0.05541640 0.42328776 1.61084547 137 139 144
0.05345767 0.42985627 1.62564259 139 142 148
0.04771308 0.43032240 1.64938982 160 162 165
0.04389417 0.43698029 1.66661254 166 167 169
0.04085644 0.42138302 1.72053766 134 134 143
0.04181153 0.42819020 1.76075804 121 119 125
0.04567796 0.42579875 1.79338968 164 165 166
0.04289796 0.42838477 1.80650967 173 174 176
0.05841155 0.44134647 1.62954772 121 124 134
0.05159779 0.44268314 1.65206035 131 135 141
0.04352956 0.44296183 1.67106533 154 155 160
0.06930900 0.04576054 0.45019385 121 125 134
0.07694910 0.07709828 0.84759697 122 125 135
0.07342097 0.17864770 0.49113985 136 139 141
0.07844778 0.18357554 0.47907552 169 170 170
0.07614391 0.18299700 0.49148331 154 159 161
0.07149748 0.21108666 0.67297232 137 142 147
0.07174037 0.20515998 0.68335873 105 112 125
0.07449940 0.21457311 0.85795705 159 160 160
0.07416187 0.21684248 0.86631747 161 161 163
0.07049812 0.22367239 0.67303832 143 147 150
0.07425449 0.22528121 0.86936918 134 136 144
0.06784973 0.22792746 0.88239372 113 118 133
0.06884726 0.26924621 0.69617429 138 143 145
0.06737591 0.27239073 0.70095661 144 149 150
0.07834506 0.28235695 0.70636373 165 174 176
0.06356563 0.35895076 1.48660493 164 173 172
0.06604964 0.36640495 1.49426707 165 172 172
0.06479332 0.37251304 1.50768819 166 170 171
0.06185777 0.37537886 1.52909148 161 169 171
0.06055129 0.37999225 1.54066324 158 165 171
0.07782622 0.37251562 1.74940121 170 171 169
0.07548419 0.37743399 1.76534331 172 173 173
0.06657309 0.38201985 1.49644995 153 154 156
0.06506315 0.38196141 1.50643748 161 161 163
0.06246268 0.38563929 1.53311499 168 170 172
0.06111146 0.39029049 1.54136515 169 170 173
0.07812852 0.38458470 1.75619650 141 140 148
0.07673515 0.38953664 1.77321050 158 160 163
0.07289184 0.39359768 1.78729156 148 150 154
0.06289698 0.40229404 1.55481410 152 153 156
0.06366855 0.41188140 1.56830063 137 139 145
0.06229758 0.41561071 1.58509588 134 136 142
0.07531971 0.41317320 1.79390713 170 171 173
0.07319502 0.41740527 1.80290389 168 169 170
0.06276232 0.42561097 1.59692055 123 124 134
0.06091181 0.43119018 1.60638599 121 123 133
0.07364090 0.42561535 1.80859275 133 134 140
0.08668731 0.07576375 0.84982673 124 128 138
0.08869563 0.08199766 0.84522934 120 125 135
0.08086709 0.17883236 0.48920560 140 142 143
0.09719519 0.17797336 0.76748943 163 164 167
0.09621788 0.17586902 0.79681886 175 178 182
0.09768861 0.17166642 0.80408301 169 173 176
0.08100914 0.18189973 0.48805364 144 146 149
0.09715563 0.18976350 0.77136974 164 170 174
0.09579713 0.19460483 0.78351277 160 164 169
0.08627866 0.21238324 0.65866572 149 152 155
0.08438127 0.21046386 0.66741463 155 159 163
0.08447734 0.20218627 0.68129832 155 160 163
0.09749590 0.20333925 0.77023113 155 156 157
0.09609748 0.20181564 0.79274174 152 158 164
0.08211184 0.21681220 0.86392527 137 137 145
0.08684758 0.22099909 0.65798876 157 159 160
0.08256804 0.22189454 0.66640431 154 161 162
0.08214862 0.22370222 0.86613600 161 162 164
0.08203901 0.27403846 0.69630287 158 165 169
0.08159783 0.27935626 0.70211500 169 176 177
0.08173685 0.28527526 0.70564160 163 167 169
0.09821832 0.37440559 1.70971388 152 152 159
0.09136335 0.37302076 1.73226698 149 149 151
0.08837284 0.37437350 1.74865653 155 155 156
0.08814831 0.37941006 1.77458596 161 161 159
0.09460307 0.38305684 1.73552146 141 141 148
0.08708383 0.38639305 1.74854018 147 149 154
0.08718687 0.39179259 1.76895244 156 159 162
0.09129576 0.40840353 1.77614665 163 166 168
0.08792639 0.41317547 1.78797112 157 159 162
0.08488067 0.41974241 1.80290389 147 147 154
0.09003137 0.42231895 1.79180404 121 124 138
0.08339803 0.42479529 1.80450646 121 122 135
0.09731981 0.65931797 1.95922494 175 179 180
0.09731981 0.66609067 1.95922494 176 179 181
0.09503209 0.67730719 1.98213995 174 179 180
0.09845805 0.68073314 1.98213995 171 177 177
0.10490544 0.15350577 0.79668995 148 148 155
0.10497850 0.15705339 0.80308829 158 159 166
0.11741512 0.17820328 0.75699839 146 149 157
0.10515047 0.17877217 0.76302563 161 164 166
0.10443050 0.17208418 0.79694580 166 168 169
0.10411480 0.16714827 0.80486825 166 168 170
0.11787409 0.18446991 0.75855544 151 152 154
0.10839291 0.18949049 0.76872060 156 158 161
0.10617474 0.20184021 0.77455254 128 131 140
0.10795188 0.20756408 0.78449759 121 125 136
0.10058794 0.38071597 1.72491562 153 152 159
0.10742136 0.61990219 1.84209740 160 160 160
0.10830428 0.62981242 1.85723794 162 162 163
0.10677108 0.63503245 1.87265080 169 169 170
0.10387625 0.63721788 1.89355266 170 171 171
0.10543660 0.64494990 1.89224875 174 175 175
0.10445982 0.65067148 1.90419054 174 177 178
0.10290290 0.65513054 1.93683386 175 177 178
0.10195196 0.65816283 1.95080423 175 177 178
0.10835984 0.66096729 1.91494870 169 168 169
0.10564687 0.66139412 1.92582905 173 176 176
0.10421085 0.67008345 1.95359902 172 174 175
0.10299062 0.67847919 1.97063243 171 175 176
0.10917208 0.68302250 1.95922494 156 156 157
0.10913468 0.69200323 1.96871185 151 151 151
0.10551588 0.69236533 1.98601504 162 163 164
0.11661080 0.70058244 1.99968100 145 145 145
0.13624866 0.03498480 0.63794574 127 129 139
0.13761248 0.02869329 0.64272970 132 133 139
0.13937296 0.04083015 0.63791591 133 135 147
0.14652442 0.01808282 0.64728337 133 133 136
0.14458841 0.03766279 0.63893711 128 129 140
0.14562718 0.02836616 0.64377898 147 147 150
0.14495783 0.04191604 0.63855747 128 131 142
0.15091003 0.04125269 0.64164303 142 144 152
0.14907755 0.06645909 0.49558505 119 124 133
0.17808043 0.11440499 0.53500933 159 160 163
0.17969058 0.11048257 0.54080001 165 169 173
0.17087312 0.15967065 0.66765503 128 128 136
0.17705009 0.16628985 0.65942788 136 136 141
0.17219062 0.16471858 0.66776963 154 156 159
0.16685354 0.16645099 0.68495406 159 162 165
0.17726470 0.23302611 1.07687414 132 135 137
0.17835662 0.23151977 1.08462915 125 127 132
0.17920481 0.24118610 1.07176644 111 113 125
0.19712061 0.01589362 0.55023210 144 145 147
0.19845024 0.02217121 0.54902413 147 147 147
0.18427030 0.11618652 0.53422656 152 153 158
0.18230443 0.10918625 0.54206519 167 169 172
0.18760417 0.21126501 1.05645883 173 177 181
0.18993852 0.21570367 1.06822491 170 173 178
0.18797643 0.23021244 1.07623568 150 152 158
0.18968359 0.23094927 1.08780482 150 152 156
0.19954540 0.23757127 1.10226321 141 139 146
0.18708354 0.24283179 1.07442856 153 157 162
0.19713371 0.25123380 1.08751805 157 163 166
0.19956531 0.24351533 1.10767823 166 166 171
0.20389974 0.01447112 0.55003184 141 142 145
0.20259228 0.02196642 0.54903380 141 140 142
0.20971207 0.15633259 0.51345277 157 159 159
0.20867600 0.16429597 0.51327544 147 150 151
0.20183482 0.22985455 1.09573195 163 164 167
0.20223965 0.23928206 1.10136849 158 157 162
0.20349954 0.25504221 1.07944560 143 147 153
0.20163176 0.24893703 1.08595794 160 163 166
0.20310223 0.24368269 1.11130909 165 165 169
0.20458367 0.24655995 1.12296200 169 168 171
0.21708117 0.30822289 1.70324588 179 183 182
0.21870413 0.35763130 0.89635061 155 157 157
0.21495700 0.35858393 0.90441970 139 142 147
0.21296259 0.37088742 0.89696079 66 66 67
0.21292873 0.36744419 0.90547648 132 134 136
0.23916314 0.28903572 1.65241349 169 169 171
0.23655943 0.29553734 1.66763985 153 154 159
0.23764704 0.29567659 1.68211377 167 168 170
0.22662617 0.30037381 1.67587858 124 125 137
0.23038775 0.30468438 1.69292436 124 127 137
0.23179855 0.31197395 1.70911401 134 137 145
0.23415409 0.31729966 1.72053766 110 113 121
0.23594203 0.32454835 1.72547406 126 127 134
0.22061093 0.35762414 0.89108466 150 148 148
0.22126091 0.36388356 0.89405561 138 138 138
0.25762255 0.12994993 0.45236916 136 138 138
0.24719507 0.29312575 1.65461538 165 166 167
0.24355166 0.29804053 1.66286039 159 161 166
0.25454523 0.30301559 1.65340130 136 136 143
0.24860470 0.30551580 1.67232079 151 151 153
0.24665982 0.31139738 1.69009756 136 137 141
0.24428618 0.31552036 1.70826930 122 125 134
0.24440257 0.32771268 1.69367301 148 150 162
0.24955184 0.32745510 1.70816145 140 145 154
0.24234636 0.32747915 1.72327667 119 123 134
0.26150300 0.13170070 0.45572710 137 140 141
0.28526822 0.24526334 0.67993164 144 144 141
0.28873304 0.25115539 0.68909424 144 144 144
0.29161790 0.25818810 0.70230171 153 154 154
0.29446096 0.26542817 0.69507901 168 170 170
0.29235364 0.27182761 0.71106795 158 162 164
0.29098184 0.27019605 0.72345833 139 145 149
0.28814878 0.28599224 0.71134113 152 154 155
0.28608110 0.28399175 0.72331369 160 164 164
0.31073577 0.13736821 0.73644664 152 157 159
0.30725653 0.13637421 0.74858968 131 135 141
0.30853254 0.13136620 0.76369617 144 148 151
0.31285018 0.14286777 0.73174777 145 148 154
0.31289741 0.14850479 0.74970422 151 154 158
0.31582235 0.15505363 0.76159922 171 173 175
0.31789085 0.16003512 0.76082134 151 151 151
0.33214072 0.01642315 0.70976574 128 128 135
0.33369449 0.02547046 0.71002148 123 125 133
0.32077698 0.13809737 0.73504449 179 183 183
0.32169361 0.14786207 0.73545227 166 168 170
0.32458901 0.15422303 0.74944995 153 157 161
0.32550203 0.16187714 0.75309085 164 168 169
0.33056444 0.16890155 0.76779520 165 167 167
0.35989261 0.16301836 0.45192790 121 129 135
0.35932773 0.19848539 0.47452613 159 166 163
0.36085677 0.16206605 0.45363220 140 147 147
0.36419785 0.19234421 0.47661304 144 148 146
0.36599738 0.19305338 0.48154524 131 133 134
0.37206697 0.34963790 1.07772946 158 161 162
0.37264853 0.35452624 1.09113038 154 158 159
0.37454035 0.35724119 1.10706405 159 165 166
0.37823471 0.36330158 1.10950455 142 146 147
0.37877253 0.36699885 1.12920988 145 150 152
0.39589174 0.13104564 0.47561209 157 161 159
0.39768887 0.12822661 0.48111653 125 126 129
0.38396299 0.37278084 1.13361879 139 142 143
0.38818659 0.37860439 1.14625926 133 135 137
0.39227545 0.38884678 1.15618946 130 131 133
0.38792485 0.39289086 1.16493552 112 113 119
0.38992584 0.40248421 1.19078527 123 124 127
0.40191065 0.12767154 0.47794513 157 161 162
0.40438168 0.12481589 0.48240347 167 174 172
0.40005150 0.39396131 1.15878952 136 137 139
0.40230434 0.39753891 1.16143743 148 151 152
0.40475115 0.40796381 1.17020046 164 172 170
0.41182319 0.41233041 1.18414832 164 169 168
0.40901682 0.42332411 1.18911925 151 158 159
0.41049391 0.42646364 1.21127395 143 152 153
0.41698802 0.43607423 1.23253059 140 148 149
0.43181276 0.13752545 0.75996846 170 171 172
0.43104468 0.13817613 0.76525366 166 168 170
0.43346849 0.14442703 0.75826925 145 145 147
0.43029138 0.14797544 0.77403749 160 162 164
0.42533935 0.15011229 0.78503955 165 167 168
0.42893165 0.19213011 0.45828990 149 152 149
0.42654440 0.19213276 0.46082154 138 139 137
0.43748743 0.43508588 1.19400519 172 176 177
0.43857661 0.43849185 1.20407081 171 177 177
0.43237151 0.44346608 1.17587572 163 164 164
0.43541630 0.44631466 1.19163325 159 161 161
0.43935698 0.44969627 1.20621324 158 160 161
0.42869162 0.45497155 1.27085447 130 136 138
0.43075061 0.46215055 1.27104819 123 130 135
0.43280586 0.46796368 1.29050950 123 130 132
0.43385558 0.47438821 1.30574751 123 130 133
0.43564329 0.47894585 1.32142663 125 129 135
0.43538117 0.48070270 1.31374383 127 136 139
0.43777712 0.48473567 1.32789910 126 133 136
0.45466404 -0.26105473 0.77285947 149 139 134
0.45711654 -0.25209795 0.77572663 148 140 132
0.45711967 -0.24263702 0.78075720 148 139 134
0.45777099 -0.14565852 0.47024070 86 99 105
0.44830377 0.13852387 0.45963975 137 140 139
0.44658155 0.13706743 0.46280907 146 149 147
0.44463414 0.14036186 0.45958769 143 149 145
0.44685660 0.14177201 0.46216839 146 153 149
0.44166675 0.23334168 0.81969994 168 170 172
0.44813305 0.23277823 0.83211893 170 174 173
0.45449229 0.23692355 0.84895356 163 170 170
0.44154741 0.43631186 1.19242281 172 175 174
0.44246230 0.44030789 1.19768882 171 175 174
0.44082374 0.44828724 1.21139512 162 166 165
0.44437454 0.45128487 1.22698690 163 167 167
0.44876346 0.45405653 1.24384242 168 175 174
0.45595501 0.45476375 1.26985880 160 167 167
0.45896651 0.45720945 1.28756368 159 163 163
0.44119740 0.46004373 1.21704102 146 147 149
0.44495426 0.46404826 1.23328443 139 139 142
0.44987983 0.46491177 1.24844301 146 149 150
0.45487146 0.46845758 1.26967649 156 160 160
0.45836677 0.46785116 1.29416718 158 164 165
0.45818976 0.46934271 1.30113602 157 165 169
0.45493580 0.48543866 1.31120276 141 143 146
0.45649610 0.49220914 1.32228692 138 139 141
0.46236920 -0.26198952 0.77150445 149 139 134
0.46349343 -0.24905724 0.77424687 148 140 133
0.46603530 -0.23797416 0.77612822 148 140 133
0.46069138 -0.14863684 0.46873886 83 99 106
0.46221863 0.23196710 0.85647327 152 161 162
0.46828054 0.23267153 0.87352143 138 140 145
0.47247961 0.23270062 0.88524768 141 142 145
0.46429783 0.24155840 0.87405055 161 168 170
0.46730639 0.24525735 0.88973280 154 159 161
0.47367582 0.24956178 0.91126988 147 149 152
0.47825316 0.25344960 0.92545693 131 135 137
0.46107683 0.45651362 1.29451442 163 168 166
0.46091894 0.46978610 1.29616243 160 166 167
0.46066000 0.47350501 1.30176154 161 168 169
0.46249860 0.48692860 1.30911450 140 142 143
0.46371689 0.49343145 1.32659853 136 137 139
0.48908522 0.05150846 0.47836236 137 144 145
0.48906548 0.05758779 0.48077589 134 146 148
0.49441425 0.04836537 0.53414277 144 149 150
0.49789373 0.09875135 1.37018272 175 175 176
0.49717495 0.10260552 1.35850072 157 157 166
0.49588770 0.10162570 1.36791348 157 158 160
0.48109347 0.25150701 0.92861897 150 153 154
0.51037932 -0.16524221 0.55639683 84 99 107
0.50900469 -0.16250589 0.56085954 84 99 111
0.51006109 -0.15947658 0.55742979 84 100 106
0.50908941 -0.15909877 0.56024116 85 100 106
0.50229579 0.04982851 0.53565618 134 137 140
0.51399503 0.09311934 1.35414400 143 144 149
0.51027668 0.09464340 1.36848237 148 149 154
0.51367098 0.08788310 1.38558036 121 122 131
0.51398996 0.10862562 1.35640466 139 140 147
0.51062147 0.10651309 1.36544231 152 153 158
0.51088277 0.23581352 0.59463126 123 127 126
0.51063910 0.23629644 0.60537760 118 122 122
0.50439194 0.24012521 0.59831771 135 136 135
0.51431487 0.24127525 0.60697630 106 111 113
0.52260679 0.09293558 1.35443062 149 152 157
0.52824682 0.08882818 1.37089144 141 142 144
0.53284636 0.08380932 1.38215321 138 139 141
0.53969436 0.11326119 0.83621894 117 123 127
0.52065557 0.10260552 1.35850072 158 159 160
0.52399401 0.10585359 1.36259806 138 139 147
0.52137421 0.23704490 0.60738086 109 114 114
0.53707689 0.23597370 0.63105629 147 149 147
0.52131043 0.24145260 0.60861278 90 96 98
0.54588096 0.11311925 0.83694634 109 118 122
0.55217591 0.10827994 0.84646597 119 127 128
0.55408933 0.10760552 0.86431241 132 137 140
0.54140010 0.23178747 0.63180502 152 157 156
0.56224155 0.10782724 0.84842888 112 120 123
0.58772964 0.11803968 0.78577921 147 156 156
0.59376232 0.12469005 0.79088286 168 173 171
0.59263509 0.15451293 0.59546822 164 168 165
0.61824748 0.09903708 0.85269617 131 141 145
0.60606118 0.11841637 0.79607586 127 131 134
0.61366795 0.11808962 0.80192579 114 121 123
0.61819733 0.10132369 0.85334066 118 127 127
0.60700474 0.12714161 0.79449690 153 157 157
0.60899580 0.12546538 0.80034459 166 173 170
0.60238880 0.15866494 0.60781014 157 161 158
0.61165247 0.16720153 0.61537252 146 150 150
0.61582221 0.17364965 0.62747755 144 150 150
0.61369432 0.19394464 0.61602665 159 163 162
0.61667500 0.18527182 0.62685755 144 150 149
0.62222526 0.09907569 0.85091235 128 137 136
0.62971863 0.10940841 0.85426248 118 126 131
0.63060009 0.11576006 0.86198377 122 130 133
0.63479690 0.12105458 0.86521363 129 136 139
0.62144454 0.17784092 0.61601108 129 132 132
0.62295610 0.17693918 0.62659278 149 152 151
0.62470925 0.18455501 0.61841541 139 144 140
0.62589619 0.18707982 0.62803107 148 153 152
0.63608202 0.19714714 0.64411100 147 149 148
0.63776256 0.20096156 0.64792602 152 156 155
0.63043860 0.31334086 0.81685017 123 128 129
0.63231850 0.30946614 0.82328240 132 135 136
0.64137658 0.15950774 0.65593100 157 161 163
0.64477039 0.16149259 0.65805835 154 159 157
0.65008809 0.16546642 0.66973453 148 152 151
0.65590294 0.17031944 0.68541860 148 150 150
0.65984377 0.21741681 0.66135854 156 161 160
0.65729791 0.22711703 0.65432124 127 131 131
0.65875448 0.22371589 0.66055247 126 132 134
0.64430710 0.30744561 0.82897764 152 156 155
0.65795064 0.36400911 0.88787442 129 131 133
0.66371475 0.21790282 0.65887892 131 136 136
0.66410767 0.21722113 0.66189237 148 153 152
0.66493920 0.22447030 0.65820765 112 118 122
0.66528613 0.22416192 0.66188185 112 117 121
0.66582733 0.37712878 0.89508678 129 131 131
0.67003419 0.37802595 0.90463663 117 122 123
0.66711530 0.38617251 0.89205488 136 138 137
0.66943564 0.39041127 0.90555103 138 140 139
0.67148022 0.40227184 0.90932193 155 163 160
0.75174865 0.37301799 1.13622850 154 155 156
0.75499747 0.37694276 1.14294415 157 158 160
0.75262272 0.38258324 1.13688457 170 172 172
0.75494571 0.38468290 1.14474240 169 170 171
0.76157057 0.37946326 1.13931406 156 157 157
0.76152170 0.37746046 1.14219427 145 145 147
0.76157057 0.38143247 1.13931406 174 175 175
0.76750053 0.38961490 1.15093471 162 164 165
0.78703010 0.39467362 1.17284608 159 161 161
0.79719232 0.39653780 1.18443616 157 159 159
0.78463930 0.40006745 1.17079771 157 160 161
0.79666275 0.40464246 1.18720478 161 163 163
0.80550671 -0.48599532 1.23702896 149 142 133
0.81388209 -0.48468435 1.25188489 149 142 135
0.81797409 -0.48241036 1.26119524 151 144 137
0.81768936 -0.46225065 1.23929036 149 141 134
0.81782563 -0.46374392 1.24909647 148 140 133
0.81778220 -0.45280015 1.23896730 146 140 132
0.81742844 -0.45541177 1.24668759 146 142 131
0.81134886 0.39500420 1.19278612 127 131 131
0.81528701 0.39427483 1.20488471 135 137 138
0.80830755 0.40604438 1.19369823 154 157 156
0.81222517 0.41574985 1.20450690 154 158 157
0.81838055 0.42240148 1.20764919 156 161 156
0.82259540 -0.48187245 1.26551453 149 142 135
0.82625741 -0.46225065 1.23929036 148 140 133
0.82330799 -0.46822391 1.24898401 148 140 133
0.82412156 -0.47618062 1.26394588 146 141 130
0.82924815 -0.45192989 1.23815966 146 139 132
0.82751202 -0.45246028 1.24588233 146 140 131
0.82265681 -0.45364961 1.26002204 145 144 133
0.83620089 0.11812702 1.23815966 122 127 133
0.83819473 0.11856110 1.24269915 116 120 127
0.82974946 0.12610502 1.23723750 123 127 133
0.83587314 0.13025588 1.24449391 122 128 134
0.83248591 0.14548636 1.23422462 115 119 125
0.83492145 0.34648375 0.93406056 170 173 170
0.82454412 0.39749408 1.19221601 151 151 150
0.82824314 0.39588652 1.21704495 139 139 140
0.83305772 0.39417880 1.23311123 150 153 153
0.83789092 0.39492975 1.24384101 147 149 149
0.83045551 0.41065031 1.19850469 136 140 140
0.83154716 0.41058177 1.20695399 136 139 139
0.82842163 0.40118228 1.22142673 134 135 136
0.82929301 0.42216850 1.19505627 146 149 148
0.82985918 0.42412903 1.20763928 146 149 147
0.82353452 0.42725399 1.22252911 147 153 150
0.84827648 -0.26490733 1.95734290 115 105 102
0.85356563 -0.27049524 1.97348845 115 105 102
0.85559702 -0.27339903 1.98213995 115 105 102
0.84421229 -0.25690109 1.94796503 117 105 104
0.85242462 0.11895295 1.24308165 132 137 140
0.84125149 0.13001597 1.23929036 117 123 130
0.84942672 0.13045734 1.25098631 114 120 127
0.85440081 0.13517816 1.26080418 112 117 126
0.85080544 0.14398180 1.24977595 114 119 124
0.85156029 0.33543515 0.93890840 151 155 152
0.85673692 0.33691805 0.94611917 148 154 150
0.84964589 0.34316896 0.93787019 163 167 165
0.85466373 0.34771462 0.94812384 161 164 161
0.85879868 0.34518561 0.96154869 132 133 134
0.84347749 0.39858428 1.25535524 144 145 146
0.84085947 0.41036068 1.21324944 143 146 146
0.84521344 0.40293349 1.22762399 150 151 150
0.84191841 0.40001330 1.25303483 142 145 145
0.84443527 0.40224385 1.26002204 139 143 142
0.84596270 0.42209553 1.21377718 137 142 142
0.87008125 -0.30174062 1.99968100 120 102 102
0.86335051 -0.28455788 1.97636104 118 106 101
0.86624540 -0.28894321 1.99284515 117 105 101
0.87872438 -0.26490733 1.95734290 142 133 128
0.87872261 -0.26253119 1.96490383 141 133 128
0.86344407 0.12973705 1.25468564 127 133 138
0.86565881 0.13478717 1.26102764 125 132 138
0.86289242 0.14235337 1.25362134 111 119 126
0.86580812 0.33512380 0.95527348 158 162 160
0.87415859 0.33532716 0.96667656 162 165 164
0.86163863 0.34995868 0.95284344 164 166 163
0.87053697 0.34663001 0.96775115 148 152 150
0.88805879 -0.28434050 1.99479701 133 123 114
0.88996237 -0.26886573 1.97241744 142 134 127
0.88955993 -0.27496323 1.98723890 137 129 120
0.89400542 -0.25913501 1.96490383 143 133 128
0.88174960 0.33570225 0.97097951 162 165 164
0.88790450 0.34436151 0.98878107 155 158 159
0.90437043 -0.28210480 1.99527854 141 134 122
0.90263423 -0.26747797 1.97636104 143 134 127
0.90703892 -0.27410543 1.98546636 142 134 125
0.90379900 0.34880196 1.00803155 154 156 158
0.93789774 -0.56022346 0.94413906 109 119 122
0.93577330 -0.54838242 0.93784750 103 117 120
0.93562563 -0.54968559 0.94454354 105 117 121
0.93565217 -0.53764527 0.93631710 101 116 119
0.93627119 -0.53876537 0.94086352 98 115 118
0.92052317 0.35505676 1.02866745 156 160 161
0.93731627 0.37692349 1.53630027 134 136 138
0.93600955 0.37803382 1.54136515 145 147 149
0.93524122 0.38840653 1.53254734 146 148 147
0.93620539 0.38709335 1.54066324 156 159 158
0.94243859 -0.54620252 0.93890840 102 114 120
0.94307412 -0.55232720 0.94662590 102 116 119
0.95884001 0.35723125 1.55362268 171 172 173
0.94524018 0.37721638 1.53659008 139 140 142
0.95049477 0.37593072 1.54418138 149 150 150
0.95629555 0.38671942 1.51485914 160 163 163
0.94817664 0.38929566 1.53370268 138 139 142
0.95284840 0.39081439 1.54338390 139 141 142
0.94898400 0.40789015 1.51569787 113 121 129
0.95471999 0.40885448 1.52909668 108 117 126
0.95213449 0.40483948 1.54515831 118 123 129
0.96619460 0.35774652 1.55391645 169 170 170
0.96851352 0.37758771 1.53630027 151 152 153
0.96730490 0.37268422 1.54875800 162 163 162
0.96950689 0.36345191 1.56609496 167 169 170
0.96106362 0.38889226 1.51823676 161 166 166
0.96532439 0.38944117 1.53259225 157 161 161
0.96785642 0.38755059 1.54250308 152 154 154
0.96596807 0.40445299 1.53647416 131 141 145
0.96421283 0.40668425 1.54560228 115 123 131
0.98524143 0.35952501 1.13233674 146 148 143
0.99082515 0.36290625 1.13767735 137 138 136
0.99633965 0.36820259 1.14510429 121 124 124
0.98325107 0.37732876 1.55165867 151 153 154
0.99739015 0.37889245 1.56919408 150 152 154
0.98451023 0.38418453 1.54682094 157 161 161
1.01362979 0.35977116 1.13931406 148 149 144
1.01480806 0.35961512 1.14508760 140 141 134
1.01756823 0.36370957 1.13931406 162 172 163
1.01141811 0.37165996 1.15042733 136 142 141
1.01537207 0.38271595 1.15766050 130 141 140
1.01390906 0.38348677 1.16143743 118 129 129
1.01151158 0.41094909 1.40937714 140 143 144
1.01790898 0.40873045 1.42897770 131 132 135
1.01879776 0.40602860 1.44386071 134 133 137
1.01421803 0.53741261 1.45159519 143 152 149
1.01983821 0.54350388 1.45783186 143 152 149
1.01934654 0.54147023 1.46255147 139 148 145
1.03144306 -0.45867519 1.75392753 145 136 129
1.03519946 -0.45754941 1.76421502 145 135 129
1.02468491 0.37145094 1.15195722 160 166 163
1.02755590 0.39001971 1.15700487 152 159 158
1.02951965 0.39185518 1.16489880 145 151 150
1.03432516 0.39663224 1.18745205 123 128 128
1.02519858 0.40128684 1.15681207 154 163 161
1.02544743 0.40033664 1.16276819 146 153 153
1.03662916 0.40359188 1.18513286 138 144 144
1.02283286 0.41130050 1.43508254 134 136 138
1.03101566 0.40535859 1.44986040 124 126 128
1.03491418 0.40754730 1.46729839 132 132 133
1.03747642 0.54728353 1.45783186 164 173 172
1.02591827 0.54839318 1.47281240 139 145 143
1.03108029 0.55500748 1.48641867 135 137 136
1.03707405 0.56665097 1.49021835 134 140 139
1.03821039 0.56422442 1.50642633 126 126 126
1.05300162 -0.46225060 1.77150907 144 137 129
1.05679083 -0.46035343 1.78392589 144 137 125
1.05114603 -0.45715746 1.75392753 144 137 131
1.05166670 -0.45555667 1.77228942 144 137 126
1.05302393 -0.45159252 1.78762777 144 137 124
1.05769074 -0.43227378 1.76995254 143 133 128
1.04324746 0.39750114 1.19347155 124 133 132
1.04575496 0.40675017 1.19372269 135 142 141
1.05218736 0.40796843 1.21054327 131 133 134
1.04482724 0.40501930 1.46868016 131 133 135
1.05340571 0.40424100 1.48848627 140 140 141
1.05487680 0.40479921 1.50419950 152 152 148
1.04415384 0.55184561 1.47168690 162 170 169
1.04756589 0.55624692 1.48513666 159 168 166
1.05188906 0.56677552 1.47688854 147 154 153
1.05152004 0.56952353 1.48769114 144 151 150
1.04754245 0.57229540 1.50981488 136 140 139
1.05162247 0.57372316 1.53101660 137 137 135
1.05648017 0.57971060 1.54066324 136 136 135
1.04927305 0.58417155 1.51993692 150 152 151
1.05448875 0.58471110 1.53197461 141 143 141
1.05875802 0.58703695 1.54593551 144 144 141
1.05584908 0.63541037 1.98504627 178 181 175
1.06016767 -0.46837100 1.77924371 144 139 132
1.06979358 -0.44572986 1.75468385 145 137 128
1.06830209 -0.45161003 1.77235560 144 137 128
1.06916833 -0.44886025 1.78782398 144 137 126
1.06945735 -0.44871141 1.80530775 143 136 125
1.06671774 -0.43743438 1.77229351 143 135 128
1.07271862 0.37943336 1.49644995 161 165 164
1.07987010 0.37935919 1.50642633 163 169 168
1.07509196 0.38286504 1.49976075 164 168 166
1.07976788 0.38499200 1.50810385 170 173 171
1.06727140 0.41521378 1.22629797 134 136 138
1.07437515 0.41642630 1.24383819 128 129 131
1.07329684 0.40768740 1.51739046 147 147 146
1.07841945 0.41180235 1.53022993 147 147 145
1.06515244 0.42596301 1.21433026 141 144 145
1.07680233 0.42668186 1.23104882 139 141 142
1.07455337 0.42210141 1.24156010 136 139 140
1.06052232 0.57221729 1.48660493 141 146 145
1.06443226 0.57525185 1.51317030 145 152 151
1.06614792 0.58111721 1.51653659 139 147 146
1.06568646 0.58772504 1.56196272 155 155 149
1.08227515 0.37759456 1.50978136 165 169 170
1.09858847 0.37991971 1.55123997 176 177 175
1.08662179 0.39257121 1.51621467 175 177 175
1.09055230 0.39210743 1.52772016 171 175 173
1.09480304 0.39147545 1.54566002 169 175 173
1.09255539 0.40762885 1.53205379 165 165 163
1.09117698 0.40704810 1.54566458 168 169 166
1.09808326 0.40954313 1.56196272 177 178 176
1.08346021 0.43766573 1.23702896 140 146 146
1.08870103 0.42943655 1.25042301 138 140 140
1.09336752 0.42914058 1.26709643 136 139 140
1.09143054 0.44411808 1.24612892 136 141 142
1.10873711 0.38072339 1.56557012 178 182 179
1.10323673 0.41234151 1.53716969 160 161 160
1.10441267 0.40928428 1.54066324 167 167 164
1.10305500 0.41283809 1.57193738 166 168 166
1.10240070 0.43789561 1.26868717 139 140 141
1.10465550 0.43566611 1.28145909 140 143 143
1.10734439 0.44776286 1.26893129 137 142 143
1.11443977 0.44629582 1.28551795 138 140 141
1.12539633 0.01626934 1.75468385 135 135 136
1.13584316 0.01583793 1.76305068 136 137 137
1.13081491 0.03385743 1.74997720 123 125 132
1.13286394 0.02544024 1.76619446 125 127 133
1.13173783 0.04125893 1.74265254 130 130 135
1.13682410 0.37287467 1.01698688 140 144 142
1.13137654 0.38583490 1.00955098 149 156 152
1.13620234 0.43402889 1.34502351 170 170 166
1.12462854 0.45289247 1.29270861 135 140 141
1.13170034 0.45741418 1.30238706 135 138 140
1.12663567 0.45280474 1.33306590 165 172 168
1.13446197 0.44915061 1.34503150 165 169 167
1.12749630 0.46106508 1.29369146 131 137 140
1.13497430 0.46325372 1.30615479 131 138 142
1.12716818 0.46150377 1.33706474 166 173 170
1.13380241 0.46284440 1.34769750 164 173 170
1.14646604 0.01481482 1.76641252 136 138 139
1.14637207 0.03704500 1.74916075 121 127 135
1.14808857 0.02729818 1.76996791 120 124 132
1.14535964 0.04115314 1.73818421 128 130 137
1.14728768 0.04529661 1.74887263 135 137 140
1.15260688 0.05086169 1.76228646 128 129 130
1.14590493 0.37138042 1.01691227 145 148 146
1.14727760 0.37476045 1.02529188 139 142 141
1.14401513 0.38240340 1.01809285 134 142 140
1.15087996 0.38557991 1.03183458 134 140 138
1.15861225 0.38551734 1.04130852 132 135 135
1.14685722 0.43750073 1.35578732 164 164 162
1.15921076 0.43540283 1.37132661 162 164 161
1.14151037 0.45888501 1.31629479 135 139 140
1.14258669 0.45033340 1.35443062 162 166 163
1.15459704 0.44161093 1.36122859 150 150 149
1.14263535 0.46536563 1.31693754 131 136 139
1.15123272 0.47515758 1.32574840 136 145 145
1.15131732 0.47095720 1.37133412 164 172 169
1.16742454 0.03018708 1.77808231 113 119 127
1.16409218 0.02558591 1.78392589 112 117 127
1.16482997 0.04152587 1.75392753 129 131 136
1.17165469 0.04911064 1.76765694 140 142 143
1.16404104 0.36969997 1.03732556 160 164 155
1.17199639 0.36936194 1.04544711 155 160 154
1.16173136 0.38851073 1.04451752 138 141 140
1.16313442 0.43767281 1.37596579 167 169 164
1.17427079 0.43844978 1.39104764 155 158 156
1.16867745 0.44342422 1.37782896 167 168 163
1.17226538 0.45112538 1.39056925 168 172 167
1.17831111 0.45196396 1.40060294 171 177 175
1.16698515 0.46814173 1.38971179 165 172 168
1.17710763 0.46818227 1.40205288 173 178 174
1.18770468 0.37442094 1.06086361 158 163 156
1.18599819 0.44660575 1.41046865 157 159 158
1.19494869 0.45265163 1.43117535 158 161 160
1.19845212 0.45046908 1.44232309 164 169 165
1.18776311 0.46646137 1.41522926 167 173 168
1.19567682 0.47036741 1.43303079 164 171 168
1.19831055 0.48403862 1.43469334 161 170 165
1.18887484 0.79594841 1.93573024 171 173 168
1.19567561 0.79489316 1.94461613 169 170 165
1.19740050 0.80965347 1.95429267 165 166 162
1.21713139 0.14856542 1.27558595 120 127 128
1.21797954 0.14828851 1.28389417 120 127 129
1.20121427 0.45237714 1.43519942 157 161 158
1.20177714 0.46899348 1.43621551 167 174 170
1.20426901 0.47622946 1.44232309 168 174 171
1.20082104 0.48331359 1.43621159 163 172 167
1.20364392 0.72433537 1.89885676 136 142 142
1.20872498 0.73233917 1.90687251 134 140 140
1.21728289 0.74250072 1.92037344 128 131 132
1.20963109 0.77054478 1.89318224 115 121 123
1.21259746 0.76830076 1.90821854 115 118 120
1.21736928 0.77161421 1.92401052 118 120 122
1.21020794 0.78997576 1.89885676 133 140 140
1.21258903 0.78709070 1.90776650 124 133 132
1.21696663 0.78698076 1.93041696 115 120 122
1.20672908 0.79489264 1.95640592 162 162 158
1.21472699 0.79133679 1.96906406 159 160 156
1.21888769 0.79955393 1.98795259 166 167 165
1.20572883 0.80958747 1.95546625 162 163 156
1.20974018 0.80832749 1.96750624 164 165 161
1.21381897 0.80933881 1.99091047 176 176 173
1.20466006 0.82186329 1.95922494 150 150 148
1.20829192 0.82553609 1.97205216 153 153 151
1.21201563 0.83047804 1.98795259 158 158 158
1.23079300 0.13087022 1.27904117 130 132 138
1.22963795 0.13460001 1.29215819 128 135 136
1.22262259 0.14358512 1.27743534 133 139 139
1.22408585 0.14378873 1.28861518 129 133 136
1.22088087 0.73671716 1.93131578 137 145 144
1.22498255 0.75134650 1.93463290 128 130 131
1.23149398 0.75313020 1.95079077 133 136 136
1.23366690 0.75856970 1.96633184 139 142 142
1.22333598 0.76700163 1.89885676 122 126 127
1.22475332 0.76783267 1.91045856 117 120 121
1.22474220 0.76872881 1.93175229 122 123 126
1.22966171 0.76799907 1.95014158 128 128 130
1.23405336 0.77000422 1.96776316 135 136 136
1.23930538 0.76980829 1.98213995 138 139 139
1.22293098 0.79080286 1.93298372 113 119 121
1.22454424 0.78955668 1.95135700 125 128 129
1.22668690 0.78927225 1.96844616 140 142 139
1.23190164 0.78802024 1.98796731 148 150 146
1.23023598 0.80949491 1.93134081 122 125 130
1.22913185 0.80635917 1.95161649 125 127 127
1.22677802 0.81123082 1.96754270 143 144 140
1.22262239 0.80772734 1.99968100 172 173 171
1.23490145 0.82340520 1.96967491 129 130 130
1.23268482 0.83020615 1.98963789 150 150 145
1.24028313 0.13546426 1.29122257 129 133 135
1.24028313 0.14215958 1.29122257 141 146 145
1.25079983 0.75478744 1.95302714 131 133 134
1.24071348 0.77456465 1.92584461 127 131 131
1.24937633 0.76933526 1.95528235 120 122 123
1.24293971 0.77721983 1.98795259 133 134 134
1.24336016 0.78698963 1.99968100 141 142 140
1.24211359 0.81745315 1.96490383 124 125 123
1.24270300 0.82355199 1.94985783 105 108 117
1.24767670 0.82762439 1.97062533 118 120 124
1.24879244 0.83356386 1.98714185 122 124 124
1.24981177 0.84078610 1.98795259 119 125 125
1.26222813 0.77784061 1.95922494 120 122 125
1.26613798 0.77349488 1.97010563 115 117 118
1.27356517 0.77666026 1.98213995 113 114 114
1.39452338 0.72649336 1.63741994 90 95 100
1.39780045 0.74148470 1.66149962 93 102 103
1.41340653 0.75276405 1.68350856 110 118 115
1.42551279 0.73974460 1.67380702 80 85 90
1.43258727 0.73760098 1.68211377 99 107 109
1.42998620 0.74811651 1.69052430 79 85 90
1.43336586 0.75795263 1.70611330 85 93 96
1.42943569 0.76582291 1.70611330 127 133 127
1.43854713 0.76931878 1.72053766 120 127 125
1.43085837 0.78458851 1.73374441 123 127 128
1.43618019 0.78791388 1.74414965 125 130 130
1.45679373 0.75454837 1.71401501 84 89 94
1.44966096 0.75935084 1.72491562 79 82 92
1.44812160 0.76828622 1.73279396 92 97 100
1.45249540 0.77027865 1.74716428 83 86 89
1.44658881 0.78196260 1.73374441 129 133 130
1.45035921 0.78942956 1.74640504 117 123 122
1.44782889 0.79034621 1.76075804 128 132 133
1.45925522 0.80044043 1.75619650 104 111 113
1.45538926 0.80365098 1.76995254 131 135 134
1.46233761 0.75742352 1.72053766 85 90 95
1.47056091 0.76473328 1.73373878 78 83 89
1.47891140 0.77064615 1.74714386 77 82 89
1.46000218 0.77817285 1.76075804 85 89 90
1.46153975 0.79837209 1.75165856 109 118 118
1.46226645 0.79348588 1.77458596 114 120 120
1.47357611 0.79597370 1.78706388 109 114 115
1.46797824 0.80395159 1.75392753 126 137 136
1.47114315 0.80874903 1.76905966 113 121 122
1.46765816 0.80904126 1.78863287 137 141 140
1.48552767 0.79398095 1.79653593 91 95 95
1.59687734 -0.09420706 1.92582905 130 130 129
1.61811515 -0.12372091 1.89356252 119 120 119
1.61968827 -0.12311554 1.90955448 113 114 112
1.61184728 -0.11947847 1.90419054 122 123 122
1.61819261 -0.08292559 1.89620471 156 158 147
1.60851412 -0.08912468 1.93180243 137 138 133
1.60835570 -0.07636613 1.89620471 130 131 126
1.60917598 -0.07515475 1.90687251 123 125 125
1.62222751 -0.12668174 1.89708873 100 101 100
1.62802582 -0.12978121 1.91054351 99 100 99
1.63218415 -0.12547268 1.92037344 103 104 104
1.62247968 -0.11881099 1.89355266 122 126 125
1.63171204 -0.10993804 1.91003013 117 118 117
1.63639875 -0.10668007 1.92585245 117 118 117
1.62543617 -0.08816327 1.89809903 146 148 139
1.62877556 -0.08998137 1.91075993 136 138 130
1.62839118 -0.08956951 1.93243370 136 137 133
1.62515219 -0.08606419 1.94238353 157 159 151
1.64148438 -0.13453293 1.93131578 92 93 94
1.64148438 -0.10782795 1.93131578 122 122 122
1.64215553 -0.09461042 1.93407482 127 128 124
