ply
format ascii 1.0
element vertex 1061
property float x
property float y
property float z
property uchar red
property uchar green
property uchar blue
end_header
1.01520121 0.38129228 1.15681207 136 147 147
1.01546776 0.38064274 1.15484130 141 152 152
1.02345204 0.38064274 1.15484130 159 168 167
1.02895391 0.38194406 1.15878952 160 169 168
1.03272212 0.38259810 1.16077375 163 172 171
1.03472841 0.38259810 1.16077375 162 168 168
0.65991598 0.21820047 0.66200376 150 154 154
0.66041523 0.21798760 0.66135788 150 154 154
0.66285169 0.21841377 0.66265088 138 142 142
0.66399705 0.21841377 0.66265088 134 139 139
0.66126400 0.21714021 0.65878701 133 139 138
0.66711527 0.21756308 0.66006994 140 144 145
0.66630977 0.21692941 0.65814739 140 145 144
-0.31270915 0.25698966 0.77561998 110 118 126
-0.31136855 0.25698966 0.77561998 108 119 126
-0.31038308 0.25728405 0.77650839 105 120 126
-0.30904096 0.25728405 0.77650839 102 117 122
-0.30875987 0.25817123 0.77918601 99 114 118
-0.30812141 0.25876608 0.78098136 98 113 117
-0.30641854 0.25846830 0.78008264 94 109 113
-0.30367243 0.25728405 0.77650839 91 106 109
-0.30095136 0.25611058 0.77296674 88 101 105
-0.29893366 0.25552782 0.77120799 87 98 103
-0.29760069 0.25552782 0.77120799 81 91 98
-0.29459199 0.25408253 0.76684600 81 88 99
-0.29161713 0.25265351 0.76253301 76 84 91
-0.28964752 0.25208637 0.76082134 81 89 95
-0.28576669 0.24984312 0.75405097 82 91 96
-0.14679512 0.16625386 0.50177044 132 141 142
-0.14571214 0.16600810 0.50102872 129 138 139
-0.14441919 0.16551876 0.49955183 126 135 136
-0.14323910 0.16515365 0.49844989 125 133 135
-0.14164849 0.16430795 0.49589747 125 133 137
0.05933098 0.22416064 0.67653877 168 171 173
0.06050032 0.22416064 0.67653877 167 171 172
0.06166966 0.22416064 0.67653877 162 166 167
0.06277636 0.22393715 0.67586422 159 163 164
0.06400835 0.22416064 0.67653877 161 162 162
0.06511271 0.22393715 0.67586422 152 153 153
0.06621487 0.22371411 0.67519110 144 146 146
0.06731483 0.22349150 0.67451924 138 139 143
0.06841262 0.22326934 0.67384875 136 137 141
0.06971591 0.22371411 0.67519110 132 133 137
0.07109535 0.22438458 0.67721462 126 127 131
0.07219375 0.22416064 0.67653877 123 123 128
0.07307139 0.22326934 0.67384875 134 134 140
0.07386894 0.22216515 0.67051619 138 138 146
0.07495373 0.22194561 0.66985363 138 138 145
0.07618681 0.22216515 0.67051619 149 151 158
0.07726931 0.22194561 0.66985363 149 155 162
0.07827241 0.22150785 0.66853237 148 157 161
0.07942791 0.22150785 0.66853237 148 157 160
0.08058342 0.22150785 0.66853237 154 163 165
0.08173892 0.22150785 0.66853237 153 161 163
0.08281276 0.22128962 0.66787374 151 159 160
0.08363751 0.22042097 0.66525203 147 155 155
0.08437335 0.21934469 0.66200376 144 148 154
0.08518481 0.21849121 0.65942788 137 143 148
0.08607339 0.21785544 0.65750909 126 134 138
0.08737935 0.21827887 0.65878701 121 128 134
0.08860411 0.21849121 0.65942788 119 127 134
0.09035917 0.21998920 0.66394889 116 123 132
0.38603139 0.38394696 1.15878952 128 128 131
0.38737208 0.38329175 1.15681207 129 129 131
0.38804716 0.38198805 1.15287733 130 130 132
0.38740441 0.37940705 1.14508760 131 131 133
0.38807255 0.37812957 1.14123201 136 136 138
0.38938951 0.37749407 1.13931406 140 140 142
0.39400753 0.38004902 1.14702511 142 143 145
0.39733469 0.38133949 1.15091991 143 143 145
0.20899618 0.17067550 0.51511538 128 127 128
0.20972715 0.17054591 0.51472425 119 119 120
0.21029745 0.17028731 0.51394379 121 122 126
0.21118575 0.17028731 0.51394379 124 127 130
0.21175298 0.17002949 0.51316565 131 134 137
0.75030810 0.37876722 1.14315653 159 160 162
0.75355470 0.37940705 1.14508760 162 163 165
0.75809503 0.38069317 1.14896917 166 167 167
0.75623566 0.37876722 1.14315653 165 166 166
0.75949228 0.37940705 1.14508760 160 161 162
0.75763214 0.37749407 1.13931406 154 155 156
0.76088017 0.37812957 1.14123201 149 150 151
0.76802456 0.38069317 1.14896917 139 139 140
0.81318152 0.39895019 1.20407081 120 126 126
0.80951124 0.39613575 1.19557643 118 124 124
0.81157774 0.39613575 1.19557643 112 120 120
0.81078428 0.39474335 1.19137406 113 121 120
0.83817083 0.40397295 1.21922994 151 151 151
0.83726645 0.40252504 1.21485996 158 158 158
0.82604295 0.39613575 1.19557643 155 155 153
1.19839537 0.47687680 1.43926084 169 175 173
1.20343804 0.47789142 1.44232309 169 175 173
1.20337057 0.47687680 1.43926084 170 176 173
1.20075953 0.47486040 1.43317509 170 176 173
1.18568945 0.46793535 1.41227472 170 176 173
1.17105258 0.46120939 1.39197505 170 175 171
1.16389871 0.45745206 1.38063514 169 175 171
1.14300597 0.44832128 1.35307753 170 173 170
1.03658330 0.39683563 1.19768882 124 128 127
1.02265537 0.38994613 1.17689562 116 125 124
1.02114391 0.38859683 1.17282331 115 124 123
1.03209925 0.39198771 1.18305731 119 128 127
1.03054702 0.39062428 1.17894232 124 134 134
1.01841545 0.38526410 1.16276479 128 138 138
1.01693654 0.38394696 1.15878952 132 142 142
1.01720071 0.38329175 1.15681207 137 147 147
1.02119958 0.38329175 1.15681207 148 157 154
1.02494812 0.38394696 1.15878952 152 161 158
1.02519858 0.38329175 1.15681207 155 162 161
1.03248370 0.38526410 1.16276479 158 160 162
1.03449345 0.38526410 1.16276479 158 161 163
1.03650320 0.38526410 1.16276479 155 158 160
0.66250384 0.22020486 0.66459984 137 141 142
0.66365254 0.22020486 0.66459984 133 137 138
0.66545367 0.22042097 0.66525203 126 130 131
0.66529775 0.21998920 0.66394889 123 127 128
0.66190726 0.21849121 0.65942788 127 133 133
0.66175956 0.21806696 0.65814739 126 132 132
0.66354132 0.21827887 0.65878701 128 133 133
0.66532654 0.21849121 0.65942788 131 135 136
0.66841698 0.21913069 0.66135788 132 136 137
0.66695732 0.21827887 0.65878701 130 134 134
-0.31226334 0.25686079 0.77120799 113 121 128
-0.31022453 0.25627768 0.76945728 112 122 129
-0.30924559 0.25656891 0.77033162 109 120 128
-0.30826443 0.25686079 0.77120799 106 118 126
-0.30728105 0.25715336 0.77208638 104 118 123
-0.30769882 0.25862616 0.77650839 100 115 119
-0.30706015 0.25922003 0.77829146 97 112 114
-0.30536434 0.25892276 0.77739888 94 109 111
-0.30297834 0.25803503 0.77473354 90 105 107
-0.29992539 0.25656891 0.77033162 85 98 101
-0.29825503 0.25627768 0.76945728 85 93 99
-0.29760069 0.25686079 0.77120799 77 85 91
-0.29492560 0.25569722 0.76771444 78 86 92
-0.29194552 0.25425747 0.76339173 84 92 96
-0.28997296 0.25368613 0.76167625 89 97 101
-0.28576669 0.25114644 0.75405097 92 101 103
-0.14538977 0.16650490 0.49992025 127 136 139
-0.14388902 0.16577139 0.49771795 126 134 138
-0.14260992 0.16528597 0.49626049 125 133 137
-0.14133830 0.16480339 0.49481156 122 132 135
0.05939025 0.22555509 0.67721462 169 175 175
0.06050032 0.22532998 0.67653877 168 172 173
0.06166966 0.22532998 0.67653877 164 168 168
0.06277636 0.22510533 0.67586422 160 164 163
0.06400835 0.22532998 0.67653877 157 158 158
0.06511271 0.22510533 0.67586422 151 153 153
0.06621487 0.22488113 0.67519110 144 147 146
0.06731483 0.22465736 0.67451924 140 141 142
0.06834468 0.22421117 0.67317957 133 134 137
0.06971591 0.22488113 0.67519110 129 130 133
0.07102440 0.22532998 0.67653877 124 125 129
0.07212177 0.22510533 0.67586422 127 129 133
0.07292640 0.22398874 0.67251176 137 139 144
0.07379594 0.22310340 0.66985363 141 146 153
0.07480589 0.22266336 0.66853237 143 149 156
0.07603639 0.22288316 0.66919231 153 159 166
0.07711691 0.22266336 0.66853237 155 163 169
0.07819529 0.22244398 0.66787374 156 166 169
0.07934966 0.22244398 0.66787374 155 165 167
0.08050402 0.22244398 0.66787374 159 168 169
0.08165839 0.22244398 0.66787374 160 169 167
0.08264989 0.22200653 0.66656029 159 168 166
0.08363751 0.22157080 0.66525203 161 170 167
0.08429103 0.22027381 0.66135788 156 160 161
0.08510203 0.21941754 0.65878701 151 155 156
0.08607339 0.21899189 0.65750909 145 149 152
0.08729452 0.21920452 0.65814739 132 140 144
0.08843207 0.21920452 0.65814739 120 128 134
0.09044776 0.22135358 0.66459984 114 122 129
0.38669240 0.38661069 1.16077375 123 122 127
0.38803425 0.38594982 1.15878952 128 128 132
0.38937154 0.38529122 1.15681207 131 131 133
0.39003980 0.38398069 1.15287733 136 136 138
0.39070353 0.38267908 1.14896917 139 139 141
0.20931429 0.17182697 0.51589942 120 114 121
0.20988652 0.17156585 0.51511538 111 105 112
0.21045701 0.17130549 0.51433372 107 108 118
0.21134599 0.17130549 0.51433372 110 111 120
0.21175298 0.17091647 0.51316565 120 123 130
0.75157553 0.38138622 1.14508760 163 164 166
0.75482976 0.38203156 1.14702511 176 177 179
0.75809503 0.38267908 1.14896917 178 179 179
0.75369370 0.37946326 1.13931406 172 173 173
0.75566292 0.37946326 1.13931406 170 171 170
0.75763214 0.37946326 1.13931406 162 163 162
0.75960135 0.37946326 1.13931406 160 161 160
0.76157057 0.37946326 1.13931406 156 157 157
0.79076016 0.39198029 1.17689562 145 146 147
0.79833835 0.39472142 1.18512559 143 144 146
0.80666590 0.39680254 1.19137406 129 133 134
0.80730629 0.39610639 1.18928397 116 124 123
0.80794442 0.39541268 1.18720114 109 118 117
0.80858028 0.39472142 1.18512559 112 118 118
0.81347299 0.39610639 1.18928397 124 128 128
0.81696188 0.39680254 1.19137406 141 144 144
0.82774949 0.40103135 1.20407081 151 151 151
0.82835931 0.40032029 1.20193589 159 159 160
0.82313943 0.39680254 1.19137406 157 157 156
0.82375091 0.39610639 1.18928397 152 152 151
1.19332814 0.47733751 1.43317509 171 177 173
1.19833875 0.47834882 1.43621159 173 179 175
1.20082104 0.47834882 1.43621159 174 179 176
1.19570363 0.47532767 1.42714071 174 179 176
1.17832494 0.46745476 1.40350282 174 179 176
1.16626298 0.46171913 1.38628185 174 178 175
1.14066720 0.45065996 1.35307753 171 175 172
1.13395238 0.44709039 1.34236014 169 173 170
1.05522692 0.40608031 1.21922994 127 128 130
1.04418790 0.40103135 1.20407081 125 126 128
1.03523636 0.39680254 1.19137406 114 119 120
1.03547573 0.39610639 1.18928397 114 121 121
1.04324746 0.39750114 1.19347155 124 133 132
1.03079200 0.39198029 1.17689562 128 137 136
1.02217853 0.38793924 1.16476262 130 139 138
1.01893950 0.38594982 1.15878952 133 142 141
1.02444470 0.38727385 1.16276479 139 148 147
1.02294517 0.38594982 1.15878952 146 153 150
1.02670312 0.38661069 1.16077375 151 157 151
1.02695107 0.38594982 1.15878952 151 157 151
1.03425777 0.38793924 1.16476262 154 156 152
1.03272212 0.38661069 1.16077375 153 154 151
1.03472841 0.38661069 1.16077375 151 152 152
0.66185498 0.22113678 0.66394889 110 115 116
0.66365254 0.22135358 0.66459984 111 115 116
0.66480130 0.22135358 0.66459984 118 120 122
0.66464674 0.22092040 0.66329926 125 128 129
0.66190726 0.21963097 0.65942788 124 129 129
0.66175956 0.21920452 0.65814739 124 129 129
0.66418678 0.21963097 0.65942788 123 128 129
0.66597438 0.21984483 0.66006994 124 128 129
0.66906971 0.22048891 0.66200376 117 121 122
0.66760612 0.21963097 0.65942788 114 118 118
-0.31226334 0.25819376 0.77120799 113 120 131
-0.31022453 0.25760764 0.76945728 110 120 130
-0.30924559 0.25790036 0.77033162 107 119 129
-0.30826443 0.25819376 0.77120799 105 118 127
-0.30693147 0.25819376 0.77120799 103 119 124
-0.30664507 0.25907800 0.77384913 102 119 124
-0.30635670 0.25996831 0.77650839 97 114 117
-0.30501455 0.25996831 0.77650839 95 111 114
-0.30194309 0.25848785 0.77208638 89 100 104
-0.29856828 0.25673339 0.76684600 87 96 100
-0.29757947 0.25702414 0.76771444 85 93 97
-0.29760069 0.25819376 0.77120799 83 91 97
-0.29492560 0.25702414 0.76771444 84 92 98
-0.29194552 0.25557694 0.76339173 87 93 99
-0.28964752 0.25471643 0.76082134 90 97 103
-0.28544918 0.25216925 0.75321317 98 106 111
-0.28226554 0.25049925 0.74822497 103 111 115
-0.14636178 0.16749249 0.50028920 126 136 139
-0.14506882 0.16699950 0.49881667 123 132 135
-0.14357278 0.16626544 0.49662405 121 131 136
-0.14240144 0.16590083 0.49553499 116 126 131
-0.14123522 0.16553780 0.49445066 115 124 129
0.05939025 0.22672561 0.67721462 173 176 176
0.06056076 0.22672561 0.67721462 171 174 173
0.06724792 0.22559874 0.67384875 140 141 141
0.06834468 0.22537470 0.67317957 132 133 134
0.06964654 0.22582321 0.67451924 126 127 129
0.07095359 0.22627351 0.67586422 127 128 131
0.07197824 0.22582321 0.67451924 127 130 133
0.07278199 0.22470528 0.67118007 139 143 146
0.07365039 0.22381887 0.66853237 141 149 155
0.07473219 0.22359835 0.66787374 150 158 164
0.07588656 0.22359835 0.66787374 155 163 169
0.07704093 0.22359835 0.66787374 155 163 169
0.07811832 0.22337827 0.66721636 156 164 170
0.07927155 0.22337827 0.66721636 156 165 170
0.08034571 0.22315863 0.66656029 164 173 174
0.08157802 0.22337827 0.66721636 163 172 169
0.08264989 0.22315863 0.66656029 166 173 171
0.08355552 0.22250228 0.66459984 172 173 173
0.08420888 0.22120109 0.66071332 169 170 170
0.08510203 0.22055620 0.65878701 166 167 167
0.08607339 0.22012834 0.65750909 160 161 163
0.08729452 0.22034207 0.65814739 145 149 151
0.08851801 0.22055620 0.65878701 135 140 143
0.38735569 0.38928357 1.16276479 112 112 120
0.38869870 0.38861701 1.16077375 124 123 131
0.39003715 0.38795269 1.15878952 131 131 135
0.39137101 0.38729066 1.15681207 135 135 139
0.20979327 0.17311390 0.51707995 124 121 128
0.21020597 0.17271866 0.51589942 119 115 125
0.21061681 0.17232522 0.51472425 114 115 127
0.21134599 0.17219448 0.51433372 114 116 128
0.21175298 0.17180343 0.51316565 115 118 132
0.75228399 0.38271892 1.14315653 167 169 170
0.75553393 0.38336542 1.14508760 172 173 173
0.75116879 0.38015464 1.13549721 172 173 173
0.75439507 0.38079250 1.13740242 172 173 173
0.75763214 0.38143247 1.13931406 172 173 173
0.75832683 0.38079250 1.13740242 172 173 173
0.76157057 0.38143247 1.13931406 174 175 175
0.79213542 0.39469969 1.17894232 163 166 165
0.79833835 0.39676979 1.18512559 160 162 162
0.80666590 0.39886174 1.19137406 139 143 142
0.80730629 0.39816198 1.18928397 132 136 136
0.80936188 0.39816198 1.18928397 118 122 123
0.80999637 0.39746466 1.18720114 104 109 109
0.81840014 0.39956397 1.19347155 138 142 143
0.82628191 0.40239775 1.20193589 143 144 145
0.82689321 0.40168554 1.19980860 148 149 150
0.82458866 0.39956397 1.19347155 147 147 148
0.82519865 0.39886174 1.19137406 144 144 144
1.19833875 0.48083121 1.43621159 166 175 170
1.19828236 0.47981465 1.43317509 168 175 171
1.19319165 0.47679061 1.42414248 170 175 172
1.17589033 0.46890977 1.40060294 172 177 173
1.16151237 0.46222469 1.38063514 174 178 175
1.13163221 0.44941056 1.34236014 173 177 174
1.12947917 0.44763774 1.33706474 168 172 169
1.07437515 0.41642630 1.24383819 128 129 131
1.06095147 0.41040203 1.22584414 129 130 132
1.04604590 0.40382975 1.20621324 128 129 131
1.03342021 0.39816198 1.18928397 126 129 130
1.03185523 0.39676979 1.18512559 124 128 129
1.04508734 0.40026864 1.19557643 125 132 132
1.03438365 0.39538732 1.18099630 128 135 135
1.02393782 0.39062363 1.16676736 131 138 138
1.02068424 0.38861701 1.16077375 133 141 140
1.02620494 0.38995245 1.16476262 136 145 144
1.02469683 0.38861701 1.16077375 141 148 147
1.02670312 0.38861701 1.16077375 145 151 149
1.02870953 0.38861701 1.16077375 150 156 154
1.03425777 0.38995245 1.16476262 142 148 146
1.03449345 0.38928357 1.16276479 140 144 142
1.03295958 0.38795269 1.15878952 141 145 143
1.02968204 0.38597333 1.15287733 144 149 149
0.66056103 0.22184978 0.66265088 111 117 117
0.66106015 0.22163314 0.66200376 112 117 118
0.66285169 0.22184978 0.66265088 118 120 122
0.66334862 0.22163314 0.66200376 129 132 133
0.66126400 0.22055620 0.65878701 127 131 132
0.66111767 0.22012834 0.65750909 126 130 131
0.66354132 0.22055620 0.65878701 125 129 130
0.66532654 0.22077075 0.65942788 114 118 120
0.66841698 0.22141691 0.66135788 100 104 105
0.66760612 0.22077075 0.65942788 91 95 97
0.66679996 0.22012834 0.65750909 100 104 107
-0.31502989 0.26071316 0.77473354 109 113 127
-0.31226334 0.25952673 0.77120799 109 117 130
-0.30952185 0.25835109 0.76771444 107 118 131
-0.30854437 0.25864401 0.76858485 106 119 130
-0.30791414 0.25923184 0.77033162 104 118 129
-0.30623469 0.25893757 0.76945728 102 118 126
-0.30490473 0.25893757 0.76945728 98 115 122
-0.30391976 0.25923184 0.77033162 99 114 117
-0.30327758 0.25982234 0.77208638 95 106 110
-0.29989371 0.25805885 0.76684600 89 97 101
-0.29722336 0.25689641 0.76339173 87 95 99
-0.29625255 0.25835109 0.76771444 85 93 98
-0.29425910 0.25776723 0.76597947 86 94 99
-0.29161713 0.25660744 0.76253301 91 95 104
-0.28899881 0.25545803 0.75911742 96 100 109
-0.28481627 0.25290909 0.75154305 106 111 120
-0.28195435 0.25151488 0.74740005 111 118 123
-0.14733522 0.16848154 0.50065869 124 134 139
-0.14614606 0.16810907 0.49955183 120 130 135
-0.14474928 0.16749193 0.49771795 121 131 136
-0.14336273 0.16687930 0.49589747 114 124 129
-0.14229742 0.16663551 0.49517301 110 119 125
-0.14102949 0.16615005 0.49373040 112 120 126
0.09731981 0.65931797 1.95922494 175 179 180
0.10070617 0.65931797 1.95922494 174 178 179
0.10290290 0.65178287 1.93683386 173 177 177
0.10387625 0.63721788 1.89355266 170 171 171
0.10596514 0.63017684 1.87262940 167 168 168
0.10742136 0.61990219 1.84209740 160 160 160
0.05768311 0.23042829 0.68473923 171 172 171
0.05845332 0.22881044 0.67993164 173 174 172
0.05939025 0.22789611 0.67721462 173 174 171
0.06050032 0.22766867 0.67653877 172 173 170
0.06160818 0.22744168 0.67586422 169 170 168
0.06950822 0.22653824 0.67317957 125 126 128
0.07081239 0.22698906 0.67451924 131 132 136
0.07183529 0.22653824 0.67317957 134 140 142
0.07263815 0.22541898 0.66985363 137 146 148
0.07357783 0.22475272 0.66787374 142 150 156
0.07458523 0.22431073 0.66656029 147 156 161
0.07581187 0.22453150 0.66721636 151 159 165
0.07688942 0.22431073 0.66656029 150 158 164
0.07796485 0.22409038 0.66590554 153 161 167
0.07911582 0.22409038 0.66590554 159 167 172
0.08026678 0.22409038 0.66590554 164 173 172
0.08141775 0.22409038 0.66590554 164 173 172
0.08607339 0.22126479 0.65750909 168 169 169
0.08729452 0.22147962 0.65814739 160 162 162
0.08851801 0.22169486 0.65878701 150 153 153
0.39002052 0.40233511 1.19557643 132 132 131
0.39070883 0.40092093 1.19137406 116 116 125
0.39276803 0.40092093 1.19137406 104 105 114
0.38867939 0.39467821 1.17282331 99 102 110
0.38735569 0.39129332 1.16276479 106 108 116
0.38869870 0.39062330 1.16077375 119 121 130
0.39070502 0.39062330 1.16077375 129 129 134
0.39204001 0.38995558 1.15878952 132 133 137
0.74975532 0.38340169 1.13931406 167 171 170
0.75046325 0.38275841 1.13740242 169 173 172
0.74991262 0.38147828 1.13359845 171 175 174
0.75439507 0.38275841 1.13740242 172 175 174
0.76147151 0.38534459 1.14508760 173 174 174
0.76216322 0.38469478 1.14315653 175 176 176
0.76542985 0.38534459 1.14508760 180 180 180
0.79490024 0.39812219 1.18305731 170 172 171
0.80113953 0.40021756 1.18928397 166 169 167
0.80744481 0.40233511 1.19557643 162 165 164
0.80808610 0.40162677 1.19347155 149 153 152
0.80872506 0.40092093 1.19137406 136 140 139
0.80936188 0.40021756 1.18928397 130 134 133
0.82896698 0.40375930 1.19980860 140 141 141
1.20082104 0.48331359 1.43621159 163 172 167
1.19069028 0.47824740 1.42115688 164 172 168
1.16864669 0.46842712 1.39197505 165 172 168
1.14060521 0.45624802 1.35578370 165 172 168
1.12716818 0.44994873 1.33706474 166 172 168
1.12283528 0.44730198 1.32919967 167 173 169
1.09226692 0.42640001 1.26708758 134 136 137
1.08432305 0.42245185 1.25535524 132 134 135
1.04791057 0.40663818 1.20836341 132 133 135
1.03342021 0.40021756 1.18928397 130 131 133
1.03005445 0.39812219 1.18305731 129 131 133
1.04878676 0.40375930 1.19980860 131 134 135
1.03981829 0.39951664 1.18720114 131 136 136
1.02570331 0.39331725 1.16877902 132 137 137
1.02068424 0.39062330 1.16077375 134 140 139
1.02797115 0.39264029 1.16676736 136 142 142
1.02469683 0.39062330 1.16077375 139 145 145
1.02670312 0.39062330 1.16077375 144 150 148
1.02695107 0.38995558 1.15878952 146 152 150
1.03425777 0.39196566 1.16476262 145 151 150
1.03272212 0.39062330 1.16077375 143 149 149
1.03295958 0.38995558 1.15878952 145 151 151
1.03143620 0.38862693 1.15484130 146 152 151
0.65862960 0.22234309 0.66071332 122 128 129
0.65848798 0.22191051 0.65942788 123 128 129
0.66027004 0.22212659 0.66006994 126 130 132
0.66141087 0.22212659 0.66006994 131 135 137
0.66062200 0.22147962 0.65814739 130 135 136
0.66047710 0.22105040 0.65687191 126 130 132
0.66225415 0.22126479 0.65750909 120 125 126
0.66403466 0.22147962 0.65814739 104 109 111
0.66776550 0.22234309 0.66071332 92 97 99
0.66695732 0.22169486 0.65878701 90 94 97
0.66679996 0.22126479 0.65750909 111 116 119
-0.31431147 0.26145461 0.77296674 105 111 127
-0.31120121 0.25997242 0.76858485 107 114 129
-0.30847383 0.25879875 0.76511496 109 116 130
-0.30749846 0.25909117 0.76597947 106 118 129
-0.30617452 0.25909117 0.76597947 102 116 125
-0.30450651 0.25879875 0.76511496 95 114 119
-0.30284226 0.25850698 0.76425236 95 112 117
-0.30152130 0.25850698 0.76425236 98 108 111
-0.30053920 0.25879875 0.76511496 93 102 105
-0.29854283 0.25821587 0.76339173 88 96 100
-0.29622263 0.25734645 0.76082134 87 95 99
-0.29457697 0.25705793 0.75996846 86 92 97
-0.29491657 0.25850698 0.76425236 86 92 98
-0.29326499 0.25821587 0.76339173 90 96 102
-0.29096255 0.25734645 0.76082134 95 98 108
-0.28738970 0.25534040 0.75489068 101 105 115
-0.28450084 0.25392658 0.75071079 106 113 123
-0.28195435 0.25280672 0.74740005 112 120 127
-0.14560956 0.16835220 0.49771795 115 128 133
-0.14432542 0.16785921 0.49626049 116 127 132
-0.14315328 0.16749138 0.49517301 109 121 126
-0.14167649 0.16676050 0.49301225 108 119 124
0.09731981 0.66270429 1.95922494 178 182 183
0.10070617 0.66270429 1.95922494 178 180 180
0.10319775 0.65700769 1.94238353 176 177 177
0.10416722 0.64228487 1.89885676 174 175 175
0.10625868 0.63516814 1.87781680 168 169 171
0.10830428 0.62820739 1.85723794 160 161 163
0.06044000 0.22860986 0.67586422 168 169 165
0.06154682 0.22838216 0.67519110 166 167 163
0.07081239 0.22815491 0.67451924 119 123 126
0.07176402 0.22747588 0.67251176 133 140 143
0.07256645 0.22635309 0.66919231 139 147 151
0.07350541 0.22568473 0.66721636 140 149 152
0.07451196 0.22524135 0.66590554 146 155 158
0.07573733 0.22546282 0.66656029 148 157 161
0.07673851 0.22502030 0.66525203 151 159 165
0.07788834 0.22502030 0.66525203 155 164 168
0.07896069 0.22479969 0.66459984 163 171 174
0.08590674 0.22197066 0.65623605 175 176 176
0.38933387 0.40368959 1.19347155 137 138 136
0.38934031 0.40156862 1.18720114 117 117 123
0.38866958 0.39877510 1.17894232 106 106 113
0.38667244 0.39465696 1.16676736 106 106 113
0.38669240 0.39262959 1.16077375 107 108 115
0.38803425 0.39195845 1.15878952 116 119 125
0.39070502 0.39262959 1.16077375 124 125 127
0.39204001 0.39195845 1.15878952 129 130 132
0.39270031 0.39062297 1.15484130 131 132 134
0.39536992 0.39128956 1.15681207 131 132 134
0.39736935 0.39128956 1.15681207 130 131 133
0.39936882 0.39128956 1.15681207 130 130 130
0.75101751 0.38601968 1.14123201 169 172 171
0.75046325 0.38472432 1.13740242 170 173 173
0.75116879 0.38407987 1.13549721 170 174 173
0.75693506 0.38601968 1.14123201 171 174 173
0.76665157 0.38995865 1.15287733 172 173 173
0.76733923 0.38929659 1.15091991 169 170 170
0.76932847 0.38929659 1.15091991 173 174 174
0.78193831 0.39465696 1.16676736 170 171 171
0.79908395 0.40227315 1.18928397 166 167 167
0.80537838 0.40440157 1.19557643 164 165 164
0.81030303 0.40583307 1.19980860 164 165 164
0.80951124 0.40440157 1.19557643 162 165 163
0.81014889 0.40368959 1.19347155 145 149 147
0.81221169 0.40368959 1.19347155 142 146 145
0.83817083 0.41240233 1.21922994 132 138 138
0.84027815 0.41240233 1.21922994 134 138 139
0.83487761 0.40872672 1.20836341 136 140 140
0.83399296 0.40727475 1.20407081 138 143 141
1.18324840 0.47769934 1.41227472 161 170 165
1.16625190 0.46986821 1.38912261 162 171 166
1.14060521 0.45859137 1.35578370 163 172 167
1.12716818 0.45225975 1.33706474 163 172 167
1.12725580 0.45136946 1.33443272 164 173 168
1.12956226 0.45136946 1.33443272 166 174 169
1.12083685 0.44697016 1.32142663 166 172 168
1.09636545 0.43019828 1.27184212 137 141 142
1.09038079 0.42699385 1.26236844 135 139 140
1.06480241 0.41614464 1.23029375 135 137 139
1.05543590 0.41166192 1.21704102 135 136 138
1.07330823 0.41614464 1.23029375 133 134 136
1.05815101 0.40945658 1.21052110 134 137 138
1.04347312 0.40298012 1.19137406 134 139 138
1.03282619 0.39808279 1.17689562 133 138 138
1.02772343 0.39533740 1.16877902 136 141 140
1.03152204 0.39602017 1.17079771 141 147 145
1.02821815 0.39397883 1.16476262 149 155 153
1.03023136 0.39397883 1.16476262 153 159 157
1.03047395 0.39330307 1.16276479 152 158 156
1.03603792 0.39465696 1.16676736 152 158 157
1.03449345 0.39330307 1.16276479 155 161 161
1.03472841 0.39262959 1.16077375 155 161 161
0.65862960 0.22348508 0.66071332 128 134 136
0.65848798 0.22305028 0.65942788 126 132 134
0.65962774 0.22305028 0.65942788 125 129 132
0.66076750 0.22305028 0.65942788 127 131 134
0.66062200 0.22261718 0.65814739 127 132 134
0.66047710 0.22218575 0.65687191 124 130 132
0.66225415 0.22240125 0.65750909 120 126 128
0.66403466 0.22261718 0.65814739 111 117 119
0.66776550 0.22348508 0.66071332 103 109 111
0.66695732 0.22283351 0.65878701 101 107 109
0.66744733 0.22261718 0.65814739 106 114 115
-0.31049716 0.26070970 0.76684600 104 114 125
-0.30777904 0.25953531 0.76339173 104 114 125
-0.30645961 0.25953531 0.76339173 101 114 123
-0.30548415 0.25982791 0.76425236 97 110 120
-0.30382067 0.25953531 0.76339173 98 107 114
-0.30182144 0.25895211 0.76167625 93 102 108
-0.30050495 0.25895211 0.76167625 90 99 99
-0.29918844 0.25895211 0.76167625 86 95 94
-0.29753762 0.25866148 0.76082134 83 90 90
-0.29456958 0.25721803 0.75657570 82 86 91
-0.29326192 0.25721803 0.75657570 85 87 95
-0.29359257 0.25866148 0.76082134 90 93 106
-0.29227757 0.25866148 0.76082134 98 101 115
-0.28966215 0.25750545 0.75742108 98 102 119
-0.28643280 0.25579065 0.75237721 102 106 123
-0.28450084 0.25522411 0.75071079 110 116 132
-0.28195435 0.25409853 0.74740005 114 121 132
-0.27973726 0.25326085 0.74493611 116 124 130
-0.15282829 0.16676365 0.49051508 122 131 140
-0.15198047 0.16676365 0.49051508 123 132 141
-0.15124209 0.16688441 0.49087027 122 131 141
-0.15039366 0.16688441 0.49087027 125 135 142
-0.14932898 0.16664307 0.49016041 129 139 146
-0.14400916 0.16834724 0.49517301 111 122 127
-0.14284027 0.16797914 0.49409026 108 121 126
-0.14116317 0.16700535 0.49122596 107 118 123
0.09731981 0.66609067 1.95922494 177 178 180
0.10041595 0.66417110 1.95357883 177 178 180
0.10290290 0.65847820 1.93683386 177 178 180
0.10387625 0.64376360 1.89355266 174 176 176
0.10625868 0.63841379 1.87781680 175 175 175
0.10830428 0.63141745 1.85723794 164 164 164
0.07060164 0.22863826 0.67251176 108 113 119
0.07162192 0.22818552 0.67118007 129 135 140
0.07249489 0.22728537 0.66853237 132 139 144
0.07350541 0.22683796 0.66721636 138 145 148
0.07451196 0.22639231 0.66590554 144 152 154
0.38864964 0.40503931 1.19137406 139 140 140
0.38865966 0.40291497 1.18512559 120 121 122
0.38732237 0.39942351 1.17485583 111 112 114
0.38600805 0.39599204 1.16476262 107 108 112
0.38669240 0.39463592 1.16077375 107 108 112
0.38737208 0.39328903 1.15681207 111 112 116
0.39003715 0.39396131 1.15878952 121 122 124
0.39337045 0.39328903 1.15681207 128 129 131
0.39536992 0.39328903 1.15681207 130 131 132
0.39736935 0.39328903 1.15681207 133 134 134
0.40005150 0.39396131 1.15878952 136 137 139
0.41108432 0.40081280 1.17894232 141 142 144
0.41456401 0.40221182 1.18305731 143 144 145
0.75355470 0.38930300 1.14508760 165 166 167
0.75299001 0.38799220 1.14123201 168 169 170
0.75116879 0.38604251 1.13549721 167 168 169
0.75949228 0.38930300 1.14508760 165 166 166
0.76926816 0.39328903 1.15681207 161 165 164
0.76995367 0.39261904 1.15484130 155 159 158
0.77063686 0.39195132 1.15287733 156 158 158
0.78328651 0.39735752 1.16877902 160 161 161
0.80048829 0.40503931 1.19137406 162 163 163
0.80537838 0.40646803 1.19557643 163 164 164
0.80887139 0.40718618 1.19768882 162 163 163
0.80951124 0.40646803 1.19557643 161 162 162
0.80872506 0.40503931 1.19137406 155 156 156
0.80936188 0.40432873 1.18928397 149 152 151
0.81984353 0.40646803 1.19557643 129 136 135
0.83218390 0.41154888 1.21052110 127 134 134
0.83427620 0.41154888 1.21052110 130 135 135
0.83043677 0.40863010 1.20193589 133 138 138
0.82957250 0.40718618 1.19768882 135 140 140
0.83311450 0.40790686 1.19980860 139 145 144
1.19828236 0.48724604 1.43317509 156 165 162
1.17104995 0.47519046 1.39771509 158 167 163
1.16149163 0.47034156 1.38345277 159 168 165
1.13606095 0.45909834 1.35038221 160 169 165
1.12716818 0.45457074 1.33706474 163 172 167
1.12725580 0.45367593 1.33443272 164 173 168
1.13179028 0.45457074 1.33706474 165 173 168
1.12083685 0.44925413 1.32142663 167 173 169
1.10465550 0.43566611 1.28145909 140 143 143
1.07455337 0.42210141 1.24156010 136 139 140
1.07918406 0.42056090 1.23702896 137 138 140
1.06768382 0.41525653 1.22142673 138 140 141
1.04715383 0.40646803 1.19557643 135 143 142
1.04004884 0.40291497 1.18512559 138 146 144
1.03127956 0.39873248 1.17282331 142 148 147
1.03330672 0.39873248 1.17282331 146 152 150
1.02821815 0.39599204 1.16476262 153 159 157
1.03023136 0.39599204 1.16476262 160 166 164
1.02695107 0.39396131 1.15878952 162 168 166
1.03425777 0.39599204 1.16476262 160 165 163
1.03272212 0.39463592 1.16077375 160 165 164
1.03119695 0.39328903 1.15681207 160 165 164
0.65862960 0.22462706 0.66071332 130 135 138
0.65912914 0.22440834 0.66006994 127 132 134
0.66091353 0.22462706 0.66071332 122 126 129
0.66141087 0.22440834 0.66006994 119 123 126
0.66062200 0.22375473 0.65814739 116 120 124
0.66047710 0.22332110 0.65687191 110 115 118
0.66225415 0.22353770 0.65750909 109 114 118
0.66403466 0.22375473 0.65814739 109 114 118
0.66841698 0.22484621 0.66135788 108 113 118
0.66760612 0.22419006 0.65942788 107 112 117
0.66809595 0.22397217 0.65878701 108 114 118
0.66923463 0.22397217 0.65878701 111 119 123
-0.31014630 0.26173905 0.76597947 100 114 121
-0.30743286 0.26056138 0.76253301 100 115 121
-0.30611488 0.26056138 0.76253301 101 112 121
-0.30479690 0.26056138 0.76253301 97 106 116
-0.30347893 0.26056138 0.76253301 91 99 106
-0.30114472 0.25968504 0.75996846 83 91 96
-0.29916039 0.25910407 0.75826830 74 83 82
-0.29718494 0.25852573 0.75657570 75 80 80
-0.29554743 0.25823751 0.75573224 78 79 81
-0.29326040 0.25737673 0.75321317 72 73 80
-0.29195851 0.25737673 0.75321317 85 85 94
-0.29130399 0.25794995 0.75489068 92 94 109
-0.29129678 0.25910407 0.75826830 96 99 114
-0.28805292 0.25737673 0.75321317 103 109 124
-0.28548226 0.25623789 0.74988037 110 117 130
-0.28418612 0.25623789 0.74988037 116 124 134
-0.28133398 0.25482845 0.74575561 121 128 135
-0.27881807 0.25371200 0.74248832 125 130 137
-0.27783906 0.25399017 0.74330246 126 129 137
-0.15463582 0.16773283 0.49087027 121 131 145
-0.15356499 0.16749027 0.49016041 112 121 135
-0.15293896 0.16773283 0.49087027 119 126 140
-0.15198047 0.16761146 0.49051508 123 130 142
-0.15124209 0.16773283 0.49087027 128 135 147
-0.15039366 0.16773283 0.49087027 130 140 150
-0.14943703 0.16761146 0.49051508 129 140 150
-0.14497091 0.16932680 0.49553499 109 121 126
-0.14390403 0.16907960 0.49481156 110 122 127
-0.14284027 0.16883312 0.49409026 107 122 126
-0.14136805 0.16809800 0.49193892 98 111 115
0.09503209 0.67730719 1.98213995 174 179 180
0.09731981 0.66947705 1.95922494 175 179 180
0.10070617 0.66947705 1.95922494 176 180 181
0.10319775 0.66372222 1.94238353 176 180 181
0.10445982 0.65067148 1.90419054 174 177 178
0.10655384 0.64344180 1.88303292 175 175 175
0.10860182 0.63637102 1.86234021 167 167 166
0.03146645 0.16932680 0.49553499 137 137 140
0.07249489 0.22844088 0.66853237 131 136 143
0.39604574 0.39596421 1.15878952 136 136 137
0.39804864 0.39596421 1.15878952 139 139 139
0.40073654 0.39664221 1.16077375 137 140 141
0.40274283 0.39664221 1.16077375 147 151 152
0.41180050 0.40355235 1.18099630 152 156 157
0.41528878 0.40496337 1.18512559 158 161 162
0.76795763 0.39461508 1.15484130 154 157 158
0.76995367 0.39461508 1.15484130 155 159 160
0.76932847 0.39327514 1.15091991 156 160 161
0.78463930 0.40006745 1.17079771 157 160 161
0.80048829 0.40709850 1.19137406 159 162 163
0.80537838 0.40853450 1.19557643 162 165 165
0.80744481 0.40853450 1.19557643 162 165 165
0.80808610 0.40781522 1.19347155 162 164 165
0.80730629 0.40638429 1.18928397 160 162 162
0.80653191 0.40496337 1.18512559 153 154 154
0.81840014 0.40781522 1.19347155 135 136 136
0.82774949 0.41143703 1.20407081 128 130 130
0.83278906 0.41290385 1.20836341 130 131 132
0.83043677 0.41070753 1.20193589 131 133 134
0.82957250 0.40925628 1.19768882 134 138 138
0.83017582 0.40853450 1.19557643 138 142 143
0.84114331 0.41290385 1.20836341 141 146 147
1.16385090 0.47467020 1.38912261 161 170 167
1.15442371 0.46985608 1.37503421 164 173 170
1.13380241 0.46051502 1.34769750 163 172 169
1.12716818 0.45688176 1.33706474 164 172 168
1.12504113 0.45508656 1.33181107 165 172 168
1.13179028 0.45688176 1.33706474 164 172 167
1.12302601 0.45242003 1.32400751 164 171 166
1.11095583 0.44037843 1.28876781 146 147 147
1.09445691 0.43297020 1.26708758 141 142 142
1.08248365 0.42737833 1.25072300 138 139 139
1.08313715 0.42424735 1.24156010 139 142 143
1.06961107 0.41812104 1.22363150 139 142 143
1.04715383 0.40853450 1.19557643 140 147 147
1.03823364 0.40425664 1.18305731 142 151 150
1.02595448 0.39869028 1.16676736 146 154 154
1.02797115 0.39869028 1.16676736 149 156 156
1.02469683 0.39664221 1.16077375 153 160 160
1.02846420 0.39732257 1.16276479 158 165 165
1.02695107 0.39596421 1.15878952 160 169 168
1.03071582 0.39664221 1.16077375 157 166 164
1.03095675 0.39596421 1.15878952 159 166 164
1.02768946 0.39394397 1.15287733 160 166 164
0.87372774 0.33044088 0.96703541 171 175 173
0.66041523 0.22598931 0.66135788 117 121 124
0.66220438 0.22621001 0.66200376 116 120 124
0.66205555 0.22576906 0.66071332 114 118 123
0.66126400 0.22511084 0.65878701 110 113 118
0.66111767 0.22467415 0.65750909 105 109 116
0.66225415 0.22467415 0.65750909 103 106 115
0.66468000 0.22511084 0.65878701 103 106 114
0.66906971 0.22621001 0.66200376 106 109 116
0.66825616 0.22554922 0.66006994 107 110 116
0.66939706 0.22554922 0.66006994 106 110 116
0.66988564 0.22532982 0.65942788 104 112 116
0.67037326 0.22511084 0.65878701 112 120 124
0.67085999 0.22489229 0.65814739 118 128 130
0.67134577 0.22467415 0.65750909 120 133 133
-0.30708742 0.26158509 0.76167625 101 115 121
-0.30577093 0.26158509 0.76167625 105 115 121
-0.30445442 0.26158509 0.76167625 101 110 116
-0.30279770 0.26129150 0.76082134 97 106 108
-0.30047101 0.26041469 0.75826830 94 103 104
-0.29782784 0.25925472 0.75489068 84 92 91
-0.29553574 0.25839150 0.75237721 80 83 85
-0.29423532 0.25839150 0.75237721 81 81 85
-0.29261014 0.25810504 0.75154305 73 73 81
-0.29131117 0.25810504 0.75154305 87 87 96
-0.29001218 0.25810504 0.75154305 93 100 113
-0.28999922 0.25925472 0.75489068 103 111 122
-0.28741422 0.25810504 0.75154305 114 121 133
-0.28516680 0.25724941 0.74905175 122 130 140
-0.28355879 0.25696549 0.74822497 126 134 142
-0.28071633 0.25555515 0.74411839 125 131 140
-0.27820864 0.25443795 0.74086541 125 130 139
-0.27692813 0.25443795 0.74086541 125 129 139
-0.15684040 0.16821584 0.48980623 97 108 120
-0.15593591 0.16907097 0.49229619 104 114 131
-0.15486009 0.16882576 0.49158219 106 113 132
-0.15367611 0.16845928 0.49051508 103 110 129
-0.15304978 0.16870342 0.49122596 108 114 134
-0.15209053 0.16858126 0.49087027 119 128 145
-0.15146145 0.16882576 0.49158219 126 136 151
-0.15072109 0.16894828 0.49193892 124 137 148
-0.14954524 0.16858126 0.49087027 123 137 147
-0.14869681 0.16858126 0.49087027 122 138 146
-0.14593408 0.17030779 0.49589747 116 125 131
-0.14497091 0.17018329 0.49553499 114 124 129
-0.14400916 0.17005897 0.49517301 111 121 126
-0.14294446 0.16981089 0.49445066 115 127 132
-0.14177960 0.16944012 0.49337107 117 127 132
-0.14031412 0.16870342 0.49122596 139 148 152
0.09845805 0.68073314 1.98213995 171 177 177
0.10158698 0.67874849 1.97636104 172 177 178
0.10409253 0.67286336 1.95922494 173 177 178
0.10564687 0.66139412 1.92582905 173 176 176
0.10714911 0.65030932 1.89355266 173 174 174
0.02973173 0.17005897 0.49517301 163 163 163
0.03058760 0.17005897 0.49517301 153 154 155
0.03146645 0.17018329 0.49553499 142 143 145
0.03229933 0.17005897 0.49517301 127 127 134
0.03403593 0.17018329 0.49553499 126 126 132
0.04249438 0.16641225 0.48455456 138 138 142
0.04305492 0.16534853 0.48145726 141 141 144
0.40343365 0.39933231 1.16276479 160 164 163
0.41180050 0.40559360 1.18099630 165 168 168
0.41528878 0.40701178 1.18512559 166 169 169
0.79424155 0.40701178 1.18512559 156 160 161
0.80331188 0.41060093 1.19557643 158 162 163
0.80966228 0.41278499 1.20193589 158 162 162
0.81030303 0.41205439 1.19980860 158 162 162
0.80951124 0.41060093 1.19557643 158 161 162
0.80872506 0.40915769 1.19137406 159 162 162
0.82774949 0.41351816 1.20407081 131 132 132
0.83130723 0.41425398 1.20621324 131 134 133
0.83043677 0.41278499 1.20193589 133 136 135
0.82957250 0.41132638 1.19768882 134 138 138
0.83164257 0.41132638 1.19768882 137 141 142
0.84114331 0.41499239 1.20836341 139 143 144
1.16385090 0.47707117 1.38912261 161 170 167
1.15208685 0.47127679 1.37225068 165 174 171
1.13380241 0.46284440 1.34769750 167 176 173
1.12716818 0.45919275 1.33706474 167 175 172
1.12725580 0.45828885 1.33443272 168 174 171
1.10062873 0.43761417 1.27423275 141 142 142
1.09113073 0.42954010 1.25072300 141 142 142
1.07154524 0.42099589 1.22584414 139 141 141
1.05086052 0.41205439 1.19980860 141 146 146
1.03823364 0.40630144 1.18305731 143 150 150
1.02419174 0.40001845 1.16476262 145 152 152
1.02670312 0.39864850 1.16077375 152 160 160
1.02519858 0.39728794 1.15681207 155 164 163
1.03071582 0.39864850 1.16077375 154 163 162
1.02919745 0.39728794 1.15681207 155 163 162
1.02594459 0.39526439 1.15091991 158 164 164
0.87248313 0.33163923 0.96565789 169 173 171
0.87166882 0.33069706 0.96291453 170 174 171
0.87958014 0.33306256 0.96980232 169 173 170
0.87874210 0.33211231 0.96703541 163 167 163
0.66480130 0.22824581 0.66459984 121 125 129
0.66334862 0.22735423 0.66200376 118 122 130
0.66126400 0.22624950 0.65878701 112 115 123
0.66111767 0.22581060 0.65750909 108 113 121
0.66225415 0.22581060 0.65750909 107 112 121
0.66403466 0.22602984 0.65814739 106 111 120
0.66972375 0.22757648 0.66265088 105 110 122
0.66890746 0.22691104 0.66071332 101 105 119
0.67004949 0.22691104 0.66071332 94 98 110
0.67119145 0.22691104 0.66071332 97 104 110
0.67102540 0.22646959 0.65942788 108 116 120
0.67151195 0.22624950 0.65878701 118 126 130
0.67199755 0.22602984 0.65814739 121 132 134
-0.30674276 0.26260653 0.76082134 106 116 121
-0.30508533 0.26231211 0.75996846 113 123 126
-0.30377179 0.26231211 0.75996846 110 120 123
-0.30211955 0.26201838 0.75911742 110 119 118
-0.29980031 0.26114109 0.75657570 107 113 113
-0.29716599 0.25998047 0.75321317 103 106 108
-0.29488119 0.25911674 0.75071079 99 100 104
-0.29358366 0.25911674 0.75071079 96 96 102
-0.29196277 0.25883010 0.74988037 89 92 100
-0.29098856 0.25911674 0.75071079 94 97 105
-0.28969103 0.25911674 0.75071079 101 110 118
-0.28935480 0.25998047 0.75321317 112 121 129
-0.28709593 0.25911674 0.75071079 119 128 136
-0.28485203 0.25825873 0.74822497 124 133 140
-0.28262296 0.25740638 0.74575561 125 133 139
-0.27979496 0.25599825 0.74167597 123 131 139
-0.27790493 0.25543931 0.74005657 121 129 137
-0.15757313 0.16894037 0.48945260 98 110 118
-0.15695380 0.16918468 0.49016041 97 110 121
-0.15644597 0.16955248 0.49122596 99 109 124
-0.15604924 0.17004536 0.49265397 101 109 126
-0.15497246 0.16979855 0.49193892 99 105 125
-0.15378739 0.16942970 0.49087027 95 101 121
-0.15316077 0.16967542 0.49158219 114 121 141
-0.15231112 0.16967542 0.49158219 125 137 152
-0.15179168 0.17004536 0.49265397 125 139 153
-0.15115987 0.17029288 0.49337107 126 141 151
-0.14987081 0.16979855 0.49193892 131 146 155
-0.14679120 0.17116490 0.49589747 123 130 135
-0.14604092 0.17129020 0.49626049 120 128 132
-0.14507696 0.17116490 0.49589747 114 124 129
-0.14400916 0.17091484 0.49517301 117 127 132
-0.14304879 0.17079008 0.49481156 124 136 140
-0.14208984 0.17066550 0.49445066 134 144 147
-0.14072201 0.17004536 0.49265397 156 165 165
0.10439425 0.67820990 1.96490383 170 174 175
0.10686120 0.67236328 1.94796503 171 172 174
0.10835984 0.66096729 1.91494870 169 168 169
0.02891811 0.17116490 0.49589747 166 165 165
0.02971003 0.17079008 0.49481156 165 164 164
0.03056527 0.17079008 0.49481156 153 153 155
0.03144347 0.17091484 0.49517301 141 142 144
0.03229933 0.17091484 0.49517301 135 135 144
0.03313100 0.17079008 0.49481156 130 130 138
0.03403593 0.17103978 0.49553499 129 129 137
0.03965454 0.16942970 0.49087027 152 153 156
0.04041517 0.16906244 0.48980623 154 155 158
0.04123197 0.16894037 0.48945260 147 147 151
0.04183630 0.16797015 0.48664168 144 144 149
0.04246403 0.16713029 0.48420846 143 143 149
0.04296337 0.16582736 0.48043361 145 145 149
0.04360833 0.16512521 0.47839934 151 152 154
0.40078908 0.40272361 1.16676736 156 163 162
0.40142390 0.40134203 1.16276479 165 171 169
0.40412682 0.40203163 1.16476262 169 174 171
0.41180050 0.40763485 1.18099630 173 175 174
0.41528878 0.40906015 1.18512559 174 175 174
0.80901927 0.41559932 1.20407081 154 158 157
0.81544560 0.41782573 1.21052110 155 159 158
0.81318152 0.41559932 1.20407081 155 159 158
0.81094152 0.41339648 1.19768882 155 158 158
0.83130723 0.41633880 1.20621324 131 136 136
0.83043677 0.41486242 1.20193589 134 140 140
0.82957250 0.41339648 1.19768882 135 140 140
0.83164257 0.41339648 1.19768882 133 138 139
1.14744139 0.47173873 1.36671746 163 170 168
1.13380241 0.46517378 1.34769750 165 172 169
1.12716818 0.46150377 1.33706474 166 173 170
1.10896683 0.44314852 1.28388608 137 139 139
1.11562407 0.44314852 1.28388608 138 139 139
1.10528314 0.43816930 1.26946032 139 140 140
1.09517193 0.43330076 1.25535524 139 140 140
1.07543468 0.42465049 1.23029375 139 140 140
1.05835330 0.41708094 1.20836341 139 143 143
1.04369807 0.41049546 1.18928397 141 149 148
1.02670312 0.40065482 1.16077375 148 154 154
1.02695107 0.39996994 1.15878952 149 157 156
0.92052317 0.35505676 1.02866745 156 160 161
0.90715885 0.34922749 1.01177883 155 158 159
0.89160776 0.34258041 0.99252099 157 161 162
0.88170493 0.33812487 0.97961247 162 166 165
0.87580442 0.33521837 0.97119176 165 168 168
0.87372774 0.33378375 0.96703541 166 169 168
0.87415218 0.33330828 0.96565789 166 170 169
0.88210404 0.33569929 0.97258514 167 171 170
0.88125634 0.33473879 0.96980232 165 169 168
0.88293260 0.33473879 0.96980232 157 161 159
0.66270143 0.22827552 0.66135788 131 138 142
0.66126400 0.22738816 0.65878701 122 128 133
0.66047710 0.22672714 0.65687191 116 121 128
0.66033274 0.22628860 0.65560138 112 118 126
0.66841698 0.22827552 0.66135788 100 106 118
0.66760612 0.22760935 0.65942788 92 98 114
0.66939706 0.22783098 0.66006994 84 90 105
0.67053789 0.22783098 0.66006994 96 102 115
0.67102540 0.22760935 0.65942788 107 115 125
0.67085999 0.22716740 0.65814739 119 126 136
-0.30537185 0.26274201 0.75742108 109 118 123
-0.30338475 0.26215619 0.75573224 122 133 134
-0.30241567 0.26244876 0.75657570 124 135 135
-0.30110800 0.26244876 0.75657570 122 130 129
-0.29879987 0.26157296 0.75405097 119 127 127
-0.29650709 0.26070300 0.75154305 114 122 122
-0.29422951 0.25983879 0.74905175 109 116 119
-0.29261151 0.25955197 0.74822497 103 110 114
-0.29131827 0.25955197 0.74822497 99 107 113
-0.29034549 0.25983879 0.74905175 93 102 108
-0.28905082 0.25983879 0.74905175 104 115 122
-0.28871322 0.26070300 0.75154305 112 123 129
-0.28677836 0.26012620 0.74988037 116 127 133
-0.28453797 0.25926581 0.74740005 117 128 133
-0.28231239 0.25841108 0.74493611 120 130 135
-0.27979496 0.25728020 0.74167597 121 129 136
-0.27760187 0.25643849 0.73924953 118 126 133
-0.15745944 0.16966385 0.48909944 105 115 118
-0.15695380 0.17003189 0.49016041 103 113 117
-0.15644597 0.17040151 0.49122596 102 109 123
-0.15616272 0.17102116 0.49301225 101 107 125
-0.15497246 0.17064883 0.49193892 101 111 130
-0.15389884 0.17040151 0.49122596 106 117 136
-0.15327191 0.17064883 0.49193892 113 128 144
-0.15231112 0.17052509 0.49158219 123 139 152
-0.15201262 0.17114563 0.49337107 125 143 154
-0.15126996 0.17127028 0.49373040 132 143 153
-0.15019780 0.17102116 0.49301225 138 149 158
-0.14689866 0.17214794 0.49626049 123 132 133
-0.14604092 0.17214794 0.49626049 121 130 131
-0.14507696 0.17202201 0.49589747 114 123 126
-0.14400916 0.17177071 0.49517301 126 137 139
-0.14315328 0.17177071 0.49517301 139 151 152
-0.14229742 0.17177071 0.49517301 155 164 164
-0.14102949 0.17127028 0.49373040 166 175 174
-0.13916254 0.17003189 0.49016041 179 180 182
0.10530999 0.68758506 1.98213995 166 167 169
0.10747889 0.67963612 1.95922494 164 164 166
0.11022811 0.67573017 1.94796503 164 162 164
0.02968836 0.17152013 0.49445066 160 159 159
0.03052072 0.17139511 0.49409026 152 152 153
0.03137471 0.17139511 0.49409026 144 145 146
0.03225221 0.17152013 0.49445066 139 139 145
0.03308270 0.17139511 0.49409026 136 136 142
0.03398624 0.17164533 0.49481156 133 134 140
0.03484148 0.17164533 0.49481156 133 134 141
0.03564469 0.17139511 0.49409026 130 132 138
0.03889059 0.17064883 0.49193892 150 154 157
0.03968327 0.17040151 0.49122596 156 160 162
0.04044440 0.17003189 0.49016041 156 160 163
0.04126176 0.16990903 0.48980623 155 159 161
0.04183630 0.16881126 0.48664168 155 159 160
0.04246403 0.16796722 0.48420846 150 154 157
0.04290256 0.16642186 0.47975361 148 153 155
0.04357758 0.16583505 0.47806194 155 161 160
0.04415476 0.16490470 0.47537997 156 162 162
0.40148008 0.40543810 1.16877902 164 173 169
0.40211362 0.40404484 1.16476262 168 177 173
0.40343365 0.40335178 1.16276479 172 179 173
0.41251919 0.41039109 1.18305731 174 178 173
0.41601607 0.41182855 1.18720114 176 178 174
0.82131213 0.42293903 1.21922994 139 144 142
0.81381720 0.41693988 1.20193589 149 154 152
0.83278906 0.41916952 1.20836341 136 140 141
0.83043677 0.41693988 1.20193589 136 142 142
0.83104074 0.41620195 1.19980860 134 140 140
0.83311450 0.41620195 1.19980860 132 137 138
0.84415275 0.42066923 1.21268666 135 140 140
0.84928739 0.42217970 1.21704102 140 147 145
1.11530375 0.44791257 1.29122257 135 139 139
1.10490799 0.44285139 1.27663243 136 140 139
1.12414026 0.44876736 1.29368675 136 140 139
1.11152768 0.44285139 1.27663243 136 140 139
1.10129023 0.43790334 1.26236844 138 140 141
1.08528304 0.43068516 1.24156010 140 141 142
1.06595373 0.42217970 1.21704102 140 142 143
1.04553235 0.41327608 1.19137406 139 145 145
1.02519858 0.40128684 1.15681207 154 163 161
0.90043914 0.34837642 1.00428426 153 155 157
0.89030427 0.34379253 0.99106997 153 155 156
0.87916398 0.33883876 0.97678941 156 157 158
0.87455148 0.33641502 0.96980232 161 162 162
0.87248313 0.33497733 0.96565789 163 164 164
0.87290871 0.33450085 0.96428424 164 165 165
0.87832361 0.33593443 0.96841693 165 167 166
0.87999743 0.33593443 0.96841693 167 169 168
0.88167125 0.33593443 0.96841693 161 162 162
0.88082844 0.33497733 0.96565789 162 164 164
0.66062200 0.22830495 0.65814739 127 136 135
0.65983772 0.22764191 0.65623605 119 128 129
0.65652311 0.22610971 0.65181905 116 124 129
0.65387738 0.22481272 0.64808017 112 121 126
0.66630977 0.22830495 0.65814739 107 115 123
0.66744733 0.22830495 0.65814739 101 108 117
0.66923463 0.22852682 0.65878701 105 112 120
0.66972244 0.22830495 0.65814739 114 122 128
-0.30140650 0.26287627 0.75405097 127 133 133
-0.30010319 0.26287627 0.75405097 128 134 135
-0.29813659 0.26229277 0.75237721 127 134 134
-0.29585111 0.26142231 0.74988037 123 130 130
-0.29390475 0.26084521 0.74822497 118 126 129
-0.29196700 0.26027068 0.74657691 115 124 127
-0.29067659 0.26027068 0.74657691 106 115 121
-0.28970525 0.26055762 0.74740005 99 108 113
-0.28841344 0.26055762 0.74740005 104 115 121
-0.28807446 0.26142231 0.74988037 111 122 127
-0.28646147 0.26113346 0.74905175 114 126 131
-0.28422460 0.26027068 0.74657691 115 126 132
-0.28200248 0.25941357 0.74411839 118 128 134
-0.28010142 0.25884533 0.74248832 118 126 134
-0.27820864 0.25827953 0.74086541 118 126 134
-0.27723110 0.25856212 0.74167597 116 126 133
-0.27504638 0.25771621 0.73924953 115 125 131
-0.15684040 0.17075562 0.48980623 114 123 124
-0.15633267 0.17112656 0.49087027 114 120 133
-0.15593591 0.17162366 0.49229619 110 116 132
-0.15486009 0.17137475 0.49158219 110 119 134
