ply
format ascii 1.0
element vertex 1109
property float x
property float y
property float z
property uchar red
property uchar green
property uchar blue
end_header
-0.88758766 0.50840007 0.90704461 0 0 0
-0.87072059 -0.60268838 0.89568878 0 0 0
-0.87019876 -0.59023486 0.89504240 0 0 0
-0.86969575 -0.56979065 0.89338436 0 0 0
-0.86995024 -0.55003443 0.89168106 0 0 0
-0.87009870 -0.53064887 0.88933739 1 0 1
-0.87032879 -0.51016015 0.88934612 0 0 0
-0.86973485 -0.49008601 0.88941021 0 0 0
-0.86912494 -0.47001413 0.88880640 0 0 0
-0.86890835 -0.44977838 0.88922399 0 0 0
-0.86988197 -0.42976037 0.89061997 0 0 0
-0.87000086 -0.40982298 0.89226530 0 0 0
-0.86967067 -0.38998211 0.89332503 0 0 0
-0.87038945 -0.36984303 0.89415122 0 0 0
-0.86997387 -0.34983864 0.89439758 0 0 0
-0.87004105 -0.32976769 0.89446725 0 0 0
-0.87019661 -0.30972468 0.89462736 0 0 0
-0.87002746 -0.28991785 0.89486481 0 0 0
-0.86991855 -0.26967493 0.89513760 0 0 0
-0.86998320 -0.24958061 0.89520442 0 0 0
-0.87030104 -0.22930540 0.89515263 0 0 0
-0.87072653 -0.20969115 0.89504783 0 0 0
-0.87033534 -0.19021321 0.89489854 0 0 0
-0.87032519 -0.17053535 0.89481742 0 0 0
-0.87034652 -0.15048339 0.89478290 0 0 0
-0.87032621 -0.13037505 0.89476205 0 0 0
-0.87029453 -0.11026623 0.89472957 0 0 0
-0.87024780 -0.09015735 0.89468162 0 0 0
-0.87025330 -0.07005476 0.89468721 0 0 0
-0.87014641 -0.04994577 0.89457719 0 0 0
-0.86987862 -0.02983627 0.89430177 0 0 0
-0.86954949 -0.00973805 0.89396337 0 0 0
-0.86927497 0.01034578 0.89368117 0 0 0
-0.86977541 0.03033107 0.89359240 0 0 0
-0.87077148 0.05050437 0.89363172 0 0 0
-0.87074352 0.07058153 0.89360314 0 0 0
-0.86989275 0.09060279 0.89357901 0 0 0
-0.86990502 0.11022328 0.89367220 0 0 0
-0.86969521 0.12949332 0.89379711 0 0 0
-0.86951664 0.14940699 0.89393011 0 0 0
-0.86967829 0.16952483 0.89409631 0 0 0
-0.86995785 0.18967586 0.89438378 0 0 0
-0.87027729 0.20998786 0.89484309 0 0 0
-0.86973374 0.22991966 0.89536168 0 0 0
-0.87005198 0.25043781 0.89607346 0 0 0
-0.86998604 0.27001730 0.89680369 0 0 0
-0.86993417 0.28963413 0.89755002 0 0 0
-0.87003862 0.31019523 0.89828488 0 0 0
-0.86966340 0.33024005 0.89894667 0 0 0
-0.86937044 0.34942453 0.89956520 0 0 0
-0.87777324 0.35609727 0.90012148 0 0 0
-0.86409576 0.36391887 0.89984894 0 0 0
-0.87156853 0.37124224 0.90034857 0 0 0
-0.86994917 0.39045081 0.90096877 0 0 0
-0.87002681 0.41004671 0.90172852 0 0 0
-0.87000721 0.43021269 0.90258720 0 0 0
-0.86998686 0.44989223 0.90336873 0 0 0
-0.87013166 0.47004043 0.90427124 0 0 0
-0.86993162 0.48987322 0.90526721 0 0 0
-0.87018690 0.50799681 0.90646490 0 0 0
-0.85036327 -0.60216566 0.89491182 0 0 0
-0.85003375 -0.58989118 0.89388755 0 0 0
-0.85029732 -0.57004304 0.89250419 0 0 0
-0.85016030 -0.54994234 0.89081197 0 0 0
-0.84498688 -0.52615081 0.87650408 54 51 58
-0.84956826 -0.53461454 0.88748510 11 11 13
-0.84824356 -0.50145517 0.87439257 3 3 3
-0.85777135 -0.50326679 0.88421408 0 0 0
-0.84595624 -0.48643571 0.87411251 7 9 10
-0.85741075 -0.48529663 0.88611174 0 0 0
-0.84425645 -0.46741361 0.87574428 8 8 7
-0.85654687 -0.46880165 0.88633389 0 0 0
-0.84219198 -0.45088236 0.87627404 0 0 0
-0.85511038 -0.44934510 0.88709469 0 0 0
-0.85445781 -0.42959957 0.88823344 0 0 0
-0.85284709 -0.40983420 0.88969228 0 0 0
-0.85125834 -0.38949870 0.89041193 0 0 0
-0.85037522 -0.37002038 0.89085759 0 0 0
-0.84993676 -0.34993821 0.89136252 0 0 0
-0.84972919 -0.33018807 0.89180843 0 0 0
-0.84991945 -0.31021930 0.89200788 0 0 0
-0.85017395 -0.29017431 0.89222976 0 0 0
-0.85045365 -0.27016235 0.89256860 0 0 0
-0.85018265 -0.25010450 0.89290655 0 0 0
-0.85021667 -0.23043278 0.89318848 0 0 0
-0.85034378 -0.21044151 0.89326495 0 0 0
-0.85032253 -0.19036579 0.89324288 0 0 0
-0.85028966 -0.17028848 0.89320861 0 0 0
-0.85025557 -0.15021258 0.89317283 0 0 0
-0.85027210 -0.13014589 0.89319020 0 0 0
-0.85034263 -0.11008548 0.89326446 0 0 0
-0.85041341 -0.09002186 0.89333905 0 0 0
-0.85041611 -0.06994950 0.89334192 0 0 0
-0.85026200 -0.04986794 0.89318000 0 0 0
-0.84994842 -0.02978786 0.89285055 0 0 0
-0.84960347 -0.00972203 0.89248816 0 0 0
-0.84938547 0.01026895 0.89220162 0 0 0
-0.85053163 0.03057837 0.89213841 0 0 0
-0.85081003 0.05041988 0.89213573 0 0 0
-0.85063763 0.07061249 0.89215324 0 0 0
-0.84930598 0.09051585 0.89217575 0 0 0
-0.84946940 0.11058382 0.89234754 0 0 0
-0.84954124 0.13054055 0.89252833 0 0 0
-0.84972072 0.15017067 0.89269217 0 0 0
-0.85020964 0.16961170 0.89293759 0 0 0
-0.85035894 0.18944241 0.89328245 0 0 0
-0.85008997 0.20966189 0.89375181 0 0 0
-0.84984344 0.22986436 0.89436493 0 0 0
-0.85027974 0.25037265 0.89515276 0 0 0
-0.84964634 0.27021253 0.89588840 0 0 0
-0.85052860 0.28996399 0.89668438 0 0 0
-0.84971934 0.30956805 0.89729820 0 0 0
-0.85017413 0.33012672 0.89797944 0 0 0
-0.84992162 0.35019955 0.89863024 0 0 0
-0.84956530 0.36931352 0.89929511 0 0 0
-0.85761923 0.37757507 0.90009418 0 0 0
-0.84465280 0.38786518 0.89967985 0 0 0
-0.85379258 0.39141344 0.90041081 0 0 0
-0.84082894 0.40263252 0.89988475 0 0 0
-0.85001311 0.41033552 0.90089476 0 0 0
-0.85056677 0.42982850 0.90172987 0 0 0
-0.84950043 0.45003632 0.90238316 0 0 0
-0.85060444 0.46990201 0.90326284 0 0 0
-0.84971382 0.49005141 0.90410620 0 0 0
-0.85045293 0.50752973 0.90513324 0 0 0
-0.83084857 -0.60190845 0.89351993 0 0 0
-0.83021605 -0.59007549 0.89240945 0 0 0
-0.83000380 -0.57007370 0.89089730 0 0 0
-0.83003934 -0.55001897 0.88902077 0 0 0
-0.82981051 -0.53530649 0.88664715 4 5 5
-0.82736317 -0.51048865 0.85286850 53 42 62
-0.82504021 -0.49015893 0.85138543 61 61 71
-0.83567213 -0.48829336 0.86271493 18 20 22
-0.82431660 -0.46556813 0.85429430 44 43 46
-0.83454669 -0.47464543 0.86412454 32 36 36
-0.82227516 -0.45344401 0.85370785 12 10 12
-0.83476578 -0.45325365 0.86797624 13 12 11
-0.82177419 -0.43704029 0.85626084 10 9 10
-0.83007413 -0.42801792 0.86646956 0 0 0
-0.82071429 -0.41506124 0.85824779 0 0 0
-0.83055137 -0.41417248 0.86979438 0 0 0
-0.83876340 -0.40135128 0.88190436 0 0 0
-0.82819501 -0.39259478 0.87215144 8 9 9
-0.83815300 -0.39005393 0.88393962 0 0 0
-0.82512097 -0.36632305 0.87471798 20 22 20
-0.83617540 -0.36740649 0.88590675 1 1 1
-0.82308754 -0.35584771 0.87496275 20 20 20
-0.83685328 -0.34978414 0.88850666 0 0 0
-0.82153978 -0.33679322 0.87653846 0 0 0
-0.83435447 -0.32935445 0.88889219 0 0 0
-0.83273233 -0.30920838 0.88883398 0 0 0
-0.83081301 -0.28962040 0.88859797 0 0 0
-0.83015649 -0.26987675 0.88907202 0 0 0
-0.82968087 -0.24984191 0.88984089 0 0 0
-0.83001476 -0.22979881 0.89050271 0 0 0
-0.83031739 -0.20986697 0.89082761 0 0 0
-0.83044797 -0.18988065 0.89096797 0 0 0
-0.82987272 -0.16971606 0.89099823 0 0 0
-0.82976450 -0.14985722 0.89106041 0 0 0
-0.82979221 -0.12983980 0.89109023 0 0 0
-0.82996124 -0.10983978 0.89127198 0 0 0
-0.83009915 -0.08982837 0.89142018 0 0 0
-0.83014831 -0.06980315 0.89147318 0 0 0
-0.83000236 -0.04976388 0.89131652 0 0 0
-0.82968452 -0.02972528 0.89097521 0 0 0
-0.82994067 -0.00989084 0.89069417 0 0 0
-0.82998367 0.01037194 0.89040205 0 0 0
-0.83057655 0.03031066 0.89028098 0 0 0
-0.83058051 0.05031541 0.89028535 0 0 0
-0.83051630 0.07017752 0.89039477 0 0 0
-0.82966866 0.09056591 0.89053217 0 0 0
-0.82947096 0.11038555 0.89074677 0 0 0
-0.82967774 0.13043266 0.89096891 0 0 0
-0.82987037 0.15048714 0.89117588 0 0 0
-0.83014402 0.17056789 0.89146978 0 0 0
-0.83034060 0.19031646 0.89187965 0 0 0
-0.82979387 0.20969020 0.89234696 0 0 0
-0.83009726 0.22957803 0.89301837 0 0 0
-0.83026079 0.24974101 0.89376047 0 0 0
-0.82984784 0.27008849 0.89447187 0 0 0
-0.83029963 0.29020535 0.89518926 0 0 0
-0.82962712 0.31033580 0.89570548 0 0 0
-0.83015454 0.32975209 0.89629594 0 0 0
-0.83017540 0.34967466 0.89692731 0 0 0
-0.82982762 0.37034421 0.89757214 0 0 0
-0.83012533 0.38988013 0.89830492 0 0 0
-0.82937967 0.40944668 0.89895245 0 0 0
-0.83803393 0.41606585 0.90018409 0 0 0
-0.82540800 0.42893969 0.89927038 0 0 0
-0.83534672 0.43123703 0.90050008 0 0 0
-0.82298305 0.44832146 0.89964592 0 0 0
-0.83250663 0.45045438 0.90085041 0 0 0
-0.82049810 0.46382124 0.89990526 0 0 0
-0.83025893 0.47024509 0.90127864 0 0 0
-0.82989197 0.48988513 0.90200732 0 0 0
-0.83022526 0.50702073 0.90302519 0 0 0
-0.81189824 -0.60118336 0.89207738 0 0 0
-0.80988805 -0.58965299 0.89085007 0 0 0
-0.81000366 -0.56984854 0.88923000 0 0 0
-0.80985251 -0.55010394 0.88703608 0 0 0
-0.80956215 -0.53475004 0.88442339 0 0 0
-0.80951451 -0.49071989 0.83468262 66 62 78
-0.81813708 -0.49349808 0.84335800 58 57 73
-0.81285271 -0.46844660 0.84090722 53 59 59
-0.80525042 -0.45054880 0.83603393 75 75 74
-0.81447708 -0.45133892 0.84591753 45 42 43
-0.80469307 -0.42940534 0.83846289 19 16 18
-0.80097530 -0.41304145 0.83760607 32 29 35
-0.81514468 -0.41782218 0.85211893 10 8 9
-0.80707123 -0.39115437 0.84858691 22 22 22
-0.81835626 -0.38256638 0.86358643 25 25 25
-0.80623807 -0.36278066 0.85391346 30 30 29
-0.81386045 -0.36622287 0.86198348 33 35 32
-0.80602750 -0.34995306 0.85682750 47 46 46
-0.81930827 -0.34430892 0.87254846 0 0 0
-0.80504022 -0.33862271 0.85814428 40 41 41
-0.81074324 -0.33292456 0.86581680 21 21 21
-0.80070239 -0.30928958 0.85905874 0 0 0
-0.81439052 -0.30796461 0.87536863 9 9 8
-0.81940661 -0.30492397 0.88075942 0 0 0
-0.80623206 -0.28292543 0.87091702 0 0 0
-0.81774339 -0.28443455 0.88334944 0 0 0
-0.80917104 -0.27331636 0.87709266 0 0 0
-0.81751548 -0.26826019 0.88605883 0 0 0
-0.80205159 -0.25483594 0.87346539 6 7 6
-0.81603853 -0.24955993 0.88723371 0 0 0
-0.81419941 -0.22914919 0.88761734 0 0 0
-0.81280800 -0.20963860 0.88803023 0 0 0
-0.81120089 -0.18955109 0.88813866 0 0 0
-0.80976377 -0.16980027 0.88809668 0 0 0
-0.80925706 -0.14977367 0.88804964 0 0 0
-0.80931278 -0.12956019 0.88815745 0 0 0
-0.80969406 -0.10949448 0.88847157 0 0 0
-0.80990417 -0.08955429 0.88870203 0 0 0
-0.81006269 -0.06959962 0.88887602 0 0 0
-0.80999195 -0.04962317 0.88879863 0 0 0
-0.80977928 -0.02964465 0.88856568 0 0 0
-0.81015083 -0.00949505 0.88837455 0 0 0
-0.81019965 0.01028217 0.88818458 0 0 0
-0.81004993 0.03023378 0.88802046 0 0 0
-0.81008128 0.05018947 0.88805474 0 0 0
-0.81028123 0.07016113 0.88827403 0 0 0
-0.81017260 0.08993054 0.88852575 0 0 0
-0.80998303 0.11014323 0.88879011 0 0 0
-0.80969132 0.13033636 0.88906888 0 0 0
-0.80968374 0.15017136 0.88930468 0 0 0
-0.80997818 0.17021555 0.88962814 0 0 0
-0.81039940 0.19030416 0.89009082 0 0 0
-0.80999554 0.21046821 0.89056243 0 0 0
-0.80958726 0.23031352 0.89106811 0 0 0
-0.81018005 0.24985388 0.89172963 0 0 0
-0.81025776 0.26979416 0.89236716 0 0 0
-0.81014062 0.28990937 0.89296166 0 0 0
-0.80988443 0.30971088 0.89342058 0 0 0
-0.80995467 0.33010793 0.89390386 0 0 0
-0.81022930 0.35024540 0.89448293 0 0 0
-0.80981325 0.36975875 0.89497312 0 0 0
-0.81021713 0.38992016 0.89566949 0 0 0
-0.80992440 0.41001896 0.89640369 0 0 0
-0.80978671 0.42998109 0.89714222 0 0 0
-0.81080964 0.44993509 0.89804000 0 0 0
-0.81116694 0.47004270 0.89869851 0 0 0
-0.81007284 0.48842411 0.89878516 0 0 0
-0.81755451 0.49250089 0.90046229 0 0 0
-0.80871142 0.50583456 0.89876039 0 0 0
-0.81588736 0.50567499 0.90075038 0 0 0
-0.79000791 -0.60074782 0.89051739 0 0 0
-0.79003737 -0.59007668 0.88960908 0 0 0
-0.79012737 -0.57019009 0.88808551 0 0 0
-0.78985060 -0.54979019 0.88599281 0 0 0
-0.79000809 -0.53411479 0.88322319 0 0 0
-0.78393827 -0.48672794 0.81317170 91 89 99
-0.78036373 -0.46563480 0.80585599 97 104 112
-0.79524430 -0.47309446 0.82122266 99 102 107
-0.78358652 -0.44817288 0.81208405 89 95 106
-0.79367669 -0.44937402 0.82327843 89 89 92
-0.78729463 -0.43351914 0.81885958 54 46 53
-0.78730952 -0.42154692 0.82034981 29 24 25
-0.78245578 -0.41546884 0.81676334 42 41 51
-0.79135110 -0.41438021 0.82626013 27 22 28
-0.79280321 -0.38870730 0.83328168 68 69 69
-0.78674468 -0.36599072 0.83098066 57 59 58
-0.79809632 -0.36390130 0.84451708 50 50 48
-0.78178799 -0.35392162 0.82801977 65 67 64
-0.78497137 -0.33345129 0.83649350 78 79 77
-0.78779228 -0.33167506 0.84053171 105 109 108
-0.78912655 -0.30920577 0.84663821 54 55 54
-0.79124323 -0.28571521 0.85405822 19 19 20
-0.79669498 -0.28101679 0.86114687 0 0 0
-0.78797252 -0.27329862 0.85331297 20 20 20
-0.79798624 -0.27227547 0.86416063 0 0 0
-0.78121247 -0.25435942 0.84917122 0 0 0
-0.79103494 -0.25158095 0.86227769 45 47 46
-0.78305826 -0.23009680 0.85721776 6 6 6
-0.79426232 -0.22974311 0.86989367 6 6 6
-0.78884692 -0.20558581 0.86944603 9 9 9
-0.79013837 -0.19387863 0.87298174 0 0 0
-0.79784219 -0.18846553 0.88258797 0 0 0
-0.78759731 -0.16764390 0.87543901 1 1 1
-0.79769313 -0.16886162 0.88513979 0 0 0
-0.78508969 -0.15329549 0.87559587 0 0 0
-0.79554829 -0.14968608 0.88508501 0 0 0
-0.78414781 -0.13398982 0.87792933 0 0 0
-0.79413952 -0.12960745 0.88521536 0 0 0
-0.79305448 -0.10983766 0.88561964 0 0 0
-0.79131665 -0.08947542 0.88566767 0 0 0
-0.79029864 -0.06943493 0.88568920 0 0 0
-0.79025311 -0.04944531 0.88561443 0 0 0
-0.79016409 -0.02954261 0.88551484 0 0 0
-0.79009487 -0.00964469 0.88543779 0 0 0
-0.79008859 0.01025058 0.88543108 0 0 0
-0.79001390 0.03014276 0.88534734 0 0 0
-0.79006205 0.05003960 0.88540132 0 0 0
-0.79028720 0.06995420 0.88565360 0 0 0
-0.79014695 0.09009599 0.88591053 0 0 0
-0.78998760 0.10981920 0.88617502 0 0 0
-0.78975914 0.12959053 0.88649809 0 0 0
-0.78977959 0.14974893 0.88680243 0 0 0
-0.79012352 0.16974890 0.88718877 0 0 0
-0.79001285 0.18997711 0.88761166 0 0 0
-0.79006394 0.20972538 0.88810623 0 0 0
-0.78978386 0.22990043 0.88853190 0 0 0
-0.79020502 0.24999836 0.88900540 0 0 0
-0.79062990 0.27011910 0.88948266 0 0 0
-0.79007140 0.29025798 0.88991835 0 0 0
-0.78994988 0.30994672 0.89034815 0 0 0
-0.79110831 0.32999409 0.89091407 0 0 0
-0.79179175 0.34922720 0.89120669 0 0 0
-0.79283504 0.36951200 0.89172524 0 0 0
-0.79403174 0.38977088 0.89230543 0 0 0
-0.79391484 0.40916151 0.89194391 0 0 0
-0.78072522 0.43069538 0.87834545 9 8 13
-0.79316473 0.42917123 0.89036890 0 0 0
-0.78261065 0.45519923 0.87875785 20 13 24
-0.79197469 0.44994469 0.88791393 2 2 3
-0.78261977 0.47044535 0.87885964 19 14 24
-0.79546957 0.46976278 0.88994333 2 1 2
-0.78210568 0.48462406 0.87978434 18 16 23
-0.78797586 0.49184042 0.88334381 14 13 18
-0.79157546 0.50202951 0.88575851 14 13 20
-0.77612578 -0.60013191 0.88960440 0 0 0
-0.76981453 -0.58994122 0.88841549 0 0 0
-0.76995135 -0.56999182 0.88705967 0 0 0
-0.76993268 -0.55047772 0.88520591 0 0 0
-0.77085731 -0.52471729 0.87664016 2 1 2
-0.77001443 -0.53423715 0.88234706 0 0 0
-0.76599861 -0.50938999 0.85103297 20 19 19
-0.77361015 -0.51742637 0.86445928 15 14 12
-0.76973498 -0.48663605 0.81301819 92 103 101
-0.76761122 -0.46623960 0.79268689 94 90 110
-0.77679755 -0.47182585 0.80217332 98 95 117
-0.76496448 -0.45253021 0.79080447 101 108 117
-0.77461017 -0.44581954 0.80278021 102 121 126
-0.76685885 -0.42944394 0.79689047 83 76 86
-0.76398884 -0.41388057 0.79633789 68 61 58
-0.77209480 -0.41410642 0.80498157 43 39 42
-0.76195437 -0.39567382 0.79680061 58 57 65
-0.76973287 -0.38380800 0.80761321 57 56 58
-0.76816596 -0.36932970 0.80965243 121 125 124
-0.77889070 -0.36122338 0.82344154 90 96 95
-0.76472920 -0.35921484 0.80773503 119 119 118
-0.77908639 -0.35555840 0.82515621 121 121 116
-0.76485940 -0.33034251 0.81456168 134 134 132
-0.77803091 -0.33810988 0.82782590 119 118 118
-0.76434469 -0.31096801 0.81853336 147 149 149
-0.76933519 -0.30850947 0.82425994 92 94 92
-0.77173180 -0.28336193 0.83235003 46 47 48
-0.76555267 -0.27101099 0.82825688 64 65 63
-0.76478388 -0.25162844 0.83170861 47 48 47
-0.77608343 -0.25524273 0.84359480 23 23 23
-0.76325834 -0.23096565 0.83467482 42 43 42
-0.77558033 -0.22602726 0.85023630 49 51 50
-0.76065351 -0.20752178 0.83784264 103 104 103
-0.76833211 -0.20542069 0.84630331 38 38 38
-0.77566445 -0.18591755 0.85846323 11 12 12
-0.76728875 -0.17338088 0.85163987 21 21 21
-0.76611966 -0.14759589 0.85567583 24 24 24
-0.77435908 -0.14358521 0.86556969 5 5 5
-0.76288066 -0.13196177 0.85494471 15 16 16
-0.77515629 -0.13656714 0.86735946 0 0 0
-0.77260008 -0.10767756 0.86977009 2 2 2
-0.77285336 -0.09124353 0.87288031 2 2 2
-0.76849802 -0.06704242 0.87170862 6 6 6
-0.77839759 -0.06753623 0.88201569 0 0 0
-0.76847042 -0.04580987 0.87476440 0 0 0
-0.77731836 -0.04921881 0.88248285 0 0 0
-0.76633964 -0.02729504 0.87448682 3 3 3
-0.77668034 -0.02875806 0.88276651 0 0 0
-0.76472471 -0.01000884 0.87451638 2 2 2
-0.77598756 -0.00912520 0.88276136 0 0 0
-0.76459316 0.01010841 0.87638226 0 0 0
-0.77465827 0.01033718 0.88261725 0 0 0
-0.76522044 0.02762317 0.87797453 0 0 0
-0.77437414 0.03033049 0.88257514 0 0 0
-0.76076670 0.05774348 0.87459895 0 0 0
-0.77383764 0.04988193 0.88260693 0 0 0
-0.76308748 0.06904804 0.87774156 0 0 0
-0.77373506 0.07005004 0.88285205 0 0 0
-0.76132811 0.09049338 0.87698697 0 0 0
-0.77305310 0.08925308 0.88295439 0 0 0
-0.76247909 0.11036472 0.87831280 0 0 0
-0.77273317 0.10955952 0.88314439 0 0 0
-0.76310124 0.13020455 0.87902947 0 0 0
-0.77306613 0.12967178 0.88350603 0 0 0
-0.76275203 0.14988568 0.87862721 0 0 0
-0.77341520 0.14980381 0.88388607 0 0 0
-0.76231919 0.17028854 0.87812861 0 0 0
-0.77381562 0.16996446 0.88432474 0 0 0
-0.76178179 0.18663656 0.87715927 0 0 0
-0.77364621 0.18959024 0.88457819 0 0 0
-0.76297063 0.20420407 0.87713265 0 0 0
-0.77496066 0.21001625 0.88563544 0 0 0
-0.77524329 0.22984552 0.88595751 0 0 0
-0.76466604 0.24974733 0.87733843 2 2 2
-0.77590313 0.24936696 0.88629586 0 0 0
-0.76337879 0.27904893 0.87412802 9 6 8
-0.77605762 0.26982600 0.88601286 0 0 0
-0.76887177 0.29872928 0.87867886 7 6 9
-0.77624569 0.28858216 0.88550328 0 0 0
-0.76751058 0.31101788 0.87579215 7 5 8
-0.77680120 0.30970762 0.88529098 0 0 0
-0.76668482 0.32960896 0.87330252 10 8 12
-0.77658283 0.32421713 0.88399892 0 0 0
-0.76408038 0.35103490 0.86908153 15 13 21
-0.77844797 0.35305660 0.88351464 2 1 2
-0.76527491 0.37164830 0.86962333 15 13 21
-0.77805274 0.36818288 0.88133693 1 1 2
-0.76648581 0.39083172 0.87111031 15 14 21
-0.77977348 0.39227267 0.88069981 1 1 2
-0.76770612 0.41038262 0.87237460 16 14 21
-0.76864732 0.43050842 0.87410314 18 14 23
-0.77004107 0.45014096 0.87607081 20 15 24
-0.77001359 0.47010958 0.87786500 19 15 24
-0.76875560 0.48816060 0.87935269 18 16 24
-0.77325782 0.49648257 0.88042472 18 17 25
-0.77282955 0.50028947 0.88059296 17 17 25
-0.75004932 -0.58990272 0.88730973 0 0 0
-0.75001016 -0.57020468 0.88613390 0 0 0
-0.74995815 -0.55006499 0.88443691 0 0 0
-0.74868654 -0.52601819 0.87870098 0 0 0
-0.74971822 -0.53417350 0.88180397 0 0 0
-0.75699406 -0.50098977 0.83699882 21 21 21
-0.75023930 -0.48721075 0.81397834 41 43 38
-0.74275204 -0.49692858 0.83201961 39 33 35
-0.74672899 -0.46145683 0.77500889 102 102 107
-0.75685306 -0.46646605 0.78157729 57 50 65
-0.74495326 -0.45066842 0.77382080 113 114 121
-0.75616073 -0.44253100 0.78225858 99 104 116
-0.74283830 -0.43151204 0.77235911 124 126 133
-0.75501263 -0.43357796 0.78317109 113 114 124
-0.74303408 -0.41200937 0.77460678 78 73 74
-0.75352781 -0.41395009 0.78491802 68 58 63
-0.74232140 -0.38939589 0.77650333 75 63 76
-0.75078493 -0.39123068 0.78512037 66 68 75
-0.74145117 -0.37619349 0.77760924 133 130 130
-0.74599703 -0.37168188 0.78355346 118 119 118
-0.74948298 -0.35667347 0.79126717 146 146 145
-0.75876759 -0.34767435 0.80363590 147 147 143
-0.74633334 -0.33156896 0.79337454 154 155 149
-0.75828645 -0.33479627 0.80607756 135 144 139
-0.74499478 -0.30754019 0.79682976 133 135 133
-0.75652960 -0.30988988 0.81016421 166 166 167
-0.74975574 -0.28605926 0.80706158 115 116 113
-0.74521211 -0.27371866 0.80475080 129 136 133
-0.74970429 -0.25660771 0.81364685 100 100 99
-0.75602478 -0.25562097 0.82025135 21 21 21
-0.74719448 -0.23596608 0.81602854 128 131 128
-0.75480272 -0.23229895 0.82550216 117 120 120
-0.74341994 -0.20949566 0.81730425 103 105 105
-0.75341885 -0.20821687 0.82908568 90 91 89
-0.74953029 -0.18624366 0.82937322 85 86 83
-0.74772995 -0.17444495 0.82929031 49 49 48
-0.74919302 -0.15178362 0.83596274 72 74 73
-0.75477576 -0.14650806 0.84300430 34 35 35
-0.74403335 -0.13014279 0.83382291 35 38 36
-0.74198595 -0.11719197 0.83395034 43 44 44
-0.75437440 -0.11191613 0.84870052 20 20 20
-0.74113492 -0.08668979 0.83869749 74 77 74
-0.74623654 -0.08504866 0.84414173 26 27 27
-0.75431725 -0.07408645 0.85562373 60 60 60
-0.75906810 -0.07259777 0.86067483 11 11 11
-0.74534472 -0.04419719 0.84944148 44 45 44
-0.74856729 -0.03397517 0.85427030 36 35 34
-0.75838406 -0.02650411 0.86635113 31 32 31
-0.74647191 -0.01078792 0.85476834 51 54 50
-0.75445475 -0.00866157 0.86390930 35 37 34
-0.74583579 0.01212900 0.85573357 15 16 16
-0.75650498 0.01605284 0.86797486 0 0 0
-0.74476139 0.02620129 0.85619879 55 56 56
-0.74931644 0.03677532 0.86143540 5 4 4
-0.74352497 0.05506772 0.85647923 29 29 29
-0.75287371 0.04993672 0.86581070 3 3 3
-0.75694596 0.06812977 0.87193909 3 3 3
-0.74281759 0.11366348 0.85737141 14 13 15
-0.74355247 0.13102271 0.85821962 11 10 12
-0.74523686 0.13038272 0.86016377 10 10 11
-0.74019452 0.14426702 0.85434382 12 11 11
-0.75611353 0.19372642 0.87098020 3 2 3
-0.74288216 0.20366171 0.85573876 12 9 12
-0.75704893 0.21190283 0.87066759 1 1 2
-0.75735043 0.23053874 0.87067151 6 5 7
-0.74333756 0.25285968 0.85456191 20 17 24
-0.75514279 0.24986337 0.86720455 11 9 12
-0.74233318 0.27273327 0.85354704 22 15 22
-0.75303420 0.26841751 0.86386065 17 13 18
-0.74407735 0.29121552 0.85575635 19 16 23
-0.75290806 0.28565025 0.86213822 17 13 18
-0.74536534 0.31002822 0.85812480 20 15 23
-0.75509572 0.31051506 0.86293537 19 14 23
-0.74358800 0.32256560 0.85963227 19 15 24
-0.74892831 0.33179731 0.86160778 18 14 22
-0.74927660 0.35041876 0.86364926 17 15 23
-0.75008614 0.37000558 0.86619044 18 16 24
-0.74995743 0.38986239 0.86847580 18 15 23
-0.74981408 0.41016358 0.87075549 18 15 23
-0.75022284 0.42988029 0.87285904 19 14 23
-0.74999434 0.45003985 0.87489987 19 14 24
-0.75009813 0.46989704 0.87676517 18 15 24
-0.74992621 0.48986703 0.87843982 19 16 24
-0.73000521 -0.58958338 0.88620656 0 0 0
-0.73022047 -0.56971558 0.88521316 0 0 0
-0.72979137 -0.55000550 0.88400265 0 0 0
-0.72888158 -0.52477582 0.87882573 0 0 0
-0.72998152 -0.53389989 0.88187341 0 0 0
-0.73210436 -0.50082620 0.83914872 20 17 18
-0.72709360 -0.50653640 0.84912932 6 4 5
-0.73001228 -0.51644442 0.86741168 7 7 7
-0.73131740 -0.48538542 0.81327724 41 39 39
-0.73760366 -0.49191902 0.82422447 44 41 38
-0.72945021 -0.46067573 0.77187544 92 101 97
-0.72026415 -0.47530489 0.79638702 36 36 36
-0.72460006 -0.47908174 0.80271524 36 37 37
-0.72993742 -0.44988057 0.77116694 90 93 92
-0.72980097 -0.42996823 0.77096698 66 67 68
-0.72955527 -0.40999460 0.77169782 59 54 56
-0.72952434 -0.38981675 0.77283521 84 79 84
-0.72912132 -0.37016693 0.77487156 147 147 148
-0.72773999 -0.35035996 0.77660095 157 157 155
-0.73849139 -0.34610767 0.78130360 155 158 156
-0.72634138 -0.33033815 0.77814025 164 164 162
-0.73622167 -0.32829950 0.78262235 161 161 159
-0.72507533 -0.31635405 0.77958564 165 166 164
-0.72646358 -0.30697095 0.78113995 162 163 159
-0.72481834 -0.28994596 0.78261633 165 166 165
-0.72410864 -0.27058048 0.78513200 158 159 159
-0.72362557 -0.25113172 0.78788514 162 163 161
-0.72335779 -0.23181791 0.79098842 157 159 156
-0.73647966 -0.23559943 0.80394566 153 153 149
-0.72177715 -0.21252637 0.79263280 151 153 151
-0.73418018 -0.20809006 0.80745244 135 138 140
-0.72219983 -0.18887637 0.79822258 153 153 149
-0.72998807 -0.18565258 0.80733253 119 121 120
-0.72547512 -0.16440823 0.80625502 97 97 98
-0.72874933 -0.15396310 0.81249507 119 120 119
-0.73466218 -0.14586924 0.82093537 117 121 120
-0.72352596 -0.12737472 0.81162874 108 113 111
-0.73595520 -0.12326109 0.82637057 83 82 85
-0.72620336 -0.11480889 0.81700629 108 109 111
-0.73707077 -0.11151933 0.82923070 35 35 36
-0.72217114 -0.09537730 0.81590767 113 114 115
-0.73463886 -0.09054161 0.83094446 99 99 100
-0.72015782 -0.06135477 0.81976926 157 155 165
-0.72943892 -0.07251066 0.82815512 133 133 133
-0.73939631 -0.06432202 0.84001607 63 62 64
-0.72999896 -0.05257394 0.83130008 94 95 94
-0.73967236 -0.04418538 0.84364289 97 101 101
-0.72461891 -0.03192113 0.82810599 112 112 109
-0.73548237 -0.03094691 0.84052092 97 96 93
-0.72591670 -0.00879663 0.83233195 121 124 119
-0.73839257 -0.01213256 0.84551686 61 62 62
-0.72728494 0.01256991 0.83610737 133 139 137
-0.73566269 0.00939362 0.84467153 79 81 79
-0.72052935 0.03901791 0.82999018 91 91 90
-0.72339403 0.04904870 0.83384302 74 75 75
-0.73660392 0.05162313 0.84850675 41 40 42
-0.72552003 0.06252689 0.83740629 73 73 80
-0.73050258 0.07316369 0.84315724 54 52 52
-0.72131515 0.09256971 0.83421720 79 76 83
-0.73489053 0.09046234 0.84822188 31 28 32
-0.72454041 0.10384471 0.83794729 76 71 78
-0.73101871 0.11026695 0.84487185 49 46 51
-0.72014680 0.13947963 0.83453417 49 44 42
-0.72850171 0.12988978 0.84252862 51 49 54
-0.72105229 0.15145835 0.83604895 40 36 41
-0.73175882 0.15137941 0.84567498 32 28 32
-0.72225131 0.17040813 0.83860749 30 27 31
-0.73226151 0.17067396 0.84625001 23 21 24
-0.72088981 0.18150388 0.83988112 29 25 34
-0.72645511 0.19068961 0.84285893 26 23 29
-0.72776533 0.21020160 0.84501784 23 20 26
-0.72824224 0.23005061 0.84700391 21 17 24
-0.72961261 0.25056594 0.84953204 21 17 24
-0.73004565 0.27049213 0.85191024 21 16 22
-0.72997083 0.29044747 0.85440360 19 16 22
-0.72979940 0.31022177 0.85711740 19 16 21
-0.72894557 0.32634604 0.85917857 18 16 23
-0.73196968 0.33547777 0.86056721 18 15 22
-0.72998351 0.34977235 0.86227045 18 15 22
-0.73001564 0.37024686 0.86481920 20 15 23
-0.72990740 0.38999276 0.86703888 18 15 22
-0.73002740 0.40982519 0.86930929 18 15 23
-0.72983612 0.43014536 0.87147927 19 15 24
-0.73017835 0.45006701 0.87360022 19 15 25
-0.72992781 0.47017722 0.87558196 18 16 25
-0.73007398 0.49018917 0.87756193 19 16 24
-0.71029231 -0.58905817 0.88521908 0 0 0
-0.70955813 -0.57042053 0.88434500 0 0 0
-0.71012992 -0.54999634 0.88348142 0 0 0
-0.71037831 -0.52366595 0.87902009 0 0 0
-0.70960727 -0.53336540 0.88156377 0 0 0
-0.71295831 -0.50464254 0.84924033 29 26 23
-0.71821129 -0.51825570 0.87341116 24 17 13
-0.70745857 -0.49381414 0.82980293 31 24 25
-0.71156799 -0.46119668 0.77274831 44 45 42
-0.71281560 -0.46904694 0.78590164 38 38 38
-0.70991278 -0.44963344 0.77017213 45 44 43
-0.71015024 -0.43017124 0.77030861 40 39 40
-0.70974035 -0.40991274 0.77085380 57 50 52
-0.70992673 -0.39009154 0.77196908 89 85 89
-0.70994561 -0.37007343 0.77361237 149 149 149
-0.70986573 -0.35005671 0.77532168 161 160 158
-0.70986461 -0.33020969 0.77741321 165 165 163
-0.70952349 -0.31362654 0.77928249 154 153 151
-0.71091252 -0.30343996 0.78042788 161 161 160
-0.71012696 -0.28985703 0.78202615 167 168 168
-0.71014355 -0.27011431 0.78425227 171 171 170
-0.71023090 -0.25004789 0.78667469 164 164 162
-0.70997778 -0.22959395 0.78877701 168 168 167
-0.70956039 -0.20959053 0.79063158 162 163 163
-0.70877875 -0.18968112 0.79252889 160 161 158
-0.70856263 -0.16971467 0.79505579 161 162 160
-0.70708207 -0.15039118 0.79718101 167 170 168
-0.71690689 -0.14400063 0.80135377 153 157 155
-0.70572843 -0.13132856 0.79898623 164 167 165
-0.71264936 -0.12659837 0.80139992 157 160 159
-0.70139517 -0.11933059 0.79998533 166 167 166
-0.70642277 -0.10975387 0.80165853 161 162 164
-0.70535836 -0.09000440 0.80348499 162 163 163
-0.70534163 -0.07002203 0.80579012 161 163 163
-0.70455349 -0.05008525 0.80767070 157 158 157
-0.71982947 -0.04725719 0.82101083 130 127 124
-0.70484716 -0.02998109 0.81012678 154 155 152
-0.71739111 -0.02101585 0.82146856 119 127 126
-0.70414913 -0.00941524 0.81223645 163 165 162
-0.71818059 -0.01537042 0.82318690 134 137 136
-0.70472151 0.01022526 0.81520598 166 168 167
-0.71599921 0.00882312 0.82313298 162 163 163
-0.70497002 0.02973410 0.81784266 158 159 158
-0.71420075 0.03350690 0.82332904 137 138 138
-0.70366848 0.04353246 0.81941493 143 143 144
-0.70724791 0.05232330 0.82183768 121 121 122
-0.70716352 0.07046058 0.82447819 91 90 91
-0.70774580 0.09038821 0.82721101 82 79 84
-0.70871234 0.11021943 0.82992958 69 67 72
-0.70981568 0.12992717 0.83251762 52 51 54
-0.70962216 0.15005318 0.83492546 40 37 41
-0.71009518 0.17002591 0.83747292 31 28 32
-0.70818226 0.18484120 0.83933561 28 25 29
-0.71118637 0.19389738 0.84075388 26 24 29
-0.70986190 0.21000737 0.84279662 25 22 28
-0.71003504 0.23041447 0.84554865 24 19 25
-0.71012629 0.25021262 0.84820154 22 18 22
-0.71001303 0.27012300 0.85077393 21 17 22
-0.71002439 0.29006572 0.85336238 20 17 22
-0.70988784 0.31025381 0.85601049 19 16 21
-0.70970590 0.33008046 0.85851106 19 16 23
-0.71730527 0.33849777 0.86009713 18 16 23
-0.70365264 0.34271339 0.85973285 19 15 23
-0.71070020 0.35066807 0.86113069 19 15 22
-0.71011719 0.36972810 0.86337253 19 16 22
-0.71003395 0.39008816 0.86562583 18 16 23
-0.70980375 0.41009582 0.86787861 19 16 24
-0.71018864 0.42980255 0.87009052 18 15 23
-0.70971429 0.45001175 0.87228594 18 15 24
-0.71017443 0.47006721 0.87446892 18 16 25
-0.71009103 0.48999102 0.87698360 17 15 22
-0.70006795 0.49995726 0.88000822 0 0 0
-0.68996473 -0.58910289 0.88443747 0 0 0
-0.68998990 -0.56994602 0.88349637 0 0 0
-0.69022813 -0.55019168 0.88266773 0 0 0
-0.68911589 -0.52445883 0.87918318 0 0 0
-0.69034449 -0.53422683 0.88107586 0 0 0
-0.68676203 -0.50256666 0.84944493 41 32 32
-0.69149489 -0.51767238 0.87497680 6 4 3
-0.69635716 -0.48508181 0.81512916 34 27 27
-0.69408211 -0.49614612 0.83615011 35 34 28
-0.68606052 -0.47694422 0.80145478 39 31 32
-0.68978948 -0.44962476 0.76994331 39 39 38
-0.68974796 -0.43003975 0.76981429 36 35 36
-0.69007488 -0.41000630 0.77019521 54 48 50
-0.68984272 -0.38982182 0.77126227 98 93 96
-0.69004566 -0.36972270 0.77285201 147 147 148
-0.68997107 -0.34985673 0.77468728 163 164 161
-0.68997452 -0.32998316 0.77667106 164 164 162
-0.68965956 -0.31018256 0.77873188 163 160 159
-0.69716755 -0.30135365 0.78009243 172 171 168
-0.68495375 -0.29846693 0.77977226 173 173 171
-0.69042393 -0.28913495 0.78106509 168 169 168
-0.68977346 -0.26981806 0.78317191 174 175 175
-0.69000091 -0.25023663 0.78554166 169 170 170
-0.69005526 -0.23044376 0.78767508 171 172 170
-0.68994100 -0.21047110 0.78964572 166 168 167
-0.68993211 -0.19050770 0.79163644 162 163 162
-0.69018049 -0.17061871 0.79386055 165 165 165
-0.68996182 -0.15045323 0.79619952 168 170 169
-0.69010078 -0.13006906 0.79827723 162 163 161
-0.68649777 -0.11531254 0.79954302 167 168 166
-0.69167983 -0.10704987 0.80077143 167 168 167
-0.69007731 -0.08993071 0.80226178 165 166 166
-0.69000900 -0.06998458 0.80421898 165 169 167
-0.68999273 -0.04983102 0.80622509 156 157 156
-0.69013251 -0.02975569 0.80849566 157 157 154
-0.69000094 -0.00957727 0.81102021 166 167 165
-0.68996905 0.01014301 0.81364934 166 167 166
-0.68993667 0.02987921 0.81627479 163 162 159
-0.68899448 0.04698053 0.81879965 143 142 143
-0.69214705 0.05630796 0.82062788 122 120 122
-0.69004174 0.06996082 0.82283447 95 95 95
-0.69001853 0.09027316 0.82591721 82 79 81
-0.69002715 0.10985916 0.82867497 69 67 68
-0.69003776 0.12963823 0.83134070 52 50 53
-0.69003964 0.15018555 0.83388257 40 39 42
-0.69005337 0.17016045 0.83638669 33 32 35
-0.68905739 0.18868876 0.83878219 29 27 32
-0.69426070 0.19738958 0.84030144 27 25 30
-0.68127956 0.20136360 0.83996582 30 26 31
-0.69024753 0.21015930 0.84171402 27 23 28
-0.68995955 0.23013363 0.84429868 26 21 27
-0.69008908 0.24980845 0.84686087 22 19 23
-0.68993764 0.26969485 0.84945288 21 17 23
-0.69006921 0.28972988 0.85206159 20 17 22
-0.68983779 0.30977883 0.85465147 19 17 22
-0.69005647 0.32998258 0.85724986 19 16 23
-0.68850917 0.34656858 0.85925447 20 16 23
-0.69232872 0.35576410 0.86056182 19 16 23
-0.68973026 0.37015482 0.86208271 20 17 22
-0.69018264 0.38976903 0.86424947 20 16 23
-0.69006548 0.40996407 0.86656506 19 16 23
-0.68991871 0.43011203 0.86886778 18 15 22
-0.69015609 0.44994775 0.87119043 18 16 24
-0.68986636 0.46974583 0.87342114 19 17 24
-0.69062569 0.48813322 0.87616302 16 14 20
-0.68657227 0.49820432 0.88146059 0 0 0
-0.68804092 0.50105561 0.88270938 0 0 0
-0.66994854 -0.58868667 0.88387736 0 0 0
-0.67024726 -0.56960364 0.88280020 0 0 0
-0.66986756 -0.55003511 0.88181113 0 0 0
-0.66926317 -0.52635436 0.87880996 0 0 0
-0.67104863 -0.53638666 0.88058152 0 0 0
-0.67207793 -0.50219865 0.85130991 26 23 24
-0.66975038 -0.51634917 0.87535363 3 3 2
-0.67602489 -0.48420088 0.81780589 56 42 34
-0.67212072 -0.48893390 0.82713360 70 48 44
-0.67489265 -0.49775682 0.84378028 73 54 44
-0.66645758 -0.46210861 0.77803099 41 34 34
-0.66699795 -0.46898812 0.79038271 41 38 37
-0.66922524 -0.47718669 0.80537444 45 40 35
-0.67006790 -0.44924192 0.76951330 35 29 30
-0.67005255 -0.43003955 0.76933164 35 29 31
-0.66990076 -0.40995065 0.76953251 48 40 43
-0.67004102 -0.39011277 0.77067341 108 104 108
-0.67018836 -0.37006090 0.77237651 139 138 139
-0.66997453 -0.35016256 0.77422606 158 158 156
-0.67011477 -0.32977163 0.77616580 166 166 164
-0.66998406 -0.30983095 0.77821199 170 171 168
-0.66891706 -0.29666552 0.77962512 168 169 167
-0.67086591 -0.28661607 0.78077750 169 169 168
-0.66983723 -0.26984470 0.78264524 175 177 176
-0.67005905 -0.25002752 0.78476519 172 172 171
-0.67001515 -0.23024101 0.78678438 173 174 173
-0.66992428 -0.21034298 0.78870718 168 169 168
-0.66996480 -0.19034512 0.79057797 161 162 160
-0.67008383 -0.17027011 0.79260546 168 169 167
-0.66987803 -0.15012259 0.79480264 167 169 167
-0.66990978 -0.12990142 0.79696048 147 146 149
-0.66963874 -0.11057129 0.79887966 169 170 169
-0.67744141 -0.10149008 0.80021017 166 166 166
-0.66410831 -0.09874383 0.79983272 169 171 172
-0.67044915 -0.08943469 0.80108634 168 169 168
-0.66992645 -0.06980523 0.80309298 163 166 164
-0.67000410 -0.04985236 0.80522326 159 160 158
-0.67019404 -0.03030607 0.80747310 160 160 158
-0.66984350 -0.01007918 0.80992455 167 166 164
-0.67004773 0.01009897 0.81250772 168 168 167
-0.66992504 0.02990382 0.81511521 166 165 164
-0.66987365 0.04959455 0.81805244 151 150 150
-0.67798076 0.05911091 0.82016844 129 125 126
-0.66428498 0.06134495 0.81971114 136 134 135
-0.67048623 0.07051574 0.82161852 104 104 106
-0.66997212 0.09001435 0.82462995 82 80 81
-0.66997674 0.11047150 0.82754790 67 67 68
-0.66991480 0.13017102 0.83017275 53 52 55
-0.67009830 0.14993027 0.83263900 45 43 46
-0.66992306 0.16986255 0.83512769 37 36 39
-0.67005803 0.18998490 0.83779680 32 30 34
-0.66759889 0.20400051 0.83953018 29 27 31
-0.67108203 0.21306780 0.84094747 28 24 29
-0.66999776 0.22979389 0.84305227 26 23 28
-0.67000134 0.24961039 0.84560644 24 21 24
-0.66983166 0.26972615 0.84823451 22 19 24
-0.67006147 0.28984765 0.85087457 22 18 24
-0.67000162 0.30974338 0.85346232 19 18 22
-0.67009619 0.32959897 0.85602202 19 17 22
-0.66989157 0.34958760 0.85851785 19 16 23
-0.67868391 0.35895478 0.86013572 19 17 22
-0.66469254 0.36252173 0.85974190 20 16 22
-0.67082621 0.37127624 0.86106114 19 16 23
-0.66981503 0.39015278 0.86303134 20 16 23
-0.67013917 0.40983288 0.86529392 20 17 23
-0.66998222 0.42994799 0.86763588 19 16 23
-0.67003669 0.45002418 0.87006760 19 17 24
-0.66995327 0.47013664 0.87242125 19 17 24
-0.67057786 0.48626343 0.87526771 15 13 18
-0.66846491 0.49675327 0.88326790 0 0 0
-0.66992897 0.50226237 0.88541209 0 0 0
-0.64998668 -0.58841064 0.88354423 0 0 0
-0.65011065 -0.57010351 0.88239280 0 0 0
-0.64992655 -0.55034801 0.88126948 0 0 0
-0.64961391 -0.52795990 0.87870204 0 0 0
-0.65103862 -0.53792426 0.88025559 0 0 0
-0.64933004 -0.51543734 0.87560376 1 1 0
-0.65918780 -0.48149102 0.81620705 71 52 51
-0.64940530 -0.49672242 0.84574628 31 32 27
-0.64713318 -0.46542995 0.78783113 61 47 45
-0.65088761 -0.47441300 0.80420864 72 53 51
-0.65027010 -0.44763998 0.76896031 39 35 36
-0.65009518 -0.42957898 0.76875153 39 31 35
-0.65009065 -0.40983115 0.76889528 54 47 50
-0.64995121 -0.38970581 0.77010940 118 117 117
-0.64998684 -0.36995997 0.77182974 153 153 151
-0.64998412 -0.35016316 0.77365568 162 162 160
-0.65000138 -0.33022123 0.77561413 167 168 166
-0.65004564 -0.31021030 0.77763263 170 170 166
-0.64903124 -0.29335733 0.77934924 167 167 164
-0.65181075 -0.28433013 0.78039321 172 171 171
-0.65003510 -0.27002313 0.78186472 176 177 176
-0.64995806 -0.24971810 0.78397208 171 172 170
-0.64994990 -0.22992205 0.78593317 172 172 172
-0.64996978 -0.21008747 0.78782042 169 171 168
-0.64999450 -0.19013247 0.78966825 162 164 162
-0.65006045 -0.17014329 0.79168366 170 172 171
-0.64994848 -0.14997273 0.79383459 165 166 165
-0.64985907 -0.12973285 0.79596686 165 166 166
-0.64997067 -0.11005993 0.79796185 169 171 170
-0.64885705 -0.09521653 0.79946640 168 171 170
-0.65121539 -0.08546600 0.80059650 166 167 165
-0.64990505 -0.06974520 0.80225093 153 154 153
-0.64994924 -0.04977253 0.80439790 163 163 161
-0.65001963 -0.03038832 0.80664249 169 169 167
-0.64998229 -0.01024635 0.80907390 170 170 169
-0.64997898 0.01008822 0.81162612 169 170 168
-0.65002185 0.02977592 0.81424478 170 170 167
-0.64998154 0.04966874 0.81710188 162 162 160
-0.64857259 0.06389400 0.81934138 143 142 140
-0.65087923 0.07361011 0.82102029 117 116 118
-0.65000209 0.08998143 0.82353055 87 87 88
-0.64990967 0.11023481 0.82637457 72 71 72
-0.65004584 0.12993219 0.82896977 60 57 61
-0.65004909 0.14977192 0.83145770 48 47 49
-0.64974842 0.16997750 0.83399820 41 40 43
-0.65028678 0.19001614 0.83667882 34 33 37
-0.64898492 0.20787191 0.83896584 31 29 33
-0.65316783 0.21669821 0.84038810 29 26 31
-0.64985526 0.22975627 0.84188218 27 25 29
-0.65019412 0.25018259 0.84455049 25 22 26
-0.64997467 0.27046013 0.84719624 24 20 25
-0.65004886 0.29038433 0.84979626 22 19 24
-0.64992447 0.31038117 0.85237002 19 18 22
-0.64978289 0.33032421 0.85490775 20 18 22
-0.65005608 0.34998033 0.85737372 20 17 23
-0.64847962 0.36692659 0.85924463 19 17 23
-0.65346535 0.37535674 0.86044722 19 17 23
-0.65004698 0.38986249 0.86178089 19 17 23
-0.64995971 0.41017144 0.86407889 19 17 23
-0.64996060 0.42996147 0.86642797 19 16 24
-0.64987291 0.45003692 0.86888712 19 17 24
-0.65013347 0.47016061 0.87142616 19 17 23
-0.65107111 0.48358828 0.87476488 12 11 15
-0.64985487 0.49464614 0.88485542 0 0 0
-0.64964417 0.50237879 0.88696792 0 0 0
-0.62998399 -0.58827071 0.88333413 0 0 0
-0.63011214 -0.56994874 0.88215296 0 0 0
-0.62991303 -0.55014396 0.88097182 0 0 0
-0.62999233 -0.52829039 0.87879736 0 0 0
-0.63020274 -0.53822804 0.88015056 0 0 0
-0.63322605 -0.50123016 0.85847342 31 32 23
-0.62914325 -0.51359800 0.87481057 2 2 1
-0.63775139 -0.48093661 0.81766295 38 43 39
-0.62377908 -0.48542933 0.82987304 42 44 37
-0.62830074 -0.49612128 0.85014673 40 42 30
-0.62083372 -0.47312665 0.80675558 46 42 39
-0.63003549 -0.44736463 0.76858520 65 48 45
-0.62989466 -0.43021595 0.76803805 64 46 46
-0.62969477 -0.40994504 0.76830232 66 51 55
-0.63009071 -0.38995574 0.76962642 126 124 126
-0.62992762 -0.37017028 0.77135387 156 156 154
-0.62999101 -0.34979230 0.77318237 171 171 168
-0.62997577 -0.32999612 0.77511259 169 170 167
-0.62992544 -0.31003942 0.77705982 174 174 171
-0.62971632 -0.29033844 0.77902432 167 167 165
-0.63678197 -0.28131709 0.78011621 170 169 169
-0.62247061 -0.27945041 0.77992396 174 174 172
-0.63029812 -0.27000522 0.78110968 175 176 174
-0.62980653 -0.24993110 0.78318574 173 175 173
-0.62999337 -0.22979886 0.78520821 176 176 175
-0.62998460 -0.21001298 0.78711354 170 172 170
-0.63004776 -0.19004313 0.78895338 164 165 162
-0.63001445 -0.16992051 0.79097556 173 175 174
-0.62995529 -0.14984248 0.79307582 172 173 172
-0.62992704 -0.12959774 0.79517800 169 171 168
-0.62998962 -0.10995470 0.79717340 171 172 171
-0.62934659 -0.09188045 0.79907671 166 167 166
-0.63360896 -0.08240054 0.80027281 170 171 170
-0.62996770 -0.06964269 0.80152895 164 164 163
-0.62995539 -0.04973063 0.80372248 169 170 170
-0.63001706 -0.03036631 0.80595940 170 171 169
-0.63007035 -0.01021687 0.80834759 168 169 167
-0.62993208 0.01004948 0.81084084 169 169 164
-0.63005030 0.02983864 0.81345587 169 169 166
-0.62991470 0.04969504 0.81621269 166 166 163
-0.62919486 0.06694325 0.81882911 152 152 149
-0.63217176 0.07642017 0.82049144 130 130 130
-0.62999731 0.08981172 0.82242413 102 102 102
-0.63003178 0.11009037 0.82526493 80 78 78
-0.62981529 0.13009151 0.82786796 66 65 66
-0.63014070 0.14987580 0.83038163 55 53 56
-0.63008551 0.17013738 0.83294555 45 43 46
-0.62998886 0.19014995 0.83554590 38 36 40
-0.62991408 0.20970124 0.83811738 32 31 35
-0.62705393 0.22235165 0.83965191 31 28 32
-0.63094932 0.23187829 0.84110281 29 26 30
-0.62990306 0.25032688 0.84347073 26 24 29
-0.63002965 0.27010341 0.84605216 25 22 26
-0.63007584 0.28997995 0.84861311 23 20 24
-0.62992176 0.30997151 0.85114892 21 20 24
-0.62992297 0.33005715 0.85367926 20 19 23
-0.62999866 0.35028625 0.85617574 20 17 23
-0.62987740 0.37044105 0.85846842 19 17 23
-0.62674649 0.38371815 0.85964973 20 17 24
-0.63118828 0.39197352 0.86085011 19 17 23
-0.63012882 0.40979304 0.86284248 19 17 24
-0.62981354 0.43014112 0.86530577 19 17 23
-0.63008918 0.45002350 0.86781028 19 17 23
-0.63016314 0.46968174 0.87054351 19 16 23
-0.63495912 0.48194782 0.87553840 4 4 6
-0.62983355 0.49275202 0.88576399 0 0 0
-0.62946234 0.50320425 0.88861895 0 0 0
-0.60994872 -0.58813396 0.88316078 0 0 0
-0.61019117 -0.56985590 0.88200931 0 0 0
-0.60988288 -0.55005186 0.88088186 0 0 0
-0.61008933 -0.52752639 0.87881174 0 0 0
-0.61046042 -0.53749757 0.88019982 0 0 0
-0.60970348 -0.51317706 0.87571681 0 0 0
-0.61058381 -0.48717582 0.83564371 29 31 26
-0.61115128 -0.49613953 0.85354292 26 28 26
-0.61413719 -0.46537877 0.79354626 45 47 42
-0.61560320 -0.47133367 0.80403828 45 48 41
-0.60931963 -0.47990499 0.82316583 48 50 37
-0.61040833 -0.44650655 0.76831301 56 45 42
-0.61088315 -0.45898158 0.78148651 43 43 43
-0.60997058 -0.43024404 0.76729270 59 44 42
-0.60986118 -0.40961575 0.76777456 76 60 61
-0.61003665 -0.38997439 0.76922932 131 130 131
-0.61002454 -0.37018454 0.77095471 158 159 156
-0.61010273 -0.34977941 0.77276223 170 171 167
-0.60992405 -0.32986788 0.77467330 172 172 170
-0.60998638 -0.30976400 0.77663565 173 174 172
-0.61000577 -0.28970706 0.77858323 174 174 172
-0.60818451 -0.27747575 0.77975469 180 180 177
-0.61054795 -0.26815499 0.78075604 178 178 178
-0.60997391 -0.25002343 0.78258651 173 174 173
-0.60998792 -0.22961830 0.78461408 171 173 171
-0.60998965 -0.20971911 0.78648612 170 172 170
-0.61002116 -0.18976079 0.78828340 164 163 162
-0.60998069 -0.16975410 0.79028943 174 175 175
-0.60998447 -0.14965057 0.79236611 170 170 168
-0.61012177 -0.12971765 0.79440723 170 171 170
-0.60985177 -0.11010550 0.79636741 172 173 172
-0.61006207 -0.09016633 0.79849516 171 172 171
-0.60700580 -0.07760207 0.79974981 173 174 173
-0.61083935 -0.06819912 0.80093849 170 170 169
-0.60976752 -0.04994080 0.80294022 172 173 172
-0.60998655 -0.03034116 0.80519641 172 173 172
-0.61005446 -0.01016678 0.80756487 169 170 168
-0.60989249 0.01009705 0.81002543 171 170 168
-0.60995346 0.02977958 0.81263566 169 169 166
-0.61002341 0.04954528 0.81533368 169 169 165
-0.60984482 0.06942715 0.81822250 157 157 153
-0.61843173 0.07895596 0.82015514 137 137 136
-0.60482357 0.08118614 0.81977122 143 141 140
-0.61042283 0.09049325 0.82145078 118 116 116
-0.61001227 0.10999389 0.82416998 87 85 85
-0.60995974 0.13036043 0.82685749 73 71 71
-0.61002198 0.14999649 0.82931729 60 59 61
-0.61004059 0.16991908 0.83183484 48 47 50
-0.60994127 0.18999474 0.83442503 42 40 43
-0.61005461 0.21004334 0.83706733 35 34 37
-0.60882645 0.22640679 0.83919266 32 30 34
-0.61164499 0.23586401 0.84058302 29 27 31
-0.60986967 0.25001679 0.84236854 28 25 30
-0.61005220 0.26973262 0.84494457 26 23 28
-0.61008356 0.28953255 0.84747923 23 22 25
-0.60992079 0.30950109 0.84999953 21 20 24
-0.60996916 0.32962758 0.85252294 20 19 23
-0.61003462 0.34979533 0.85499757 20 18 23
-0.60997268 0.37000276 0.85730689 19 17 23
-0.60910623 0.38766407 0.85911695 20 17 23
-0.61267846 0.39713984 0.86041541 20 17 23
-0.60997772 0.41000340 0.86178296 19 17 23
-0.61016215 0.42981906 0.86428794 20 17 24
-0.60996085 0.44970546 0.86678095 19 17 24
-0.61053710 0.46789584 0.86987305 17 14 20
-0.60590344 0.47937495 0.88131723 0 0 0
-0.61453751 0.48066911 0.87950480 0 0 0
-0.60961507 0.49054882 0.88644705 0 0 0
-0.61003948 0.50308567 0.88957265 0 0 0
-0.59002792 -0.58823913 0.88300894 0 0 0
-0.59010910 -0.57001458 0.88187132 0 0 0
-0.58970384 -0.54986989 0.88073198 0 0 0
-0.58996909 -0.52761786 0.87883764 0 0 0
-0.59082343 -0.53759970 0.88017044 0 0 0
-0.58930931 -0.51189453 0.87553883 0 0 0
-0.58271969 -0.48319815 0.83500615 33 35 29
-0.58594370 -0.49051916 0.84819349 21 21 21
-0.58015143 -0.49675023 0.86228561 13 15 14
-0.58906690 -0.46287296 0.79395133 47 49 37
-0.58418496 -0.47083824 0.81001538 47 47 47
-0.59242326 -0.47862517 0.82341176 41 41 40
-0.59066708 -0.44453586 0.76683310 46 46 43
-0.58962848 -0.42978332 0.76633626 44 41 41
-0.59018975 -0.41004994 0.76715469 71 64 64
-0.58990614 -0.39032439 0.76874643 127 126 127
-0.58997443 -0.37003747 0.77054306 154 154 152
-0.58998360 -0.35020052 0.77233150 174 174 171
-0.58995762 -0.33029306 0.77423820 174 175 171
-0.59009164 -0.31022124 0.77618753 173 175 171
-0.58994143 -0.29011414 0.77807675 171 171 170
-0.58923396 -0.27498285 0.77952707 177 180 179
-0.59074446 -0.26529632 0.78050697 178 180 177
-0.59009035 -0.25021477 0.78198148 176 177 174
-0.58983977 -0.22987127 0.78395350 169 171 170
-0.59000057 -0.20953180 0.78587660 160 162 161
-0.58998160 -0.18958706 0.78766499 165 166 163
-0.58997660 -0.16965049 0.78965772 175 176 175
-0.59001013 -0.14960431 0.79171386 171 172 170
-0.58996746 -0.13013275 0.79370330 172 172 171
-0.59003243 -0.11052172 0.79567608 172 172 172
-0.59002369 -0.09007258 0.79784014 172 173 172
-0.58900044 -0.07516522 0.79946798 171 171 169
-0.59087730 -0.06570433 0.80056908 169 170 170
-0.58991422 -0.05030016 0.80225953 171 172 171
-0.59001059 -0.03030891 0.80452674 175 176 175
-0.59006678 -0.01017831 0.80688956 174 175 173
-0.58997648 0.01007367 0.80931632 172 173 171
-0.58991805 0.02972155 0.81184549 165 164 163
-0.59003768 0.04958668 0.81450681 171 172 169
-0.58995050 0.06950333 0.81724110 165 165 160
-0.58858436 0.08411349 0.81930801 151 150 146
-0.59100340 0.09377764 0.82085283 127 126 126
-0.58999849 0.10980985 0.82307424 95 94 94
-0.58994780 0.13012570 0.82577417 78 76 77
-0.59000331 0.14995816 0.82824236 67 65 66
-0.58995343 0.16978044 0.83074533 54 53 56
-0.58998144 0.18970562 0.83333940 46 45 47
-0.59001577 0.20983174 0.83599135 39 38 41
-0.58959581 0.22974130 0.83863817 33 32 37
-0.59638955 0.23875385 0.84016951 32 28 34
-0.58336521 0.24106628 0.83982386 32 29 35
-0.59030383 0.25009123 0.84138434 28 27 31
-0.58985031 0.26962543 0.84391015 27 24 29
-0.59001512 0.28998953 0.84649949 26 23 28
-0.58996474 0.31025243 0.84905285 24 21 25
-0.58997829 0.33010684 0.85152979 21 20 24
-0.59017909 0.34973838 0.85391349 21 19 24
-0.59001839 0.36956662 0.85615280 20 18 23
-0.59003139 0.38972216 0.85831046 20 18 22
-0.58660717 0.40263767 0.85966450 19 18 22
-0.59088051 0.41198164 0.86103972 19 18 23
-0.59007627 0.43006600 0.86335741 20 17 24
-0.58986887 0.45016113 0.86595957 20 17 24
-0.59094866 0.46668999 0.86998550 14 12 17
-0.58770637 0.47768296 0.88314000 0 0 0
-0.59005008 0.49017715 0.88714221 0 0 0
-0.59004990 0.50352281 0.89042257 0 0 0
-0.56970262 -0.58870840 0.88292523 0 0 0
-0.57033432 -0.57051484 0.88176568 0 0 0
-0.56228097 -0.54121942 0.87993005 0 0 0
-0.56998842 -0.55034307 0.88053092 0 0 0
-0.56983190 -0.52939823 0.87891129 0 0 0
-0.57651828 -0.53836229 0.88005923 0 0 0
-0.57001025 -0.51065299 0.87573161 0 0 0
-0.57514028 -0.48900026 0.84724846 9 9 9
-0.57276849 -0.49791105 0.86690158 17 15 13
-0.57353047 -0.46211589 0.79619151 49 48 47
-0.57566325 -0.47058837 0.81226800 41 41 39
-0.57585432 -0.47632545 0.82312945 36 38 31
-0.57105622 -0.44398966 0.76677967 48 48 44
-0.57316755 -0.45603389 0.78478045 48 49 41
-0.56962561 -0.43008144 0.76579683 45 43 43
-0.56989085 -0.41008713 0.76660151 74 66 65
-0.56994033 -0.39021490 0.76827656 128 126 126
-0.56994621 -0.36987705 0.77019249 154 154 151
-0.56997083 -0.35008179 0.77204393 173 174 170
-0.56992973 -0.33022305 0.77395479 177 178 174
-0.57002616 -0.31030488 0.77580414 173 174 170
-0.56996195 -0.29018253 0.77764424 174 174 173
-0.56983427 -0.27283395 0.77932661 177 178 177
-0.57035390 -0.26299650 0.78028906 177 180 177
-0.56999024 -0.25039319 0.78152132 175 176 172
