ply
format ascii 1.0
element vertex 1067
property float x
property float y
property float z
property uchar red
property uchar green
property uchar blue
end_header
-0.35047198 0.34968481 0.80861878 102 114 119
-0.35047198 0.36995047 0.80861878 111 124 129
-0.35047198 0.39021614 0.80861878 55 62 64
-0.35047197 0.40978298 0.80861877 0 0 0
-0.35047195 0.43004862 0.80861872 0 0 0
-0.35047195 0.45031429 0.80861872 0 0 0
-0.33020631 -0.54340213 0.80861878 0 0 0
-0.33020631 -0.53012462 0.80861878 0 0 0
-0.33020631 -0.50985896 0.80861878 0 0 0
-0.33020631 -0.49029211 0.80861878 0 0 0
-0.33020631 -0.47002644 0.80861878 0 0 0
-0.33020631 -0.44976078 0.80861878 0 0 0
-0.33020636 -0.43019399 0.80861890 113 123 126
-0.33020641 -0.40992838 0.80861903 127 147 158
-0.33020646 -0.38966278 0.80861916 123 144 156
-0.33020648 -0.37009593 0.80861920 126 138 147
-0.33020652 -0.34983030 0.80861931 119 127 136
-0.33020665 -0.32956476 0.80861963 107 122 138
-0.33020676 -0.30999799 0.80861990 100 125 145
-0.33020689 -0.29043122 0.80862021 105 132 153
-0.33020648 -0.27016519 0.80861921 166 152 167
-0.33020634 -0.24989940 0.80861884 163 132 144
-0.33020634 -0.23033255 0.80861884 163 131 145
-0.33020634 -0.21006688 0.80861884 158 124 139
-0.33020634 -0.18980121 0.80861884 155 124 137
-0.33020634 -0.17023436 0.80861884 152 124 136
-0.33020634 -0.14996869 0.80861884 147 115 128
-0.33020634 -0.12970303 0.80861884 141 111 124
-0.33020634 -0.11013617 0.80861884 140 111 123
-0.33020634 -0.08987051 0.80861884 130 105 116
-0.33020634 -0.06960484 0.80861884 130 109 117
-0.33020634 -0.05003799 0.80861884 133 105 114
-0.33020634 -0.03047114 0.80861884 131 110 117
-0.33020634 -0.01020547 0.80861884 133 113 120
-0.33020634 0.01006020 0.80861884 126 103 111
-0.33020634 0.02962705 0.80861884 116 97 104
-0.33020634 0.04989272 0.80861885 125 104 109
-0.33020635 0.07015839 0.80861888 126 112 119
-0.33020636 0.08972524 0.80861890 120 114 122
-0.33020635 0.10999091 0.80861888 111 105 115
-0.33020635 0.13025657 0.80861886 90 83 92
-0.33020634 0.14982342 0.80861884 83 73 80
-0.33020634 0.17008909 0.80861884 72 66 73
-0.33020634 0.19035476 0.80861884 69 72 78
-0.33020634 0.20992161 0.80861884 109 122 131
-0.33020634 0.23018728 0.80861884 97 112 128
-0.33020633 0.25045294 0.80861882 93 109 126
-0.33020631 0.27001978 0.80861878 82 95 113
-0.33020631 0.28958663 0.80861878 87 100 117
-0.33020631 0.30985229 0.80861878 82 99 112
-0.33020631 0.33011796 0.80861878 89 109 121
-0.33020631 0.34968481 0.80861878 95 113 126
-0.33020631 0.36995047 0.80861878 113 133 140
-0.33020631 0.39021614 0.80861878 35 40 41
-0.33020631 0.40978299 0.80861878 0 0 0
-0.33020629 0.43004862 0.80861872 0 0 0
-0.33020629 0.45031429 0.80861872 0 0 0
-0.30994065 -0.54340213 0.80861878 0 0 0
-0.30994065 -0.53012462 0.80861878 0 0 0
-0.30994065 -0.50985896 0.80861878 0 0 0
-0.30994065 -0.49029211 0.80861878 0 0 0
-0.30994065 -0.47002644 0.80861878 0 0 0
-0.30994065 -0.44976078 0.80861878 0 0 0
-0.30994083 -0.43019417 0.80861925 73 106 122
-0.30994100 -0.40992873 0.80861971 96 144 167
-0.30994115 -0.38966322 0.80862009 96 142 167
-0.30994133 -0.37009656 0.80862056 94 141 167
-0.30994151 -0.34983105 0.80862104 93 139 166
-0.30994165 -0.32956547 0.80862139 91 137 162
-0.30994166 -0.30999858 0.80862143 89 135 163
-0.30994162 -0.29043163 0.80862134 93 133 162
-0.30994081 -0.27016519 0.80861921 164 141 158
-0.30994067 -0.24989940 0.80861884 128 83 96
-0.30994067 -0.23033255 0.80861884 136 81 96
-0.30994067 -0.21006688 0.80861884 141 89 104
-0.30994067 -0.18980121 0.80861884 146 96 109
-0.30994067 -0.17023436 0.80861884 152 100 114
-0.30994067 -0.14996869 0.80861884 153 100 114
-0.30994067 -0.12970303 0.80861884 154 103 116
-0.30994067 -0.11013617 0.80861884 155 105 118
-0.30994067 -0.08987051 0.80861884 154 107 119
-0.30994067 -0.06960484 0.80861884 155 106 119
-0.30994067 -0.05003799 0.80861884 156 108 121
-0.30994067 -0.03047114 0.80861884 156 107 120
-0.30994067 -0.01020547 0.80861884 156 107 119
-0.30994067 0.01006020 0.80861884 157 110 122
-0.30994067 0.02962705 0.80861884 159 108 121
-0.30994067 0.04989272 0.80861884 159 112 125
-0.30994067 0.07015838 0.80861884 159 110 122
-0.30994067 0.08972524 0.80861884 160 112 123
-0.30994067 0.10999090 0.80861884 161 113 127
-0.30994067 0.13025657 0.80861884 162 112 126
-0.30994067 0.14982342 0.80861884 163 113 126
-0.30994067 0.17008909 0.80861884 168 117 130
-0.30994067 0.19035476 0.80861884 102 82 95
-0.30994067 0.20992161 0.80861884 102 116 134
-0.30994067 0.23018728 0.80861884 92 107 126
-0.30994066 0.25045294 0.80861882 93 109 121
-0.30994065 0.27001978 0.80861878 84 99 114
-0.30994065 0.28958663 0.80861878 107 123 136
-0.30994065 0.30985229 0.80861878 99 119 131
-0.30994065 0.33011796 0.80861878 81 97 114
-0.30994065 0.34968481 0.80861878 106 129 142
-0.30994065 0.36995047 0.80861878 157 175 181
-0.30994065 0.39021614 0.80861878 10 11 11
-0.30994065 0.40978299 0.80861878 0 0 0
-0.30994062 0.43004862 0.80861872 0 0 0
-0.30994062 0.45031429 0.80861872 0 0 0
-0.29037380 -0.54340213 0.80861878 0 0 0
-0.29037380 -0.53012462 0.80861878 0 0 0
-0.29037380 -0.50985896 0.80861878 0 0 0
-0.29037380 -0.49029211 0.80861878 0 0 0
-0.29037380 -0.47002644 0.80861878 0 0 0
-0.29037380 -0.44976078 0.80861878 0 0 0
-0.29037397 -0.43019418 0.80861926 59 91 104
-0.29037420 -0.40992883 0.80861991 94 140 164
-0.29037435 -0.38966334 0.80862032 93 139 164
-0.29037455 -0.37009670 0.80862087 91 139 164
-0.29037477 -0.34983125 0.80862148 89 137 163
-0.29037494 -0.32956571 0.80862196 88 135 162
-0.29037505 -0.30999890 0.80862228 90 133 160
-0.29037517 -0.29043208 0.80862260 92 131 160
-0.29037401 -0.27016525 0.80861937 164 145 161
-0.29037382 -0.24989940 0.80861884 128 79 91
-0.29037382 -0.23033255 0.80861884 130 78 90
-0.29037382 -0.21006688 0.80861884 130 76 89
-0.29037382 -0.18980121 0.80861884 135 83 96
-0.29037382 -0.17023436 0.80861884 139 87 103
-0.29037382 -0.14996869 0.80861884 143 92 107
-0.29037382 -0.12970303 0.80861884 146 93 108
-0.29037382 -0.11013617 0.80861884 149 97 111
-0.29037382 -0.08987051 0.80861884 152 103 117
-0.29037382 -0.06960484 0.80861884 152 102 116
-0.29037382 -0.05003799 0.80861884 155 106 120
-0.29037382 -0.03047114 0.80861884 156 106 118
-0.29037382 -0.01020547 0.80861884 157 107 120
-0.29037382 0.01006020 0.80861884 158 106 119
-0.29037382 0.02962705 0.80861884 158 108 122
-0.29037382 0.04989272 0.80861884 158 110 123
-0.29037382 0.07015838 0.80861884 160 112 125
-0.29037382 0.08972524 0.80861884 164 113 125
-0.29037382 0.10999090 0.80861884 166 113 127
-0.29037382 0.13025657 0.80861884 170 119 132
-0.29037382 0.14982342 0.80861884 177 118 133
-0.29037382 0.17008909 0.80861884 185 137 149
-0.29037382 0.19035476 0.80861884 124 95 115
-0.29037382 0.20992161 0.80861884 111 123 136
-0.29037382 0.23018728 0.80861884 102 116 130
-0.29037381 0.25045294 0.80861882 79 95 113
-0.29037380 0.27001978 0.80861878 90 106 121
-0.29037380 0.28958663 0.80861878 102 122 137
-0.29037380 0.30985229 0.80861878 96 115 129
-0.29037380 0.33011796 0.80861878 106 124 139
-0.29037380 0.34968481 0.80861878 163 180 185
-0.29037380 0.36995047 0.80861878 152 166 169
-0.29037380 0.39021614 0.80861878 0 0 0
-0.29037380 0.40978299 0.80861878 0 0 0
-0.29037378 0.43004862 0.80861872 0 0 0
-0.29037378 0.45031429 0.80861872 0 0 0
-0.27010813 -0.54340213 0.80861878 0 0 0
-0.27010813 -0.53012462 0.80861878 0 0 0
-0.27010813 -0.50985896 0.80861878 0 0 0
-0.27010813 -0.49029211 0.80861878 0 0 0
-0.27010813 -0.47002644 0.80861878 0 0 0
-0.27010813 -0.44976078 0.80861878 0 0 0
-0.27010828 -0.43019416 0.80861923 49 78 89
-0.27010856 -0.40992891 0.80862006 93 139 160
-0.27010872 -0.38966344 0.80862055 91 138 161
-0.27010892 -0.37009682 0.80862114 92 137 161
-0.27010913 -0.34983138 0.80862179 88 134 160
-0.27010937 -0.32956592 0.80862250 87 133 159
-0.27010959 -0.30999924 0.80862315 87 131 159
-0.27010985 -0.29043256 0.80862394 89 129 157
-0.27010839 -0.27016531 0.80861955 162 140 157
-0.27010815 -0.24989940 0.80861884 126 86 98
-0.27010815 -0.23033255 0.80861884 121 98 104
-0.27010815 -0.21006688 0.80861884 121 112 117
-0.27010815 -0.18980121 0.80861884 125 114 118
-0.27010815 -0.17023436 0.80861884 122 109 118
-0.27010815 -0.14996869 0.80861884 131 121 126
-0.27010815 -0.12970303 0.80861884 136 129 133
-0.27010815 -0.11013617 0.80861884 141 134 138
-0.27010815 -0.08987051 0.80861884 143 134 137
-0.27010815 -0.06960484 0.80861884 146 137 142
-0.27010815 -0.05003799 0.80861884 145 130 137
-0.27010815 -0.03047114 0.80861884 148 135 141
-0.27010815 -0.01020547 0.80861884 153 140 146
-0.27010815 0.01006020 0.80861884 155 140 145
-0.27010815 0.02962705 0.80861884 155 138 143
-0.27010815 0.04989272 0.80861884 157 139 145
-0.27010815 0.07015838 0.80861884 156 135 143
-0.27010815 0.08972524 0.80861884 160 135 143
-0.27010815 0.10999090 0.80861884 166 144 151
-0.27010815 0.13025657 0.80861884 171 143 150
-0.27010815 0.14982342 0.80861884 180 135 145
-0.27010815 0.17008909 0.80861884 187 135 148
-0.27010815 0.19035476 0.80861884 138 105 124
-0.27010815 0.20992161 0.80861884 100 108 123
-0.27010815 0.23018728 0.80861884 104 116 129
-0.27010814 0.25045294 0.80861882 117 131 143
-0.27010813 0.27001978 0.80861878 93 110 129
-0.27010813 0.28958663 0.80861878 94 114 128
-0.27010813 0.30985229 0.80861878 123 142 154
-0.27010813 0.33011796 0.80861878 170 185 190
-0.27010813 0.34968481 0.80861878 178 194 197
-0.27010813 0.36995047 0.80861878 121 133 135
-0.27010813 0.39021614 0.80861878 0 0 0
-0.27010813 0.40978299 0.80861878 0 0 0
-0.27010811 0.43004862 0.80861872 0 0 0
-0.27010811 0.45031429 0.80861872 0 0 0
-0.24984247 -0.54340213 0.80861878 0 0 0
-0.24984247 -0.53012462 0.80861878 0 0 0
-0.24984247 -0.50985896 0.80861878 0 0 0
-0.24984247 -0.49029211 0.80861878 0 0 0
-0.24984247 -0.47002644 0.80861878 0 0 0
-0.24984247 -0.44976078 0.80861878 0 0 0
-0.24984259 -0.43019414 0.80861919 43 65 74
-0.24984289 -0.40992895 0.80862015 93 136 157
-0.24984307 -0.38966354 0.80862074 90 136 156
-0.24984327 -0.37009694 0.80862140 91 135 158
-0.24984350 -0.34983152 0.80862213 88 133 157
-0.24984387 -0.32956626 0.80862333 86 131 157
-0.24984424 -0.30999977 0.80862455 87 128 155
-0.24984459 -0.29043318 0.80862566 89 125 154
-0.24984276 -0.27016538 0.80861975 165 145 162
-0.24984248 -0.24989940 0.80861884 128 94 106
-0.24984249 -0.23033255 0.80861886 111 106 111
-0.24984250 -0.21006689 0.80861889 110 106 112
-0.24984250 -0.18980122 0.80861889 116 116 118
-0.24984250 -0.17023437 0.80861890 119 119 121
-0.24984250 -0.14996870 0.80861890 123 122 126
-0.24984250 -0.12970303 0.80861890 126 126 129
-0.24984250 -0.11013618 0.80861890 127 124 128
-0.24984250 -0.08987051 0.80861889 130 129 132
-0.24984250 -0.06960484 0.80861889 137 137 140
-0.24984250 -0.05003799 0.80861888 139 140 143
-0.24984249 -0.03047114 0.80861888 141 142 145
-0.24984249 -0.01020547 0.80861888 143 145 147
-0.24984249 0.01006020 0.80861887 143 143 147
-0.24984249 0.02962705 0.80861887 148 149 151
-0.24984249 0.04989272 0.80861887 151 153 156
-0.24984249 0.07015839 0.80861887 155 156 159
-0.24984249 0.08972524 0.80861887 157 158 161
-0.24984249 0.10999091 0.80861887 160 162 165
-0.24984249 0.13025657 0.80861886 162 166 169
-0.24984248 0.14982342 0.80861885 177 178 180
-0.24984248 0.17008909 0.80861884 185 139 151
-0.24984248 0.19035476 0.80861884 145 117 135
-0.24984248 0.20992161 0.80861884 98 110 127
-0.24984248 0.23018728 0.80861884 104 117 133
-0.24984248 0.25045294 0.80861882 106 123 137
-0.24984247 0.27001978 0.80861878 106 126 140
-0.24984247 0.28958663 0.80861878 126 141 156
-0.24984247 0.30985229 0.80861878 173 188 193
-0.24984247 0.33011796 0.80861878 172 189 194
-0.24984247 0.34968481 0.80861878 177 194 197
-0.24984247 0.36995047 0.80861878 90 99 100
-0.24984247 0.39021614 0.80861878 0 0 0
-0.24984247 0.40978299 0.80861878 0 0 0
-0.24984245 0.43004862 0.80861872 0 0 0
-0.24984245 0.45031429 0.80861872 0 0 0
-0.23027562 -0.54340213 0.80861878 0 0 0
-0.23027562 -0.53012462 0.80861878 0 0 0
-0.23027562 -0.50985896 0.80861878 0 0 0
-0.23027562 -0.49029211 0.80861878 0 0 0
-0.23027562 -0.47002644 0.80861878 0 0 0
-0.23027562 -0.44976078 0.80861879 0 0 0
-0.23027572 -0.43019411 0.80861914 37 55 63
-0.23027603 -0.40992899 0.80862023 93 135 155
-0.23027623 -0.38966363 0.80862094 91 135 155
-0.23027644 -0.37009708 0.80862170 87 134 158
-0.23027670 -0.34983173 0.80862261 89 133 156
-0.23027720 -0.32956667 0.80862435 85 129 156
-0.23027774 -0.31000042 0.80862625 85 125 153
-0.23027817 -0.29043395 0.80862779 86 123 151
-0.23027596 -0.27016547 0.80862001 164 139 156
-0.23027563 -0.24989940 0.80861884 128 95 106
-0.23027564 -0.23033256 0.80861889 111 109 114
-0.23027565 -0.21006690 0.80861890 112 110 115
-0.23027565 -0.18980123 0.80861890 113 113 116
-0.23027565 -0.17023437 0.80861890 115 114 117
-0.23027565 -0.14996870 0.80861890 115 112 118
-0.23027565 -0.12970304 0.80861890 119 118 122
-0.23027565 -0.11013618 0.80861890 122 120 126
-0.23027565 -0.08987051 0.80861890 126 125 129
-0.23027565 -0.06960484 0.80861890 128 129 132
-0.23027565 -0.05003799 0.80861890 129 129 133
-0.23027565 -0.03047114 0.80861890 133 133 138
-0.23027565 -0.01020547 0.80861890 137 139 142
-0.23027565 0.01006020 0.80861890 141 139 144
-0.23027565 0.02962705 0.80861890 143 144 147
-0.23027565 0.04989272 0.80861890 145 147 150
-0.23027565 0.07015839 0.80861890 148 150 153
-0.23027565 0.08972524 0.80861890 150 154 156
-0.23027565 0.10999091 0.80861890 150 153 156
-0.23027565 0.13025658 0.80861890 156 155 161
-0.23027564 0.14982343 0.80861887 178 181 183
-0.23027563 0.17008909 0.80861884 186 142 154
-0.23027563 0.19035476 0.80861884 153 116 135
-0.23027563 0.20992161 0.80861884 87 94 113
-0.23027563 0.23018728 0.80861884 108 123 136
-0.23027562 0.25045294 0.80861882 99 116 133
-0.23027562 0.27001978 0.80861878 127 141 154
-0.23027562 0.28958663 0.80861878 175 188 192
-0.23027562 0.30985229 0.80861878 178 193 196
-0.23027562 0.33011796 0.80861878 172 188 192
-0.23027562 0.34968481 0.80861878 178 195 198
-0.23027562 0.36995047 0.80861878 62 68 69
-0.23027562 0.39021614 0.80861878 0 0 0
-0.23027562 0.40978299 0.80861878 0 0 0
-0.23027560 0.43004862 0.80861872 0 0 0
-0.23027560 0.45031429 0.80861872 0 0 0
-0.21000995 -0.54340213 0.80861878 0 0 0
-0.21000995 -0.53012462 0.80861878 0 0 0
-0.21000995 -0.50985896 0.80861878 0 0 0
-0.21000995 -0.49029211 0.80861878 0 0 0
-0.21000995 -0.47002644 0.80861878 0 0 0
-0.21000995 -0.44976079 0.80861880 0 0 0
-0.21001003 -0.43019409 0.80861909 32 47 53
-0.21001034 -0.40992902 0.80862029 91 134 153
-0.21001055 -0.38966370 0.80862109 89 133 155
-0.21001076 -0.37009718 0.80862192 90 132 154
-0.21001106 -0.34983192 0.80862305 90 131 154
-0.21001163 -0.32956705 0.80862527 85 128 153
-0.21001220 -0.31000088 0.80862745 84 124 151
-0.21001276 -0.29043460 0.80862961 84 121 150
-0.21001029 -0.27016550 0.80862011 161 137 154
-0.21000996 -0.24989940 0.80861884 126 92 104
-0.21000998 -0.23033256 0.80861889 116 115 119
-0.21000998 -0.21006690 0.80861890 103 101 106
-0.21000998 -0.18980123 0.80861890 107 105 109
-0.21000998 -0.17023437 0.80861890 109 109 112
-0.21000998 -0.14996870 0.80861890 110 106 113
-0.21000998 -0.12970304 0.80861890 114 112 117
-0.21000998 -0.11013618 0.80861890 114 113 117
-0.21000998 -0.08987051 0.80861890 117 116 121
-0.21000998 -0.06960484 0.80861890 121 121 125
-0.21000998 -0.05003799 0.80861890 123 120 125
-0.21000998 -0.03047114 0.80861890 127 126 130
-0.21000998 -0.01020547 0.80861890 130 130 133
-0.21000998 0.01006020 0.80861890 133 133 136
-0.21000998 0.02962705 0.80861890 133 134 137
-0.21000998 0.04989272 0.80861890 134 133 138
-0.21000998 0.07015839 0.80861890 135 136 141
-0.21000998 0.08972524 0.80861890 138 141 144
-0.21000998 0.10999091 0.80861890 138 141 144
-0.21000998 0.13025658 0.80861890 155 158 162
-0.21000997 0.14982343 0.80861888 175 178 180
-0.21000996 0.17008909 0.80861884 186 142 156
-0.21000996 0.19035476 0.80861884 163 128 145
-0.21000996 0.20992161 0.80861884 91 101 119
-0.21000996 0.23018728 0.80861884 99 113 132
-0.21000996 0.25045294 0.80861882 142 157 168
-0.21000995 0.27001978 0.80861878 178 191 196
-0.21000995 0.28958663 0.80861878 179 192 197
-0.21000995 0.30985229 0.80861878 179 195 198
-0.21000995 0.33011796 0.80861878 178 194 197
-0.21000995 0.34968481 0.80861878 180 195 199
-0.21000995 0.36995047 0.80861878 33 36 37
-0.21000995 0.39021614 0.80861878 0 0 0
-0.21000995 0.40978299 0.80861878 0 0 0
-0.21000993 0.43004862 0.80861872 0 0 0
-0.21000993 0.45031429 0.80861872 0 0 0
-0.18974428 -0.54340213 0.80861878 0 0 0
-0.18974428 -0.53012462 0.80861878 0 0 0
-0.18974428 -0.50985896 0.80861878 0 0 0
-0.18974428 -0.49029211 0.80861878 0 0 0
-0.18974428 -0.47002644 0.80861878 0 0 0
-0.18974429 -0.44976079 0.80861881 0 0 0
-0.18974435 -0.43019408 0.80861908 27 40 46
-0.18974465 -0.40992904 0.80862033 90 133 152
-0.18974485 -0.38966375 0.80862119 91 132 153
-0.18974505 -0.37009725 0.80862207 90 131 152
-0.18974535 -0.34983204 0.80862332 87 129 151
-0.18974590 -0.32956721 0.80862568 85 127 149
-0.18974649 -0.31000116 0.80862818 82 123 149
-0.18974711 -0.29043505 0.80863085 85 120 148
-0.18974456 -0.27016546 0.80861998 162 138 155
-0.18974430 -0.24989940 0.80861884 126 91 104
-0.18974431 -0.23033256 0.80861889 116 114 119
-0.18974432 -0.21006690 0.80861892 102 99 106
-0.18974432 -0.18980124 0.80861895 103 101 106
-0.18974432 -0.17023438 0.80861895 104 103 108
-0.18974432 -0.14996871 0.80861895 107 105 110
-0.18974432 -0.12970304 0.80861895 109 107 112
-0.18974432 -0.11013619 0.80861895 111 110 114
-0.18974432 -0.08987052 0.80861895 111 109 115
-0.18974432 -0.06960485 0.80861895 116 116 120
-0.18974432 -0.05003799 0.80861896 120 120 125
-0.18974432 -0.03047114 0.80861895 123 123 127
-0.18974432 -0.01020547 0.80861895 127 126 130
-0.18974432 0.01006020 0.80861896 128 126 131
-0.18974432 0.02962705 0.80861896 130 131 134
-0.18974432 0.04989272 0.80861896 130 130 134
-0.18974432 0.07015840 0.80861896 131 132 136
-0.18974432 0.08972525 0.80861896 128 128 133
-0.18974432 0.10999092 0.80861893 127 126 131
-0.18974431 0.13025658 0.80861890 151 156 158
-0.18974431 0.14982343 0.80861888 172 173 178
-0.18974430 0.17008909 0.80861884 187 146 160
-0.18974430 0.19035476 0.80861884 173 131 147
-0.18974430 0.20992161 0.80861884 102 108 124
-0.18974430 0.23018728 0.80861884 148 160 171
-0.18974429 0.25045294 0.80861882 180 192 197
-0.18974428 0.27001978 0.80861878 179 192 197
-0.18974428 0.28958663 0.80861878 180 192 197
-0.18974428 0.30985229 0.80861878 180 195 199
-0.18974428 0.33011796 0.80861878 178 193 197
-0.18974428 0.34968481 0.80861878 175 190 195
-0.18974428 0.36995047 0.80861878 7 8 8
-0.18974428 0.39021614 0.80861878 0 0 0
-0.18974428 0.40978299 0.80861878 0 0 0
-0.18974427 0.43004862 0.80861872 0 0 0
-0.18974427 0.45031429 0.80861872 0 0 0
-0.17017743 -0.54340213 0.80861878 0 0 0
-0.17017743 -0.53012462 0.80861878 0 0 0
-0.17017743 -0.50985896 0.80861878 0 0 0
-0.17017743 -0.49029211 0.80861878 0 0 0
-0.17017743 -0.47002644 0.80861878 0 0 0
-0.17017744 -0.44976080 0.80861883 0 0 0
-0.17017748 -0.43019405 0.80861902 25 36 40
-0.17017776 -0.40992906 0.80862036 91 132 150
-0.17017795 -0.38966378 0.80862125 90 131 150
-0.17017814 -0.37009729 0.80862216 89 131 150
-0.17017839 -0.34983204 0.80862333 87 128 150
-0.17017885 -0.32956714 0.80862550 85 125 149
-0.17017942 -0.31000117 0.80862821 84 122 147
-0.17018004 -0.29043516 0.80863116 85 119 146
-0.17017766 -0.27016542 0.80861987 160 134 150
-0.17017745 -0.24989940 0.80861884 125 93 104
-0.17017746 -0.23033256 0.80861889 117 115 119
-0.17017746 -0.21006690 0.80861893 106 104 109
-0.17017747 -0.18980124 0.80861896 100 98 102
-0.17017747 -0.17023439 0.80861896 104 101 106
-0.17017747 -0.14996872 0.80861896 99 90 98
-0.17017747 -0.12970304 0.80861896 106 103 107
-0.17017747 -0.11013619 0.80861896 110 109 113
-0.17017747 -0.08987052 0.80861896 113 111 116
-0.17017747 -0.06960485 0.80861896 116 116 120
-0.17017747 -0.05003800 0.80861896 116 106 115
-0.17017747 -0.03047114 0.80861896 126 125 128
-0.17017747 -0.01020547 0.80861896 130 130 133
-0.17017747 0.01006020 0.80861896 132 132 135
-0.17017747 0.02962705 0.80861896 131 131 135
-0.17017747 0.04989272 0.80861896 126 119 128
-0.17017747 0.07015840 0.80861896 132 133 136
-0.17017747 0.08972525 0.80861896 130 131 134
-0.17017747 0.10999092 0.80861895 129 130 134
-0.17017746 0.13025658 0.80861890 148 151 155
-0.17017745 0.14982343 0.80861888 172 177 181
-0.17017745 0.17008909 0.80861884 189 150 164
-0.17017745 0.19035476 0.80861884 182 139 155
-0.17017745 0.20992161 0.80861884 141 142 157
-0.17017745 0.23018728 0.80861884 179 189 194
-0.17017744 0.25045294 0.80861882 180 192 197
-0.17017743 0.27001978 0.80861878 180 193 197
-0.17017743 0.28958663 0.80861878 181 194 199
-0.17017743 0.30985229 0.80861878 182 196 200
-0.17017743 0.33011796 0.80861878 175 191 196
-0.17017743 0.34968481 0.80861878 154 168 174
-0.17017743 0.36995047 0.80861878 0 0 0
-0.17017743 0.39021614 0.80861878 0 0 0
-0.17017743 0.40978299 0.80861878 0 0 0
-0.17017742 0.43004862 0.80861872 0 0 0
-0.17017742 0.45031429 0.80861872 0 0 0
-0.14991177 -0.54340213 0.80861878 0 0 0
-0.14991177 -0.53012462 0.80861878 0 0 0
-0.14991177 -0.50985896 0.80861878 0 0 0
-0.14991177 -0.49029211 0.80861878 0 0 0
-0.14991177 -0.47002644 0.80861878 0 0 0
-0.14991178 -0.44976081 0.80861884 0 0 0
-0.14991181 -0.43019404 0.80861900 22 32 37
-0.14991206 -0.40992905 0.80862034 90 131 148
-0.14991222 -0.38966376 0.80862121 90 130 147
-0.14991237 -0.37009723 0.80862203 88 128 148
-0.14991255 -0.34983191 0.80862302 85 127 146
-0.14991286 -0.32956680 0.80862465 85 125 147
-0.14991329 -0.31000070 0.80862699 84 122 146
-0.14991370 -0.29043444 0.80862916 85 120 145
-0.14991194 -0.27016537 0.80861971 157 134 150
-0.14991178 -0.24989940 0.80861884 124 93 103
-0.14991179 -0.23033256 0.80861889 117 114 119
-0.14991180 -0.21006690 0.80861893 106 103 108
-0.14991180 -0.18980124 0.80861896 102 98 102
-0.14991180 -0.17023439 0.80861896 103 101 106
-0.14991180 -0.14996872 0.80861896 106 102 108
-0.14991180 -0.12970304 0.80861896 109 108 113
-0.14991180 -0.11013619 0.80861896 112 110 115
-0.14991180 -0.08987052 0.80861896 115 114 118
-0.14991180 -0.06960485 0.80861896 120 119 124
-0.14991180 -0.05003800 0.80861896 126 126 130
-0.14991180 -0.03047114 0.80861896 129 128 132
-0.14991180 -0.01020547 0.80861896 132 132 135
-0.14991180 0.01006020 0.80861896 134 134 138
-0.14991180 0.02962705 0.80861896 134 134 137
-0.14991180 0.04989272 0.80861896 133 133 137
-0.14991180 0.07015840 0.80861896 132 132 135
-0.14991180 0.08972525 0.80861896 130 130 134
-0.14991180 0.10999092 0.80861895 129 130 134
-0.14991179 0.13025658 0.80861890 144 145 149
-0.14991179 0.14982343 0.80861888 173 178 182
-0.14991178 0.17008909 0.80861884 190 155 169
-0.14991178 0.19035476 0.80861884 189 148 165
-0.14991178 0.20992161 0.80861884 168 165 175
-0.14991178 0.23018728 0.80861884 180 189 194
-0.14991177 0.25045294 0.80861882 182 193 198
-0.14991177 0.27001978 0.80861878 183 194 199
-0.14991177 0.28958663 0.80861878 180 193 197
-0.14991177 0.30985229 0.80861878 181 196 200
-0.14991177 0.33011796 0.80861878 178 192 197
-0.14991177 0.34968481 0.80861878 133 143 147
-0.14991177 0.36995047 0.80861878 0 0 0
-0.14991177 0.39021614 0.80861878 0 0 0
-0.14991177 0.40978299 0.80861878 0 0 0
-0.14991176 0.43004862 0.80861872 0 0 0
-0.14991176 0.45031429 0.80861872 0 0 0
-0.12964610 -0.54340213 0.80861878 0 0 0
-0.12964610 -0.53012462 0.80861878 0 0 0
-0.12964610 -0.50985896 0.80861878 0 0 0
-0.12964610 -0.49029211 0.80861878 0 0 0
-0.12964610 -0.47002644 0.80861879 0 0 0
-0.12964611 -0.44976081 0.80861884 0 0 0
-0.12964613 -0.43019403 0.80861899 20 31 34
-0.12964635 -0.40992904 0.80862032 91 129 145
-0.12964647 -0.38966370 0.80862108 90 128 146
-0.12964658 -0.37009711 0.80862178 87 127 146
-0.12964671 -0.34983171 0.80862255 86 125 146
-0.12964689 -0.32956642 0.80862372 85 124 147
-0.12964717 -0.31000010 0.80862542 86 122 146
-0.12964731 -0.29043342 0.80862631 88 120 145
-0.12964618 -0.27016521 0.80861927 163 138 152
-0.12964611 -0.24989940 0.80861884 126 92 104
-0.12964612 -0.23033256 0.80861889 114 111 116
-0.12964613 -0.21006690 0.80861893 106 101 107
-0.12964613 -0.18980124 0.80861896 95 86 94
-0.12964613 -0.17023439 0.80861896 104 102 107
-0.12964613 -0.14996872 0.80861896 109 106 110
-0.12964613 -0.12970304 0.80861896 111 109 114
-0.12964613 -0.11013619 0.80861896 113 110 116
-0.12964613 -0.08987052 0.80861896 113 104 114
-0.12964613 -0.06960485 0.80861896 123 122 127
-0.12964613 -0.05003800 0.80861896 127 127 131
-0.12964613 -0.03047114 0.80861896 130 130 134
-0.12964613 -0.01020547 0.80861896 130 127 134
-0.12964613 0.01006020 0.80861896 132 127 135
-0.12964613 0.02962705 0.80861896 135 136 140
-0.12964613 0.04989272 0.80861896 134 135 138
-0.12964613 0.07015840 0.80861896 133 133 136
-0.12964613 0.08972525 0.80861896 127 122 129
-0.12964613 0.10999092 0.80861895 126 125 130
-0.12964612 0.13025658 0.80861890 143 145 150
-0.12964612 0.14982343 0.80861888 171 175 180
-0.12964611 0.17008909 0.80861884 190 158 171
-0.12964611 0.19035476 0.80861884 190 148 164
-0.12964611 0.20992161 0.80861884 167 161 172
-0.12964611 0.23018728 0.80861884 181 190 196
-0.12964611 0.25045293 0.80861881 183 194 199
-0.12964610 0.27001978 0.80861878 182 194 199
-0.12964610 0.28958663 0.80861878 182 194 199
-0.12964610 0.30985229 0.80861878 181 195 199
-0.12964610 0.33011796 0.80861878 181 194 197
-0.12964610 0.34968481 0.80861878 110 119 121
-0.12964610 0.36995047 0.80861878 0 0 0
-0.12964610 0.39021614 0.80861878 0 0 0
-0.12964610 0.40978299 0.80861878 0 0 0
-0.12964609 0.43004862 0.80861872 0 0 0
-0.12964609 0.45031429 0.80861872 0 0 0
-0.11007925 -0.54340213 0.80861878 0 0 0
-0.11007925 -0.53012462 0.80861878 0 0 0
-0.11007925 -0.50985896 0.80861878 0 0 0
-0.11007925 -0.49029211 0.80861878 0 0 0
-0.11007925 -0.47002645 0.80861879 0 0 0
-0.11007926 -0.44976081 0.80861884 0 0 0
-0.11007928 -0.43019403 0.80861899 20 30 33
-0.11007946 -0.40992902 0.80862028 88 127 144
-0.11007955 -0.38966364 0.80862096 87 127 144
-0.11007963 -0.37009700 0.80862153 85 126 144
-0.11007971 -0.34983152 0.80862213 86 124 145
-0.11007982 -0.32956612 0.80862298 85 123 144
-0.11007997 -0.30999957 0.80862403 85 120 145
-0.11008001 -0.29043270 0.80862432 92 120 146
-0.11007928 -0.27016513 0.80861903 163 135 149
-0.11007926 -0.24989940 0.80861884 126 92 104
-0.11007926 -0.23033256 0.80861889 116 112 118
-0.11007927 -0.21006690 0.80861893 108 106 111
-0.11007928 -0.18980124 0.80861896 103 97 104
-0.11007928 -0.17023439 0.80861896 107 104 110
-0.11007928 -0.14996872 0.80861896 108 106 111
-0.11007928 -0.12970304 0.80861896 110 108 114
-0.11007928 -0.11013619 0.80861896 116 113 120
-0.11007928 -0.08987052 0.80861896 118 114 121
-0.11007928 -0.06960485 0.80861896 124 122 128
-0.11007928 -0.05003800 0.80861896 129 128 133
-0.11007928 -0.03047114 0.80861896 129 129 133
-0.11007928 -0.01020547 0.80861896 131 130 135
-0.11007928 0.01006020 0.80861896 132 131 135
-0.11007928 0.02962705 0.80861896 134 134 138
-0.11007928 0.04989272 0.80861896 131 132 135
-0.11007928 0.07015840 0.80861896 131 131 135
-0.11007928 0.08972525 0.80861896 129 126 132
-0.11007927 0.10999092 0.80861895 126 125 133
-0.11007927 0.13025658 0.80861890 142 143 149
-0.11007926 0.14982343 0.80861888 169 172 179
-0.11007926 0.17008909 0.80861884 189 161 175
-0.11007926 0.19035476 0.80861884 190 149 167
-0.11007926 0.20992161 0.80861884 169 160 171
-0.11007926 0.23018728 0.80861884 183 191 197
-0.11007926 0.25045293 0.80861881 184 194 199
-0.11007925 0.27001978 0.80861878 181 192 197
-0.11007925 0.28958663 0.80861878 180 193 197
-0.11007925 0.30985229 0.80861878 183 196 200
-0.11007925 0.33011796 0.80861878 181 195 199
-0.11007925 0.34968481 0.80861878 89 95 97
-0.11007925 0.36995047 0.80861878 0 0 0
-0.11007925 0.39021614 0.80861878 0 0 0
-0.11007925 0.40978299 0.80861878 0 0 0
-0.11007924 0.43004862 0.80861872 0 0 0
-0.11007924 0.45031429 0.80861872 0 0 0
-0.08981359 -0.54340213 0.80861878 0 0 0
-0.08981359 -0.53012462 0.80861878 0 0 0
-0.08981359 -0.50985896 0.80861878 0 0 0
-0.08981359 -0.49029211 0.80861878 0 0 0
-0.08981359 -0.47002645 0.80861880 0 0 0
-0.08981359 -0.44976081 0.80861884 0 0 0
-0.08981361 -0.43019404 0.80861899 21 32 36
-0.08981375 -0.40992899 0.80862024 87 126 141
-0.08981381 -0.38966359 0.80862085 86 125 142
-0.08981387 -0.37009691 0.80862132 86 124 143
-0.08981392 -0.34983137 0.80862178 86 123 144
-0.08981398 -0.32956587 0.80862237 84 121 143
-0.08981406 -0.30999919 0.80862303 85 118 143
-0.08981407 -0.29043227 0.80862311 93 119 146
-0.08981359 -0.27016507 0.80861886 160 129 144
-0.08981359 -0.24989940 0.80861884 125 90 103
-0.08981360 -0.23033256 0.80861888 117 115 120
-0.08981360 -0.21006690 0.80861893 105 103 108
-0.08981360 -0.18980124 0.80861896 104 99 105
-0.08981360 -0.17023439 0.80861896 107 105 111
-0.08981360 -0.14996872 0.80861896 106 98 106
-0.08981360 -0.12970304 0.80861896 110 107 112
-0.08981360 -0.11013619 0.80861896 115 113 119
-0.08981360 -0.08987052 0.80861896 117 114 120
-0.08981360 -0.06960485 0.80861896 120 118 124
-0.08981360 -0.05003800 0.80861896 123 118 126
-0.08981360 -0.03047114 0.80861896 129 128 133
-0.08981360 -0.01020547 0.80861896 132 132 137
-0.08981360 0.01006020 0.80861896 134 134 139
-0.08981360 0.02962705 0.80861896 134 134 138
-0.08981360 0.04989272 0.80861896 129 126 132
-0.08981360 0.07015840 0.80861896 131 131 135
-0.08981360 0.08972525 0.80861896 129 129 133
-0.08981360 0.10999092 0.80861895 123 123 129
-0.08981360 0.13025658 0.80861890 140 142 149
-0.08981360 0.14982343 0.80861888 169 175 181
-0.08981359 0.17008909 0.80861884 188 161 177
-0.08981359 0.19035476 0.80861884 190 145 162
-0.08981359 0.20992161 0.80861884 172 160 172
-0.08981359 0.23018728 0.80861884 183 191 197
-0.08981359 0.25045293 0.80861881 183 193 198
-0.08981359 0.27001978 0.80861878 182 194 199
-0.08981359 0.28958663 0.80861878 180 193 197
-0.08981359 0.30985229 0.80861878 181 194 198
-0.08981359 0.33011796 0.80861878 182 194 199
-0.08981359 0.34968481 0.80861878 68 73 75
-0.08981359 0.36995047 0.80861878 0 0 0
-0.08981359 0.39021614 0.80861878 0 0 0
-0.08981358 0.40978299 0.80861878 0 0 0
-0.08981358 0.43004862 0.80861872 0 0 0
-0.08981358 0.45031429 0.80861872 0 0 0
-0.06954792 -0.54340213 0.80861878 0 0 0
-0.06954792 -0.53012462 0.80861878 0 0 0
-0.06954792 -0.50985896 0.80861878 0 0 0
-0.06954792 -0.49029211 0.80861878 0 0 0
-0.06954792 -0.47002645 0.80861880 0 0 0
-0.06954792 -0.44976081 0.80861884 0 0 0
-0.06954794 -0.43019406 0.80861903 24 35 38
-0.06954804 -0.40992898 0.80862021 86 124 139
-0.06954809 -0.38966356 0.80862079 87 123 141
-0.06954813 -0.37009685 0.80862121 86 123 141
-0.06954816 -0.34983128 0.80862157 83 121 141
-0.06954820 -0.32956572 0.80862199 83 119 141
-0.06954823 -0.30999895 0.80862240 84 117 141
-0.06954822 -0.29043197 0.80862228 97 119 144
-0.06954792 -0.27016507 0.80861885 159 122 139
-0.06954792 -0.24989940 0.80861884 125 93 105
-0.06954793 -0.23033256 0.80861888 116 115 119
-0.06954793 -0.21006690 0.80861893 108 104 111
-0.06954793 -0.18980124 0.80861896 102 100 105
-0.06954793 -0.17023439 0.80861896 110 106 113
-0.06954793 -0.14996872 0.80861896 109 99 108
-0.06954793 -0.12970304 0.80861896 112 108 114
-0.06954793 -0.11013619 0.80861896 115 113 120
-0.06954793 -0.08987052 0.80861896 119 117 122
-0.06954793 -0.06960485 0.80861896 123 121 127
-0.06954793 -0.05003800 0.80861896 125 118 128
-0.06954793 -0.03047114 0.80861896 132 130 136
-0.06954793 -0.01020547 0.80861896 133 133 138
-0.06954793 0.01006020 0.80861896 135 134 138
-0.06954793 0.02962705 0.80861896 134 134 138
-0.06954793 0.04989272 0.80861896 132 126 134
-0.06954793 0.07015840 0.80861896 131 131 135
-0.06954793 0.08972525 0.80861896 128 128 133
-0.06954793 0.10999092 0.80861895 126 126 132
-0.06954793 0.13025658 0.80861890 140 142 149
-0.06954793 0.14982343 0.80861888 169 174 181
-0.06954792 0.17008909 0.80861884 189 164 181
-0.06954792 0.19035476 0.80861884 193 149 166
-0.06954792 0.20992161 0.80861884 176 159 171
-0.06954792 0.23018728 0.80861884 183 191 197
-0.06954792 0.25045293 0.80861881 183 193 198
-0.06954792 0.27001978 0.80861878 183 194 199
-0.06954792 0.28958663 0.80861878 181 193 198
-0.06954792 0.30985229 0.80861878 180 193 198
-0.06954792 0.33011796 0.80861878 174 186 191
-0.06954792 0.34968481 0.80861878 44 48 49
-0.06954792 0.36995047 0.80861878 0 0 0
-0.06954792 0.39021614 0.80861878 0 0 0
-0.06954792 0.40978299 0.80861878 0 0 0
-0.06954791 0.43004862 0.80861872 0 0 0
-0.06954791 0.45031429 0.80861872 0 0 0
-0.04998107 -0.54340213 0.80861878 0 0 0
-0.04998107 -0.53012462 0.80861878 0 0 0
-0.04998107 -0.50985896 0.80861878 0 0 0
-0.04998107 -0.49029211 0.80861878 0 0 0
-0.04998107 -0.47002645 0.80861880 0 0 0
-0.04998107 -0.44976081 0.80861884 0 0 0
-0.04998109 -0.43019409 0.80861910 27 39 44
-0.04998116 -0.40992900 0.80862025 86 123 139
-0.04998119 -0.38966356 0.80862079 84 122 139
-0.04998122 -0.37009684 0.80862117 85 121 139
-0.04998124 -0.34983124 0.80862147 85 120 140
-0.04998126 -0.32956564 0.80862180 84 118 139
-0.04998127 -0.30999882 0.80862208 84 116 139
-0.04998125 -0.29043179 0.80862176 102 120 144
-0.04998107 -0.27016507 0.80861884 158 120 134
-0.04998107 -0.24989940 0.80861884 125 95 105
-0.04998107 -0.23033256 0.80861888 116 114 118
-0.04998108 -0.21006690 0.80861893 106 102 108
-0.04998108 -0.18980124 0.80861896 104 99 106
-0.04998108 -0.17023439 0.80861896 108 104 110
-0.04998108 -0.14996872 0.80861896 109 106 112
-0.04998108 -0.12970304 0.80861896 112 111 116
-0.04998108 -0.11013619 0.80861896 114 112 118
-0.04998108 -0.08987052 0.80861896 118 116 123
-0.04998108 -0.06960485 0.80861896 123 120 127
-0.04998108 -0.05003800 0.80861896 128 126 133
-0.04998108 -0.03047114 0.80861896 131 131 136
-0.04998108 -0.01020547 0.80861896 136 136 141
-0.04998108 0.01006020 0.80861896 136 136 142
-0.04998108 0.02962705 0.80861896 136 136 142
-0.04998108 0.04989272 0.80861896 134 134 139
-0.04998108 0.07015840 0.80861896 134 134 139
-0.04998108 0.08972525 0.80861896 130 130 135
-0.04998108 0.10999092 0.80861895 123 123 130
-0.04998108 0.13025658 0.80861890 137 137 145
-0.04998108 0.14982343 0.80861888 168 174 182
-0.04998107 0.17008909 0.80861884 189 171 187
-0.04998107 0.19035476 0.80861884 193 151 168
-0.04998107 0.20992161 0.80861884 174 155 167
-0.04998107 0.23018728 0.80861884 182 189 195
-0.04998107 0.25045293 0.80861881 184 193 199
-0.04998107 0.27001978 0.80861878 181 191 196
-0.04998107 0.28958663 0.80861878 166 176 180
-0.04998107 0.30985229 0.80861878 157 168 174
-0.04998107 0.33011796 0.80861878 139 148 155
-0.04998107 0.34968481 0.80861878 20 22 24
-0.04998107 0.36995047 0.80861878 0 0 0
-0.04998107 0.39021614 0.80861878 0 0 0
-0.04998107 0.40978299 0.80861878 0 0 0
-0.04998107 0.43004862 0.80861872 0 0 0
-0.04998107 0.45031429 0.80861872 0 0 0
-0.03041422 -0.54340213 0.80861878 0 0 0
-0.03041422 -0.53012462 0.80861878 0 0 0
-0.03041422 -0.50985896 0.80861878 0 0 0
-0.03041422 -0.49029211 0.80861878 0 0 0
-0.03041422 -0.47002645 0.80861879 0 0 0
-0.03041422 -0.44976081 0.80861884 0 0 0
-0.03041423 -0.43019414 0.80861919 30 45 51
-0.03041428 -0.40992904 0.80862033 83 122 138
-0.03041430 -0.38966358 0.80862083 84 122 139
-0.03041431 -0.37009684 0.80862118 85 120 139
-0.03041432 -0.34983123 0.80862146 84 119 138
-0.03041433 -0.32956563 0.80862177 83 117 138
-0.03041434 -0.30999878 0.80862196 83 116 138
-0.03041432 -0.29043171 0.80862155 106 122 145
-0.03041422 -0.27016507 0.80861884 157 118 134
-0.03041422 -0.24989940 0.80861884 127 98 110
-0.03041422 -0.23033256 0.80861888 118 114 119
-0.03041422 -0.21006690 0.80861893 103 96 105
-0.03041423 -0.18980124 0.80861896 101 88 98
-0.03041423 -0.17023439 0.80861896 108 104 111
-0.03041423 -0.14996872 0.80861896 109 107 112
-0.03041423 -0.12970304 0.80861896 112 109 115
-0.03041423 -0.11013619 0.80861896 113 109 117
-0.03041423 -0.08987052 0.80861896 113 101 115
-0.03041423 -0.06960485 0.80861896 125 124 131
-0.03041423 -0.05003800 0.80861896 131 129 137
-0.03041423 -0.03047114 0.80861896 133 132 139
-0.03041423 -0.01020547 0.80861896 134 132 141
-0.03041423 0.01006020 0.80861896 132 124 137
-0.03041423 0.02962705 0.80861896 137 137 145
-0.03041423 0.04989272 0.80861896 135 135 141
-0.03041423 0.07015840 0.80861896 135 136 143
-0.03041423 0.08972525 0.80861896 131 127 136
-0.03041423 0.10999092 0.80861895 122 117 129
-0.03041422 0.13025658 0.80861890 138 140 148
-0.03041422 0.14982343 0.80861888 168 175 183
-0.03041422 0.17008909 0.80861884 188 173 189
-0.03041422 0.19035476 0.80861884 193 148 165
-0.03041422 0.20992161 0.80861884 175 152 165
-0.03041422 0.23018728 0.80861884 172 179 186
-0.03041422 0.25045293 0.80861881 148 156 165
-0.03041422 0.27001978 0.80861878 138 149 158
-0.03041422 0.28958663 0.80861878 135 143 149
-0.03041422 0.30985229 0.80861878 122 132 141
-0.03041422 0.33011796 0.80861878 140 152 161
-0.03041422 0.34968481 0.80861878 12 14 15
-0.03041422 0.36995047 0.80861878 0 0 0
-0.03041422 0.39021614 0.80861878 0 0 0
-0.03041422 0.40978299 0.80861878 0 0 0
-0.03041422 0.43004862 0.80861872 0 0 0
-0.03041422 0.45031429 0.80861872 0 0 0
-0.01014855 -0.54340213 0.80861878 0 0 0
-0.01014855 -0.53012462 0.80861878 0 0 0
-0.01014855 -0.50985896 0.80861878 0 0 0
-0.01014855 -0.49029211 0.80861878 0 0 0
-0.01014855 -0.47002644 0.80861879 0 0 0
-0.01014855 -0.44976081 0.80861884 0 0 0
-0.01014856 -0.43019418 0.80861927 36 52 59
-0.01014857 -0.40992909 0.80862042 84 121 137
-0.01014858 -0.38966361 0.80862089 84 121 137
-0.01014858 -0.37009686 0.80862122 83 119 137
-0.01014859 -0.34983125 0.80862150 83 118 137
-0.01014859 -0.32956565 0.80862183 83 116 137
-0.01014859 -0.30999878 0.80862197 84 115 138
-0.01014859 -0.29043162 0.80862129 112 123 146
-0.01014855 -0.27016507 0.80861884 155 113 129
-0.01014855 -0.24989940 0.80861884 128 100 111
-0.01014855 -0.23033256 0.80861888 117 112 119
-0.01014855 -0.21006690 0.80861892 107 104 110
-0.01014856 -0.18980124 0.80861896 103 98 106
-0.01014856 -0.17023439 0.80861896 107 103 111
-0.01014856 -0.14996872 0.80861896 109 108 114
-0.01014856 -0.12970304 0.80861896 113 111 119
-0.01014856 -0.11013619 0.80861896 118 117 125
-0.01014856 -0.08987052 0.80861896 124 123 132
-0.01014856 -0.06960485 0.80861896 128 127 134
-0.01014856 -0.05003800 0.80861896 133 132 140
-0.01014856 -0.03047114 0.80861896 136 135 143
-0.01014856 -0.01020547 0.80861896 137 137 145
-0.01014856 0.01006020 0.80861896 138 138 147
-0.01014856 0.02962705 0.80861896 138 139 147
-0.01014856 0.04989272 0.80861896 138 138 145
-0.01014856 0.07015840 0.80861896 137 137 145
-0.01014856 0.08972525 0.80861896 136 136 144
-0.01014856 0.10999092 0.80861895 127 129 137
-0.01014855 0.13025658 0.80861890 139 142 150
-0.01014855 0.14982343 0.80861888 164 169 181
-0.01014855 0.17008909 0.80861884 188 179 195
-0.01014855 0.19035476 0.80861884 193 145 164
-0.01014855 0.20992161 0.80861884 163 136 152
-0.01014855 0.23018728 0.80861884 138 144 155
-0.01014855 0.25045293 0.80861880 144 153 162
-0.01014855 0.27001978 0.80861878 138 148 155
-0.01014855 0.28958663 0.80861878 137 150 158
-0.01014855 0.30985229 0.80861878 139 152 159
-0.01014855 0.33011796 0.80861878 147 158 164
-0.01014855 0.34968481 0.80861878 2 3 3
-0.01014855 0.36995047 0.80861878 0 0 0
-0.01014855 0.39021614 0.80861878 0 0 0
-0.01014855 0.40978299 0.80861878 0 0 0
-0.01014855 0.43004862 0.80861872 0 0 0
-0.01014855 0.45031429 0.80861872 0 0 0
0.01011711 -0.54340213 0.80861878 0 0 0
0.01011711 -0.53012462 0.80861878 0 0 0
0.01011711 -0.50985896 0.80861878 0 0 0
0.01011711 -0.49029211 0.80861878 0 0 0
0.01011711 -0.47002644 0.80861878 0 0 0
0.01011711 -0.44976081 0.80861884 0 0 0
0.01011712 -0.43019425 0.80861941 43 61 69
0.01011713 -0.40992914 0.80862052 83 120 135
0.01011714 -0.38966365 0.80862097 85 119 136
0.01011714 -0.37009690 0.80862131 83 118 137
0.01011715 -0.34983130 0.80862160 82 117 137
0.01011715 -0.32956569 0.80862193 83 116 136
0.01011715 -0.30999880 0.80862201 86 114 137
0.01011714 -0.29043151 0.80862099 119 126 147
0.01011711 -0.27016507 0.80861884 152 111 126
0.01011711 -0.24989940 0.80861884 127 101 111
0.01011711 -0.23033256 0.80861888 117 114 119
0.01011711 -0.21006690 0.80861892 106 103 110
0.01011712 -0.18980124 0.80861896 103 100 106
0.01011712 -0.17023439 0.80861896 105 102 109
0.01011712 -0.14996872 0.80861896 104 96 108
0.01011712 -0.12970304 0.80861896 111 108 117
0.01011712 -0.11013619 0.80861896 116 115 124
0.01011712 -0.08987052 0.80861896 123 123 131
0.01011712 -0.06960485 0.80861896 129 128 137
0.01011712 -0.05003800 0.80861896 129 123 136
0.01011712 -0.03047114 0.80861896 134 132 142
0.01011712 -0.01020547 0.80861896 138 139 148
0.01011712 0.01006020 0.80861896 140 141 149
0.01011712 0.02962705 0.80861896 139 139 148
0.01011712 0.04989272 0.80861896 135 130 142
0.01011712 0.07015840 0.80861896 136 136 143
0.01011712 0.08972525 0.80861896 136 138 146
0.01011712 0.10999092 0.80861895 130 131 140
0.01011711 0.13025658 0.80861890 137 140 149
0.01011711 0.14982343 0.80861888 168 176 188
0.01011711 0.17008909 0.80861884 187 180 197
0.01011711 0.19035476 0.80861884 195 146 166
0.01011711 0.20992161 0.80861884 147 113 130
0.01011711 0.23018728 0.80861884 130 138 152
0.01011711 0.25045293 0.80861880 144 152 162
0.01011711 0.27001978 0.80861878 129 139 149
0.01011711 0.28958663 0.80861878 115 127 139
0.01011711 0.30985229 0.80861878 125 142 153
0.01011711 0.33011796 0.80861878 113 129 140
0.01011711 0.34968481 0.80861878 0 0 0
0.01011711 0.36995047 0.80861878 0 0 0
0.01011711 0.39021614 0.80861878 0 0 0
0.01011711 0.40978299 0.80861878 0 0 0
0.01011711 0.43004862 0.80861872 0 0 0
0.01011711 0.45031429 0.80861872 0 0 0
0.02968396 -0.54340213 0.80861878 0 0 0
0.02968396 -0.53012462 0.80861878 0 0 0
0.02968396 -0.50985896 0.80861878 0 0 0
0.02968396 -0.49029211 0.80861878 0 0 0
0.02968396 -0.47002644 0.80861878 0 0 0
0.02968396 -0.44976080 0.80861883 0 0 0
0.02968399 -0.43019435 0.80861958 49 70 81
0.02968403 -0.40992919 0.80862061 83 119 136
0.02968405 -0.38966369 0.80862106 82 118 136
0.02968406 -0.37009695 0.80862141 82 117 137
0.02968407 -0.34983134 0.80862170 82 116 136
0.02968408 -0.32956573 0.80862202 82 115 136
0.02968408 -0.30999880 0.80862202 85 113 137
0.02968404 -0.29043151 0.80862098 125 127 147
0.02968397 -0.27016507 0.80861884 149 105 120
0.02968397 -0.24989940 0.80861884 126 102 113
0.02968397 -0.23033256 0.80861888 117 116 121
0.02968397 -0.21006690 0.80861892 107 105 111
0.02968397 -0.18980124 0.80861896 101 97 103
0.02968397 -0.17023439 0.80861896 106 104 110
0.02968397 -0.14996872 0.80861896 106 100 110
0.02968397 -0.12970304 0.80861896 111 108 115
0.02968397 -0.11013619 0.80861896 116 115 124
0.02968397 -0.08987052 0.80861896 123 123 132
0.02968397 -0.06960485 0.80861896 128 128 137
0.02968397 -0.05003800 0.80861896 134 132 142
0.02968397 -0.03047114 0.80861896 137 137 147
0.02968397 -0.01020547 0.80861896 139 140 150
0.02968397 0.01006020 0.80861896 140 141 150
0.02968397 0.02962705 0.80861896 140 143 151
0.02968397 0.04989272 0.80861896 140 140 150
0.02968397 0.07015840 0.80861896 139 142 149
0.02968397 0.08972525 0.80861896 136 140 148
0.02968397 0.10999092 0.80861895 133 137 146
0.02968397 0.13025658 0.80861890 140 144 154
0.02968397 0.14982343 0.80861888 168 178 192
0.02968397 0.17008909 0.80861884 186 182 200
0.02968397 0.19035476 0.80861884 196 147 168
0.02968397 0.20992161 0.80861884 155 118 137
0.02968397 0.23018728 0.80861884 130 137 152
0.02968396 0.25045293 0.80861879 142 151 161
0.02968396 0.27001978 0.80861878 136 149 158
0.02968396 0.28958663 0.80861878 134 146 156
0.02968396 0.30985229 0.80861878 144 156 165
0.02968396 0.33011796 0.80861878 128 138 146
0.02968396 0.34968481 0.80861878 0 0 0
0.02968396 0.36995047 0.80861878 0 0 0
0.02968396 0.39021614 0.80861878 0 0 0
0.02968396 0.40978299 0.80861878 0 0 0
0.02968396 0.43004862 0.80861872 0 0 0
0.02968396 0.45031429 0.80861872 0 0 0
0.04994963 -0.54340213 0.80861878 0 0 0
0.04994963 -0.53012462 0.80861878 0 0 0
0.04994963 -0.50985896 0.80861878 0 0 0
0.04994963 -0.49029211 0.80861878 0 0 0
0.04994963 -0.47002644 0.80861878 0 0 0
0.04994963 -0.44976080 0.80861882 0 0 0
0.04994969 -0.43019446 0.80861980 57 83 93
0.04994975 -0.40992926 0.80862075 83 118 134
0.04994978 -0.38966375 0.80862118 83 118 134
0.04994980 -0.37009699 0.80862152 83 116 134
0.04994981 -0.34983138 0.80862179 82 115 135
0.04994983 -0.32956576 0.80862210 83 114 135
0.04994984 -0.30999885 0.80862214 85 112 136
0.04994975 -0.29043143 0.80862076 131 129 148
0.04994963 -0.27016507 0.80861884 145 99 114
0.04994963 -0.24989940 0.80861884 122 97 110
0.04994964 -0.23033256 0.80861889 117 114 120
0.04994964 -0.21006690 0.80861891 105 101 109
0.04994964 -0.18980124 0.80861896 101 98 105
0.04994964 -0.17023439 0.80861896 103 101 108
0.04994964 -0.14996872 0.80861896 107 105 112
0.04994964 -0.12970304 0.80861896 111 109 116
0.04994964 -0.11013619 0.80861896 116 115 124
0.04994964 -0.08987052 0.80861896 122 121 130
0.04994964 -0.06960485 0.80861896 131 131 139
0.04994964 -0.05003800 0.80861896 135 138 146
0.04994964 -0.03047114 0.80861896 136 139 148
0.04994964 -0.01020547 0.80861896 139 142 150
0.04994964 0.01006020 0.80861896 140 142 153
0.04994964 0.02962705 0.80861896 141 146 155
0.04994964 0.04989272 0.80861896 141 147 156
0.04994964 0.07015840 0.80861896 141 147 157
0.04994964 0.08972525 0.80861896 139 146 154
0.04994964 0.10999092 0.80861895 134 140 151
0.04994964 0.13025658 0.80861890 138 142 152
0.04994963 0.14982343 0.80861888 166 177 193
0.04994963 0.17008909 0.80861884 185 178 198
0.04994963 0.19035476 0.80861884 196 148 168
0.04994963 0.20992161 0.80861884 166 128 145
0.04994963 0.23018728 0.80861884 118 122 136
0.04994963 0.25045293 0.80861879 134 141 152
0.04994963 0.27001978 0.80861878 134 144 156
0.04994963 0.28958663 0.80861878 135 146 154
0.04994963 0.30985229 0.80861878 130 140 148
0.04994963 0.33011796 0.80861878 121 132 137
0.04994963 0.34968481 0.80861878 0 0 0
0.04994963 0.36995047 0.80861878 0 0 0
0.04994963 0.39021614 0.80861878 0 0 0
0.04994963 0.40978299 0.80861878 0 0 0
0.04994963 0.43004862 0.80861872 0 0 0
0.04994963 0.45031429 0.80861872 0 0 0
0.07021529 -0.54340213 0.80861878 0 0 0
0.07021529 -0.53012462 0.80861878 0 0 0
0.07021529 -0.50985896 0.80861878 0 0 0
0.07021529 -0.49029211 0.80861878 0 0 0
0.07021529 -0.47002644 0.80861878 0 0 0
0.07021530 -0.44976079 0.80861881 0 0 0
0.07021540 -0.43019459 0.80862004 67 96 108
0.07021548 -0.40992936 0.80862096 83 117 133
0.07021552 -0.38966384 0.80862137 84 117 133
0.07021555 -0.37009707 0.80862168 84 115 134
0.07021557 -0.34983144 0.80862192 84 114 134
0.07021559 -0.32956581 0.80862222 84 112 135
0.07021560 -0.30999892 0.80862232 85 112 136
0.07021545 -0.29043138 0.80862061 139 130 150
0.07021530 -0.27016507 0.80861884 142 96 113
0.07021530 -0.24989940 0.80861884 124 105 114
0.07021530 -0.23033256 0.80861889 114 109 116
0.07021531 -0.21006690 0.80861891 100 92 101
0.07021531 -0.18980124 0.80861896 93 84 93
0.07021531 -0.17023439 0.80861896 100 98 104
0.07021531 -0.14996872 0.80861896 105 102 108
0.07021531 -0.12970304 0.80861896 110 108 116
0.07021531 -0.11013619 0.80861896 114 112 121
0.07021531 -0.08987052 0.80861896 115 106 123
0.07021531 -0.06960485 0.80861896 128 130 139
0.07021531 -0.05003800 0.80861896 135 138 146
0.07021531 -0.03047114 0.80861896 136 140 149
0.07021531 -0.01020547 0.80861896 138 141 150
0.07021531 0.01006020 0.80861896 136 132 148
0.07021531 0.02962705 0.80861896 140 146 154
0.07021531 0.04989272 0.80861896 141 148 156
0.07021531 0.07015840 0.80861896 142 150 159
0.07021531 0.08972525 0.80861896 139 146 155
0.07021531 0.10999092 0.80861894 135 135 150
0.07021531 0.13025658 0.80861890 139 144 155
0.07021530 0.14982343 0.80861887 162 174 191
0.07021530 0.17008909 0.80861884 186 186 205
0.07021530 0.19035476 0.80861884 198 148 171
0.07021530 0.20992161 0.80861884 171 127 146
0.07021530 0.23018728 0.80861884 86 90 106
0.07021530 0.25045293 0.80861879 130 138 146
