ply
format ascii 1.0
element vertex 1049
property float x
property float y
property float z
property uchar red
property uchar green
property uchar blue
end_header
0.35765606 -0.12030879 0.45404679 132 124 116
0.35796133 -0.12014785 0.45343935 132 124 116
0.76676726 -0.23759395 0.89668232 129 122 118
0.76730216 -0.23728009 0.89549780 128 122 117
0.76783562 -0.23696706 0.89431643 127 121 116
0.77039772 -0.23728009 0.89549780 127 121 116
0.77296662 -0.23759395 0.89668232 130 123 117
0.77554232 -0.23790865 0.89787000 129 122 116
0.77401865 -0.23696706 0.89431643 129 122 115
1.42587590 -0.36508340 1.37782896 124 125 116
1.43116617 -0.36582693 1.38063514 123 124 115
1.44236529 -0.36807588 1.38912261 124 125 116
1.43886936 -0.36657354 1.38345277 126 126 118
1.43249011 -0.36434287 1.37503421 127 126 119
1.42618811 -0.36213917 1.36671746 128 127 119
1.41147614 -0.35781083 1.35038221 129 126 119
1.42230999 -0.35996199 1.35850072 129 125 118
1.44787037 -0.36582693 1.38063514 128 124 116
1.46216846 -0.36883169 1.39197505 127 124 114
1.46157324 -0.36807588 1.38912261 128 125 115
1.45502937 -0.36582693 1.38063514 129 126 115
1.83965015 -0.43810007 1.65339470 69 97 113
1.78167045 -0.42363450 1.59880149 68 97 113
1.72739708 -0.41009367 1.54769826 67 97 113
1.69523847 -0.40183675 1.51653659 67 97 112
1.66070747 -0.39304382 1.48335195 67 97 112
1.66327131 -0.39304382 1.48335195 68 97 112
0.06983253 -0.14230411 0.54058361 106 105 109
0.07076688 -0.14230411 0.54058361 105 104 108
0.07158706 -0.14207751 0.53972280 105 104 108
0.07246224 -0.14196448 0.53929341 104 103 107
0.07339437 -0.14196448 0.53929341 106 102 107
0.07438567 -0.14207751 0.53972280 106 103 108
0.07519879 -0.14185163 0.53886473 106 103 108
0.07600933 -0.14162646 0.53800941 108 101 110
0.07712286 -0.14196448 0.53929341 111 104 113
0.10418342 -0.18725011 0.71132410 147 128 141
0.10563458 -0.18764390 0.71281999 161 137 150
0.10697912 -0.18784142 0.71357036 171 139 152
0.10787182 -0.18725011 0.71132410 174 135 149
0.10921589 -0.18744679 0.71207124 174 134 149
0.11009970 -0.18685795 0.70983440 174 133 148
0.11191251 -0.18784142 0.71357036 173 133 146
0.11314586 -0.18784142 0.71357036 173 131 145
0.11378036 -0.18685795 0.70983440 173 131 145
0.11381547 -0.18492161 0.70247859 173 128 141
0.11455481 -0.18415825 0.69957876 166 120 134
0.11600340 -0.18453914 0.70102566 158 111 125
0.11770195 -0.18530566 0.70393753 151 104 120
0.12118376 -0.18883529 0.71734589 140 97 111
0.12242363 -0.18883529 0.71734589 135 95 108
0.12353279 -0.18863568 0.71658754 133 95 108
0.12516829 -0.18923579 0.71886730 128 98 107
0.12627688 -0.18903533 0.71810579 127 102 108
0.12751807 -0.18903533 0.71810579 129 108 108
0.12821597 -0.18823771 0.71507579 128 109 107
0.12945192 -0.18823771 0.71507579 131 112 109
0.13758692 -0.12272995 0.46622548 134 128 124
0.13848799 -0.12281442 0.46654636 134 128 125
0.13948639 -0.12298370 0.46718940 135 128 126
0.13971615 -0.12247725 0.46526551 136 127 126
0.13994402 -0.12197495 0.46335739 135 129 127
0.14055276 -0.12180842 0.46272480 133 127 124
0.35773957 -0.12114687 0.46021169 129 123 117
0.35732210 -0.12073704 0.45865482 131 123 115
0.35738945 -0.12049247 0.45772576 131 123 115
0.35748309 -0.11920464 0.45283356 132 125 114
0.76575434 -0.23573230 0.89549780 128 123 117
0.76628989 -0.23542130 0.89431643 123 119 112
0.76581502 -0.23480177 0.89196295 123 120 112
0.76836771 -0.23511113 0.89313811 126 123 115
0.76991141 -0.23511113 0.89313811 128 123 116
0.77349335 -0.23573230 0.89549780 127 122 115
1.44532704 -0.36642575 1.39197505 127 124 116
1.44476628 -0.36567488 1.38912261 129 126 118
1.45976257 -0.36642575 1.39197505 130 126 114
1.46819806 -0.36793679 1.39771509 129 125 113
1.46457446 -0.36642575 1.39197505 130 126 114
1.46098042 -0.36492708 1.38628185 129 126 114
1.90172958 -0.45062965 1.71184814 70 96 112
1.83965015 -0.43524233 1.65339470 70 96 111
1.78167045 -0.42087111 1.59880149 70 96 111
1.73134995 -0.40835091 1.55123997 70 96 111
1.69903946 -0.40011063 1.51993692 70 96 111
1.66070747 -0.39047998 1.48335195 70 95 110
1.66327131 -0.39047998 1.48335195 70 95 109
0.06983253 -0.14136975 0.54058361 102 101 106
0.07071050 -0.14125711 0.54015285 103 101 106
0.07153011 -0.14103235 0.53929341 102 100 105
0.07240464 -0.14092024 0.53886473 101 100 104
0.07327777 -0.14080831 0.53843671 101 99 105
0.07426740 -0.14092024 0.53886473 100 99 105
0.07507943 -0.14069656 0.53800941 101 100 107
0.07582878 -0.14036237 0.53673148 108 101 112
0.07687822 -0.14058499 0.53758276 111 103 114
0.10418342 -0.18602064 0.71132410 148 126 138
0.10563458 -0.18641184 0.71281999 159 135 146
0.10697912 -0.18660808 0.71357036 168 138 150
0.10787182 -0.18602064 0.71132410 172 134 149
0.10910129 -0.18602064 0.71132410 172 134 149
0.11009970 -0.18563107 0.70983440 171 133 148
0.11179484 -0.18641184 0.71281999 173 131 147
0.11314586 -0.18660808 0.71357036 173 131 146
0.11378036 -0.18563107 0.70983440 173 130 144
0.11381547 -0.18370743 0.70247859 173 125 139
0.11455481 -0.18294908 0.69957876 166 117 132
0.11600340 -0.18332747 0.70102566 156 107 123
0.11733641 -0.18351725 0.70175141 148 101 119
0.12067298 -0.18680471 0.71432227 138 96 112
0.12203622 -0.18700176 0.71507579 134 95 110
0.12327217 -0.18700176 0.71507579 132 96 109
0.12477135 -0.18739711 0.71658754 128 99 107
0.12600991 -0.18739711 0.71658754 126 101 106
0.12724848 -0.18739711 0.71658754 127 104 107
0.12794605 -0.18660808 0.71357036 128 108 108
0.12931551 -0.18680471 0.71432227 129 109 109
0.13041274 -0.18660808 0.71357036 131 111 109
0.13768160 -0.12200803 0.46654636 135 128 125
0.13858338 -0.12209205 0.46686766 136 127 126
0.13939032 -0.12209205 0.46686766 136 127 126
0.13971615 -0.12167307 0.46526551 136 127 126
0.14003974 -0.12125695 0.46367431 135 128 126
0.14064875 -0.12109130 0.46304089 133 126 125
0.35718662 -0.12043320 0.46052435 127 122 117
0.35773957 -0.12035143 0.46021169 128 122 117
0.35756403 -0.12002550 0.45896536 130 122 116
0.76474410 -0.23387554 0.89431643 129 124 117
0.76528031 -0.23356742 0.89313811 124 121 113
0.76480871 -0.23295356 0.89079088 125 122 114
0.76735669 -0.23326008 0.89196295 126 123 115
1.44476628 -0.36327392 1.38912261 130 127 117
1.47123146 -0.36627617 1.40060294 131 129 116
1.46758795 -0.36476886 1.39483917 130 128 115
1.46397424 -0.36327392 1.38912261 129 127 114
1.89693928 -0.44654325 1.70753610 72 96 110
1.83965015 -0.43238455 1.65339470 72 96 109
1.78167045 -0.41810772 1.59880149 71 96 109
1.73532093 -0.40660015 1.55479777 71 96 109
1.70669281 -0.39927402 1.52678347 70 95 108
1.66434932 -0.38876683 1.48660493 69 94 108
1.66327131 -0.38791612 1.48335195 69 94 108
0.06983253 -0.14043540 0.54058361 98 96 105
0.07065420 -0.14021178 0.53972280 98 96 103
0.07147326 -0.13998885 0.53886473 97 95 101
0.07234713 -0.13987766 0.53843671 96 94 101
0.07321961 -0.13976665 0.53800941 94 93 102
0.07420842 -0.13987766 0.53843671 94 94 103
0.07507943 -0.13976665 0.53800941 94 93 107
0.07576880 -0.13932435 0.53630686 99 93 106
0.07663513 -0.13921422 0.53588289 109 102 114
0.07743893 -0.13899447 0.53503698 128 116 128
0.10440253 -0.18517980 0.71281999 149 123 136
0.10585720 -0.18557006 0.71432227 160 132 145
0.10720481 -0.18576580 0.71507579 168 138 150
0.10809868 -0.18517980 0.71281999 172 134 149
0.10921589 -0.18498528 0.71207124 171 133 148
0.11021510 -0.18459746 0.71057844 171 132 148
0.11191251 -0.18537472 0.71357036 172 131 148
0.11314586 -0.18537472 0.71357036 173 130 146
0.11378036 -0.18440418 0.70983440 175 128 143
0.11393354 -0.18268256 0.70320731 172 122 135
0.11455481 -0.18173993 0.69957876 165 115 132
0.11612349 -0.18230434 0.70175141 157 107 128
0.11745800 -0.18249325 0.70247859 144 104 121
0.12029271 -0.18498528 0.71207124 134 98 112
0.12177930 -0.18537472 0.71357036 130 97 109
0.12288330 -0.18517980 0.71281999 131 98 109
0.12437692 -0.18557006 0.71432227 127 100 107
0.12561157 -0.18557006 0.71432227 126 103 107
0.12684622 -0.18557006 0.71432227 128 105 109
0.12781151 -0.18517980 0.71281999 128 109 110
0.12904356 -0.18517980 0.71281999 128 111 110
0.13027561 -0.18517980 0.71281999 129 115 112
0.13858338 -0.12128511 0.46686766 135 127 123
0.13939032 -0.12128511 0.46686766 135 127 123
0.13981210 -0.12095191 0.46558505 135 127 123
0.14013560 -0.12053797 0.46399167 130 123 122
0.35767260 -0.11979999 0.46115091 127 122 115
0.35822597 -0.11971855 0.46083742 128 122 115
0.35756403 -0.11923221 0.45896536 129 121 115
0.35787272 -0.11907098 0.45834473 129 121 115
0.35697541 -0.11851008 0.45618564 130 122 116
0.76521742 -0.23294443 0.89668232 129 125 117
0.76474410 -0.23232980 0.89431643 127 123 115
0.76528031 -0.23202370 0.89313811 125 123 111
0.76480871 -0.23141392 0.89079088 126 124 111
0.76634836 -0.23141392 0.89079088 126 123 112
1.47733617 -0.36536512 1.40641463 129 127 114
1.47061384 -0.36310512 1.39771509 129 126 114
1.46397424 -0.36087292 1.38912261 128 125 114
1.90172958 -0.44471207 1.71184814 73 95 108
1.84866810 -0.43163231 1.66149962 72 95 108
1.78588235 -0.41632620 1.60258114 71 96 108
1.73931015 -0.40484133 1.55837202 71 96 108
1.70285761 -0.39574379 1.52335250 70 95 108
1.66070747 -0.38535225 1.48335195 69 94 108
1.66327131 -0.38535225 1.48335195 68 93 107
0.06977689 -0.13938989 0.54015285 97 95 102
0.07065420 -0.13927890 0.53972280 98 94 102
0.07135981 -0.13883676 0.53800941 98 93 101
0.07228971 -0.13883676 0.53800941 95 94 101
0.07310358 -0.13861673 0.53715676 95 94 103
0.07403201 -0.13861673 0.53715676 94 93 103
0.07490109 -0.13850696 0.53673148 95 94 106
0.07558939 -0.13806969 0.53503698 98 95 107
0.07633342 -0.13774355 0.53377312 105 99 111
0.07725600 -0.13774355 0.53377312 137 110 127
0.10440253 -0.18394774 0.71281999 157 126 143
0.10596886 -0.18452986 0.71507579 162 130 146
0.10731801 -0.18472472 0.71583086 170 135 149
0.10809868 -0.18394774 0.71281999 172 133 150
0.10921589 -0.18375452 0.71207124 173 133 150
0.11021510 -0.18336929 0.71057844 173 132 150
0.11179484 -0.18394774 0.71281999 174 130 149
0.11314586 -0.18414137 0.71357036 174 129 146
0.11378036 -0.18317728 0.70983440 175 128 144
0.11405185 -0.18165556 0.70393753 171 121 138
0.11455481 -0.18053076 0.69957876 166 116 133
0.11612349 -0.18109141 0.70175141 157 107 125
0.11733641 -0.18109141 0.70175141 143 105 120
0.12016648 -0.18356170 0.71132410 136 100 113
0.12152346 -0.18375452 0.71207124 132 97 109
0.12275422 -0.18375452 0.71207124 132 97 109
0.12398498 -0.18375452 0.71207124 128 100 107
0.12521574 -0.18375452 0.71207124 126 103 107
0.12657945 -0.18394774 0.71281999 127 108 108
0.12754327 -0.18356170 0.71132410 128 111 110
0.12890801 -0.18375452 0.71207124 129 112 111
0.13013877 -0.18375452 0.71207124 130 118 115
0.13123168 -0.18356170 0.71132410 130 120 115
0.13858338 -0.12047817 0.46686766 135 126 124
0.13939032 -0.12047817 0.46686766 135 127 123
0.13971615 -0.12006473 0.46526551 134 126 122
0.14003974 -0.11965410 0.46367431 126 118 112
0.35773957 -0.11876056 0.46021169 128 121 115
0.35732210 -0.11835880 0.45865482 128 120 114
0.35763091 -0.11819886 0.45803502 129 121 115
0.35649559 -0.11756337 0.45557249 128 121 118
0.35561010 -0.11701291 0.45343935 128 122 119
0.76628989 -0.23078404 0.89431643 126 124 111
0.76581502 -0.23017672 0.89196295 126 124 111
0.47346896 -0.12929365 0.50102872 129 129 120
0.47328553 -0.12900759 0.49992025 129 129 120
1.47365236 -0.36143452 1.40060294 129 125 115
1.90654409 -0.44287166 1.71618187 71 96 108
1.85321021 -0.42981401 1.66558194 71 96 108
1.79011440 -0.41453627 1.60637879 71 96 107
1.73931015 -0.40214783 1.55837202 71 96 107
1.69523847 -0.39135191 1.51653659 70 95 106
1.66070747 -0.38278842 1.48335195 68 95 106
1.65963972 -0.38195264 1.48011315 68 95 106
-0.54136455 -0.33415890 1.30363810 173 144 162
-0.53911132 -0.33415890 1.30363810 175 146 162
0.06878846 -0.13834603 0.53972280 98 96 103
0.06966586 -0.13823597 0.53929341 99 97 106
0.07048584 -0.13801639 0.53843671 98 94 104
0.07119031 -0.13757928 0.53673148 97 92 102
0.07217515 -0.13768829 0.53715676 95 95 102
0.07293021 -0.13736175 0.53588289 97 97 105
0.07385644 -0.13736175 0.53588289 95 95 103
0.07466462 -0.13714492 0.53503698 95 95 104
0.07547025 -0.13692878 0.53419375 98 97 107
0.07627336 -0.13671331 0.53335315 108 103 115
0.07719521 -0.13671331 0.53335315 136 111 128
0.10619289 -0.18368141 0.71658754 164 133 146
0.10743146 -0.18368141 0.71658754 170 135 150
0.10821246 -0.18290803 0.71357036 175 135 150
0.10921589 -0.18252376 0.71207124 174 134 149
0.11033075 -0.18233223 0.71132410 173 133 148
0.11179484 -0.18271570 0.71281999 173 131 147
0.11302689 -0.18271570 0.71281999 173 128 144
0.11389963 -0.18214111 0.71057844 171 124 140
0.11405185 -0.18043886 0.70393753 171 121 138
0.11455481 -0.17932159 0.69957876 166 116 133
0.11612349 -0.17987849 0.70175141 158 108 125
0.11721507 -0.17969248 0.70102566 148 108 120
0.11991482 -0.18195039 0.70983440 138 101 111
0.12139595 -0.18233223 0.71132410 132 97 107
0.12262541 -0.18233223 0.71132410 132 97 107
0.12385488 -0.18233223 0.71132410 127 100 104
0.12508434 -0.18233223 0.71132410 126 105 103
0.12631381 -0.18233223 0.71132410 124 108 104
0.12727617 -0.18195039 0.70983440 126 112 107
0.12863776 -0.18214111 0.71057844 125 113 108
0.12986594 -0.18214111 0.71057844 130 122 116
0.13081986 -0.18176007 0.70909190 128 121 118
0.13877453 -0.11983629 0.46751162 136 128 122
0.13958257 -0.11983629 0.46751162 133 125 119
0.14000441 -0.11950662 0.46622548 130 122 116
0.14023158 -0.11901549 0.46430948 123 115 110
0.35697541 -0.11693312 0.45618564 129 121 115
0.35584813 -0.11630698 0.45374286 129 121 115
0.35663241 -0.11630698 0.45374286 128 122 114
0.35741666 -0.11630698 0.45374286 127 123 114
0.47346896 -0.12842765 0.50102872 129 127 115
1.87745345 -0.43658951 1.70324588 84 98 107
1.84334528 -0.42798674 1.66968429 79 99 107
1.90654409 -0.43990538 1.71618187 72 97 106
1.85777485 -0.42798674 1.66968429 72 97 106
1.79436636 -0.41273782 1.61019444 71 97 105
1.73931015 -0.39945430 1.55837202 70 96 104
1.69145453 -0.38786301 1.51315141 69 95 103
1.66070747 -0.38022456 1.48335195 69 96 105
1.65963972 -0.37939438 1.48011315 68 95 105
-0.54136455 -0.33190566 1.30363810 175 147 161
-0.53911132 -0.33190566 1.30363810 174 145 159
-0.53480119 -0.33063400 1.29864335 172 144 157
0.06867910 -0.13719471 0.53886473 106 101 110
0.06961048 -0.13719471 0.53886473 102 97 106
0.07037404 -0.13686831 0.53758276 107 102 110
0.07107775 -0.13643552 0.53588289 106 101 109
0.07206094 -0.13654347 0.53630686 103 101 108
0.07287260 -0.13632776 0.53545958 100 99 106
0.07368170 -0.13611273 0.53461504 97 96 103
0.07448824 -0.13589838 0.53377312 96 94 103
0.07535150 -0.13579145 0.53335315 98 95 107
0.07621340 -0.13568470 0.53293383 110 106 118
0.07719521 -0.13579145 0.53335315 128 114 125
0.10630527 -0.18263592 0.71734589 163 136 148
0.10743146 -0.18244286 0.71658754 169 135 149
0.10809868 -0.18148364 0.71281999 174 135 150
0.10921589 -0.18129301 0.71207124 176 134 150
0.11021510 -0.18091294 0.71057844 177 132 149
0.11167740 -0.18129301 0.71207124 176 131 146
0.11290816 -0.18129301 0.71207124 176 129 145
0.11378036 -0.18072350 0.70983440 174 126 142
0.11405185 -0.17922217 0.70393753 171 121 138
0.11467315 -0.17829643 0.70030147 165 116 133
0.11612349 -0.17866558 0.70175141 157 110 126
0.11721507 -0.17848080 0.70102566 149 109 120
0.11966421 -0.18034582 0.70835096 138 101 111
0.12126870 -0.18091294 0.71057844 131 97 106
0.12236860 -0.18072350 0.70983440 131 97 106
0.12372505 -0.18091294 0.71057844 130 102 104
0.12495323 -0.18091294 0.71057844 131 108 103
0.12618141 -0.18091294 0.71057844 128 109 102
0.12714304 -0.18053445 0.70909190 127 113 109
0.12823451 -0.18034582 0.70835096 124 113 110
0.12959425 -0.18053445 0.70909190 129 121 117
0.13054675 -0.18015756 0.70761150 129 120 117
0.14019726 -0.11886428 0.46686766 128 119 116
0.35773957 -0.11716969 0.46021169 129 121 114
0.35732210 -0.11677330 0.45865482 129 121 114
0.35787272 -0.11669435 0.45834473 129 121 113
0.35721579 -0.11622286 0.45649281 127 122 113
0.35584813 -0.11552272 0.45374286 127 122 113
0.35687128 -0.11560009 0.45404679 127 122 113
0.35765606 -0.11560009 0.45404679 127 122 113
0.47296843 -0.12812987 0.50326043 131 129 114
0.47381917 -0.12765603 0.50139928 129 127 112
1.86806619 -0.43147737 1.69472957 82 96 105
1.84789670 -0.42615047 1.67380702 76 95 104
1.90654409 -0.43693909 1.71618187 71 97 104
1.86236191 -0.42615047 1.67380702 70 96 104
1.80724466 -0.41289699 1.62175083 70 96 104
1.75138879 -0.39951608 1.56919408 69 96 104
1.69903946 -0.38697520 1.51993692 69 96 104
1.66070747 -0.37766069 1.48335195 68 97 106
1.66327131 -0.37766069 1.48335195 67 96 106
-0.54136455 -0.32965243 1.30363810 178 147 164
-0.53807658 -0.32901970 1.30113602 176 146 162
-0.53377861 -0.32776150 1.29616034 174 144 158
-0.53052390 -0.32713598 1.29368675 174 141 156
0.06867910 -0.13626333 0.53886473 103 99 105
0.06961048 -0.13626333 0.53886473 101 97 103
0.07031828 -0.13583143 0.53715676 102 98 103
0.07102160 -0.13540226 0.53545958 103 99 104
0.07200398 -0.13550930 0.53588289 103 99 104
0.07275766 -0.13518870 0.53461504 100 96 102
0.07356566 -0.13497579 0.53377312 96 93 100
0.07437113 -0.13476357 0.53293383 95 93 101
0.07529226 -0.13476357 0.53293383 95 93 102
0.07615352 -0.13465771 0.53251517 107 104 113
0.07713453 -0.13476357 0.53293383 130 120 131
0.10687073 -0.18236092 0.72116154 164 134 150
0.10777324 -0.18178077 0.71886730 169 136 149
0.10809868 -0.18025158 0.71281999 174 135 150
0.10910129 -0.17987330 0.71132410 175 135 150
0.11021510 -0.17968476 0.71057844 176 133 149
0.11167740 -0.18006225 0.71207124 176 131 147
0.11278968 -0.17987330 0.71132410 177 130 147
0.11378036 -0.17949660 0.70983440 175 125 142
0.11417040 -0.17819050 0.70466930 169 122 138
0.11467315 -0.17708601 0.70030147 164 118 133
0.11612349 -0.17745265 0.70175141 156 111 126
0.11721507 -0.17726915 0.70102566 147 107 118
0.11929026 -0.17856173 0.70613736 138 101 111
0.12101500 -0.17930885 0.70909190 132 97 107
0.12211287 -0.17912148 0.70835096 132 99 106
0.12346621 -0.17930885 0.70909190 132 102 105
0.12469182 -0.17930885 0.70909190 131 104 102
0.12591743 -0.17930885 0.70909190 130 111 108
0.12674530 -0.17874792 0.70687366 130 115 111
0.12770075 -0.17837591 0.70540255 129 115 112
0.12905428 -0.17856173 0.70613736 132 119 116
0.13000393 -0.17819050 0.70466930 132 120 117
0.35725451 -0.11621645 0.45958769 128 122 111
0.35708052 -0.11590213 0.45834473 128 123 112
0.35763091 -0.11582383 0.45803502 128 124 112
0.35697541 -0.11535616 0.45618564 128 123 114
0.35608649 -0.11481531 0.45404679 128 123 113
0.35687128 -0.11481531 0.45404679 127 123 112
0.35765606 -0.11481531 0.45404679 127 123 112
0.47296843 -0.12726003 0.50326043 131 128 113
0.47313577 -0.12707135 0.50251436 129 126 112
0.47365320 -0.12697724 0.50214213 129 126 111
0.47381917 -0.12678939 0.50139928 129 125 111
1.84045935 -0.42221493 1.66968429 80 94 105
1.83881617 -0.42117754 1.66558194 75 95 105
1.90654409 -0.43397281 1.71618187 69 97 107
1.86236191 -0.42325744 1.67380702 68 96 107
1.76363623 -0.39957869 1.58016741 69 96 106
1.70669281 -0.38607943 1.52678347 69 96 106
1.66070747 -0.37509686 1.48335195 69 96 107
1.66691887 -0.37591943 1.48660493 68 96 106
-0.54240763 -0.32803002 1.30614996 179 148 165
-0.53911132 -0.32739919 1.30363810 177 146 163
-0.53480119 -0.32614478 1.29864335 177 144 159
-0.53153831 -0.32552117 1.29616034 177 142 157
0.06764018 -0.13511713 0.53800941 101 97 104
0.06862455 -0.13522445 0.53843671 101 96 104
0.06949999 -0.13511713 0.53800941 101 97 102
0.07020701 -0.13468954 0.53630686 101 97 102
0.07090958 -0.13426465 0.53461504 101 97 102
0.07189032 -0.13437063 0.53503698 101 97 102
0.07270033 -0.13415885 0.53419375 100 96 101
0.07350779 -0.13394774 0.53335315 99 95 100
0.07431271 -0.13373730 0.53251517 97 93 101
0.07511511 -0.13352752 0.53167987 98 93 101
0.07603407 -0.13352752 0.53167987 100 95 103
0.07695303 -0.13352752 0.53167987 137 118 131
0.10811719 -0.18111445 0.72116154 172 135 150
0.10809868 -0.17901954 0.71281999 174 135 150
0.10910129 -0.17864384 0.71132410 175 135 150
0.11021510 -0.17845659 0.71057844 176 132 150
0.11156022 -0.17864384 0.71132410 177 130 148
0.11278968 -0.17864384 0.71132410 175 128 146
0.11378036 -0.17826971 0.70983440 175 128 146
0.11417040 -0.17697254 0.70466930 170 123 139
0.11467315 -0.17587560 0.70030147 165 119 135
0.11612349 -0.17623973 0.70175141 156 111 126
0.11721507 -0.17605747 0.70102566 147 105 117
0.11891864 -0.17678876 0.70393753 139 100 110
0.12063643 -0.17752615 0.70687366 134 99 107
0.12185820 -0.17752615 0.70687366 133 101 105
0.12320846 -0.17771146 0.70761150 131 102 105
0.12443151 -0.17771146 0.70761150 128 102 103
0.12552352 -0.17752615 0.70687366 128 113 111
0.12635005 -0.17697254 0.70466930 133 118 115
0.12730335 -0.17660537 0.70320731 133 118 114
0.12851878 -0.17660537 0.70320731 134 119 115
0.12959978 -0.17642236 0.70247859 134 121 119
0.35677075 -0.11526579 0.45896536 129 123 112
0.35683924 -0.11503215 0.45803502 130 123 112
0.35738945 -0.11495448 0.45772576 130 124 112
0.35673535 -0.11449064 0.45587885 129 125 113
0.35608649 -0.11403053 0.45404679 129 125 113
0.47296843 -0.12639019 0.50326043 132 128 114
0.47278529 -0.12610932 0.50214213 130 126 112
0.47330260 -0.12601598 0.50177044 129 125 113
0.47398463 -0.12573676 0.50065869 128 125 119
0.47571531 -0.12573676 0.50065869 128 125 119
0.47658068 -0.12573676 0.50065869 128 125 118
0.47674182 -0.12555131 0.49992025 126 125 115
1.88941419 -0.43319994 1.72491562 114 120 120
1.82982433 -0.41625324 1.65743732 73 95 108
1.81934428 -0.41322228 1.64536858 68 97 111
1.90172958 -0.42991814 1.71184814 67 96 111
1.86236191 -0.42036438 1.67380702 68 97 112
1.77189684 -0.39870629 1.58756876 70 97 109
1.71441543 -0.38517553 1.53369200 70 97 109
1.66070747 -0.37253299 1.48335195 69 96 109
-0.54345477 -0.32640135 1.30867147 175 148 162
-0.54015005 -0.32577243 1.30614996 178 149 164
-0.53582764 -0.32452187 1.30113602 179 146 161
0.06753299 -0.13397457 0.53715676 101 96 104
0.06857008 -0.13418722 0.53800941 101 96 104
0.06933491 -0.13386849 0.53673148 101 97 102
0.07004078 -0.13344586 0.53503698 101 97 102
0.07085370 -0.13323554 0.53419375 102 96 102
0.07183362 -0.13334061 0.53461504 102 96 102
0.07258593 -0.13302588 0.53335315 101 96 102
0.07339229 -0.13281688 0.53251517 101 95 101
0.07419614 -0.13260855 0.53167987 98 96 103
0.07493877 -0.13229726 0.53043181 99 96 103
0.07579628 -0.13219382 0.53001708 98 96 102
0.07683251 -0.13240086 0.53084719 136 118 128
0.10755726 -0.18102345 0.72579426 163 134 145
0.10834772 -0.18025149 0.72269917 173 134 149
0.10809868 -0.17778748 0.71281999 176 134 150
0.10910129 -0.17741437 0.71132410 175 133 149
0.11021510 -0.17722841 0.71057844 176 132 150
0.11156022 -0.17741437 0.71132410 176 130 148
0.11278968 -0.17741437 0.71132410 175 129 147
0.11378036 -0.17704283 0.70983440 174 127 145
0.11417040 -0.17575458 0.70466930 170 123 139
0.11479174 -0.17484581 0.70102566 167 120 136
0.11612349 -0.17502680 0.70175141 155 110 123
0.11721507 -0.17484581 0.70102566 149 104 117
0.11891864 -0.17557207 0.70393753 140 98 110
0.12051076 -0.17612073 0.70613736 135 98 107
0.12173127 -0.17612073 0.70613736 131 102 106
0.12295177 -0.17612073 0.70613736 129 104 106
0.12417227 -0.17612073 0.70613736 125 104 104
0.12526229 -0.17593746 0.70540255 128 113 111
0.12608790 -0.17538993 0.70320731 134 119 116
0.12717143 -0.17520818 0.70247859 135 120 116
0.12838560 -0.17520818 0.70247859 135 120 118
0.12946561 -0.17502680 0.70175141 134 121 120
0.35714829 -0.11408630 0.45741689 129 124 113
0.35673535 -0.11370269 0.45587885 129 125 113
0.35584813 -0.11316995 0.45374286 129 125 113
0.47261757 -0.12542723 0.50288713 131 128 113
0.47278529 -0.12524140 0.50214213 128 126 111
0.47330260 -0.12514870 0.50177044 127 125 112
0.47398463 -0.12487142 0.50065869 128 125 114
0.47658068 -0.12487142 0.50065869 128 125 117
0.47674182 -0.12468724 0.49992025 127 124 115
0.47703198 -0.12386513 0.49662405 128 125 114
0.47684234 -0.12359349 0.49553499 129 126 115
1.87391496 -0.42804024 1.71618187 130 131 129
1.87214160 -0.42695934 1.71184814 124 126 125
1.86567783 -0.42481381 1.70324588 113 118 121
1.82250369 -0.41238025 1.65339470 82 93 110
1.82536137 -0.41238025 1.65339470 73 93 111
1.81934428 -0.41037840 1.64536858 64 93 110
1.90840912 -0.42912665 1.72053766 60 89 106
1.88743079 -0.42374912 1.69897699 62 92 108
1.85777485 -0.41644311 1.66968429 66 95 112
1.82912409 -0.40938473 1.64138460 69 96 110
1.78023517 -0.39782563 1.59503961 71 96 109
1.65708148 -0.36916134 1.48011315 71 96 108
-0.55691469 -0.32539576 1.31374383 137 138 140
-0.55788749 -0.32729867 1.32142663 103 104 106
-0.55452257 -0.32666191 1.31885576 99 99 103
-0.54797864 -0.32413942 1.30867147 129 118 127
-0.54466522 -0.32351488 1.30614996 170 142 157
-0.54556119 -0.32539576 1.31374383 174 146 160
-0.54223961 -0.32476637 1.31120276 178 150 163
-0.53789252 -0.32351488 1.30614996 178 148 162
0.06671027 -0.13325731 0.53800941 101 97 102
0.06753299 -0.13304614 0.53715676 101 97 102
0.06857008 -0.13325731 0.53800941 103 95 101
0.06933491 -0.13294078 0.53673148 103 95 101
0.07004078 -0.13252109 0.53503698 104 95 100
0.07085370 -0.13231222 0.53419375 104 95 100
0.07177702 -0.13231222 0.53419375 104 95 102
0.07258593 -0.13210402 0.53335315 104 95 102
0.07339229 -0.13189648 0.53251517 104 95 103
0.07419614 -0.13168958 0.53167987 102 95 104
0.07493877 -0.13138045 0.53043181 104 97 105
0.07579628 -0.13127773 0.53001708 114 107 113
0.07683251 -0.13148333 0.53084719 138 118 129
0.10767254 -0.17996165 0.72657216 162 134 145
0.10857923 -0.17938484 0.72424340 170 132 147
0.10844076 -0.17711416 0.71507579 174 133 149
0.10910129 -0.17618491 0.71132410 175 133 149
0.11033075 -0.17618491 0.71132410 175 133 149
0.11156022 -0.17618491 0.71132410 176 131 147
0.11278968 -0.17618491 0.71132410 176 130 146
0.11378036 -0.17581594 0.70983440 174 127 143
0.11417040 -0.17453662 0.70466930 172 122 139
0.11479174 -0.17363414 0.70102566 168 119 135
0.11612349 -0.17381389 0.70175141 156 109 123
0.11721507 -0.17363414 0.70102566 148 105 117
0.11879528 -0.17417450 0.70320731 139 100 111
0.12038536 -0.17471823 0.70540255 132 97 107
0.12160460 -0.17471823 0.70540255 128 103 107
0.12282383 -0.17471823 0.70540255 128 104 108
0.12404306 -0.17471823 0.70540255 127 104 108
0.12513208 -0.17453662 0.70466930 127 109 111
0.12595725 -0.17399400 0.70247859 131 114 115
0.12703978 -0.17381389 0.70175141 134 118 118
0.12825270 -0.17381389 0.70175141 134 119 121
0.12933174 -0.17363414 0.70102566 135 123 125
0.35714829 -0.11329570 0.45741689 128 124 114
0.35649559 -0.11283886 0.45557249 129 125 114
0.47244930 -0.12474310 0.50363433 130 128 113
0.47261757 -0.12455802 0.50288713 128 128 112
0.47243533 -0.12428144 0.50177044 127 127 111
0.47330260 -0.12428144 0.50177044 127 126 111
0.47381917 -0.12418951 0.50139928 128 126 111
0.47398463 -0.12400607 0.50065869 128 126 111
0.47674182 -0.12382317 0.49992025 128 128 115
0.47722244 -0.12327769 0.49771795 128 127 113
0.47668275 -0.12291671 0.49626049 127 126 113
0.47684234 -0.12273700 0.49553499 128 127 114
0.47734988 -0.12264735 0.49517301 130 128 115
0.47906163 -0.12264735 0.49517301 129 127 114
0.48097149 -0.12291671 0.49626049 128 126 113
0.48112479 -0.12273700 0.49553499 128 126 113
1.80271983 -0.41152996 1.66149962 124 125 117
1.80117691 -0.41052377 1.65743732 125 126 118
1.81133509 -0.41152996 1.66149962 131 132 130
1.84587634 -0.41871375 1.69050336 129 130 128
1.85806537 -0.42081258 1.69897699 122 124 125
1.85634947 -0.41976056 1.69472957 111 114 120
1.82282221 -0.41152996 1.66149962 103 106 112
1.82123017 -0.41052377 1.65743732 93 99 111
1.81964588 -0.40952247 1.65339470 85 95 114
1.82250369 -0.40952247 1.65339470 83 93 112
1.82982433 -0.41052377 1.65743732 73 94 113
1.82377088 -0.40852606 1.64937186 66 95 114
1.84005272 -0.41152996 1.66149962 65 95 114
1.88922918 -0.42186990 1.70324588 66 96 113
1.87334549 -0.41767219 1.68629813 66 97 111
1.85777485 -0.41355717 1.66968429 65 96 110
1.83802497 -0.40852606 1.64937186 72 95 108
1.79714954 -0.39882237 1.61019444 75 94 107
-0.56136119 -0.32438236 1.31885576 146 146 148
-0.55799609 -0.32375249 1.31629479 137 137 140
-0.55788749 -0.32501468 1.32142663 108 108 112
-0.55452257 -0.32438236 1.31885576 86 85 92
-0.54903853 -0.32250008 1.31120276 120 114 123
-0.54571670 -0.32187748 1.30867147 172 143 159
-0.54768401 -0.32438236 1.31885576 179 151 165
-0.54329050 -0.32312506 1.31374383 181 153 164
-0.53997332 -0.32250008 1.31120276 178 150 161
0.06665737 -0.13222247 0.53758276 100 98 102
0.06747951 -0.13201310 0.53673148 100 98 102
0.06851571 -0.13222247 0.53758276 101 97 100
0.06933491 -0.13201310 0.53673148 102 96 100
0.06998555 -0.13149254 0.53461504 103 97 101
0.07079791 -0.13128546 0.53377312 103 97 101
0.07177702 -0.13138892 0.53419375 104 95 102
0.07258593 -0.13118216 0.53335315 104 95 103
0.07339229 -0.13097607 0.53251517 103 95 104
0.07419614 -0.13077062 0.53167987 102 95 104
0.07493877 -0.13046364 0.53043181 105 97 106
0.07573706 -0.13025980 0.52960300 114 104 114
0.07677239 -0.13046364 0.53043181 137 120 132
0.10790385 -0.17908973 0.72813302 160 134 145
0.10857923 -0.17813306 0.72424340 170 132 147
0.10890026 -0.17662345 0.71810579 173 133 149
0.10921589 -0.17513922 0.71207124 174 134 149
0.11033075 -0.17495544 0.71132410 174 132 148
0.11167740 -0.17513922 0.71207124 175 130 146
0.11278968 -0.17495544 0.71132410 175 130 145
0.11389963 -0.17477205 0.71057844 174 127 143
0.11428921 -0.17349900 0.70540255 173 124 141
0.11479174 -0.17242248 0.70102566 167 118 134
0.11612349 -0.17260097 0.70175141 156 110 124
0.11733641 -0.17260097 0.70175141 145 106 117
0.11879528 -0.17295906 0.70320731 137 100 110
0.12026022 -0.17331864 0.70466930 130 97 106
0.12147819 -0.17331864 0.70466930 131 101 109
0.12269615 -0.17331864 0.70466930 129 103 110
0.12378544 -0.17313866 0.70393753 125 105 109
0.12487247 -0.17295906 0.70320731 127 109 111
0.12582685 -0.17260097 0.70175141 129 114 115
0.12690841 -0.17242248 0.70102566 130 119 119
0.12812006 -0.17242248 0.70102566 133 122 122
0.12933174 -0.17242248 0.70102566 136 125 126
0.47228059 -0.12405694 0.50438380 131 130 115
0.47209859 -0.12378065 0.50326043 129 129 114
0.47261757 -0.12368882 0.50288713 127 128 113
0.47243533 -0.12341417 0.50177044 126 127 113
0.47330260 -0.12341417 0.50177044 126 127 112
0.47381917 -0.12332288 0.50139928 126 127 111
0.47398463 -0.12314072 0.50065869 126 127 111
0.47520095 -0.12323173 0.50102872 126 127 112
0.47571531 -0.12314072 0.50065869 126 127 113
0.47658068 -0.12314072 0.50065869 125 126 112
0.47674182 -0.12295910 0.49992025 127 128 114
0.47776529 -0.12277801 0.49918398 127 128 114
0.47687230 -0.12232761 0.49735278 127 128 114
0.47668275 -0.12205896 0.49626049 128 128 114
0.47684234 -0.12188051 0.49553499 129 129 115
0.47734988 -0.12179148 0.49517301 131 129 116
0.47855532 -0.12188051 0.49553499 131 129 116
0.47906163 -0.12179148 0.49517301 130 128 115
0.48097149 -0.12205896 0.49626049 129 127 114
0.48112479 -0.12188051 0.49553499 128 126 112
1.79984808 -0.40865818 1.66149962 125 126 116
1.80714905 -0.40966225 1.66558194 125 126 116
1.80117691 -0.40765902 1.65743732 125 126 117
1.80846334 -0.40865818 1.66149962 128 129 121
1.81578553 -0.40966225 1.66558194 134 135 132
1.84128463 -0.41475755 1.68629813 131 132 130
1.85342026 -0.41683134 1.69472957 123 125 126
1.85634947 -0.41683134 1.69472957 111 115 121
1.82730091 -0.40966225 1.66558194 101 106 112
1.82123017 -0.40765902 1.65743732 91 102 111
1.81964588 -0.40666473 1.65339470 81 100 111
1.82250369 -0.40666473 1.65339470 76 97 107
1.83430922 -0.40865818 1.66149962 70 96 107
1.82377088 -0.40567526 1.64937186 66 96 109
1.84911704 -0.41067126 1.66968429 68 98 110
1.88449430 -0.41787603 1.69897699 71 101 111
1.87334549 -0.41475755 1.68629813 71 101 110
1.86236191 -0.41168529 1.67380702 68 97 107
1.85153985 -0.40865818 1.66149962 74 95 107
1.81004775 -0.39888167 1.62175083 75 95 107
-0.28048864 -0.12336875 0.50513548 150 154 154
-0.56917751 -0.32526690 1.33181107 150 150 152
-0.56136119 -0.32210284 1.31885576 148 148 149
-0.55799609 -0.32147738 1.31629479 135 135 139
-0.55572098 -0.32147738 1.31629479 105 105 110
-0.55237329 -0.32085437 1.31374383 93 92 99
-0.54797864 -0.31961554 1.30867147 114 114 121
-0.54571670 -0.31961554 1.30867147 165 139 153
-0.54662055 -0.32147738 1.31629479 174 148 160
-0.54329050 -0.32085437 1.31374383 182 154 163
-0.53893089 -0.31961554 1.30867147 178 150 159
0.06665737 -0.13129330 0.53758276 103 102 106
0.06742613 -0.13098168 0.53630686 99 98 102
0.06851571 -0.13129330 0.53758276 99 98 102
0.06928005 -0.13098168 0.53630686 101 96 101
0.06998555 -0.13056850 0.53461504 103 97 102
0.07079791 -0.13036288 0.53377312 104 98 103
0.07177702 -0.13046561 0.53419375 104 97 103
0.07258593 -0.13026030 0.53335315 103 97 104
0.07339229 -0.13005567 0.53251517 102 95 104
0.07419614 -0.12985165 0.53167987 101 96 106
0.07493877 -0.12954684 0.53043181 106 97 109
0.07573706 -0.12934442 0.52960300 115 102 115
0.07671237 -0.12944555 0.53001708 136 119 131
0.10801987 -0.17802243 0.72891593 161 133 144
0.10869536 -0.17707044 0.72501802 171 133 148
0.10913147 -0.17575462 0.71963042 173 133 148
0.10933073 -0.17409132 0.71281999 174 132 148
0.11056278 -0.17409132 0.71281999 177 130 148
0.11167740 -0.17390846 0.71207124 176 129 146
0.11278968 -0.17372598 0.71132410 176 129 146
0.11389963 -0.17354387 0.71057844 176 129 145
0.11428921 -0.17227976 0.70540255 173 126 142
0.11479174 -0.17121081 0.70102566 165 118 134
0.11612349 -0.17138804 0.70175141 155 110 123
0.11721507 -0.17121081 0.70102566 147 106 117
0.11879528 -0.17174363 0.70320731 138 99 110
0.12013534 -0.17192197 0.70393753 131 97 106
0.12135204 -0.17192197 0.70393753 133 99 109
0.12256874 -0.17192197 0.70393753 132 101 109
0.12352889 -0.17156565 0.70247859 130 103 108
0.12474307 -0.17156565 0.70247859 130 108 112
0.12556688 -0.17103393 0.70030147 131 114 116
0.12664646 -0.17085743 0.69957876 129 120 119
0.12798771 -0.17103393 0.70030147 134 125 124
0.47228059 -0.12318516 0.50438380 128 129 115
0.47244930 -0.12300212 0.50363433 126 127 113
0.47261757 -0.12281962 0.50288713 126 127 112
0.47278529 -0.12263767 0.50214213 126 127 111
0.47365320 -0.12263767 0.50214213 126 127 111
0.47381917 -0.12245625 0.50139928 126 127 111
0.47398463 -0.12227537 0.50065869 127 127 112
0.47520095 -0.12236574 0.50102872 127 127 112
0.47709367 -0.12218513 0.50028920 127 125 112
0.47690248 -0.12191521 0.49918398 127 126 112
0.47741374 -0.12182550 0.49881667 128 126 113
0.47652268 -0.12137893 0.49698815 129 127 114
0.47633404 -0.12111255 0.49589747 130 128 115
0.47649401 -0.12093561 0.49517301 131 129 115
0.47700146 -0.12084734 0.49481156 131 129 114
0.47785670 -0.12084734 0.49481156 132 129 113
0.47871193 -0.12084734 0.49481156 132 129 112
0.48061964 -0.12111255 0.49589747 130 127 112
1.82025790 -0.40778536 1.66968429 134 135 134
1.85978997 -0.41598204 1.70324588 131 132 132
1.86273384 -0.41598204 1.70324588 122 126 127
1.86567783 -0.41598204 1.70324588 108 118 122
1.83180153 -0.40778536 1.66968429 99 109 112
1.82123017 -0.40479428 1.65743732 87 104 108
1.81964588 -0.40380695 1.65339470 76 102 107
1.82695961 -0.40479428 1.65743732 72 98 103
1.83430922 -0.40578640 1.66149962 69 96 103
1.82377088 -0.40282446 1.64937186 68 96 103
1.86288226 -0.41082099 1.68211377 70 98 104
1.89877069 -0.41808295 1.71184814 74 102 109
1.89217305 -0.41598204 1.70324588 74 101 110
1.87626016 -0.41184291 1.68629813 70 97 106
1.85608912 -0.40678343 1.66558194 71 97 108
1.82753611 -0.39990544 1.63741994 71 96 108
-0.28157154 -0.12258700 0.50551218 149 153 154
-0.27965510 -0.12213163 0.50363433 150 154 155
-0.27750179 -0.12195043 0.50288713 149 154 156
-0.27601829 -0.12167963 0.50177044 149 153 154
-0.27474430 -0.12149976 0.50102872 149 153 153
-0.27387831 -0.12149976 0.50102872 149 153 152
-0.56136119 -0.31982329 1.31885576 145 145 145
-0.55583745 -0.31796744 1.31120276 134 134 138
-0.55250251 -0.31735361 1.30867147 105 105 113
-0.55024058 -0.31735361 1.30867147 94 93 101
-0.54797864 -0.31735361 1.30867147 99 98 106
-0.54361778 -0.31613302 1.30363810 156 132 141
-0.54450595 -0.31796744 1.31120276 175 150 159
0.06671027 -0.13046759 0.53800941 99 98 102
0.06753299 -0.13026084 0.53715676 99 98 102
0.06851571 -0.13036413 0.53758276 99 98 102
0.06933491 -0.13015769 0.53673148 99 97 102
0.07004078 -0.12974678 0.53503698 99 98 102
0.07079791 -0.12944029 0.53377312 101 99 103
0.07177702 -0.12954229 0.53419375 101 100 104
0.07258593 -0.12933846 0.53335315 101 99 105
0.07339229 -0.12913525 0.53251517 101 96 106
0.07419614 -0.12893268 0.53167987 102 91 105
0.07488018 -0.12852946 0.53001708 110 98 111
0.07567794 -0.12832879 0.52918959 118 104 117
0.07671237 -0.12852946 0.53001708 137 117 132
0.10801987 -0.17676255 0.72891593 161 133 146
0.10869536 -0.17581730 0.72501802 171 133 150
0.10936366 -0.17488210 0.72116154 174 131 150
0.10956115 -0.17322357 0.71432227 176 131 150
0.11079579 -0.17322357 0.71432227 177 130 150
0.11179484 -0.17285928 0.71281999 176 129 148
0.11278968 -0.17249651 0.71132410 176 129 147
0.11389963 -0.17231570 0.71057844 176 129 145
0.11428921 -0.17106053 0.70540255 171 124 140
0.11467315 -0.16982353 0.70030147 168 122 137
0.11612349 -0.17017514 0.70175141 158 113 126
0.11721507 -0.16999915 0.70102566 148 106 118
0.11867218 -0.17035148 0.70247859 141 100 111
0.12001072 -0.17052819 0.70320731 133 96 107
0.12122616 -0.17052819 0.70320731 133 98 108
0.12231471 -0.17035148 0.70247859 133 100 109
0.12340102 -0.17017514 0.70175141 132 104 111
0.12448507 -0.16999915 0.70102566 133 108 114
0.12543730 -0.16964827 0.69957876 135 113 118
0.12625557 -0.16912466 0.69741958 136 117 121
0.12746102 -0.16912466 0.69741958 132 122 123
0.47263223 -0.12240445 0.50475937 126 126 112
0.47280058 -0.12222243 0.50400883 126 125 111
0.47296843 -0.12204096 0.50326043 126 125 111
0.47278529 -0.12176976 0.50214213 127 125 112
0.47365320 -0.12176976 0.50214213 128 126 113
0.47416988 -0.12167963 0.50177044 128 126 113
0.47398463 -0.12141003 0.50065869 128 126 113
0.47776529 -0.12105241 0.49918398 129 127 112
0.47652268 -0.12051992 0.49698815 131 129 114
0.47633404 -0.12025543 0.49589747 131 129 114
0.47649401 -0.12007975 0.49517301 131 129 114
0.47665355 -0.11990458 0.49445066 130 128 112
0.47750816 -0.11990458 0.49445066 130 127 112
0.47836277 -0.11990458 0.49445066 129 127 112
0.48026830 -0.12016752 0.49553499 130 127 111
1.86447453 -0.41407853 1.70753610 128 129 129
1.86742592 -0.41407853 1.70753610 122 126 126
1.87037718 -0.41407853 1.70753610 111 120 120
1.83632457 -0.40589920 1.67380702 102 110 111
1.82569396 -0.40291464 1.66149962 91 103 107
1.82695961 -0.40192953 1.65743732 82 98 106
1.83881617 -0.40390462 1.66558194 78 100 107
1.82821918 -0.40094921 1.65339470 73 101 107
1.88628531 -0.41303813 1.70324588 70 98 104
1.91138303 -0.41723141 1.72053766 70 97 105
1.89511704 -0.41303813 1.70324588 69 96 105
1.86066067 -0.40489945 1.66968429 70 96 107
1.84087574 -0.39997366 1.64937186 70 96 107
1.79142225 -0.38862690 1.60258114 70 96 108
-0.28157154 -0.12171327 0.50551218 148 152 153
-0.27965510 -0.12126114 0.50363433 148 152 153
-0.27816463 -0.12099147 0.50251436 148 152 153
-0.27770779 -0.12117112 0.50326043 148 153 154
-0.27622277 -0.12090185 0.50214213 147 151 152
-0.27494752 -0.12072299 0.50139928 147 151 152
-0.27408087 -0.12072299 0.50139928 147 151 152
-0.27260935 -0.12045571 0.50028920 147 151 152
-0.56027120 -0.31692716 1.31629479 144 144 148
-0.55476445 -0.31509170 1.30867147 132 132 137
-0.55037749 -0.31387979 1.30363810 104 103 112
-0.54707217 -0.31327733 1.30113602 93 88 98
-0.54153496 -0.31267717 1.29864335 145 123 137
-0.54136455 -0.31387979 1.30363810 177 151 165
0.06676326 -0.12964058 0.53843671 98 97 101
0.06758654 -0.12943497 0.53758276 99 98 102
0.06857008 -0.12953769 0.53800941 99 98 102
0.06933491 -0.12923001 0.53673148 99 98 102
0.06998555 -0.12872042 0.53461504 101 100 104
0.07074221 -0.12841660 0.53335315 100 99 103
0.07172050 -0.12851772 0.53377312 103 99 106
0.07258593 -0.12841660 0.53335315 103 98 106
0.07339229 -0.12821484 0.53251517 102 95 109
0.07413799 -0.12791340 0.53126317 102 90 103
0.07482169 -0.12751366 0.52960300 111 99 112
0.07561891 -0.12731473 0.52877676 120 106 119
0.07659260 -0.12741412 0.52918959 136 110 127
0.10722116 -0.17626078 0.73206460 151 124 141
0.10790385 -0.17531417 0.72813302 161 132 150
0.10869536 -0.17456417 0.72501802 170 132 151
0.10948014 -0.17382054 0.72192955 173 131 151
0.10979253 -0.17235215 0.71583086 176 130 151
0.11126477 -0.17271693 0.71734589 176 131 150
0.11203044 -0.17198893 0.71432227 176 131 149
0.11290816 -0.17144695 0.71207124 175 130 147
0.11401915 -0.17126705 0.71132410 176 129 147
0.11440826 -0.17001823 0.70613736 175 128 144
0.11479174 -0.16878748 0.70102566 168 122 136
0.11612349 -0.16896221 0.70175141 158 113 125
0.11733641 -0.16896221 0.70175141 148 106 117
0.11867218 -0.16913730 0.70247859 140 100 111
0.12001072 -0.16931275 0.70320731 132 97 107
0.12110054 -0.16913730 0.70247859 133 98 108
0.12218809 -0.16896221 0.70175141 134 103 111
0.12327340 -0.16878748 0.70102566 132 108 113
0.12448507 -0.16878748 0.70102566 134 112 116
0.12530798 -0.16826546 0.69885755 136 115 119
0.12586710 -0.16740255 0.69527370 137 118 122
0.47296843 -0.12117112 0.50326043 126 124 111
0.47313577 -0.12099147 0.50251436 127 125 112
0.47400433 -0.12099147 0.50251436 128 126 113
0.47452110 -0.12090185 0.50214213 129 127 114
0.47433496 -0.12063377 0.50102872 130 128 115
0.47811738 -0.12027818 0.49955183 129 128 112
0.47652268 -0.11966092 0.49698815 130 129 114
0.47668275 -0.11948572 0.49626049 130 129 114
0.47649401 -0.11922388 0.49517301 129 128 113
0.47750816 -0.11904996 0.49445066 129 127 112
0.47836277 -0.11904996 0.49445066 130 127 112
0.47991750 -0.11922388 0.49517301 131 125 114
0.48077336 -0.11922388 0.49517301 131 124 114
1.87867105 -0.41425759 1.72053766 128 129 129
1.88164485 -0.41425759 1.72053766 126 127 128
1.88461864 -0.41425759 1.72053766 121 122 126
1.84543788 -0.40500620 1.68211377 108 109 113
1.83468747 -0.40201354 1.66968429 95 100 107
1.83305848 -0.40102577 1.66558194 86 96 106
1.83593726 -0.40102577 1.66558194 89 98 108
1.84334528 -0.40201354 1.66968429 82 102 109
1.91028380 -0.41531169 1.72491562 68 96 102
1.92305171 -0.41743603 1.73373878 69 96 103
1.92113495 -0.41637117 1.72931588 69 97 104
1.90468836 -0.41216537 1.71184814 69 96 104
1.86987197 -0.40400371 1.67795014 69 96 106
1.84987760 -0.39906478 1.65743732 69 96 107
1.80852413 -0.38954055 1.61788034 68 94 106
-0.28157154 -0.12083953 0.50551218 143 148 149
-0.27986303 -0.12048016 0.50400883 144 150 150
-0.27770779 -0.12030127 0.50326043 142 150 148
-0.27642751 -0.12012292 0.50251436 141 149 148
-0.27515101 -0.11994509 0.50177044 142 149 149
-0.27428377 -0.11994509 0.50177044 144 149 149
-0.27281070 -0.11967933 0.50065869 144 149 150
-0.27254921 -0.11994509 0.50177044 146 149 148
-0.55476445 -0.31282976 1.30867147 132 131 136
-0.54826874 -0.31043258 1.29864335 103 101 110
-0.54394013 -0.30924773 1.29368675 95 90 102
-0.54273981 -0.30983904 1.29616034 103 92 108
0.06747951 -0.12830231 0.53673148 99 97 104
0.06851571 -0.12850580 0.53758276 99 98 102
0.06922529 -0.12809946 0.53588289 99 98 102
0.06987533 -0.12759513 0.53377312 101 100 105
0.07068659 -0.12739451 0.53293383 101 100 105
0.07166407 -0.12749474 0.53335315 102 99 108
0.07252886 -0.12739451 0.53293383 102 98 109
0.07333469 -0.12719451 0.53209722 103 98 110
0.07407993 -0.12689570 0.53084719 102 95 108
0.07470496 -0.12640078 0.52877676 107 98 112
0.07550112 -0.12620391 0.52795315 117 105 123
0.07653286 -0.12640078 0.52877676 132 109 128
0.10710550 -0.17480670 0.73127490 149 123 142
0.10790385 -0.17405565 0.72813302 162 131 150
0.10869536 -0.17331102 0.72501802 167 133 153
0.10948014 -0.17257275 0.72192955 172 134 154
0.11014145 -0.17165869 0.71810579 174 133 153
0.11161911 -0.17202315 0.71963042 175 133 151
0.11226704 -0.17111491 0.71583086 176 133 149
0.11314586 -0.17057455 0.71357036 175 131 147
0.11401915 -0.17003758 0.71132410 174 130 145
0.11452756 -0.16897373 0.70687366 172 127 139
0.11491057 -0.16774929 0.70175141 167 122 133
0.11624382 -0.16792312 0.70247859 158 113 124
0.11733641 -0.16774929 0.70175141 146 107 118
0.11879528 -0.16809732 0.70320731 138 101 111
0.12001072 -0.16809732 0.70320731 133 98 108
0.12110054 -0.16792312 0.70247859 133 104 110
0.12218809 -0.16774929 0.70175141 135 108 113
0.12314605 -0.16740270 0.70030147 134 113 114
0.12435647 -0.16740270 0.70030147 136 116 115
0.12530798 -0.16705754 0.69885755 136 117 115
0.12586710 -0.16620083 0.69527370 137 120 117
0.47416988 -0.11994509 0.50177044 130 128 116
0.47433496 -0.11976779 0.50102872 131 129 118
0.47760588 -0.11950281 0.49992025 128 129 113
0.47776529 -0.11932682 0.49918398 129 130 114
0.47652268 -0.11880191 0.49698815 129 130 115
0.47633404 -0.11854120 0.49589747 128 129 114
0.47716013 -0.11810919 0.49409026 128 126 113
0.47801411 -0.11810919 0.49409026 128 125 113
0.47921738 -0.11819534 0.49445066 128 124 114
0.48042244 -0.11828162 0.49481156 128 124 115
1.83126688 -0.40410426 1.69050336 127 128 121
1.88825607 -0.41338217 1.72931588 129 130 130
1.89124513 -0.41338217 1.72931588 126 127 129
1.89423406 -0.41338217 1.72931588 120 122 127
1.87332857 -0.40817586 1.70753610 106 108 113
1.86687505 -0.40612987 1.69897699 93 99 107
1.86048579 -0.40410426 1.69050336 85 94 105
1.85877240 -0.40309903 1.68629813 85 94 106
1.85247076 -0.40110350 1.67795014 77 95 106
1.92798257 -0.41550207 1.73818421 70 95 107
1.92604828 -0.41443941 1.73373878 70 95 107
1.90951037 -0.41024256 1.71618187 70 95 107
1.87917471 -0.40309903 1.68629813 69 95 107
1.85441160 -0.39717111 1.66149962 69 95 107
1.83036625 -0.39141500 1.63741994 68 94 107
-0.27581415 -0.11898974 0.50139928 140 148 146
-0.27474430 -0.11890180 0.50102872 141 150 147
-0.27408087 -0.11898974 0.50139928 143 150 148
-0.27260935 -0.11872630 0.50028920 143 149 148
-0.27214634 -0.11890180 0.50102872 144 149 148
-0.27081469 -0.11907782 0.50177044 143 147 146
-0.55583745 -0.31116852 1.31120276 130 131 133
-0.54826874 -0.30818799 1.29864335 103 101 111
-0.54187191 -0.30584437 1.28876781 89 84 96
-0.53862035 -0.30526400 1.28632224 107 90 105
0.06758654 -0.12757663 0.53758276 101 96 105
0.06857008 -0.12767789 0.53800941 100 98 105
0.06928005 -0.12727384 0.53630686 102 100 107
0.06987533 -0.12667255 0.53377312 101 99 106
0.07063107 -0.12637402 0.53251517 99 97 104
0.07160773 -0.12647337 0.53293383 99 97 104
0.07247189 -0.12637402 0.53251517 99 97 104
0.07327718 -0.12617579 0.53167987 98 96 105
0.07402197 -0.12587960 0.53043181 99 95 105
0.07464673 -0.12538904 0.52836466 103 98 109
0.07544237 -0.12519388 0.52754229 118 108 125
0.07647321 -0.12538904 0.52836466 131 115 132
0.10790385 -0.17279713 0.72813302 163 132 151
0.10869536 -0.17205790 0.72501802 170 136 156
0.10948014 -0.17132495 0.72192955 173 139 158
0.11014145 -0.17041752 0.71810579 174 138 158
0.11161911 -0.17077933 0.71963042 175 136 153
0.11238571 -0.17005722 0.71658754 173 133 149
0.11314586 -0.16934119 0.71357036 172 132 146
0.11413892 -0.16898543 0.71207124 172 130 144
0.11464711 -0.16792707 0.70761150 168 126 138
0.11502965 -0.16670895 0.70247859 164 122 134
0.11636441 -0.16688187 0.70320731 154 114 124
0.11745800 -0.16670895 0.70247859 146 107 118
0.11891864 -0.16705517 0.70393753 140 102 113
0.12001072 -0.16688187 0.70320731 135 102 109
0.12097517 -0.16653636 0.70175141 135 107 111
0.12206174 -0.16636415 0.70102566 139 112 114
0.12314605 -0.16619228 0.70030147 138 115 114
0.12435647 -0.16619228 0.70030147 138 116 115
0.12530798 -0.16584963 0.69885755 138 118 116
0.12599632 -0.16516851 0.69598752 136 122 118
0.12706882 -0.16499911 0.69527370 136 126 123
0.47381917 -0.11898974 0.50139928 127 126 117
0.47725394 -0.11855131 0.49955183 130 128 113
0.47776529 -0.11846402 0.49918398 130 128 114
0.47617358 -0.11785650 0.49662405 129 129 116
0.47633404 -0.11768407 0.49589747 127 128 116
0.47646555 -0.11708452 0.49337107 126 126 115
0.47731832 -0.11708452 0.49337107 127 126 116
0.47851932 -0.11716980 0.49373040 128 125 117
0.48007202 -0.11734072 0.49445066 128 125 117
1.59187245 -0.35670540 1.50308609 125 123 115
1.87510562 -0.41144279 1.73373878 124 126 117
1.85438883 -0.40624779 1.71184814 125 127 118
