ply
format ascii 1.0
element vertex 1113
property float x
property float y
property float z
property uchar red
property uchar green
property uchar blue
end_header
0.33041234 -0.29004457 1.01824734 77 80 86
0.33041248 -0.26980516 1.01824777 77 78 85
0.33041259 -0.25044570 1.01824810 77 78 85
0.33041267 -0.23020622 1.01824834 77 77 85
0.33041273 -0.20996672 1.01824852 76 77 84
0.33041278 -0.18972721 1.01824869 76 76 85
0.33041283 -0.16948768 1.01824882 75 76 85
0.33041287 -0.15012813 1.01824895 75 75 82
0.33041293 -0.12988861 1.01824914 47 45 46
0.33041293 -0.10964905 1.01824915 44 42 44
0.33041294 -0.09028948 1.01824916 44 42 42
0.33041297 -0.07004993 1.01824927 43 40 42
0.33041297 -0.04981038 1.01824927 47 44 46
0.33041299 -0.03045080 1.01824933 104 100 105
0.33041302 -0.01021125 1.01824942 107 108 111
0.33041305 0.01002832 1.01824951 111 109 112
0.33041305 0.03026788 1.01824951 122 116 118
0.33041305 0.05050744 1.01824951 119 114 114
0.33041305 0.06986702 1.01824951 122 116 115
0.33041305 0.09010658 1.01824951 118 112 107
0.33041305 0.11034614 1.01824951 104 97 95
0.33041305 0.12970573 1.01824952 98 92 90
0.33041309 0.14994530 1.01824963 89 86 87
0.33041309 0.17018487 1.01824963 94 91 90
0.33041309 0.18954445 1.01824963 136 130 124
0.33041309 0.20978401 1.01824963 123 117 115
0.33041309 0.23002358 1.01824963 124 117 115
0.33041309 0.25026314 1.01824963 132 124 121
0.33041309 0.27050271 1.01824963 123 118 115
0.33041309 0.28986229 1.01824963 113 109 107
0.33041309 0.31010185 1.01824963 111 110 108
0.33041309 0.33034142 1.01824963 102 98 96
0.33041309 0.34970100 1.01824963 116 110 106
0.33041309 0.36994057 1.01824963 128 123 118
0.33041309 0.39018013 1.01824963 106 100 97
0.33041309 0.40953971 1.01824963 124 119 117
0.33041309 0.42977928 1.01824963 26 25 25
0.33041309 0.45001884 1.01824963 0 0 0
0.33041309 0.47025840 1.01824963 0 0 0
0.33041309 0.49049797 1.01824963 0 0 0
0.33041309 0.50985755 1.01824963 0 0 0
0.33041309 0.53009712 1.01824963 0 0 0
0.33041309 0.55033668 1.01824963 0 0 0
0.33041309 0.56969626 1.01824963 0 0 0
0.34977267 -0.68427673 1.01824963 0 0 0
0.34977267 -0.67019703 1.01824963 0 0 0
0.34977267 -0.64995747 1.01824963 0 0 0
0.34977267 -0.62971791 1.01824963 0 0 0
0.34977267 -0.60947834 1.01824963 0 0 0
0.34902535 -0.59511025 1.01823156 53 54 53
0.35439747 -0.52074287 0.87441891 91 93 90
0.35040610 -0.50956566 0.87441891 93 96 95
0.35024122 -0.49013778 0.87441891 90 93 94
0.35024122 -0.47049007 0.87441891 88 92 93
0.35024122 -0.45008668 0.87441891 87 90 91
0.35024122 -0.42968329 0.87441891 87 90 91
0.35024122 -0.41003558 0.87441891 85 88 88
0.35024122 -0.39038787 0.87441891 83 86 90
0.35028052 -0.38625680 1.01773047 81 83 85
0.35024122 -0.36998448 0.87441891 84 85 88
0.34976889 -0.37011948 1.01823862 81 82 86
0.35034644 -0.35021242 0.87441891 83 85 87
0.34977074 -0.34988200 1.01824402 79 81 86
0.34977136 -0.32964313 1.01824581 79 80 85
0.34977168 -0.31028391 1.01824676 79 80 85
0.34977189 -0.29004457 1.01824736 78 80 86
0.34977204 -0.26980517 1.01824780 78 79 85
0.34977215 -0.25044570 1.01824812 77 78 84
0.34977223 -0.23020622 1.01824836 76 76 84
0.34977230 -0.20996672 1.01824854 76 76 83
0.34977236 -0.18972721 1.01824871 75 75 84
0.34977240 -0.16948769 1.01824884 74 75 84
0.34977244 -0.15012813 1.01824896 73 73 80
0.34977250 -0.12988861 1.01824914 45 44 45
0.34977251 -0.10964905 1.01824915 44 42 44
0.34977252 -0.09028948 1.01824918 43 41 42
0.34977255 -0.07004993 1.01824927 43 40 42
0.34977255 -0.04981038 1.01824927 47 44 47
0.34977257 -0.03045080 1.01824933 99 95 96
0.34977260 -0.01021125 1.01824942 110 110 113
0.34977263 0.01002832 1.01824951 109 107 111
0.34977263 0.03026788 1.01824951 119 116 117
0.34977263 0.05050744 1.01824951 114 109 111
0.34977263 0.06986702 1.01824951 117 112 110
0.34977263 0.09010658 1.01824951 118 110 108
0.34977263 0.11034614 1.01824951 98 93 91
0.34977263 0.12970573 1.01824952 95 90 89
0.34977267 0.14994530 1.01824963 90 84 85
0.34977267 0.17018487 1.01824963 105 100 98
0.34977267 0.18954445 1.01824963 126 119 114
0.34977267 0.20978401 1.01824963 134 129 126
0.34977267 0.23002358 1.01824963 126 122 119
0.34977267 0.25026314 1.01824963 127 120 116
0.34977267 0.27050271 1.01824963 133 127 124
0.34977267 0.28986229 1.01824963 118 113 107
0.34977267 0.31010185 1.01824963 131 127 122
0.34977267 0.33034142 1.01824963 119 113 110
0.34977267 0.34970100 1.01824963 119 114 113
0.34977267 0.36994057 1.01824963 97 90 86
0.34977267 0.39018013 1.01824963 91 85 84
0.34977267 0.40953971 1.01824963 121 115 111
0.34977267 0.42977928 1.01824963 33 30 30
0.34977267 0.45001884 1.01824963 0 0 0
0.34977267 0.47025840 1.01824963 0 0 0
0.34977267 0.49049797 1.01824963 0 0 0
0.34977267 0.50985755 1.01824963 0 0 0
0.34977267 0.53009712 1.01824963 0 0 0
0.34977267 0.55033668 1.01824963 0 0 0
0.34977267 0.56969626 1.01824963 0 0 0
0.37001224 -0.68427673 1.01824963 0 0 0
0.37001224 -0.67019703 1.01824963 0 0 0
0.37001224 -0.64995747 1.01824963 0 0 0
0.37001224 -0.62971791 1.01824963 0 0 0
0.37001223 -0.60947833 1.01824961 5 5 5
0.36775094 -0.59784091 1.01823875 83 88 89
0.37152892 -0.52261600 0.87441891 93 96 94
0.36988893 -0.50978550 0.87441891 92 94 92
0.36988893 -0.49013778 0.87441891 89 92 92
0.36988893 -0.47049007 0.87441891 88 92 91
0.36988893 -0.45008668 0.87441891 87 90 90
0.36988893 -0.42968329 0.87441891 86 89 89
0.36988893 -0.41003558 0.87441891 86 88 88
0.36988893 -0.39038787 0.87441891 84 86 88
0.37033857 -0.38716429 1.01802080 82 83 87
0.36988893 -0.36998448 0.87441891 85 86 88
0.37000858 -0.37011983 1.01823957 81 82 85
0.36988893 -0.34958109 0.87441891 84 86 88
0.37001027 -0.34988207 1.01824422 80 81 84
0.37001088 -0.32964316 1.01824590 79 80 87
0.37001121 -0.31028392 1.01824680 80 80 86
0.37001141 -0.29004458 1.01824737 78 80 85
0.37001157 -0.26980517 1.01824780 78 78 84
0.37001169 -0.25044570 1.01824812 76 78 84
0.37001177 -0.23020622 1.01824836 76 76 85
0.37001185 -0.20996672 1.01824856 75 76 83
0.37001191 -0.18972721 1.01824873 75 75 83
0.37001196 -0.16948769 1.01824886 74 75 83
0.37001200 -0.15012814 1.01824897 72 72 78
0.37001206 -0.12988861 1.01824915 45 43 45
0.37001206 -0.10964905 1.01824915 44 41 43
0.37001208 -0.09028948 1.01824919 43 42 43
0.37001211 -0.07004993 1.01824927 43 41 42
0.37001211 -0.04981038 1.01824927 47 43 45
0.37001213 -0.03045080 1.01824934 100 94 97
0.37001216 -0.01021125 1.01824943 115 113 116
0.37001219 0.01002832 1.01824951 106 105 109
0.37001219 0.03026788 1.01824951 113 109 110
0.37001219 0.05050744 1.01824951 123 119 117
0.37001219 0.06986702 1.01824951 120 112 111
0.37001219 0.09010658 1.01824951 116 110 104
0.37001219 0.11034614 1.01824951 102 96 94
0.37001220 0.12970573 1.01824953 90 84 85
0.37001224 0.14994530 1.01824963 100 95 93
0.37001224 0.17018487 1.01824963 101 96 95
0.37001224 0.18954445 1.01824963 131 124 120
0.37001224 0.20978401 1.01824963 127 121 116
0.37001224 0.23002358 1.01824963 137 132 129
0.37001224 0.25026314 1.01824963 120 114 112
0.37001224 0.27050271 1.01824963 119 111 109
0.37001224 0.28986229 1.01824963 128 124 122
0.37001224 0.31010185 1.01824963 115 110 105
0.37001224 0.33034142 1.01824963 118 114 111
0.37001224 0.34970100 1.01824963 128 122 117
0.37001224 0.36994057 1.01824963 114 105 101
0.37001224 0.39018013 1.01824963 121 117 113
0.37001224 0.40953971 1.01824963 100 95 95
0.37001224 0.42977928 1.01824963 37 36 36
0.37001224 0.45001884 1.01824963 0 0 0
0.37001224 0.47025840 1.01824963 0 0 0
0.37001224 0.49049797 1.01824963 0 0 0
0.37001224 0.50985755 1.01824963 0 0 0
0.37001224 0.53009712 1.01824963 0 0 0
0.37001224 0.55033668 1.01824963 0 0 0
0.37001224 0.56969626 1.01824963 0 0 0
0.39025180 -0.68427673 1.01824963 0 0 0
0.39025180 -0.67019703 1.01824963 0 0 0
0.39025180 -0.64995747 1.01824963 0 0 0
0.39025180 -0.62971791 1.01824963 0 0 0
0.38985542 -0.61029136 1.01821757 20 21 20
0.38307221 -0.59870069 1.01787921 89 95 92
0.39035278 -0.52556412 0.87441891 92 95 93
0.38953664 -0.50978550 0.87441891 91 93 92
0.38953664 -0.49013778 0.87441891 88 91 91
0.38953664 -0.47049007 0.87441891 89 91 89
0.38953664 -0.45008668 0.87441891 87 90 92
0.38953664 -0.42968329 0.87441891 87 89 91
0.38953664 -0.41003558 0.87441891 84 89 88
0.38953664 -0.39038787 0.87441891 85 87 89
0.39042194 -0.38794483 1.01815362 82 84 86
0.38953664 -0.36998448 0.87441891 84 86 88
0.39024811 -0.37011998 1.01824000 82 83 86
0.38953664 -0.34958109 0.87441891 83 86 88
0.39024974 -0.34988209 1.01824427 78 82 85
0.39331505 -0.33900155 0.87441891 84 88 88
0.39025037 -0.32964316 1.01824590 79 81 85
0.39025072 -0.31028393 1.01824681 79 80 86
0.39025094 -0.29004458 1.01824738 79 80 85
0.39025110 -0.26980517 1.01824779 78 79 83
0.39025122 -0.25044570 1.01824812 77 77 82
0.39025132 -0.23020623 1.01824838 76 77 83
0.39025140 -0.20996673 1.01824858 75 75 84
0.39025146 -0.18972721 1.01824874 74 75 83
0.39025151 -0.16948769 1.01824888 75 75 82
0.39025155 -0.15012814 1.01824899 71 70 76
0.39025162 -0.12988861 1.01824915 45 43 44
0.39025162 -0.10964905 1.01824915 44 41 43
0.39025164 -0.09028949 1.01824921 44 41 44
0.39025166 -0.07004993 1.01824927 44 41 42
0.39025166 -0.04981038 1.01824927 47 44 46
0.39025169 -0.03045080 1.01824934 98 94 98
0.39025172 -0.01021125 1.01824943 123 121 121
0.39025175 0.01002832 1.01824951 109 105 109
0.39025175 0.03026788 1.01824951 105 104 105
0.39025175 0.05050744 1.01824951 120 116 114
0.39025175 0.06986702 1.01824951 117 113 110
0.39025175 0.09010658 1.01824951 114 108 105
0.39025175 0.11034614 1.01824951 102 97 94
0.39025176 0.12970573 1.01824953 92 88 87
0.39025180 0.14994530 1.01824963 87 82 82
0.39025180 0.17018487 1.01824963 101 97 95
0.39025180 0.18954445 1.01824963 131 128 123
0.39025180 0.20978401 1.01824963 118 113 114
0.39025180 0.23002358 1.01824963 126 119 115
0.39025180 0.25026314 1.01824963 129 125 121
0.39025180 0.27050271 1.01824963 124 118 115
0.39025180 0.28986229 1.01824963 129 124 121
0.39025180 0.31010185 1.01824963 95 91 90
0.39025180 0.33034142 1.01824963 137 133 127
0.39025180 0.34970100 1.01824963 116 108 105
0.39025180 0.36994057 1.01824963 105 98 95
0.39025180 0.39018013 1.01824963 120 113 109
0.39025180 0.40953971 1.01824963 121 114 110
0.39025180 0.42977928 1.01824963 58 56 54
0.39025180 0.45001884 1.01824963 0 0 0
0.39025180 0.47025840 1.01824963 0 0 0
0.39025180 0.49049797 1.01824963 0 0 0
0.39025180 0.50985755 1.01824963 0 0 0
0.39025180 0.53009712 1.01824963 0 0 0
0.39025180 0.55033668 1.01824963 0 0 0
0.39025180 0.56969626 1.01824963 0 0 0
0.40961138 -0.68427673 1.01824963 0 0 0
0.40961138 -0.67019703 1.01824963 0 0 0
0.40961138 -0.64995747 1.01824963 0 0 0
0.40961138 -0.62971791 1.01824963 0 0 0
0.40893347 -0.61279370 1.01824712 26 27 26
0.41065646 -0.52804943 0.87441891 91 93 94
0.40994004 -0.50978550 0.87441891 91 92 93
0.40994004 -0.49013778 0.87441891 89 92 91
0.40994004 -0.47049007 0.87441891 88 91 91
0.40994004 -0.45008668 0.87441891 87 90 90
0.40994004 -0.42968329 0.87441891 86 89 90
0.40994004 -0.41003558 0.87441891 86 88 89
0.40994004 -0.39038787 0.87441891 86 87 89
0.40924105 -0.38824108 1.01769601 82 84 85
0.40994004 -0.36998448 0.87441891 86 87 88
0.40960755 -0.37012002 1.01824009 81 83 85
0.40994004 -0.34958109 0.87441891 85 86 88
0.40960922 -0.34988208 1.01824426 80 82 86
0.40960989 -0.32964317 1.01824592 80 81 87
0.40961026 -0.31028394 1.01824685 81 81 87
0.40961048 -0.29004458 1.01824739 79 79 86
0.40961064 -0.26980517 1.01824779 77 78 83
0.40961077 -0.25044570 1.01824812 76 77 84
0.40961088 -0.23020623 1.01824838 75 75 82
0.40961096 -0.20996673 1.01824858 75 75 82
0.40961102 -0.18972722 1.01824874 74 75 82
0.40961108 -0.16948769 1.01824888 74 75 81
0.40961113 -0.15012814 1.01824901 69 70 75
0.40961119 -0.12988861 1.01824915 45 43 44
0.40961119 -0.10964905 1.01824915 43 41 43
0.40961122 -0.09028949 1.01824922 45 42 43
0.40961124 -0.07004993 1.01824927 45 40 42
0.40961124 -0.04981038 1.01824927 48 45 46
0.40961127 -0.03045080 1.01824935 102 100 101
0.40961130 -0.01021125 1.01824943 133 129 128
0.40961133 0.01002832 1.01824951 113 110 112
0.40961133 0.03026788 1.01824951 99 97 100
0.40961133 0.05050744 1.01824951 106 102 104
0.40961133 0.06986702 1.01824951 120 114 112
0.40961133 0.09010658 1.01824951 115 107 104
0.40961133 0.11034614 1.01824951 100 94 92
0.40961134 0.12970573 1.01824953 87 83 83
0.40961138 0.14994530 1.01824963 96 90 90
0.40961138 0.17018487 1.01824963 112 106 102
0.40961138 0.18954445 1.01824963 137 129 126
0.40961138 0.20978401 1.01824963 136 130 129
0.40961138 0.23002358 1.01824963 129 124 122
0.40961138 0.25026314 1.01824963 111 105 103
0.40961138 0.27050271 1.01824963 130 123 120
0.40961138 0.28986229 1.01824963 127 119 114
0.40961138 0.31010185 1.01824963 116 114 112
0.40961138 0.33034142 1.01824963 119 109 108
0.40961138 0.34970100 1.01824963 103 97 90
0.40961138 0.36994057 1.01824963 124 121 116
0.40961138 0.39018013 1.01824963 101 97 96
0.40961138 0.40953971 1.01824963 92 86 85
0.40961138 0.42977928 1.01824963 65 62 60
0.40961138 0.45001884 1.01824963 0 0 0
0.40961138 0.47025840 1.01824963 0 0 0
0.40961138 0.49049797 1.01824963 0 0 0
0.40961138 0.50985755 1.01824963 0 0 0
0.40961138 0.53009712 1.01824963 0 0 0
0.40961138 0.55033668 1.01824963 0 0 0
0.40961138 0.56969626 1.01824963 0 0 0
0.42985095 -0.68427673 1.01824963 0 0 0
0.42985095 -0.67019703 1.01824963 0 0 0
0.42985095 -0.64995747 1.01824963 0 0 0
0.42985095 -0.62971791 1.01824963 0 0 0
0.42847865 -0.61494890 1.01824151 52 54 52
0.43402327 -0.54126126 0.87441891 90 95 94
0.43034343 -0.52943321 0.87441891 89 93 92
0.43034343 -0.50978550 0.87441891 89 91 91
0.43034343 -0.49013778 0.87441891 90 90 91
0.43034343 -0.47049007 0.87441891 89 90 91
0.43034343 -0.45008668 0.87441891 88 90 90
0.43034343 -0.42968329 0.87441891 87 89 89
0.43034343 -0.41003558 0.87441891 85 88 88
0.43034343 -0.39038787 0.87441891 85 87 88
0.42982251 -0.38769717 1.01818226 81 83 86
0.43034343 -0.36998448 0.87441891 85 86 88
0.42984684 -0.37011995 1.01823990 80 82 85
0.43034343 -0.34958109 0.87441891 83 86 87
0.42984870 -0.34988210 1.01824430 81 82 86
0.42984941 -0.32964319 1.01824600 81 83 86
0.42984979 -0.31028395 1.01824688 81 81 86
0.42985001 -0.29004459 1.01824741 80 80 85
0.42985017 -0.26980517 1.01824780 77 78 85
0.42985031 -0.25044570 1.01824812 76 77 84
0.42985042 -0.23020623 1.01824838 75 76 81
0.42985051 -0.20996673 1.01824859 75 76 82
0.42985057 -0.18972722 1.01824874 74 75 81
0.42985063 -0.16948769 1.01824889 75 75 83
0.42985069 -0.15012814 1.01824901 68 68 72
0.42985075 -0.12988861 1.01824915 45 43 44
0.42985075 -0.10964905 1.01824915 43 42 42
0.42985078 -0.09028949 1.01824923 44 43 43
0.42985080 -0.07004993 1.01824927 43 41 42
0.42985080 -0.04981038 1.01824927 49 45 46
0.42985083 -0.03045080 1.01824936 100 98 101
0.42985087 -0.01021125 1.01824944 136 133 133
0.42985090 0.01002832 1.01824951 122 118 118
0.42985090 0.03026788 1.01824951 103 101 101
0.42985090 0.05050744 1.01824951 109 106 106
0.42985090 0.06986702 1.01824951 125 119 118
0.42985090 0.09010658 1.01824951 117 108 103
0.42985090 0.11034614 1.01824951 100 96 94
0.42985091 0.12970573 1.01824953 89 87 87
0.42985095 0.14994530 1.01824963 88 85 85
0.42985095 0.17018487 1.01824963 107 102 99
0.42985095 0.18954445 1.01824963 120 114 111
0.42985095 0.20978401 1.01824963 109 104 102
0.42985095 0.23002358 1.01824963 136 131 128
0.42985095 0.25026314 1.01824963 122 117 115
0.42985095 0.27050271 1.01824963 121 117 113
0.42985095 0.28986229 1.01824963 107 102 99
0.42985095 0.31010185 1.01824963 122 116 113
0.42985095 0.33034142 1.01824963 121 114 110
0.42985095 0.34970100 1.01824963 124 118 114
0.42985095 0.36994057 1.01824963 104 100 94
0.42985095 0.39018013 1.01824963 110 104 98
0.42985095 0.40953971 1.01824963 116 113 111
0.42985095 0.42977928 1.01824963 70 67 67
0.42985095 0.45001884 1.01824963 0 0 0
0.42985095 0.47025840 1.01824963 0 0 0
0.42985095 0.49049797 1.01824963 0 0 0
0.42985095 0.50985755 1.01824963 0 0 0
0.42985095 0.53009712 1.01824963 0 0 0
0.42985095 0.55033668 1.01824963 0 0 0
0.42985095 0.56969626 1.01824963 0 0 0
0.45009051 -0.68427673 1.01824963 0 0 0
0.45009051 -0.67019703 1.01824963 0 0 0
0.45009051 -0.64995747 1.01824963 0 0 0
0.44996865 -0.62986680 1.01824959 6 6 6
0.44552862 -0.61737717 1.01821501 90 90 87
0.45116191 -0.54358892 0.87441891 92 90 92
0.44999114 -0.52943321 0.87441891 88 92 92
0.44999114 -0.50978550 0.87441891 88 91 92
0.44999114 -0.49013778 0.87441891 87 91 91
0.44999114 -0.47049007 0.87441891 87 91 91
0.44999114 -0.45008668 0.87441891 87 89 90
0.44999114 -0.42968329 0.87441891 87 90 89
0.44999114 -0.41003558 0.87441891 86 88 89
0.44999114 -0.39038787 0.87441891 86 87 89
0.44984572 -0.38744474 1.01790524 82 85 87
0.44999114 -0.36998448 0.87441891 86 87 88
0.45008622 -0.37011996 1.01823992 81 83 86
0.44999114 -0.34958109 0.87441891 84 88 87
0.45008817 -0.34988211 1.01824433 80 82 87
0.45008892 -0.32964320 1.01824603 82 83 86
0.45008930 -0.31028395 1.01824690 81 81 87
0.45008952 -0.29004458 1.01824739 79 81 85
0.45008970 -0.26980517 1.01824779 78 79 83
0.45008984 -0.25044570 1.01824812 77 79 83
0.45008996 -0.23020623 1.01824838 75 76 84
0.45009005 -0.20996673 1.01824858 74 75 82
0.45009012 -0.18972722 1.01824874 74 75 82
0.45009019 -0.16948769 1.01824889 75 76 82
0.45009025 -0.15012815 1.01824903 67 67 72
0.45009030 -0.12988861 1.01824915 45 43 44
0.45009030 -0.10964905 1.01824915 44 41 42
0.45009033 -0.09028949 1.01824923 44 43 43
0.45009035 -0.07004993 1.01824927 44 42 44
0.45009035 -0.04981038 1.01824927 47 45 45
0.45009039 -0.03045080 1.01824937 102 100 100
0.45009043 -0.01021125 1.01824944 140 137 137
0.45009046 0.01002832 1.01824951 121 116 117
0.45009046 0.03026788 1.01824951 109 105 106
0.45009046 0.05050744 1.01824951 101 100 101
0.45009046 0.06986702 1.01824951 115 110 108
0.45009046 0.09010658 1.01824951 112 105 99
0.45009046 0.11034614 1.01824951 99 94 91
0.45009047 0.12970573 1.01824953 84 80 81
0.45009051 0.14994530 1.01824963 92 88 87
0.45009051 0.17018487 1.01824963 99 96 94
0.45009051 0.18954445 1.01824963 127 119 112
0.45009051 0.20978401 1.01824963 135 129 126
0.45009051 0.23002358 1.01824963 121 116 113
0.45009051 0.25026314 1.01824963 132 126 122
0.45009051 0.27050271 1.01824963 123 120 117
0.45009051 0.28986229 1.01824963 124 121 117
0.45009051 0.31010185 1.01824963 118 111 105
0.45009051 0.33034142 1.01824963 111 106 103
0.45009051 0.34970100 1.01824963 129 126 122
0.45009051 0.36994057 1.01824963 115 109 107
0.45009051 0.39018013 1.01824963 116 108 102
0.45009051 0.40953971 1.01824963 119 113 108
0.45009051 0.42977928 1.01824963 85 80 77
0.45009051 0.45001884 1.01824963 0 0 0
0.45009051 0.47025840 1.01824963 0 0 0
0.45009051 0.49049797 1.01824963 0 0 0
0.45009051 0.50985755 1.01824963 0 0 0
0.45009051 0.53009712 1.01824963 0 0 0
0.45009051 0.55033668 1.01824963 0 0 0
0.45009051 0.56969626 1.01824963 0 0 0
0.46945009 -0.68427673 1.01824963 0 0 0
0.46945009 -0.67019703 1.01824963 0 0 0
0.46945009 -0.64995747 1.01824963 0 0 0
0.46906026 -0.63117355 1.01824864 20 20 19
0.47053252 -0.54612390 0.87441891 90 92 93
0.46963885 -0.52943321 0.87441891 88 91 91
0.46963885 -0.50978550 0.87441891 88 92 92
0.46963885 -0.49013778 0.87441891 88 91 91
0.46963885 -0.47049007 0.87441891 87 90 92
0.46963885 -0.45008668 0.87441891 88 89 90
0.46963885 -0.42968329 0.87441891 87 89 89
0.46963885 -0.41003558 0.87441891 87 88 88
0.46963885 -0.39038787 0.87441891 86 89 90
0.47025488 -0.38765738 1.01812308 83 84 88
0.46963885 -0.36998448 0.87441891 85 88 89
0.46944559 -0.37011993 1.01823986 81 83 86
0.46922478 -0.35085436 0.87441891 85 87 89
0.46944768 -0.34988213 1.01824440 80 82 86
0.46944843 -0.32964320 1.01824602 82 83 85
0.46944881 -0.31028394 1.01824686 81 82 85
0.46944905 -0.29004458 1.01824737 78 80 83
0.46944925 -0.26980517 1.01824780 79 79 83
0.46944940 -0.25044570 1.01824812 77 78 83
0.46944952 -0.23020623 1.01824838 76 76 82
0.46944961 -0.20996673 1.01824858 74 75 83
0.46944969 -0.18972722 1.01824875 72 76 81
0.46944975 -0.16948769 1.01824889 74 75 81
0.46944982 -0.15012815 1.01824903 65 65 70
0.46944987 -0.12988861 1.01824915 45 43 43
0.46944987 -0.10964905 1.01824915 44 42 43
0.46944991 -0.09028949 1.01824924 45 43 44
0.46944993 -0.07004993 1.01824927 45 42 43
0.46944993 -0.04981038 1.01824927 49 46 46
0.46944997 -0.03045080 1.01824937 102 101 102
0.46945001 -0.01021125 1.01824944 138 135 133
0.46945004 0.01002832 1.01824951 128 122 123
0.46945004 0.03026788 1.01824951 119 116 115
0.46945004 0.05050744 1.01824951 101 98 100
0.46945004 0.06986702 1.01824951 117 112 110
0.46945004 0.09010658 1.01824951 118 110 107
0.46945004 0.11034614 1.01824951 102 96 95
0.46945005 0.12970573 1.01824954 93 90 89
0.46945009 0.14994530 1.01824963 100 95 93
0.46945009 0.17018487 1.01824963 96 92 91
0.46945009 0.18954445 1.01824963 122 115 112
0.46945009 0.20978401 1.01824963 131 126 121
0.46945009 0.23002358 1.01824963 132 126 122
0.46945009 0.25026314 1.01824963 128 120 116
0.46945009 0.27050271 1.01824963 131 128 123
0.46945009 0.28986229 1.01824963 140 134 129
0.46945009 0.31010185 1.01824963 107 104 102
0.46945009 0.33034142 1.01824963 123 119 114
0.46945009 0.34970100 1.01824963 109 104 101
0.46945009 0.36994057 1.01824963 109 101 99
0.46945009 0.39018013 1.01824963 122 114 110
0.46945009 0.40953971 1.01824963 115 108 107
0.46945009 0.42977928 1.01824963 68 66 64
0.46945009 0.45001884 1.01824963 0 0 0
0.46945009 0.47025840 1.01824963 0 0 0
0.46945009 0.49049797 1.01824963 0 0 0
0.46945009 0.50985755 1.01824963 0 0 0
0.46945009 0.53009712 1.01824963 0 0 0
0.46945009 0.55033668 1.01824963 0 0 0
0.46945009 0.56969626 1.01824963 0 0 0
0.48968966 -0.68427673 1.01824963 0 0 0
0.48968966 -0.67019703 1.01824963 0 0 0
0.48968966 -0.64995747 1.01824963 0 0 0
0.48893504 -0.63399166 1.01824892 26 27 28
0.49759905 -0.56117181 0.87441891 89 91 92
0.49057961 -0.54906412 0.87441891 90 92 91
0.49004224 -0.52943321 0.87441891 88 92 91
0.49004224 -0.50978550 0.87441891 89 90 90
0.49004224 -0.49013778 0.87441891 87 91 90
0.49004224 -0.47049007 0.87441891 86 90 90
0.49004224 -0.45008668 0.87441891 87 90 91
0.49004224 -0.42968329 0.87441891 86 90 90
0.49004224 -0.41003558 0.87441891 86 88 89
0.49004224 -0.39038787 0.87441891 87 89 90
0.49028852 -0.38754350 1.01810034 83 85 86
0.49004224 -0.36998448 0.87441891 86 89 89
0.48968479 -0.37011980 1.01823951 83 84 86
0.48916177 -0.35336643 0.87441891 86 88 89
0.49354997 -0.35219053 0.88477117 80 88 87
0.48968711 -0.34988211 1.01824434 82 84 86
0.48968791 -0.32964319 1.01824599 81 84 86
0.48968832 -0.31028393 1.01824684 80 82 85
0.48968857 -0.29004458 1.01824737 78 81 85
0.48968878 -0.26980517 1.01824780 78 79 85
0.48968893 -0.25044570 1.01824812 77 78 84
0.48968906 -0.23020623 1.01824838 77 77 82
0.48968915 -0.20996673 1.01824858 75 75 82
0.48968923 -0.18972722 1.01824875 73 75 82
0.48968930 -0.16948769 1.01824889 74 75 81
0.48968938 -0.15012815 1.01824905 64 63 68
0.48968943 -0.12988861 1.01824915 44 43 44
0.48968943 -0.10964905 1.01824915 44 42 43
0.48968947 -0.09028949 1.01824924 45 43 44
0.48968949 -0.07004993 1.01824927 46 43 44
0.48968949 -0.04981038 1.01824927 51 46 47
0.48968953 -0.03045080 1.01824937 105 100 101
0.48968957 -0.01021125 1.01824945 139 136 136
0.48968960 0.01002832 1.01824951 128 123 122
0.48968960 0.03026788 1.01824951 124 119 119
0.48968960 0.05050744 1.01824951 102 99 100
0.48968960 0.06986702 1.01824951 115 110 107
0.48968960 0.09010658 1.01824951 119 112 106
0.48968960 0.11034614 1.01824951 101 97 95
0.48968962 0.12970573 1.01824954 89 86 84
0.48968966 0.14994530 1.01824963 86 84 83
0.48968966 0.17018487 1.01824963 90 86 86
0.48968966 0.18954445 1.01824963 123 119 117
0.48968966 0.20978401 1.01824963 115 112 110
0.48968966 0.23002358 1.01824963 128 124 121
0.48968966 0.25026314 1.01824963 123 118 115
0.48968966 0.27050271 1.01824963 129 123 120
0.48968966 0.28986229 1.01824963 126 121 115
0.48968966 0.31010185 1.01824963 134 129 124
0.48968966 0.33034142 1.01824963 112 107 105
0.48968966 0.34970100 1.01824963 94 90 89
0.48968966 0.36994057 1.01824963 121 115 112
0.48968966 0.39018013 1.01824963 116 108 103
0.48968966 0.40953971 1.01824963 118 113 108
0.48968966 0.42977928 1.01824963 91 87 84
0.48968966 0.45001884 1.01824963 0 0 0
0.48968966 0.47025840 1.01824963 0 0 0
0.48968966 0.49049797 1.01824963 0 0 0
0.48968966 0.50985755 1.01824963 0 0 0
0.48968966 0.53009712 1.01824963 0 0 0
0.48968966 0.55033668 1.01824963 0 0 0
0.48968966 0.56969626 1.01824963 0 0 0
0.50992922 -0.68427673 1.01824963 0 0 0
0.50992922 -0.67019703 1.01824963 0 0 0
0.50992922 -0.64995747 1.01824963 0 0 0
0.50896504 -0.63679917 1.01824885 48 51 52
0.51203256 -0.56298545 0.87441891 90 91 91
0.51044563 -0.54983660 0.87441891 90 91 90
0.51044563 -0.52943321 0.87441891 88 92 91
0.51044563 -0.50978550 0.87441891 88 91 91
0.51044563 -0.49013778 0.87441891 89 91 90
0.51044563 -0.47049007 0.87441891 88 91 92
0.51044563 -0.45008668 0.87441891 88 90 91
0.51044563 -0.42968329 0.87441891 86 89 91
0.51044563 -0.41003558 0.87441891 86 89 90
0.51044563 -0.39038787 0.87441891 87 90 91
0.50985502 -0.38766591 1.01810145 81 85 85
0.51044563 -0.36998448 0.87441891 86 88 90
0.50992410 -0.37011977 1.01823941 83 84 86
0.50908053 -0.35555341 0.87441891 84 85 87
0.50992655 -0.34988210 1.01824430 83 85 86
0.50992739 -0.32964318 1.01824598 83 83 85
0.50992782 -0.31028393 1.01824684 80 83 85
0.50992810 -0.29004458 1.01824738 80 81 85
0.50992831 -0.26980517 1.01824781 78 80 84
0.50992848 -0.25044571 1.01824814 77 78 83
0.50992860 -0.23020623 1.01824838 75 77 81
0.50992870 -0.20996673 1.01824858 75 76 81
0.50992878 -0.18972722 1.01824875 75 75 82
0.50992885 -0.16948769 1.01824889 74 74 81
0.50992894 -0.15012815 1.01824906 63 63 66
0.50992898 -0.12988861 1.01824915 44 43 44
0.50992898 -0.10964905 1.01824915 45 42 43
0.50992903 -0.09028949 1.01824925 46 44 44
0.50992904 -0.07004993 1.01824927 47 43 44
0.50992904 -0.04981038 1.01824927 51 48 49
0.50992909 -0.03045080 1.01824937 109 105 105
0.50992913 -0.01021125 1.01824945 137 133 134
0.50992916 0.01002832 1.01824951 124 120 119
0.50992916 0.03026788 1.01824951 123 119 118
0.50992916 0.05050744 1.01824951 101 99 99
0.50992916 0.06986702 1.01824951 113 108 103
0.50992916 0.09010658 1.01824951 117 110 104
0.50992916 0.11034614 1.01824951 99 94 90
0.50992918 0.12970573 1.01824954 95 90 88
0.50992922 0.14994530 1.01824963 99 96 93
0.50992922 0.17018487 1.01824963 84 81 81
0.50992922 0.18954445 1.01824963 137 134 127
0.50992922 0.20978401 1.01824963 127 119 117
0.50992922 0.23002358 1.01824963 121 118 113
0.50992922 0.25026314 1.01824963 125 120 116
0.50992922 0.27050271 1.01824963 134 129 124
0.50992922 0.28986229 1.01824963 132 129 123
0.50992922 0.31010185 1.01824963 133 127 121
0.50992922 0.33034142 1.01824963 96 89 89
0.50992922 0.34970100 1.01824963 128 127 120
0.50992922 0.36994057 1.01824963 115 110 107
0.50992922 0.39018013 1.01824963 107 99 95
0.50992922 0.40953971 1.01824963 98 92 90
0.50992922 0.42977928 1.01824963 106 103 99
0.50992922 0.45001884 1.01824963 0 0 0
0.50992922 0.47025840 1.01824963 0 0 0
0.50992922 0.49049797 1.01824963 0 0 0
0.50992922 0.50985755 1.01824963 0 0 0
0.50992922 0.53009712 1.01824963 0 0 0
0.50992922 0.55033668 1.01824963 0 0 0
0.50992922 0.56969626 1.01824963 0 0 0
0.53016879 -0.68427673 1.01824963 0 0 0
0.53016879 -0.67019703 1.01824963 0 0 0
0.53016808 -0.64995663 1.01824830 12 12 14
0.52376577 -0.63870942 1.01820435 90 91 96
0.53064925 -0.56553218 0.87441891 89 91 91
0.53009334 -0.54983660 0.87441891 88 90 91
0.53009334 -0.52943321 0.87441891 88 91 91
0.53009334 -0.50978550 0.87441891 88 90 90
0.53009334 -0.49013778 0.87441891 88 92 91
0.53009334 -0.47049007 0.87441891 89 91 92
0.53009334 -0.45008668 0.87441891 89 91 90
0.53009334 -0.42968329 0.87441891 86 90 90
0.53009334 -0.41003558 0.87441891 88 90 90
0.53009334 -0.39038787 0.87441891 87 89 90
0.53029517 -0.38789604 1.01808209 84 85 87
0.53009334 -0.36998448 0.87441891 87 89 89
0.53016360 -0.37011986 1.01823966 83 85 87
0.52848122 -0.35749055 0.87441891 84 89 87
0.53016600 -0.34988209 1.01824428 82 84 86
0.53016690 -0.32964320 1.01824601 82 84 86
0.53016735 -0.31028395 1.01824688 80 82 86
0.53016764 -0.29004459 1.01824743 80 81 85
0.53016785 -0.26980518 1.01824784 79 80 84
0.53016802 -0.25044571 1.01824816 77 78 82
0.53016814 -0.23020623 1.01824839 75 77 81
0.53016824 -0.20996673 1.01824859 75 76 80
0.53016833 -0.18972722 1.01824875 73 75 81
0.53016841 -0.16948770 1.01824890 75 75 81
0.53016850 -0.15012815 1.01824908 62 62 65
0.53016854 -0.12988861 1.01824915 45 43 44
0.53016854 -0.10964905 1.01824915 45 43 43
0.53016859 -0.09028949 1.01824926 48 43 44
0.53016860 -0.07004993 1.01824927 47 44 44
0.53016860 -0.04981038 1.01824927 51 49 49
0.53016866 -0.03045080 1.01824938 107 104 103
0.53016870 -0.01021125 1.01824946 132 128 127
0.53016872 0.01002832 1.01824951 120 117 115
0.53016872 0.03026788 1.01824951 122 117 115
0.53016872 0.05050744 1.01824951 104 101 101
0.53016872 0.06986702 1.01824951 112 108 105
0.53016872 0.09010658 1.01824951 115 107 100
0.53016872 0.11034614 1.01824951 104 96 92
0.53016874 0.12970573 1.01824955 102 97 96
0.53016879 0.14994530 1.01824963 99 96 92
0.53016879 0.17018487 1.01824963 103 98 94
0.53016879 0.18954445 1.01824963 132 124 117
0.53016879 0.20978401 1.01824963 132 123 118
0.53016879 0.23002358 1.01824963 128 123 119
0.53016879 0.25026314 1.01824963 118 112 109
0.53016879 0.27050271 1.01824963 132 126 123
0.53016879 0.28986229 1.01824963 135 133 127
0.53016879 0.31010185 1.01824963 102 97 95
0.53016879 0.33034142 1.01824963 101 98 97
0.53016879 0.34970100 1.01824963 131 128 123
0.53016879 0.36994057 1.01824963 119 116 112
0.53016879 0.39018013 1.01824963 113 107 104
0.53016879 0.40953971 1.01824963 116 112 111
0.53016879 0.42977928 1.01824963 125 123 119
0.53016879 0.45001884 1.01824963 7 6 6
0.53016879 0.47025840 1.01824963 0 0 0
0.53016879 0.49049797 1.01824963 0 0 0
0.53016879 0.50985755 1.01824963 0 0 0
0.53016879 0.53009712 1.01824963 0 0 0
0.53016879 0.55033668 1.01824963 0 0 0
0.53016879 0.56969626 1.01824963 0 0 0
0.55040835 -0.68427673 1.01824963 0 0 0
0.55040835 -0.67019703 1.01824963 0 0 0
0.54964839 -0.65203563 1.01824406 23 26 25
0.55035679 -0.56838157 0.87441891 88 91 90
0.54974105 -0.54983660 0.87441891 89 92 90
0.54974105 -0.52943321 0.87441891 87 91 90
0.54974105 -0.50978550 0.87441891 87 91 90
0.54974105 -0.49013778 0.87441891 89 92 93
0.54974105 -0.47049007 0.87441891 88 91 92
0.54974105 -0.45008668 0.87441891 89 91 90
0.54974105 -0.42968329 0.87441891 88 90 91
0.54974105 -0.41003558 0.87441891 88 89 89
0.54974105 -0.39038787 0.87441891 87 90 89
0.55468836 -0.39459540 0.99130046 81 89 88
0.55067515 -0.38952172 1.01794301 85 86 88
0.54948474 -0.37059875 0.87441891 86 88 89
0.55040355 -0.37012026 1.01824075 84 85 88
0.55040559 -0.34988217 1.01824453 82 85 87
0.55040643 -0.32964322 1.01824608 82 84 85
0.55040690 -0.31028397 1.01824694 82 82 85
0.55040718 -0.29004460 1.01824747 79 80 84
0.55040741 -0.26980520 1.01824789 78 80 83
0.55040757 -0.25044572 1.01824819 77 78 82
0.55040769 -0.23020623 1.01824840 76 78 81
0.55040779 -0.20996673 1.01824860 74 75 80
0.55040788 -0.18972722 1.01824876 75 76 80
0.55040796 -0.16948770 1.01824892 75 75 81
0.55040806 -0.15012815 1.01824909 62 60 62
0.55040809 -0.12988861 1.01824915 45 44 44
0.55040810 -0.10964906 1.01824917 46 43 44
0.55040816 -0.09028949 1.01824927 47 45 45
0.55040816 -0.07004993 1.01824927 48 44 45
0.55040816 -0.04981038 1.01824927 53 50 50
0.55040822 -0.03045080 1.01824938 113 108 106
0.55040826 -0.01021125 1.01824946 128 125 125
0.55040829 0.01002832 1.01824951 117 113 114
0.55040829 0.03026788 1.01824951 125 122 119
0.55040829 0.05050744 1.01824951 106 103 102
0.55040829 0.06986702 1.01824951 101 99 96
0.55040829 0.09010658 1.01824951 113 105 95
0.55040829 0.11034614 1.01824951 106 100 94
0.55040831 0.12970573 1.01824956 105 102 95
0.55040835 0.14994530 1.01824963 101 94 93
0.55040835 0.17018487 1.01824963 96 91 89
0.55040835 0.18954445 1.01824963 134 126 120
0.55040835 0.20978401 1.01824963 127 121 114
0.55040835 0.23002358 1.01824963 137 134 125
0.55040835 0.25026314 1.01824963 118 111 109
0.55040835 0.27050271 1.01824963 131 128 125
0.55040835 0.28986229 1.01824963 131 126 120
0.55040835 0.31010185 1.01824963 115 113 111
0.55040835 0.33034142 1.01824963 115 112 108
0.55040835 0.34970100 1.01824963 137 132 124
0.55040835 0.36994057 1.01824963 125 119 116
0.55040835 0.39018013 1.01824963 133 128 126
0.55040835 0.40953971 1.01824963 115 111 110
0.55040835 0.42977928 1.01824963 133 130 123
0.55040835 0.45001884 1.01824963 22 21 20
0.55040835 0.47025840 1.01824963 0 0 0
0.55040835 0.49049797 1.01824963 0 0 0
0.55040835 0.50985755 1.01824963 0 0 0
0.55040835 0.53009712 1.01824963 0 0 0
0.55040835 0.55033668 1.01824963 0 0 0
0.55040835 0.56969626 1.01824963 0 0 0
0.56976793 -0.68427673 1.01824963 0 0 0
0.56976793 -0.67019703 1.01824963 0 0 0
0.56825978 -0.65488055 1.01824208 35 36 36
0.57480448 -0.58220494 0.87441891 89 92 88
0.57014444 -0.57023999 0.87441891 88 92 90
0.57014444 -0.54983660 0.87441891 87 93 88
0.57014444 -0.52943321 0.87441891 88 91 90
0.57014444 -0.50978550 0.87441891 88 92 91
0.57014444 -0.49013778 0.87441891 90 93 93
0.57014444 -0.47049007 0.87441891 89 91 92
0.57014444 -0.45008668 0.87441891 88 90 90
0.57014444 -0.42968329 0.87441891 88 90 90
0.57014444 -0.41003558 0.87441891 88 89 90
0.57240883 -0.40199718 1.01637708 83 88 88
0.57014444 -0.39038787 0.87441891 87 90 90
0.56495152 -0.39509855 0.98827326 87 88 88
0.56953774 -0.38988770 1.01821247 86 87 88
0.56942504 -0.37370243 0.87441891 87 90 89
0.56996783 -0.37097379 0.88947409 88 91 92
0.56976361 -0.37012068 1.01824191 82 84 86
0.56976527 -0.34988229 1.01824487 83 85 86
0.56976602 -0.32964326 1.01824620 81 83 86
0.56976647 -0.31028399 1.01824702 80 82 86
0.56976676 -0.29004462 1.01824753 79 82 85
0.56976700 -0.26980521 1.01824796 79 79 84
0.56976715 -0.25044573 1.01824822 77 79 82
0.56976726 -0.23020624 1.01824843 76 77 80
0.56976737 -0.20996674 1.01824862 75 76 79
0.56976746 -0.18972722 1.01824878 75 76 80
0.56976754 -0.16948770 1.01824893 75 76 81
0.56976763 -0.15012816 1.01824910 60 60 61
0.56976767 -0.12988861 1.01824915 45 44 44
0.56976769 -0.10964906 1.01824919 46 44 44
0.56976773 -0.09028949 1.01824927 48 46 46
0.56976773 -0.07004993 1.01824927 49 45 45
0.56976773 -0.04981038 1.01824927 53 50 49
0.56976779 -0.03045080 1.01824938 112 108 104
0.56976784 -0.01021125 1.01824946 122 120 120
0.56976787 0.01002832 1.01824951 113 110 109
0.56976787 0.03026788 1.01824951 121 119 116
0.56976787 0.05050744 1.01824951 106 102 101
0.56976787 0.06986702 1.01824951 106 102 101
0.56976787 0.09010658 1.01824951 113 107 98
0.56976787 0.11034614 1.01824951 102 97 94
0.56976789 0.12970573 1.01824956 94 89 89
0.56976793 0.14994530 1.01824963 94 92 90
0.56976793 0.17018487 1.01824963 112 109 104
0.56976793 0.18954445 1.01824963 133 128 121
0.56976793 0.20978401 1.01824963 128 125 120
0.56976793 0.23002358 1.01824963 121 115 110
0.56976793 0.25026314 1.01824963 117 115 110
0.56976793 0.27050271 1.01824963 121 117 114
0.56976793 0.28986229 1.01824963 107 105 103
0.56976793 0.31010185 1.01824963 131 128 124
0.56976793 0.33034142 1.01824963 132 128 123
0.56976793 0.34970100 1.01824963 99 94 90
0.56976793 0.36994057 1.01824963 111 107 105
0.56976793 0.39018013 1.01824963 131 126 121
0.56976793 0.40953971 1.01824963 131 125 120
0.56976793 0.42977928 1.01824963 95 87 84
0.56976793 0.45001884 1.01824963 22 20 20
0.56976793 0.47025840 1.01824963 0 0 0
0.56976793 0.49049797 1.01824963 0 0 0
0.56976793 0.50985755 1.01824963 0 0 0
0.56976793 0.53009712 1.01824963 0 0 0
0.56976793 0.55033668 1.01824963 0 0 0
0.56976793 0.56969626 1.01824963 0 0 0
0.59000750 -0.68427673 1.01824963 0 0 0
0.59000749 -0.67019703 1.01824963 4 4 4
0.58590016 -0.65758313 1.01824832 70 74 74
0.59171199 -0.58457751 0.87441891 89 94 91
0.59054784 -0.57023999 0.87441891 88 93 92
0.59054784 -0.54983660 0.87441891 88 92 90
0.59054784 -0.52943321 0.87441891 90 91 91
0.59054784 -0.50978550 0.87441891 90 92 91
0.59054784 -0.49013778 0.87441891 90 92 92
0.59054784 -0.47049007 0.87441891 88 92 93
0.59054784 -0.45008668 0.87441891 89 91 90
0.59054784 -0.42968329 0.87441891 90 91 90
0.59054784 -0.41003558 0.87441891 88 89 89
0.59121617 -0.40397760 1.01777690 86 87 89
0.59054784 -0.39038787 0.87441891 87 90 90
0.58999857 -0.38947715 1.01823420 84 87 89
0.58920991 -0.37678561 0.87441891 88 90 89
0.59000354 -0.37012101 1.01824280 84 85 86
0.59000497 -0.34988243 1.01824527 83 85 86
0.59000561 -0.32964331 1.01824638 82 83 85
0.59000604 -0.31028402 1.01824711 81 82 85
0.59000631 -0.29004464 1.01824758 80 81 84
0.59000655 -0.26980522 1.01824800 78 80 83
0.59000670 -0.25044574 1.01824826 78 79 83
0.59000682 -0.23020625 1.01824847 76 78 82
0.59000692 -0.20996674 1.01824863 75 76 79
0.59000702 -0.18972723 1.01824880 75 75 81
0.59000710 -0.16948770 1.01824894 75 76 80
0.59000719 -0.15012816 1.01824910 58 59 61
0.59000722 -0.12988861 1.01824915 46 44 45
0.59000725 -0.10964906 1.01824921 46 45 45
0.59000729 -0.09028949 1.01824927 50 46 47
0.59000729 -0.07004993 1.01824927 49 45 45
0.59000729 -0.04981038 1.01824927 55 51 51
0.59000735 -0.03045080 1.01824938 111 108 105
0.59000740 -0.01021125 1.01824946 125 124 122
0.59000743 0.01002832 1.01824951 114 109 110
0.59000743 0.03026788 1.01824951 118 113 111
0.59000743 0.05050744 1.01824951 101 100 100
0.59000743 0.06986702 1.01824951 104 100 98
0.59000743 0.09010658 1.01824951 113 105 100
0.59000743 0.11034614 1.01824951 102 97 93
0.59000745 0.12970573 1.01824956 88 84 84
0.59000750 0.14994530 1.01824963 88 85 84
0.59000750 0.17018487 1.01824963 98 93 94
0.59000750 0.18954445 1.01824963 134 127 120
0.59000750 0.20978401 1.01824963 132 128 123
0.59000750 0.23002358 1.01824963 132 127 121
0.59000750 0.25026314 1.01824963 138 132 125
0.59000750 0.27050271 1.01824963 131 127 120
0.59000750 0.28986229 1.01824963 131 129 124
0.59000750 0.31010185 1.01824963 127 121 116
0.59000750 0.33034142 1.01824963 112 103 100
0.59000750 0.34970100 1.01824963 117 114 110
0.59000750 0.36994057 1.01824963 110 107 106
0.59000750 0.39018013 1.01824963 121 115 108
0.59000750 0.40953971 1.01824963 107 101 98
0.59000750 0.42977928 1.01824963 92 88 85
0.59000750 0.45001884 1.01824963 46 45 44
0.59000750 0.47025840 1.01824963 0 0 0
0.59000750 0.49049797 1.01824963 0 0 0
0.59000750 0.50985755 1.01824963 0 0 0
0.59000750 0.53009712 1.01824963 0 0 0
0.59000750 0.55033668 1.01824963 0 0 0
0.59000750 0.56969626 1.01824963 0 0 0
0.61024706 -0.68427673 1.01824963 0 0 0
0.60973753 -0.67154009 1.01824951 18 18 17
0.61019555 -0.58535361 0.87441891 90 94 91
0.61019555 -0.57023999 0.87441891 88 92 91
0.61019555 -0.54983660 0.87441891 88 91 92
0.61019555 -0.52943321 0.87441891 90 92 91
0.61019555 -0.50978550 0.87441891 90 92 93
0.61019555 -0.49013778 0.87441891 92 92 92
0.61019555 -0.47049007 0.87441891 90 92 91
0.61019555 -0.45008668 0.87441891 90 92 91
0.61019555 -0.42968329 0.87441891 89 92 91
0.61019555 -0.41003558 0.87441891 89 91 90
0.61245954 -0.40654990 0.99330789 84 91 88
0.61042085 -0.40624204 1.01807772 85 88 88
0.60995447 -0.39071240 0.87441891 88 89 89
0.61024038 -0.38947880 1.01823848 86 87 88
0.60540957 -0.37930455 0.87441891 88 89 88
0.61024350 -0.37012133 1.01824369 86 87 88
0.61024469 -0.34988257 1.01824567 84 85 87
0.61024524 -0.32964338 1.01824658 83 84 86
0.61024561 -0.31028405 1.01824721 81 82 84
0.61024587 -0.29004465 1.01824765 79 80 84
0.61024611 -0.26980524 1.01824804 78 79 84
0.61024626 -0.25044574 1.01824829 78 78 82
0.61024638 -0.23020625 1.01824849 76 77 81
0.61024647 -0.20996674 1.01824864 75 77 81
0.61024658 -0.18972723 1.01824882 76 76 82
0.61024665 -0.16948770 1.01824895 76 77 80
0.61024674 -0.15012816 1.01824910 58 58 59
0.61024678 -0.12988861 1.01824915 47 45 45
0.61024681 -0.10964906 1.01824922 47 45 45
0.61024685 -0.09028949 1.01824927 51 48 47
0.61024685 -0.07004993 1.01824927 51 45 46
0.61024685 -0.04981038 1.01824927 55 51 53
0.61024691 -0.03045080 1.01824938 114 109 105
0.61024697 -0.01021125 1.01824947 126 124 121
0.61024699 0.01002832 1.01824951 111 109 109
0.61024699 0.03026788 1.01824951 120 116 114
0.61024699 0.05050744 1.01824951 102 100 101
0.61024699 0.06986702 1.01824951 105 103 98
0.61024699 0.09010658 1.01824951 115 109 102
0.61024699 0.11034614 1.01824951 108 105 99
0.61024702 0.12970573 1.01824956 94 90 88
0.61024706 0.14994530 1.01824963 93 90 86
0.61024706 0.17018487 1.01824963 100 98 95
0.61024706 0.18954445 1.01824963 133 128 121
0.61024706 0.20978401 1.01824963 132 127 120
0.61024706 0.23002358 1.01824963 141 138 133
0.61024706 0.25026314 1.01824963 125 121 114
0.61024706 0.27050271 1.01824963 127 125 121
0.61024706 0.28986229 1.01824963 140 138 129
0.61024706 0.31010185 1.01824963 109 104 100
0.61024706 0.33034142 1.01824963 102 100 96
0.61024706 0.34970100 1.01824963 136 132 125
0.61024706 0.36994057 1.01824963 118 112 108
0.61024706 0.39018013 1.01824963 94 92 89
0.61024706 0.40953971 1.01824963 118 117 112
0.61024706 0.42977928 1.01824963 112 109 105
0.61024706 0.45001884 1.01824963 69 68 66
0.61024706 0.47025840 1.01824963 0 0 0
0.61024706 0.49049797 1.01824963 0 0 0
0.61024706 0.50985755 1.01824963 0 0 0
0.61024706 0.53009712 1.01824963 0 0 0
0.61024706 0.55033668 1.01824963 0 0 0
0.61024706 0.56969626 1.01824963 0 0 0
0.62960664 -0.68427673 1.01824963 0 0 0
0.62875841 -0.67393954 1.01824953 27 30 29
0.62984326 -0.58535361 0.87441891 91 93 92
0.62984326 -0.57023999 0.87441891 91 93 93
0.62984326 -0.54983660 0.87441891 90 92 93
0.62984326 -0.52943321 0.87441891 90 93 93
0.62984326 -0.50978550 0.87441891 92 93 92
0.62984326 -0.49013778 0.87441891 92 94 93
0.62984326 -0.47049007 0.87441891 92 93 92
0.62984326 -0.45008668 0.87441891 91 93 92
0.62984326 -0.42968329 0.87441891 88 93 93
0.62984326 -0.41003558 0.87441891 90 91 91
0.63911250 -0.41425395 0.99737912 88 90 92
0.62994672 -0.40818675 1.01770372 86 88 88
0.62848007 -0.39391438 0.87441891 89 91 87
0.62960075 -0.38947942 1.01824009 85 87 88
0.62960330 -0.37012153 1.01824422 85 87 88
0.62960434 -0.34988265 1.01824590 83 84 86
0.62960486 -0.32964343 1.01824675 81 82 86
0.62960521 -0.31028408 1.01824731 82 82 84
0.62960546 -0.29004468 1.01824772 80 80 83
0.62960569 -0.26980525 1.01824808 80 80 84
0.62960584 -0.25044575 1.01824832 79 80 81
0.62960595 -0.23020626 1.01824851 76 77 81
0.62960605 -0.20996675 1.01824867 76 76 81
0.62960615 -0.18972723 1.01824884 76 77 82
0.62960623 -0.16948771 1.01824896 76 77 79
0.62960632 -0.15012816 1.01824910 57 57 57
0.62960635 -0.12988861 1.01824915 46 45 45
0.62960639 -0.10964906 1.01824922 47 46 46
0.62960642 -0.09028949 1.01824927 51 49 49
0.62960642 -0.07004993 1.01824927 51 47 47
0.62960642 -0.04981038 1.01824927 58 54 55
0.62960649 -0.03045080 1.01824938 116 111 108
0.62960655 -0.01021125 1.01824947 118 118 118
0.62960657 0.01002832 1.01824951 111 110 109
0.62960657 0.03026788 1.01824951 115 112 109
0.62960657 0.05050744 1.01824951 105 101 101
0.62960657 0.06986702 1.01824951 111 109 103
0.62960657 0.09010658 1.01824951 116 112 102
0.62960657 0.11034614 1.01824951 96 93 87
0.62960660 0.12970573 1.01824957 91 87 86
0.62960664 0.14994530 1.01824963 91 87 85
0.62960664 0.17018487 1.01824963 91 89 88
0.62960664 0.18954445 1.01824963 131 128 119
0.62960664 0.20978401 1.01824963 134 130 124
0.62960664 0.23002358 1.01824963 129 124 119
0.62960664 0.25026314 1.01824963 122 117 112
0.62960664 0.27050271 1.01824963 127 124 120
0.62960664 0.28986229 1.01824963 124 119 110
0.62960664 0.31010185 1.01824963 125 120 118
0.62960664 0.33034142 1.01824963 101 101 101
0.62960664 0.34970100 1.01824963 121 117 109
0.62960664 0.36994057 1.01824963 110 101 94
0.62960664 0.39018013 1.01824963 112 104 100
0.62960664 0.40953971 1.01824963 122 120 114
0.62960664 0.42977928 1.01824963 123 119 114
0.62960664 0.45001884 1.01824963 90 87 84
0.62960664 0.47025840 1.01824963 0 0 0
0.62960664 0.49049797 1.01824963 0 0 0
0.62960664 0.50985755 1.01824963 0 0 0
0.62960664 0.53009712 1.01824963 0 0 0
0.62960664 0.55033668 1.01824963 0 0 0
0.62960664 0.56969626 1.01824963 0 0 0
0.64984621 -0.68427673 1.01824963 0 0 0
0.64808614 -0.67704548 1.01824947 48 51 46
0.64949097 -0.58535361 0.87441891 92 96 94
0.64949097 -0.57023999 0.87441891 91 95 93
0.64949097 -0.54983660 0.87441891 91 94 94
0.64949097 -0.52943321 0.87441891 90 95 95
0.64949097 -0.50978550 0.87441891 93 94 94
0.64949097 -0.49013778 0.87441891 91 95 94
0.64949097 -0.47049007 0.87441891 92 94 94
0.64949097 -0.45008668 0.87441891 92 94 93
0.64949097 -0.42968329 0.87441891 90 93 94
0.65519576 -0.42205844 1.01738172 87 90 90
0.64949097 -0.41003558 0.87441891 88 93 92
0.64607223 -0.40174939 0.92126703 88 92 91
0.65737646 -0.41650882 0.97837931 85 90 88
0.64985701 -0.40970309 1.01811379 85 88 88
0.64707279 -0.39741571 0.87441891 87 92 93
0.64984111 -0.38948001 1.01824164 84 88 89
0.64984304 -0.37012169 1.01824467 86 86 87
0.64984395 -0.34988272 1.01824609 83 84 87
0.64984444 -0.32964347 1.01824686 84 85 88
0.64984477 -0.31028410 1.01824738 81 83 84
0.64984503 -0.29004470 1.01824779 80 80 84
0.64984524 -0.26980525 1.01824811 80 80 82
0.64984540 -0.25044576 1.01824836 77 79 82
0.64984550 -0.23020626 1.01824853 77 78 81
0.64984561 -0.20996675 1.01824870 77 78 80
0.64984571 -0.18972723 1.01824884 76 78 80
0.64984578 -0.16948771 1.01824896 77 78 79
0.64984588 -0.15012816 1.01824911 57 56 57
0.64984590 -0.12988861 1.01824915 46 46 46
0.64984595 -0.10964906 1.01824923 47 46 46
0.64984598 -0.09028949 1.01824927 51 50 49
0.64984598 -0.07004993 1.01824927 50 49 47
0.64984598 -0.04981038 1.01824927 59 56 57
0.64984606 -0.03045080 1.01824939 117 113 110
0.64984611 -0.01021125 1.01824947 125 123 121
0.64984613 0.01002832 1.01824951 108 108 107
0.64984613 0.03026788 1.01824951 107 105 102
0.64984613 0.05050744 1.01824951 99 95 95
0.64984613 0.06986702 1.01824951 107 102 101
0.64984613 0.09010658 1.01824951 102 98 93
0.64984613 0.11034614 1.01824951 104 99 92
0.64984617 0.12970573 1.01824957 95 92 88
0.64984621 0.14994530 1.01824963 88 86 82
0.64984621 0.17018487 1.01824963 95 92 90
0.64984621 0.18954445 1.01824963 130 127 120
0.64984621 0.20978401 1.01824963 136 128 122
0.64984621 0.23002358 1.01824963 120 115 113
0.64984621 0.25026314 1.01824963 125 121 117
0.64984621 0.27050271 1.01824963 125 119 115
0.64984621 0.28986229 1.01824963 94 90 89
0.64984621 0.31010185 1.01824963 119 116 111
0.64984621 0.33034142 1.01824963 121 119 114
0.64984621 0.34970100 1.01824963 84 80 77
0.64984621 0.36994057 1.01824963 106 101 96
0.64984621 0.39018013 1.01824963 112 108 103
0.64984621 0.40953971 1.01824963 115 112 108
0.64984621 0.42977928 1.01824963 107 101 95
0.64984621 0.45001884 1.01824963 86 81 77
0.64984621 0.47025840 1.01824963 0 0 0
0.64984621 0.49049797 1.01824963 0 0 0
0.64984621 0.50985755 1.01824963 0 0 0
0.64984621 0.53009712 1.01824963 0 0 0
0.64984621 0.55033668 1.01824963 0 0 0
0.64984621 0.56969626 1.01824963 0 0 0
0.66940884 -0.68461516 1.01824960 27 28 27
0.66480549 -0.67943643 1.01824902 89 93 87
0.66989436 -0.58535361 0.87441891 93 95 94
0.66989436 -0.57023999 0.87441891 92 95 94
0.66989436 -0.54983660 0.87441891 92 96 95
0.66989436 -0.52943321 0.87441891 94 96 96
0.66989436 -0.50978550 0.87441891 94 96 95
0.66989436 -0.49013778 0.87441891 93 96 96
0.66989436 -0.47049007 0.87441891 93 95 95
0.66989436 -0.45008668 0.87441891 91 95 94
0.66989436 -0.42968329 0.87441891 92 93 95
0.66674646 -0.42046778 0.97972345 89 90 90
0.66162213 -0.42293673 0.99752849 89 94 94
0.67120176 -0.42484932 1.01775074 85 89 89
0.66870390 -0.41166081 0.87441891 89 92 92
0.67007379 -0.40971526 1.01823140 87 88 88
0.66082618 -0.39945604 0.87441891 88 94 91
0.67008109 -0.38948035 1.01824252 85 87 89
0.67008275 -0.37012183 1.01824504 85 88 89
0.67008356 -0.34988277 1.01824626 85 87 88
0.67008401 -0.32964350 1.01824695 83 84 85
0.67008432 -0.31028411 1.01824743 83 83 85
0.67008459 -0.29004471 1.01824783 80 82 84
0.67008480 -0.26980527 1.01824816 80 81 83
0.67008495 -0.25044577 1.01824838 77 80 81
0.67008508 -0.23020627 1.01824857 77 80 82
0.67008517 -0.20996676 1.01824872 76 77 79
0.67008526 -0.18972724 1.01824885 76 78 80
