ply
format ascii 1.0
element vertex 1064
property float x
property float y
property float z
property uchar red
property uchar green
property uchar blue
end_header
-0.96778268 -0.59118575 1.71618187 157 160 142
-0.96481639 -0.59118575 1.71618187 103 106 99
-0.95700455 -0.58820748 1.70753610 60 64 63
-0.95165610 -0.58672953 1.70324588 54 57 57
-0.95110184 -0.58820748 1.70753610 51 54 54
-0.94815052 -0.58820748 1.70753610 47 49 50
-0.94282430 -0.58672953 1.70324588 45 46 48
-0.94462729 -0.58969283 1.71184814 45 46 48
-0.94050092 -0.59268618 1.72053766 42 43 45
-0.72092003 -0.49161759 1.42714071 45 38 40
-0.71394420 -0.48853213 1.41818380 42 39 40
-0.71598661 -0.49161759 1.42714071 41 40 40
-0.70955944 -0.49058479 1.42414248 39 39 43
-0.72189039 -0.50435930 1.46412921 40 39 45
-0.72562867 -0.50875461 1.47688854 39 38 45
-0.72367656 -0.51098108 1.48335195 40 40 44
0.23242134 -0.15505867 0.45012739 84 87 89
0.23335430 -0.15516171 0.45042646 82 84 87
-0.44313422 -0.20471074 0.59726155 36 36 36
-0.44288230 -0.20507209 0.59831583 36 36 36
-0.99447924 -0.58821946 1.71618187 160 157 149
-0.97424781 -0.57797682 1.68629813 161 158 150
-0.96413809 -0.57369548 1.67380702 162 159 150
-0.95652151 -0.57087636 1.66558194 162 159 150
-0.97033143 -0.58086669 1.69472957 160 158 148
-0.96740222 -0.58086669 1.69472957 157 157 146
-0.97176123 -0.58525610 1.70753610 158 158 146
-0.97125638 -0.58673406 1.71184814 158 159 145
-0.97074896 -0.58821946 1.71618187 151 154 138
-0.96533883 -0.58673406 1.71184814 151 155 136
-0.96237999 -0.58673406 1.71184814 124 126 116
-0.95460004 -0.58378565 1.70324588 55 55 61
-0.94927096 -0.58232248 1.69897699 56 56 62
-0.94871217 -0.58378565 1.70324588 53 53 58
-0.94576824 -0.58378565 1.70324588 50 50 54
-0.93811017 -0.58086669 1.69472957 46 46 50
-0.93988037 -0.58378565 1.70324588 45 46 49
-0.94108617 -0.58821946 1.71618187 43 44 46
-0.93811989 -0.58821946 1.71618187 43 44 46
-0.72244096 -0.49018288 1.43015158 45 37 40
-0.71544093 -0.48709995 1.42115688 44 39 41
-0.72721303 -0.50730717 1.48011315 39 39 41
-0.44288230 -0.20403795 0.59831583 37 36 36
-0.99196792 -0.58377522 1.71184814 161 158 148
-0.97424781 -0.57506222 1.68629813 161 158 149
-0.96413809 -0.57080245 1.67380702 161 158 149
-0.95887744 -0.56939656 1.66968429 162 159 149
-0.97033143 -0.57793748 1.69472957 161 159 148
-0.96740222 -0.57793748 1.69472957 157 158 145
-0.97176123 -0.58230478 1.70753610 157 158 143
-0.97125638 -0.58377522 1.71184814 157 160 141
-0.97074896 -0.58525318 1.71618187 151 154 135
-0.96533883 -0.58377522 1.71184814 144 147 128
-0.95995587 -0.58230478 1.70753610 129 132 116
-0.95460004 -0.58084172 1.70324588 39 39 43
-0.94689780 -0.57793748 1.69472957 56 56 60
-0.94396859 -0.57793748 1.69472957 55 55 60
-0.94339788 -0.57938594 1.69897699 50 49 55
-0.93344301 -0.57506222 1.68629813 46 46 47
-0.93518102 -0.57793748 1.69472957 45 45 47
-0.93458825 -0.57938594 1.69897699 44 44 46
-0.93870968 -0.58377522 1.71184814 44 44 46
-0.93575090 -0.58377522 1.71184814 44 44 46
-0.72092003 -0.48668420 1.42714071 39 38 37
-0.71544093 -0.48464361 1.42115688 39 37 36
-0.72562867 -0.50364923 1.47688854 41 40 44
-0.44288230 -0.20300381 0.59831583 35 34 36
-1.23721659 -0.57789779 1.70324588 48 41 44
-1.23427260 -0.57789779 1.70324588 50 41 47
-1.22824264 -0.57644939 1.69897699 52 43 49
-0.99196792 -0.58081645 1.71184814 159 159 148
-0.97424781 -0.57214755 1.68629813 159 159 148
-0.96413809 -0.56790942 1.67380702 160 159 148
-0.95652151 -0.56511873 1.66558194 160 159 148
-0.97033143 -0.57500827 1.69472957 160 159 148
-0.96498978 -0.57357436 1.69050336 158 158 147
-0.96931964 -0.57789779 1.70324588 156 156 145
-0.96880990 -0.57935345 1.70753610 155 157 139
-0.96829760 -0.58081645 1.71184814 159 161 142
-0.96290720 -0.57935345 1.70753610 154 156 135
-0.95754391 -0.57789779 1.70324588 116 118 98
-0.95220751 -0.57644939 1.69897699 44 44 41
-0.94689780 -0.57500827 1.69472957 63 62 62
-0.94161457 -0.57357436 1.69050336 59 59 60
-0.94103938 -0.57500827 1.69472957 50 50 51
-0.93112677 -0.57072783 1.68211377 46 46 47
-0.93052834 -0.57214755 1.68629813 45 45 45
-0.92992699 -0.57357436 1.69050336 44 44 44
-0.93399256 -0.57789779 1.70324588 44 44 44
-0.93104863 -0.57789779 1.70324588 44 44 44
-0.72186697 -0.48320025 1.42414248 40 39 39
-0.71341044 -0.47917357 1.41227472 39 39 39
-0.70655346 -0.47619733 1.40350282 42 42 42
-0.71935976 -0.49676743 1.46412921 40 40 40
-0.44249174 -0.20179157 0.59778821 36 34 37
-1.23721659 -0.57495385 1.70324588 48 39 44
-1.23427260 -0.57495385 1.70324588 50 41 49
-0.99447924 -0.57932061 1.71618187 160 160 151
-0.97424781 -0.56923294 1.68629813 159 159 150
-0.96176338 -0.56362474 1.66968429 159 159 150
-0.96791166 -0.57065248 1.69050336 159 159 149
-0.96258926 -0.56923294 1.68629813 159 159 149
-0.96689028 -0.57351285 1.69897699 156 156 146
-0.96637571 -0.57495385 1.70324588 153 154 140
-0.96343178 -0.57495385 1.70324588 156 157 142
-0.95808059 -0.57351285 1.69897699 158 160 144
-0.95275623 -0.57207906 1.69472957 118 120 104
-0.94745839 -0.57065248 1.69050336 52 52 47
-0.94218689 -0.56923294 1.68629813 45 45 45
-0.93694156 -0.56782043 1.68211377 54 53 53
-0.93635762 -0.56923294 1.68629813 50 49 49
-0.92882198 -0.56641495 1.67795014 47 47 47
-0.92821938 -0.56782043 1.68211377 46 45 45
-0.92302155 -0.56641495 1.67795014 45 45 45
-0.92700505 -0.57065248 1.69050336 45 45 45
-0.92408317 -0.57065248 1.69050336 44 44 44
-0.71734589 -0.47772783 1.41522300 40 39 39
-0.70897931 -0.47377151 1.40350282 41 40 40
-0.70363986 -0.47181782 1.39771509 41 40 40
-0.44210190 -0.20058146 0.59726155 38 34 37
-1.24642396 -0.57489890 1.71184814 43 36 43
-1.24346519 -0.57489890 1.71184814 45 38 44
-1.24050629 -0.57489890 1.71184814 50 41 50
-1.23443031 -0.57345074 1.70753610 54 44 54
-1.23506892 -0.57928741 1.72491562 142 133 137
-1.22896051 -0.57781714 1.72053766 153 144 147
-1.22612488 -0.57928741 1.72491562 151 145 144
-1.22003901 -0.57781714 1.72053766 151 146 143
-0.99700332 -0.57781714 1.72053766 159 159 150
-0.97424781 -0.56631827 1.68629813 158 159 152
-0.96176338 -0.56073880 1.66968429 157 158 151
-0.96020073 -0.56491303 1.68211377 160 160 151
-0.96206784 -0.56773055 1.69050336 157 157 148
-0.96395373 -0.57057631 1.69897699 154 154 144
-0.95861465 -0.56914991 1.69472957 154 155 143
-0.95330215 -0.56773055 1.69050336 152 155 142
-0.94801611 -0.56631827 1.68629813 120 126 110
-0.94275635 -0.56491303 1.68211377 64 69 60
-0.93752259 -0.56351477 1.67795014 40 44 43
-0.93462241 -0.56351477 1.67795014 50 52 52
-0.93403417 -0.56491303 1.68211377 48 48 48
-0.92652857 -0.56212336 1.67380702 47 47 47
-0.92592180 -0.56351477 1.67795014 46 45 45
-0.92074251 -0.56212336 1.67380702 45 44 44
-0.92240453 -0.56491303 1.68211377 45 45 45
-0.91949713 -0.56491303 1.68211377 46 45 45
-0.90314347 -0.55662578 1.65743732 45 45 45
-0.44210190 -0.19954914 0.59726155 38 35 38
-1.24642396 -0.57194006 1.71184814 41 37 42
-1.24346519 -0.57194006 1.71184814 45 40 45
-1.24050629 -0.57194006 1.71184814 49 43 50
-1.23754752 -0.57194006 1.71184814 52 44 52
-1.23458874 -0.57194006 1.71184814 50 41 50
-1.23474801 -0.57338804 1.71618187 42 33 40
-1.23178172 -0.57338804 1.71618187 93 84 91
-1.23193431 -0.57484335 1.72053766 134 125 129
-1.22896051 -0.57484335 1.72053766 152 143 146
-1.22910619 -0.57630605 1.72491562 152 144 146
-1.22612488 -0.57630605 1.72491562 152 146 145
-1.21695030 -0.57338804 1.71618187 154 148 147
-1.21706522 -0.57484335 1.72053766 155 150 147
-1.22969675 -0.58223206 1.74265254 155 151 147
-0.99700332 -0.57484335 1.72053766 157 156 151
-0.97424781 -0.56340367 1.68629813 157 157 152
-0.96176338 -0.55785286 1.66968429 156 156 152
-0.95782399 -0.56061453 1.67795014 155 155 149
-0.95967466 -0.56340367 1.68629813 155 156 148
-0.96154380 -0.56622070 1.69472957 154 155 147
-0.95622408 -0.56480867 1.69050336 154 155 146
-0.94857115 -0.56200564 1.68211377 150 152 143
-0.94332296 -0.56061453 1.67795014 122 127 117
-0.94042277 -0.56061453 1.67795014 71 75 68
-0.93520772 -0.55923033 1.67380702 50 54 53
-0.93231469 -0.55923033 1.67380702 51 54 54
-0.93172216 -0.56061453 1.67795014 48 48 48
-0.92424649 -0.55785286 1.66968429 46 46 46
-0.92363554 -0.55923033 1.67380702 45 45 45
-0.91847467 -0.55785286 1.66968429 44 44 44
-0.92012137 -0.56061453 1.67795014 44 44 44
-0.91722119 -0.56061453 1.67795014 44 44 44
-0.90094066 -0.55241042 1.65339470 44 44 44
-0.44171271 -0.19834207 0.59673578 36 35 37
-1.24623561 -0.56754810 1.70753610 39 38 42
-1.24328434 -0.56754810 1.70753610 39 38 41
-1.23721659 -0.56612211 1.70324588 42 41 43
-1.23738170 -0.56754810 1.70753610 48 45 50
-1.23443031 -0.56754810 1.70753610 53 47 55
-1.23147893 -0.56754810 1.70753610 49 43 50
-1.23162997 -0.56898129 1.71184814 41 33 40
-1.22557628 -0.56754810 1.70753610 94 86 92
-1.22881544 -0.57042176 1.71618187 140 133 137
-1.22275364 -0.56898129 1.71184814 150 144 146
-1.22288287 -0.57042176 1.71618187 150 145 145
-1.21991658 -0.57042176 1.71618187 151 148 142
-1.21081960 -0.56754810 1.70753610 154 150 145
-1.21091843 -0.56898129 1.71184814 153 151 147
-0.99700332 -0.57186955 1.72053766 154 154 150
-0.97183031 -0.55909824 1.68211377 157 156 152
-0.95940036 -0.55360341 1.66558194 158 157 152
-0.95310563 -0.55496699 1.66968429 156 155 151
-0.95202357 -0.55771434 1.67795014 155 154 149
-0.94912338 -0.55771434 1.67795014 154 155 147
-0.94388682 -0.55633724 1.67380702 154 155 147
-0.93867606 -0.55496699 1.66968429 131 134 125
-0.93349093 -0.55360341 1.66558194 56 60 51
-0.93061209 -0.55360341 1.66558194 50 53 54
-0.92773324 -0.55360341 1.66558194 46 49 50
-0.92713243 -0.55496699 1.66968429 48 48 50
-0.92197561 -0.55360341 1.66558194 46 46 48
-0.92136061 -0.55496699 1.66968429 45 45 47
-0.91621798 -0.55360341 1.66558194 43 43 45
-0.91558874 -0.55496699 1.66968429 43 43 45
-0.91495645 -0.55633724 1.67380702 43 43 45
-0.90094066 -0.54955268 1.65339470 42 42 42
0.22464126 -0.14961261 0.45012739 80 84 84
-0.44210190 -0.19748451 0.59726155 36 35 36
-1.24310446 -0.56317818 1.70324588 40 39 41
-1.24016047 -0.56317818 1.70324588 41 40 43
-1.23411572 -0.56176668 1.69897699 44 43 45
-1.23117924 -0.56176668 1.69897699 46 46 48
-1.23132873 -0.56317818 1.70324588 50 48 53
-1.22530615 -0.56176668 1.69897699 50 47 53
-1.22852767 -0.56459677 1.70753610 54 49 55
-1.22249699 -0.56317818 1.70324588 91 85 90
-1.22262490 -0.56459677 1.70753610 145 140 144
-1.21660912 -0.56317818 1.70324588 154 150 148
-1.21979475 -0.56602252 1.71184814 151 147 146
-1.21683598 -0.56602252 1.71184814 153 149 147
-1.20777738 -0.56317818 1.70324588 154 150 147
-1.20483339 -0.56317818 1.70324588 153 151 147
-0.97183031 -0.55619085 1.68211377 157 157 149
-0.94500619 -0.55072463 1.66558194 155 155 147
-0.94212741 -0.55072463 1.66558194 150 151 143
-0.93694651 -0.54937476 1.66149962 149 150 141
-0.93179089 -0.54803157 1.65743732 125 126 119
-0.92892617 -0.54803157 1.65743732 59 60 53
-0.92606145 -0.54803157 1.65743732 48 48 47
-0.92319667 -0.54803157 1.65743732 48 48 49
-0.92258763 -0.54937476 1.66149962 47 47 49
-0.91746718 -0.54803157 1.65743732 47 47 49
-0.91173768 -0.54803157 1.65743732 45 45 47
-0.91110057 -0.54937476 1.66149962 43 43 45
-0.91270286 -0.55208105 1.66968429 42 42 44
-0.89874858 -0.54536474 1.64937186 41 41 41
-0.46210983 -0.20344272 0.61851448 35 34 36
-0.45481610 -0.20069598 0.61016369 35 34 36
-0.44811466 -0.19819842 0.60257053 37 36 37
-0.44313422 -0.19645219 0.59726155 38 37 37
-0.44288230 -0.19679897 0.59831583 38 37 37
-1.23672628 -0.55604297 1.69050336 40 40 40
-1.23998880 -0.55883014 1.69897699 42 41 41
-1.23705232 -0.55883014 1.69897699 45 45 45
-1.23103046 -0.55743307 1.69472957 45 46 46
-1.22810125 -0.55743307 1.69472957 45 46 46
-1.22824264 -0.55883014 1.69897699 46 46 47
-1.22530615 -0.55883014 1.69897699 46 46 47
-1.22544086 -0.56023425 1.70324588 60 58 60
-1.21943307 -0.55883014 1.69897699 96 91 93
-1.21955299 -0.56023425 1.70324588 141 136 138
-1.21355999 -0.55883014 1.69897699 148 143 139
-1.21672225 -0.56164539 1.70753610 152 147 142
-1.21377099 -0.56164539 1.70753610 153 151 144
-1.20173848 -0.55743307 1.69472957 154 153 145
-1.19880927 -0.55743307 1.69472957 153 152 144
-0.96942478 -0.55191392 1.67795014 159 159 150
-0.93865991 -0.54251397 1.64937186 159 158 149
-0.93809152 -0.54383713 1.65339470 159 159 150
-0.93752038 -0.54516685 1.65743732 154 154 146
-0.93237603 -0.54383713 1.65339470 151 151 144
-0.92951828 -0.54383713 1.65339470 126 126 120
-0.92666048 -0.54383713 1.65339470 69 69 64
-0.92380273 -0.54383713 1.65339470 48 48 43
-0.92094499 -0.54383713 1.65339470 53 53 50
-0.92033195 -0.54516685 1.65743732 48 48 46
-0.91746718 -0.54516685 1.65743732 46 46 45
-0.91460246 -0.54516685 1.65743732 46 46 46
-0.90951395 -0.54383713 1.65339470 46 46 45
-0.90887296 -0.54516685 1.65743732 44 44 44
-0.90822881 -0.54650301 1.66149962 42 42 42
-0.89874858 -0.54251397 1.64937186 41 41 41
-0.46210983 -0.20237368 0.61851448 34 33 35
-0.45522586 -0.19982122 0.61071336 33 32 34
-0.44851336 -0.19733234 0.60310662 34 33 35
-0.44391644 -0.19576482 0.59831583 36 35 37
-0.44327354 -0.19593777 0.59884441 39 38 39
-1.23672628 -0.55312109 1.69050336 41 40 40
-1.24310446 -0.55729032 1.70324588 41 40 40
-1.24016047 -0.55729032 1.70324588 42 41 41
-1.23411572 -0.55589360 1.69897699 44 43 43
-1.23117924 -0.55589360 1.69897699 45 45 45
-1.23132873 -0.55729032 1.70324588 48 47 47
-1.22530615 -0.55589360 1.69897699 49 46 47
-1.22544086 -0.55729032 1.70324588 52 49 49
-1.22249699 -0.55729032 1.70324588 106 101 97
-1.22262490 -0.55869406 1.70753610 134 130 127
-1.21660912 -0.55729032 1.70324588 146 142 136
-1.21979475 -0.56010491 1.71184814 153 150 142
-1.21377099 -0.55869406 1.70753610 158 154 146
-1.20475030 -0.55589360 1.69897699 157 154 144
-1.19880927 -0.55450386 1.69472957 155 152 142
-0.93134987 -0.53062570 1.62175083 157 157 148
-0.93922544 -0.53835326 1.64536858 159 157 148
-0.93638158 -0.53835326 1.64536858 158 156 148
-0.93353766 -0.53835326 1.64536858 159 156 148
-0.93295825 -0.53966314 1.64937186 160 158 151
-0.93010747 -0.53966314 1.64937186 159 159 152
-0.92725664 -0.53966314 1.64937186 138 137 132
-0.92440587 -0.53966314 1.64937186 83 82 78
-0.92155504 -0.53966314 1.64937186 44 43 39
-0.91870421 -0.53966314 1.64937186 53 52 48
-0.91808724 -0.54097939 1.65339470 51 50 46
-0.91522944 -0.54097939 1.65339470 46 44 42
-0.91237170 -0.54097939 1.65339470 47 45 43
-0.90951395 -0.54097939 1.65339470 47 46 44
-0.90887296 -0.54230207 1.65743732 45 44 42
-0.90600818 -0.54230207 1.65743732 43 43 41
-0.89874858 -0.53966314 1.64937186 43 43 41
-0.46210983 -0.20130463 0.61851448 34 33 35
-0.45522586 -0.19876565 0.61071336 34 33 35
-0.44891274 -0.19646470 0.60364366 34 33 35
-0.44430858 -0.19490272 0.59884441 35 34 36
-0.44366547 -0.19507504 0.59937388 37 36 38
-1.24623561 -0.55574274 1.70753610 41 40 40
-1.24642396 -0.55714613 1.71184814 41 41 41
-1.24033296 -0.55574274 1.70753610 41 41 41
-1.23738170 -0.55574274 1.70753610 41 42 42
-1.23754752 -0.55714613 1.71184814 46 47 47
-1.23147893 -0.55574274 1.70753610 54 53 53
-1.22852767 -0.55574274 1.70753610 42 40 41
-1.22249699 -0.55434638 1.70324588 103 98 93
-1.22571242 -0.55714613 1.71184814 137 132 125
-1.21967363 -0.55574274 1.70753610 148 143 136
-1.21979475 -0.55714613 1.71184814 153 148 139
-1.21683598 -0.55714613 1.71184814 157 152 143
-1.20475030 -0.55295706 1.69897699 155 152 142
-1.20181382 -0.55295706 1.69897699 155 152 142
-0.93415296 -0.52782267 1.62175083 156 156 147
-0.92912710 -0.52656293 1.61788034 156 156 147
-0.93978828 -0.53421277 1.64138460 156 156 147
-0.93695128 -0.53421277 1.64138460 157 156 147
-0.93185800 -0.53292239 1.63741994 157 156 147
-0.93127733 -0.53421277 1.64138460 156 155 147
-0.93069381 -0.53550941 1.64536858 156 155 147
-0.92784989 -0.53550941 1.64536858 158 158 151
-0.92500603 -0.53550941 1.64536858 128 128 122
-0.92216212 -0.53550941 1.64536858 64 63 61
-0.91931826 -0.53550941 1.64536858 50 49 46
-0.91647440 -0.53550941 1.64536858 54 53 49
-0.91585344 -0.53681231 1.64937186 55 54 50
-0.91300261 -0.53681231 1.64937186 50 46 43
-0.91015184 -0.53681231 1.64937186 48 44 41
-0.90730101 -0.53681231 1.64937186 51 48 46
-0.90665621 -0.53812164 1.65339470 46 44 42
-0.90600818 -0.53943735 1.65743732 44 43 41
-0.89874858 -0.53681231 1.64937186 42 41 39
-0.89155930 -0.53421277 1.64138460 41 40 38
-0.89087939 -0.53550941 1.64536858 41 40 38
-0.46168858 -0.20005304 0.61795062 38 37 38
-0.45522586 -0.19771008 0.61071336 41 40 41
-0.44891274 -0.19542135 0.60364366 35 34 34
-0.44391644 -0.19369654 0.59831583 37 36 36
-0.44366547 -0.19403908 0.59937388 37 36 36
-0.44262949 -0.19403908 0.59937388 37 36 37
-1.24938273 -0.55418736 1.71184814 42 41 42
-1.24957943 -0.55559033 1.71618187 43 42 42
-1.24346519 -0.55418736 1.71184814 43 43 43
-1.24364686 -0.55559033 1.71618187 45 45 47
-1.24068058 -0.55559033 1.71618187 46 46 48
-1.23458874 -0.55418736 1.71184814 58 55 56
-1.23162997 -0.55418736 1.71184814 46 43 44
-1.22557628 -0.55279142 1.70753610 92 88 84
-1.22571242 -0.55418736 1.71184814 138 133 126
-1.22275364 -0.55418736 1.71184814 149 144 137
-1.22288287 -0.55559033 1.71618187 151 146 139
-1.21683598 -0.55418736 1.71184814 152 147 140
-1.20777738 -0.55140251 1.70324588 154 151 143
-0.92970461 -0.52251947 1.61402822 157 157 148
-0.92691487 -0.52251947 1.61402822 156 156 147
-0.93525922 -0.52881491 1.63347435 156 156 147
-0.93243587 -0.52881491 1.63347435 158 157 148
-0.92961258 -0.52881491 1.63347435 157 155 147
-0.92678922 -0.52881491 1.63347435 158 155 147
-0.92844033 -0.53137577 1.64138460 158 155 147
-0.92560333 -0.53137577 1.64138460 167 166 159
-0.92276633 -0.53137577 1.64138460 138 138 131
-0.91770726 -0.53009224 1.63741994 67 67 66
-0.91709232 -0.53137577 1.64138460 50 50 49
-0.91425532 -0.53137577 1.64138460 51 51 50
-0.91363049 -0.53266549 1.64536858 55 54 53
-0.91078663 -0.53266549 1.64536858 53 49 49
-0.90794271 -0.53266549 1.64536858 50 46 45
-0.90509886 -0.53266549 1.64536858 52 46 45
-0.90445024 -0.53396153 1.64937186 49 43 42
-0.90379840 -0.53526390 1.65339470 47 42 41
-0.89656717 -0.53266549 1.64536858 46 42 41
-0.88940579 -0.53009224 1.63741994 44 40 41
-0.88872230 -0.53137577 1.64138460 43 39 40
-0.46168858 -0.19898497 0.61795062 35 34 36
-0.45522586 -0.19665451 0.61071336 36 35 37
-0.44851336 -0.19420508 0.60310662 37 36 38
-0.44352499 -0.19249251 0.59778821 38 35 38
-0.44288230 -0.19266240 0.59831583 41 37 40
-0.44223848 -0.19283260 0.59884441 41 38 40
-1.25254571 -0.55262405 1.71618187 42 41 41
-1.25275099 -0.55402666 1.72053766 45 44 44
-1.24661314 -0.55262405 1.71618187 46 45 45
-1.24680328 -0.55402666 1.72053766 46 46 46
-1.24068058 -0.55262405 1.71618187 46 46 46
-1.23771429 -0.55262405 1.71618187 48 45 45
-1.23162997 -0.55122852 1.71184814 53 47 48
-1.22557628 -0.54984009 1.70753610 85 80 77
-1.21683598 -0.55122852 1.71184814 154 149 141
-1.20475030 -0.54708397 1.69897699 154 151 142
-0.92529839 -0.51726663 1.60637879 157 158 151
-0.92471319 -0.51849526 1.61019444 154 155 147
-0.93301100 -0.52472717 1.62954772 153 154 146
-0.93019444 -0.52472717 1.62954772 159 160 152
-0.92515397 -0.52346885 1.62563992 158 158 150
-0.92456138 -0.52472717 1.62954772 158 155 148
-0.92396587 -0.52599156 1.63347435 160 157 150
-0.92336756 -0.52726209 1.63741994 161 158 152
-0.91831923 -0.52599156 1.63347435 124 121 116
-0.91549593 -0.52599156 1.63347435 75 74 72
-0.91487712 -0.52726209 1.63741994 50 50 50
-0.91204697 -0.52726209 1.63741994 48 48 48
-0.90921682 -0.52726209 1.63741994 49 49 49
-0.90858132 -0.52853876 1.64138460 46 45 45
-0.90574431 -0.52853876 1.64138460 43 42 42
-0.90290731 -0.52853876 1.64138460 44 41 40
-0.90225494 -0.52982163 1.64536858 45 40 40
-0.90159941 -0.53111070 1.64937186 46 40 40
-0.89439631 -0.52853876 1.64138460 45 40 39
-0.88940579 -0.52726209 1.63741994 44 39 40
-0.88872230 -0.52853876 1.64138460 43 39 40
-0.89236736 -0.53240609 1.65339470 43 39 40
-0.44306025 -0.30317572 0.94151646 40 39 41
-0.46210983 -0.19809747 0.61851448 34 33 35
-0.45522586 -0.19559895 0.61071336 35 34 36
-0.44811466 -0.19299096 0.60257053 35 34 36
-0.44313422 -0.19129060 0.59726155 37 35 37
-0.44288230 -0.19162826 0.59831583 40 36 39
-0.44184816 -0.19162826 0.59831583 42 38 41
-1.25572479 -0.55105287 1.72053766 42 41 41
-1.25593865 -0.55245501 1.72491562 43 42 42
-1.24977720 -0.55105287 1.72053766 45 44 44
-1.24997580 -0.55245501 1.72491562 45 44 44
-1.24699450 -0.55245501 1.72491562 46 45 45
-1.24085569 -0.55105287 1.72053766 51 47 47
-1.23474801 -0.54965776 1.71618187 64 55 56
-1.22867119 -0.54826975 1.71184814 88 80 80
-0.92311096 -0.51327384 1.60258114 158 158 151
-0.92471319 -0.51571220 1.61019444 159 159 152
-0.93077356 -0.52065903 1.62563992 155 156 149
-0.92796379 -0.52065903 1.62563992 154 154 146
-0.92294067 -0.51941347 1.62175083 154 154 146
-0.92234421 -0.52065903 1.62563992 155 154 146
-0.92396587 -0.52316827 1.63347435 157 154 147
-0.92114258 -0.52316827 1.63347435 160 156 151
-0.91831923 -0.52316827 1.63347435 128 124 121
-0.91329521 -0.52191061 1.62954772 71 67 67
-0.91267258 -0.52316827 1.63347435 45 41 44
-0.90984929 -0.52316827 1.63347435 49 46 49
-0.90921682 -0.52443194 1.63741994 48 47 51
-0.90638667 -0.52443194 1.63741994 45 44 47
-0.90355653 -0.52443194 1.63741994 43 43 44
-0.90072638 -0.52443194 1.63741994 42 41 43
-0.90007031 -0.52570176 1.64138460 42 40 41
-0.90159941 -0.52825993 1.64937186 42 40 40
-0.89439631 -0.52570176 1.64138460 42 39 39
-0.88726264 -0.52316827 1.63347435 42 39 39
-0.88657564 -0.52443194 1.63741994 42 39 40
-0.44818234 -0.30281007 0.94545585 42 38 39
-0.44592628 -0.30238834 0.94413906 42 38 39
-0.44306025 -0.30154836 0.94151646 42 38 39
-0.44082066 -0.30113015 0.94021058 41 39 39
-0.46168858 -0.19684881 0.61795062 34 33 35
-0.45522586 -0.19454338 0.61071336 35 34 36
-0.44811466 -0.19194946 0.60257053 35 34 36
-0.44274414 -0.19009079 0.59673578 35 34 36
-0.44288230 -0.19059412 0.59831583 37 36 36
-0.44184816 -0.19059412 0.59831583 39 38 38
-1.25914252 -0.55087537 1.72931588 43 42 42
-1.25615358 -0.55087537 1.72931588 44 43 43
-1.25316453 -0.55087537 1.72931588 45 43 44
-1.24699450 -0.54947364 1.72491562 44 43 43
-1.24401307 -0.54947364 1.72491562 49 46 47
-1.23788190 -0.54807907 1.72053766 67 58 61
-0.92311096 -0.51050389 1.60258114 155 156 149
-0.92252195 -0.51171362 1.60637879 157 158 151
-0.92854685 -0.51661038 1.62175083 159 160 153
-0.92574376 -0.51661038 1.62175083 157 158 150
-0.92073798 -0.51537740 1.61788034 155 155 146
-0.92013764 -0.51661038 1.62175083 155 154 146
-0.92174482 -0.51909411 1.62954772 154 153 145
-0.91892827 -0.51909411 1.62954772 157 155 148
-0.91611177 -0.51909411 1.62954772 141 138 132
-0.91329521 -0.51909411 1.62954772 73 70 67
-0.91047865 -0.51909411 1.62954772 40 37 40
-0.90984929 -0.52034491 1.63347435 51 48 53
-0.90702593 -0.52034491 1.63347435 48 46 53
-0.90420258 -0.52034491 1.63347435 45 43 50
-0.90355653 -0.52160180 1.63741994 45 44 48
-0.89855593 -0.52034491 1.63347435 44 43 47
-0.90007031 -0.52286476 1.64138460 44 43 46
-0.89941108 -0.52413386 1.64536858 43 42 45
-0.89223593 -0.52160180 1.63741994 42 41 42
-0.88726264 -0.52034491 1.63347435 41 40 41
-0.88657564 -0.52160180 1.63741994 40 39 40
-0.89236736 -0.52669060 1.65339470 41 40 41
-0.44755813 -0.30075645 0.94413906 41 40 40
-0.44468760 -0.29992104 0.94151646 41 39 40
-0.44244576 -0.29950505 0.94021058 41 37 38
-0.44021010 -0.29909024 0.93890840 41 37 38
-0.43980560 -0.29992104 0.94151646 41 37 38
-0.43696445 -0.29909024 0.93890840 42 37 38
-0.46084839 -0.19542444 0.61682606 35 34 35
-0.45481610 -0.19331364 0.61016369 35 34 35
-0.44811466 -0.19090797 0.60257053 36 35 36
-0.44313422 -0.18922596 0.59726155 36 35 36
-0.44288230 -0.18955998 0.59831583 37 36 36
-0.44184816 -0.18955998 0.59831583 38 37 37
-1.26236284 -0.54928762 1.73373878 44 43 43
-1.25936627 -0.54928762 1.73373878 44 43 43
-1.25959110 -0.55069607 1.73818421 46 43 44
-1.25337303 -0.54928762 1.73373878 47 41 45
-1.25358248 -0.55069607 1.73818421 41 35 39
-1.24103177 -0.54649228 1.72491562 55 47 51
-0.93471986 -0.51258105 1.61788034 159 157 152
-0.92311096 -0.50773394 1.60258114 156 156 149
-0.92252195 -0.50893712 1.60637879 156 156 148
-0.92633075 -0.51258105 1.61788034 157 157 148
-0.92353433 -0.51258105 1.61788034 161 161 151
-0.92073798 -0.51258105 1.61788034 161 161 150
-0.91794157 -0.51258105 1.61788034 156 156 145
-0.91733456 -0.51380736 1.62175083 155 155 146
-0.91672462 -0.51503950 1.62563992 153 153 144
-0.91391486 -0.51503950 1.62563992 146 144 136
-0.91110504 -0.51503950 1.62563992 65 64 56
-0.91047865 -0.51627755 1.62954772 40 39 39
-0.90766209 -0.51627755 1.62954772 48 48 48
-0.90484560 -0.51627755 1.62954772 48 48 50
-0.90420258 -0.51752162 1.63347435 46 46 48
-0.90137929 -0.51752162 1.63347435 44 44 46
-0.89855593 -0.51752162 1.63347435 43 43 45
-0.89789623 -0.51877165 1.63741994 43 43 45
-0.89723331 -0.52002776 1.64138460 42 41 44
-0.89008594 -0.51752162 1.63347435 41 41 43
-0.88512981 -0.51627755 1.62954772 41 41 43
-0.88657564 -0.51877165 1.63741994 41 41 42
-0.89236736 -0.52383286 1.65339470 41 41 42
-0.44818234 -0.29954180 0.94545585 41 39 39
-0.44530606 -0.29870856 0.94282591 41 39 39
-0.44306025 -0.29829371 0.94151646 41 37 38
-0.44021010 -0.29746741 0.93890840 40 36 37
-0.43980560 -0.29829371 0.94151646 41 37 38
-0.43696445 -0.29746741 0.93890840 41 37 38
-0.46001124 -0.19400525 0.61570555 35 34 34
-0.45481610 -0.19225903 0.61016369 36 35 35
-0.44811466 -0.18986647 0.60257053 38 37 37
-0.44352499 -0.18835959 0.59778821 38 37 37
-0.44327354 -0.18869239 0.59884441 38 37 37
-0.44223848 -0.18869239 0.59884441 38 37 37
-1.26236284 -0.54629099 1.73373878 44 40 42
-1.25936627 -0.54629099 1.73373878 45 41 44
-1.25959110 -0.54769176 1.73818421 47 42 45
-1.25337303 -0.54629099 1.73373878 52 41 47
-1.25680506 -0.54909968 1.74265254 48 38 43
-1.24419761 -0.54489738 1.72931588 50 44 48
-0.93695599 -0.51100427 1.62175083 161 158 153
-0.92311096 -0.50496399 1.60258114 158 158 151
-0.92252195 -0.50616062 1.60637879 157 157 150
-0.92633075 -0.50978470 1.61788034 155 156 148
-0.92353433 -0.50978470 1.61788034 153 154 145
-0.91854572 -0.50857091 1.61402822 154 155 140
-0.91794157 -0.50978470 1.61788034 155 156 140
-0.91733456 -0.51100427 1.62175083 154 155 141
-0.91453147 -0.51100427 1.62175083 153 154 141
-0.91391486 -0.51222968 1.62563992 139 140 130
-0.90892535 -0.51100427 1.62175083 76 77 68
-0.90829527 -0.51222968 1.62563992 47 48 46
-0.90548545 -0.51222968 1.62563992 46 46 46
-0.90484560 -0.51346099 1.62954772 47 47 48
-0.90202904 -0.51346099 1.62954772 46 46 47
-0.89921248 -0.51346099 1.62954772 45 45 46
-0.89639598 -0.51346099 1.62954772 44 44 44
-0.89789623 -0.51594150 1.63741994 43 43 43
-0.89723331 -0.51719075 1.64138460 42 42 42
-0.88794631 -0.51346099 1.62954772 41 41 41
-0.88300717 -0.51222968 1.62563992 41 41 41
-0.88443929 -0.51469827 1.63347435 41 41 41
-0.89019620 -0.51970750 1.64937186 41 41 41
-0.44818234 -0.29790765 0.94545585 41 37 38
-0.44530606 -0.29707897 0.94282591 41 37 38
-0.44306025 -0.29666635 0.94151646 41 37 38
-0.44082066 -0.29625490 0.94021058 41 37 38
-0.44041729 -0.29707897 0.94282591 41 37 38
-0.43757051 -0.29625490 0.94021058 41 36 38
-0.46042943 -0.19311646 0.61626530 35 34 33
-0.45522586 -0.19137667 0.61071336 37 36 35
-0.44851336 -0.18899298 0.60310662 38 37 36
-0.44430858 -0.18765733 0.59884441 37 36 36
-0.44366547 -0.18782325 0.59937388 38 37 37
-0.44262949 -0.18782325 0.59937388 39 38 38
-1.26559973 -0.54468745 1.73818421 43 40 41
-1.25936627 -0.54329437 1.73373878 46 41 45
-1.25959110 -0.54468745 1.73818421 48 43 46
-1.25658679 -0.54468745 1.73818421 47 37 43
-1.26004422 -0.54749513 1.74714386 51 41 47
-1.24737966 -0.54329437 1.73373878 62 54 59
-0.93920290 -0.50941992 1.62563992 162 158 154
-0.92529839 -0.50338411 1.60637879 161 158 154
-0.92252195 -0.50338411 1.60637879 158 156 151
-0.92633075 -0.50698829 1.61788034 158 157 150
-0.92353433 -0.50698829 1.61788034 157 156 149
-0.92073798 -0.50698829 1.61788034 155 155 146
-0.91794157 -0.50698829 1.61788034 155 155 145
-0.91733456 -0.50820118 1.62175083 154 155 141
-0.91453147 -0.50820118 1.62175083 161 162 146
-0.91391486 -0.50941992 1.62563992 142 144 134
-0.90892535 -0.50820118 1.62175083 80 82 75
-0.90829527 -0.50941992 1.62563992 46 47 44
-0.90548545 -0.50941992 1.62563992 46 47 47
-0.90267569 -0.50941992 1.62563992 46 47 47
-0.90202904 -0.51064450 1.62954772 46 46 46
-0.89921248 -0.51064450 1.62954772 46 46 46
-0.89639598 -0.51064450 1.62954772 44 44 44
-0.89789623 -0.51311135 1.63741994 42 42 42
-0.89723331 -0.51435375 1.64138460 41 41 41
-0.88794631 -0.51064450 1.62954772 41 41 41
-0.88300717 -0.50941992 1.62563992 41 41 41
-0.88657564 -0.51311135 1.63741994 41 41 41
-0.89019620 -0.51685667 1.64937186 41 41 41
-0.45107472 -0.29710224 0.94810051 39 35 36
-0.44880831 -0.29668730 0.94677633 39 35 36
-0.44592628 -0.29586086 0.94413906 40 36 37
-0.44429439 -0.29586086 0.94413906 41 37 38
-0.44204688 -0.29544938 0.94282591 41 37 38
-0.44103068 -0.29586086 0.94413906 41 37 39
-0.43817824 -0.29503903 0.94151646 41 37 39
-0.46084839 -0.19222604 0.61682606 35 34 34
-0.45522586 -0.19032110 0.61071336 37 36 35
-0.44891274 -0.18811792 0.60364366 36 35 35
-0.44509497 -0.18695259 0.59990430 35 34 34
-0.44445142 -0.18711817 0.60043561 34 34 34
-0.44341362 -0.18711817 0.60043561 36 35 35
-1.26282907 -0.54307562 1.74265254 48 44 48
-1.25981700 -0.54307562 1.74265254 48 40 47
-1.27649391 -0.55158335 1.76995254 49 37 47
-1.25057817 -0.54168314 1.73818421 60 49 58
-0.93695599 -0.50539815 1.62175083 158 157 151
-0.92311096 -0.49942416 1.60258114 162 159 154
-0.92252195 -0.50060761 1.60637879 157 153 148
-0.92633075 -0.50419194 1.61788034 156 153 148
-0.92353433 -0.50419194 1.61788034 158 155 149
-0.92073798 -0.50419194 1.61788034 157 155 147
-0.91794157 -0.50419194 1.61788034 155 154 145
-0.91733456 -0.50539815 1.62175083 153 151 141
-0.91453147 -0.50539815 1.62175083 156 154 142
-0.91391486 -0.50661010 1.62563992 127 128 120
-0.90892535 -0.50539815 1.62175083 65 69 67
-0.90829527 -0.50661010 1.62563992 45 48 48
-0.90548545 -0.50661010 1.62563992 47 50 51
-0.90267569 -0.50661010 1.62563992 45 48 49
-0.90202904 -0.50782794 1.62954772 44 47 48
-0.89921248 -0.50782794 1.62954772 44 46 46
-0.89639598 -0.50782794 1.62954772 44 45 45
-0.89789623 -0.51028121 1.63741994 42 43 43
-0.89723331 -0.51151675 1.64138460 40 41 41
-0.88794631 -0.50782794 1.62954772 40 40 40
-0.88300717 -0.50661010 1.62563992 40 40 40
-0.88657564 -0.51028121 1.63741994 40 40 40
-0.89236736 -0.51525956 1.65339470 41 41 41
-0.45170647 -0.29587734 0.94942838 38 34 37
-0.44880831 -0.29505086 0.94677633 37 33 36
-0.44654822 -0.29463935 0.94545585 36 32 35
-0.44491407 -0.29463935 0.94545585 36 32 34
-0.44266254 -0.29422900 0.94413906 39 35 36
-0.44164577 -0.29463935 0.94545585 41 37 38
-0.43939880 -0.29422900 0.94413906 41 37 39
-0.46084839 -0.19115990 0.61682606 35 34 34
-0.45522586 -0.18926553 0.61071336 36 35 35
-0.44971365 -0.18740833 0.60472065 37 36 36
-0.93249434 -0.50020176 1.61402822 156 157 150
-0.92093378 -0.49548286 1.59880149 158 157 151
-0.92252195 -0.49783114 1.60637879 157 154 148
-0.92412519 -0.50020176 1.61402822 159 155 150
-0.92133546 -0.50020176 1.61402822 162 158 153
-0.91854572 -0.50020176 1.61402822 158 154 148
-0.91575605 -0.50020176 1.61402822 155 151 143
-0.91514522 -0.50139558 1.61788034 153 149 142
-0.91234887 -0.50139558 1.61788034 155 152 146
-0.91172844 -0.50259507 1.62175083 136 134 129
-0.90675610 -0.50139558 1.61788034 42 43 45
-0.90612233 -0.50259507 1.62175083 44 45 47
-0.90548545 -0.50380033 1.62563992 50 51 53
-0.90267569 -0.50380033 1.62563992 47 48 50
-0.89986593 -0.50380033 1.62563992 45 47 49
-0.89921248 -0.50501138 1.62954772 44 45 47
-0.89639598 -0.50501138 1.62954772 42 43 45
-0.89789623 -0.50745106 1.63741994 42 43 44
-0.89723331 -0.50867975 1.64138460 39 40 41
-0.88581699 -0.50380033 1.62563992 39 40 40
-0.88089472 -0.50259507 1.62175083 39 40 41
-0.45170647 -0.29423633 0.94942838 37 33 36
-0.44880831 -0.29341444 0.94677633 37 33 36
-0.44654822 -0.29300523 0.94545585 37 33 36
-0.44491407 -0.29300523 0.94545585 36 32 34
-0.44266254 -0.29259712 0.94413906 37 33 34
-0.44164577 -0.29300523 0.94545585 40 36 37
-0.43939880 -0.29259712 0.94413906 42 38 39
-0.46126810 -0.19026691 0.61738783 37 36 36
-0.45522586 -0.18820997 0.61071336 37 36 36
-0.44971365 -0.18636312 0.60472065 37 36 36
-0.44747093 -0.18586572 0.60310662 37 36 36
-0.44603169 -0.18570049 0.60257053 36 35 35
-0.44578269 -0.18603122 0.60364366 37 36 37
-0.93249434 -0.49741203 1.61402822 158 159 150
-0.92093378 -0.49271947 1.59880149 157 157 149
-0.92252195 -0.49505463 1.60637879 156 156 149
-0.92412519 -0.49741203 1.61402822 156 155 148
-0.92133546 -0.49741203 1.61402822 160 156 151
-0.91636389 -0.49623054 1.61019444 157 153 147
-0.91575605 -0.49741203 1.61402822 152 148 139
-0.91296631 -0.49741203 1.61402822 152 149 140
-0.91017658 -0.49741203 1.61402822 151 149 142
-0.90955245 -0.49859917 1.61788034 155 153 146
-0.90675610 -0.49859917 1.61788034 40 41 43
-0.90612233 -0.49979201 1.62175083 34 35 37
-0.90331924 -0.49979201 1.62175083 45 46 48
-0.90051615 -0.49979201 1.62175083 45 46 48
-0.89986593 -0.50099057 1.62563992 45 46 48
-0.89705610 -0.50099057 1.62563992 43 44 46
-0.89639598 -0.50219482 1.62954772 42 43 45
-0.89573264 -0.50340497 1.63347435 42 43 45
-0.89506608 -0.50462091 1.63741994 40 40 42
-0.88369781 -0.49979201 1.62175083 38 38 40
-0.45107472 -0.29218608 0.94810051 37 36 37
-0.44818234 -0.29137108 0.94545585 36 35 37
-0.44592628 -0.29096526 0.94413906 35 34 34
-0.44429439 -0.29096526 0.94413906 36 34 34
-0.44204688 -0.29056057 0.94282591 38 34 35
-0.44103068 -0.29096526 0.94413906 39 35 36
-0.43939880 -0.29096526 0.94413906 39 35 36
-0.43715808 -0.29056057 0.94282591 40 37 37
-0.46360186 -0.18971816 0.61907929 36 35 37
-0.46168858 -0.18937227 0.61795062 37 36 38
-0.45522586 -0.18715440 0.61071336 37 36 38
-0.45011517 -0.18548337 0.60526055 37 36 38
-0.44866845 -0.18531790 0.60472065 38 35 38
-0.44642851 -0.18482329 0.60310662 39 36 38
-0.44697675 -0.18548337 0.60526055 40 36 39
-0.93249434 -0.49462232 1.61402822 157 158 150
-0.92311096 -0.49111438 1.60258114 155 156 147
-0.92252195 -0.49227813 1.60637879 155 156 147
-0.92412519 -0.49462232 1.61402822 155 156 147
-0.92133546 -0.49462232 1.61402822 156 156 147
-0.91636389 -0.49344745 1.61019444 159 159 150
-0.91575605 -0.49462232 1.61402822 155 152 143
-0.91296631 -0.49462232 1.61402822 159 156 146
-0.91017658 -0.49462232 1.61402822 155 153 144
-0.90955245 -0.49580282 1.61788034 144 143 133
-0.90675610 -0.49580282 1.61788034 60 60 60
-0.90395969 -0.49580282 1.61788034 41 42 44
-0.90331924 -0.49698895 1.62175083 48 49 51
-0.90051615 -0.49698895 1.62175083 46 47 49
-0.89771312 -0.49698895 1.62175083 44 45 47
-0.89705610 -0.49818075 1.62563992 43 44 46
-0.89424634 -0.49818075 1.62563992 43 44 45
-0.89573264 -0.50058162 1.63347435 42 43 44
-0.89506608 -0.50179076 1.63741994 41 41 43
-0.88158870 -0.49580282 1.61788034 39 39 41
-0.45107472 -0.29054737 0.94810051 39 38 38
-0.44818234 -0.28973693 0.94545585 39 38 38
-0.44592628 -0.28933340 0.94413906 38 37 37
-0.44429439 -0.28933340 0.94413906 38 37 37
-0.44204688 -0.28893098 0.94282591 39 35 36
-0.44103068 -0.28933340 0.94413906 39 35 36
-0.43939880 -0.28933340 0.94413906 37 33 34
-0.46402565 -0.18882056 0.61964518 35 34 36
-0.46126810 -0.18813269 0.61738783 35 34 36
-0.45522586 -0.18609883 0.61071336 39 35 38
-0.44971365 -0.18427269 0.60472065 39 35 38
-0.44866845 -0.18427269 0.60472065 41 36 39
-0.44642851 -0.18378086 0.60310662 42 36 40
-0.44777635 -0.18476717 0.60634333 42 36 40
-0.94655252 -0.49775830 1.63347435 159 160 151
-0.93249434 -0.49183261 1.61402822 159 158 151
-0.92311096 -0.48834443 1.60258114 157 156 149
-0.92252195 -0.48950166 1.60637879 156 156 149
-0.92412519 -0.49183261 1.61402822 155 155 148
-0.92133546 -0.49183261 1.61402822 154 154 145
-0.91636389 -0.49066436 1.61019444 153 153 144
-0.91358083 -0.49066436 1.61019444 150 150 140
-0.91296631 -0.49183261 1.61402822 150 150 139
-0.91017658 -0.49183261 1.61402822 158 157 146
-0.90738684 -0.49183261 1.61402822 139 137 127
-0.90459716 -0.49183261 1.61402822 75 74 70
-0.90395969 -0.49300644 1.61788034 41 42 44
-0.90116334 -0.49300644 1.61788034 50 51 53
-0.89836699 -0.49300644 1.61788034 47 48 51
-0.89557058 -0.49300644 1.61788034 42 43 44
-0.89491004 -0.49418586 1.62175083 41 42 42
-0.89210695 -0.49418586 1.62175083 44 45 45
-0.89357942 -0.49656177 1.62954772 42 43 43
-0.89290929 -0.49775830 1.63347435 40 41 41
-0.45107472 -0.28890866 0.94810051 39 38 38
-0.44880831 -0.28850517 0.94677633 39 38 38
-0.44592628 -0.28770152 0.94413906 39 38 38
-0.44429439 -0.28770152 0.94413906 39 38 38
-0.44266254 -0.28770152 0.94413906 38 36 36
-0.44164577 -0.28810278 0.94545585 37 34 35
-0.43939880 -0.28770152 0.94413906 36 33 34
-0.43655092 -0.28690237 0.94151646 37 34 34
-0.46360186 -0.18757810 0.61907929 34 32 35
-0.46042943 -0.18672547 0.61626530 35 33 36
-0.45481610 -0.18487670 0.61016369 35 34 36
-0.44931284 -0.18306418 0.60418171 36 35 37
-0.44747093 -0.18273845 0.60310662 37 36 38
-0.44603169 -0.18257602 0.60257053 37 36 38
-0.44737619 -0.18355498 0.60580146 38 36 38
-0.94883889 -0.49613047 1.63741994 160 158 149
-0.93471986 -0.49021006 1.61788034 159 157 148
-0.92529839 -0.48672515 1.60637879 158 155 147
-0.92252195 -0.48672515 1.60637879 158 156 147
-0.92412519 -0.48904288 1.61402822 156 155 146
-0.92133546 -0.48904288 1.61402822 155 154 145
-0.91854572 -0.48904288 1.61402822 154 154 145
-0.91575605 -0.48904288 1.61402822 153 153 141
-0.91296631 -0.48904288 1.61402822 152 154 138
-0.91017658 -0.48904288 1.61402822 154 157 140
-0.90955245 -0.49021006 1.61788034 142 145 127
-0.90675610 -0.49021006 1.61788034 83 85 74
-0.90395969 -0.49021006 1.61788034 33 33 36
-0.90116334 -0.49021006 1.61788034 47 47 51
-0.89836699 -0.49021006 1.61788034 48 48 52
-0.89557058 -0.49021006 1.61788034 44 44 47
-0.89277422 -0.49021006 1.61788034 41 41 43
-0.88997787 -0.49021006 1.61788034 45 45 47
-0.89143652 -0.49256119 1.62563992 44 44 46
-0.89290929 -0.49493498 1.63347435 43 43 44
-0.45599088 -0.28726995 0.94810051 39 38 38
-0.45371759 -0.28686872 0.94677633 39 38 38
-0.45271343 -0.28726995 0.94810051 37 36 36
-0.45107472 -0.28726995 0.94810051 38 36 36
-0.44818234 -0.28646863 0.94545585 39 36 36
-0.44592628 -0.28606966 0.94413906 40 36 37
-0.44429439 -0.28606966 0.94413906 40 37 38
-0.44204688 -0.28567177 0.94282591 40 37 38
-0.44164577 -0.28646863 0.94545585 38 36 36
-0.43939880 -0.28606966 0.94413906 37 35 35
-0.46275666 -0.18616803 0.61795062 34 32 35
-0.45959380 -0.18532336 0.61514688 35 32 36
-0.45440710 -0.18365677 0.60961497 36 33 36
-0.44851336 -0.18169603 0.60310662 37 33 36
-0.44667614 -0.18137330 0.60203540 37 33 36
-0.44524014 -0.18121237 0.60150117 38 32 36
-0.44499019 -0.18153451 0.60257053 39 34 38
-0.94655252 -0.49211165 1.63347435 158 155 147
-0.93471986 -0.48741367 1.61788034 158 155 147
-0.92529839 -0.48394865 1.60637879 157 154 146
-0.92252195 -0.48394865 1.60637879 157 155 146
-0.92412519 -0.48625317 1.61402822 158 156 145
-0.92133546 -0.48625317 1.61402822 156 154 143
-0.91854572 -0.48625317 1.61402822 155 153 143
-0.91575605 -0.48625317 1.61402822 155 153 142
-0.91296631 -0.48625317 1.61402822 153 155 139
-0.91017658 -0.48625317 1.61402822 154 156 141
-0.90955245 -0.48741367 1.61788034 142 144 134
-0.90459716 -0.48625317 1.61402822 92 94 86
-0.90180743 -0.48625317 1.61402822 26 26 33
-0.89901769 -0.48625317 1.61402822 46 46 53
-0.89622802 -0.48625317 1.61402822 47 47 54
-0.89557058 -0.48741367 1.61788034 44 43 50
-0.89277422 -0.48741367 1.61788034 42 41 46
-0.88997787 -0.48741367 1.61788034 44 43 47
-0.89143652 -0.48975140 1.62563992 44 43 47
-0.89076287 -0.49092868 1.62954772 43 43 46
-0.45662951 -0.28603128 0.94942838 37 35 35
-0.45371759 -0.28523231 0.94677633 37 35 36
-0.45271343 -0.28563124 0.94810051 39 35 36
-0.45107472 -0.28563124 0.94810051 39 35 36
-0.44880831 -0.28523231 0.94677633 40 34 36
-0.44592628 -0.28443778 0.94413906 40 34 37
-0.44429439 -0.28443778 0.94413906 41 35 39
-0.44266254 -0.28443778 0.94413906 42 36 39
-0.44164577 -0.28483450 0.94545585 41 35 37
-0.44001162 -0.28483450 0.94545585 40 35 37
-0.43715808 -0.28404218 0.94282591 41 36 37
-0.43613505 -0.28443778 0.94413906 41 36 37
-0.46233520 -0.18493138 0.61738783 34 33 35
-0.45834604 -0.18375987 0.61347675 34 33 35
-0.45440710 -0.18260311 0.60961497 35 33 36
-0.44811466 -0.18049303 0.60257053 38 33 36
-0.44588414 -0.18001299 0.60096794 39 34 37
-0.44484544 -0.18001299 0.60096794 40 34 38
-0.44420049 -0.18017271 0.60150117 40 34 38
-0.94427717 -0.48811215 1.62954772 156 156 149
-0.93249434 -0.48346347 1.61402822 155 155 148
-0.92311096 -0.48003465 1.60258114 155 154 147
-0.92252195 -0.48117217 1.60637879 155 154 146
-0.92193007 -0.48231509 1.61019444 155 155 145
-0.92133546 -0.48346347 1.61402822 155 155 145
-0.91636389 -0.48231509 1.61019444 153 154 143
-0.91358083 -0.48231509 1.61019444 156 156 146
-0.91079772 -0.48231509 1.61019444 154 154 144
-0.90801466 -0.48231509 1.61019444 154 154 144
-0.90738684 -0.48346347 1.61402822 146 147 144
-0.90459716 -0.48346347 1.61402822 77 78 76
-0.89966536 -0.48231509 1.61019444 23 25 32
-0.89901769 -0.48346347 1.61402822 43 46 54
-0.89622802 -0.48346347 1.61402822 46 46 55
-0.89343828 -0.48346347 1.61402822 44 44 53
-0.89064854 -0.48346347 1.61402822 44 43 50
-0.88785887 -0.48346347 1.61402822 43 42 49
-0.88718146 -0.48461729 1.61788034 43 42 48
-0.88862675 -0.48694161 1.62563992 42 42 48
-0.45435214 -0.28399253 0.94810051 37 33 34
-0.45334750 -0.28439027 0.94942838 38 32 34
-0.45107472 -0.28399253 0.94810051 38 32 34
-0.44880831 -0.28359589 0.94677633 40 34 36
-0.44654822 -0.28320035 0.94545585 38 32 34
-0.44491407 -0.28320035 0.94545585 39 30 33
-0.44266254 -0.28280592 0.94413906 40 32 35
-0.44164577 -0.28320035 0.94545585 40 34 36
-0.44001162 -0.28320035 0.94545585 40 34 36
-0.43715808 -0.28241259 0.94282591 41 35 37
-0.46149459 -0.18352997 0.61626530 35 34 36
-0.45751795 -0.18236944 0.61236840 35 34 36
-0.45399883 -0.18138632 0.60906726 35 34 36
-0.44771671 -0.17929216 0.60203540 37 33 36
-0.44548923 -0.17881574 0.60043561 42 38 41
-0.44484544 -0.17897427 0.60096794 41 36 40
-0.44420049 -0.17913307 0.60150117 40 34 38
-0.94201273 -0.48413181 1.62563992 159 159 152
-0.93027937 -0.47953200 1.61019444 165 165 158
-0.92093378 -0.47613907 1.59880149 160 161 154
-0.92034101 -0.47726470 1.60258114 157 158 151
-0.92193007 -0.47953200 1.61019444 155 156 149
-0.91914701 -0.47953200 1.61019444 154 154 147
-0.91636389 -0.47953200 1.61019444 152 153 144
-0.91358083 -0.47953200 1.61019444 157 158 149
-0.91079772 -0.47953200 1.61019444 153 154 145
-0.90801466 -0.47953200 1.61019444 153 154 145
-0.90738684 -0.48067373 1.61402822 140 141 137
-0.90244848 -0.47953200 1.61019444 75 76 74
-0.89966536 -0.47953200 1.61019444 44 46 50
-0.89688230 -0.47953200 1.61019444 46 49 57
-0.89409918 -0.47953200 1.61019444 46 48 56
-0.89131612 -0.47953200 1.61019444 44 44 53
-0.88853300 -0.47953200 1.61019444 44 44 50
-0.88574994 -0.47953200 1.61019444 44 43 48
-0.88718146 -0.48182094 1.61788034 43 43 47
-0.88862675 -0.48413181 1.62563992 42 42 45
-0.45435214 -0.28235382 0.94810051 37 35 36
-0.45334750 -0.28274927 0.94942838 37 33 35
-0.45107472 -0.28235382 0.94810051 39 34 36
-0.44880831 -0.28195944 0.94677633 40 34 37
-0.44654822 -0.28156620 0.94545585 40 34 37
-0.44491407 -0.28156620 0.94545585 40 34 36
-0.44266254 -0.28117406 0.94413906 40 34 36
-0.46107543 -0.18229908 0.61570555 34 34 36
-0.45710501 -0.18114737 0.61181575 34 34 36
-0.45359129 -0.18017171 0.60852051 34 34 36
-0.44731945 -0.17809342 0.60150117 34 34 36
-0.44509497 -0.17762060 0.59990430 34 34 36
-0.94201273 -0.48132205 1.62563992 158 157 148
-0.93027937 -0.47674891 1.61019444 159 159 150
-0.92093378 -0.47337568 1.59880149 155 156 148
-0.92034101 -0.47449479 1.60258114 154 155 148
-0.92193007 -0.47674891 1.61019444 154 155 148
-0.91419244 -0.47561917 1.60637879 153 154 146
-0.91358083 -0.47674891 1.61019444 154 156 147
-0.91079772 -0.47674891 1.61019444 152 154 145
-0.90801466 -0.47674891 1.61019444 148 150 141
-0.90523154 -0.47674891 1.61019444 135 136 131
-0.90244848 -0.47674891 1.61019444 86 85 84
-0.89966536 -0.47674891 1.61019444 52 52 53
-0.89688230 -0.47674891 1.61019444 53 52 56
-0.89409918 -0.47674891 1.61019444 47 47 50
-0.89131612 -0.47674891 1.61019444 46 46 50
-0.88853300 -0.47674891 1.61019444 45 45 49
-0.88574994 -0.47674891 1.61019444 46 45 47
-0.88862675 -0.48132205 1.62563992 41 41 43
-0.45435214 -0.28071508 0.94810051 38 38 40
-0.45334750 -0.28110826 0.94942838 37 36 38
-0.45107472 -0.28071508 0.94810051 37 35 36
-0.44880831 -0.28032303 0.94677633 37 34 36
-0.44654822 -0.27993205 0.94545585 38 34 37
-0.44491407 -0.27993205 0.94545585 38 34 37
-0.44266254 -0.27954218 0.94413906 38 34 37
-0.45669284 -0.17992751 0.61126405 34 34 36
-0.45277840 -0.17879893 0.60742998 34 34 36
-0.44692287 -0.17689681 0.60096794 34 34 35
-0.44430858 -0.17627174 0.59884441 34 34 35
-0.93975908 -0.47736749 1.62175083 158 155 148
-0.93027937 -0.47396582 1.61019444 158 156 148
-0.92093378 -0.47061229 1.59880149 156 155 149
-0.91817039 -0.47061229 1.59880149 154 154 150
-0.91141593 -0.47284266 1.60637879 154 155 148
-0.90863943 -0.47284266 1.60637879 153 154 146
-0.90586293 -0.47284266 1.60637879 148 149 140
-0.90308648 -0.47284266 1.60637879 132 131 125
-0.90030998 -0.47284266 1.60637879 96 92 93
-0.89753348 -0.47284266 1.60637879 58 54 55
-0.89475697 -0.47284266 1.60637879 57 51 53
-0.89198047 -0.47284266 1.60637879 53 48 50
-0.88920397 -0.47284266 1.60637879 47 45 48
-0.88853300 -0.47396582 1.61019444 46 45 47
-0.88365096 -0.47284266 1.60637879 46 45 47
-0.88650084 -0.47736749 1.62175083 42 41 41
-0.86914277 -0.46950495 1.59503961 41 40 40
-0.45435214 -0.27907637 0.94810051 37 36 36
-0.45271343 -0.27907637 0.94810051 37 36 36
-0.45044473 -0.27868661 0.94677633 35 34 36
-0.45669284 -0.17887099 0.61126405 34 34 36
-0.45196840 -0.17743106 0.60634333 34 34 36
-0.44652703 -0.17570233 0.60043561 34 34 35
-0.44313422 -0.17477350 0.59726155 35 34 35
-0.92807490 -0.47006619 1.60637879 157 156 149
-0.91661018 -0.46565241 1.59129536 156 155 150
-0.91601002 -0.46674806 1.59503961 155 155 151
-0.90926129 -0.46895492 1.60258114 154 155 148
-0.90649134 -0.46895492 1.60258114 154 156 148
-0.90158999 -0.46784890 1.59880149 154 156 147
-0.90095150 -0.46895492 1.60258114 134 135 126
-0.89818156 -0.46895492 1.60258114 89 89 83
-0.89329982 -0.46784890 1.59880149 64 63 59
-0.89264172 -0.46895492 1.60258114 45 37 40
-0.88987178 -0.46895492 1.60258114 57 49 51
-0.88710183 -0.46895492 1.60258114 50 42 47
-0.88433188 -0.46895492 1.60258114 49 40 45
-0.88156199 -0.46895492 1.60258114 47 41 45
-0.88438511 -0.47343180 1.61788034 44 40 41
-0.86710250 -0.46565241 1.59129536 43 39 40
-0.45308480 -0.27666378 0.94545585 34 34 36
-0.45145065 -0.27666378 0.94545585 34 34 36
-0.44981650 -0.27666378 0.94545585 34 34 36
-0.45628142 -0.17765428 0.61071336 35 34 34
-0.45116132 -0.17606808 0.60526055 35 34 34
-0.44652703 -0.17466453 0.60043561 35 34 35
-0.92807490 -0.46728969 1.60637879 158 155 149
-0.91446352 -0.46181792 1.58756876 158 155 150
-0.91385972 -0.46290198 1.59129536 158 157 153
-0.90926129 -0.46618497 1.60258114 155 156 148
-0.90435344 -0.46508548 1.59880149 155 156 149
-0.89946860 -0.46399117 1.59503961 158 162 153
-0.89882660 -0.46508548 1.59880149 141 146 136
-0.89395481 -0.46399117 1.59503961 81 86 76
-0.89119792 -0.46399117 1.59503961 53 57 47
-0.88844103 -0.46399117 1.59503961 41 37 37
-0.88568413 -0.46399117 1.59503961 52 46 48
-0.88292724 -0.46399117 1.59503961 50 44 48
-0.88224620 -0.46508548 1.59880149 47 41 46
-0.87948281 -0.46508548 1.59880149 47 41 44
-0.88018376 -0.46839964 1.61019444 45 40 42
-0.86710250 -0.46290198 1.59129536 44 40 41
-0.45308480 -0.27502963 0.94545585 35 35 37
-0.45145065 -0.27502963 0.94545585 36 36 38
-0.44919002 -0.27464658 0.94413906 36 36 38
-0.45587072 -0.17643975 0.61016369 34 34 36
-0.45035711 -0.17470995 0.60418171 34 34 36
-0.44613186 -0.17347306 0.59990430 34 34 36
-0.44196603 -0.17225358 0.59568703 35 34 35
-0.92807490 -0.46451318 1.60637879 158 157 150
