ply
format ascii 1.0
element vertex 1119
property float x
property float y
property float z
property uchar red
property uchar green
property uchar blue
end_header
-0.12988691 0.34979912 1.24661323 73 67 70
-0.12989354 0.37004321 1.24667673 73 65 67
-0.12989960 0.39028769 1.24673480 73 64 68
-0.12990502 0.40731389 1.24678676 71 65 68
-0.11025167 -0.24336121 1.24290007 85 77 77
-0.11026392 -0.22963765 1.24303841 85 77 76
-0.11027920 -0.20995793 1.24321096 86 77 77
-0.11029280 -0.19026977 1.24336446 85 77 76
-0.11030525 -0.17011644 1.24350483 86 77 78
-0.11031621 -0.14995652 1.24362838 87 78 78
-0.11032618 -0.12979142 1.24374069 86 79 79
-0.11033524 -0.11008044 1.24384299 87 80 78
-0.11034423 -0.09036613 1.24394453 89 80 81
-0.11035419 -0.07019043 1.24405687 50 49 54
-0.11006151 -0.05011632 1.24423133 30 33 41
-0.10992717 -0.02983141 1.24441568 131 138 144
-0.10994324 -0.00964322 1.24459762 125 130 136
-0.10995860 0.01009180 1.24477144 55 59 67
-0.10997263 0.02983201 1.24493028 76 82 89
-0.10998633 0.05003619 1.24508542 105 110 118
-0.10999912 0.07024482 1.24523013 92 97 105
-0.11001076 0.08999797 1.24536192 91 97 104
-0.11002147 0.10975443 1.24548310 92 98 105
-0.11003211 0.12997392 1.24560362 74 80 87
-0.11004165 0.15019579 1.24571156 83 88 96
-0.11004963 0.16995940 1.24580195 125 133 137
-0.11005652 0.18972401 1.24587996 116 119 124
-0.11006295 0.20994964 1.24595260 86 77 79
-0.11007163 0.23018234 1.24605077 83 77 77
-0.11008021 0.24995849 1.24614791 82 76 77
-0.11008907 0.26973844 1.24624822 82 75 74
-0.11009812 0.28998161 1.24635067 78 73 74
-0.11010643 0.31022601 1.24644471 74 70 72
-0.10982421 0.33011613 1.24652758 75 68 72
-0.10966028 0.34979470 1.24659748 74 67 71
-0.10966556 0.37003748 1.24665745 72 65 69
-0.10967036 0.39028054 1.24671196 73 64 68
-0.10967455 0.40730501 1.24675960 71 64 66
-0.09008114 -0.24334625 1.24282367 85 78 78
-0.09009173 -0.22962494 1.24296988 85 76 78
-0.09010639 -0.20995146 1.24317282 84 77 77
-0.09011890 -0.19026690 1.24334582 85 76 78
-0.09012957 -0.17011483 1.24349314 85 77 77
-0.09013884 -0.14995566 1.24362123 88 78 78
-0.09014684 -0.12979048 1.24373170 87 80 81
-0.09015441 -0.11007981 1.24383606 88 80 80
-0.09016229 -0.09036614 1.24394481 89 82 82
-0.09017124 -0.07019107 1.24406864 105 106 111
-0.09018422 -0.05001428 1.24424776 141 147 152
-0.09019733 -0.02983173 1.24442865 57 61 68
-0.09021000 -0.00964327 1.24460302 32 35 42
-0.09022230 0.01009181 1.24477253 143 150 155
-0.09023381 0.02983204 1.24493136 126 133 139
-0.09024515 0.05003628 1.24508769 36 38 50
-0.09025556 0.07024488 1.24523136 64 69 77
-0.09026495 0.08999790 1.24536089 140 146 152
-0.09027387 0.10975451 1.24548408 111 117 124
-0.09028265 0.12997409 1.24560524 43 47 55
-0.09029070 0.15019638 1.24571641 70 76 83
-0.09029727 0.16996010 1.24580712 142 149 153
-0.09030272 0.18972435 1.24588221 128 132 137
-0.09030790 0.20994981 1.24595366 86 77 80
-0.09031418 0.23018033 1.24604001 84 77 77
-0.09032083 0.24995518 1.24613142 81 77 78
-0.09032790 0.26973427 1.24622897 79 74 74
-0.09033516 0.28997657 1.24632905 77 71 72
-0.09034162 0.31021940 1.24641821 76 69 71
-0.09006760 0.32989527 1.24649316 73 67 70
-0.08989295 0.34978689 1.24656964 74 66 69
-0.08982905 0.37004871 1.24646158 69 63 65
-0.08042305 0.39212256 1.23993877 31 31 36
-0.09031032 0.39012175 1.24621687 66 60 62
-0.08112518 0.40264365 1.23995535 27 27 33
-0.09044847 0.40729243 1.24596966 62 58 60
-0.06991219 -0.24332813 1.24273115 85 78 77
-0.06998943 -0.22968881 1.24288165 85 77 77
-0.06986340 -0.21002958 1.24312324 86 79 77
-0.06994542 -0.19026348 1.24332355 85 78 78
-0.06995393 -0.17011234 1.24347491 86 77 79
-0.06996123 -0.14995362 1.24360439 86 79 80
-0.06996795 -0.12978965 1.24372393 87 80 81
-0.06997459 -0.11008038 1.24384251 89 81 81
-0.06998113 -0.09036720 1.24395936 89 82 84
-0.06998747 -0.07019124 1.24407147 106 106 110
-0.06999836 -0.05001496 1.24426514 146 153 158
-0.07000895 -0.02983234 1.24445429 72 75 82
-0.07001796 -0.00964340 1.24461442 29 30 38
-0.07002628 0.01009169 1.24476127 127 134 140
-0.07003389 0.02983114 1.24489512 129 134 141
-0.07004251 0.05003468 1.24504797 40 43 54
-0.07005003 0.07024200 1.24518043 58 62 70
-0.07005674 0.08999335 1.24529818 116 123 131
-0.07006326 0.10974826 1.24541312 104 109 113
-0.07007004 0.12996659 1.24553344 55 58 62
-0.07007608 0.15018727 1.24564079 67 72 75
-0.07008147 0.16995050 1.24573671 107 114 116
-0.07008564 0.18971359 1.24581133 87 90 98
-0.06995560 0.20991653 1.24500237 64 58 65
-0.06237753 0.23275637 1.23915314 18 21 28
-0.07198932 0.22937278 1.24530975 71 65 68
-0.06367273 0.25038505 1.23797500 15 16 23
-0.07395052 0.24951182 1.24577456 72 67 70
-0.06465865 0.26995145 1.23757267 13 15 22
-0.07508950 0.26952582 1.24572223 69 62 66
-0.06582491 0.29017679 1.23782576 16 16 21
-0.07620350 0.28945918 1.24581172 66 61 63
-0.06683699 0.31029281 1.23818402 14 15 21
-0.07720625 0.30943467 1.24558505 61 57 61
-0.06767537 0.33034798 1.23865163 17 18 22
-0.07805647 0.32959043 1.24568811 57 55 57
-0.06845758 0.35014279 1.23906667 24 24 30
-0.07871066 0.34876883 1.24439057 46 41 43
-0.06952453 0.36983880 1.23943794 28 28 34
-0.07957562 0.36493068 1.24336664 36 34 37
-0.06982290 0.38981494 1.23983193 24 26 32
-0.06472913 0.39961137 1.24000437 25 26 34
-0.07354433 0.40560514 1.23995739 22 24 32
-0.06956965 0.40606774 1.24011079 27 28 36
-0.04638818 -0.24297863 1.23862040 73 74 73
-0.05340980 -0.24329986 1.24258691 83 77 78
-0.04053421 -0.22394335 1.15026233 46 49 48
-0.04188440 -0.22701077 1.17101783 51 54 54
-0.04282519 -0.22885262 1.18813773 56 59 58
-0.04399440 -0.22896600 1.20960482 63 65 67
-0.04561141 -0.23101363 1.23312366 67 69 70
-0.05314522 -0.22994317 1.24269781 82 78 77
-0.04001952 -0.21984486 1.15993106 74 78 80
-0.04088146 -0.21093935 1.17237540 52 56 60
-0.04282713 -0.20537959 1.18550666 57 59 63
-0.04397830 -0.21523665 1.20820636 50 53 57
-0.04656577 -0.20967479 1.23459926 56 56 58
-0.05364877 -0.21056963 1.24301435 82 77 76
-0.04235777 -0.18956609 1.18934937 46 46 51
-0.04640677 -0.18489147 1.21253566 57 55 57
-0.04746491 -0.19155651 1.23098401 55 51 54
-0.05424183 -0.19038754 1.24318798 82 75 77
-0.04302057 -0.16976060 1.19665887 49 51 55
-0.04722196 -0.17000439 1.21310845 51 52 55
-0.04922348 -0.16620047 1.23423893 54 53 56
-0.05479323 -0.17045151 1.24329732 82 77 78
-0.04237690 -0.15835959 1.19959823 35 36 43
-0.04428681 -0.14903484 1.20348809 47 48 52
-0.05014420 -0.14896818 1.23593809 58 56 56
-0.05541866 -0.15016724 1.24350036 83 77 78
-0.04473993 -0.12993457 1.20788218 41 43 49
-0.05074191 -0.12936033 1.23075907 44 44 46
-0.05587112 -0.13004667 1.24349293 81 77 77
-0.04529898 -0.10949974 1.21285867 45 47 52
-0.05122173 -0.11431088 1.22468249 57 53 60
-0.05619772 -0.11015886 1.24343256 81 74 76
-0.04556203 -0.09009064 1.21601195 49 51 55
-0.05274406 -0.08992060 1.23772469 58 56 56
-0.05666865 -0.09034979 1.24371549 83 78 78
-0.04424014 -0.07424805 1.21895747 43 46 56
-0.04708114 -0.06705220 1.22545412 48 48 55
-0.05577112 -0.06919314 1.24360192 70 69 73
-0.04300099 -0.05578186 1.22823194 40 40 47
-0.05105302 -0.04894946 1.24356049 53 56 62
-0.04979437 -0.02981703 1.24381594 45 46 54
-0.04980221 -0.00963866 1.24401894 43 45 52
-0.04981199 0.01008784 1.24427114 44 50 68
-0.04982067 0.02982164 1.24449445 48 58 80
-0.04982898 0.05002094 1.24470449 47 61 91
-0.04983623 0.07022552 1.24488718 57 74 101
-0.04984314 0.08997628 1.24506098 65 75 90
-0.04984952 0.10973138 1.24522110 83 89 84
-0.04985535 0.12994926 1.24536707 92 99 87
-0.04986018 0.15016879 1.24548762 69 75 74
-0.04986322 0.16992678 1.24556303 59 65 66
-0.04978965 0.18993437 1.24454848 39 42 49
-0.04462268 0.21462041 1.23958293 16 21 33
-0.05176687 0.20796759 1.24082313 21 23 36
-0.04985041 0.22994985 1.23861650 14 18 29
-0.05833281 0.22091875 1.24010714 21 24 35
-0.04995741 0.24982818 1.23737186 13 14 22
-0.05008896 0.26977025 1.23718398 13 14 20
-0.04999845 0.28975656 1.23753639 16 15 21
-0.05001728 0.30995222 1.23800600 17 17 20
-0.05003733 0.33017049 1.23850363 23 23 27
-0.04970349 0.35001396 1.23895190 29 29 35
-0.04961495 0.36970086 1.23936317 29 31 34
-0.04963178 0.38994070 1.23978359 28 28 34
-0.05284081 0.40052289 1.23999528 29 31 37
-0.04946716 0.40634672 1.24009685 33 36 40
-0.02974650 -0.22500113 1.13855587 53 56 61
-0.03016848 -0.22245226 1.14680569 55 58 63
-0.02905213 -0.21814509 1.15528177 49 53 55
-0.03009626 -0.20859795 1.17059807 54 59 63
-0.03880840 -0.20038279 1.18032835 55 60 66
-0.02754661 -0.19926694 1.17933512 32 35 41
-0.03018557 -0.18947222 1.18657873 48 51 56
-0.02987972 -0.16990976 1.19531411 45 48 54
-0.02820571 -0.15745701 1.19925926 44 46 53
-0.03036367 -0.14759255 1.20225494 47 50 55
-0.03007276 -0.12995354 1.20697276 46 47 53
-0.02990491 -0.10995291 1.21094914 44 46 53
-0.02980529 -0.08999121 1.21419222 44 45 51
-0.02956204 -0.07042622 1.21784651 45 46 52
-0.03765065 -0.06159436 1.22045694 53 52 56
-0.02452459 -0.05886898 1.21981561 50 51 60
-0.02986487 -0.04995611 1.22262268 43 45 50
-0.03788891 -0.04210534 1.24231669 39 41 48
-0.02592428 -0.03534361 1.22632878 44 46 51
-0.03170348 -0.02747101 1.24336934 39 42 47
-0.03007094 -0.00963660 1.24376797 35 38 45
-0.03007828 0.01008628 1.24407120 32 35 45
-0.03008483 0.02981806 1.24434267 33 35 48
-0.03009066 0.05001620 1.24458534 38 44 58
-0.03009584 0.07022066 1.24480031 41 45 59
-0.02978975 0.09007034 1.24499405 42 46 54
-0.02964562 0.10972691 1.24517002 79 84 78
-0.02964937 0.12994520 1.24532806 93 99 86
-0.02965218 0.15016378 1.24544609 73 79 75
-0.02963695 0.17005994 1.24544945 45 49 53
-0.02571928 0.19614819 1.23960652 17 23 32
-0.03135270 0.18792552 1.24199274 23 27 36
-0.02970161 0.21008445 1.23863610 16 20 30
-0.03841595 0.20129067 1.24009535 20 23 37
-0.03047978 0.23015002 1.23715806 13 16 26
-0.03035333 0.25031586 1.23656410 13 15 22
-0.03036035 0.26998966 1.23687116 16 16 22
-0.03037269 0.28971988 1.23737907 17 17 22
-0.03038602 0.30993201 1.23792505 22 23 25
-0.03039892 0.33015673 1.23845192 23 24 29
-0.03006627 0.34984378 1.23892237 30 31 37
-0.02996425 0.36970066 1.23936257 29 30 36
-0.02997434 0.38993931 1.23977922 33 33 39
-0.02850850 0.40064187 1.23999438 43 43 52
-0.03011717 0.40653395 1.24008812 32 35 42
-0.01830332 -0.22545889 1.13931113 56 60 62
-0.00953800 -0.22322929 1.14544668 49 51 58
-0.01005350 -0.21776105 1.15552187 48 51 55
-0.01023952 -0.20799692 1.16963878 50 51 57
-0.00927505 -0.19888557 1.17885361 50 52 57
-0.01045067 -0.18907559 1.18519165 50 53 57
-0.00991901 -0.17034559 1.19391948 51 54 59
-0.00997695 -0.15649305 1.19886131 44 46 53
-0.01000107 -0.14623561 1.20177184 44 45 50
-0.01003767 -0.12986098 1.20611537 47 48 55
-0.01007148 -0.10977766 1.21022251 43 44 52
-0.01009989 -0.08995167 1.21365850 46 49 56
-0.01013000 -0.07001705 1.21721142 45 47 53
-0.00861083 -0.05730629 1.21957397 48 50 58
-0.01063861 -0.04771111 1.22128200 47 49 55
-0.00984344 -0.03055487 1.22398434 50 53 59
-0.01826803 -0.02206889 1.24274160 42 45 51
-0.00501700 -0.01551949 1.22737822 50 51 55
-0.01199589 -0.00796831 1.24356467 38 41 48
-0.01035198 0.01008532 1.24395029 37 39 46
-0.01035436 0.02981564 1.24424004 35 36 44
-0.01035652 0.05001292 1.24450326 32 34 43
-0.01035840 0.07021671 1.24473009 34 36 44
-0.01005881 0.08986660 1.24493225 48 51 57
-0.00990251 0.10972268 1.24512191 88 93 87
-0.00990383 0.12994098 1.24528762 88 91 83
-0.00990476 0.15015902 1.24540646 62 67 66
-0.01000264 0.17021771 1.24376807 27 30 40
-0.00956795 0.19258247 1.23903926 15 18 30
-0.01201237 0.18277325 1.24050734 17 21 31
-0.01039538 0.21015573 1.23724882 13 17 25
-0.01028793 0.23018023 1.23617329 14 16 24
-0.01028808 0.25025927 1.23628173 20 20 25
-0.01029224 0.26997337 1.23679600 17 17 22
-0.01029696 0.28971692 1.23736620 21 21 25
-0.01030178 0.30993790 1.23794845 27 28 33
-0.01030626 0.33016600 1.23848663 30 30 35
-0.01031030 0.34993975 1.23897201 32 34 39
-0.01031393 0.36971378 1.23940650 28 30 38
-0.01047934 0.38975447 1.23981122 32 34 41
-0.00263756 0.39924834 1.24001292 33 34 41
-0.01613213 0.40071737 1.23999073 42 41 47
-0.01002051 0.40631679 1.24010135 36 37 42
0.00992915 -0.22364471 1.14873264 46 48 52
0.00924220 -0.21810961 1.15712884 44 46 48
0.01003679 -0.20846074 1.16927390 50 51 56
0.00940387 -0.19850757 1.17852273 49 50 56
0.00987081 -0.18867522 1.18495824 49 51 55
0.00987479 -0.17034778 1.19379610 47 49 55
0.01013660 -0.15615636 1.19871377 46 48 53
0.00978959 -0.14593744 1.20179886 48 52 55
0.00997401 -0.12983501 1.20587265 47 50 55
0.01000982 -0.10977464 1.21019516 48 51 57
0.01003944 -0.08995941 1.21376075 46 47 54
0.01006647 -0.07000821 1.21704763 47 50 57
0.01068932 -0.05577155 1.21937424 53 56 63
0.00947992 -0.04607634 1.22084248 49 52 59
0.00966379 -0.03021626 1.22298404 47 51 58
0.01001932 -0.01028862 1.22567079 46 48 55
0.00157210 -0.00160944 1.24280346 42 43 49
0.01464691 0.00466950 1.22901513 46 46 51
0.00815272 0.01188116 1.24373985 39 41 47
0.00983154 0.02981316 1.24413521 38 40 46
0.00983387 0.05000978 1.24442450 36 37 45
0.00983581 0.07021307 1.24466540 35 36 45
0.00983748 0.08996299 1.24487635 40 43 48
0.00983904 0.10971837 1.24507288 81 85 76
0.00984034 0.12993573 1.24523714 94 98 86
0.00983551 0.15008942 1.24484994 42 46 51
0.00981501 0.16992068 1.24218886 19 23 36
0.01010244 0.19071624 1.23831559 13 17 26
0.00599000 0.18091284 1.24030741 14 19 29
0.00976750 0.21012008 1.23615432 12 15 23
0.00976586 0.23011647 1.23582570 17 17 22
0.00976979 0.25026133 1.23629129 22 22 26
0.00977412 0.26998262 1.23683835 22 22 27
0.00977882 0.28973163 1.23742886 30 31 35
0.00978351 0.30995638 1.23802231 37 37 43
0.00978773 0.33018459 1.23855633 34 34 40
0.00979154 0.34995888 1.23903982 33 34 39
0.00979513 0.36973901 1.23949110 34 35 42
0.00956935 0.38848242 1.23985422 34 36 43
0.01110745 0.39848783 1.24002560 31 32 40
0.00980019 0.40605758 1.24014144 38 41 47
0.03004669 -0.22379573 1.15139840 55 57 59
0.02901067 -0.21892536 1.15868842 50 53 56
0.03010291 -0.20933219 1.16967728 46 48 53
0.02974446 -0.19864442 1.17879652 43 44 49
0.02990356 -0.18877280 1.18511624 48 49 55
0.03013377 -0.17040876 1.19421357 46 47 53
0.03019756 -0.15601459 1.19845327 45 47 53
0.02988230 -0.14579856 1.20181919 45 46 53
0.02998770 -0.12985368 1.20604765 45 46 52
0.03009661 -0.10979538 1.21042604 46 48 53
0.03018611 -0.08997908 1.21402680 44 47 52
0.03026519 -0.07001798 1.21720935 42 45 50
0.03031834 -0.05530793 1.21935836 46 48 56
0.03012091 -0.04540531 1.22067945 49 51 57
0.02994694 -0.03020616 1.22257043 50 51 59
0.03001106 -0.00994143 1.22519204 46 47 52
0.03023200 0.00980462 1.22758735 43 44 50
0.02188858 0.01771410 1.24282996 44 45 52
0.03486279 0.02348795 1.23160476 41 43 50
0.02879150 0.03139286 1.24387123 41 44 50
0.03002148 0.05000622 1.24433572 38 41 49
0.03002766 0.07020893 1.24459160 36 38 45
0.03003298 0.08995831 1.24481156 48 50 53
0.03003769 0.10971254 1.24500678 73 76 71
0.03003822 0.12991606 1.24505590 63 67 63
0.02999271 0.14989333 1.24322995 22 26 40
0.03447981 0.17748451 1.23947608 19 24 32
0.02918399 0.16844984 1.24125285 20 24 35
0.02975046 0.18990171 1.23716745 13 17 24
0.02980845 0.21001463 1.23552598 16 17 23
0.02981507 0.23010734 1.23577506 19 20 24
0.02982906 0.25027350 1.23635131 23 23 27
0.02984290 0.27000095 1.23692211 27 29 34
0.02985746 0.28975430 1.23752570 33 35 41
0.02987163 0.30997928 1.23811387 35 36 41
0.02988445 0.33020827 1.23864526 35 36 43
0.02989609 0.34998352 1.23912696 34 37 42
0.02990676 0.36976340 1.23957279 39 40 47
0.02907679 0.38685633 1.23988662 32 33 39
0.03166299 0.39651831 1.24005818 34 35 43
0.02992185 0.40607567 1.24019668 37 39 43
0.04998476 -0.22396948 1.15271569 51 54 61
0.04711388 -0.21955450 1.15944052 52 56 60
0.05019462 -0.20996758 1.17032191 48 50 55
0.04755975 -0.19905570 1.17918053 35 39 43
0.05018076 -0.18932008 1.18527646 44 46 51
0.05009928 -0.17045406 1.19376500 44 46 52
0.04966239 -0.15636520 1.19855879 42 43 51
0.05011028 -0.14623957 1.20214822 46 48 52
0.05002363 -0.12991468 1.20661301 44 45 52
0.04987337 -0.10992445 1.21086643 42 44 50
0.04989830 -0.09000722 1.21440577 45 47 53
0.05002570 -0.07003587 1.21751056 49 51 56
0.05010244 -0.05530926 1.21938659 45 48 54
0.05015320 -0.04546343 1.22062638 45 46 52
0.05022656 -0.03020249 1.22241028 46 48 54
0.05032312 -0.00993827 1.22476959 50 51 57
0.05007660 0.01048862 1.22688295 47 49 56
0.05054133 0.02958442 1.22920001 42 44 51
0.04248689 0.03728277 1.24335273 40 43 49
0.05523064 0.04614578 1.23171736 56 59 65
0.04769978 0.05179427 1.24412524 34 36 44
0.05021655 0.07020391 1.24450301 33 35 43
0.05022520 0.08995157 1.24471817 55 57 58
0.05023245 0.10970311 1.24490116 68 71 67
0.05018334 0.12977604 1.24373888 28 32 42
0.05799168 0.15796308 1.23848055 32 33 44
0.04976376 0.14937890 1.24169407 24 29 41
0.05110540 0.17136382 1.23678737 36 40 47
0.04457198 0.16359204 1.24054320 26 31 41
0.04984081 0.18992450 1.23523808 31 34 40
0.04984678 0.20998301 1.23533476 30 29 35
0.04986795 0.23012246 1.23585579 27 26 31
0.04989271 0.25029735 1.23646889 29 29 34
0.04991708 0.27003382 1.23707265 35 37 43
0.04994092 0.28978678 1.23766452 34 35 41
0.04996423 0.31001147 1.23824242 36 37 42
0.04998517 0.33023936 1.23876197 36 38 43
0.05000457 0.35001624 1.23924296 39 40 48
0.05002025 0.36978106 1.23963221 30 32 38
0.04914502 0.38445805 1.23991279 33 34 39
0.05073594 0.39438134 1.24010023 36 36 43
0.05004652 0.40610403 1.24028327 37 39 43
0.06972408 -0.22469830 1.15461559 49 51 55
0.07318164 -0.22052616 1.16091157 49 51 55
0.06973545 -0.21053856 1.17139374 49 52 56
0.07346746 -0.20056785 1.18042976 54 56 62
0.06022767 -0.19926883 1.17991710 33 36 39
0.07008791 -0.18991486 1.18620853 42 44 50
0.06989890 -0.16989285 1.19424541 44 46 51
0.06924718 -0.15745935 1.19891642 45 46 52
0.07030296 -0.14747901 1.20275944 56 58 63
0.07009469 -0.13000792 1.20747300 50 52 56
0.06999904 -0.10981369 1.21158118 51 53 59
0.07001141 -0.09008577 1.21477419 46 48 53
0.06978891 -0.07004578 1.21768558 53 56 60
0.06950082 -0.05565726 1.21949814 50 54 61
0.07023622 -0.04584855 1.22059783 48 50 56
0.07005976 -0.03020278 1.22241820 52 52 57
0.07018424 -0.00993715 1.22459235 46 49 56
0.07028968 0.01039752 1.22643696 45 47 52
0.07018489 0.03045177 1.22829957 46 48 55
0.06991731 0.05014115 1.23021180 46 48 54
0.06067879 0.05955864 1.24261343 40 43 54
0.07345922 0.06603927 1.23227225 47 49 58
0.06755066 0.07320977 1.24418277 41 44 52
0.06995440 0.08994338 1.24460540 67 69 69
0.07922628 0.11838637 1.23651656 38 40 49
0.07011662 0.10969557 1.24412341 35 38 50
0.07565360 0.13217364 1.23437856 43 45 52
0.06727278 0.12842621 1.24239907 24 28 41
0.07082166 0.15043016 1.23409271 42 44 49
0.06257972 0.14442847 1.24108330 27 31 40
0.06983010 0.16975529 1.23429240 46 51 55
0.06986434 0.18987349 1.23489655 46 50 55
0.06989682 0.21000599 1.23546903 40 42 45
0.06993000 0.23015947 1.23605426 35 37 42
0.06996499 0.25033863 1.23667288 34 37 42
0.06999789 0.27007365 1.23725520 35 36 42
0.07003004 0.28982407 1.23782392 36 37 43
0.07006092 0.31004361 1.23837090 36 38 42
0.07008942 0.33026925 1.23887407 36 37 42
0.07011579 0.35004394 1.23934088 38 40 45
0.07005762 0.36971482 1.23974626 36 37 43
0.07792659 0.37949590 1.24001279 48 50 53
0.06586818 0.38266710 1.23995348 26 26 36
0.07103491 0.39154943 1.24014694 35 36 41
0.07017451 0.40613526 1.24037865 37 39 43
0.08946199 -0.22598004 1.15599081 51 55 60
0.09118211 -0.22162224 1.16177900 44 47 50
0.08985043 -0.21142894 1.17217767 47 50 52
0.09092846 -0.20133889 1.18108455 56 59 62
0.08998163 -0.19000166 1.18686029 43 44 50
0.09000611 -0.16984028 1.19525624 43 45 52
0.08717586 -0.15858923 1.19958943 43 44 49
0.09026379 -0.14895338 1.20310043 47 49 54
0.08993019 -0.13018784 1.20810179 48 51 55
0.09003148 -0.10995133 1.21213945 53 57 64
0.09020563 -0.09002469 1.21534153 58 61 66
0.08999664 -0.07008152 1.21797523 50 53 58
0.08929997 -0.05599230 1.21962015 44 45 52
0.09001083 -0.04617723 1.22073769 46 47 53
0.08989757 -0.03020465 1.22248524 49 50 56
0.09004744 -0.00993680 1.22452782 48 50 57
0.09017630 0.01039593 1.22628040 49 52 58
0.09029088 0.03032987 1.22783994 48 50 56
0.09017442 0.05042583 1.22941459 46 50 55
0.08996162 0.07004309 1.23074954 42 44 51
0.08114530 0.07937043 1.24330189 92 99 99
0.09317125 0.08990007 1.23186644 42 44 48
0.08372060 0.09104786 1.24394412 62 66 66
0.09086610 0.11106472 1.23260846 43 46 51
0.08246668 0.10516176 1.24332852 25 27 41
0.08970543 0.12995899 1.23300176 41 42 49
0.08981004 0.14965448 1.23366950 47 49 56
0.08985957 0.16976313 1.23434887 46 48 52
0.08990662 0.18988863 1.23499440 50 54 59
0.08995255 0.21003242 1.23562421 46 49 52
0.08999757 0.23019443 1.23624196 38 39 43
0.08995843 0.25002479 1.23684521 37 40 45
0.09016324 0.26975046 1.23740660 39 41 47
0.09012190 0.28985387 1.23795138 38 39 45
0.09016028 0.31007060 1.23847879 40 41 47
0.09019543 0.33029277 1.23896242 35 37 44
0.09022797 0.35006319 1.23940923 38 40 44
0.09031353 0.36913101 1.23980311 36 38 43
0.08951894 0.37917400 1.24001556 41 43 47
0.09028629 0.39007508 1.24021121 40 41 48
0.09030389 0.40615942 1.24045237 37 39 42
0.10977592 -0.22691741 1.15688568 52 57 59
0.11053795 -0.22230889 1.16282328 52 56 60
0.10969808 -0.21204577 1.17323684 48 50 56
0.11084083 -0.20202535 1.18119919 46 48 52
0.10999638 -0.19004882 1.18778453 45 48 52
0.10974823 -0.17060340 1.19617524 45 48 51
0.11358588 -0.16092880 1.20037956 48 49 55
0.10999522 -0.15013944 1.20386342 53 55 60
0.11004574 -0.13005859 1.20897910 51 54 60
0.10987358 -0.11009686 1.21275730 50 52 57
0.11003317 -0.09011560 1.21585632 55 59 63
0.11024139 -0.07006683 1.21838086 55 58 63
0.10861853 -0.05747283 1.21975687 48 50 57
0.11034423 -0.04782569 1.22084370 52 55 60
0.10974133 -0.03020777 1.22259683 45 47 52
0.10991461 -0.00993668 1.22452774 54 57 63
0.11006321 0.01039504 1.22618507 45 48 56
0.11019671 0.03032554 1.22767307 47 49 55
0.11031662 0.05029817 1.22901015 44 46 51
0.11015419 0.07041478 1.23024388 43 45 51
0.10966445 0.09028019 1.23114326 42 45 49
0.10968294 0.11039096 1.23207217 45 47 53
0.10975848 0.13001500 1.23291918 47 49 54
0.10982418 0.14965299 1.23365667 40 42 48
0.10989044 0.16977025 1.23440013 46 48 53
0.10995127 0.18990225 1.23508289 50 52 56
0.11001208 0.21005663 1.23576592 48 51 56
0.11006901 0.23022478 1.23640514 48 51 56
0.11012113 0.24994672 1.23699059 42 44 50
0.11016816 0.26967495 1.23751939 37 38 43
0.11021400 0.28987335 1.23803448 38 40 45
0.11025968 0.31008775 1.23854753 41 42 47
0.11030115 0.33030648 1.23901391 37 38 44
0.11034006 0.35007508 1.23945139 39 41 46
0.11029973 0.36859974 1.23982195 35 38 41
0.11090918 0.37864583 1.24002396 37 40 44
0.11001803 0.39002867 1.24024209 37 40 44
0.10997360 0.40616606 1.24047270 39 41 45
0.13028565 -0.22724488 1.15714382 47 49 54
0.12972796 -0.22244598 1.16313630 45 48 51
0.12999076 -0.21248325 1.17362754 51 54 57
0.13000766 -0.20257555 1.18144682 55 59 61
0.13001938 -0.19017356 1.18839686 46 48 53
0.12994053 -0.17185870 1.19675914 51 53 55
0.13040487 -0.16191535 1.20075636 54 56 62
0.13005049 -0.15003757 1.20469163 58 60 64
0.12998025 -0.13023235 1.20937913 52 54 59
0.13004658 -0.10996964 1.21329616 49 51 57
0.12983258 -0.09017394 1.21614447 49 52 58
0.13005542 -0.07010060 1.21863002 50 53 57
0.12776142 -0.05884160 1.21989632 50 53 58
0.13044937 -0.04912053 1.22093665 49 52 55
0.12988206 -0.03031244 1.22272474 47 49 54
0.12978004 -0.00993683 1.22451429 49 52 58
0.12994887 0.01039440 1.22610721 45 47 53
0.13010720 0.03032362 1.22760199 48 51 56
0.13024034 0.05029190 1.22885939 46 49 53
0.13036316 0.07029494 1.23001715 40 42 48
0.12985130 0.09026410 1.23100209 38 41 47
0.12966790 0.11038710 1.23202809 47 48 54
0.12975721 0.13001060 1.23287716 44 47 52
0.12983971 0.14965369 1.23366138 47 49 53
0.12992426 0.16977908 1.23446382 51 53 59
0.12999769 0.18991437 1.23516156 46 48 51
0.13007102 0.21007216 1.23585782 54 57 63
0.13013764 0.23024088 1.23649136 46 47 51
0.13019910 0.24996383 1.23707525 47 48 55
0.13025312 0.26969001 1.23758866 35 37 41
0.13030590 0.28988633 1.23809010 41 43 47
0.13035804 0.31009734 1.23858583 40 41 47
0.13016239 0.33019858 1.23904486 41 42 47
0.12999384 0.35007984 1.23946828 41 43 49
0.13021344 0.36843991 1.23982718 39 42 46
0.12894196 0.37844790 1.24003616 51 53 57
0.12967667 0.39013622 1.24023335 37 40 45
0.12964226 0.40616761 1.24047743 40 43 48
0.14916516 -0.22781695 1.15790625 49 53 57
0.15049727 -0.22303003 1.16371255 48 52 59
0.14990485 -0.21274293 1.17400942 46 49 53
0.15047073 -0.20285160 1.18174494 45 46 52
0.14996467 -0.19026115 1.18880318 47 49 54
0.14991176 -0.17260630 1.19706472 48 51 55
0.15033448 -0.16246126 1.20088413 50 53 58
0.15004552 -0.15024089 1.20466945 51 53 57
0.14994731 -0.13029412 1.20949580 48 50 56
0.15008539 -0.11007137 1.21345757 51 53 59
0.14997298 -0.09016634 1.21633460 50 51 59
0.14973687 -0.07026901 1.21882570 49 50 56
0.15708501 -0.06040053 1.22003897 46 48 50
0.14189413 -0.05938504 1.21997130 43 47 50
0.15019116 -0.04990092 1.22104599 47 50 55
0.15018722 -0.03011370 1.22293530 51 54 61
0.14977764 -0.01002731 1.22458766 49 52 57
0.14984923 0.01039451 1.22616911 46 48 53
0.15001001 0.03032080 1.22748857 44 47 52
0.15016551 0.05028796 1.22875868 42 43 47
0.15031924 0.07029503 1.23001650 45 47 52
0.15003443 0.09033146 1.23106440 43 44 48
0.14966178 0.11039091 1.23207123 46 48 52
0.14976691 0.13001681 1.23293628 46 49 54
0.14986003 0.14965873 1.23370279 43 44 50
0.14995812 0.16978546 1.23451096 45 48 52
0.15004506 0.18992441 1.23522635 49 51 57
0.15012802 0.21008095 1.23590966 42 44 48
0.15020524 0.23025091 1.23654519 46 49 54
0.15027487 0.24997258 1.23711866 42 44 49
0.15033793 0.26970073 1.23763770 36 39 45
0.15025714 0.28979539 1.23813117 42 43 48
0.14999882 0.31010239 1.23860615 40 41 45
0.14979987 0.33043570 1.23906476 39 42 47
0.14964631 0.35008012 1.23946939 38 40 46
0.14981687 0.36867919 1.23982038 33 35 40
0.14873387 0.37874931 1.24002774 46 48 53
0.14973713 0.39007850 1.24022213 38 40 46
0.14976646 0.40616346 1.24046481 39 43 46
0.16914995 -0.22872809 1.15880039 56 58 63
0.17024007 -0.22381151 1.16377828 57 59 62
0.16990339 -0.21316294 1.17412955 53 55 58
0.17061818 -0.20314421 1.18202300 49 53 56
0.16988043 -0.19017524 1.18931139 47 51 54
0.17012643 -0.17277639 1.19719177 53 56 59
0.16964896 -0.16281147 1.20101236 56 59 61
0.16998731 -0.15013147 1.20492536 51 55 58
0.17001795 -0.13015831 1.20969478 49 53 57
0.16992592 -0.11017714 1.21354840 52 55 60
0.17014142 -0.09011409 1.21654627 52 53 59
0.16969278 -0.07139544 1.21894720 51 53 59
0.17118766 -0.06111489 1.22013262 47 50 55
0.16996975 -0.04999006 1.22130135 50 53 58
0.17022569 -0.03022141 1.22314050 48 51 56
0.16997170 -0.00995527 1.22483980 53 55 61
0.16977321 0.01039615 1.22638846 47 50 54
0.16991743 0.03031958 1.22743086 41 43 49
0.17010930 0.05029027 1.22881721 44 46 52
0.17028102 0.07029737 1.23005796 46 49 53
0.17013682 0.09036115 1.23111376 44 45 50
0.16965614 0.11039422 1.23210861 43 46 50
0.16977443 0.13002013 1.23296657 45 49 52
0.16988903 0.14967035 1.23379890 45 48 51
0.16999856 0.16979703 1.23459450 46 48 52
0.17009541 0.18993532 1.23529776 44 45 49
0.17018707 0.21009018 1.23596370 49 52 56
0.17027314 0.23025901 1.23658898 45 46 49
0.17035052 0.24997908 1.23715092 38 40 41
0.17013795 0.26960134 1.23768055 44 47 53
0.16988410 0.29000674 1.23816825 39 41 48
0.16964027 0.31010760 1.23862677 44 47 51
0.16970210 0.33032361 1.23907828 40 44 47
0.16975597 0.35008072 1.23947162 40 41 46
0.16980483 0.36892514 1.23982839 37 39 43
0.16983043 0.37903943 1.24001525 33 34 42
0.16985741 0.39007547 1.24021237 37 40 45
0.16989132 0.40616189 1.24046000 38 40 44
0.19074551 -0.22872621 1.15863480 53 56 58
0.18970063 -0.22380883 1.16396880 47 49 52
0.18982536 -0.21341596 1.17444149 49 53 55
0.19029564 -0.20312555 1.18239895 48 52 57
0.18999540 -0.19001034 1.18981638 49 52 57
0.18985805 -0.17318981 1.19730318 45 47 50
0.19021881 -0.16305162 1.20101979 44 46 53
0.18999434 -0.15019331 1.20475037 47 49 53
0.18993942 -0.13035282 1.20966589 50 53 57
0.19002172 -0.11007338 1.21382416 60 63 67
0.18997619 -0.09018276 1.21676267 50 53 58
0.18988645 -0.07238567 1.21902502 45 49 54
0.19071542 -0.06229537 1.22026246 49 51 57
0.18982023 -0.04999977 1.22153298 52 54 58
0.19010004 -0.03022603 1.22333383 49 50 54
0.19020198 -0.00983587 1.22503096 48 50 55
0.18969128 0.01039725 1.22652481 48 49 55
0.18986307 0.03032449 1.22763405 45 47 52
0.19006876 0.05029618 1.22896498 48 52 57
0.19024992 0.07030180 1.23013664 44 46 53
0.19020507 0.09033635 1.23118131 48 50 54
0.18965635 0.11040011 1.23217422 49 51 55
0.18978651 0.13002577 1.23302073 40 42 46
0.18991393 0.14967630 1.23384825 41 43 46
0.19003969 0.16980671 1.23466478 45 48 53
0.19014805 0.18994626 1.23536904 42 45 48
0.19024805 0.21009950 1.23601884 45 47 51
0.19034608 0.23027152 1.23665593 47 49 53
0.19010740 0.24989591 1.23719369 41 43 49
0.18975729 0.26982477 1.23771427 38 40 44
0.18966869 0.28990905 1.23818752 43 45 49
0.18973982 0.31011384 1.23865178 42 44 49
0.18980737 0.33032752 1.23909298 38 41 46
0.18986622 0.35008227 1.23947712 36 36 41
0.18995337 0.36914011 1.23983384 35 37 43
0.18951784 0.37917300 1.24001228 39 41 47
0.18997704 0.39007180 1.24020066 37 39 45
0.19001588 0.40615996 1.24045413 38 41 44
0.20973339 -0.22854511 1.15831463 53 54 60
0.21004446 -0.22370321 1.16420070 48 50 55
0.20997093 -0.21393513 1.17448940 51 55 60
0.20994547 -0.20365396 1.18266172 47 51 56
0.20999326 -0.19003892 1.19024837 50 53 56
0.20980619 -0.17380108 1.19757758 49 51 56
0.21051795 -0.16373821 1.20121713 51 53 57
0.21000549 -0.15011852 1.20488726 44 45 49
0.20996969 -0.13022710 1.20991295 52 54 59
0.21004806 -0.11005012 1.21395776 53 57 59
0.20987693 -0.09028497 1.21695609 56 58 63
0.20997499 -0.07322177 1.21912752 51 53 59
0.21055547 -0.06297085 1.22040638 56 58 63
0.20984483 -0.05011063 1.22163358 49 48 53
0.20997882 -0.03023055 1.22351521 51 53 57
0.21026536 -0.00994255 1.22518534 52 55 58
0.20978820 0.01029056 1.22656920 45 46 52
0.20982131 0.03033033 1.22787391 51 53 58
0.21003046 0.05030154 1.22909799 46 48 54
0.21023380 0.07031029 1.23028790 46 47 52
0.21017844 0.09033412 1.23129047 46 48 53
0.20967097 0.11041242 1.23231286 49 51 55
0.20980966 0.13003705 1.23312790 46 48 51
0.20994964 0.14968878 1.23395067 43 46 52
0.21008764 0.16982005 1.23476207 46 47 53
0.21020402 0.18995808 1.23544607 44 45 49
0.21031444 0.21011246 1.23609503 47 50 55
0.21017508 0.23016512 1.23670717 47 48 54
0.20972883 0.25009431 1.23727556 47 49 53
0.20968507 0.26972764 1.23776135 40 42 47
0.20976508 0.28991984 1.23823360 47 50 53
0.20983923 0.31011874 1.23867147 44 47 51
0.20991451 0.33033360 1.23911580 45 47 50
0.20997953 0.35008861 1.23949955 34 37 41
0.20991991 0.36893687 1.23984696 42 44 49
0.21125141 0.37897692 1.24001473 37 39 43
0.21009858 0.39007231 1.24020244 41 42 46
0.21013808 0.40615399 1.24043591 34 35 41
0.23007752 -0.22904328 1.15886463 53 56 60
0.23003703 -0.22416364 1.16457239 56 57 61
0.22975225 -0.21420684 1.17491286 49 51 56
0.23028490 -0.20396879 1.18322816 57 60 65
0.23004952 -0.19007207 1.19071766 53 55 59
0.23006016 -0.17434006 1.19746495 53 55 61
0.22998050 -0.16428440 1.20114808 46 48 51
0.23002056 -0.15024547 1.20529015 55 56 61
0.23000565 -0.13030122 1.21020116 53 57 61
0.22994998 -0.11020729 1.21408836 52 55 58
0.22997013 -0.09020757 1.21709912 52 54 58
0.23012863 -0.07337943 1.21921600 53 55 58
0.22968723 -0.06318381 1.22036564 51 55 56
0.23003671 -0.04998091 1.22179338 46 48 53
0.22986894 -0.03023586 1.22372606 52 53 57
0.23017335 -0.00994393 1.22534681 49 51 55
0.23001451 0.01040467 1.22680134 48 50 52
0.22978906 0.03033629 1.22812212 49 50 53
0.23000101 0.05030800 1.22925590 49 51 55
0.23021649 0.07031719 1.23040834 45 47 50
0.23016312 0.09035591 1.23144579 49 51 56
0.22962073 0.11007810 1.23246023 48 49 54
0.22990213 0.12969165 1.23321776 43 45 50
0.22999163 0.14970317 1.23406992 47 48 54
0.23013787 0.16983284 1.23485467 55 58 63
0.23026514 0.18997213 1.23553742 45 46 52
0.23028458 0.21004569 1.23617808 51 55 57
0.22978969 0.23041312 1.23679658 50 52 57
0.22968610 0.25001462 1.23732695 43 45 51
0.22977600 0.26973850 1.23781111 40 42 48
0.22985941 0.28992611 1.23826082 42 45 49
0.22993846 0.31012253 1.23868655 38 40 46
0.23002121 0.33033805 1.23913241 46 48 52
0.23009409 0.35009580 1.23952500 45 47 51
0.23002146 0.36823456 1.23986166 43 45 50
0.23089025 0.37830368 1.24002460 39 40 45
0.23022237 0.39007656 1.24021590 41 43 46
0.23026950 0.40616502 1.24046964 43 45 48
0.24621580 -0.22961007 1.15925957 46 51 54
0.25035558 -0.22464987 1.16534457 55 60 62
0.24978387 -0.21459479 1.17557649 53 56 61
0.25019955 -0.20471211 1.18328691 53 57 64
0.25000294 -0.19017088 1.19101954 56 58 63
0.24998663 -0.17452480 1.19778023 53 57 60
0.25003096 -0.16442929 1.20156160 53 55 59
0.25000584 -0.15026079 1.20560103 53 56 60
0.25001157 -0.13038089 1.21048669 54 57 61
0.24995141 -0.11018677 1.21434520 51 54 57
0.25004133 -0.09009075 1.21726792 49 52 55
0.24964923 -0.07398349 1.21922249 52 55 58
0.25034746 -0.06373231 1.22047663 52 57 59
0.25017399 -0.04994176 1.22204059 54 57 61
0.24981678 -0.03029218 1.22387410 50 52 56
0.25008874 -0.00994532 1.22551954 47 49 53
0.25016202 0.01045258 1.22699914 48 50 54
0.24974436 0.03034004 1.22827037 45 48 52
0.24997566 0.05031421 1.22940820 45 49 51
0.25020633 0.07032497 1.23054248 45 48 52
0.25014510 0.09035559 1.23155952 45 48 53
0.24969837 0.10997596 1.23251515 49 51 56
0.24986813 0.12960613 1.23335242 46 47 52
0.25003327 0.14971499 1.23416795 42 43 48
0.25018623 0.16984222 1.23492348 48 50 56
0.25032550 0.18998344 1.23561067 48 50 56
0.24998095 0.21015399 1.23626536 49 52 57
0.24966474 0.23030781 1.23685129 45 46 52
0.24977094 0.25002482 1.23737731 43 44 50
0.24986754 0.26974827 1.23785628 39 39 45
0.24995607 0.28993406 1.23829457 41 43 46
0.25004476 0.31013436 1.23873395 42 46 50
0.25011070 0.33032535 1.23915935 41 42 46
0.25022960 0.35008037 1.23954726 40 44 46
0.25017784 0.36752854 1.23986854 46 49 53
0.25062630 0.37761743 1.24003769 40 42 48
0.25034778 0.39008273 1.24023548 44 46 50
0.25015584 0.40609920 1.24047882 44 46 49
0.27006267 -0.22529624 1.16608731 56 61 63
0.26991114 -0.21523953 1.17572038 49 53 58
0.27004953 -0.20538448 1.18367631 54 56 61
0.26998476 -0.19024689 1.19141964 53 55 59
0.27001208 -0.17490827 1.19794381 49 52 56
0.27003660 -0.16483540 1.20167715 54 56 62
0.27000810 -0.15027715 1.20594066 56 59 62
0.26999002 -0.13030886 1.21072192 52 54 59
0.27003453 -0.11008075 1.21459756 50 55 59
0.26998858 -0.09023367 1.21744451 49 52 56
0.26989621 -0.07430018 1.21930586 50 54 56
0.27002087 -0.06408776 1.22054656 54 57 62
0.27012497 -0.05002363 1.22212362 53 54 59
0.26989178 -0.03029846 1.22402756 49 52 56
0.27000730 -0.00994659 1.22568072 49 50 56
0.27025746 0.01045555 1.22710713 46 48 54
0.26969905 0.03034318 1.22839406 51 54 59
0.26996133 0.05032160 1.22958833 51 54 59
0.27020454 0.07033372 1.23069578 44 47 51
0.27011145 0.09036640 1.23168157 46 48 51
0.26971073 0.10998250 1.23258758 48 49 54
0.26989938 0.12961633 1.23344953 44 45 51
0.27008024 0.14972812 1.23427589 49 50 55
0.27024562 0.16985717 1.23503176 49 51 57
0.27026310 0.18989950 1.23566071 44 46 52
0.26969576 0.21021931 1.23632152 49 52 56
0.26974738 0.23032133 1.23692391 49 49 53
0.26986336 0.25004063 1.23745554 45 45 50
0.26996574 0.26976324 1.23792507 42 43 48
0.27005994 0.28994869 1.23835706 43 45 50
0.27015247 0.31014624 1.23878131 45 45 51
0.27024297 0.32989806 1.23919627 43 46 50
0.27032682 0.34965450 1.23958076 42 45 48
0.27014804 0.36698754 1.23987972 37 40 43
0.27010626 0.37716923 1.24004389 36 38 43
0.27001747 0.39009022 1.24025927 39 42 46
0.26981994 0.40624608 1.24050757 43 47 50
0.29005085 -0.22539959 1.16644132 47 52 55
0.28981364 -0.21565356 1.17621998 53 57 61
0.29008171 -0.20569007 1.18386427 49 52 54
0.29010210 -0.19010756 1.19201259 50 54 57
0.28959030 -0.17540370 1.19820149 50 54 56
0.29020537 -0.16548486 1.20162614 48 53 56
0.29001100 -0.15035102 1.20614711 54 59 62
0.29001044 -0.13040027 1.21090734 50 53 58
0.29003316 -0.11022074 1.21473977 54 57 63
0.29005269 -0.09014053 1.21761320 52 54 60
0.28939840 -0.07517109 1.21937194 49 53 54
0.29046958 -0.06521356 1.22057953 47 48 54
0.28999736 -0.05003121 1.22231067 52 55 60
0.29003945 -0.03022669 1.22413632 49 53 58
0.28991347 -0.00994733 1.22576794 50 51 56
0.29025787 0.01040365 1.22722382 50 53 56
0.28975320 0.03026618 1.22847013 46 49 55
0.28993919 0.05032664 1.22971079 45 47 53
0.29019968 0.07034056 1.23081587 45 48 53
0.29007830 0.09037607 1.23178865 46 49 53
0.28972265 0.10998785 1.23264790 43 45 50
0.28992784 0.12962384 1.23352094 46 48 52
0.29012504 0.14973831 1.23436015 51 53 58
0.29030609 0.16987070 1.23513030 54 56 58
0.28994289 0.19004943 1.23579481 51 52 56
0.28968396 0.21015782 1.23636244 43 46 51
0.28982294 0.23032729 1.23695583 46 48 53
0.28994962 0.25004887 1.23749642 51 53 57
0.29006191 0.26977430 1.23797562 46 48 53
0.29015885 0.28995631 1.23838948 42 42 47
0.29026183 0.31015814 1.23882902 44 47 52
0.29027170 0.32983889 1.23922886 41 45 50
0.28998605 0.34966080 1.23960293 40 43 47
0.28932489 0.36655854 1.23990860 38 43 48
0.29065366 0.37626605 1.24005982 39 43 46
0.28968572 0.39009484 1.24027400 38 41 43
0.28974298 0.40618128 1.24051925 38 41 44
0.31004354 -0.22550390 1.16713856 53 58 60
0.30984361 -0.21609778 1.17653411 56 58 61
0.31006771 -0.20611703 1.18400342 51 54 56
0.30999915 -0.18997288 1.19266376 56 60 63
0.30984165 -0.17579946 1.19866762 60 62 66
0.31018758 -0.16610126 1.20181671 58 62 65
0.30999212 -0.15035142 1.20624520 56 60 62
0.31002784 -0.13040807 1.21099486 56 59 63
0.30997407 -0.11025857 1.21488649 55 60 63
0.30999886 -0.08978785 1.21759610 51 54 61
0.31002166 -0.07555126 1.21952644 53 56 60
0.31016804 -0.06566319 1.22066352 50 52 56
0.30987265 -0.05006888 1.22231873 50 53 58
0.31016584 -0.03015770 1.22414494 54 55 60
0.30980766 -0.00994749 1.22579616 53 55 59
0.31017891 0.01040401 1.22726492 50 54 56
0.30989179 0.03031769 1.22856817 50 52 56
0.30990634 0.05032918 1.22977501 46 49 54
0.31017921 0.07034295 1.23085791 44 47 52
0.31005579 0.09038477 1.23184292 47 49 54
0.30974202 0.10999516 1.23273006 44 47 51
0.30995622 0.12963029 1.23358271 49 52 56
0.31016363 0.14974423 1.23440816 48 51 57
0.31033042 0.16985369 1.23515085 49 50 55
0.30967954 0.19007756 1.23587184 55 58 63
0.30976903 0.21017559 1.23646675 53 58 60
0.30990530 0.23033748 1.23701089 53 58 61
0.31003323 0.25005394 1.23752158 48 50 53
0.31015112 0.26977789 1.23799229 42 45 48
0.31025900 0.28996404 1.23842265 45 46 50
0.31034242 0.31013984 1.23883525 43 45 50
0.30991665 0.32997987 1.23924120 44 47 51
0.30964370 0.34966452 1.23961617 43 47 50
0.31055252 0.36581627 1.23989781 41 43 49
0.30857508 0.37560353 1.24006441 41 45 48
0.30981242 0.39010033 1.24029142 42 44 48
0.30987262 0.40618557 1.24053239 45 47 52
0.33002332 -0.22564427 1.16765119 56 58 61
0.33001121 -0.21653722 1.17679179 54 55 58
0.33005286 -0.20655588 1.18419491 48 52 55
0.33001236 -0.19003944 1.19302136 53 57 60
0.32998636 -0.17591602 1.19876353 47 50 52
0.33001026 -0.16616607 1.20190752 54 59 61
0.32998757 -0.15031862 1.20625742 55 58 61
0.33000567 -0.13038819 1.21092454 53 56 59
0.32995950 -0.11014738 1.21476834 55 58 60
0.33004807 -0.08969837 1.21761681 55 59 63
0.32980398 -0.07555043 1.21951336 51 57 60
0.33011823 -0.06571967 1.22067556 51 54 60
0.32990936 -0.05010503 1.22231518 49 53 57
0.33015535 -0.03024633 1.22415075 50 52 55
0.32984352 -0.01004635 1.22582084 53 54 60
0.33009985 0.01040435 1.22730082 47 50 54
0.33000101 0.03034859 1.22861793 44 46 50
0.32987288 0.05033141 1.22982890 49 52 55
0.33016289 0.07034596 1.23091024 49 52 55
0.33006059 0.09039006 1.23191463 46 48 53
0.32975475 0.10999939 1.23277782 41 44 49
0.32998282 0.12963533 1.23363046 49 52 55
0.33020417 0.14975024 1.23445795 46 48 52
0.33021935 0.16979287 1.23519668 44 47 51
0.32967434 0.19002562 1.23588473 51 56 59
0.32984298 0.21018411 1.23651700 49 52 57
0.32997561 0.23033788 1.23701400 40 43 48
0.33010636 0.25005057 1.23750441 47 50 53
0.33023771 0.26977889 1.23799667 45 49 53
0.33035248 0.28996501 1.23842716 41 44 46
0.33000146 0.31015680 1.23882356 43 45 48
0.32965071 0.32990494 1.23922218 45 47 52
0.32974979 0.34965840 1.23959457 39 41 45
0.32988280 0.36670067 1.23988755 39 41 44
0.32975227 0.37680188 1.24005631 38 41 44
0.32993132 0.39009579 1.24027710 40 42 47
0.32999120 0.40617570 1.24050224 43 45 48
0.35003426 -0.22567823 1.16820546 50 54 57
0.34994900 -0.21650756 1.17673293 50 54 59
0.35000896 -0.20653771 1.18413330 55 58 63
0.35000585 -0.19007820 1.19321583 54 58 62
0.34977887 -0.17630516 1.19880432 55 59 62
0.35010430 -0.16658636 1.20193492 56 60 61
0.34998088 -0.15038027 1.20629544 54 57 60
0.35000630 -0.13037359 1.21094955 56 59 63
0.35000966 -0.11019266 1.21466101 56 60 64
0.35003258 -0.08986559 1.21764417 56 59 63
0.35004313 -0.07536864 1.21948333 55 58 61
0.34981841 -0.06552283 1.22065300 56 58 63
0.35001391 -0.05001934 1.22235413 56 59 62
0.35001986 -0.03024670 1.22416359 52 55 58
0.34995861 -0.00996527 1.22580301 50 52 55
0.35001664 0.01040453 1.22731785 46 48 53
0.35008784 0.03036900 1.22865392 47 50 55
0.34983332 0.05033239 1.22985519 46 48 53
0.35013701 0.07034672 1.23092273 43 45 51
0.35005448 0.09039189 1.23193968 45 47 53
0.34977256 0.11000478 1.23283771 47 49 54
0.35001166 0.12964054 1.23368041 46 48 53
0.35024357 0.14975510 1.23449792 47 48 52
0.34999927 0.16988610 1.23524249 51 52 57
0.34972971 0.19002777 1.23589939 50 53 55
0.34990407 0.21018381 1.23651568 50 52 54
0.35006028 0.23034808 1.23706765 51 54 57
0.35018623 0.25005217 1.23751297 47 50 53
0.35032301 0.26977879 1.23799608 46 49 54
0.35009336 0.28987987 1.23841825 43 45 50
0.34966109 0.31017458 1.23881532 43 45 49
0.34975104 0.32990020 1.23920442 42 44 48
0.34985560 0.34965287 1.23957499 41 43 48
0.35009126 0.36732418 1.23987289 43 45 49
0.34953703 0.37740534 1.24003964 51 53 56
0.35004496 0.39008596 1.24024587 39 40 44
0.35010788 0.40616474 1.24046880 37 40 41
0.36997116 -0.22570924 1.16799499 55 61 64
0.36993997 -0.21654204 1.17681721 52 55 60
0.36998136 -0.20652059 1.18413025 51 55 59
0.37001608 -0.19006291 1.19316208 57 60 65
0.37026392 -0.17649080 1.19887161 60 62 69
0.36987613 -0.16681560 1.20207551 60 65 70
0.37002220 -0.15032507 1.20652786 53 55 59
0.36996847 -0.13037883 1.21102676 53 58 61
0.37000381 -0.11021546 1.21464014 56 60 65
0.37000083 -0.08984761 1.21764131 57 62 65
0.37016744 -0.07551819 1.21950113 57 60 62
0.36986311 -0.06577432 1.22065272 54 57 60
0.37008743 -0.04993680 1.22235310 56 60 62
0.36989495 -0.03024788 1.22421015 58 62 66
0.37004877 -0.00992124 1.22582904 47 49 52
0.36993665 0.01040479 1.22734372 45 48 51
0.37015196 0.03038645 1.22867861 45 48 52
0.36979129 0.05033304 1.22987028 47 49 53
0.37012501 0.07035003 1.23098015 41 44 48
0.37001830 0.09039245 1.23199841 44 45 51
0.36979569 0.11001114 1.23290886 46 49 54
0.37004867 0.12964811 1.23375235 47 48 53
0.37029473 0.14976417 1.23457265 49 51 55
0.36980615 0.16996274 1.23530127 45 46 51
0.36979586 0.19003527 1.23594833 50 53 57
0.36997180 0.21018740 1.23653648 46 48 52
0.37013361 0.23034986 1.23707729 48 51 54
0.37027414 0.25005896 1.23754683 44 47 53
0.37016826 0.26966525 1.23800781 48 50 56
0.36972257 0.29004476 1.23842148 40 41 48
0.36974143 0.31015587 1.23882007 43 46 50
0.36991058 0.32996366 1.23919919 44 48 50
0.36990569 0.34970622 1.23955197 37 39 44
0.37022499 0.36815461 1.23986112 38 41 46
0.36925400 0.37820657 1.24002682 43 45 50
0.37015889 0.39007750 1.24021892 42 44 48
0.37022860 0.40615940 1.24045244 43 47 51
0.38997660 -0.22565584 1.16781218 56 59 64
0.38973251 -0.21682777 1.17704353 58 63 63
0.39013188 -0.20682526 1.18429566 55 59 63
0.38998572 -0.19006118 1.19314702 58 61 66
0.38993461 -0.17643140 1.19885341 54 58 62
0.39004664 -0.16670108 1.20211659 53 55 59
0.39010663 -0.15016907 1.20666569 54 57 62
0.38989664 -0.13017517 1.21121544 56 60 62
0.38997350 -0.11017576 1.21480032 52 56 62
0.39000837 -0.08979727 1.21776595 52 55 60
0.38981133 -0.07590835 1.21956317 51 55 58
0.39017759 -0.06609217 1.22072356 56 59 64
0.39009748 -0.05003708 1.22244839 58 62 66
0.38986929 -0.03032676 1.22423019 58 62 67
0.39011432 -0.00991100 1.22589393 48 51 53
0.38986520 0.01040521 1.22739352 49 51 55
0.39021011 0.03038534 1.22874362 51 55 59
0.38976985 0.05033630 1.22994894 45 47 50
0.39013311 0.07035668 1.23109500 48 52 55
0.38996574 0.09040972 1.23213163 41 43 47
0.38983547 0.11002150 1.23302518 46 48 51
0.39009497 0.12965793 1.23384603 42 43 48
0.39026574 0.14970378 1.23463831 46 48 53
0.38970584 0.16994160 1.23537142 49 52 57
0.38986969 0.19004577 1.23601675 48 52 55
0.39005149 0.21019703 1.23659314 44 45 50
0.39022100 0.23035975 1.23713061 42 47 51
0.39028411 0.25000116 1.23759609 49 52 57
0.38979805 0.26990461 1.23804327 52 54 59
0.38972657 0.28997245 1.23845871 44 46 51
0.38984585 0.31016032 1.23883783 42 45 50
0.38986415 0.33021930 1.23921565 41 44 47
0.39017700 0.34995700 1.23956498 42 45 49
0.39005992 0.36815124 1.23986513 41 44 48
0.39075480 0.37822839 1.24002524 47 49 53
0.39027980 0.39007684 1.24021683 42 44 48
0.39035628 0.40616181 1.24045981 44 49 53
0.40999468 -0.22568490 1.16811522 57 59 65
0.40991691 -0.21697922 1.17697437 57 60 67
0.40998819 -0.20700587 1.18439480 55 58 61
0.40999088 -0.19010329 1.19339182 56 61 63
0.41005440 -0.17684417 1.19889476 48 52 55
0.41000749 -0.16713606 1.20218102 54 56 60
0.40999865 -0.14997098 1.20683708 55 58 62
0.41000340 -0.12998368 1.21134572 51 54 59
0.40999729 -0.11020925 1.21492022 55 60 61
0.40998222 -0.08976446 1.21789318 51 53 57
0.40953624 -0.07660446 1.21961882 58 62 66
0.41029595 -0.06673546 1.22077469 54 57 62
0.40995777 -0.05004051 1.22252916 56 58 63
0.40993678 -0.03027965 1.22429857 54 58 62
0.41013593 -0.00991521 1.22599537 55 57 61
0.40981860 0.01040621 1.22751298 53 55 58
0.41023944 0.03037361 1.22883826 43 46 52
0.40975997 0.05034071 1.23005447 44 48 51
0.41015920 0.07036568 1.23125270 48 52 55
0.40984371 0.09035865 1.23230484 50 54 57
0.40996219 0.10994947 1.23318055 51 54 57
0.41016063 0.12967290 1.23398893 45 45 50
0.41012822 0.14974075 1.23475715 47 49 54
0.40974549 0.16991893 1.23548126 54 59 61
0.40995160 0.19005897 1.23610284 54 56 59
0.41013882 0.21020964 1.23666738 48 50 55
0.41032326 0.23029296 1.23720068 48 51 55
0.40995825 0.25002018 1.23764562 41 43 46
0.40969368 0.26979667 1.23807832 43 45 47
0.40982974 0.28997965 1.23848950 43 45 49
0.40995643 0.31016894 1.23887230 43 45 51
0.41007465 0.32990689 1.23922967 41 43 47
0.41019333 0.34965665 1.23958844 47 50 55
0.40991604 0.36736953 1.23987245 40 44 48
0.41144351 0.37726950 1.24003662 43 45 48
0.41010213 0.38998204 1.24024094 39 42 47
0.41003044 0.40616789 1.24047835 36 38 40
0.43005940 -0.22542238 1.16882999 58 61 64
0.42977311 -0.21673575 1.17754683 53 58 62
0.43004116 -0.20708259 1.18449992 51 54 56
0.42998006 -0.19013941 1.19351231 55 58 60
0.42971896 -0.17711815 1.19902494 58 62 63
0.43012206 -0.16741190 1.20224111 51 56 59
0.42999441 -0.14994501 1.20697339 54 57 61
0.42997240 -0.13000877 1.21148742 53 56 60
0.43003740 -0.11021363 1.21508366 55 60 63
0.43000410 -0.08981495 1.21807863 59 61 66
0.42936074 -0.07719500 1.21969998 58 60 64
0.43023957 -0.06737165 1.22084894 53 56 61
0.42989982 -0.05010965 1.22259354 51 53 57
0.42998519 -0.03025167 1.22436264 47 49 55
0.43013343 -0.00993039 1.22612997 59 62 68
0.42982442 0.01037005 1.22764904 52 54 59
0.43021227 0.03033684 1.22893535 47 50 55
0.42977411 0.05034753 1.23021895 51 53 57
0.43019480 0.07037539 1.23142323 47 51 55
0.42983739 0.09001040 1.23244939 51 55 58
0.42994635 0.10959271 1.23331566 50 53 58
0.43022668 0.12968662 1.23411992 51 55 59
0.42992521 0.14983267 1.23486269 45 47 50
0.42982147 0.16993130 1.23557142 53 57 60
0.43004088 0.19007424 1.23620209 53 56 59
0.43023324 0.21022452 1.23675512 48 52 56
0.43013165 0.22985877 1.23724767 46 48 52
0.42974537 0.24972898 1.23770534 44 47 51
0.42980131 0.26980972 1.23813829 44 47 50
0.42994292 0.28999294 1.23854625 41 44 48
0.43007094 0.31017965 1.23891513 40 42 48
0.43019688 0.32991974 1.23927790 45 47 51
0.43031845 0.34966785 1.23962811 47 50 53
0.43001305 0.36558449 1.23990821 46 49 52
0.43004434 0.37567036 1.24007500 53 56 62
0.42977454 0.39020055 1.24029016 40 44 48
