ply
format ascii 1.0
element vertex 1112
property float x
property float y
property float z
property uchar red
property uchar green
property uchar blue
end_header
0.87610787 -0.05261604 1.25156343 57 63 68
0.87433851 -0.05245452 1.24772131 54 60 65
0.87324810 -0.05233403 1.24485517 49 55 60
0.03225080 -0.05279032 1.27812970 66 67 72
0.03321948 -0.05283185 1.27913523 62 63 70
0.03421664 -0.05291511 1.28115118 47 48 57
0.03513375 -0.05287345 1.28014243 46 47 55
0.03610624 -0.05291511 1.28115118 48 49 58
0.03708026 -0.05295685 1.28216159 56 58 66
0.03799584 -0.05291511 1.28115118 60 61 70
0.03900211 -0.05299864 1.28317356 61 62 71
0.04004322 -0.05312443 1.28621912 58 59 68
0.04095935 -0.05308244 1.28520226 56 58 65
0.10858218 -0.03843691 0.93061298 52 56 61
0.10920597 -0.03841492 0.93008059 44 48 54
0.10995477 -0.03843691 0.93061298 47 50 57
0.11064106 -0.03843691 0.93061298 49 51 59
0.11139111 -0.03845892 0.93114597 43 45 54
0.11214203 -0.03848096 0.93167961 41 44 52
0.47215220 -0.07727190 1.87086415 51 56 61
0.47462422 -0.07745016 1.87517977 59 64 69
0.47821340 -0.07780913 1.88387132 57 63 67
0.48183599 -0.07817146 1.89264369 48 54 58
0.48323175 -0.07817146 1.89264369 45 50 55
0.48406398 -0.07808056 1.89044297 46 50 54
0.48658970 -0.07826257 1.89484954 49 51 55
0.48969933 -0.07853717 1.90149808 51 53 57
0.49225307 -0.07872131 1.90595651 51 53 56
0.49365863 -0.07872131 1.90595651 53 55 57
0.49448451 -0.07862914 1.90372467 55 58 59
0.50140220 -0.07927897 1.91945803 47 46 48
0.50222480 -0.07918548 1.91719449 46 45 47
0.50363868 -0.07918548 1.91719449 45 44 46
0.50505251 -0.07918548 1.91719449 42 41 44
0.50706434 -0.07927897 1.91945803 42 41 45
0.50788021 -0.07918548 1.91719449 45 43 49
0.50869423 -0.07909220 1.91493630 47 45 51
0.50950629 -0.07899915 1.91268337 49 48 53
0.34938872 -0.04656677 1.12744856 51 58 61
0.35022014 -0.04656677 1.12744856 46 53 55
0.35056537 -0.04650227 1.12588704 44 50 53
0.35090965 -0.04643796 1.12432981 43 49 51
0.35222599 -0.04650227 1.12588704 50 57 58
0.35305628 -0.04650227 1.12588704 57 64 65
0.35437742 -0.04656677 1.12744856 61 67 69
0.35570222 -0.04663145 1.12901449 63 69 71
0.35727915 -0.04672880 1.13137150 62 66 69
0.35836288 -0.04676134 1.13215935 60 64 67
0.29232651 -0.03761864 0.91080165 58 58 63
0.29399928 -0.03766084 0.91182327 52 52 56
0.29434153 -0.03761864 0.91080165 49 49 52
0.29517859 -0.03763973 0.91131216 53 51 55
0.29585063 -0.03763973 0.91131216 56 53 57
0.29635659 -0.03761864 0.91080165 56 53 57
0.42837828 -0.04702331 1.13850200 46 46 49
0.42861760 -0.04695754 1.13690972 44 44 46
0.42945600 -0.04695754 1.13690972 42 42 44
0.43029442 -0.04695754 1.13690972 43 44 45
0.43113285 -0.04695754 1.13690972 45 48 47
0.43166941 -0.04692473 1.13611519 49 52 51
0.43220523 -0.04689196 1.13532186 53 56 54
0.43357697 -0.04685923 1.13452959 54 57 55
0.43320441 -0.04672880 1.13137150 51 54 53
0.43547919 -0.04679393 1.13294840 45 48 46
0.43540445 -0.04669630 1.13058472 40 43 41
0.43593505 -0.04666385 1.12979913 43 46 44
0.43525589 -0.04650227 1.12588704 46 49 48
0.54923457 -0.04343421 1.05160475 55 57 64
0.55036610 -0.04346232 1.05228543 57 59 67
0.48686406 -0.03394807 0.82193172 55 59 62
0.48722389 -0.03393092 0.82151639 53 57 60
0.48733720 -0.03389666 0.82068700 51 55 58
0.52448064 -0.03521200 0.85253322 65 69 72
0.52483416 -0.03519354 0.85208642 62 66 68
0.52491230 -0.03515669 0.85119420 59 63 65
0.52664298 -0.03523047 0.85298055 58 61 64
0.52754879 -0.03524897 0.85342830 57 60 63
0.53055090 -0.03532314 0.85522401 57 57 61
0.53062338 -0.03528601 0.85432523 56 56 61
0.53097439 -0.03526748 0.85387653 55 55 60
0.87393385 -0.05189280 1.25639951 57 64 68
0.87149298 -0.05169306 1.25156343 60 67 71
0.87107480 -0.05161359 1.24963939 61 68 72
0.86999023 -0.05149485 1.24676454 63 69 73
0.87024230 -0.05145539 1.24580908 62 68 72
0.87182909 -0.05149485 1.24676454 60 66 71
0.87610787 -0.05169306 1.25156343 58 64 68
0.87433851 -0.05153437 1.24772131 54 60 64
0.87324810 -0.05141599 1.24485517 48 54 58
0.03321948 -0.05188854 1.27913523 58 59 66
0.03421664 -0.05197031 1.28115118 55 56 64
0.03513375 -0.05192940 1.28014243 52 53 60
0.03607781 -0.05192940 1.28014243 50 51 58
0.03708026 -0.05201130 1.28216159 57 58 65
0.03796592 -0.05192940 1.28014243 61 62 70
0.04007492 -0.05221720 1.28723741 64 65 72
0.10914353 -0.03770745 0.92954886 40 44 51
0.11207779 -0.03777224 0.93114597 50 54 63
0.47106802 -0.07571795 1.86656821 39 45 50
0.47353187 -0.07589221 1.87086415 48 55 59
0.47655678 -0.07615512 1.87734520 47 54 58
0.48071674 -0.07659736 1.88824725 32 39 43
0.48210925 -0.07659736 1.88824725 30 36 40
0.48294085 -0.07650851 1.88605678 36 40 43
0.48489428 -0.07659736 1.88824725 45 48 51
0.48855650 -0.07695488 1.89706051 52 54 57
0.49052790 -0.07704478 1.89927673 50 52 54
0.49250388 -0.07713489 1.90149808 48 50 52
0.50104308 -0.07758863 1.91268337 39 37 40
0.50245363 -0.07758863 1.91268337 42 39 42
0.50386417 -0.07758863 1.91268337 44 41 45
0.50586981 -0.07768001 1.91493630 45 42 47
0.50668520 -0.07758863 1.91268337 40 38 45
0.50749868 -0.07749745 1.91043580 39 37 45
0.34855726 -0.04573532 1.12744856 56 63 65
0.34914657 -0.04570362 1.12666726 59 66 68
0.34997746 -0.04570362 1.12666726 50 57 59
0.35056537 -0.04567197 1.12588704 47 53 55
0.35090965 -0.04560880 1.12432981 45 51 53
0.35198224 -0.04564037 1.12510788 53 60 62
0.35281196 -0.04564037 1.12510788 61 68 70
0.35388657 -0.04567197 1.12588704 64 70 73
0.35520887 -0.04573532 1.12744856 65 71 75
0.35678259 -0.04583067 1.12979913 60 64 69
0.35761577 -0.04583067 1.12979913 56 60 65
0.35844895 -0.04583067 1.12979913 57 61 65
0.29534414 -0.03698841 0.91182327 53 52 57
0.29601657 -0.03698841 0.91182327 57 54 59
0.42748022 -0.04608689 1.13611519 40 40 43
0.42801896 -0.04605470 1.13532186 39 39 42
0.42885619 -0.04605470 1.13532186 40 40 43
0.42999372 -0.04608689 1.13611519 43 45 46
0.43053070 -0.04605470 1.13532186 48 50 49
0.43106693 -0.04602256 1.13452959 52 54 53
0.43160242 -0.04599047 1.13373840 55 58 57
0.43213716 -0.04595842 1.13294840 57 60 59
0.43267116 -0.04592641 1.13215935 59 62 60
0.43140313 -0.04570362 1.12666726 59 62 61
0.43343550 -0.04583067 1.12979913 58 61 60
0.43426868 -0.04583067 1.12979913 55 58 56
0.43389577 -0.04570362 1.12666726 51 54 52
0.43472666 -0.04570362 1.12666726 53 56 55
0.43465388 -0.04560880 1.12432981 58 61 60
0.43488154 -0.04554581 1.12277687 56 59 58
0.54775047 -0.04260357 1.05024612 46 44 53
0.54817086 -0.04257607 1.04956806 42 41 50
0.54929948 -0.04260357 1.05024612 42 41 50
0.48711032 -0.03335879 0.82234746 54 58 60
0.48782972 -0.03332508 0.82151639 51 55 57
0.52585942 -0.03467420 0.85477442 67 71 74
0.52566069 -0.03461960 0.85342830 64 67 70
0.52546257 -0.03456516 0.85208642 60 63 66
0.52691942 -0.03461960 0.85342830 58 60 64
0.52810323 -0.03465598 0.85432523 56 58 62
0.52873325 -0.03465598 0.85432523 54 56 60
0.52992022 -0.03469244 0.85522401 55 56 60
0.53083014 -0.03471070 0.85567415 56 56 61
0.53118163 -0.03469244 0.85522401 56 56 61
0.53153270 -0.03467420 0.85477442 56 56 60
0.87325901 -0.05092690 1.25542927 54 61 65
0.87082261 -0.05073103 1.25060070 57 64 68
0.87040579 -0.05065310 1.24867964 56 63 67
0.86999023 -0.05057541 1.24676454 55 62 66
0.87024230 -0.05053665 1.24580908 54 60 64
0.87182909 -0.05057541 1.24676454 51 57 62
0.87678283 -0.05080919 1.25252771 48 55 59
0.87501001 -0.05065310 1.24867964 45 52 56
0.87458742 -0.05057541 1.24676454 40 46 50
0.87752575 -0.05069203 1.24963939 35 42 45
0.04004322 -0.05122736 1.28621912 67 68 74
0.11194956 -0.03704312 0.93008059 29 32 42
0.47190276 -0.07425617 1.86442769 47 54 58
0.47987986 -0.07485709 1.87951553 15 20 23
0.48126590 -0.07485709 1.87951553 28 32 35
0.50363868 -0.07635776 1.91719449 39 37 40
0.50646639 -0.07635776 1.91719449 50 48 52
0.34831572 -0.04487275 1.12666726 63 69 71
0.34890479 -0.04484168 1.12588704 68 74 76
0.34973508 -0.04484168 1.12588704 56 63 65
0.35032278 -0.04481064 1.12510788 51 58 60
0.35066715 -0.04474871 1.12355280 49 55 57
0.35173881 -0.04477965 1.12432981 56 62 65
0.35256797 -0.04477965 1.12432981 64 70 74
0.35364169 -0.04481064 1.12510788 65 71 75
0.35471690 -0.04484168 1.12588704 63 69 73
0.35604033 -0.04490387 1.12744856 55 60 65
0.35711941 -0.04493503 1.12823105 50 55 60
0.35770321 -0.04490387 1.12744856 52 57 62
0.36077884 -0.04487275 1.12666726 50 52 58
0.29534414 -0.03631597 0.91182327 60 60 65
0.29601657 -0.03631597 0.91182327 63 62 67
0.42718169 -0.04521744 1.13532186 40 41 45
0.42742202 -0.04515438 1.13373840 41 42 45
0.42825806 -0.04515438 1.13373840 44 45 49
0.42969346 -0.04521744 1.13532186 49 51 53
0.43053070 -0.04521744 1.13532186 56 58 59
0.43106693 -0.04518589 1.13452959 59 62 62
0.43130165 -0.04512291 1.13294840 62 65 64
0.43183625 -0.04509149 1.13215935 64 67 66
0.43237007 -0.04506011 1.13137150 66 69 67
0.43110439 -0.04484168 1.12588704 65 68 67
0.43283394 -0.04493503 1.12823105 64 66 65
0.43396711 -0.04496624 1.12901449 60 63 62
0.43389577 -0.04487275 1.12666726 56 59 59
0.43472666 -0.04487275 1.12666726 58 60 60
0.43465388 -0.04477965 1.12432981 60 63 63
0.43518206 -0.04474871 1.12355280 58 61 60
0.54633874 -0.04172125 1.04753923 36 34 44
0.54711127 -0.04172125 1.04753923 32 31 40
0.54823703 -0.04174815 1.04821467 31 31 40
0.52669019 -0.03409762 0.85612476 71 75 78
0.52648979 -0.03404384 0.85477442 68 71 74
0.52601391 -0.03397239 0.85298055 64 66 69
0.52775049 -0.03404384 0.85477442 61 63 66
0.52865881 -0.03406174 0.85522401 57 59 63
0.52956808 -0.03407967 0.85567415 54 56 60
0.53047836 -0.03409762 0.85612476 54 55 59
0.53138953 -0.03411558 0.85657585 54 55 59
0.53174102 -0.03409762 0.85612476 54 55 58
0.53209221 -0.03407967 0.85567415 54 55 58
0.87216437 -0.04988550 1.25252771 52 58 63
0.87174487 -0.04980875 1.25060070 50 57 61
0.87132663 -0.04973224 1.24867964 48 55 59
0.87090969 -0.04965597 1.24676454 46 53 57
0.87585914 -0.04988550 1.25252771 44 51 55
0.88017333 -0.05007841 1.25737119 42 49 53
0.87703085 -0.04984710 1.25156343 41 48 52
0.87593091 -0.04973224 1.24867964 39 46 49
0.88227278 -0.05003970 1.25639951 37 44 46
0.88525170 -0.05015599 1.25931907 38 45 47
0.47136220 -0.07279774 1.86229193 45 51 56
0.48015574 -0.07330153 1.87517977 33 37 41
0.50341207 -0.07512107 1.92172682 34 35 39
0.50363868 -0.07494390 1.91719449 37 37 41
0.50386417 -0.07476756 1.91268337 46 46 50
0.34831572 -0.04404188 1.12666726 61 68 69
0.34890479 -0.04401138 1.12588704 69 76 77
0.34973508 -0.04401138 1.12588704 58 65 67
0.35056537 -0.04401138 1.12588704 55 61 63
0.35090965 -0.04395050 1.12432981 54 61 63
0.35173881 -0.04395050 1.12432981 58 65 68
0.35256797 -0.04395050 1.12432981 63 69 73
0.35388657 -0.04401138 1.12588704 59 65 69
0.35496271 -0.04404188 1.12666726 52 58 62
0.35628739 -0.04410300 1.12823105 46 52 56
0.35687175 -0.04407242 1.12744856 41 48 52
0.35770321 -0.04407242 1.12744856 45 52 56
0.35803807 -0.04401138 1.12588704 48 54 58
0.35936612 -0.04407242 1.12744856 48 52 57
0.36094850 -0.04416430 1.12979913 46 50 55
0.36077884 -0.04404188 1.12666726 42 46 52
0.36110920 -0.04398092 1.12510788 44 48 53
0.42688361 -0.04434922 1.13452959 40 42 47
0.42712414 -0.04428741 1.13294840 41 43 47
0.42795962 -0.04428741 1.13294840 44 46 51
0.42939359 -0.04434922 1.13452959 50 52 56
0.43023026 -0.04434922 1.13452959 57 59 62
0.43106693 -0.04434922 1.13452959 61 63 65
0.43130165 -0.04428741 1.13294840 60 63 63
0.43153572 -0.04422577 1.13137150 59 62 62
0.43206939 -0.04419501 1.13058472 59 62 62
0.43110439 -0.04401138 1.12588704 58 60 61
0.43253377 -0.04407242 1.12744856 56 58 58
0.43396711 -0.04413363 1.12901449 55 57 58
0.43389577 -0.04404188 1.12666726 55 58 59
0.43472666 -0.04404188 1.12666726 57 60 60
0.43495467 -0.04398092 1.12510788 58 60 61
0.43518206 -0.04392013 1.12355280 56 58 59
0.43570954 -0.04388980 1.12277687 54 56 57
0.54486406 -0.04089603 1.04619110 30 29 38
0.54528469 -0.04086973 1.04551828 28 27 36
0.54605573 -0.04086973 1.04551828 25 25 33
0.54717863 -0.04089603 1.04619110 24 24 33
0.52696764 -0.03348389 0.85657585 76 80 83
0.52704400 -0.03344864 0.85567415 72 75 78
0.52684319 -0.03339592 0.85432523 68 71 74
0.52830607 -0.03344864 0.85567415 64 66 69
0.52921563 -0.03346626 0.85612476 59 61 65
0.52984697 -0.03346626 0.85612476 54 56 60
0.53075784 -0.03348389 0.85657585 53 55 59
0.53166962 -0.03350154 0.85702735 52 54 57
0.53202122 -0.03348389 0.85657585 51 53 56
0.53265291 -0.03348389 0.85657585 52 54 57
0.53328460 -0.03348389 0.85657585 53 55 58
0.53335428 -0.03344864 0.85567415 55 57 60
0.87401175 -0.04896181 1.25252771 50 56 61
0.88222027 -0.04926545 1.26029527 45 52 56
0.87973982 -0.04907523 1.25542927 45 52 56
0.87930763 -0.04899956 1.25349343 45 52 56
0.88432300 -0.04922729 1.25931907 47 54 56
0.88593793 -0.04926545 1.26029527 48 55 57
0.88686734 -0.04926545 1.26029527 49 55 56
0.88848549 -0.04930367 1.26127303 49 55 55
0.34831572 -0.04321100 1.12666726 58 64 64
0.34914657 -0.04321100 1.12666726 67 74 73
0.34997746 -0.04321100 1.12666726 61 67 68
0.35056537 -0.04318108 1.12588704 60 66 68
0.35090965 -0.04312135 1.12432981 62 69 71
0.35198224 -0.04315119 1.12510788 64 71 73
0.35281196 -0.04315119 1.12510788 66 72 76
0.35413182 -0.04321100 1.12666726 60 66 70
0.35520887 -0.04324097 1.12744856 52 58 62
0.35653481 -0.04330102 1.12901449 52 59 63
0.35736743 -0.04330102 1.12901449 55 61 66
0.35795146 -0.04327098 1.12823105 58 64 69
0.35803807 -0.04318108 1.12588704 58 64 70
0.35961550 -0.04327098 1.12823105 54 60 66
0.36094850 -0.04333112 1.12979913 48 54 60
0.36102903 -0.04324097 1.12744856 40 46 52
0.36135927 -0.04318108 1.12588704 41 46 52
0.42688361 -0.04351254 1.13452959 40 42 48
0.42712414 -0.04345190 1.13294840 40 42 47
0.42795962 -0.04345190 1.13294840 42 44 49
0.42909417 -0.04348220 1.13373840 46 48 54
0.43023026 -0.04351254 1.13452959 57 59 64
0.43106693 -0.04351254 1.13452959 61 63 67
0.43130165 -0.04345190 1.13294840 57 60 62
0.43183625 -0.04342164 1.13215935 54 57 58
0.43206939 -0.04336125 1.13058472 54 57 58
0.43140313 -0.04321100 1.12666726 52 55 56
0.43313450 -0.04330102 1.12901449 50 53 54
0.43457067 -0.04336125 1.13058472 51 53 54
0.43449798 -0.04327098 1.12823105 52 54 56
0.43533000 -0.04327098 1.12823105 55 57 59
0.43525589 -0.04318108 1.12588704 61 64 65
0.43578440 -0.04315119 1.12510788 62 65 66
0.43601063 -0.04309155 1.12355280 60 63 64
0.54416376 -0.04007293 1.04484630 29 27 36
0.54458427 -0.04004719 1.04417527 28 27 36
0.54500431 -0.04002149 1.04350507 28 28 36
0.52618152 -0.03292158 0.85838485 71 74 77
0.52570426 -0.03285220 0.85657585 73 76 79
0.52633595 -0.03285220 0.85657585 73 76 79
0.52696764 -0.03285220 0.85657585 72 75 78
0.52676678 -0.03280035 0.85522401 70 73 76
0.52656645 -0.03274867 0.85387653 70 72 75
0.52802813 -0.03280035 0.85522401 67 69 72
0.52893710 -0.03281762 0.85567415 62 64 67
0.52984697 -0.03283490 0.85612476 56 58 62
0.53075784 -0.03285220 0.85657585 53 55 59
0.53166962 -0.03286952 0.85702735 50 52 56
0.53202122 -0.03285220 0.85657585 49 51 55
0.53265291 -0.03285220 0.85657585 51 54 57
0.53328460 -0.03285220 0.85657585 54 58 61
0.53363514 -0.03283490 0.85612476 54 58 61
0.88178259 -0.04826120 1.25834441 48 55 59
0.88202786 -0.04822388 1.25737119 51 58 61
0.88569510 -0.04837352 1.26127303 54 61 63
0.88662523 -0.04837352 1.26127303 57 64 65
0.88824445 -0.04841108 1.26225221 54 61 61
0.34831572 -0.04238013 1.12666726 60 65 65
0.34914657 -0.04238013 1.12666726 70 76 76
0.35056537 -0.04235078 1.12588704 73 80 82
0.35115251 -0.04232147 1.12510788 75 82 84
0.35198224 -0.04232147 1.12510788 75 82 85
0.35305628 -0.04235078 1.12588704 73 80 84
0.35413182 -0.04238013 1.12666726 66 73 77
0.35520887 -0.04240952 1.12744856 56 62 66
0.35653481 -0.04246842 1.12901449 63 69 74
0.35736743 -0.04246842 1.12901449 71 78 84
0.35795146 -0.04243895 1.12823105 69 76 82
0.35828620 -0.04238013 1.12666726 66 73 79
0.35961550 -0.04243895 1.12823105 61 67 74
0.36119950 -0.04252749 1.13058472 54 61 67
0.36102903 -0.04240952 1.12744856 43 49 55
0.36160970 -0.04238013 1.12666726 41 46 53
0.42688361 -0.04267587 1.13452959 40 42 49
0.42712414 -0.04261639 1.13294840 40 42 48
0.42795962 -0.04261639 1.13294840 42 44 49
0.42939359 -0.04267587 1.13452959 46 48 52
0.43183625 -0.04258671 1.13215935 50 52 54
0.43206939 -0.04252749 1.13058472 49 52 53
0.43170232 -0.04240952 1.12744856 49 52 53
0.43313450 -0.04246842 1.12901449 48 50 52
0.43457067 -0.04252749 1.13058472 47 49 51
0.43449798 -0.04243895 1.12823105 47 49 51
0.43502811 -0.04240952 1.12744856 52 54 56
0.43495467 -0.04232147 1.12510788 62 64 66
0.43548301 -0.04229220 1.12432981 65 68 69
0.43601063 -0.04226298 1.12355280 64 67 69
0.52833802 -0.03245994 0.86294103 66 67 70
0.52645946 -0.03230561 0.85883832 71 72 75
0.52598143 -0.03223749 0.85702735 71 72 76
0.52661341 -0.03223749 0.85702735 68 70 73
0.52696764 -0.03222051 0.85657585 64 66 70
0.52704400 -0.03218659 0.85567415 66 68 72
0.52684319 -0.03213585 0.85432523 70 72 75
0.52830607 -0.03218659 0.85567415 70 72 75
0.52921563 -0.03220354 0.85612476 64 66 69
0.53012615 -0.03222051 0.85657585 58 60 63
0.53103763 -0.03223749 0.85702735 53 55 58
0.53166962 -0.03223749 0.85702735 49 51 55
0.53230166 -0.03223749 0.85702735 46 49 52
0.53321475 -0.03225449 0.85747939 48 51 54
0.53356570 -0.03223749 0.85702735 49 53 56
0.53391629 -0.03222051 0.85657585 48 53 56
0.88314968 -0.04740661 1.26029527 52 59 63
0.88339430 -0.04736989 1.25931907 56 63 66
0.34831572 -0.04154925 1.12666726 60 64 65
0.34890479 -0.04152048 1.12588704 69 74 74
0.35090965 -0.04146305 1.12432981 77 84 86
0.35198224 -0.04149174 1.12510788 75 81 84
0.35305628 -0.04152048 1.12588704 69 76 80
0.35437742 -0.04157807 1.12744856 63 70 74
0.35545537 -0.04160692 1.12823105 56 63 68
0.35678259 -0.04166475 1.12979913 66 73 79
0.35761577 -0.04166475 1.12979913 80 88 94
0.35820001 -0.04163581 1.12901449 74 82 88
0.35853466 -0.04157807 1.12744856 68 77 82
0.35986525 -0.04163581 1.12901449 66 75 80
0.36145085 -0.04172273 1.13137150 61 69 75
0.36127955 -0.04160692 1.12823105 48 55 61
0.42795962 -0.04178089 1.13294840 43 45 49
0.43183625 -0.04175179 1.13215935 45 47 50
0.43206939 -0.04169372 1.13058472 45 48 50
0.43140313 -0.04154925 1.12666726 45 48 50
0.43253377 -0.04157807 1.12744856 46 48 50
0.43457067 -0.04169372 1.13058472 45 47 50
0.43449798 -0.04160692 1.12823105 43 45 48
0.43472666 -0.04154925 1.12666726 44 46 49
0.43465388 -0.04146305 1.12432981 50 53 55
0.43488154 -0.04140578 1.12277687 56 58 61
0.43570954 -0.04140578 1.12277687 63 65 69
0.52519274 -0.03167225 0.85883832 63 63 66
0.52833802 -0.03182355 0.86294103 66 66 70
0.52673775 -0.03168899 0.85929221 69 69 73
0.52625883 -0.03162214 0.85747939 68 69 73
0.52689117 -0.03162214 0.85747939 66 67 71
0.52724546 -0.03160547 0.85702735 63 65 69
0.52732152 -0.03157218 0.85612476 66 68 71
0.52739745 -0.03153896 0.85522401 69 71 74
0.52858424 -0.03157218 0.85612476 68 70 74
0.52921563 -0.03157218 0.85612476 62 64 67
0.53040558 -0.03160547 0.85702735 56 58 61
0.53131771 -0.03162214 0.85747939 51 53 56
0.53195006 -0.03162214 0.85747939 48 50 53
0.53258240 -0.03162214 0.85747939 45 47 50
0.53349614 -0.03163882 0.85793185 43 46 49
0.53384715 -0.03162214 0.85747939 41 45 48
0.53419775 -0.03160547 0.85702735 40 44 47
0.53482974 -0.03160547 0.85702735 41 45 48
0.35594940 -0.04083156 1.12979913 55 63 69
0.35727915 -0.04088839 1.13137150 67 75 81
0.35811350 -0.04088839 1.13137150 83 92 98
0.35869822 -0.04085996 1.13058472 78 87 93
0.35878348 -0.04077489 1.12823105 70 79 85
0.43116987 -0.04077489 1.12823105 41 43 47
0.43050811 -0.04063390 1.12432981 42 44 47
0.43133727 -0.04063390 1.12432981 44 46 49
0.43336523 -0.04074661 1.12744856 44 46 49
0.43359527 -0.04069018 1.12588704 40 42 45
0.43382472 -0.04063390 1.12432981 39 41 44
0.43375397 -0.04054977 1.12200201 44 46 49
0.43428168 -0.04052180 1.12122822 51 53 57
0.43480867 -0.04049388 1.12045550 64 66 70
0.52455938 -0.03103889 0.85883832 61 63 66
0.52491546 -0.03102250 0.85838485 65 66 69
0.52861857 -0.03120373 0.86339933 65 67 70
0.52701628 -0.03107172 0.85974663 65 67 70
0.52625883 -0.03098978 0.85747939 64 66 70
0.52689117 -0.03098978 0.85747939 64 66 70
0.52724546 -0.03097344 0.85702735 65 67 70
0.52732152 -0.03094082 0.85612476 66 68 72
0.52739745 -0.03090827 0.85522401 68 70 73
0.52858424 -0.03094082 0.85612476 67 69 73
0.52949446 -0.03095712 0.85657585 61 63 66
0.53040558 -0.03097344 0.85702735 54 56 59
0.53131771 -0.03098978 0.85747939 51 53 56
0.53195006 -0.03098978 0.85747939 49 51 54
0.53286344 -0.03100613 0.85793185 48 50 53
0.53349614 -0.03100613 0.85793185 46 49 52
0.53384715 -0.03098978 0.85747939 44 49 52
0.53419775 -0.03097344 0.85702735 45 49 52
0.53482974 -0.03097344 0.85702735 45 50 53
0.53574419 -0.03098978 0.85747939 46 50 53
0.35752794 -0.04008194 1.13215935 65 74 80
0.35836288 -0.04008194 1.13215935 81 90 98
0.35894784 -0.04005405 1.13137150 79 87 95
0.35928214 -0.03999838 1.12979913 73 81 89
0.42991349 -0.03974977 1.12277687 41 43 47
0.43074149 -0.03974977 1.12277687 43 45 49
0.43246549 -0.03983229 1.12510788 44 46 49
0.43299556 -0.03980475 1.12432981 40 42 45
0.43322551 -0.03974977 1.12277687 37 39 43
0.43285778 -0.03964027 1.11968386 45 47 50
0.43101195 -0.03939608 1.11278641 53 55 59
0.43052706 -0.03912826 1.10522151 78 80 83
0.42958987 -0.03896931 1.10073185 77 79 82
0.42952919 -0.03889031 1.09850061 69 71 75
0.43063027 -0.03891661 1.09924340 65 67 70
0.52420294 -0.03042160 0.85929221 55 57 61
0.52428246 -0.03038947 0.85838485 60 62 66
0.52463847 -0.03037344 0.85793185 65 67 70
0.52889949 -0.03058324 0.86385810 65 67 70
0.52673775 -0.03042160 0.85929221 63 65 68
0.52625883 -0.03035742 0.85747939 62 64 67
0.52689117 -0.03035742 0.85747939 64 66 69
0.52724546 -0.03034142 0.85702735 66 68 71
0.52732152 -0.03030946 0.85612476 66 68 72
0.52739745 -0.03027757 0.85522401 66 68 72
0.52858424 -0.03030946 0.85612476 64 66 70
0.52949446 -0.03032543 0.85657585 59 61 65
0.53040558 -0.03034142 0.85702735 54 56 59
0.53131771 -0.03035742 0.85747939 52 54 57
0.53223079 -0.03037344 0.85793185 53 55 58
0.53286344 -0.03037344 0.85793185 53 55 59
0.53349614 -0.03037344 0.85793185 53 56 59
0.53384715 -0.03035742 0.85747939 53 56 60
0.53419775 -0.03034142 0.85702735 52 57 59
0.53482974 -0.03034142 0.85702735 52 56 59
0.53574419 -0.03035742 0.85747939 50 55 57
0.53609383 -0.03034142 0.85702735 51 56 58
0.35777709 -0.03927436 1.13294840 60 68 74
0.35861260 -0.03927436 1.13294840 72 80 87
0.35944811 -0.03927436 1.13294840 73 81 88
0.35978219 -0.03921970 1.13137150 71 79 86
0.42932051 -0.03886808 1.12122822 42 44 48
0.42985094 -0.03884129 1.12045550 44 45 49
0.43156952 -0.03892176 1.12277687 44 46 50
0.43239751 -0.03892176 1.12277687 40 41 46
0.43232980 -0.03884129 1.12045550 37 38 43
0.43137234 -0.03868134 1.11584139 45 47 52
0.42983511 -0.03847011 1.10974801 55 57 61
0.43088368 -0.03841766 1.10823512 68 70 74
0.42994249 -0.03826118 1.10372090 69 71 74
0.42958987 -0.03815756 1.10073185 68 70 73
0.42981961 -0.03810596 1.09924340 63 65 69
0.43063027 -0.03810596 1.09924340 61 63 66
0.43144092 -0.03810596 1.09924340 59 61 65
0.43306223 -0.03810596 1.09924340 58 60 64
0.43387288 -0.03810596 1.09924340 59 61 64
0.43438980 -0.03808021 1.09850061 60 62 65
0.52503544 -0.02983521 0.86065692 50 52 55
0.52483666 -0.02978790 0.85929221 57 59 62
0.52770162 -0.02991439 0.86294103 64 66 69
0.52946216 -0.02997804 0.86477709 64 66 69
0.52757424 -0.02983521 0.86065692 62 64 67
0.52653652 -0.02974075 0.85793185 60 62 65
0.52772617 -0.02977217 0.85883832 63 65 68
0.52780193 -0.02974075 0.85793185 67 69 72
0.52759933 -0.02969374 0.85657585 67 69 73
0.52767503 -0.02966248 0.85567415 64 67 71
0.52914155 -0.02970939 0.85702735 62 64 68
0.53005296 -0.02972506 0.85747939 57 60 63
0.53152639 -0.02977217 0.85883832 53 56 59
0.53187877 -0.02975645 0.85838485 51 54 57
0.53251177 -0.02975645 0.85838485 52 54 58
0.53342646 -0.02977217 0.85883832 52 55 59
0.53405982 -0.02977217 0.85883832 53 56 60
0.53412884 -0.02974075 0.85793185 55 59 61
0.53476155 -0.02974075 0.85793185 56 60 63
0.53539425 -0.02974075 0.85793185 55 60 62
0.53630996 -0.02975645 0.85838485 54 59 61
0.53665960 -0.02974075 0.85793185 54 58 61
0.53757596 -0.02975645 0.85838485 53 58 60
0.35802659 -0.03846566 1.13373840 53 60 64
0.35886267 -0.03846566 1.13373840 61 69 75
0.35944811 -0.03843886 1.13294840 64 73 78
0.42872915 -0.03798882 1.11968386 45 47 51
0.42778715 -0.03783248 1.11507607 45 47 51
0.43067721 -0.03801500 1.12045550 45 46 52
0.43150350 -0.03801500 1.12045550 41 42 48
0.43143779 -0.03793656 1.11814368 37 39 44
0.43019131 -0.03775480 1.11278641 47 49 54
0.42954192 -0.03762603 1.10899103 56 58 64
0.43006641 -0.03760038 1.10823512 58 60 65
0.43029705 -0.03754919 1.10672629 60 62 66
0.42935953 -0.03739645 1.10222435 61 63 67
0.42958987 -0.03734581 1.10073185 62 64 68
0.42981961 -0.03729531 1.09924340 64 66 70
0.43092161 -0.03732054 1.09998703 66 68 72
0.43144092 -0.03729531 1.09924340 64 66 69
0.43306223 -0.03729531 1.09924340 60 62 64
0.43387288 -0.03729531 1.09924340 59 61 63
0.53030837 -0.02938719 0.86615926 64 67 70
0.52897441 -0.02927801 0.86294103 61 64 67
0.53052878 -0.02929355 0.86339933 62 66 69
0.52835953 -0.02913881 0.85883832 66 69 73
0.52759933 -0.02906205 0.85657585 66 69 73
0.52767503 -0.02903145 0.85567415 62 65 69
0.52969998 -0.02910805 0.85793185 58 61 65
0.53145450 -0.02916963 0.85974663 54 58 61
0.53349912 -0.02924696 0.86202592 51 55 58
0.53272253 -0.02916963 0.85974663 49 52 55
0.53335661 -0.02916963 0.85974663 48 52 55
0.53427315 -0.02918506 0.86020154 48 52 55
0.53490752 -0.02918506 0.86020154 51 55 58
0.53469318 -0.02913881 0.85883832 55 59 62
0.53560948 -0.02915421 0.85929221 58 63 65
0.53624314 -0.02915421 0.85929221 58 63 65
0.53687686 -0.02915421 0.85929221 58 63 65
0.53694296 -0.02912342 0.85838485 57 62 64
0.53814423 -0.02915421 0.85929221 54 58 61
0.42755133 -0.03706099 1.11660779 48 50 54
0.42603394 -0.03685848 1.11050606 47 48 53
0.42714465 -0.03688367 1.11126518 45 47 53
0.42972654 -0.03703556 1.11584139 42 44 50
0.42995924 -0.03698479 1.11431181 39 41 47
0.42930976 -0.03685848 1.11050606 45 46 52
0.42866471 -0.03673302 1.10672629 49 51 57
0.42918870 -0.03670803 1.10597336 50 51 57
0.42912856 -0.03663327 1.10372090 50 51 57
0.42877814 -0.03653406 1.10073185 56 58 62
0.42900896 -0.03648466 1.09924340 63 65 69
0.42952919 -0.03646001 1.09850061 71 73 77
0.43092161 -0.03650934 1.09998703 79 81 85
0.43144092 -0.03648466 1.09924340 74 76 79
0.43225157 -0.03648466 1.09924340 68 70 72
0.43306223 -0.03648466 1.09924340 61 63 65
0.43387288 -0.03648466 1.09924340 55 58 59
0.53116548 -0.02865683 0.86339933 65 70 72
0.52759933 -0.02843035 0.85657585 66 70 73
0.52684319 -0.02835565 0.85432523 61 65 68
0.53520179 -0.02870256 0.86477709 52 56 59
0.53441823 -0.02862643 0.86248326 50 54 57
0.53420407 -0.02858094 0.86111277 47 52 54
0.53540629 -0.02861125 0.86202592 44 48 51
0.53604198 -0.02861125 0.86202592 46 51 53
0.53497577 -0.02852051 0.85929221 52 56 59
0.53709477 -0.02856581 0.86065692 61 65 68
0.53716075 -0.02853560 0.85974663 65 68 71
0.53722662 -0.02850545 0.85883832 63 66 69
0.42429504 -0.03589242 1.10597336 49 50 56
0.42453304 -0.03584366 1.10447073 46 48 54
0.42849082 -0.03603952 1.11050606 42 44 50
0.42843184 -0.03596582 1.10823512 44 45 52
0.42721063 -0.03579502 1.10297215 47 48 54
0.42715463 -0.03572232 1.10073185 47 49 55
0.42767683 -0.03569815 1.09998703 48 49 55
0.42819831 -0.03567401 1.09924340 55 57 62
0.42871910 -0.03564990 1.09850061 63 65 69
0.42923915 -0.03562583 1.09775889 69 71 76
0.43033931 -0.03564990 1.09850061 76 78 82
0.43114939 -0.03564990 1.09850061 66 68 71
0.43195951 -0.03564990 1.09850061 56 58 60
0.43276960 -0.03564990 1.09850061 49 52 53
0.43357971 -0.03564990 1.09850061 42 45 46
0.53314745 -0.02812466 0.86662096 63 68 70
0.53718132 -0.02803499 0.86385810 41 45 48
0.53554189 -0.02791633 0.86020154 49 53 56
0.53744501 -0.02791633 0.86020154 69 72 75
0.53751057 -0.02788682 0.85929221 68 70 73
0.42726684 -0.03505296 1.10522151 49 50 58
0.42605442 -0.03488695 1.09998703 53 54 62
0.42628878 -0.03483980 1.09850061 54 55 62
0.42709890 -0.03483980 1.09850061 54 55 62
0.42762005 -0.03481628 1.09775889 58 60 66
0.42842960 -0.03481628 1.09775889 62 64 70
0.42894953 -0.03479278 1.09701812 66 68 73
0.43004873 -0.03481628 1.09775889 69 71 75
0.43085828 -0.03481628 1.09775889 59 61 64
0.43247738 -0.03481628 1.09775889 42 45 46
0.53744501 -0.02728196 0.86020154 69 72 75
0.12904364 -0.02542350 0.82068700 47 49 54
0.42639720 -0.03416822 1.10297215 51 53 61
0.42605442 -0.03407575 1.09998703 54 55 64
0.42628878 -0.03402970 1.09850061 55 57 64
0.42738765 -0.03405271 1.09924340 57 58 65
0.42790899 -0.03402970 1.09850061 58 60 66
0.42842960 -0.03400672 1.09775889 59 61 67
0.42894953 -0.03398377 1.09701812 59 61 66
0.53659326 -0.02660536 0.85883832 65 67 71
0.12687892 -0.02486849 0.82234746 48 50 58
0.12748538 -0.02486849 0.82234746 47 49 55
0.12796237 -0.02484336 0.82151639 47 49 55
0.12856820 -0.02484336 0.82151639 48 50 56
0.12904364 -0.02481828 0.82068700 44 46 50
0.12951811 -0.02479324 0.81985927 39 41 44
0.42738765 -0.03324206 1.09924340 59 60 66
0.42819831 -0.03324206 1.09924340 58 59 65
0.42871910 -0.03321959 1.09850061 54 56 62
0.53602690 -0.02594459 0.85793185 55 58 61
0.12633638 -0.02427432 0.82276362 44 45 52
0.12687892 -0.02426204 0.82234746 45 46 53
0.12748538 -0.02426204 0.82234746 42 44 50
0.12802707 -0.02424977 0.82193172 44 46 51
0.12863322 -0.02424977 0.82193172 48 50 54
0.12910880 -0.02422528 0.82110149 47 49 53
0.12958345 -0.02420083 0.82027292 44 46 50
0.42819831 -0.03243141 1.09924340 52 53 60
0.42871910 -0.03240949 1.09850061 46 47 55
0.56024498 -0.02891263 0.97997642 58 65 64
0.55995512 -0.02886044 0.97820753 51 58 57
0.55933034 -0.02879115 0.97585887 41 48 47
0.55937850 -0.02875662 0.97468877 32 39 39
0.55976170 -0.02873939 0.97410482 37 44 43
0.57347381 -0.02907033 0.98532176 50 55 55
0.12537666 -0.02371557 0.82443249 47 49 55
0.12585701 -0.02369154 0.82359719 46 47 54
0.12633638 -0.02366756 0.82276362 47 47 54
0.12694313 -0.02366756 0.82276362 48 48 54
0.12748538 -0.02365559 0.82234746 46 47 52
0.12802707 -0.02364363 0.82193172 46 48 52
0.12869827 -0.02365559 0.82234746 50 51 55
0.12917405 -0.02363168 0.82151639 47 48 51
0.12964886 -0.02360782 0.82068700 41 42 45
0.33870766 -0.04475321 1.55577123 48 50 54
0.33888212 -0.04462509 1.55131769 39 41 45
0.42790899 -0.03159939 1.09850061 49 50 58
0.55918527 -0.02817295 0.97938609 60 67 68
0.56024498 -0.02818993 0.97997642 58 65 65
0.55961841 -0.02812213 0.97761929 50 57 56
0.55966628 -0.02808835 0.97644496 36 43 42
0.55971408 -0.02805465 0.97527349 24 31 30
0.56009728 -0.02803783 0.97468877 31 38 37
0.57170773 -0.02829226 0.98353350 51 55 56
0.57243305 -0.02829226 0.98353350 53 57 58
0.12544027 -0.02311930 0.82485080 48 48 55
0.12592079 -0.02309587 0.82401466 53 53 59
0.12694313 -0.02306080 0.82276362 55 54 60
0.12802707 -0.02303749 0.82193172 51 51 55
0.12869827 -0.02304914 0.82234746 51 51 55
0.12917405 -0.02302584 0.82151639 45 45 48
0.12971434 -0.02301422 0.82110149 36 36 38
0.33785212 -0.04394228 1.56777334 59 61 66
0.33835572 -0.04385770 1.56475544 60 63 67
0.33853221 -0.04373142 1.56025040 56 59 63
0.33870766 -0.04360588 1.55577123 46 49 54
0.33888212 -0.04348106 1.55131769 37 40 45
0.34198791 -0.04343960 1.54983878 51 54 59
0.34247789 -0.04335694 1.54688954 50 53 59
0.42762005 -0.03076850 1.09775889 52 53 62
0.55952233 -0.02746724 0.97997642 61 68 69
0.56024498 -0.02746724 0.97997642 59 66 66
0.55961841 -0.02740117 0.97761929 52 59 58
0.56000262 -0.02738470 0.97703177 37 44 43
0.56038636 -0.02736825 0.97644496 22 29 29
0.56043327 -0.02733542 0.97527349 31 38 37
0.56216419 -0.02738470 0.97703177 39 46 45
0.57132804 -0.02758362 0.98412889 52 57 58
0.57136208 -0.02755027 0.98293889 56 61 61
0.57208693 -0.02755027 0.98293889 58 63 63
0.91075569 -0.03665981 1.30794919 50 56 59
0.12437259 -0.02264890 0.82990348 43 42 47
0.12466643 -0.02259124 0.82779068 44 44 48
0.12514946 -0.02256826 0.82694858 44 44 49
0.12550394 -0.02252243 0.82526952 44 44 50
0.12598465 -0.02249959 0.82443249 48 47 54
0.12640034 -0.02246542 0.82318020 50 49 56
0.12700741 -0.02246542 0.82318020 50 49 55
0.12754989 -0.02245405 0.82276362 49 48 53
0.12809183 -0.02244269 0.82234746 47 47 51
0.12869827 -0.02244269 0.82234746 46 45 50
0.12923935 -0.02243134 0.82193172 39 38 42
0.12977989 -0.02242001 0.82151639 27 27 30
0.33341902 -0.04266269 1.56325090 53 55 60
0.33770567 -0.04262171 1.56174922 55 59 64
0.33788368 -0.04249923 1.55726135 57 60 66
0.33838385 -0.04241797 1.55428386 50 54 60
0.33888212 -0.04233702 1.55131769 42 46 52
0.34084496 -0.04229666 1.54983878 48 52 58
0.34198791 -0.04229666 1.54983878 52 55 62
0.34247789 -0.04221617 1.54688954 50 54 61
0.34361866 -0.04221617 1.54688954 45 49 56
0.34508780 -0.04225637 1.54836273 42 46 52
0.42733151 -0.02993873 1.09701812 53 54 63
0.55390555 -0.02664816 0.97644496 49 55 57
0.55495894 -0.02666418 0.97703177 48 54 56
0.55846298 -0.02672843 0.97938609 63 70 72
0.55952233 -0.02674454 0.97997642 63 70 71
0.55990750 -0.02672843 0.97938609 61 68 68
0.55961841 -0.02668021 0.97761929 54 61 61
0.56000262 -0.02666418 0.97703177 40 47 47
0.56072313 -0.02666418 0.97703177 26 33 33
0.56076968 -0.02663217 0.97585887 31 38 38
0.56216419 -0.02666418 0.97703177 39 46 45
0.56390136 -0.02671234 0.97879642 41 49 48
0.56462318 -0.02671234 0.97879642 38 45 44
0.56777596 -0.02679299 0.98175174 40 47 46
0.57098240 -0.02684162 0.98353350 52 57 57
0.57101685 -0.02680918 0.98234499 54 59 59
0.57208693 -0.02682539 0.98293889 56 60 61
0.91075569 -0.03569525 1.30794919 49 54 59
0.12443612 -0.02204813 0.83032733 40 40 44
0.12466643 -0.02198078 0.82779068 41 40 45
0.12514946 -0.02195841 0.82694858 40 40 45
0.12550394 -0.02191383 0.82526952 39 39 45
0.12592079 -0.02188051 0.82401466 41 41 47
0.12640034 -0.02185835 0.82318020 44 43 50
0.12694313 -0.02184729 0.82276362 46 46 52
0.12754989 -0.02184729 0.82276362 47 47 52
0.12809183 -0.02183624 0.82234746 48 48 52
0.12869827 -0.02183624 0.82234746 47 46 51
0.12923935 -0.02182520 0.82193172 40 40 44
0.12977989 -0.02181417 0.82151639 26 26 29
0.33194703 -0.04146997 1.56174922 49 51 58
0.33246002 -0.04139045 1.55875444 48 50 57
0.33623096 -0.04143018 1.56025040 47 50 57
0.33673525 -0.04135081 1.55726135 62 65 72
0.33723763 -0.04127174 1.55428386 69 72 80
0.33838385 -0.04127174 1.55428386 67 70 77
0.33855906 -0.04115371 1.54983878 58 61 69
0.33937848 -0.04111452 1.54836273 58 61 68
0.34052035 -0.04111452 1.54836273 57 60 68
0.34198791 -0.04115371 1.54983878 54 57 65
0.34247789 -0.04107540 1.54688954 50 53 61
0.34329203 -0.04103635 1.54541910 45 49 56
0.34508780 -0.04111452 1.54836273 45 49 56
0.34524325 -0.04099738 1.54395151 47 51 57
0.39240780 -0.02495390 0.93975776 62 66 69
0.55423844 -0.02594366 0.97703177 48 54 56
0.55529267 -0.02595926 0.97761929 47 53 55
0.55534571 -0.02592807 0.97644496 45 52 54
0.55812675 -0.02599051 0.97879642 64 70 72
0.55918527 -0.02600617 0.97938609 65 72 73
0.55957043 -0.02599051 0.97879642 60 67 68
0.55928212 -0.02594366 0.97703177 54 61 61
0.55966628 -0.02592807 0.97644496 43 50 49
0.56072313 -0.02594366 0.97703177 32 39 39
0.56076968 -0.02591251 0.97585887 35 42 41
0.56182659 -0.02592807 0.97644496 40 47 47
0.56356210 -0.02597488 0.97820753 43 50 50
0.56428349 -0.02597488 0.97820753 41 49 48
0.56705201 -0.02606899 0.98175174 40 47 46
0.56777596 -0.02606899 0.98175174 43 51 50
0.56884348 -0.02608474 0.98234499 48 55 55
0.56991231 -0.02610051 0.98293889 50 57 57
0.57098240 -0.02611630 0.98353350 50 55 55
0.57136208 -0.02610051 0.98293889 49 54 54
0.57208693 -0.02610051 0.98293889 51 56 56
0.91148901 -0.03475865 1.30900228 53 58 63
0.91245437 -0.03475865 1.30900228 50 55 59
0.12443612 -0.02143580 0.83032733 42 41 46
0.12453961 -0.02134857 0.82694858 40 39 44
0.12495877 -0.02131604 0.82568860 41 41 46
0.12537666 -0.02128362 0.82443249 43 43 49
0.12579328 -0.02125129 0.82318020 44 44 50
0.12633638 -0.02124053 0.82276362 45 45 51
0.12687892 -0.02122979 0.82234746 46 46 52
0.12748538 -0.02122979 0.82234746 49 49 54
0.12802707 -0.02121905 0.82193172 54 53 57
0.12863322 -0.02121905 0.82193172 53 52 56
0.12910880 -0.02119762 0.82110149 45 45 48
0.12971434 -0.02119762 0.82110149 28 28 30
0.13031986 -0.02119762 0.82110149 22 22 24
0.32984471 -0.04020238 1.55726135 48 50 58
0.33099315 -0.04020238 1.55726135 49 51 59
0.33182374 -0.04016391 1.55577123 49 51 59
0.33526570 -0.04016391 1.55577123 43 45 52
0.33641303 -0.04016391 1.55577123 60 64 70
0.33691552 -0.04008719 1.55279934 67 70 77
0.33806065 -0.04008719 1.55279934 65 68 75
0.33823663 -0.03997266 1.54836273 57 60 67
0.33905557 -0.03993462 1.54688954 54 58 64
0.34052035 -0.03997266 1.54836273 52 56 62
0.34166220 -0.03997266 1.54836273 49 52 59
0.34215236 -0.03989666 1.54541910 46 50 56
0.34296602 -0.03985877 1.54395151 44 48 54
0.34475943 -0.03993462 1.54688954 47 51 56
0.34491569 -0.03982096 1.54248667 53 57 62
0.39218110 -0.02424685 0.93921483 63 67 70
0.39704311 -0.02412143 0.93435687 46 52 59
0.39727551 -0.02409374 0.93328410 38 43 50
0.41052097 -0.02447305 0.94797719 60 61 67
0.41050199 -0.02443032 0.94632185 61 62 68
0.55374074 -0.02529915 0.97997642 48 55 57
0.55379581 -0.02526869 0.97879642 46 53 55
0.55451763 -0.02526869 0.97879642 45 51 53
0.55457169 -0.02523830 0.97761929 44 50 52
0.55562675 -0.02525348 0.97820753 42 49 51
0.55534571 -0.02520798 0.97644496 40 47 49
0.55640000 -0.02522313 0.97703177 51 58 60
0.55779094 -0.02525348 0.97820753 64 70 72
0.55851233 -0.02525348 0.97820753 66 72 74
0.55923373 -0.02525348 0.97820753 60 66 67
0.55894619 -0.02520798 0.97644496 53 60 60
0.55933034 -0.02519285 0.97585887 45 52 52
0.56005001 -0.02519285 0.97585887 37 44 43
0.56043327 -0.02517774 0.97527349 38 45 44
0.56148934 -0.02519285 0.97585887 42 49 48
0.56356210 -0.02525348 0.97820753 44 51 51
0.56394416 -0.02523830 0.97761929 44 51 51
0.56705201 -0.02534498 0.98175174 44 51 51
0.56777596 -0.02534498 0.98175174 48 55 55
0.56884348 -0.02536030 0.98234499 53 60 60
0.56991231 -0.02537563 0.98293889 55 61 61
0.57132804 -0.02540635 0.98412889 51 57 57
0.91272831 -0.03387513 1.31217182 69 76 79
0.91148901 -0.03379331 1.30900228 69 75 78
0.91245437 -0.03379331 1.30900228 66 72 75
0.91489297 -0.03384781 1.31111360 64 68 71
0.91585988 -0.03384781 1.31111360 61 66 68
0.91756672 -0.03387513 1.31217182 59 63 66
0.12443612 -0.02082346 0.83032733 46 46 50
0.12453961 -0.02073873 0.82694858 41 40 45
0.12495877 -0.02070713 0.82568860 42 42 47
0.12531312 -0.02066515 0.82401466 46 46 52
0.12579328 -0.02064422 0.82318020 46 45 52
0.12627247 -0.02062334 0.82234746 46 46 52
0.12687892 -0.02062334 0.82234746 49 48 54
0.12742092 -0.02061291 0.82193172 54 53 58
0.12802707 -0.02061291 0.82193172 60 60 64
0.12856820 -0.02060249 0.82151639 58 58 62
0.12910880 -0.02059209 0.82110149 51 51 55
0.12964886 -0.02058169 0.82068700 34 34 36
0.13025409 -0.02058169 0.82068700 26 26 28
0.13079329 -0.02057131 0.82027292 24 24 26
0.32984471 -0.03905396 1.55726135 50 52 58
0.33099315 -0.03905396 1.55726135 49 51 57
0.33150649 -0.03897929 1.55428386 51 53 57
0.33265272 -0.03897929 1.55428386 37 39 43
0.33379894 -0.03897929 1.55428386 18 19 23
0.33494517 -0.03897929 1.55428386 35 38 42
0.33609140 -0.03897929 1.55428386 51 55 59
0.33691552 -0.03894206 1.55279934 58 62 67
0.33773807 -0.03890490 1.55131769 57 61 66
0.33823663 -0.03883080 1.54836273 51 55 59
0.33905557 -0.03879385 1.54688954 49 53 58
0.34052035 -0.03883080 1.54836273 50 54 58
0.34166220 -0.03883080 1.54836273 50 53 58
0.34215236 -0.03875697 1.54541910 50 53 58
0.34329203 -0.03875697 1.54541910 46 49 54
0.34475943 -0.03879385 1.54688954 47 50 55
0.34524325 -0.03872017 1.54395151 54 58 62
0.39218110 -0.02355421 0.93921483 62 66 69
0.39219403 -0.02351346 0.93758988 63 67 70
0.39473212 -0.02349991 0.93704951 64 70 73
0.39519539 -0.02348637 0.93650973 63 70 74
0.39543048 -0.02345934 0.93543208 60 67 72
0.39612031 -0.02345934 0.93543208 55 61 68
0.39658198 -0.02344585 0.93489414 51 57 64
0.39704311 -0.02343238 0.93435687 47 53 59
0.39750370 -0.02341892 0.93382019 43 49 55
0.39819238 -0.02341892 0.93382019 40 45 51
0.40117478 -0.02339205 0.93274868 19 20 26
0.41004279 -0.02374627 0.94687295 74 73 80
0.41026318 -0.02371864 0.94577134 73 72 79
0.41000661 -0.02366357 0.94357568 64 64 71
0.55407470 -0.02459128 0.98056751 46 52 55
0.55412942 -0.02456165 0.97938609 43 50 52
0.55485171 -0.02456165 0.97938609 42 49 51
0.55457169 -0.02451734 0.97761929 41 47 50
0.55529267 -0.02451734 0.97761929 39 46 48
0.55501240 -0.02447319 0.97585887 36 43 45
0.55573207 -0.02447319 0.97585887 47 54 56
0.55712050 -0.02450261 0.97703177 60 67 69
0.55784106 -0.02450261 0.97703177 65 71 73
0.55856156 -0.02450261 0.97703177 54 61 62
0.55827558 -0.02445851 0.97527349 44 51 52
0.55865967 -0.02444385 0.97468877 40 47 47
0.55937850 -0.02444385 0.97468877 36 43 43
0.56009728 -0.02444385 0.97468877 37 44 43
0.56115252 -0.02445851 0.97527349 40 47 46
0.56254667 -0.02448789 0.97644496 43 50 50
0.56225365 -0.02444385 0.97468877 46 53 52
0.56670976 -0.02460612 0.98115927 48 55 55
0.56777596 -0.02462098 0.98175174 53 60 60
0.56884348 -0.02463585 0.98234499 59 66 66
0.91176069 -0.03290746 1.31217182 72 79 82
0.91272831 -0.03290746 1.31217182 79 86 88
0.91222352 -0.03285442 1.31005716 80 86 88
0.91318959 -0.03285442 1.31005716 77 83 85
0.91489297 -0.03288092 1.31111360 74 79 81
0.91585988 -0.03288092 1.31111360 69 74 76
0.91756672 -0.03290746 1.31217182 63 68 70
0.91779363 -0.03288092 1.31111360 57 62 64
0.12437259 -0.02020081 0.82990348 60 59 64
0.12453961 -0.02012888 0.82694858 46 46 50
0.12508583 -0.02011865 0.82652819 43 42 48
0.12550394 -0.02008801 0.82526952 46 46 52
0.12592079 -0.02005747 0.82401466 45 44 51
0.12640034 -0.02003716 0.82318020 46 45 52
0.12694313 -0.02002702 0.82276362 52 51 58
0.12754989 -0.02002702 0.82276362 58 58 63
0.12809183 -0.02001689 0.82234746 63 63 67
0.12869827 -0.02001689 0.82234746 61 61 65
0.12917405 -0.01999666 0.82151639 54 54 58
0.12977989 -0.01999666 0.82151639 38 38 41
0.13038573 -0.01999666 0.82151639 30 30 32
0.13085932 -0.01997647 0.82068700 30 30 32
0.18082505 -0.02464096 1.01231682 51 53 56
0.33016098 -0.03794188 1.55875444 53 55 58
0.33099315 -0.03790554 1.55726135 52 54 57
0.33150649 -0.03783306 1.55428386 54 56 58
0.33265272 -0.03783306 1.55428386 43 45 48
0.33411837 -0.03786927 1.55577123 25 27 30
0.33526570 -0.03786927 1.55577123 34 37 39
0.33609140 -0.03783306 1.55428386 45 48 50
0.33691552 -0.03779693 1.55279934 46 49 53
0.33806065 -0.03779693 1.55279934 47 50 54
0.33855906 -0.03772487 1.54983878 46 49 53
0.33970201 -0.03772487 1.54983878 49 51 55
0.34084496 -0.03772487 1.54983878 53 55 59
0.34198791 -0.03772487 1.54983878 58 60 64
0.34280407 -0.03768894 1.54836273 62 64 67
0.34361866 -0.03765308 1.54688954 51 53 58
0.34541675 -0.03772487 1.54983878 48 50 55
0.34622964 -0.03768894 1.54836273 53 57 60
0.39195466 -0.02284838 0.93867260 58 62 65
0.39219403 -0.02282202 0.93758988 58 62 65
0.39450476 -0.02279573 0.93650973 68 73 76
0.39519539 -0.02279573 0.93650973 68 74 78
0.39565811 -0.02278261 0.93597060 61 67 72
0.39612031 -0.02276950 0.93543208 49 55 62
0.39681014 -0.02276950 0.93543208 46 52 59
0.39727142 -0.02275640 0.93489414 48 54 60
0.39773217 -0.02274333 0.93435687 50 55 62
0.39842120 -0.02274333 0.93435687 51 55 62
0.39888102 -0.02273026 0.93382019 46 50 56
0.39911118 -0.02270418 0.93274868 34 38 43
0.39979905 -0.02270418 0.93274868 22 26 31
0.40071684 -0.02271721 0.93328410 9 11 17
0.40163565 -0.02273026 0.93382019 16 17 23
0.40209335 -0.02271721 0.93328410 46 48 54
0.40980411 -0.02303457 0.94632185 74 75 81
0.40978643 -0.02299441 0.94467223 67 68 74
0.40953124 -0.02294109 0.94248170 59 60 66
0.40880436 -0.02286157 0.93921483 48 49 55
0.55374074 -0.02385376 0.97997642 43 50 53
0.55379581 -0.02382504 0.97879642 41 48 51
0.55451763 -0.02382504 0.97879642 41 48 51
0.55423844 -0.02378208 0.97703177 40 47 50
0.55529267 -0.02379638 0.97761929 37 44 46
0.55467945 -0.02373928 0.97527349 33 40 42
0.55506569 -0.02372505 0.97468877 43 50 52
0.55678594 -0.02376780 0.97644496 57 64 66
0.55750602 -0.02376780 0.97644496 62 69 71
0.55822611 -0.02376780 0.97644496 50 56 58
0.55794090 -0.02372505 0.97468877 36 42 44
0.55832499 -0.02371084 0.97410482 35 41 42
0.55904335 -0.02371084 0.97410482 34 40 40
0.55976170 -0.02371084 0.97410482 35 41 41
0.56081611 -0.02372505 0.97468877 38 45 44
0.56187171 -0.02373928 0.97527349 42 49 48
0.56158030 -0.02369664 0.97352147 48 55 54
0.56568557 -0.02383939 0.97938609 54 61 60
0.56777596 -0.02389697 0.98175174 59 66 66
0.91584617 -0.03235763 1.32933843 55 61 66
0.91458303 -0.03227846 1.32608557 55 61 67
0.91550779 -0.03217348 1.32177305 53 59 64
0.91129631 -0.03199142 1.31429338 56 62 66
0.91374290 -0.03204323 1.31642175 60 66 71
0.91323483 -0.03199142 1.31429338 67 74 77
0.91346562 -0.03196558 1.31323171 75 82 84
0.91222352 -0.03188830 1.31005716 79 86 88
0.91318959 -0.03188830 1.31005716 77 83 85
0.91563135 -0.03193978 1.31217182 76 80 83
0.91659904 -0.03193978 1.31217182 71 76 78
0.91830790 -0.03196558 1.31323171 64 68 71
0.91779363 -0.03191402 1.31111360 57 61 64
0.12453961 -0.01951904 0.82694858 46 46 50
0.12556769 -0.01948930 0.82568860 48 48 54
0.12604856 -0.01946953 0.82485080 52 51 58
0.12652847 -0.01944979 0.82401466 55 54 61
0.12707175 -0.01943994 0.82359719 57 56 63
0.12767912 -0.01943994 0.82359719 58 57 63
0.12822154 -0.01943009 0.82318020 58 58 63
0.12882860 -0.01943009 0.82318020 55 54 59
0.12930472 -0.01941044 0.82234746 50 49 54
0.12984550 -0.01940062 0.82193172 40 39 42
0.13045163 -0.01940062 0.82193172 35 35 37
0.17914316 -0.02396904 1.01547837 73 75 77
0.17977974 -0.02395408 1.01484454 71 73 76
0.18082505 -0.02389442 1.01231682 44 46 50
0.32984471 -0.03675712 1.55726135 52 54 56
0.33067641 -0.03672194 1.55577123 57 59 60
0.33118987 -0.03665180 1.55279934 58 60 61
0.33265272 -0.03668684 1.55428386 52 54 55
0.33411837 -0.03672194 1.55577123 38 40 41
0.33526570 -0.03672194 1.55577123 39 41 42
0.33609140 -0.03668684 1.55428386 43 45 47
0.33691552 -0.03665180 1.55279934 43 45 48
0.33806065 -0.03665180 1.55279934 44 46 50
0.33855906 -0.03658192 1.54983878 46 48 51
0.33970201 -0.03658192 1.54983878 50 52 55
0.34084496 -0.03658192 1.54983878 55 57 60
0.34231424 -0.03661682 1.55131769 64 66 69
0.34280407 -0.03654708 1.54836273 72 74 77
0.34394592 -0.03654708 1.54836273 60 62 67
0.34574634 -0.03661682 1.55131769 53 55 60
0.34655970 -0.03658192 1.54983878 52 55 59
0.39172849 -0.02214335 0.93813092 54 58 61
0.39196798 -0.02211783 0.93704951 52 56 59
0.39427763 -0.02209236 0.93597060 68 72 76
0.39496788 -0.02209236 0.93597060 71 77 81
0.39543048 -0.02207965 0.93543208 64 69 74
0.39612031 -0.02207965 0.93543208 48 53 59
0.39681014 -0.02207965 0.93543208 47 51 57
0.39727142 -0.02206695 0.93489414 54 59 65
0.39773217 -0.02205427 0.93435687 60 64 70
0.39865032 -0.02206695 0.93489414 64 68 74
0.39911026 -0.02205427 0.93435687 58 62 68
0.39956969 -0.02204160 0.93382019 43 47 52
0.40025833 -0.02204160 0.93382019 26 30 35
0.40094700 -0.02204160 0.93382019 11 13 19
0.40186647 -0.02205427 0.93435687 14 15 21
0.40232432 -0.02204160 0.93382019 45 47 53
0.40370861 -0.02207965 0.93543208 70 72 78
0.40556523 -0.02214335 0.93813092 73 76 81
0.40956572 -0.02232370 0.94577134 74 76 82
0.40931076 -0.02227187 0.94357568 63 65 71
0.40905696 -0.02222029 0.94139022 53 56 61
0.40856832 -0.02215614 0.93867260 48 50 56
0.40808249 -0.02209236 0.93597060 42 45 51
0.55374074 -0.02313106 0.97997642 41 48 53
0.55346262 -0.02308931 0.97820753 40 47 51
0.55418402 -0.02308931 0.97820753 39 46 50
0.55390555 -0.02304771 0.97644496 38 44 49
0.55495894 -0.02306156 0.97703177 33 39 43
0.55467945 -0.02302006 0.97527349 27 34 37
0.55506569 -0.02300625 0.97468877 36 42 45
0.55645174 -0.02303387 0.97585887 53 59 62
0.55750602 -0.02304771 0.97644496 65 72 75
0.55789101 -0.02303387 0.97585887 53 59 62
0.55760658 -0.02299247 0.97410482 40 47 49
0.55799061 -0.02297870 0.97352147 34 41 42
0.55904335 -0.02299247 0.97410482 29 35 36
0.55976170 -0.02299247 0.97410482 28 34 35
0.56081611 -0.02300625 0.97468877 34 41 41
0.56153488 -0.02300625 0.97468877 41 48 47
0.56124425 -0.02296495 0.97293890 50 57 56
0.56263518 -0.02299247 0.97410482 59 66 65
