ply
format ascii 1.0
element vertex 1128
property float x
property float y
property float z
property uchar red
property uchar green
property uchar blue
end_header
-0.06537043 -0.08896798 1.37599967 88 80 82
-0.06851530 -0.08834441 1.38233368 89 81 84
-0.06960516 -0.04581530 0.81845211 54 55 60
-0.07419981 -0.04671540 0.82097424 49 46 52
-0.07864245 0.21948926 0.80008900 73 68 72
-0.06781499 0.21050078 1.22939049 67 60 66
-0.07886371 0.22125937 0.80008900 73 68 69
-0.05083999 -0.14681728 1.08662151 83 76 78
-0.05885341 -0.08957443 1.37394339 66 61 64
-0.04647111 0.10961769 0.85185266 93 99 102
-0.04039409 0.29202906 0.95811998 31 33 39
-0.04051130 0.29725400 0.96063639 22 22 26
-0.04029353 0.35732090 1.77487004 13 14 20
-0.04183076 0.35796595 1.78461134 13 15 21
-0.04142245 0.36212683 1.79545158 14 14 21
-0.04280934 0.36499337 1.80744654 14 14 21
-0.04289513 0.37220337 1.83001986 13 15 21
-0.04437586 0.37694747 1.84665096 13 15 21
-0.04350368 0.38550215 1.85591586 15 19 24
-0.04526407 0.39177020 1.86580706 18 20 26
-0.04304798 0.40731693 1.83652455 16 16 20
-0.04347934 0.40838578 1.85080161 17 16 22
-0.04475395 0.40452565 1.86799114 18 17 24
-0.05104466 0.41351822 1.88169086 16 15 22
-0.02445113 0.10972015 0.90764934 68 73 72
-0.02354936 0.25942156 1.40153527 14 17 27
-0.02272524 0.26608442 1.39852208 10 13 22
-0.02325803 0.26858571 1.40290594 12 14 23
-0.02088104 0.26332194 1.43117291 14 17 27
-0.03685353 0.29283277 0.95856975 29 31 36
-0.03754539 0.29514337 0.96072166 29 30 34
-0.03905668 0.36674690 1.80844158 15 15 22
-0.03807088 0.38502577 1.85803533 10 12 18
-0.03446510 0.39376880 1.86912158 14 16 21
-0.02955320 0.39709604 1.88278109 17 17 22
-0.03474623 0.40918519 1.85218407 21 21 26
-0.03541150 0.40461362 1.86761357 17 17 23
-0.02710003 0.40666206 1.88729277 17 16 23
-0.01174122 0.25766068 1.39672642 13 16 23
-0.01419893 0.25909130 1.40289933 13 16 24
-0.01409927 0.26200979 1.39818821 16 17 25
-0.01636571 0.26416217 1.40370696 13 15 24
-0.01970381 0.26118204 1.42238045 14 17 27
0.03381145 -0.06364607 1.29073426 47 50 56
0.03167315 -0.05427240 1.27752974 45 46 52
0.03429172 -0.05661197 1.28521785 46 48 56
0.05464893 -0.10549551 1.30772862 40 42 47
0.05559839 -0.09947708 1.30637839 42 43 51
0.04031968 -0.06113215 1.29509914 45 48 56
0.04029210 -0.05397436 1.28660844 54 56 64
0.05854759 0.11710642 0.87942010 38 40 47
0.05775075 0.11683995 0.88022786 37 39 46
0.05854759 0.11618737 1.02816770 46 49 55
0.05929722 0.12143618 0.87975156 39 42 47
0.05823760 0.12138390 0.88022786 44 47 53
0.05943917 0.16104416 0.87880075 32 32 36
0.05730249 0.28585694 0.95175136 41 43 46
0.06138982 -0.10425250 1.30480329 46 48 55
0.06307196 0.06130574 0.87975156 56 59 55
0.06425602 0.06647186 0.88451962 41 45 51
0.06334483 0.11657955 0.87799973 46 46 52
0.06517976 0.11549828 1.02928627 47 47 54
0.06141111 0.12180880 0.87919684 39 41 46
0.06227510 0.15886621 0.87572528 38 38 43
0.06433228 0.16332151 0.87584074 37 38 43
0.06287638 0.28728784 0.95004116 48 50 51
0.09872954 0.07423544 1.06752873 35 38 42
0.09809816 0.24970995 0.84294211 22 23 29
0.09572813 0.26478113 1.01672863 36 37 46
0.09499080 0.27229874 1.02307492 38 38 45
0.09933608 0.31888286 1.63176660 31 38 41
0.09737673 0.32397472 1.63467418 33 39 44
0.09402850 0.33147908 1.64640555 38 42 48
0.09581782 0.34088231 1.64853225 26 28 36
0.09702111 0.36966901 1.67247832 34 35 42
0.11768115 -0.10195003 1.03329759 54 56 61
0.11704000 -0.09453163 1.03331205 49 50 56
0.10945343 -0.04323910 0.93206535 53 57 58
0.10995796 -0.03902430 0.93086904 46 50 55
0.10526833 0.07378616 1.06413662 37 40 45
0.10752696 0.25251686 0.85480464 34 36 41
0.11141594 0.25149958 0.86421417 34 35 41
0.10022936 0.26323442 1.01263219 48 50 55
0.10079201 0.27020115 1.02289064 36 36 44
0.10007188 0.31867033 1.63067293 32 39 43
0.10157365 0.32582756 1.63547415 39 45 50
0.10489828 0.32956278 1.64220409 38 45 48
0.10411019 0.37146768 1.67576382 41 42 50
0.10198938 0.37896770 1.68213278 38 39 47
0.10214788 0.38142002 1.68474710 35 36 45
0.13544558 -0.12720936 0.91901601 53 55 58
0.13597093 -0.12772669 0.92007977 50 52 54
0.12124617 -0.10236104 1.03406575 69 71 76
0.12265061 -0.09312392 1.03477125 50 51 55
0.12951811 -0.02479324 0.81985927 39 41 44
0.12720057 -0.02213770 0.82333086 45 45 50
0.12821944 -0.01924805 0.82412046 49 49 54
0.13596779 0.01317698 0.95116073 38 41 47
0.14049486 -0.12713212 0.91938607 49 51 55
0.14233442 0.01361238 0.95163913 37 39 45
0.14213533 0.02037910 0.95311798 46 48 51
0.14902839 0.03157848 1.09673028 43 44 51
0.15688502 0.02678944 1.10103016 44 45 53
0.15515036 0.05878632 1.35543580 41 42 49
0.15320399 0.05857624 1.36181740 38 38 46
0.15584962 0.06637247 1.35722458 39 41 46
0.15501861 0.06343052 1.36061275 41 42 48
0.15317787 0.17111912 1.37702729 40 42 45
0.15539261 0.16945168 1.38049784 42 44 46
0.15956265 0.18978161 0.89513060 22 22 31
0.15852270 0.54775405 1.75476934 59 63 64
0.15630101 0.54820812 1.76795131 54 58 59
0.15562115 0.55176631 1.79205110 45 48 49
0.15116225 0.55530973 1.80254483 46 48 50
0.15065508 0.56021184 1.80441833 37 39 43
0.17916316 -0.02167467 1.01317510 56 60 64
0.17812771 -0.01606164 1.01574548 52 55 58
0.17948163 0.05701296 1.06643558 61 63 66
0.16240871 0.06674434 1.35560384 46 48 52
0.16124725 0.06470665 1.36048615 41 43 47
0.16293122 0.17066651 1.37826744 47 48 53
0.16184400 0.16813150 1.38011956 46 48 53
0.16530630 0.19213548 0.89792477 41 42 48
0.16795640 0.19650188 0.90090768 38 40 46
0.16668269 0.20037384 0.89971274 39 43 48
0.16057581 0.53821653 1.76715314 39 43 46
0.16474743 0.54729421 1.75697185 53 57 62
0.16482600 0.54637065 1.76796675 47 51 55
0.16277451 0.54856969 1.78906576 38 42 44
0.19378189 -0.14154555 0.98335973 72 76 81
0.19889721 -0.13688336 0.97997642 55 58 62
0.19559234 -0.13608749 0.98290597 49 52 56
0.18060000 -0.02210406 1.01105995 41 44 48
0.18162706 -0.01462372 1.01255209 53 56 60
0.18606392 -0.01430512 1.02057815 72 74 77
0.18520274 0.05665584 1.06677279 51 53 58
0.18949601 0.06226469 1.07333948 43 45 50
0.19515862 0.06552267 1.08361324 37 38 42
0.21940585 -0.12188995 1.41865695 47 51 54
0.21744499 -0.12188475 1.42225636 53 56 59
0.21927647 -0.11790025 1.41830357 61 66 69
0.21784964 -0.11817989 1.42167003 58 63 65
0.20845719 0.07057607 0.91525932 43 45 50
0.21032232 0.08055619 0.91541948 50 52 56
0.21919872 0.28553665 1.09998703 44 46 51
0.21804574 0.28422631 1.10491891 42 47 49
0.21752223 0.47527136 1.52991568 53 55 60
0.21389729 0.47957328 1.54102457 48 51 55
0.21406878 0.48145330 1.54432258 40 44 47
0.23495267 -0.26014677 1.56777334 38 43 45
0.23500094 -0.24634061 1.55669159 41 44 47
0.23355789 -0.25273490 1.56365071 47 51 54
0.22883683 -0.19566590 1.09818765 52 57 63
0.23378748 -0.19470215 1.10310115 40 45 52
0.23727247 -0.14090990 1.14411044 54 55 58
0.22831157 -0.13064503 1.13533568 54 57 62
0.23708456 -0.13723182 1.14184944 57 61 63
0.22312069 -0.12554708 1.41257417 54 57 61
0.22282290 -0.11747618 1.41202998 56 60 64
0.23298362 0.11240096 1.53346082 48 51 54
0.22908963 0.11323964 1.54180472 40 43 46
0.22318956 0.27825983 1.10367789 27 31 34
0.22163231 0.28391424 1.09998703 42 46 50
0.22260371 0.28350290 1.10225739 39 43 47
0.22571583 0.29888247 1.19746297 37 39 45
0.23201908 0.29562220 1.21229371 40 45 50
0.23004496 0.29169388 1.22569266 38 41 48
0.22506392 0.30083499 1.19580763 40 42 48
0.23069719 0.47621855 1.49444285 62 64 71
0.22950942 0.47873011 1.50480084 64 66 74
0.22465522 0.47689497 1.52745851 35 38 41
0.22737563 0.48210739 1.51313761 49 50 59
0.22827992 0.48155939 1.52618619 36 39 46
0.24218421 -0.25027713 1.56594094 57 61 64
0.24071570 0.10548209 1.53810871 52 55 60
0.24941602 0.37844320 1.62334667 51 56 58
0.25205315 0.38783279 1.63305376 41 44 47
0.25471819 0.39555960 1.64553562 37 39 45
0.25185203 0.41768548 1.29658283 53 54 56
0.25641181 0.41450103 1.30486386 43 46 48
0.24779359 0.41782888 1.63204002 35 38 44
0.25288759 0.40837878 1.65208463 45 48 52
0.24820130 0.41404052 1.66805505 46 49 51
0.25142492 0.42005653 1.29455888 49 51 54
0.24658359 0.42057930 1.67003733 39 43 46
0.27887280 -0.11052880 0.93523046 61 65 68
0.26721470 0.05840952 0.86597501 42 46 51
0.26706371 0.06910513 0.85974663 40 42 46
0.26677057 0.06403856 0.86589102 42 42 46
0.27363876 0.11380866 0.94589117 45 46 50
0.27263898 0.12066860 0.94259293 53 55 57
0.26817574 0.15274695 0.88362146 40 42 48
0.27389720 0.15500618 0.93788190 53 55 58
0.27672110 0.15889804 0.94155897 44 46 48
0.27657229 0.16465128 0.94774187 41 43 47
0.27988535 0.19604377 1.18152678 26 27 33
0.26011425 0.38916793 1.63889205 37 37 45
0.26670144 0.39493732 1.64369283 53 56 60
0.26009408 0.41252583 1.31005716 25 29 33
0.26667465 0.40388144 1.63677267 53 56 59
0.26393609 0.40365648 1.64438029 46 50 54
0.27896178 0.42858483 1.49979794 43 46 51
0.28651314 -0.20984204 1.25661665 59 60 66
0.29027976 -0.20394403 1.26743636 49 52 54
0.28799825 -0.19765016 1.26695324 58 59 62
0.29921204 -0.16048538 0.97061644 39 43 46
0.28519296 -0.14120186 0.88974873 59 65 68
0.29828734 -0.15699036 0.96891373 57 60 65
0.28656309 -0.13780885 0.88795752 59 63 67
0.28349182 -0.12802189 1.19384352 48 52 58
0.28945588 -0.12344872 1.20870572 50 52 59
0.28585909 -0.11218213 0.93724408 55 56 59
0.28958513 -0.11580876 0.94162669 50 52 54
0.29048880 -0.11661216 1.21201570 52 55 60
0.29229992 -0.04460878 0.90979942 54 57 61
0.29774463 -0.02037013 0.89083886 29 33 38
0.29363585 -0.03835616 0.91061394 64 63 66
0.28803753 -0.02055612 0.92125331 76 80 86
0.29622085 -0.01229893 0.89528869 50 53 57
0.29254881 -0.00949940 0.90659983 52 55 56
0.29065809 -0.01573779 0.92115956 60 64 68
0.29478198 0.01702794 0.87638641 50 54 58
0.29162308 0.01845837 0.88262024 36 39 47
0.29337913 0.02063476 0.88303341 49 50 56
0.28047453 0.15913609 0.94439793 29 32 33
0.28076003 0.16069243 0.94535910 37 40 42
0.29474253 0.19189437 0.88553079 43 45 48
0.28660375 0.19912657 1.17767698 52 54 58
0.28708881 0.19697981 1.18756638 52 54 59
0.29162396 0.19531642 1.20116818 55 59 63
0.29628572 0.20237072 0.88466110 47 49 52
0.28643706 0.20021692 1.17533451 46 47 51
0.29603007 0.23955047 0.80008900 46 48 54
0.29560663 0.24986481 0.81237365 42 45 50
0.28965591 0.25648167 0.83176720 42 46 51
0.28942049 0.26202837 0.83289066 43 46 50
0.29528116 0.38788006 1.41671868 40 43 46
0.29359756 0.43427922 1.49655373 46 49 53
0.29042776 0.43030632 1.50370049 41 43 46
0.29715277 0.44145412 1.49950172 41 43 47
0.29714542 0.44473837 1.50267486 35 37 41
0.30128727 -0.20391359 1.27755637 53 55 58
0.30182980 -0.20297848 1.28014243 39 40 44
0.30255985 -0.15611462 0.96689936 50 54 57
0.31143209 -0.12543542 1.23186238 58 60 63
0.31311681 -0.06089334 1.00935360 47 51 53
0.31095910 -0.04402267 0.86452793 49 52 60
0.31376486 -0.05658681 1.01170258 56 60 60
0.31191539 -0.03904996 0.86361152 61 63 66
0.30004498 -0.01516430 0.89377731 61 64 68
0.30992523 0.07992410 1.23165226 67 69 77
0.30848038 0.08830291 1.23199701 47 49 54
0.31954783 0.11686818 1.02465355 32 34 37
0.31975791 0.12294532 1.03552961 64 65 71
0.30140772 0.15809559 1.13497255 32 36 41
0.30226870 0.16356571 1.13744115 47 51 52
0.30810319 0.16928947 1.14384328 41 46 49
0.30028610 0.20139559 0.88381769 51 53 56
0.30001569 0.25188924 0.80844402 50 56 60
0.31180905 0.35946321 1.45940840 58 62 67
0.31613048 0.35892127 1.46410721 47 50 57
0.31018990 0.36501894 1.45528023 47 48 53
0.31678211 0.36703260 1.46248871 50 49 55
0.30881651 0.39004940 1.41927648 51 55 59
0.30781065 0.39018639 1.42498684 44 47 51
0.30282956 0.43808135 1.49635194 55 59 62
0.30224958 0.43453597 1.50964609 45 49 52
0.30447778 0.44312564 1.49825441 51 53 56
0.30541172 0.44438652 1.50377802 47 50 53
0.33663642 -0.12119419 1.07791108 49 52 54
0.33353925 -0.12122956 1.08145082 52 56 59
0.32168354 -0.13157850 1.23452184 55 58 59
0.32084521 -0.12958297 1.24086542 57 59 63
0.33759658 -0.11700913 1.07813071 49 53 56
0.33439423 -0.11553410 1.08280729 55 61 62
0.33835771 -0.05278599 0.84994838 51 55 60
0.33662000 -0.04161717 1.55436304 53 55 62
0.33629182 -0.04281656 1.56282556 54 56 62
0.33543968 -0.03677648 1.55266671 50 52 55
0.32230749 0.11817285 1.02691022 34 36 40
0.33745802 0.10750946 1.13473109 39 40 49
0.33937258 0.11277722 1.14130062 39 41 44
0.32406923 0.12351959 1.03401098 39 41 47
0.33133429 0.12474614 1.04078883 49 51 55
0.33890615 0.13030240 1.31429451 64 69 67
0.32389955 0.15873905 1.05806999 48 50 53
0.32328538 0.15425079 1.06356757 48 50 54
0.32436928 0.16278723 1.05637981 44 47 49
0.32103720 0.16042899 1.06121469 36 38 41
0.33674119 0.35706820 1.19550485 45 49 51
0.33613690 0.36193758 1.19738989 52 57 58
0.33834239 0.36544504 1.20376590 59 63 64
0.32078968 0.37769267 1.47597027 40 38 42
0.33114837 0.53159881 1.91719717 36 38 44
0.33547578 0.53341131 1.92549474 29 30 35
0.35616727 -0.14837026 0.84849382 51 54 56
0.34114289 -0.12053484 1.07525194 68 71 72
0.34128837 -0.11595222 1.07588372 64 68 72
0.34391584 -0.05438594 0.85461811 50 54 60
0.35403081 -0.04542380 1.12742392 56 62 66
0.34285325 -0.04189003 1.54779785 48 52 59
0.35890494 -0.03905142 1.13255513 65 73 80
0.34317729 -0.03681989 1.54856007 56 59 63
0.34598619 0.10756514 1.13606631 47 49 53
0.34869479 0.11351844 1.14527894 45 46 51
0.34415817 0.12990665 1.31610429 56 61 62
0.35462145 0.13285864 1.32688351 50 52 58
0.35885995 0.14262686 1.34158891 45 46 52
0.34400290 0.17305163 0.95859791 72 73 80
0.34408288 0.16859419 0.96473961 49 52 58
0.34643972 0.17458579 0.98234499 51 54 55
0.34245045 0.35520150 1.19731917 50 49 57
0.34746599 0.35486710 1.20216249 46 47 53
0.34043397 0.36233160 1.19836489 56 61 61
0.34198122 0.36876818 1.21106032 58 60 62
0.34475385 0.37571319 1.22469872 52 52 57
0.34218884 0.53306788 1.91569257 40 40 45
0.34383963 0.53268219 1.92785186 32 34 37
0.35054053 0.53357428 1.94239056 47 49 52
0.35772909 0.53973683 1.96747597 52 54 58
0.35905609 0.54100794 1.96945643 49 51 54
0.37136939 -0.26116076 1.39270270 64 66 69
0.37885367 -0.24745800 1.37894905 48 48 52
0.37252288 -0.25102273 1.39058810 51 53 56
0.37159830 -0.24517654 1.40274453 50 52 53
0.37854769 -0.22635506 1.55800827 63 67 68
0.37685865 -0.22599738 1.56413544 48 53 54
0.36075954 -0.14867157 0.84871201 56 61 63
0.37783823 -0.09240566 0.80057615 54 59 60
0.36112673 -0.04312165 1.12797328 46 51 57
0.37672871 0.01028507 1.39655608 52 55 59
0.37860007 0.00825465 1.40032804 53 55 58
0.37373810 0.03695673 0.82628594 59 64 67
0.37751097 0.04327292 0.82955169 67 74 77
0.36770593 0.09735628 1.02687234 51 54 56
0.36611616 0.10115041 1.02298250 61 64 69
0.36434503 0.13389893 1.32808766 40 42 47
0.36182947 0.14217286 1.33376135 59 61 65
0.36052519 0.14174481 1.34103477 42 44 50
0.37487212 0.23670336 0.89152341 43 45 49
0.37287656 0.24456189 0.89509035 36 40 42
0.37171979 0.25437948 0.90218358 34 39 40
0.37516297 0.26200591 0.90604120 38 41 42
0.37397247 0.30728255 1.95371845 46 48 54
0.37594334 0.30443119 1.96208241 49 51 56
0.36228116 0.54172670 1.97383807 50 52 56
0.37364530 0.54465596 1.98981368 55 57 61
0.38105699 -0.24711902 1.37894905 53 54 58
0.38119519 -0.24652028 1.38129222 48 50 54
0.38591454 -0.22512542 1.55603821 50 53 55
0.38295172 -0.22596181 1.56191743 62 65 68
0.38685433 -0.21596431 1.55360313 52 58 63
0.38281452 -0.21922037 1.56174970 42 48 53
0.38091829 -0.09241551 0.80091731 57 62 62
0.39588650 -0.02183744 0.93569244 53 57 62
0.39510378 -0.01488441 0.93567730 57 59 63
0.38095695 0.01134295 1.39912295 33 35 43
0.39038027 0.01157167 1.40612506 43 45 50
0.39106226 0.02900316 0.81195743 42 46 52
0.38161208 0.03925081 0.83388194 53 58 63
0.39177391 0.02187715 1.40740328 42 47 47
0.38127591 0.04430675 0.83131265 45 51 54
0.38704716 0.21214576 1.31962740 46 48 50
0.39450805 0.21219935 1.32701427 53 55 59
0.38102263 0.26428217 0.91188810 57 60 61
0.38220563 0.30912184 1.93469000 51 52 59
0.38474162 0.30641897 1.94978536 36 37 44
0.38354039 0.30417317 1.96501964 54 55 60
0.41536092 -0.08418191 0.89637862 48 52 56
0.41460869 -0.08704289 0.90116283 53 55 57
0.41999418 -0.06955495 0.86523730 65 68 69
0.41570014 -0.07953688 0.89871800 59 66 66
0.40388524 -0.02127206 0.93587538 40 43 48
0.40923260 -0.02220785 0.94371789 60 63 68
0.40310071 -0.01670641 0.93544170 51 53 57
0.40774248 -0.01781647 0.94102703 42 46 51
0.40038460 0.02595517 0.81862080 42 45 53
0.40119264 0.02691493 0.82027292 42 46 53
0.41706582 0.03656406 0.96934219 69 71 77
0.41905744 0.04193742 0.97166189 77 83 88
0.40269425 0.21423301 1.33344419 59 61 67
0.40704256 0.21068558 1.34237620 52 54 57
0.41973481 0.33966798 1.19017637 46 50 55
0.41977689 0.34936348 1.17554653 57 61 62
0.41950020 0.34257756 1.19368142 41 46 46
0.41991279 0.34799128 1.20072448 47 50 48
0.43650005 -0.12491735 1.25627614 52 55 61
0.43854954 -0.12830322 1.26066193 51 52 59
0.43857596 -0.11681972 1.25395924 58 63 66
0.43795741 -0.11990139 1.26029527 54 60 61
0.43536592 -0.08473651 0.83093337 57 61 63
0.42383220 -0.08277945 0.86918399 60 62 67
0.43385563 -0.07964255 0.83069156 61 64 68
0.42210157 -0.07535991 0.86675950 63 66 69
0.43306779 -0.04705045 1.13297751 50 52 54
0.43486455 -0.05129316 1.14009881 48 51 52
0.42986805 -0.03545537 1.09872959 59 61 65
0.42894100 -0.03724785 1.10851592 52 53 58
0.43141588 -0.03910921 1.12219769 41 43 47
0.43315570 0.01610288 1.26646768 52 55 61
0.42254314 0.03656844 0.97458191 49 52 56
0.42861418 0.03753016 0.98195137 39 45 47
0.43486070 0.02152898 1.26952162 43 49 49
0.42241038 0.04170814 0.97390085 69 75 78
0.43948239 0.10067022 1.07917762 39 43 42
0.43872694 0.13660547 1.05753454 108 112 119
0.43860125 0.13382728 1.06179265 44 47 55
0.42906918 0.33903993 1.17662517 35 41 43
0.42311153 0.33951055 1.18489656 49 55 58
0.42654924 0.34593486 1.17535341 39 45 47
0.42445056 0.34453244 1.18798601 43 49 50
0.42144163 0.34858129 1.20161223 51 55 53
0.43284229 0.57708143 1.95535998 36 39 40
0.43019573 0.57920298 1.96271594 28 30 32
0.42895490 0.58144611 1.95484738 28 31 32
0.43098611 0.58507095 1.96568661 34 36 39
0.44193099 -0.12239186 1.25797078 46 52 53
0.44926102 -0.13035373 1.27172170 54 58 62
0.44171860 -0.11846164 1.25626827 53 59 59
0.44036323 -0.08546785 0.83373380 56 60 63
0.44713928 -0.05350325 0.97412498 49 54 56
0.44294524 0.01628254 1.27166158 57 58 65
0.44063440 0.02352106 1.27612317 53 58 60
0.45978516 0.05687768 0.85940595 51 54 52
0.44971328 0.09632292 1.08573226 43 45 48
0.44067630 0.10027216 1.07917762 34 39 37
0.44875204 0.10200158 1.08410978 48 52 52
0.44450800 0.13634855 1.05755805 54 56 64
0.44766150 0.13188651 1.06647839 73 76 83
0.44251707 0.57572947 1.95110194 38 42 47
0.44255525 0.58405187 1.95684515 43 46 51
0.44179583 0.58749694 1.96221213 38 39 45
0.47719219 -0.22099615 1.51039023 63 65 71
0.47755266 -0.21391722 1.51119957 56 59 63
0.47674404 -0.18262164 1.34645441 36 41 44
0.47649582 -0.17878166 1.34473342 49 54 57
0.47877208 -0.08092636 0.95279227 71 76 78
0.46954748 -0.08318428 1.87234434 58 59 66
0.47535104 -0.08607770 1.88668774 61 62 69
0.47779130 -0.07698959 0.94711597 61 66 69
0.47164897 -0.07715502 1.87041500 47 52 56
0.47849078 -0.07854971 1.88496405 62 67 72
0.47930620 -0.01347509 0.89271551 39 44 47
0.46252972 0.05804841 0.85938315 48 51 52
0.46404320 0.05873985 0.86130472 48 51 52
0.46439011 0.06354953 0.85799731 50 53 58
0.46478393 0.06111003 0.86144812 43 47 51
0.47753971 0.15768305 0.80008900 50 56 58
0.47729387 0.16164121 0.80008900 60 66 70
0.47772095 0.19846734 0.91754230 64 68 73
0.47961864 0.19724131 0.92039247 97 104 105
0.46432411 0.21706301 0.81130973 43 45 52
0.47932038 0.20061155 0.91903949 37 40 47
0.46523904 0.22071110 0.81086358 36 38 45
0.47465220 0.23720758 0.86666920 43 49 47
0.47451958 0.23767247 1.45505941 45 47 48
0.47556059 0.22894975 1.46560853 50 51 55
0.47450151 0.24205499 0.86678612 44 51 50
0.47781489 0.27707995 1.35272761 49 53 58
0.47747240 0.27823186 1.36298534 45 48 55
0.47761615 0.28138541 1.35482751 59 65 71
0.47453605 0.28212839 1.36743035 52 56 61
0.47469212 0.28375569 1.38660924 51 53 57
0.47835785 0.28501531 1.40032804 64 66 70
0.48048976 -0.22063242 1.51094878 58 59 65
0.48258355 -0.20992546 1.51227153 49 51 56
0.48893370 -0.20470661 1.52512276 50 54 61
0.48413115 -0.18407214 1.34642716 49 54 57
0.48602725 -0.17458953 1.33856363 51 52 58
0.48653595 -0.17787261 1.34464780 60 63 67
0.48476352 -0.12247724 0.93905362 48 52 56
0.48480985 -0.12467458 0.94097042 64 67 71
0.48347567 -0.11787435 0.93779528 47 52 58
0.48257430 -0.11965696 0.94057336 51 55 59
0.48737011 -0.08233945 0.95003529 57 61 64
0.48071018 -0.08515418 1.87734520 37 41 47
0.48593868 -0.08544933 1.89229927 52 56 62
0.49528861 -0.08342305 1.90869291 59 63 66
0.49383984 -0.07595514 0.85875752 56 63 63
0.49232180 -0.07507578 0.86227947 62 66 68
0.48566006 -0.07627018 0.94635550 60 63 67
0.48071082 -0.07407931 1.87734765 30 34 38
0.48449152 -0.07796668 1.89249379 47 51 55
0.49251989 -0.07834877 1.90372677 51 53 56
0.49147139 -0.04042189 0.82699189 42 49 52
0.49228725 -0.03567632 0.81985927 53 57 60
0.49168503 -0.03738108 0.82452180 50 55 59
0.48211366 -0.01546353 0.89093153 52 58 59
0.49882508 -0.01090914 0.97713950 37 39 43
0.49481368 -0.00939459 0.98530704 51 55 57
0.49531028 0.13792507 1.59453101 54 57 60
0.49163657 0.13583759 1.60640813 49 53 55
0.48129102 0.15668101 0.80008900 47 54 56
0.49263951 0.14305864 1.57606931 40 40 44
0.49520595 0.14202250 1.58930786 49 49 53
0.48997751 0.14091264 1.60715264 61 66 69
0.48453795 0.19933139 0.91886662 97 101 103
0.48754458 0.19681255 0.92944757 59 66 66
0.48513166 0.20240439 0.91917825 53 54 60
0.48449697 0.20193643 0.92210033 54 57 62
0.48048997 0.23856600 0.87079853 42 47 45
0.48272363 0.22952764 1.46602270 60 63 67
0.48266104 0.22424927 1.48337674 70 70 73
0.48119716 0.27798221 1.35594925 44 49 53
0.48429443 0.27852201 1.49235178 42 46 51
0.48469376 0.27840667 1.50210770 50 54 59
0.48446485 0.28264385 1.49400795 42 46 50
0.48562288 0.28839443 1.50808292 32 37 41
0.48797889 0.29487867 1.52556649 44 48 51
0.48923945 0.30258929 1.51658934 44 48 50
0.48708758 0.30262853 1.52334795 50 54 57
0.51239512 -0.18613445 1.17609234 59 64 65
0.51001686 -0.19027699 1.18135598 70 75 76
0.51373468 -0.15416688 1.09932498 60 63 66
0.51361695 -0.15481642 1.10323622 59 62 66
0.50420946 -0.08656707 1.91494316 61 65 67
0.50695832 -0.08242075 1.92369219 57 58 60
0.50502699 -0.07785279 1.91531589 43 41 46
0.50341207 -0.07512107 1.92172682 34 35 39
0.50050465 -0.01339842 0.97727881 73 74 78
0.50017935 -0.01465752 0.99345082 42 44 47
0.50065663 0.13426032 1.60412556 65 68 72
0.50803214 0.14797146 0.90976494 37 43 48
0.50441092 0.18972059 1.17650772 42 46 49
0.51240638 0.18965647 1.18669365 43 46 49
0.51485576 0.29303781 0.99535143 40 44 47
0.51523329 0.29718485 1.27478155 39 43 46
0.51401646 0.30179622 0.99912847 42 48 52
0.51442936 0.30284934 1.00082280 37 43 48
0.51594189 0.30435530 1.27693802 43 47 50
0.51984417 0.30799875 1.28115118 64 69 72
0.51140373 0.33432760 1.13484969 37 41 44
0.51293827 0.34065753 1.13834379 35 40 42
0.51748873 0.34908028 1.15262359 35 37 44
0.52125199 -0.18951378 1.17878604 65 70 73
0.52313189 -0.18791017 1.18335208 62 66 69
0.52856737 -0.06229234 0.90940237 45 52 55
0.52927177 -0.05808552 0.90767921 48 53 57
0.53945067 -0.04569433 1.04417555 99 103 111
0.52985271 -0.03200612 0.85641567 58 61 64
0.53233662 -0.02926302 0.86248711 57 60 63
0.52566965 -0.01047974 0.82464964 56 60 62
0.53593642 -0.00633636 0.89749198 47 50 51
0.53589462 -0.00452578 0.90191061 47 49 50
0.52096576 0.30465712 1.27758400 46 51 54
0.52155596 0.30682109 1.28148854 61 65 68
0.52060200 0.35320287 1.15687076 35 37 43
0.52090989 0.35808225 1.16071947 30 35 37
0.55797744 -0.22002846 1.16543436 56 58 65
0.55589794 -0.21480494 1.16538751 59 63 64
0.55947511 -0.18786519 1.06807368 61 66 68
0.55985483 -0.17958633 1.06492209 69 70 74
0.54933013 -0.05090924 1.05360554 61 66 70
0.55803072 -0.04815720 1.06170028 124 132 135
0.55686644 -0.02380371 0.97625718 43 50 52
0.55407470 -0.02459128 0.98056751 46 52 55
0.54109564 -0.00093035 0.90466469 45 45 49
0.55613595 -0.01690354 0.97746448 46 49 56
0.55425011 -0.01669019 0.98175317 47 51 58
0.54214502 0.00133223 0.90623269 41 42 45
0.55355947 0.07655151 1.79611500 47 48 50
0.55860218 0.07366916 1.80256391 41 41 44
0.55878993 0.09635315 1.66622421 45 47 51
0.55746071 0.08160628 1.80316915 44 45 45
0.55623069 0.10826633 0.93962203 53 59 58
0.55826769 0.10666972 0.94256827 59 63 63
0.55670950 0.10575946 1.65727001 50 56 59
0.55692407 0.10164804 1.66079617 49 53 56
0.54938716 0.24953074 1.23704338 38 41 45
0.55502670 0.25415868 1.24409654 37 39 42
0.55668043 0.26251597 1.25010583 48 53 56
0.54219352 0.28976458 1.31855756 42 44 48
0.55284795 0.28512141 1.32822479 56 59 65
0.56642991 -0.22011574 1.17046857 50 58 62
0.56177320 -0.21710067 1.16656426 56 62 65
0.56372910 -0.18754690 1.06877171 61 64 68
0.56293415 -0.17613826 1.05914137 61 65 69
0.56314527 -0.17852492 1.06351243 71 73 77
0.57556187 -0.08127842 1.13781977 69 76 76
0.57563712 -0.08122574 1.14063255 73 80 80
0.56673662 -0.07345616 1.13389466 62 66 67
0.57866130 -0.07843743 1.14113978 56 62 63
0.56114703 -0.04714619 1.06538725 122 132 132
0.56156750 -0.02537161 0.97625354 41 48 47
0.56993407 -0.02626311 0.98273412 50 56 56
0.56370674 0.01952454 0.94577134 39 40 46
0.56739940 0.02751684 0.94977137 53 56 58
0.56555983 0.07734552 1.79763532 44 48 48
0.56467793 0.07533143 1.80338943 40 42 44
0.56163519 0.09844204 0.93105810 53 60 62
0.57500462 0.09136554 0.99743618 60 65 68
0.56810677 0.09633084 1.67127800 48 49 54
0.56992099 0.08089393 1.79843020 40 45 46
0.56986509 0.08487094 1.80697557 45 47 50
0.57702134 0.09542175 1.82508457 44 45 50
0.56313522 0.10462423 0.93543860 54 58 59
0.56270461 0.10791891 0.94247615 51 56 56
0.56303734 0.10765287 1.65896010 66 73 75
0.57065113 0.10550404 1.66738254 43 48 53
0.57767192 0.10160445 1.82501241 47 52 58
0.57295115 0.17547582 1.39698758 44 47 54
0.57209130 0.17587336 1.40065729 43 44 52
0.56412958 0.19818319 1.35667089 40 44 50
0.56206840 0.19965145 1.36048615 43 47 56
0.57545128 0.18055820 1.39912295 46 50 53
0.57578474 0.18520899 1.41003318 50 55 56
0.57767451 0.19090277 1.42238159 52 59 61
0.56661081 0.20048699 1.35934854 43 47 52
0.56681822 0.20958479 1.36576652 51 55 61
0.56602337 0.25458733 1.25174683 49 51 55
0.56327612 0.26290981 1.25190549 27 33 33
0.56145433 0.27938969 1.32933927 54 56 60
0.56446280 0.29064755 1.33016331 61 66 70
0.57108029 0.29562347 1.34400810 72 78 79
0.58432719 -0.21293824 1.29756164 55 57 60
0.59117838 -0.21160576 1.30731880 58 61 64
0.59233499 -0.21862166 1.32933843 46 51 53
0.59485180 -0.06938205 1.13768814 52 53 57
0.58950750 -0.06740904 1.14451896 50 54 58
0.58612643 0.06342009 0.83496779 47 48 50
0.58057670 0.09111485 0.99822821 54 61 63
0.58310864 0.08500255 1.81738775 42 46 48
0.58733767 0.09275392 1.82829615 42 45 48
0.58444117 0.10149698 1.82859191 46 52 58
0.59096307 0.13833484 1.17981195 54 56 59
0.59433540 0.13734285 1.18398866 55 57 61
0.59145953 0.14272123 0.87903933 39 42 47
0.59171937 0.14513912 0.88497512 48 51 54
0.58762480 0.15371759 0.94804796 48 52 57
0.59998286 0.15721169 0.96029586 46 52 56
0.59096307 0.14138006 1.17981195 44 48 49
0.59302179 0.14217167 1.18434647 43 46 49
0.58732711 0.18705445 1.41352034 88 91 98
0.60179230 -0.20848016 1.31109264 58 62 65
0.60374559 -0.06678430 1.14370160 56 59 62
0.60115519 0.13780951 1.18497512 52 54 60
0.60092309 0.14115044 1.18702693 42 44 49
0.63040611 -0.14304417 1.56418540 50 55 61
0.62522972 -0.13534417 1.55785948 55 60 64
0.63079487 -0.13646935 1.56367704 58 64 67
0.63704944 -0.08628757 0.93975776 57 65 61
0.63642037 -0.08723259 0.94340974 53 60 59
0.63499268 -0.07751188 0.93869246 54 57 61
0.63795587 -0.07608670 0.94120918 57 60 64
0.63932464 0.10580047 1.29419311 48 51 54
0.63964880 0.10881415 1.30584812 34 38 41
0.63324153 0.22600861 1.69794399 65 68 68
0.63822042 0.23220211 1.70757990 64 66 67
0.63365943 0.25284929 0.95803347 43 47 54
0.63753840 0.25440537 0.96228686 44 50 54
0.62916453 0.26323183 0.95482874 61 67 70
0.63708321 0.26543447 0.96304111 56 62 66
0.63486168 0.32929390 1.55234888 42 44 48
0.63829927 0.32614803 1.56421714 43 48 49
0.64271134 -0.08677077 0.94588493 57 63 62
0.65485722 -0.09182193 1.15817022 65 67 71
0.65700693 -0.08856359 1.16290334 55 59 62
0.64081931 -0.07995794 0.94275504 52 56 60
0.65725206 -0.06660564 1.08788981 49 53 56
0.65005666 0.11134081 1.25586074 45 50 56
0.65234365 0.11276348 1.26029527 42 46 52
0.64276686 0.10777821 1.29527473 50 54 57
0.64967140 0.11434002 1.30685072 51 56 60
0.65505358 0.12357097 1.31437734 51 56 61
0.65643582 0.12715285 1.32318719 64 69 74
0.64974186 0.21282089 0.96460033 49 51 54
0.65630603 0.22061971 0.96974713 63 64 70
0.64582733 0.23447052 1.71188542 52 55 58
0.64941564 0.23275137 1.72314062 37 41 42
0.64340868 0.25634113 0.96490178 50 59 60
0.64885833 0.24178906 1.71439691 43 47 52
0.64830509 0.24244779 1.72131431 42 46 50
0.64407507 0.26391022 0.96871611 45 53 56
0.65937737 0.29924323 1.06225491 56 64 65
0.65709934 0.31416378 1.05753754 32 38 42
0.65879239 0.31684954 1.06186522 35 40 44
0.65261437 0.31499152 1.57965522 62 66 69
0.65657779 0.31518275 1.59005293 80 84 86
0.65818793 0.31353265 1.60136196 87 92 94
0.65520823 0.33001245 1.05611541 66 74 73
0.65556434 0.32831471 1.06212228 45 51 52
0.64440469 0.32595998 1.55577374 50 54 59
0.64558390 0.32452537 1.57171336 44 48 50
0.65369227 0.32296422 1.59076901 55 59 63
0.65716068 0.32254487 1.60017800 28 32 37
0.66898506 -0.18346491 1.23665336 67 70 74
0.66960830 -0.18414729 1.24755308 56 59 62
0.67394513 -0.18948875 1.26187749 52 58 62
0.66790345 -0.17815193 1.23774928 56 58 57
0.66676757 -0.17806423 1.24165875 57 60 59
0.66770575 -0.08869073 1.16862844 57 61 64
0.66207754 -0.06496098 1.08979406 46 51 53
0.66479934 -0.05897025 1.09532195 43 48 48
0.67330003 -0.05461870 1.10644449 50 53 56
0.67506563 0.25508051 1.41602260 45 48 51
0.67935276 0.25204545 1.42113721 36 39 42
0.66094387 0.29924323 1.06225491 46 53 54
0.66239645 0.31528965 1.05608633 65 72 75
0.66253523 0.31012912 1.06315980 36 43 44
0.66142634 0.31141488 1.59235006 44 48 51
0.66027325 0.31456864 1.60968411 91 95 98
0.66267204 0.32558020 1.05736594 60 67 67
0.66187313 0.32446922 1.06245175 75 82 83
0.66316180 0.32393172 1.59629789 93 98 100
0.68879155 0.01781926 1.19475270 48 53 54
0.69416072 0.02319371 1.19707215 48 55 56
0.69972730 0.02921525 1.20072448 55 64 63
0.68671435 0.09042545 1.31855714 64 66 70
0.69622743 0.09140552 1.32553165 51 53 54
0.69788995 0.10112727 1.32500571 64 68 69
0.68795898 0.25534260 1.42702550 42 44 47
0.68739976 0.26061936 1.42696126 56 57 63
0.69168512 0.39411141 1.31153598 38 43 44
0.69047543 0.40109519 1.31138456 35 36 38
0.71586440 -0.14497563 1.15110415 52 59 59
0.71358286 -0.13912844 1.14855662 60 67 69
0.71932612 -0.09344739 1.47453927 51 57 57
0.71952734 -0.09073769 1.48067474 62 69 70
0.70231353 0.02534535 1.19916443 51 58 59
0.70635692 0.03140535 1.20327610 51 55 58
0.70818954 0.03267722 1.29795910 43 47 54
0.71280390 0.03626758 1.30484266 46 50 56
0.71246365 0.04176653 1.29778636 53 60 62
0.71238900 0.04149037 1.30189931 56 62 65
0.70221319 0.09491810 1.32589014 56 58 59
0.71225139 0.10897974 1.15692722 64 69 70
0.71801455 0.11123478 1.16231897 52 57 58
0.71577653 0.23800831 1.52473953 46 52 55
0.70058916 0.25582575 1.43747282 86 89 91
0.71160987 0.24352849 1.51431524 59 62 66
0.71154470 0.24744676 1.52664813 44 48 52
0.71875939 0.41831979 1.71375467 54 55 59
0.71964490 0.41994196 1.72040308 32 33 37
0.71947541 0.42156403 1.71495879 49 51 54
0.71964490 0.42247942 1.72040308 47 49 53
0.73279917 -0.16054441 1.37778044 82 82 86
0.73057643 -0.16370299 1.39410047 66 69 73
0.73267463 -0.16417935 1.40162496 63 66 70
0.72278811 -0.14998404 1.15758723 53 57 59
0.72722121 -0.14913675 1.16490429 51 56 56
0.72752104 -0.15197380 1.37118980 75 75 79
0.72980992 -0.15732461 1.38865077 70 73 76
0.73303099 -0.15866181 1.40153578 58 62 65
0.73938566 -0.12130366 1.80742788 57 62 65
0.73786404 -0.11800376 1.79776780 65 72 74
0.73814365 -0.11873556 1.80082104 59 65 67
0.72235328 -0.09088377 1.47592242 55 60 59
0.73060024 -0.09350838 1.48287182 61 66 66
0.72588161 0.10802882 1.17017131 56 61 65
0.73659742 0.10718733 1.18174198 51 55 62
0.72133532 0.23780067 1.52226766 44 50 55
0.72107440 0.24045713 1.52369344 39 46 50
0.72390437 0.29999968 1.45809948 26 29 30
0.72615403 0.29964106 1.46335467 29 32 35
0.73515244 0.29896432 1.48428103 30 35 39
0.72407900 0.30145220 1.45888484 26 27 29
0.72672070 0.30287095 1.47079479 39 41 43
0.73191992 0.30259565 1.48305489 39 42 45
0.72621667 0.40679873 1.67952573 37 40 44
0.72763676 0.41096744 1.68896638 33 36 40
0.72827918 0.41469376 1.70762787 41 43 46
0.72729323 0.42204829 1.69681031 31 33 36
0.72650640 0.42199290 1.71163467 35 37 40
0.72668978 0.42238569 1.72131431 36 38 42
0.74127877 -0.14422755 1.17810214 64 65 69
0.74647550 -0.14441317 1.18497181 66 66 70
0.74625244 -0.12588733 1.79433961 50 55 57
0.74847280 -0.12310546 1.80518585 51 56 58
0.74631724 -0.11829153 1.79710613 56 62 63
0.74345558 -0.11730628 1.80187350 54 59 61
0.75620812 0.02849618 1.61048174 59 63 66
0.75962638 0.03721304 1.62813301 56 61 63
0.75746954 0.03833178 1.65055286 58 62 65
0.75973529 0.04081764 1.62822360 62 67 69
0.75739690 0.04591845 1.64971005 57 61 63
0.75877458 0.07768711 1.80758168 62 64 70
0.75815998 0.09398178 1.83095108 51 56 59
0.75664694 0.10416851 1.83238342 60 66 69
0.74773521 0.23538063 1.44789322 41 46 50
0.74824762 0.24190539 1.43874419 37 39 42
0.74804014 0.24417260 1.44331219 46 47 51
0.75148986 0.29770735 1.49187387 65 71 75
0.75241489 0.30195111 1.49309106 77 83 86
0.77800331 -0.18049553 1.21763248 66 68 70
0.77188612 -0.16358369 1.19252759 58 63 64
0.77434306 -0.16921953 1.21219873 61 65 66
0.77211004 -0.17218717 1.22239550 60 63 65
0.76638861 -0.15878507 1.21411783 57 62 62
0.76159297 -0.12242232 1.80425942 50 55 57
0.76839362 -0.06533416 1.17664136 55 58 58
0.77401153 -0.06823278 1.18292567 51 55 55
0.76878606 -0.05882938 1.17535570 46 49 50
0.77392922 -0.00065460 1.17163131 42 43 49
0.76567927 0.00781899 1.15572695 55 59 61
0.76697164 0.00354018 1.16412067 51 52 56
0.76263642 0.03527364 1.62901412 58 63 66
0.76246053 0.03628718 1.64054585 46 51 53
0.76570197 0.04737831 1.63386341 57 62 64
0.77020793 0.05275665 1.64566534 56 61 64
0.77823968 0.06250477 1.65558376 54 58 62
0.77915436 0.06367471 1.66065466 61 65 69
0.76082760 0.07885195 1.81246483 66 67 73
0.76182947 0.08181847 1.81525353 52 53 59
0.76436897 0.09105225 1.82923738 46 49 54
0.76333135 0.10559212 1.83083569 51 58 60
0.77572121 0.37564261 1.38590847 53 58 54
0.77658417 0.38167995 1.38787013 48 53 51
0.79986209 -0.20936385 1.38482189 67 72 70
0.78124680 -0.18038750 1.21690369 72 74 75
0.78196707 -0.17347492 1.20852040 59 63 64
0.78063661 0.05374822 1.63806683 43 48 52
0.78194811 0.05531105 1.64794670 48 54 56
0.78325965 0.06378904 1.65381472 47 52 54
0.78282839 0.06612405 1.66065466 53 57 58
0.78256901 0.37851624 1.38630012 51 54 51
0.78352677 0.38200108 1.39099045 49 53 51
0.79757369 0.39964171 1.82775217 43 46 50
0.79100668 0.40080514 1.77422619 36 38 41
0.79721198 0.40321142 1.79091763 36 38 41
0.79881309 0.40506948 1.80242118 33 35 38
0.79839319 0.40219119 1.83014790 50 51 55
0.80753196 -0.21220019 1.37773688 56 63 66
0.80716574 -0.21078511 1.38775380 62 67 67
0.81294906 -0.20757738 1.40032804 74 78 79
0.81973910 0.14067949 1.40963689 62 66 69
0.80179617 0.39599844 1.79694053 58 62 66
0.80406895 0.39808984 1.80423211 54 58 61
0.80407295 0.39919293 1.82569963 43 48 51
0.81945771 0.40803534 1.42238045 46 50 56
0.80151790 0.40184807 1.79545650 45 47 52
0.80361478 0.40253100 1.80631664 54 56 60
0.80641815 0.40457465 1.82960004 45 47 51
0.81229283 0.40780407 1.84434148 34 36 39
0.82888565 0.13752880 1.41074312 51 56 59
0.83813009 0.13414152 1.42113721 29 36 38
0.82991080 0.14132637 1.41253988 54 58 61
0.83807672 0.21543792 1.26772602 50 54 57
0.83562569 0.22201496 1.26918207 48 53 56
0.83318522 0.41024961 1.43112916 37 40 48
0.84536159 -0.22225626 1.35143888 50 52 55
0.85632385 -0.22177821 1.36967275 60 63 66
0.85490084 -0.21425576 1.36871257 54 58 61
0.84567553 -0.13173696 1.27736746 66 71 75
0.85466695 -0.12874776 1.28603726 62 66 68
0.84001589 0.13716571 1.41989601 42 48 50
0.84486736 0.13592200 1.42492400 39 46 48
0.84001589 0.14344843 1.41989601 52 57 59
0.84288086 0.14531885 1.42328694 50 55 57
0.84488444 0.21818458 1.27204362 46 51 54
0.84472844 0.22150312 1.27187390 54 60 63
0.84331215 0.41164623 1.43677564 34 37 44
0.84694011 0.41792537 1.44129878 33 35 43
0.84804999 0.42200619 1.44387040 35 38 45
0.87168259 -0.26304954 1.45615603 53 56 59
0.86807842 -0.25361125 1.45652235 58 63 65
0.86578313 -0.25207795 1.46071959 59 64 67
0.87901765 -0.22032274 1.33370137 58 63 63
0.87990600 -0.22042398 1.34029758 66 71 71
0.86546041 -0.22193671 1.37607903 56 59 62
0.87574849 -0.22399327 1.38423711 58 60 63
0.87839493 -0.21942937 1.33424979 65 70 70
0.87964272 -0.21961661 1.34140337 65 70 70
0.86178604 -0.21807498 1.37445681 58 63 66
0.86070832 -0.12399633 1.29132745 60 62 65
0.87052795 -0.10832099 1.69794399 57 60 63
0.87715716 -0.11389441 1.70493202 63 67 70
0.86628473 -0.06056774 1.23493111 52 58 60
0.87246694 -0.06059835 1.24965903 48 52 55
0.87961876 -0.06055932 1.26323307 51 56 59
0.86538838 -0.05724985 1.23303506 45 51 55
0.87255392 -0.05389087 1.24857707 48 54 58
0.87810671 -0.05651805 1.26139560 42 48 52
0.87060826 0.13566775 1.31534942 51 55 58
0.87333242 0.13475461 1.32098566 44 48 53
0.86812428 0.14185253 1.31190255 46 52 54
0.87950875 0.35780449 1.38560927 55 60 61
0.87924778 0.36148460 1.38600404 52 56 59
0.86515817 0.41066585 1.29958510 35 38 46
0.86837818 0.40980857 1.30943418 39 44 48
0.87408885 0.40282757 1.32134356 30 37 39
0.86778206 0.42025477 1.31005716 25 29 32
0.88467618 -0.26166215 1.46614232 44 49 52
0.88360761 -0.25939626 1.46556465 45 49 52
0.88231076 -0.22168278 1.33745252 57 62 62
0.88829689 -0.22491745 1.34641862 61 66 65
0.88567723 -0.22647854 1.39323901 58 59 64
0.89358351 -0.21937685 1.34600757 59 63 62
0.89489834 -0.12063240 1.70381672 52 53 59
0.89546638 -0.11014601 1.31296821 57 60 66
0.89025563 -0.11433779 1.70952173 57 59 63
0.89808180 -0.11225692 1.72405575 57 59 65
0.88274651 -0.04905091 1.25820621 45 52 55
0.88462002 -0.05147799 1.26252556 49 55 57
0.88322669 0.23700905 1.87951553 37 36 41
0.88860807 0.23428053 1.89394110 40 41 46
0.89462868 0.23193665 1.90881992 74 77 81
0.89916571 0.23203362 1.92248491 54 57 62
0.88587797 0.35490647 1.38823793 50 54 56
0.89158331 0.36297661 1.39133253 44 49 50
0.89364417 0.53563162 1.67345550 58 63 70
0.89678768 0.53534492 1.68300664 67 71 76
0.89533563 0.54086448 1.67136647 50 57 61
0.90218288 -0.22874834 1.35595351 68 73 71
0.90668678 -0.11286478 1.31637594 50 55 62
0.90943041 -0.11086827 1.32343879 51 55 62
0.90321179 -0.11349670 1.71233036 49 50 56
0.90012497 -0.11201248 1.72588205 53 54 61
0.91265481 -0.02914383 1.31248624 60 66 67
0.91454270 -0.02777729 1.32682981 56 62 62
0.90311520 0.23168828 1.93329576 83 87 92
0.90500861 0.22903897 1.94679253 69 71 78
0.90855477 0.23169004 1.96365514 101 103 110
0.90380388 0.24120824 1.93545341 33 31 37
0.90596092 0.24035318 1.94007266 30 29 34
0.90333367 0.35748088 1.39445007 42 49 51
0.90195626 0.36346115 1.39488545 46 51 52
0.90734470 0.36958819 1.40331652 40 45 45
0.90355302 0.53399470 1.67665593 50 54 60
0.90198748 0.53389256 1.68169770 50 54 59
0.93122766 -0.26443257 1.67105628 55 59 63
0.93016821 -0.26038048 1.68126261 59 63 65
0.93458104 -0.25846985 1.67596689 59 63 66
0.93451009 -0.25830139 1.68387864 56 60 63
0.93660981 0.11641890 1.68808634 58 62 65
0.93961686 0.11913439 1.70060766 56 61 63
0.93106987 0.12484993 1.67806765 48 53 55
0.93402865 0.12231048 1.68727199 61 65 68
0.93903992 0.12179535 1.70274603 63 68 70
0.93919694 0.34060383 1.53956521 37 41 46
0.93736160 0.41632260 1.57804680 36 40 43
0.93911970 0.41635984 1.58149898 33 38 41
0.93893571 0.42524025 1.56757673 36 41 40
0.93978173 0.42184573 1.58458173 42 46 48
0.94165688 -0.26468703 1.67342723 55 61 65
0.95418042 -0.26005214 1.69528770 41 46 49
0.95842886 -0.26086822 1.70060766 41 46 48
0.94183501 -0.25739232 1.67795200 47 52 54
0.94333654 -0.25775419 1.68300358 44 49 51
0.94206601 0.11562807 1.69823953 57 61 64
0.94685431 0.11756353 1.70990508 52 56 58
0.95029107 0.11683858 1.72222555 51 54 57
0.95256059 0.12417303 1.41700896 58 62 63
0.95878012 0.12423251 1.42287917 65 68 70
0.94369316 0.12182292 1.69441575 32 36 39
0.95081177 0.12105123 1.70776154 54 58 61
0.95588024 0.15170785 1.99206855 59 61 64
0.95630822 0.16661896 1.42710197 52 57 57
0.95663443 0.16286273 1.97193798 45 49 51
0.95483591 0.16193004 1.98658302 60 65 66
0.94565061 0.35088685 1.55339233 52 56 61
0.94667811 0.35368088 1.56841590 60 64 69
0.94890418 0.36285815 1.55634654 85 90 94
0.95304116 0.36771429 1.57049747 42 46 50
0.95581356 0.37001045 1.58902044 38 41 45
0.95847213 0.37525472 1.60017800 45 45 49
0.94522753 0.41723213 1.57832719 51 55 59
0.94330190 0.41776481 1.58196124 42 46 50
0.94397955 0.42258756 1.57471140 42 46 49
0.94450280 0.42289679 1.58694929 45 49 53
0.96184024 0.11900055 1.71676970 46 50 53
0.96755644 0.11748824 1.72993156 49 51 54
0.96854585 0.12766718 1.41933300 53 55 56
0.96565469 0.12724755 1.42487969 52 54 56
0.96855307 0.15809577 1.43242013 52 58 60
0.96294536 0.15446772 1.99973047 62 63 67
0.96861288 0.16861989 1.43508476 56 60 61
0.97339789 0.16788635 1.44067434 52 57 59
0.96160990 0.16295367 1.97303700 37 40 43
0.96327223 0.16109449 1.99142995 49 54 54
0.96363316 0.37345756 1.57385203 76 83 84
0.96558620 0.37701071 1.59117098 59 63 64
0.96279907 0.37800821 1.60017800 46 47 49
0.97490852 0.38393118 1.59105976 52 59 58
0.97223133 0.38616869 1.60609393 39 42 44
0.97785666 0.39130184 1.62579229 50 50 54
0.99929103 0.36942393 1.68387502 26 30 35
0.98281346 0.38700525 1.59177072 67 73 72
0.98886416 0.39508658 1.60833253 51 55 59
0.98361047 0.39589372 1.63015664 46 46 51
0.98585200 0.39822930 1.64386511 54 53 59
0.99388730 0.40078673 1.61869949 41 42 50
0.99601890 0.40481553 1.62573275 32 33 41
1.01263054 -0.14563723 1.91719981 57 64 66
1.01592252 -0.14433752 1.92343253 57 62 66
1.01562452 0.13315090 1.43874419 67 74 77
1.01748278 0.13387520 1.44346655 69 75 78
1.01505841 0.21906885 1.55083912 50 53 58
1.01558822 0.21986742 1.56099981 64 66 71
1.01590143 0.22601800 1.53681689 51 52 56
1.01297990 0.22585919 1.54716371 54 56 60
1.01858085 0.22216246 1.56501011 64 66 72
1.00454730 0.37158715 1.69453771 26 31 35
1.00846539 0.37415073 1.70619138 26 30 35
1.01665231 0.37723362 1.72527979 27 31 36
1.00163213 0.39832157 1.61394779 54 57 58
1.01052444 0.38422395 1.70924494 30 33 35
1.01751447 0.38509967 1.73165952 35 38 40
1.01908664 0.38509384 1.74066484 33 37 38
1.00280502 0.40091607 1.61801662 67 69 72
1.00599008 0.40775927 1.62914455 65 66 72
1.01035271 0.41622771 1.64520122 32 33 39
1.01642668 0.42313321 1.65558478 34 36 40
1.01891381 0.42683116 1.66320342 38 40 43
1.02801962 -0.14399393 1.92677034 63 66 71
1.02644424 -0.13888326 1.91765039 67 69 73
1.03498526 -0.13854381 1.92939913 48 50 54
1.02458975 0.13592358 1.45639033 66 70 73
1.03050189 0.13671309 1.46858163 59 64 66
1.03566122 0.13948191 1.48157461 50 55 55
1.02567989 0.14073016 1.45679408 65 73 73
1.03367324 0.14201858 1.47365141 50 56 56
1.03758358 0.14412556 1.48503520 43 50 50
1.02117467 0.22351623 1.54248667 59 61 67
1.02470043 0.39316864 1.72749665 32 36 39
1.02125025 0.38229509 1.74253249 35 39 42
1.02382524 0.43060337 1.67021594 38 42 43
1.04434695 -0.14208227 1.93479749 42 44 47
1.04260360 -0.13833006 1.93114455 44 46 48
1.04298360 0.14860939 1.49240227 47 54 56
1.04525192 0.14928012 1.50173774 50 56 58
1.05067052 0.29712402 1.51471256 48 54 52
1.05658566 0.29587382 1.52764255 46 51 49
1.04675293 0.30109597 1.51222298 54 60 59
1.04509163 0.48765808 1.71315169 48 48 55
1.05556394 0.49687529 1.72909988 38 38 45
1.05837576 0.50136958 1.73632928 44 45 52
1.05794996 0.51180544 1.74159765 47 48 54
1.05550122 0.52168845 1.74328074 36 38 41
1.06354059 0.29046174 1.53234543 50 54 52
1.07017012 0.28772669 1.54822343 50 54 51
1.07749443 0.28543935 1.56581477 50 54 52
1.06324732 0.49923623 1.73139805 34 36 41
1.06404958 0.50458193 1.73628649 37 38 44
1.06676802 0.51089775 1.75096251 46 47 54
1.07041534 0.51668884 1.76554206 43 44 51
1.06266948 0.52168140 1.75362895 38 40 44
1.06975891 0.52217149 1.76755394 39 41 46
1.09335130 -0.33027287 1.99482620 45 49 52
1.08115897 0.28454050 1.56929062 50 55 53
1.08786665 0.31221701 1.91205256 71 76 83
1.09496977 0.31627760 1.93160580 97 102 109
1.09875083 0.31731787 1.94704294 80 86 93
1.09629843 0.32327954 1.93545545 89 93 101
1.09854688 0.32710301 1.94305755 47 51 57
1.08543620 0.39477496 1.59703679 33 37 42
1.08991644 0.39714397 1.61149671 31 36 39
1.09352784 0.39828581 1.62481029 40 47 49
1.09045282 0.40248031 1.61471778 37 42 45
1.09328071 0.40688550 1.63021500 39 44 47
1.09745180 0.41072746 1.64536815 41 48 50
1.08284837 0.51364219 1.76331985 35 36 42
1.11565364 0.23568129 1.65384994 38 42 46
1.11523328 0.24119768 1.65524588 43 46 50
1.11061573 0.31971088 1.97064352 67 73 79
1.10065758 0.32723725 1.93776035 130 134 140
1.10219393 0.33010761 1.94907598 43 47 52
1.10972875 0.32866822 1.97012172 24 28 35
1.11668360 0.33690890 1.98206037 36 39 43
1.11466908 0.34129781 1.97783566 38 42 43
1.10269507 0.40608082 1.65078786 44 50 52
1.11563363 0.40916656 1.67411309 46 53 55
1.11986792 0.40914810 1.68126261 49 55 57
1.12850709 0.23445180 1.65656233 47 52 56
1.13293631 0.23545722 1.66330116 50 56 59
1.12581074 0.24161740 1.65896010 52 56 60
1.13283786 0.24205351 1.66583418 50 55 58
1.12415111 0.33876044 1.99727380 41 45 50
1.12080260 0.40734623 1.67894797 53 60 62
1.12156826 0.40813286 1.68474883 58 65 67
1.15896511 -0.20437507 1.67952573 63 70 69
1.15950298 -0.20479821 1.68300295 67 74 73
1.14197213 0.23118025 1.67147750 54 60 64
1.14154777 0.24487338 1.67283298 45 51 53
1.17674734 -0.22490248 1.67684062 55 59 59
1.17768696 -0.22753516 1.68315656 61 65 66
1.16499563 -0.21388903 1.65727015 51 55 57
1.17329407 -0.21493776 1.67162036 52 57 58
1.17064302 -0.20930595 1.69045744 56 63 63
1.17568068 -0.21402797 1.70482757 67 74 74
1.19046017 -0.24038322 1.69764964 57 62 64
1.19420356 -0.24092814 1.70149803 57 62 64
1.18261119 -0.22439547 1.67705219 56 61 62
1.18604635 -0.23173137 1.68875577 58 62 62
1.18880250 -0.22858309 1.70664116 56 59 59
1.19470450 -0.22750116 1.73300217 63 66 69
1.19922936 -0.22848672 1.74299890 62 64 68
1.18111483 -0.21930897 1.67376248 48 54 54
1.18177911 -0.21222505 1.68944275 49 55 55
1.18200757 -0.21561808 1.70606432 65 71 72
1.19243137 -0.21896330 1.72957901 64 69 70
1.19794416 -0.21975218 1.74253047 64 70 70
1.18629272 0.09595807 1.75516997 53 55 56
1.19242303 0.09338325 1.77078545 49 52 54
1.19835938 0.08987867 1.78374355 49 51 54
1.20376694 -0.24212216 1.70991931 55 62 62
1.21469285 -0.24856749 1.73089315 53 58 60
1.21164197 -0.24032181 1.77100527 77 79 83
1.20110637 -0.23289426 1.70238933 68 76 73
1.20051098 -0.23082283 1.73880315 68 71 74
1.20565904 -0.23159041 1.75217691 63 66 69
1.21053092 -0.22981108 1.77024280 56 58 61
1.21389561 -0.22698321 1.78349929 52 56 59
1.20054546 0.08748061 1.77729681 60 62 62
1.20804159 0.08937400 1.78795513 56 58 60
1.22394809 -0.24957649 1.73800697 48 55 54
1.23009529 -0.25049729 1.74365709 51 58 58
1.22280941 -0.22472948 1.79248387 55 60 61
1.23446375 -0.22597570 1.80242008 62 67 68
1.23823340 0.07239941 1.97160943 48 56 56
1.22641033 0.09087809 1.79382522 47 49 51
1.22693284 0.09119167 1.80241983 56 57 59
1.25387931 0.07142358 1.89927673 57 62 64
1.25572197 0.07176001 1.90820079 58 62 64
1.24103707 0.07284609 1.97583493 47 54 54
1.25275738 0.06609391 1.98933461 50 57 57
1.25899231 0.08151354 1.90595738 43 50 52
1.25736296 0.08360545 1.92172682 72 79 81
1.26230811 0.07587479 1.91268871 50 55 58
1.26875240 0.07706277 1.92742775 50 56 58
1.26591874 0.06320064 1.99090852 67 74 75
1.26408696 0.08360246 1.91517009 49 55 57
1.27068276 0.08651331 1.93074924 53 59 61
1.27563322 0.08953670 1.94472338 61 65 68
1.28214371 0.08859006 1.93776035 54 59 62
1.28595897 0.09191554 1.95045759 55 59 62
1.28474879 0.09271902 1.96469063 66 68 71
1.39983284 0.08257484 1.99973047 47 51 56
1.40662487 0.08943008 1.99695108 50 55 56
