ply
format ascii 1.0
element vertex 1084
property float x
property float y
property float z
property uchar red
property uchar green
property uchar blue
end_header
-0.00983911 -0.23003910 0.78376656 89 64 60
-0.00934950 -0.20914123 0.77727212 90 62 60
-0.01336986 -0.21831793 0.78040865 87 64 59
-0.00968406 -0.19040857 0.77139121 90 64 60
-0.00977596 -0.17018432 0.76563924 90 63 59
-0.00942253 -0.14981897 0.76301273 107 93 94
-0.00955982 -0.13013014 0.77264364 141 136 137
-0.01114032 -0.11716958 0.77881307 150 143 145
-0.00952073 -0.10748197 0.78305073 150 146 148
-0.00990770 -0.09046566 0.78955341 162 156 158
-0.00999241 -0.07059402 0.79628479 169 164 164
-0.01179478 -0.05941086 0.79967356 168 165 166
-0.00988150 -0.04934714 0.80264309 176 172 172
-0.01013946 -0.02973747 0.80799718 178 174 175
-0.00966040 -0.00966685 0.81316918 179 174 174
-0.00973679 0.00979179 0.81778489 176 173 173
-0.00533140 0.01941743 0.82013370 175 172 172
-0.00961069 0.03014462 0.82248895 176 172 173
-0.00966461 0.05032863 0.82711331 178 174 174
-0.00971796 0.07002275 0.83179648 175 170 170
-0.01411939 0.08059155 0.83714484 172 163 162
-0.00982379 0.08307746 0.85376033 167 153 152
-0.00945297 0.09262774 0.87238357 172 165 166
-0.00946402 0.10988757 0.87451575 171 169 172
-0.00947726 0.12971836 0.87573763 165 163 164
-0.00948992 0.14959596 0.87691225 174 172 173
-0.00950212 0.16951792 0.87804302 179 177 178
-0.00951342 0.18947229 0.87908884 172 171 172
-0.00997096 0.20369461 0.87979612 174 170 170
-0.00920037 0.21363648 0.88027815 170 168 169
-0.00953469 0.22948957 0.88105469 166 164 164
-0.00954543 0.24956699 0.88204645 173 172 173
-0.00955578 0.26967818 0.88300320 167 164 165
-0.00956562 0.28981630 0.88391081 177 176 176
-0.00957500 0.30998048 0.88477645 172 170 170
-0.00958373 0.33016167 0.88558360 166 164 165
-0.00959135 0.35033786 0.88628646 166 165 165
-0.00959668 0.37045369 0.88677086 100 97 98
-0.00959647 0.39037257 0.88675671 0 0 0
-0.00959824 0.41037298 0.88691925 0 0 0
-0.00960091 0.43042036 0.88716391 0 0 0
-0.00960446 0.45052022 0.88749008 0 0 0
-0.00960881 0.47067412 0.88789072 0 0 0
-0.00961368 0.49010473 0.88833954 0 0 0
-0.00961674 0.50254639 0.88862053 0 0 0
0.01030906 -0.48473948 0.72411606 0 0 0
0.01060006 -0.46567382 0.71825814 0 0 0
0.00982167 -0.47519233 0.72148004 0 0 0
0.01015573 -0.45033359 0.71321454 0 0 0
0.01004556 -0.42955239 0.70540572 0 0 0
0.00964187 -0.40605001 0.69786756 0 0 0
0.01040832 -0.41580489 0.70117637 0 0 0
0.01004849 -0.39021176 0.69203699 0 0 0
0.01246539 -0.36193635 0.67872402 48 50 50
0.01010478 -0.37218529 0.68460792 0 0 0
0.00850775 -0.35879438 0.67794696 174 178 177
0.01023180 -0.35753137 0.69032934 183 184 184
0.01011547 -0.35323225 0.71009403 184 185 186
0.01023269 -0.34638198 0.73020602 183 183 184
0.01147061 -0.34108978 0.74216557 182 183 183
0.00972595 -0.33511395 0.75223273 182 182 183
0.01063905 -0.32511167 0.76685442 182 182 183
0.01005699 -0.31704967 0.77677637 176 175 176
0.01010178 -0.30735087 0.78719638 179 179 180
0.00982482 -0.29099393 0.79775104 102 92 93
0.01011234 -0.26979940 0.79410280 86 65 62
0.00986402 -0.24982878 0.78851237 87 64 60
0.01447318 -0.22043226 0.77977657 89 65 60
0.01012604 -0.23030894 0.78292680 87 64 60
0.01043343 -0.20985052 0.77655719 90 63 58
0.01030303 -0.19015982 0.77038524 89 63 58
0.01023206 -0.17032069 0.76501975 89 63 59
0.01021854 -0.15022205 0.76379799 111 99 98
0.01035415 -0.13013269 0.77393155 141 134 136
0.00874275 -0.11824218 0.77946521 149 144 144
0.01052706 -0.10895223 0.78335592 151 144 146
0.01003219 -0.09029278 0.79026721 161 156 156
0.00982107 -0.07041485 0.79690963 170 166 166
0.00240410 -0.05987072 0.79994069 178 174 175
0.01015754 -0.05022864 0.80295778 176 171 171
0.01011643 -0.02975596 0.80849436 178 175 175
0.01018090 -0.00955609 0.81365280 174 168 169
0.01003344 0.00878708 0.81803784 177 171 171
0.01147971 0.01861250 0.82035015 169 166 165
0.01029789 0.03016300 0.82299342 178 173 173
0.01035861 0.05037160 0.82780719 179 174 175
0.01007200 0.06910661 0.83262096 176 172 172
0.01263204 0.07870570 0.84626306 168 160 161
0.00848076 0.08077443 0.85438416 166 153 150
0.01036793 0.09111527 0.87185459 161 151 152
0.01018620 0.10989094 0.87454277 176 173 174
0.01020063 0.12972448 0.87577868 167 165 168
0.01021448 0.14960544 0.87696773 174 172 173
0.01022797 0.16953311 0.87812153 179 177 178
0.01024008 0.18948815 0.87916258 165 162 165
0.00971422 0.20289083 0.87983389 174 172 173
0.01052523 0.21283228 0.88032239 173 171 173
0.01026321 0.22951302 0.88114472 176 174 175
0.01027462 0.24958918 0.88212491 173 173 174
0.01028568 0.26970053 0.88307647 171 170 170
0.01029611 0.28983710 0.88397426 175 175 177
0.01030604 0.30999890 0.88482912 167 167 169
0.01031535 0.33017913 0.88563047 169 167 166
0.01032347 0.35035434 0.88632816 164 163 164
0.01032879 0.37046008 0.88678636 94 93 93
0.01032907 0.39039371 0.88680478 0 0 0
0.01033085 0.41039131 0.88695895 0 0 0
0.01033344 0.43043073 0.88718537 0 0 0
0.01033702 0.45052303 0.88749567 0 0 0
0.01034158 0.47067304 0.88788872 0 0 0
0.01034673 0.49009998 0.88833095 0 0 0
0.01034994 0.50253918 0.88860778 0 0 0
0.02996080 -0.48460080 0.72329983 0 0 0
0.03041265 -0.46610617 0.71809053 0 0 0
0.03015858 -0.47605736 0.72127786 0 0 0
0.02987186 -0.45022030 0.71303587 0 0 0
0.02999211 -0.42958936 0.70563447 0 0 0
0.02960991 -0.40541475 0.69822627 0 0 0
0.03031726 -0.41522390 0.70154290 0 0 0
0.02991493 -0.39045566 0.69296018 0 0 0
0.02716345 -0.36188722 0.67879768 150 152 152
0.03149168 -0.36798766 0.68590785 72 72 73
0.02201443 -0.35984134 0.67969209 180 182 182
0.02643129 -0.35911951 0.69359608 184 185 185
0.02999784 -0.35540754 0.70974645 182 184 185
0.03005802 -0.34840734 0.73012245 182 183 183
0.03075787 -0.34220411 0.74397704 183 184 184
0.02929579 -0.33614249 0.75387663 185 185 186
0.03042885 -0.32612447 0.76774800 179 179 180
0.03006730 -0.31742710 0.77733108 176 175 176
0.03001897 -0.30725683 0.78770548 177 177 178
0.02984059 -0.29066118 0.79733585 86 74 74
0.02961028 -0.27011341 0.79315301 85 64 60
0.02978287 -0.24989594 0.78767976 87 62 60
0.03193543 -0.22228966 0.77948502 85 60 57
0.02963481 -0.23172538 0.78243646 88 63 58
0.03044556 -0.21024235 0.77585359 87 60 56
0.03025253 -0.19000707 0.76976888 86 59 56
0.03022763 -0.16989784 0.76495636 89 62 57
0.02992606 -0.14942301 0.76508179 117 103 104
0.03034156 -0.12975867 0.77501140 143 135 135
0.02593215 -0.11902146 0.77984060 149 142 142
0.03008589 -0.10960703 0.78374788 155 149 149
0.02971990 -0.08994027 0.79094667 164 158 158
0.02991008 -0.07064076 0.79732898 173 168 168
0.03075956 -0.06127469 0.80021934 175 168 168
0.03005402 -0.05050665 0.80335220 176 170 170
0.02969461 -0.02977054 0.80888910 178 173 173
0.02988437 -0.00956072 0.81405509 179 175 176
0.02980915 0.00777737 0.81826476 178 173 173
0.03083204 0.01765530 0.82056359 179 175 175
0.03022880 0.03017905 0.82343640 181 178 178
0.03040961 0.05040571 0.82836294 180 175 176
0.03022694 0.06770863 0.83304742 175 170 170
0.03028732 0.07755135 0.85138532 175 167 167
0.02489642 0.07986788 0.86052752 170 163 161
0.02991934 0.09021918 0.87214328 156 146 147
0.02983666 0.10989120 0.87454436 174 171 173
0.02988049 0.12973142 0.87582537 174 172 174
0.02992153 0.14961572 0.87702781 178 175 176
0.02996128 0.16954681 0.87819241 183 181 182
0.02999676 0.18950314 0.87923210 165 162 164
0.02938192 0.20208871 0.87987261 172 171 172
0.03025278 0.21202809 0.88036686 174 172 171
0.03006518 0.22953709 0.88123706 179 178 180
0.03009848 0.24961420 0.88221343 178 176 176
0.03013047 0.26972349 0.88315172 177 175 175
0.03016057 0.28985699 0.88403502 168 166 168
0.03018927 0.31001545 0.88487643 169 168 168
0.03021589 0.33018929 0.88565777 166 165 166
0.03023969 0.35036526 0.88635579 161 161 163
0.03025509 0.37046882 0.88680716 88 89 89
0.03025696 0.39041827 0.88686059 0 0 0
0.03026203 0.41041439 0.88700888 0 0 0
0.03026907 0.43044569 0.88721629 0 0 0
0.03027902 0.45052964 0.88750874 0 0 0
0.03029201 0.47067372 0.88789002 0 0 0
0.03030688 0.49009748 0.88832643 0 0 0
0.03031627 0.50253550 0.88860127 0 0 0
0.05025439 -0.48434306 0.72259250 0 0 0
0.05022021 -0.46661432 0.71791981 0 0 0
0.04960826 -0.47667534 0.72102125 0 0 0
0.04985751 -0.44986941 0.71267165 0 0 0
0.05011071 -0.42988973 0.70579285 0 0 0
0.04964044 -0.40444330 0.69812447 0 0 0
0.04996496 -0.41475153 0.70174599 0 0 0
0.05022238 -0.39029048 0.69354472 0 0 0
0.04981904 -0.36733784 0.68862127 115 115 116
0.05297814 -0.36063667 0.70208935 180 180 181
0.04934845 -0.35710771 0.71139315 182 182 182
0.04997649 -0.35060357 0.73016250 181 182 182
0.05068699 -0.34344008 0.74626796 186 186 187
0.04903674 -0.33737392 0.75612992 187 188 189
0.05042741 -0.32777996 0.76856841 178 176 177
0.04881320 -0.31803796 0.77818092 173 172 172
0.05003083 -0.30816114 0.78814696 165 164 165
0.04988395 -0.29018858 0.79642838 86 69 70
0.05024099 -0.27005691 0.79200690 84 62 60
0.04995865 -0.24995919 0.78677307 85 59 58
0.05005549 -0.22331545 0.77909569 82 59 56
0.04939050 -0.23284652 0.78191320 85 59 56
0.05027716 -0.20997525 0.77509998 85 59 56
0.05019750 -0.18995530 0.76956452 84 58 54
0.04992944 -0.16974952 0.76543594 84 59 55
0.04993247 -0.14923236 0.76550026 113 98 97
0.05015313 -0.12975849 0.77526551 142 134 135
0.04978240 -0.11014876 0.78396379 159 151 151
0.05009055 -0.09012889 0.79137887 165 158 158
0.04990089 -0.07144413 0.79753045 174 169 169
0.05044745 -0.06205533 0.80044827 177 171 172
0.05020374 -0.05030794 0.80385424 176 171 170
0.04999644 -0.02978778 0.80935904 178 173 173
0.04961264 -0.00956644 0.81454309 179 175 175
0.04967320 0.00681497 0.81851570 178 173 174
0.05034195 0.01672371 0.82078986 178 172 173
0.05017892 0.03019393 0.82384414 179 174 175
0.05047053 0.05042140 0.82863726 168 161 162
0.04976319 0.06684061 0.83308104 170 163 164
0.05030589 0.07557945 0.84916854 176 167 168
0.05266304 0.07874056 0.86448029 170 158 159
0.05006999 0.08997963 0.87246648 150 136 137
0.04948721 0.10989142 0.87454413 176 172 174
0.04956374 0.12974164 0.87589417 177 175 176
0.04963197 0.14962800 0.87709974 175 173 175
0.04969779 0.16956048 0.87826325 180 177 178
0.04975662 0.18951845 0.87930300 174 170 171
0.04887834 0.20135790 0.87990943 177 174 175
0.05001643 0.21128017 0.88041308 175 174 175
0.04987080 0.22955890 0.88132080 171 170 173
0.04992574 0.24963630 0.88229160 173 172 172
0.04997798 0.26974294 0.88321544 172 169 169
0.05002669 0.28987076 0.88407713 168 166 166
0.05007379 0.31002704 0.88490957 167 166 167
0.05011770 0.33019963 0.88568552 159 159 160
0.05015692 0.35037433 0.88637872 171 171 173
0.05018202 0.37047538 0.88682288 76 75 76
0.05018598 0.39043229 0.88689242 0 0 0
0.05019473 0.41043190 0.88704673 0 0 0
0.05020602 0.43046019 0.88724623 0 0 0
0.05022192 0.45053917 0.88752754 0 0 0
0.05024281 0.47067736 0.88789694 0 0 0
0.05026715 0.49009798 0.88832733 0 0 0
0.05028279 0.50253701 0.88860395 0 0 0
0.07016925 -0.48387423 0.72189303 0 0 0
0.07006159 -0.46742332 0.71766261 0 0 0
0.06904149 -0.47738510 0.72069088 0 0 0
0.07000030 -0.44992725 0.71221382 0 0 0
0.07013069 -0.42952521 0.70535543 0 0 0
0.07021030 -0.40539199 0.69796551 0 0 0
0.06966564 -0.41531518 0.70164046 0 0 0
0.07023132 -0.39017055 0.69300177 0 0 0
0.06979018 -0.36942007 0.69036063 125 125 125
0.07117417 -0.36171591 0.70498489 179 180 181
0.06872088 -0.35822872 0.71465616 180 182 182
0.06997279 -0.35300431 0.73007051 184 184 184
0.07050954 -0.34475592 0.74861142 187 187 188
0.06770613 -0.33876217 0.75814416 185 186 187
0.07017982 -0.32930550 0.76965427 179 179 180
0.06802066 -0.31895224 0.77915022 168 165 166
0.07018411 -0.30943846 0.78883502 166 165 165
0.06983483 -0.29014413 0.79630163 77 59 59
0.07006437 -0.27005856 0.79175636 82 60 59
0.07011634 -0.24977129 0.78665329 83 59 57
0.06874209 -0.22345689 0.77913920 83 57 54
0.07036860 -0.23294064 0.78199192 83 57 54
0.06999486 -0.21011043 0.77521489 84 57 55
0.07016733 -0.19000153 0.76975359 83 55 54
0.06981198 -0.16984277 0.76585851 82 55 52
0.06978460 -0.14924791 0.76555643 101 81 80
0.06984818 -0.12998360 0.77519755 150 143 143
0.07515824 -0.12041449 0.78013302 162 155 153
0.07009432 -0.11023682 0.78428815 159 152 152
0.06995495 -0.08990727 0.79192595 168 161 161
0.06971854 -0.07246356 0.79777890 172 166 166
0.07138388 -0.06280003 0.80084997 168 161 162
0.06969070 -0.05017626 0.80443779 176 168 168
0.07032993 -0.02980859 0.80992254 176 170 170
0.06977788 -0.00973801 0.81502400 171 165 165
0.06933543 0.00582019 0.81873944 171 164 164
0.07030060 0.01570374 0.82095971 168 162 162
0.07014433 0.03020721 0.82420120 167 160 161
0.07043810 0.05034116 0.82878721 172 165 166
0.06953970 0.06655421 0.83300434 175 170 170
0.06918967 0.07417063 0.84534985 170 160 162
0.07070993 0.07826127 0.86672975 171 157 158
0.07043337 0.09009846 0.87264083 144 132 132
0.06989419 0.10989272 0.87455228 182 179 180
0.07000792 0.12975339 0.87597315 179 178 180
0.06999462 0.14954862 0.87717786 176 175 177
0.06943704 0.16957308 0.87832863 174 172 173
0.06951986 0.18953421 0.87937605 173 171 171
0.06787484 0.20072393 0.87994540 171 169 173
0.06980590 0.21058566 0.88044632 166 164 167
0.06967785 0.22957304 0.88137524 167 165 166
0.06975409 0.24964999 0.88234007 164 161 163
0.06982648 0.26975513 0.88325539 169 167 168
0.06989402 0.28988142 0.88410973 167 165 165
0.06995896 0.31003469 0.88493146 160 160 161
0.07002016 0.33020719 0.88570578 166 165 166
0.07007447 0.35038000 0.88639304 163 162 163
0.07010869 0.37047668 0.88682608 68 67 68
0.07011480 0.39043702 0.88690313 0 0 0
0.07012794 0.41044230 0.88706915 0 0 0
0.07014379 0.43047160 0.88726976 0 0 0
0.07016553 0.45054791 0.88754479 0 0 0
0.07019398 0.47068150 0.88790478 0 0 0
0.07022743 0.49009840 0.88832810 0 0 0
0.07024924 0.50253708 0.88860405 0 0 0
0.08958595 -0.48365496 0.72114341 0 0 0
0.08992330 -0.46859039 0.71729428 0 0 0
0.08950827 -0.47864412 0.72038617 0 0 0
0.09029379 -0.45032060 0.71159159 0 0 0
0.08991202 -0.42994771 0.70469126 0 0 0
0.09053657 -0.40622863 0.69723859 0 0 0
0.08929854 -0.41631315 0.70103447 0 0 0
0.09011017 -0.38942855 0.69160818 0 0 0
0.08969055 -0.37174053 0.69173881 140 141 141
0.09067710 -0.36337606 0.70845546 180 181 182
0.09786568 -0.36023952 0.72092799 185 185 187
0.08525568 -0.35931411 0.71793835 183 183 185
0.08977118 -0.35572427 0.73016637 185 186 187
0.09002351 -0.34698308 0.75020246 186 187 188
0.09435742 -0.34102921 0.76138788 182 182 182
0.08958929 -0.33112737 0.77122981 178 178 179
0.09395665 -0.32123662 0.78117948 177 176 176
0.08120325 -0.31988833 0.77991632 177 176 178
0.09003317 -0.31007720 0.79076491 156 155 155
0.08875565 -0.28961367 0.79784053 75 56 56
0.09844919 -0.29232621 0.80041464 94 77 78
0.08968957 -0.27004732 0.79462274 81 58 57
0.08975240 -0.25001102 0.79023240 80 56 53
0.08285867 -0.22140297 0.77963538 79 53 51
0.09030902 -0.23041088 0.78569560 81 55 54
0.08547372 -0.20922990 0.77696346 74 50 48
0.09510738 -0.21134710 0.78423785 90 64 61
0.08764501 -0.18964103 0.77312861 77 51 49
0.09750869 -0.19056655 0.78264164 103 71 66
0.08852300 -0.16971225 0.77028880 78 53 49
0.09921197 -0.17157592 0.78160571 108 78 70
0.08925623 -0.14955069 0.76999817 93 71 68
0.09944334 -0.15886663 0.78024477 111 78 78
0.08929519 -0.13079336 0.77602452 147 137 136
0.09331067 -0.12166003 0.78066826 155 146 145
0.09004872 -0.11039060 0.78487763 163 156 155
0.08995040 -0.09018107 0.79235462 169 161 160
0.08998796 -0.07351723 0.79804356 168 162 161
0.09022599 -0.06338713 0.80123740 170 162 162
0.08986438 -0.04996984 0.80522493 170 162 162
0.09000808 -0.02983503 0.81064080 171 163 162
0.09016266 -0.00949627 0.81572260 166 159 158
0.08905507 0.00477021 0.81901716 168 160 160
0.09013915 0.01464800 0.82118227 158 150 150
0.09012034 0.03021741 0.82449195 154 148 148
0.09020719 0.05035248 0.82898132 173 166 166
0.08960968 0.06579912 0.83299137 169 163 164
0.08862517 0.07339867 0.84969110 168 158 156
0.09084951 0.07778084 0.86794201 170 157 155
0.09010355 0.09004408 0.87264360 132 116 117
0.09030159 0.10989409 0.87456120 180 178 179
0.09045347 0.12976210 0.87603153 179 177 179
0.09045703 0.14975433 0.87726844 182 180 182
0.08993922 0.16958727 0.87840215 170 169 171
0.09004681 0.18955079 0.87945303 172 169 171
0.08477727 0.20030938 0.87998033 163 163 165
0.08965218 0.20989169 0.88047877 172 170 173
0.08948712 0.22958641 0.88142685 169 167 168
0.08958325 0.24965960 0.88237394 172 171 173
0.08967727 0.26976882 0.88330014 172 172 174
0.08976370 0.28989501 0.88415131 167 165 166
0.08984573 0.31004453 0.88495961 170 169 170
0.08992303 0.33021291 0.88572123 165 164 164
0.08999231 0.35038420 0.88640367 165 166 168
0.09003558 0.37047826 0.88682986 63 63 63
0.09004348 0.39043909 0.88690782 0 0 0
0.09006079 0.41044655 0.88707831 0 0 0
0.09008149 0.43047764 0.88728221 0 0 0
0.09010918 0.45055303 0.88755489 0 0 0
0.09014520 0.47068413 0.88790978 0 0 0
0.09018750 0.49009748 0.88832644 0 0 0
0.09021518 0.50253419 0.88859895 0 0 0
0.11683578 -0.48229110 0.71984154 0 0 0
0.10783515 -0.48379716 0.72048957 0 0 0
0.11018969 -0.46975555 0.71683092 0 0 0
0.10361068 -0.47960256 0.72016367 0 0 0
0.10994969 -0.44986803 0.71067013 0 0 0
0.11006339 -0.42968410 0.70382384 0 0 0
0.11040310 -0.40813122 0.69721986 0 0 0
0.10881179 -0.41793682 0.70069894 0 0 0
0.10986476 -0.39024538 0.69092795 0 0 0
0.10982699 -0.37417161 0.69181125 156 157 157
0.10989127 -0.36651073 0.70967047 183 184 184
0.11226530 -0.36162044 0.72461127 185 186 187
0.10845238 -0.35768377 0.73369012 188 188 189
0.11006900 -0.35052472 0.75034790 183 184 185
0.11118048 -0.34255745 0.76309632 179 179 180
0.10956279 -0.33332857 0.77312779 180 180 182
0.11083740 -0.32336112 0.78268799 172 172 173
0.10989850 -0.31024147 0.79291964 178 178 180
0.11720244 -0.30055064 0.80021179 174 174 177
0.10471984 -0.29906894 0.79994804 177 176 176
0.11037102 -0.29005393 0.80354973 164 160 159
0.10097278 -0.26554312 0.79921096 116 93 84
0.11054491 -0.27053141 0.80651462 141 124 120
0.10217863 -0.24952176 0.79782990 118 91 83
0.11220800 -0.25041546 0.80708809 130 107 102
0.10390304 -0.22926189 0.79647864 119 90 83
0.11352075 -0.23034579 0.80683072 129 102 95
0.10438404 -0.20950860 0.79445836 118 91 82
0.11421616 -0.21037254 0.80609002 126 99 89
0.10520459 -0.18977510 0.79262984 120 90 80
0.11503640 -0.19042111 0.80504301 127 99 89
0.10669600 -0.16953610 0.79155991 122 94 83
0.11675823 -0.17046135 0.80476891 129 100 88
0.10746862 -0.14965159 0.79020603 129 98 89
0.11746544 -0.15070324 0.80325248 132 103 94
0.10814377 -0.12997060 0.78981151 134 109 99
0.11820337 -0.13008036 0.80230666 138 113 102
0.10767346 -0.10967923 0.79058000 146 128 123
0.11803926 -0.10981787 0.80119375 143 118 106
0.10800100 -0.08962570 0.79452378 153 140 138
0.11809016 -0.08977566 0.80153981 142 117 110
0.10722702 -0.07392480 0.79843809 158 148 147
0.11165064 -0.06582197 0.80180543 154 141 139
0.11012416 -0.04970597 0.80595608 161 152 152
0.10979251 -0.02994004 0.81116077 164 154 153
0.11028536 -0.00950207 0.81632880 162 155 153
0.10900951 0.00341698 0.81931886 160 152 150
0.10991626 0.01334901 0.82142725 157 147 148
0.11013589 0.03023511 0.82497359 166 158 158
0.10999750 0.05046208 0.82931654 169 162 161
0.10980531 0.06582268 0.83328881 166 159 159
0.10866757 0.07348592 0.85069743 162 148 147
0.11008657 0.07790277 0.86930649 168 152 150
0.10970936 0.09004055 0.87262650 119 98 97
0.10994754 0.10988957 0.87452204 175 173 174
0.11014224 0.12976780 0.87606965 180 178 180
0.11029826 0.14966398 0.87731071 172 170 171
0.11044301 0.16959884 0.87846188 173 169 170
0.11047586 0.18945584 0.87951976 168 166 168
0.11900253 0.19879402 0.88000515 177 175 175
0.10999685 0.20961861 0.88053124 170 169 170
0.10989408 0.22947140 0.88147568 165 162 163
0.10941595 0.24967375 0.88242409 167 166 167
0.10952829 0.26977811 0.88333054 169 168 170
0.10963465 0.28990709 0.88418816 166 164 165
0.10973426 0.31005573 0.88499153 168 169 171
0.10982736 0.33022083 0.88574251 170 169 171
0.10991167 0.35039162 0.88642245 166 165 165
0.10996275 0.37048024 0.88683472 60 60 61
0.10997068 0.39043521 0.88689904 0 0 0
0.10999181 0.41044244 0.88706941 0 0 0
0.11001802 0.43047687 0.88728059 0 0 0
0.11005236 0.45055435 0.88755749 0 0 0
0.11009627 0.47068510 0.88791161 0 0 0
0.11014804 0.49009892 0.88832905 0 0 0
0.11018200 0.50253645 0.88860295 0 0 0
0.12963386 -0.48228284 0.71951959 0 0 0
0.12979746 -0.48600613 0.72043026 0 0 0
0.13001504 -0.46956939 0.71612612 0 0 0
0.12995003 -0.44961306 0.71004095 0 0 0
0.12999409 -0.42962419 0.70339062 0 0 0
0.13001124 -0.40888666 0.69704284 0 0 0
0.12980851 -0.41858204 0.70033186 0 0 0
0.12987945 -0.39045243 0.69046727 3 3 3
0.12988563 -0.37656813 0.69224412 178 179 180
0.12991267 -0.37006645 0.70987598 184 185 186
0.13063884 -0.36338612 0.72915940 185 187 188
0.13731529 -0.36019592 0.74082726 181 181 181
0.12381955 -0.35922696 0.73796430 185 186 187
0.12992096 -0.35369183 0.75049139 181 182 182
0.13035394 -0.34391790 0.76464074 180 181 182
0.12988601 -0.33477373 0.77464106 180 181 182
0.13024138 -0.32465257 0.78411826 175 174 175
0.12989133 -0.31126041 0.79418879 180 180 181
0.13097039 -0.30143567 0.80072656 182 182 183
0.13005704 -0.29048759 0.80643646 180 180 182
0.12998367 -0.27018943 0.81447571 178 176 177
0.12869627 -0.25155224 0.81773820 173 173 173
0.13597411 -0.24463125 0.82082785 183 182 183
0.12412508 -0.23057652 0.81732012 143 133 132
0.13402390 -0.22964533 0.82233114 183 182 182
0.12302602 -0.21019038 0.81587594 136 111 108
0.13356897 -0.20997501 0.82413909 177 173 174
0.12361989 -0.18958203 0.81512326 127 100 93
0.13381250 -0.19055048 0.82531569 157 144 141
0.12530051 -0.16966398 0.81471175 129 101 91
0.13472366 -0.17052394 0.82502537 139 114 110
0.12617359 -0.14972612 0.81356815 132 105 94
0.13616666 -0.15007999 0.82412518 131 105 96
0.12709633 -0.12969826 0.81246301 135 110 100
0.13719984 -0.13070977 0.82301381 133 108 97
0.12776946 -0.10979075 0.81147943 137 114 102
0.13780611 -0.11111749 0.82170177 133 108 95
0.12854378 -0.08986237 0.81155462 140 115 104
0.13845821 -0.09192379 0.82108254 136 111 98
0.12868891 -0.07010364 0.81211924 142 117 108
0.13863536 -0.06993179 0.82065035 140 116 103
0.12910976 -0.05020786 0.81360904 142 118 110
0.13866026 -0.04937216 0.82079778 142 117 102
0.12798031 -0.02994767 0.81467885 149 132 126
0.13806300 -0.02857969 0.82095567 141 116 104
0.12735870 -0.01003109 0.81752853 157 144 141
0.13700955 -0.00839096 0.82143217 139 116 109
0.12503553 0.00220330 0.81960819 169 161 161
0.13023552 0.01125574 0.82224685 156 146 145
0.13021272 0.03026050 0.82568940 163 156 154
0.12982138 0.05057798 0.82975715 163 155 155
0.12996114 0.06582345 0.83385221 164 154 154
0.12953831 0.07337125 0.85415696 163 151 147
0.13014586 0.07791287 0.87150862 153 138 136
0.13008434 0.09004970 0.87271555 119 99 97
0.12960863 0.10989888 0.87459471 176 174 176
0.12983935 0.12977991 0.87615191 180 178 180
0.13001967 0.14967390 0.87736919 171 168 171
0.13019043 0.16961042 0.87852160 177 174 174
0.13034313 0.18881168 0.87955213 167 164 165
0.13041595 0.19880266 0.88004339 169 167 168
0.13049607 0.20958079 0.88058412 168 166 167
0.13045039 0.22974663 0.88153180 164 163 165
0.13001259 0.24968618 0.88246814 168 166 168
0.12938098 0.26978796 0.88336282 168 166 168
0.12950730 0.28991923 0.88422513 169 168 168
0.12962379 0.31006591 0.88502066 167 165 166
0.12973264 0.33022881 0.88576398 166 165 166
0.12983140 0.35039792 0.88643836 171 171 172
0.12988927 0.37047975 0.88683378 57 56 57
0.12989517 0.39042433 0.88687434 0 0 0
0.12992023 0.41043134 0.88704538 0 0 0
0.12995314 0.43047169 0.88726986 0 0 0
0.12999507 0.45055362 0.88755603 0 0 0
0.12987320 0.47016249 0.88790294 0 0 0
0.13027533 0.48955297 0.88832600 0 0 0
0.13015103 0.50254638 0.88862051 0 0 0
0.14949322 -0.48215346 0.71932637 0 0 0
0.14969493 -0.48591714 0.72029836 0 0 0
0.15003903 -0.46923434 0.71576677 0 0 0
0.14998505 -0.44946033 0.70989142 0 0 0
0.15004313 -0.42938609 0.70327768 0 0 0
0.15006683 -0.40933190 0.69717554 0 0 0
0.14881523 -0.41902942 0.70028122 0 0 0
0.15076397 -0.38841525 0.69044380 67 68 68
0.14666334 -0.37843794 0.69510883 183 186 187
0.15004401 -0.37373004 0.70975250 185 187 188
0.15014799 -0.36625666 0.73014850 181 182 183
0.15155957 -0.36119167 0.74194137 177 178 180
0.14971632 -0.35507985 0.75201231 177 178 179
0.15018903 -0.34486903 0.76585564 181 181 182
0.14986976 -0.33557876 0.77584104 181 181 182
0.15017737 -0.32582458 0.78483597 181 181 182
0.14986781 -0.31230975 0.79481714 179 179 180
0.15082403 -0.30200130 0.80136455 179 179 181
0.14997239 -0.28995111 0.80830338 167 167 170
0.14981680 -0.27032525 0.81685130 176 176 178
0.15820747 -0.26086393 0.82039212 175 175 176
0.14419124 -0.25822058 0.81950366 178 177 180
0.15040975 -0.24931252 0.82231051 178 178 180
0.14993756 -0.23025047 0.82605121 177 176 179
0.15034500 -0.21000818 0.82969537 171 171 174
0.14982600 -0.19006631 0.83271981 178 178 181
0.14979330 -0.17008260 0.83484452 179 173 173
0.14908272 -0.15089595 0.83520847 153 137 135
0.15833497 -0.14679888 0.84078972 174 170 170
0.14854977 -0.12950758 0.83292025 133 108 100
0.15844427 -0.13193996 0.84115927 152 134 132
0.14978810 -0.10981951 0.83171317 133 106 96
0.15935760 -0.11951516 0.84016329 133 101 103
0.14950293 -0.08995851 0.83029782 134 108 97
0.14948073 -0.06997191 0.82952280 136 111 99
0.14937736 -0.04986472 0.82895783 138 113 100
0.14991389 -0.02964539 0.82902913 139 114 101
0.15015611 -0.00974892 0.82931136 138 113 100
0.15026486 0.01032654 0.82992804 138 112 100
0.15039663 0.03043730 0.83067190 146 126 120
0.14944162 0.05000740 0.83236104 155 143 140
0.14925243 0.06460384 0.83573598 157 149 146
0.15121573 0.07150039 0.85018127 164 149 144
0.15098464 0.07756831 0.87188006 146 127 126
0.15047528 0.09006649 0.87287309 129 109 108
0.14993022 0.10982337 0.87473057 171 169 171
0.14954317 0.12979478 0.87625273 178 176 177
0.14974685 0.14968704 0.87744645 169 166 168
0.14994088 0.16962236 0.87858354 171 170 172
0.15004486 0.18811731 0.87956436 164 160 162
0.15055778 0.19807617 0.88005938 176 175 175
0.15029100 0.20959294 0.88063518 172 170 172
0.15045207 0.22962603 0.88157887 167 167 169
0.15061186 0.24969945 0.88251525 164 163 165
0.14994493 0.26974942 0.88340230 174 174 175
0.14938339 0.28993484 0.88427275 167 166 166
0.14951554 0.31007792 0.88505508 167 166 166
0.14963840 0.33023567 0.88578248 161 160 161
0.14975195 0.35040435 0.88645465 160 159 161
0.14981473 0.37047660 0.88682651 54 53 54
0.14981673 0.39040863 0.88683870 0 0 0
0.14984603 0.41041599 0.88701214 0 0 0
0.14988739 0.43046539 0.88725679 0 0 0
0.14993775 0.45055298 0.88755475 0 0 0
0.14999665 0.46991329 0.88790335 0 0 0
0.15006984 0.48933546 0.88833646 0 0 0
0.15012206 0.50256047 0.88864541 0 0 0
0.16857592 -0.48206914 0.71956509 0 0 0
0.17168945 -0.48559750 0.72051649 0 0 0
0.17007633 -0.46938340 0.71598584 0 0 0
0.16999308 -0.44951858 0.71006635 0 0 0
0.17873367 -0.42016447 0.69994356 0 0 0
0.16986926 -0.42947192 0.70310743 0 0 0
0.17032959 -0.40995128 0.69739526 0 0 0
0.16486738 -0.41907326 0.70014168 0 0 0
0.17436228 -0.38220337 0.67804409 181 185 185
0.16941703 -0.38731345 0.69086906 108 109 109
0.17338621 -0.38063650 0.70120818 185 186 186
0.16046073 -0.37994272 0.69939411 185 189 190
0.16954867 -0.37654093 0.71050729 185 187 188
0.17001992 -0.36896076 0.73010934 179 180 181
0.17059423 -0.36217228 0.74379627 181 182 182
0.16972678 -0.35569010 0.75376858 180 181 182
0.17016693 -0.34588731 0.76645786 182 182 183
0.16999244 -0.33657400 0.77637964 182 183 184
0.16999779 -0.32629673 0.78555509 180 180 181
0.16999073 -0.31257855 0.79555188 178 179 180
0.16994804 -0.30253478 0.80171141 180 180 182
0.17005263 -0.28973874 0.80879348 167 167 169
0.16998139 -0.27168761 0.81709290 158 157 161
0.17052918 -0.26138609 0.82054841 177 176 180
0.16983524 -0.24964764 0.82381416 175 175 178
0.17016545 -0.22975184 0.82861068 172 171 173
0.16992779 -0.21012903 0.83264299 168 167 169
0.17014782 -0.18986499 0.83655098 172 172 175
0.16690200 -0.17334453 0.83888303 180 179 182
0.17295608 -0.16612888 0.84123672 175 173 175
0.17013735 -0.14981509 0.84317714 172 167 168
0.17062404 -0.12981978 0.84513769 173 170 171
0.16068059 -0.10491034 0.83948850 135 106 101
0.17049838 -0.11026140 0.84561246 161 150 149
0.16123041 -0.08893947 0.83886262 133 106 96
0.17104138 -0.09013699 0.84520166 141 120 116
0.16195741 -0.07001113 0.83858043 133 107 96
0.17193090 -0.06985841 0.84457760 134 107 98
0.16246362 -0.04996284 0.83808394 134 108 96
0.17303950 -0.05020065 0.84422990 135 107 96
0.16375514 -0.03016540 0.83796789 135 109 97
0.17378802 -0.03056988 0.84354955 134 108 96
0.16469437 -0.00985009 0.83774793 137 110 96
0.17442975 -0.00991031 0.84279637 135 108 96
0.16540624 0.01053800 0.83790260 138 113 97
0.17504549 0.01037072 0.84255123 135 110 96
0.16542060 0.02997033 0.83775576 138 112 100
0.17500797 0.03012401 0.84208396 137 109 97
0.16455065 0.04926250 0.83814431 140 115 101
0.17443500 0.05033202 0.84184807 138 112 99
0.16273193 0.06260561 0.83905859 140 114 105
0.17130066 0.06536627 0.84352528 143 119 112
0.17018047 0.07624995 0.87112687 147 129 127
0.17011960 0.09008417 0.87303451 135 119 117
0.17035729 0.11003292 0.87489046 181 179 180
0.17000436 0.12980622 0.87633032 179 177 179
0.16953692 0.14964408 0.87750822 172 172 174
0.16969364 0.16963375 0.87864286 173 172 174
0.16968014 0.18784126 0.87959288 163 162 166
0.17088672 0.19774957 0.88009509 171 169 172
0.17008976 0.20960687 0.88069377 167 165 167
0.17027201 0.22964132 0.88163753 171 169 170
0.17045195 0.24971472 0.88256929 170 168 168
0.17056146 0.26987216 0.88346194 174 172 171
0.16979916 0.28979010 0.88430274 163 161 162
0.16940881 0.31008994 0.88508934 166 164 166
0.16954589 0.33024431 0.88580568 155 155 156
0.16967496 0.35041438 0.88648000 165 164 166
0.16973970 0.37047319 0.88681860 48 48 49
0.16973753 0.39039487 0.88680750 0 0 0
0.16977026 0.41040043 0.88697849 0 0 0
0.16982056 0.43045782 0.88724112 0 0 0
0.16988005 0.45055151 0.88755182 0 0 0
0.16994850 0.46991646 0.88790931 0 0 0
0.17003361 0.48934509 0.88835389 0 0 0
0.17009441 0.50257526 0.88867156 0 0 0
0.18361453 -0.48106519 0.71986878 0 0 0
0.19062842 -0.48396941 0.72055913 0 0 0
0.19007864 -0.46972379 0.71655088 0 0 0
0.18996033 -0.44979744 0.71043202 0 0 0
0.19247100 -0.42180444 0.69968816 0 0 0
0.18935722 -0.43084123 0.70314573 0 0 0
0.19001627 -0.41040410 0.69655470 0 0 0
0.19003901 -0.38456100 0.67803955 183 185 186
0.18980886 -0.38772080 0.69010486 129 130 130
0.19159177 -0.38141432 0.70374763 186 188 189
0.18883301 -0.37799701 0.71328167 181 182 182
0.18999269 -0.37111925 0.72995206 178 179 180
0.19029006 -0.36319557 0.74500946 183 183 183
0.18980291 -0.35646059 0.75500564 183 184 184
0.19012745 -0.34641246 0.76737424 183 184 185
0.18984984 -0.33689315 0.77722631 182 183 184
0.19002079 -0.32701283 0.78576068 182 182 183
0.18989952 -0.31325470 0.79573044 183 183 185
0.19020133 -0.30318098 0.80190800 186 186 187
0.18997875 -0.28985981 0.80884952 183 183 185
0.19002273 -0.27154559 0.81687432 179 179 181
0.19039269 -0.26139780 0.82058525 178 178 179
0.18994224 -0.24974401 0.82415766 175 174 176
0.18991627 -0.22977821 0.82945414 175 175 177
0.19008379 -0.21022222 0.83386320 167 166 169
0.18959128 -0.19100883 0.83789950 171 169 171
0.19481935 -0.18140370 0.84028798 176 175 177
0.18216974 -0.17863219 0.83988960 182 183 184
0.19019094 -0.16971308 0.84262558 172 164 166
0.18994033 -0.15045567 0.84579434 168 158 159
0.19023641 -0.13020295 0.84833109 182 180 180
0.19001002 -0.10996885 0.85059509 182 181 183
0.18982182 -0.08978930 0.85237582 173 172 174
0.18966440 -0.06997766 0.85300458 155 145 143
0.19046988 -0.04988629 0.85286542 135 115 110
0.19024386 -0.02988561 0.85159474 134 107 99
0.18993991 -0.00999828 0.85023613 134 108 97
0.18974334 0.00983199 0.84935728 134 109 95
0.18962947 0.02967932 0.84859656 134 108 94
0.19025198 0.05014477 0.84834640 135 109 97
0.18924079 0.06435789 0.84990934 140 118 112
0.19036663 0.07513415 0.87171639 145 127 125
0.18977948 0.09010567 0.87323264 146 137 136
0.19016293 0.10994887 0.87499810 178 174 175
0.19046689 0.12981612 0.87639727 177 175 176
0.19001965 0.14975987 0.87757853 177 175 178
0.18957308 0.16954727 0.87870096 180 180 181
0.18943050 0.18708905 0.87962384 177 175 176
0.19039384 0.19701831 0.88013102 173 170 172
0.18989336 0.20962331 0.88076300 174 173 174
0.19009897 0.22966192 0.88171652 177 175 176
0.19029807 0.24973475 0.88264000 163 161 162
0.19049010 0.26983921 0.88353068 171 168 168
0.19042262 0.29012434 0.88436564 161 158 159
0.18955372 0.30994692 0.88513550 163 161 163
0.18945570 0.33025518 0.88583480 162 161 162
0.18959868 0.35042364 0.88650345 165 163 165
0.18966519 0.37047140 0.88681472 52 51 52
0.18965630 0.39037985 0.88677338 0 0 0
0.18969391 0.41038688 0.88694915 0 0 0
0.18975333 0.43045092 0.88722685 0 0 0
0.18982239 0.45055041 0.88754963 0 0 0
0.18990085 0.46992025 0.88791643 0 0 0
0.18999799 0.48935428 0.88837055 0 0 0
0.19006701 0.50258753 0.88869326 0 0 0
0.20972013 -0.48404112 0.72121150 0 0 0
0.20999180 -0.46929329 0.71698197 0 0 0
0.21073154 -0.47949436 0.72029629 0 0 0
0.20998057 -0.45002334 0.71086974 0 0 0
0.21000030 -0.42220960 0.69932253 0 0 0
0.21005975 -0.43189501 0.70332400 0 0 0
0.20991073 -0.41065480 0.69578064 0 0 0
0.20486030 -0.38856782 0.67887543 183 186 187
0.21024022 -0.38925536 0.68929976 162 163 164
0.21058278 -0.38274283 0.70722575 180 181 181
0.20879729 -0.37886853 0.71710722 174 175 175
0.20988756 -0.37283319 0.72998901 181 182 182
0.21018683 -0.36394262 0.74621370 184 185 186
0.20969150 -0.35690750 0.75616680 185 186 187
0.21012624 -0.34715078 0.76775063 185 186 187
0.20951736 -0.33749313 0.77759410 184 185 186
0.21018607 -0.32755588 0.78594186 185 185 187
0.20996640 -0.31339076 0.79600581 185 186 187
0.20991190 -0.30339786 0.80209286 185 185 187
0.20998917 -0.28985544 0.80898007 185 184 185
0.21018622 -0.27103061 0.81687451 181 181 183
0.20927037 -0.26099613 0.82053811 178 177 179
0.21002584 -0.24976086 0.82414982 176 176 180
0.20997087 -0.22985858 0.82977121 170 170 173
0.21009815 -0.20973504 0.83462419 170 169 173
0.20964037 -0.19282105 0.83836931 164 164 168
0.21043147 -0.18286374 0.84063584 177 177 179
0.21006984 -0.17041340 0.84341114 177 176 178
0.20995670 -0.15032736 0.84703729 170 167 170
0.21000728 -0.13062860 0.84988661 181 181 183
0.21016863 -0.11008875 0.85254647 174 172 175
0.20991582 -0.08996594 0.85464594 164 163 166
0.20977807 -0.07000477 0.85628077 164 162 165
0.21014270 -0.05011100 0.85776455 167 166 169
0.20835148 -0.03105176 0.85839837 152 146 147
0.21753398 -0.02698404 0.86047190 181 180 182
0.20631868 -0.01008055 0.85726675 139 116 110
0.21632994 -0.01053825 0.86100044 169 163 163
0.20708829 0.01018015 0.85681093 135 108 98
0.21691240 0.00912192 0.86095072 145 124 118
0.20852018 0.03020579 0.85637430 132 106 93
0.21887192 0.02810990 0.86062401 138 111 101
0.21036649 0.04998178 0.85605032 133 105 94
0.21960779 0.04117202 0.86001152 134 107 96
0.20793076 0.06250738 0.85550644 129 107 104
0.21085406 0.07326334 0.87160572 148 135 135
0.20966553 0.09000896 0.87356870 170 167 169
0.20985783 0.10996643 0.87514049 174 171 173
0.21017659 0.12982691 0.87647030 178 176 177
0.21046002 0.14972221 0.87765212 179 178 179
0.21008405 0.16975571 0.87879407 180 179 179
0.20913416 0.18622550 0.87966351 176 175 176
0.21009418 0.19615699 0.88017407 178 175 176
0.20970162 0.20964124 0.88083849 172 170 171
0.20992683 0.22967961 0.88178454 177 174 175
0.21014823 0.24975584 0.88271445 173 171 171
0.21036092 0.26986275 0.88360791 173 172 173
0.21055500 0.28998413 0.88442311 165 163 164
0.21014483 0.31023439 0.88520597 157 155 157
0.20936949 0.33027025 0.88587524 161 160 161
0.20952522 0.35043577 0.88653419 162 161 163
0.20959118 0.37047073 0.88681341 56 56 56
0.20957484 0.39036716 0.88674456 0 0 0
0.20961838 0.41037748 0.88692877 0 0 0
0.20968700 0.43044716 0.88721905 0 0 0
0.20976547 0.45055112 0.88755100 0 0 0
0.20985452 0.46992624 0.88792771 0 0 0
0.20996295 0.48936305 0.88838649 0 0 0
0.21003852 0.50259485 0.88870620 0 0 0
0.22975348 -0.48374188 0.72149236 0 0 0
0.23014447 -0.46897652 0.71723605 0 0 0
0.22989463 -0.47872130 0.72035367 0 0 0
0.23001902 -0.45018379 0.71104797 0 0 0
0.22958073 -0.42267623 0.69884808 0 0 0
0.22995022 -0.43245729 0.70325041 0 0 0
0.22996032 -0.41120620 0.69442959 4 5 4
0.22972908 -0.39285823 0.69010237 175 177 178
0.23046919 -0.38453649 0.70937624 178 180 181
0.23636423 -0.38039797 0.72111179 186 186 188
0.22389332 -0.37963563 0.71890738 184 185 186
0.22980420 -0.37500058 0.73051769 185 187 187
0.23033133 -0.36511854 0.74737225 186 187 188
0.22912401 -0.35764934 0.75716511 185 186 187
0.23028844 -0.34788459 0.76834897 186 187 187
0.22888156 -0.33799691 0.77811459 187 187 187
0.23021268 -0.32816792 0.78609945 185 185 186
0.23002329 -0.31349145 0.79615130 186 186 188
0.23001118 -0.30329558 0.80215914 186 186 187
0.22996411 -0.28974071 0.80881877 184 184 185
0.23004991 -0.27065308 0.81669942 181 181 184
0.22718490 -0.26094814 0.82028536 180 180 182
0.23018348 -0.25012763 0.82380055 179 180 182
0.22999570 -0.22988441 0.82974271 176 176 179
0.22996620 -0.20958200 0.83485881 175 175 178
0.22993151 -0.19318651 0.83864576 167 166 169
0.22994989 -0.18353873 0.84075808 170 167 169
0.23003434 -0.17032684 0.84373542 178 178 181
0.23006877 -0.15074657 0.84745838 169 168 171
0.23000953 -0.13036791 0.85062170 176 175 177
0.22998364 -0.11050143 0.85335145 166 165 168
0.23012326 -0.08976548 0.85572157 163 162 165
0.22990611 -0.07026557 0.85764275 165 163 167
0.22857105 -0.05219907 0.85917622 168 166 170
0.23417820 -0.04357342 0.86035896 174 170 173
0.22106773 -0.03909214 0.85990834 167 166 172
0.23043712 -0.03017020 0.86138909 161 160 163
0.22989165 -0.01020215 0.86291425 175 173 175
0.22959102 0.01000363 0.86399486 174 170 170
0.23028898 0.03010414 0.86401662 157 139 135
0.22101828 0.05453097 0.85971601 133 107 96
0.23047195 0.05005602 0.86303795 141 115 108
0.22102518 0.06047711 0.85974282 122 112 111
0.23044514 0.07056323 0.87173097 162 156 157
0.23010473 0.09029652 0.87385614 174 172 174
0.22961804 0.10992916 0.87527032 176 173 174
0.22988977 0.12983784 0.87654424 176 175 177
0.23020193 0.14973619 0.87773460 148 145 151
0.23049569 0.16967466 0.87885472 173 172 174
0.22960353 0.18544777 0.87970472 166 164 168
0.23032304 0.19531055 0.88020779 172 172 174
0.22951149 0.20965763 0.88090734 173 170 171
0.22975905 0.22969863 0.88185753 175 174 177
0.23000375 0.24977913 0.88279666 177 175 176
0.23023347 0.26988423 0.88367835 172 171 172
0.23044610 0.29000751 0.88449455 168 167 167
0.23058175 0.31020267 0.88525718 163 163 165
0.22959707 0.33011504 0.88593108 167 167 168
0.22945677 0.35045340 0.88657900 161 161 163
0.22952479 0.37048262 0.88684197 60 60 61
0.22949838 0.39036521 0.88674011 0 0 0
0.22954593 0.41037521 0.88692386 0 0 0
0.22962244 0.43044736 0.88721942 0 0 0
0.22971029 0.45055510 0.88755880 0 0 0
0.22980984 0.46993455 0.88794339 0 0 0
0.22992933 0.48937331 0.88840510 0 0 0
0.23001125 0.50260360 0.88872168 0 0 0
0.25004658 -0.48388589 0.72102493 0 0 0
0.25030544 -0.46936785 0.71720443 0 0 0
0.24798023 -0.47934164 0.72034070 0 0 0
0.25005397 -0.45019086 0.71103104 0 0 0
0.25035760 -0.42293680 0.69844804 0 0 0
0.24995818 -0.43246147 0.70315218 0 0 0
0.25039240 -0.40919944 0.69105315 65 65 66
0.24881844 -0.39646115 0.69353860 168 170 171
0.25009771 -0.38809227 0.70976625 173 175 175
0.25165820 -0.38155579 0.72330829 182 184 187
0.24943851 -0.37632631 0.73311840 186 187 188
0.25032044 -0.36644917 0.74878864 186 187 187
0.24840214 -0.35875156 0.75836103 185 186 187
0.25011913 -0.34895933 0.76907131 185 185 186
0.24906202 -0.33856549 0.77889774 186 186 187
0.25011654 -0.32887142 0.78637364 185 186 186
0.25000114 -0.31347346 0.79626321 184 184 185
0.25003018 -0.30329480 0.80181975 182 183 185
0.24998523 -0.29029376 0.80802464 183 183 185
0.24996835 -0.27057618 0.81611578 179 179 181
0.25612531 -0.25975780 0.81988399 182 182 184
0.24984709 -0.24994687 0.82337445 176 176 179
0.25004171 -0.22984299 0.82947248 177 176 179
0.24996108 -0.20964186 0.83479368 175 175 177
0.24982872 -0.19314889 0.83868445 171 171 173
0.25031198 -0.18355158 0.84081687 169 167 169
0.24993545 -0.17018585 0.84378927 175 174 177
0.24994654 -0.15049287 0.84770646 174 173 175
0.25007049 -0.13078202 0.85090088 175 175 178
0.25000582 -0.11020998 0.85381596 173 173 175
0.24995180 -0.09013958 0.85625696 167 165 169
0.25012099 -0.07002464 0.85842361 165 164 168
0.24809758 -0.05710905 0.85966375 170 169 171
0.25070562 -0.04737719 0.86070469 160 159 163
0.25002739 -0.03025788 0.86238863 164 163 165
0.25023980 -0.00996647 0.86427120 172 172 173
0.24960974 0.00997416 0.86589508 180 179 180
0.24980286 0.02964655 0.86711031 184 183 183
0.25030290 0.04992766 0.86818684 170 166 167
0.25003306 0.07042050 0.87241609 163 159 161
0.25038408 0.09018939 0.87404364 175 173 175
0.24996430 0.10995782 0.87541146 176 174 175
0.24960479 0.12984787 0.87661280 172 171 173
0.24993246 0.14974124 0.87776389 174 172 174
0.25025687 0.16968400 0.87890317 170 169 172
0.25049282 0.18504794 0.87973193 168 168 170
0.25037267 0.19512113 0.88024519 171 170 172
0.24974089 0.20948615 0.88095020 172 170 171
0.24959005 0.22971354 0.88191470 173 172 175
0.24985792 0.24979740 0.88286117 172 170 171
0.25010820 0.26990475 0.88374552 173 172 173
0.25033986 0.29003026 0.88456398 170 170 169
0.25055331 0.31017004 0.88531818 167 165 165
0.25009863 0.33036564 0.88601325 168 168 168
0.24939390 0.35047606 0.88663644 162 161 162
0.24946300 0.37049933 0.88688221 69 68 69
0.24942574 0.39036955 0.88674997 0 0 0
0.24947651 0.41037828 0.88693050 0 0 0
0.24956023 0.43045159 0.88722813 0 0 0
0.24965779 0.45056330 0.88757493 0 0 0
0.24976805 0.46994698 0.88796686 0 0 0
0.24989785 0.48938609 0.88842833 0 0 0
0.24998645 0.50261585 0.88874333 0 0 0
0.27204494 -0.48264792 0.71939269 0 0 0
0.26382358 -0.48432396 0.72039681 0 0 0
0.27014690 -0.46995285 0.71674292 0 0 0
0.26989650 -0.45026165 0.71068595 0 0 0
0.27064211 -0.42395213 0.69762222 0 0 0
0.26971221 -0.43395617 0.70332080 0 0 0
0.27050916 -0.40763906 0.69115689 126 128 128
0.27847786 -0.40051128 0.70069544 168 169 168
0.26504794 -0.39855529 0.69752765 168 170 171
0.26985558 -0.39265506 0.70995670 169 169 169
0.27105915 -0.38366511 0.72615359 176 177 178
0.26850630 -0.37762773 0.73561650 185 186 186
0.27019404 -0.36822358 0.75015093 182 182 183
0.27565928 -0.36051350 0.76040253 185 184 185
0.26179993 -0.35965324 0.75928065 187 188 188
0.27008410 -0.35019023 0.77011412 186 187 187
0.27873173 -0.34016150 0.78003746 185 186 188
0.26535574 -0.33948412 0.77943520 186 187 187
0.27009136 -0.32994405 0.78662093 184 185 186
0.26994504 -0.31360669 0.79634858 181 181 183
0.27005508 -0.30311208 0.80167304 178 177 179
0.26998332 -0.28998599 0.80758593 180 180 182
0.27002901 -0.27027347 0.81549798 179 179 181
0.27133132 -0.25899960 0.81955505 180 181 182
0.26978724 -0.24881027 0.82304479 177 178 179
0.27009381 -0.22971737 0.82897265 176 176 178
0.26998981 -0.20966720 0.83454220 178 177 179
0.26994526 -0.19321211 0.83860423 171 171 173
0.27023018 -0.18361371 0.84080358 171 170 173
0.27000029 -0.17045732 0.84376387 174 173 175
0.26996805 -0.15063047 0.84777866 177 177 178
0.26995896 -0.13043764 0.85109191 174 174 177
0.27005926 -0.11059345 0.85398228 175 174 176
0.27002060 -0.08986338 0.85661180 170 168 171
0.26989031 -0.07030545 0.85880454 168 167 169
0.26599447 -0.05944165 0.85989246 163 160 163
0.27041060 -0.04941135 0.86101096 161 159 163
0.26982183 -0.03043276 0.86295207 166 163 166
0.27020546 -0.01016488 0.86495222 173 172 175
0.26986948 0.00993633 0.86680215 184 184 187
0.26976395 0.02956653 0.86834069 181 180 181
0.27023455 0.04991573 0.86985445 173 171 172
0.26980815 0.07031256 0.87238265 177 175 176
0.27006690 0.09020389 0.87418466 179 177 177
0.27035796 0.11011214 0.87552843 176 174 176
0.26980653 0.12968884 0.87669559 171 170 172
0.26967563 0.14975247 0.87782985 179 178 180
0.27001849 0.16969224 0.87894603 175 174 176
0.26989640 0.18461023 0.87974166 170 169 170
0.27077320 0.19455118 0.88025140 172 171 172
0.27028620 0.20986418 0.88100741 171 171 173
0.26954152 0.22962456 0.88194945 174 174 177
0.26970834 0.24980950 0.88290391 175 174 175
0.26997879 0.26991811 0.88378923 173 174 176
0.27023511 0.29005136 0.88462819 173 173 175
0.27046562 0.31019265 0.88538274 167 166 166
0.27049286 0.33048170 0.88608421 169 168 169
0.26939757 0.35044589 0.88669694 167 167 168
0.26940878 0.37052401 0.88694142 74 73 74
0.26935701 0.39037890 0.88677123 0 0 0
0.26941077 0.41038648 0.88694823 0 0 0
0.26950138 0.43046055 0.88724658 0 0 0
0.26960857 0.45057577 0.88759946 0 0 0
0.26972942 0.46996307 0.88799727 0 0 0
0.26986914 0.48940201 0.88845725 0 0 0
0.26996319 0.50262916 0.88876688 0 0 0
0.28926109 -0.48244678 0.71764494 0 0 0
0.29008884 -0.47021656 0.71530470 0 0 0
0.29003858 -0.45009016 0.70883079 0 0 0
0.29058298 -0.42636010 0.69660770 0 0 0
0.28916068 -0.43592496 0.70244872 0 0 0
0.28979801 -0.40970378 0.69141587 157 160 159
0.29215842 -0.40219711 0.70323101 171 174 174
0.28897905 -0.39567850 0.71259000 173 173 174
0.29046874 -0.38606317 0.72947689 182 183 183
0.29730139 -0.38063588 0.74104798 184 186 186
0.28336656 -0.37939405 0.73852721 162 163 164
0.28984657 -0.37137121 0.75060930 178 179 180
0.29152795 -0.36152943 0.76160333 184 184 184
0.28986354 -0.35083596 0.77160445 182 183 184
0.29124132 -0.34063429 0.78047069 181 182 184
0.29010717 -0.33020346 0.78737059 179 179 181
0.28983197 -0.31343646 0.79671423 176 176 177
0.29011666 -0.30318574 0.80153066 177 177 178
0.28996055 -0.28995797 0.80717711 180 180 182
0.28997931 -0.27016817 0.81482688 179 179 181
0.29070328 -0.25777174 0.81924900 181 181 183
0.28960059 -0.24774490 0.82267415 174 173 175
0.29022041 -0.22975513 0.82827868 177 177 178
0.28984023 -0.20974231 0.83407220 179 180 183
0.29055624 -0.19300006 0.83836688 172 172 174
0.28925087 -0.18307076 0.84072143 165 163 167
0.29000040 -0.17036543 0.84362665 172 171 173
0.29004688 -0.15075518 0.84770199 179 178 179
0.28999723 -0.13075090 0.85108988 175 174 176
0.29000476 -0.11023593 0.85411715 174 174 177
0.29003510 -0.09016762 0.85678655 175 174 177
0.28962361 -0.07078963 0.85903692 168 168 171
0.29510806 -0.06185813 0.86010956 166 165 168
0.28989437 -0.05031405 0.86126618 166 164 167
0.29008596 -0.03014263 0.86340515 166 166 168
0.28985114 -0.01022327 0.86541163 180 178 179
0.29022040 0.01020131 0.86740982 182 180 182
0.28976429 0.02943588 0.86908219 173 172 176
0.29007527 0.04996698 0.87074489 180 179 180
0.29008354 0.07050245 0.87270186 179 176 177
0.28974550 0.09021499 0.87429410 175 172 174
0.29016747 0.11001965 0.87556765 171 169 171
0.29025718 0.13004361 0.87675853 166 164 166
0.28971415 0.14958280 0.87785750 171 170 171
0.28977612 0.16969705 0.87897101 176 175 176
0.29003482 0.18429249 0.87975569 176 176 177
0.29020253 0.19428872 0.88026437 171 170 171
0.29045473 0.20968669 0.88102939 170 169 170
0.28995059 0.22969666 0.88198238 170 169 170
0.28955486 0.24981656 0.88292887 172 170 172
0.28984613 0.26992660 0.88381702 167 168 171
0.29012356 0.29006279 0.88466301 167 167 168
0.29037465 0.31020870 0.88542852 163 163 164
0.29060386 0.33036422 0.88612741 167 168 169
0.28969534 0.35038547 0.88674157 159 158 159
0.28935847 0.37055048 0.88700472 82 81 81
0.28929625 0.39039772 0.88681400 0 0 0
0.28935239 0.41040398 0.88698609 0 0 0
0.28944687 0.43047470 0.88727578 0 0 0
0.28956176 0.45059026 0.88762799 0 0 0
0.28969264 0.46997996 0.88802917 0 0 0
0.28984315 0.48942035 0.88849054 0 0 0
0.28994374 0.50264729 0.88879893 0 0 0
0.30810006 -0.48154169 0.71510021 0 0 0
0.31028054 -0.47055876 0.71283471 0 0 0
0.30998244 -0.45023131 0.70611922 0 0 0
0.31081122 -0.42919287 0.69507404 16 16 16
0.30738495 -0.43798221 0.70105938 0 0 0
0.30952255 -0.41382141 0.69224341 170 173 172
0.31090872 -0.40469172 0.70693206 173 175 175
0.30736321 -0.39792715 0.71655411 177 178 177
0.31005512 -0.39057629 0.73007066 184 184 185
0.31167280 -0.38230261 0.74338048 178 180 181
0.30960674 -0.37276185 0.75314170 173 173 174
0.31091512 -0.36267432 0.76262735 174 175 176
0.30976966 -0.35154653 0.77275478 180 180 182
0.31090221 -0.34165786 0.78097663 177 179 180
0.30997919 -0.33009738 0.78833883 175 175 177
