ply
format ascii 1.0
element vertex 1050
property float x
property float y
property float z
property uchar red
property uchar green
property uchar blue
end_header
-0.33857923 0.51058221 1.38346044 153 152 149
-0.31493717 -0.00062451 0.45072615 165 166 162
-0.31415017 0.00537672 0.45185134 156 158 158
-0.31862299 0.19541743 1.09558758 166 165 162
-0.31529435 0.18974501 1.10607028 171 170 169
-0.30924714 0.19403330 1.12957478 158 154 153
-0.31417646 0.21736481 1.03394812 160 159 158
-0.31260216 0.21554323 1.04184254 158 158 158
-0.31025961 0.20133198 1.13423137 151 151 146
-0.31152061 0.22472061 1.03348340 158 156 154
-0.31003881 0.22893322 1.04130852 155 152 153
-0.26458377 0.03904946 1.93131578 159 157 157
-0.26515197 0.03807916 1.95022347 159 156 157
-0.26486586 0.03473034 1.97063243 159 154 154
-0.26547905 0.02989008 1.98796403 150 147 148
-0.26123513 0.04349673 1.90687251 155 155 156
-0.26118338 0.14784889 1.79336464 152 144 146
-0.26362857 0.14453373 1.81015414 162 153 153
-0.26755369 0.14192910 1.83710527 165 159 159
-0.26691715 0.14328628 1.85470074 167 162 162
-0.26391309 0.14266668 1.86748481 170 166 166
-0.24795834 -0.14813590 0.45319154 164 166 168
-0.24053164 0.01730237 1.92582905 149 148 148
-0.24365098 0.01077586 1.95080423 158 155 155
-0.24612540 0.00578357 1.97061586 163 156 156
-0.24284300 0.00932516 1.99968100 153 147 149
-0.24710111 0.03866400 1.91225159 162 162 160
-0.24417718 0.03142594 1.93210856 155 152 152
-0.25110584 0.03064028 1.95229825 154 151 152
-0.25899670 0.03293623 1.96490383 160 156 156
-0.24102631 0.05095037 1.87781680 154 147 152
-0.24445875 0.04641918 1.89180923 153 151 153
-0.24722051 0.04349690 1.90688008 153 151 151
-0.25738220 0.04441700 1.93243816 155 155 154
-0.25602826 0.04934500 1.94238353 155 155 155
-0.25099704 0.13837880 1.83214009 167 162 164
-0.25471617 0.15662310 1.76996464 156 155 158
-0.24907115 0.15221264 1.79551279 161 158 161
-0.24945562 0.15019204 1.80418766 162 158 161
-0.25156102 0.14255121 1.82474583 171 166 167
-0.25694150 0.14309245 1.85216355 167 162 163
-0.25906497 0.14104725 1.86747062 167 162 163
-0.25455381 0.16724770 1.76883644 161 160 160
-0.25018061 0.17046870 1.79066791 166 166 165
-0.24839718 0.18304559 1.77402495 170 166 167
-0.25055861 0.18252951 1.78392589 169 165 166
-0.23162914 -0.17403242 0.48620671 172 174 175
-0.23386087 -0.00103454 1.98213995 154 149 149
-0.23225485 0.01694370 1.88565552 152 151 152
-0.23255304 0.01885953 1.91494870 154 153 154
-0.22765622 0.01900282 1.92949732 162 155 157
-0.22892980 0.01470438 1.94985783 161 153 156
-0.23340863 0.00803881 1.96871185 159 154 154
-0.23569337 0.00812184 1.98796403 158 154 155
-0.22618797 0.03506440 1.89620471 164 159 159
-0.22970493 0.02958811 1.91013186 161 158 157
-0.23135093 0.02821938 1.92146456 160 158 157
-0.23499985 0.04845078 1.88903582 157 150 153
-0.23816402 0.04679029 1.90687251 152 145 149
-0.22347606 0.13326856 1.82720172 167 167 169
-0.22644788 0.13844646 1.84712589 172 172 173
-0.23356497 0.13639596 1.87005001 167 167 169
-0.23910534 0.13935508 1.88827813 166 166 166
-0.23701289 0.14824106 1.79812157 168 159 161
-0.23475011 0.15348821 1.81344032 163 160 161
-0.22758460 0.15224930 1.82757160 168 166 167
-0.23014157 0.14895029 1.84544973 174 171 171
-0.22810184 0.14830987 1.87051694 176 173 173
-0.23030449 0.14222266 1.88303292 176 174 173
-0.23855145 0.16633780 1.79218799 162 160 160
-0.23106132 0.16856556 1.81027657 159 155 156
-0.22566292 0.16903065 1.82604113 165 162 163
-0.22203077 0.17374920 1.85470074 163 161 163
-0.22225198 0.16386365 1.87005474 161 161 163
-0.22550872 0.18338471 1.83091885 175 173 171
-0.22238846 0.18437110 1.84879899 171 171 170
-0.22213642 0.23119105 0.73750904 168 166 165
-0.22519842 0.23306582 0.74243188 165 162 159
-0.22369313 0.24148122 0.73844427 159 159 157
-0.22619528 0.24165614 0.74330854 155 156 153
-0.20421425 -0.08032294 0.98245192 125 113 116
-0.20023768 -0.07670443 0.97961247 124 114 115
-0.20794722 -0.07339471 0.98606658 118 109 111
-0.21368365 0.03196943 1.87522310 169 166 164
-0.21625920 0.02512434 1.88827813 165 163 161
-0.21446699 0.04109956 1.87262940 174 173 171
-0.21891315 0.13896799 1.88303292 178 178 179
-0.21212310 0.15429705 1.85216355 180 179 179
-0.21638948 0.15035836 1.86748641 180 179 179
-0.21546988 0.17105827 1.84881276 164 163 164
-0.21811696 0.16802045 1.86234021 166 164 166
-0.21726810 0.18241227 1.85049963 163 163 164
-0.20299080 0.21805943 0.72785625 159 159 153
-0.20884189 0.22669893 0.72602763 164 163 162
-0.19363511 -0.08136454 0.98477320 106 93 94
-0.18089474 -0.08318486 1.01029495 95 85 90
-0.18065227 -0.08974655 1.02207634 111 104 104
-0.19619060 -0.07835990 0.97914128 114 106 105
-0.19217418 -0.06986669 0.98829549 123 111 113
-0.18989655 -0.05689560 0.97867008 123 103 105
-0.19379210 -0.05769597 0.98269166 125 110 111
-0.18461484 0.09157239 0.59745565 159 156 153
-0.18550280 0.08734678 0.60102968 164 162 159
-0.19940036 0.22396404 0.72516205 161 162 161
-0.17375498 -0.08411268 1.01633888 110 102 103
-0.17350950 -0.09037018 1.02162800 103 95 96
-0.17864214 -0.07248829 0.99815947 118 100 102
-0.17149048 -0.07329818 1.00781282 118 108 111
-0.17883160 0.09209202 0.59272467 153 148 148
-0.16680470 0.11992633 1.99968100 183 183 183
-0.15268449 0.01907628 0.48125644 150 143 138
-0.15058417 0.02929641 0.47955406 151 145 142
-0.15231681 0.02590456 0.48124471 146 138 136
-0.14322422 0.10991834 0.60212180 163 162 161
-0.15612910 0.12773552 1.99576004 174 171 171
-0.14579620 0.15401172 1.94983629 170 162 162
-0.15007978 0.15224871 1.97062912 173 167 166
-0.15574971 0.15552459 1.99091047 171 165 165
-0.14261979 0.17534020 0.65575401 160 160 159
-0.14391024 0.17884455 1.19348639 146 138 147
-0.14988458 0.17845458 1.95922494 162 158 159
-0.15325516 0.17235298 1.97349397 165 162 162
-0.15942295 0.17125648 1.99381335 164 164 163
-0.14762133 0.18858343 0.65747217 148 145 145
-0.14544770 0.19252998 1.19283590 151 147 148
-0.15054979 0.19019423 1.20327590 150 146 147
-0.14764412 0.18580844 1.95519662 157 155 155
-0.15401311 0.18612092 1.96871185 155 152 153
-0.15872195 0.18251948 1.98504627 159 152 154
-0.14426706 0.20840463 1.19253293 152 150 150
-0.14804159 0.21542735 1.20193589 158 157 157
-0.14981178 0.23898625 0.85594384 158 155 154
-0.15428311 0.23819925 0.86026883 158 152 152
-0.14701547 0.24892528 0.84725942 155 151 148
-0.14679179 0.24137980 0.86724502 162 161 159
-0.14725050 0.26219427 0.84891852 157 156 155
-0.12231312 -0.08524832 0.93405819 150 147 150
-0.12076626 -0.07640703 0.93459630 151 142 145
-0.12267540 -0.06651527 0.94723222 159 153 153
-0.12420025 -0.05990751 0.95477724 153 152 152
-0.13291780 0.11322297 0.60388908 155 152 152
-0.13172181 0.12276980 0.60486827 145 136 138
-0.13844396 0.14970560 1.89532069 166 158 157
-0.13790950 0.17758377 0.65800748 155 155 154
-0.13599982 0.17776829 0.66142374 159 155 155
-0.13662657 0.18209409 0.65866763 160 159 159
-0.13621845 0.18448765 0.66194094 160 159 157
-0.13474410 0.19368040 1.17022774 154 152 151
-0.13886101 0.19131860 1.18388608 156 154 153
-0.13015084 0.21262098 1.17318626 141 138 138
-0.13779519 0.20995103 1.18276496 146 144 145
-0.13751500 0.23777040 0.84903491 163 163 163
-0.12828997 0.22369565 1.16965979 141 140 143
-0.13450968 0.24805455 0.83830876 155 153 152
-0.13671619 0.24796112 0.84265857 156 155 153
-0.12903959 0.43668233 1.19910200 157 156 155
-0.13305548 0.43793389 1.20972939 152 151 148
-0.13222627 0.44689002 1.21463359 153 150 146
-0.12827328 0.45184250 1.23043625 154 154 152
-0.12525432 0.45727390 1.24383819 163 164 160
-0.12131107 0.44706517 1.26499308 148 145 145
-0.12670672 0.46118489 1.23702896 150 150 150
-0.12304443 0.46378784 1.24981693 159 159 159
-0.10416293 -0.34105480 0.74657817 169 169 168
-0.10647651 -0.33077066 0.74877824 154 155 156
-0.11648644 -0.08431210 0.93265687 158 152 153
-0.11508789 -0.07594045 0.93660647 161 155 157
-0.11480921 -0.06649067 0.94709182 149 148 152
-0.11392959 -0.05920511 0.95343625 142 138 145
-0.11739368 0.21715305 1.15583342 151 146 145
-0.11330288 0.43748514 1.23853656 146 146 145
-0.11124273 0.43626977 1.24878257 155 154 153
-0.10851728 0.43824507 1.26178402 158 156 155
-0.11281021 0.45797751 1.23703098 157 156 155
-0.11532694 0.44805775 1.25092433 148 147 146
-0.10665332 0.44989756 1.26816885 152 146 142
-0.11408629 0.46202800 1.23929036 152 152 150
-0.11763369 0.46426715 1.25175713 159 159 157
-0.10523673 0.46586224 1.26912391 154 153 148
-0.09907672 -0.34131237 0.74432640 176 177 175
-0.09675771 -0.33487289 0.74613339 160 158 157
-0.08832950 -0.28708527 1.17826009 177 176 176
-0.08345091 -0.28521844 1.18371351 172 171 172
-0.08279800 -0.26941877 1.18777847 166 165 166
-0.08000289 -0.25532863 1.17894232 141 141 144
-0.08174492 -0.25548632 1.18202680 144 144 148
-0.08260783 0.12549322 0.48734247 152 151 151
-0.08496425 0.15717458 0.71518273 152 149 149
-0.08490931 0.16383749 0.71225194 159 156 156
-0.09469534 0.43824286 1.26650983 154 148 148
-0.09489579 0.44857099 1.27339143 153 146 142
-0.09269159 0.45518645 1.28419639 156 151 147
-0.09631946 0.46569200 1.27184640 159 158 154
-0.09581925 0.46002999 1.28145909 158 153 147
-0.07557703 -0.28254634 1.17350082 171 171 174
-0.07810101 -0.28367061 1.18099630 171 171 173
-0.07305317 -0.27169048 1.17224854 159 159 161
-0.07712211 -0.26912026 1.18357665 162 162 163
-0.07243577 -0.25884776 1.17183149 145 144 147
-0.07810101 -0.25985596 1.18099630 148 147 147
-0.06835361 0.11503063 0.47945207 146 142 140
-0.07365486 0.11629083 0.48258802 152 147 145
-0.06779323 0.12698063 0.47826089 148 146 146
-0.07473670 0.12311795 0.48460081 142 139 138
-0.07701051 0.15708922 0.71819195 154 149 149
-0.07519125 0.15612058 0.72105217 157 154 153
-0.06480876 0.17864577 0.54472198 159 159 159
-0.06008222 0.16674263 0.62903716 154 151 152
-0.07617263 0.16597844 0.71095089 161 155 154
-0.06426056 0.18456461 0.54248369 156 156 155
-0.04140350 0.09700025 0.89510610 159 159 159
-0.04542835 0.09164882 0.91028586 152 148 149
-0.05582508 0.09142736 0.92642581 157 151 153
-0.04221224 0.10570168 0.89328210 145 141 142
-0.04615289 0.10193428 0.90225428 150 149 151
-0.04944440 0.16655144 0.62927360 161 156 154
-0.05850352 0.18326087 0.54093445 137 133 132
-0.03066597 0.09228867 0.87567200 145 144 144
-0.03534853 0.09149369 0.89083074 149 148 147
-0.03949941 0.08943241 0.90466299 147 140 141
-0.02892733 0.08521816 1.01663847 153 153 156
-0.02981238 0.09268922 1.02292675 151 146 146
-0.03061216 0.10152814 0.87413555 149 148 147
-0.03615300 0.10280320 0.88896064 149 146 146
-0.02892176 0.10631693 1.02868791 119 118 125
-0.03838004 0.16428926 0.62617118 153 144 142
-0.02066644 0.19973321 0.64580816 160 159 159
-0.02396005 0.20817499 0.63601845 133 132 130
-0.02339963 0.20189438 0.64649451 156 155 157
-0.00204944 -0.48660337 1.99478555 165 164 166
-0.00772438 -0.46731280 1.97636104 179 179 181
-0.00295752 -0.46984436 1.98854415 175 175 178
-0.00322211 0.01944072 0.49553603 163 159 160
-0.00160937 0.02404442 0.49205406 157 152 153
-0.00023992 0.07444411 0.53132499 154 146 146
-0.00735320 0.09956361 0.99836797 157 155 151
-0.01058310 0.09296038 1.01215807 148 143 143
-0.01775634 0.09476876 1.02107545 146 141 140
-0.00636179 0.10393498 0.99773998 161 154 153
-0.01164336 0.10446818 1.01022179 142 138 140
-0.01586077 0.19850454 0.63537228 157 156 154
-0.01920672 0.19883867 0.64377195 158 158 154
-0.01005238 0.20934903 0.63470889 144 140 141
-0.00207244 0.22115268 0.63554884 161 162 163
-0.00516300 0.37698306 1.79812157 158 157 157
-0.00831671 0.37587022 1.80771675 151 151 152
-0.00624852 0.38677102 1.80822717 159 156 156
-0.01029965 0.39540380 1.82721502 159 154 154
0.01627249 -0.50097704 1.98796976 173 170 171
0.01430892 -0.48838173 1.97427188 175 174 176
0.00850069 -0.49049094 1.98612063 173 172 175
0.01536986 -0.46563140 1.95922494 174 174 177
0.01221872 -0.47065642 1.97034020 174 174 176
0.00253838 -0.47004625 1.98796403 170 170 174
0.01576368 -0.45508484 1.97189993 173 172 173
0.01166933 -0.45370877 1.98407749 171 171 172
0.01951079 -0.34507459 0.88613313 170 170 171
0.01250604 -0.28807048 0.70841783 170 170 171
0.01435709 -0.27861395 0.70761231 167 167 169
0.01553846 0.02711370 0.47975361 139 138 138
0.00831855 0.02812799 0.48683622 153 150 151
0.00826205 0.07375413 0.52933993 160 155 156
0.00117413 0.21474250 0.63378246 147 147 148
0.01939562 0.23671481 0.59884441 150 145 140
0.01449971 0.23440664 0.60314805 141 139 139
0.00081275 0.22080196 0.63651818 150 149 148
0.00866854 0.24064809 0.60879487 141 141 137
0.01644007 0.30566275 1.65743732 165 164 164
0.01439724 0.31081808 1.66969953 168 167 167
0.01094440 0.31741638 1.69475071 170 169 169
0.01580569 0.32469565 1.69191909 167 163 164
0.01358299 0.33024878 1.71063166 167 162 164
0.00936126 0.33199908 1.72580463 167 161 163
0.01444634 0.34887486 1.73094470 166 164 165
0.01052810 0.35067300 1.74602687 166 164 165
0.00682015 0.35103986 1.76305068 160 156 158
0.01724100 0.36261436 1.73818421 158 158 158
0.01409002 0.36964507 1.74959278 158 158 160
0.00940896 0.37141638 1.77306974 161 161 162
0.00640555 0.37073013 1.78942976 165 165 165
0.00230208 0.37611597 1.80290389 164 165 165
0.00831333 0.38458470 1.75619650 162 161 161
0.00841508 0.38314387 1.77769113 154 154 156
0.00539673 0.38548952 1.79574311 150 150 152
0.00230700 0.38941739 1.80675521 155 154 154
0.03693469 -0.50663137 1.98990158 177 177 181
0.03975166 -0.48357913 1.95922494 177 177 181
0.03009262 -0.48817542 1.97218875 178 177 180
0.03453926 -0.49714456 1.98407749 174 174 177
0.02920684 -0.47007184 1.95859759 176 176 177
0.02767991 -0.46854641 1.97106290 174 172 173
0.03548497 -0.46367068 1.98562753 162 160 161
0.03969438 -0.44568847 1.95640188 166 162 164
0.03214331 -0.45321892 1.97005129 163 158 160
0.03165167 -0.45668831 1.98213995 161 156 157
0.03334674 -0.36731837 0.86907484 169 169 170
0.02702752 -0.36003974 0.88152385 147 148 155
0.03159865 -0.34896260 0.87676188 166 166 167
0.02778467 -0.34762893 0.88214247 168 167 169
0.03527636 -0.33733866 0.87620987 167 168 169
0.02477303 -0.33842050 0.88507689 173 172 174
0.02965531 -0.12095707 0.55733819 166 165 169
0.02492364 -0.12036552 0.56024116 149 148 152
0.03175869 -0.11577342 0.55553365 170 169 172
0.02589198 -0.11746052 0.56024116 171 171 171
0.02358571 0.23408150 0.59751336 146 140 137
0.02418380 0.23315070 0.60054208 148 143 142
0.03625587 0.35757226 1.71401501 159 159 159
0.02638694 0.35731496 1.72973439 144 143 145
0.03182735 0.36611866 1.71473730 148 146 149
0.02422276 0.36685587 1.73186257 146 146 148
0.04309658 -0.48480940 1.95734290 176 177 182
0.04676097 -0.48603940 1.96918786 176 176 181
0.04301371 -0.47712061 1.95357883 175 176 180
0.04372112 -0.36675870 0.86858141 171 170 170
0.04005283 -0.11496291 0.55519396 173 169 171
0.05819624 0.15302521 0.49936854 154 151 150
0.05580219 0.15298660 0.50048824 156 156 156
0.04809931 0.21607966 0.61804928 151 150 151
0.04501929 0.21481495 0.62158860 155 156 157
0.04938019 0.22186498 0.61839831 153 152 150
0.05079118 0.22491722 0.62143726 147 142 139
0.07932546 0.11789123 0.69813931 168 160 161
0.07844175 0.11958906 0.70102566 172 165 166
0.06437445 0.12720180 0.69957876 163 160 160
0.07271536 0.12812610 0.70476262 163 160 160
0.06326455 0.15266978 0.49810829 151 149 149
0.06116846 0.15300861 0.50028920 151 149 150
0.08564239 0.05539486 0.47515947 165 164 166
0.08572267 0.06060760 0.47579756 167 167 166
0.08847090 0.09581972 0.51478077 163 161 163
0.08906466 0.10102935 0.51584040 164 162 162
0.08069818 0.12599264 0.69957876 165 158 158
0.08126691 0.13075530 0.70577995 164 160 160
0.09722285 0.21457601 1.02859886 175 175 178
0.09304223 0.31761038 1.29225712 162 162 164
0.09105193 0.33073904 1.27212811 156 153 154
0.09224970 0.32852569 1.29232449 159 158 160
0.09842750 0.32787152 1.30197004 162 161 163
0.09706037 0.34107023 1.28388608 161 160 160
0.11926183 0.17956443 0.65878701 151 147 148
0.11984428 0.17872450 0.66200438 160 159 159
0.11896075 0.18206601 0.65712754 148 147 149
0.11773467 0.19321478 0.66574422 161 159 158
0.11065067 0.20253783 0.66597022 156 152 150
0.11838014 0.20017718 1.01862091 175 174 174
0.11085129 0.21342947 1.02902626 169 169 170
0.11917150 0.23521240 1.01785564 160 159 159
0.11483864 0.23264261 1.03233273 167 165 165
0.11531101 0.22669816 1.04178914 163 162 163
0.11289698 0.24094095 1.03300124 166 165 166
0.11120258 0.24441954 1.04210955 167 165 165
0.10508702 0.31549666 1.29215778 164 163 164
0.10092512 0.33583345 1.27663243 172 171 170
0.10646350 0.33164876 1.29646020 164 164 166
0.11051538 0.32916343 1.30393762 163 163 165
0.10792100 0.34221942 1.29771340 163 162 163
0.13909447 -0.22267986 0.93425049 139 139 144
0.13579295 -0.21168873 0.93620022 150 145 147
0.13120677 -0.21012577 0.94021058 130 120 122
0.13761960 -0.14007154 0.90748572 151 145 148
0.12968239 -0.13298203 0.89704155 153 152 157
0.13451839 -0.12936263 0.90433643 159 158 160
0.13412371 -0.11858035 0.90506417 135 129 137
0.13561283 0.17285094 0.45392684 156 155 153
0.12684705 0.17865619 0.46141709 158 157 156
0.12091137 0.17947727 0.65846720 153 149 150
0.12129117 0.17879909 0.66157361 163 162 162
0.12708953 0.18453544 0.46345088 153 153 155
0.13136435 0.18677780 0.57320854 159 159 160
0.12232101 0.18400977 0.65838850 155 154 154
0.12302240 0.19318409 0.66427262 157 153 151
0.12528999 0.19895680 1.01575966 176 175 177
0.13894083 0.19886468 1.02092147 173 173 173
0.12112600 0.20107110 0.66590554 167 164 162
0.12486074 0.20199641 1.01730197 177 177 178
0.12824196 0.21339301 1.02597557 167 167 168
0.12898673 0.22747504 1.03481837 171 167 167
0.12746374 0.23640599 1.04251006 171 168 167
0.12376444 0.33331865 1.29864335 167 166 165
0.12282140 0.32884416 1.30328206 166 163 164
0.15729640 -0.32233435 0.86800805 149 148 149
0.14920890 -0.32153819 0.88604821 157 157 159
0.15801570 -0.31916397 0.87289200 141 140 140
0.14866974 -0.31466992 0.88513066 160 156 158
0.14242716 -0.22223874 0.93338665 143 143 148
0.14328241 -0.21124838 0.93466588 158 158 158
0.14970205 -0.14179135 0.90846054 160 158 164
0.14279263 -0.13186434 0.89858447 161 158 165
0.14330186 -0.13284997 0.90465601 158 155 160
0.15513875 0.15514282 0.67088075 172 171 171
0.15501183 0.15141823 0.68336391 173 168 167
0.14123231 0.17202257 0.45430106 156 156 155
0.15458432 0.16427514 0.66732604 168 169 172
0.16359683 -0.32444675 0.85377248 152 147 149
0.16170416 -0.32165367 0.86359270 157 157 157
0.16295128 -0.32181551 0.88325608 119 117 117
0.16292080 -0.31929085 0.85701159 160 160 160
0.16040068 0.15108162 0.67011208 168 168 169
0.16088697 0.16429448 0.66612379 171 172 172
0.17875488 0.47566022 1.34770286 152 153 153
0.19818866 0.23185274 1.13619060 160 159 159
0.19694165 0.23485300 1.14470527 162 160 161
0.19837597 0.24358764 1.13931406 162 160 164
0.19870993 0.24103893 1.14123201 162 157 160
0.19814374 0.45110828 1.33706999 165 164 160
0.19132852 0.47741360 1.31407259 147 147 147
0.19411209 0.47286104 1.33362192 152 152 152
0.18673911 0.47379557 1.34653363 148 149 149
0.18988487 0.48042997 1.31715178 145 142 142
0.18690102 0.48331071 1.33602233 157 157 157
0.18759474 0.48236313 1.34801481 156 156 157
0.18459443 0.48507126 1.36214157 156 156 158
0.21492759 0.05168652 0.55113682 162 158 159
0.21860431 0.06087584 0.55292970 153 153 155
0.21270176 0.23431993 1.11399403 158 156 154
0.20450812 0.23215225 1.12763503 155 154 154
0.20384210 0.24659229 1.13209755 158 156 158
0.20604759 0.43873811 1.30759222 167 166 165
0.21234884 0.44340801 1.31666064 164 162 160
0.21009106 0.45260634 1.33334455 167 164 161
0.20788380 0.45751860 1.34402607 168 166 162
0.20952400 0.46988397 1.33615835 153 150 150
0.21044335 0.47193044 1.34297558 158 153 149
0.20000359 0.48029360 1.31885576 147 146 146
0.21220755 0.48492009 1.33545344 141 140 142
0.21826236 0.49426698 1.34236014 150 150 150
0.23237197 -0.24482605 0.73812355 155 154 156
0.23196673 -0.24235353 0.74249150 158 156 158
0.23137777 -0.23827161 0.74360792 162 161 161
0.23754477 -0.06556604 0.58825263 157 156 160
0.23860402 -0.01749112 0.50677232 135 132 137
0.23036601 -0.00178274 0.55234403 157 157 159
0.23326593 0.00643388 0.55166131 156 155 158
0.22125227 0.05004979 0.55208634 171 171 170
0.22193538 0.43983009 1.31374383 156 156 156
0.22051941 0.44154149 1.31885576 159 159 157
0.22441132 0.45250911 1.33348684 158 158 157
0.22367607 0.45791780 1.34236014 161 160 157
0.22743586 0.46695128 1.33801074 153 153 151
0.22551014 0.47392625 1.34298682 157 156 154
0.22477773 0.48171229 1.33970726 151 149 148
0.22597259 0.48757207 1.34488501 155 153 152
0.24403327 -0.24299512 0.74464471 157 155 155
0.24250330 -0.23807485 0.74534631 151 146 148
0.24896200 -0.06661248 0.58840293 154 153 155
0.25969962 -0.04602480 0.46469180 158 157 159
0.24825791 -0.02212917 0.50630172 149 146 147
0.24533107 -0.01579676 0.49936846 150 137 141
0.24542003 -0.01779068 0.50529961 155 153 155
0.25935810 -0.00274504 0.74412317 158 155 158
0.24110986 0.00574995 0.55158087 146 145 147
0.25733525 0.00749960 0.74965845 162 158 159
0.26699806 -0.22151575 0.49156749 160 162 165
0.26525955 -0.21659138 0.49101175 156 159 159
0.26314701 -0.04980061 0.46414358 162 163 165
0.27221343 -0.04523900 0.77592220 147 146 149
0.26984794 -0.04688292 0.78510157 156 156 157
0.27851165 -0.03254685 0.75922428 140 137 138
0.27488464 -0.02977017 0.77114890 152 150 153
0.26981892 -0.03147983 0.78493666 154 152 157
0.26259844 -0.00360679 0.73717540 155 154 157
0.26032355 -0.00520234 0.74289539 162 161 163
0.27219748 0.01451466 0.50255428 151 150 150
0.26325652 0.00143770 0.73776025 157 158 162
0.26256845 0.00588512 0.74780162 155 154 155
0.27486763 0.02071749 0.50367297 146 144 143
0.29771107 -0.10056689 0.72911252 152 148 148
0.29580919 -0.09460631 0.72970369 157 156 156
0.28197402 -0.03256731 0.75971315 138 136 137
0.28295802 -0.03000660 0.76275500 150 147 150
0.29867162 -0.00823845 0.57595154 154 153 158
0.29880509 -0.00782970 0.58063552 162 162 166
0.29188421 0.23318389 0.85278434 162 162 160
0.29383427 0.23939850 0.86190987 158 158 158
0.29706878 0.25119270 0.87346192 165 165 166
0.29862456 0.25126729 0.88267267 161 160 160
0.29668291 0.26109293 0.87469918 172 172 174
0.29338402 0.32894873 0.87263450 160 159 159
0.31785599 -0.32307297 0.66173602 153 153 157
0.30687838 -0.10224325 0.73015207 157 156 156
0.31830589 -0.08492928 0.45092614 161 161 161
0.30464545 -0.09520020 0.72935033 153 153 154
0.31203711 -0.02167991 0.45722061 155 155 156
0.31395603 -0.01590803 0.45821746 154 154 155
0.31787388 -0.00997853 0.46080944 154 154 151
0.30568642 -0.01037822 0.57482310 142 143 146
0.31838072 0.03841536 0.68391066 152 151 153
0.31823443 0.05522264 0.67839055 158 157 160
0.31829002 0.04675415 0.68439933 159 158 158
0.31873028 0.20767872 0.59608147 163 164 164
0.31766605 0.21963604 0.60310662 152 151 149
0.31794618 0.22418062 0.60252599 154 154 154
0.30598431 0.25161204 0.87676919 165 166 168
0.31360650 0.25394528 0.88251048 165 165 165
0.30696212 0.26290307 0.87662843 169 169 168
0.31180179 0.26438076 0.88367928 170 169 168
0.30619145 0.33202164 0.87583288 155 152 151
0.30716298 0.32813091 0.88768006 155 155 155
0.31729931 0.34408117 0.88953876 159 159 156
0.32359575 -0.32316867 0.65910760 148 152 153
0.33191672 -0.32487670 0.66261810 157 159 160
0.32586311 -0.31830806 0.66292727 151 151 154
0.33020699 -0.25075960 1.43926084 159 154 154
0.33576273 -0.25269212 1.45035580 156 150 150
0.33771375 -0.24822967 1.46097374 157 153 154
0.33798427 -0.22835613 1.49465471 173 165 165
0.33965439 -0.23979707 1.50308609 164 160 161
0.33757165 -0.12063021 0.48240018 162 162 163
0.33271327 -0.11067423 0.47975361 162 162 161
0.33581835 -0.11528652 0.48201286 165 163 163
0.32571706 -0.08369316 0.45111261 156 156 157
0.33122846 -0.07959183 0.45012739 152 152 154
0.33320246 -0.04436955 0.50556783 170 170 171
0.32187974 -0.02124116 0.45775395 161 162 163
0.33278408 -0.03970044 0.50702477 174 178 179
0.32609497 -0.02663498 0.77820444 161 158 155
0.33292853 -0.02319398 0.78863957 152 149 147
0.32239248 -0.01543825 0.45831326 154 154 155
0.33553212 -0.01458033 0.78873892 139 136 138
0.33286493 0.03388395 0.67256494 147 145 146
0.32641179 0.05559358 0.67286412 160 160 165
0.32219366 0.04577545 0.68511537 163 162 163
0.32549834 0.06053285 0.67225546 163 163 165
0.32878855 0.19499757 0.57197521 164 164 164
0.32696899 0.20224645 0.57443886 164 165 165
0.32231331 0.21450461 0.59764226 162 162 161
0.32213346 0.21652610 0.60074621 163 161 159
0.32370093 0.22093032 0.59884463 150 149 146
0.32215016 0.22219686 0.60110164 152 152 150
0.32136403 0.34957043 0.89609633 160 160 157
0.32349055 0.35636894 0.90749387 170 170 169
0.32545568 0.36466033 0.91395551 167 167 167
0.35025753 -0.26151625 1.46942951 165 159 158
0.35934548 -0.24258807 0.48577024 159 161 164
0.34687887 -0.25453262 1.47067265 155 151 151
0.35234807 -0.24833014 1.48806168 156 155 156
0.35043518 -0.24136249 1.50475621 163 164 164
0.35939296 -0.23929504 0.48611827 144 147 148
0.35002226 -0.22902388 1.49592989 164 163 163
0.35145800 -0.23217143 1.50420115 165 165 165
0.35535826 -0.21828762 1.49810535 154 151 151
0.35173416 -0.21925671 1.50475621 159 157 158
0.34715535 -0.12218969 0.48442012 168 169 172
0.34633682 -0.11601555 0.48461645 162 162 167
0.34145080 -0.04531996 0.50558506 177 178 180
0.34144512 -0.02271822 0.79165401 145 141 142
0.34007293 -0.01955350 0.79100567 128 115 126
0.34241143 0.03744074 0.65800654 149 149 149
0.34259648 0.03718523 0.66550589 130 128 130
0.34356795 0.04335752 0.66538572 151 151 149
0.35591585 0.15618057 0.49333191 141 143 145
0.35316430 0.16231914 0.49258140 157 157 155
0.35191848 0.17459725 0.59303374 159 158 158
0.35966277 0.18881068 0.47975361 177 175 164
0.35942428 0.18880023 0.48131225 170 169 163
0.34232611 0.19239867 0.57509194 158 158 157
0.35326281 0.18357514 0.59696458 157 159 159
0.34858508 0.18449757 0.60070189 159 160 161
0.36420033 -0.24257399 0.48577028 155 158 159
0.36256196 -0.24236499 1.49755355 136 134 142
0.36164135 -0.24189945 1.50810385 142 140 148
0.36472308 -0.23928308 0.48670435 157 159 160
0.36415670 -0.22853164 1.49645458 150 150 151
0.36376291 -0.23115589 1.50610271 143 140 145
0.36815938 -0.21974450 1.50810385 142 138 142
0.37121061 0.17744327 0.49037153 148 150 153
0.36072281 0.17854327 0.59401695 166 166 167
0.36713929 0.18532299 0.48674108 156 155 153
0.36365847 0.18448948 0.59816773 159 161 163
0.36659272 0.18908592 0.60043561 156 157 159
0.39382491 -0.24591691 1.17486436 153 153 155
0.39855075 -0.24997062 1.18347678 164 164 163
0.39203594 -0.23089314 1.16789974 144 144 149
0.38627667 -0.23464957 1.18254387 155 155 157
0.39104259 -0.21758544 1.16779401 139 138 141
0.39752452 0.05051734 0.47664618 155 155 156
0.39878845 0.15531693 1.73818421 167 166 168
0.39198540 0.15553598 1.75077425 163 160 160
0.38805113 0.15727195 1.77150508 157 156 156
0.38831108 0.17195414 1.75116727 161 156 156
0.39090126 0.16831489 1.76997381 160 155 155
0.39694941 0.16557096 1.78392589 160 156 157
0.38822627 0.18476790 1.77575648 157 154 161
0.38673358 0.18641660 1.79046237 160 159 164
0.40058847 -0.24438218 1.17283908 158 157 158
0.40094775 -0.25258839 1.18514013 165 164 163
0.40005150 -0.22692954 1.15878952 163 164 166
0.40024366 -0.23006315 1.16732740 148 148 153
0.41582295 -0.04396320 0.63678363 164 164 165
0.41550496 -0.04136415 0.64159294 150 150 148
0.41974786 -0.03791601 0.63952059 152 148 147
0.41842195 -0.03656854 0.64263739 139 136 136
0.40258404 0.05125638 0.47698045 150 150 152
0.40447074 0.04586793 0.48077531 139 140 141
0.40074573 0.15462480 1.73043850 167 166 167
0.40092421 0.15124738 1.76075804 163 161 162
0.40447493 0.16813090 1.73311983 169 168 170
0.40469735 0.17106987 1.74838362 171 170 171
0.40200355 0.16956941 1.77088646 162 158 160
0.40205809 0.18051279 1.77924371 155 150 152
0.40781569 0.18326189 1.79102373 143 142 144
0.41903070 0.24736839 0.80720968 159 159 160
0.42095747 -0.04046930 0.63911913 162 162 161
0.42180382 -0.04016462 0.64012450 159 159 158
0.42168222 -0.03819235 0.63952059 157 156 155
0.42275111 -0.03596617 0.64117405 151 148 148
0.43635548 0.10863057 0.47751931 156 157 159
0.43621346 0.23127862 0.81685607 161 160 159
0.43793304 0.23704892 0.82150102 157 157 157
0.42982587 0.24833731 0.81402578 162 162 163
0.43744356 0.24242884 0.82168819 159 162 163
0.45677250 -0.34315268 0.57949396 154 159 159
0.45610814 -0.34303730 0.58274719 160 164 164
0.45671240 -0.32764319 0.57752012 155 159 160
0.45750132 -0.33669393 0.58281353 164 168 168
0.44237278 0.09994318 0.47907552 159 163 164
0.44173794 0.10505639 0.47812016 158 159 161
0.44315193 0.10155450 0.48016897 159 162 164
0.45151355 0.17726424 0.45923776 154 154 152
0.45510433 0.17794602 0.46080329 151 150 149
0.45447825 0.18368675 0.46223075 151 152 149
0.45005638 0.23691656 0.55052171 155 156 153
0.44371516 0.23167857 0.81630243 163 163 162
0.44436573 0.23625915 0.82207174 158 157 156
0.44286817 0.24195281 0.53972280 155 155 154
0.44531824 0.24107362 0.54341283 155 155 155
0.44314841 0.24448881 0.81449849 168 168 169
0.44391232 0.24203689 0.82123492 160 157 158
0.46856139 -0.34096853 0.57927211 160 169 169
0.46480063 -0.34226010 0.58147478 161 168 168
0.46635606 -0.33167860 0.57841473 162 166 164
0.46593288 -0.33604810 0.58145638 164 169 168
0.47851704 -0.16325005 0.82559145 151 149 151
0.47725953 -0.15647022 0.82347423 159 160 162
0.47376243 0.07613898 1.43491484 162 161 163
0.47408208 0.08241041 1.43385131 162 162 166
0.49299208 -0.16522544 0.83251657 158 157 159
0.49354850 -0.14957422 0.81496156 168 167 166
0.49214256 -0.15471299 0.82770960 166 167 168
0.48329266 0.07487723 1.43795402 180 181 179
0.49053533 0.07538713 1.44653466 167 166 166
0.48268666 0.08436055 1.43773621 155 155 158
0.49020944 0.08851145 1.44618370 158 158 160
0.49321163 0.10002889 1.45783186 158 157 159
0.51715657 -0.38388729 1.16942074 162 162 163
0.51019381 -0.38161876 1.18513609 153 152 157
0.51859274 -0.36691845 1.15813037 159 159 163
0.51399648 -0.37260019 1.16685696 158 160 162
0.50963129 -0.37570153 1.18540863 157 157 159
0.50095619 -0.16200450 0.82872012 162 161 162
0.50044882 -0.15903734 0.82669860 163 163 165
0.51524452 -0.00504442 0.78944888 145 145 147
0.51458809 0.00813858 0.79274191 145 145 145
0.51838762 0.01894891 0.80034459 153 153 153
0.51802281 0.02195437 0.79893128 131 131 132
0.51757438 0.02452576 0.80176756 119 118 120
0.51936569 0.05829528 0.55262929 145 148 148
0.50804426 0.07747825 1.45431584 160 154 155
0.50834073 0.07492224 1.46953601 156 154 155
0.50682986 0.08382875 1.43926084 162 161 161
0.50419908 0.08640983 1.44869060 163 162 163
0.50575150 0.08119174 1.46350360 155 150 152
0.52150067 -0.38666264 1.16677725 161 161 162
0.52022392 -0.36913358 1.15878952 147 147 152
0.52182304 -0.00147473 0.79018639 142 142 144
0.52206352 0.00849800 0.79105124 149 151 152
0.52089982 0.02265123 0.79598271 143 142 144
0.52135962 0.02449242 0.80065991 111 107 113
0.52797170 0.05527087 0.55377474 153 155 155
0.52971039 0.06185634 0.55574096 147 147 149
0.53163823 0.14952242 0.99781051 162 163 165
0.53418573 0.15599299 1.00818552 158 158 160
0.53739169 0.16952785 1.01576081 153 153 156
0.53542726 0.17234223 1.02105537 159 159 161
0.53844959 0.18026859 1.00577426 159 158 161
0.54073507 -0.00646377 0.77873874 140 140 144
0.55644146 -0.00706682 0.79184134 143 143 143
0.54395125 0.16974531 1.01561008 150 150 153
0.54302961 0.17416057 1.02092147 157 157 159
0.54175979 0.18215979 1.01633569 154 154 157
0.55402809 0.53224100 1.67175585 170 168 169
0.55861145 0.54449928 1.79812157 165 164 162
0.55846884 0.54583806 1.80772018 161 160 159
0.56297631 -0.00397134 0.79505072 147 147 147
0.56171316 -0.00180193 0.80097524 154 154 154
0.57595826 0.01883561 0.49167939 131 138 137
0.56984222 0.01004187 0.81239861 141 142 143
0.57057066 0.01642116 0.82094100 130 129 131
0.57662098 0.02753649 0.49534124 139 145 146
0.57481790 0.02087443 0.82168710 146 147 148
0.57959402 0.04017268 0.49771795 146 147 148
0.57893582 0.15686562 0.79705545 155 155 156
0.57827452 0.16020261 0.79424965 154 153 155
0.56530857 0.54444138 1.71473730 170 167 168
0.57060083 0.55253492 1.73079018 167 166 166
0.57117170 0.55069447 1.81134445 170 170 168
0.57503591 0.55178442 1.82392720 167 167 165
0.57451159 0.56535280 1.74265254 161 160 160
0.57894093 0.56050915 1.76534331 166 163 164
0.57185646 0.56120062 1.82720172 168 168 163
0.57464910 0.56973469 1.84460706 165 165 160
0.57695240 0.57682130 1.86234021 166 165 161
0.57852161 0.58162647 1.87262940 165 164 160
0.59836775 -0.22410162 0.71529693 154 158 160
0.59983444 -0.22512461 0.72039515 149 156 158
0.59647751 -0.21429883 0.71005978 158 160 161
0.58216959 0.00476187 0.81871076 159 160 160
0.58224556 0.03090221 0.49609663 137 142 145
0.58217477 0.04117010 0.49772018 143 145 146
0.58217361 0.15628452 0.79714597 163 164 166
0.59243388 0.15815852 0.80433515 150 151 153
0.58310901 0.16325039 0.79720864 164 164 164
0.59392168 0.16879329 0.80461312 160 161 160
0.59831719 0.18123716 0.81055323 172 173 172
0.58045256 0.55891341 1.76995254 170 170 169
0.58890447 0.55626804 1.79102373 169 169 169
0.58071813 0.55084527 1.81134316 168 168 168
0.58351177 0.57726872 1.76995254 156 155 157
0.58658481 0.57098688 1.78865156 163 162 162
0.59160150 0.57017049 1.81352210 168 166 167
0.59094725 0.56987409 1.82845631 166 166 166
0.58953475 0.57341372 1.85134077 167 167 165
0.59143746 0.57843077 1.86234021 169 169 168
0.59123938 0.58956312 1.79574940 153 153 155
0.59283555 0.58958381 1.80771160 155 154 154
0.59545201 0.58835818 1.82918775 157 155 156
0.59640129 0.58701564 1.85442495 166 165 164
0.59187507 0.58716390 1.87220902 165 164 162
0.59180455 0.59226362 1.88494027 164 162 160
0.59922725 0.60225683 1.82720172 148 148 150
0.59787524 0.60096306 1.86234021 158 157 157
0.59710109 0.60286436 1.89461939 161 157 156
0.59763344 0.61070424 1.90956457 160 156 155
0.60292937 -0.22377603 0.71410919 161 165 165
0.60255975 -0.21825988 0.71265641 162 164 165
0.60215106 0.18460584 0.81511011 170 171 172
0.60092837 0.57532740 1.84209740 171 171 171
0.60431308 0.57843077 1.86234021 171 171 171
0.60256577 0.59924316 1.84711671 157 156 156
0.60723795 0.58931769 1.87135395 168 167 167
0.60084683 0.60705125 1.83214009 152 151 153
0.60709085 0.61019586 1.87090981 155 154 155
0.60364288 0.60912053 1.88904842 158 157 156
0.60366668 0.61562504 1.90777659 159 157 157
0.60494280 0.61812180 1.92582905 161 158 157
0.60631627 0.62423375 1.89885676 154 154 154
0.60814470 0.62455910 1.91494870 156 155 155
0.61106821 0.63092015 1.92765796 155 155 155
0.61314143 0.63319384 1.94657773 156 156 156
0.63646352 -0.93408260 1.89091539 170 171 171
0.63764060 -0.93899703 1.90419054 171 172 172
0.63219794 -0.12561964 0.73546931 156 159 163
0.64124304 -0.94099224 1.91494870 172 173 173
0.64764765 -0.94537395 1.93407482 167 168 170
0.65267465 -0.94528800 1.95289730 163 166 167
0.65117878 -0.94855899 1.96490383 164 166 168
0.64677538 -0.93278704 1.91171823 165 167 168
0.65296376 -0.93191672 1.93003951 168 171 172
0.65254415 -0.93656933 1.94704554 166 168 170
0.65554661 -0.90682858 1.89885676 161 162 163
0.65242300 -0.91277848 1.91033374 162 163 166
0.64803842 -0.91710430 1.92037344 163 164 166
0.64158466 -0.12632134 0.73820442 166 172 175
0.65421047 -0.13143439 0.74699228 159 164 166
0.67676687 -0.94235867 1.93131578 172 172 174
0.66889483 -0.94440177 1.94238353 168 170 171
0.67195666 -0.92323869 1.89885676 164 164 166
0.67089444 -0.92626222 1.91186629 154 154 156
0.66580567 -0.93361547 1.92745012 165 167 168
0.66385895 -0.93768728 1.94238353 172 176 177
0.66659096 -0.90786069 1.89153758 160 160 160
0.66521428 -0.91657829 1.90776650 157 158 159
0.66635704 -0.89927167 1.88303292 162 163 162
0.68010503 -0.94235867 1.93131578 171 171 173
0.69745007 0.21603310 0.59204621 140 141 144
0.69709252 0.22198476 0.59317655 147 147 148
0.70822720 0.21586806 0.59275755 142 144 147
0.73298466 -0.54434515 1.29001073 155 155 157
0.73947784 -0.54754272 1.30741072 168 169 171
0.72443986 -0.53755173 1.27304637 154 155 157
0.74786580 -0.54748993 1.31241678 162 164 166
0.75728131 -0.54777869 1.32271707 157 160 163
0.75524896 -0.52680159 1.32919967 174 178 180
0.75808638 -0.52621701 1.34236014 155 155 158
0.76116818 -0.54952121 1.31757528 168 171 172
0.76422143 -0.54426696 1.32939715 153 156 161
0.76304877 -0.52270192 1.31885576 170 174 175
0.76521476 -0.52947762 1.33231995 168 172 175
0.76656181 -0.52732739 1.34734455 164 166 168
0.77618313 -0.52643710 1.36397028 172 172 174
0.81407313 -0.50672658 1.12717129 150 150 151
0.81348455 -0.48395065 1.11863339 165 170 170
0.81360597 -0.49121316 1.12340896 160 167 168
0.80370539 -0.47579485 1.11312294 172 179 179
0.83564951 -0.52568410 1.14638801 154 152 152
0.82674652 -0.51106931 1.13265967 141 142 144
0.83780873 -0.51739776 1.14123201 155 157 156
0.82198419 -0.49357040 1.12586213 156 163 164
0.85313881 -0.00784074 1.73540582 156 152 151
0.85687280 -0.00995940 1.74415354 159 156 154
0.85844791 0.00510141 1.73818421 143 137 136
0.85721261 0.00626602 1.74715553 145 140 138
0.85985315 0.02324649 1.74714386 142 143 145
0.85715158 0.07026891 1.68715172 157 154 149
0.86145222 -0.00691583 1.73818421 157 152 151
0.86978597 -0.00982093 1.74857815 159 156 157
0.87212076 -0.00702310 1.76381489 158 152 151
0.86968805 0.01021809 1.74967862 140 137 138
0.86953303 0.01227186 1.76114015 141 138 139
0.87518622 0.03385695 1.73818421 152 148 147
0.87138196 0.02694855 1.74715766 147 147 147
0.87324545 0.03341748 1.76622260 150 150 150
0.86411846 0.05463374 1.69050336 172 161 161
0.86683813 0.05553191 1.71078100 157 149 148
0.87106581 0.04785608 1.72934080 154 147 146
0.87282997 0.04746602 1.74896606 154 151 151
0.87360894 0.04796269 1.76780620 145 145 147
0.86237431 0.06551101 1.69473664 161 157 152
0.86461289 0.06272644 1.70631344 155 151 148
0.88294739 -0.01216627 1.75360671 154 149 151
0.89220996 -0.00970387 1.76939149 151 148 150
0.89953887 -0.00093109 1.78392589 158 157 158
0.88883309 0.01323389 1.75468385 149 148 151
0.89281703 0.01027156 1.76689309 148 147 152
0.88397694 0.03508715 1.73522059 154 152 150
0.88793325 0.02593165 1.74927939 156 155 155
0.88559121 0.02913868 1.76845235 150 149 149
0.88248241 0.04415745 1.73818421 148 143 142
0.88475102 0.04125893 1.74265254 147 143 141
0.88025600 0.04649411 1.76995254 155 155 155
0.90262228 -0.00093109 1.78392589 158 158 160
0.90347996 0.01079853 1.77151312 148 147 151
0.91036245 0.17706033 0.93755516 157 157 156
0.91514435 0.17924288 0.94021058 156 157 156
0.91027936 0.19072660 0.93601187 149 151 152
0.91110536 0.18827689 0.94289128 149 152 155
0.90801084 0.20234630 0.93631947 156 157 159
0.91597295 0.20651530 0.94677818 158 161 163
0.93461433 0.13842524 0.89787155 149 154 154
0.93906020 0.13625711 0.90933569 147 150 151
0.93887774 0.14195264 0.91055587 151 156 159
0.92604528 0.17893016 0.94370379 158 159 159
0.92839522 0.18930349 0.94543499 151 154 154
0.93724400 0.20055033 0.95343435 155 156 157
0.94816536 0.13664972 0.91103585 145 149 150
0.94483942 0.13792568 0.92255518 147 147 150
0.94217794 0.14232437 0.91408501 150 154 157
0.95515513 0.33850172 1.01632965 153 158 160
0.95770597 0.34003109 1.02092147 156 160 159
0.95053313 0.45102534 1.69558330 164 164 165
0.95507161 0.45485844 1.71062233 165 165 166
0.95976371 0.45409492 1.72053766 160 159 161
0.95652809 0.46441668 1.71473730 169 168 166
0.95800716 0.46509613 1.72272664 171 170 168
0.96423806 0.13580099 0.91436650 136 141 142
0.97145355 0.24594714 1.17894232 151 151 152
0.97641845 0.25349026 1.19107984 152 154 155
0.97678385 0.25676253 1.20908521 140 142 144
0.97967267 0.26159504 1.20407081 158 161 160
0.97667825 0.33677556 1.03258526 150 158 157
0.97644076 0.34695618 1.03233231 149 154 156
0.97732615 0.37416079 1.03232634 119 118 120
0.96056709 0.44793148 1.71401501 155 156 155
0.96906325 0.44962983 1.73006433 158 158 158
0.97628778 0.45384957 1.75016920 166 167 168
0.96030021 0.46481043 1.71618187 168 167 163
0.97413135 0.47612002 1.72491562 158 158 157
0.98110632 0.25778084 1.18650929 149 149 149
0.98355611 0.25787142 1.21595246 143 148 149
0.98430906 0.25738810 1.22363412 139 140 140
0.98424104 0.26379517 1.21227837 154 157 157
0.99100070 0.26869081 1.22975745 156 159 159
0.99881238 0.27503929 1.24612474 167 173 169
0.98101610 0.33858180 1.03811920 148 157 156
0.98677731 0.35134470 1.03802045 154 158 160
0.99125460 0.35192175 1.04398516 153 157 159
0.99109981 0.36567465 1.03865155 143 144 146
0.99315692 0.36954205 1.04812416 140 143 144
0.98744637 0.45547164 1.73522059 159 159 157
0.98891147 0.45577211 1.74651558 155 154 152
0.98524302 0.45253682 1.76075804 159 159 159
0.99174277 0.47252277 1.71618187 152 152 155
0.99010697 0.47224127 1.72950994 156 156 155
0.99431256 0.46972798 1.74640309 160 159 158
0.99741638 0.47688344 1.76075804 155 155 155
1.00219893 0.27825256 1.24766592 170 170 168
1.00655991 0.28291446 1.25477731 158 159 158
1.01349626 0.29148824 1.26710016 150 152 154
1.01779342 0.29613130 1.28284991 106 110 117
1.01630116 0.30087657 1.27343587 149 155 156
1.00493525 0.35007764 1.05108819 154 156 160
1.01588717 0.35334154 1.06504026 151 153 158
1.00370577 0.37275697 1.05492987 138 141 143
1.01216412 0.37445890 1.06253059 141 143 144
1.00163726 0.47158798 1.74864876 162 162 160
1.01423713 0.46279249 1.78863287 159 157 154
1.02725203 0.29500979 1.27079295 156 157 158
1.02156925 0.29838374 1.29122257 98 106 112
1.02795923 0.30236401 1.27583857 161 162 161
1.03075168 0.30896983 1.29085655 140 143 144
1.03232187 0.31324425 1.30197004 133 139 141
1.02346373 0.35531008 1.07517159 148 151 156
1.03304092 0.46689209 1.81257089 161 158 156
1.04553902 -0.02792642 1.27454057 147 150 152
1.05153810 -0.03016227 1.28967400 147 150 152
1.05590269 -0.02779057 1.30679005 153 155 156
1.05982363 -0.01090383 1.31374383 167 169 171
1.04399632 0.31197543 1.29334545 161 161 160
1.04225242 0.47215900 1.83710527 162 158 157
1.05879879 0.47282785 1.85216355 161 160 158
1.06141047 -0.02413901 1.31290336 149 152 151
1.06986718 -0.02452487 1.32506020 154 156 156
1.06580138 -0.01859897 1.29616034 152 151 157
1.06868095 -0.01248212 1.31274083 149 150 152
1.07228364 -0.01444858 1.32662451 151 152 154
1.07767042 0.29223349 1.81740439 159 158 159
1.07951748 0.29511884 1.82228994 165 165 165
1.07951748 0.30141822 1.82228994 167 167 166
1.06109357 0.47673553 1.86747062 164 157 156
1.08273697 -0.02976399 1.34502882 160 161 162
1.09663621 -0.02904814 1.39448410 153 153 158
1.09756629 -0.03141707 1.40156957 152 152 157
1.08290568 -0.00808350 1.31661491 144 144 146
1.08688548 -0.01370689 1.32855448 131 130 134
1.09745559 -0.01269345 1.38487309 163 165 167
1.09505999 0.24538359 1.82720172 153 153 155
1.09701049 0.25904757 1.85723794 161 162 164
1.09129522 0.27164811 1.83273368 165 165 165
1.09546108 0.26352236 1.84813159 164 165 167
1.08898170 0.29073000 1.81618956 153 153 155
1.08920648 0.29066680 1.82400907 159 159 159
1.09069267 0.30689844 1.82824558 159 158 157
1.11812246 -0.04162709 1.39197505 163 163 164
1.11633796 -0.04846668 1.40895684 161 162 162
1.10718985 -0.03152104 1.39198407 162 163 164
1.10868270 -0.03035532 1.40330340 157 159 161
1.10208444 -0.01676600 1.39197894 148 149 153
1.10489452 0.24406786 1.81740439 170 170 172
1.11111966 0.25157715 1.83286086 162 163 165
1.10963546 0.25646021 1.85217813 151 151 155
1.10538912 0.25654033 1.86234021 157 158 160
1.11687171 0.26259002 1.83710527 161 169 173
1.11223168 0.26908772 1.84663239 154 158 160
1.10752384 0.28874459 0.97867008 166 171 170
1.11395878 0.29508218 0.98374793 151 152 155
1.10489452 0.28804517 1.81740439 157 157 162
1.10710744 0.28879404 1.82886118 153 154 155
1.11343884 0.28291789 1.84544820 155 156 157
1.11686364 0.30429229 0.98767814 142 142 145
1.10175323 0.30061013 1.81740439 134 132 135
1.10442320 0.30735785 1.83035647 149 147 150
1.10717094 0.31106234 1.84209740 154 153 155
1.10043693 0.59816825 1.69897699 149 149 151
1.10997856 0.59566461 1.70970573 150 150 151
1.11464071 0.60390198 1.71358597 148 148 149
1.12244843 -0.04726659 1.39607339 164 165 167
1.12700903 -0.04965712 1.41033190 157 157 157
1.13419402 -0.05232519 1.42115688 158 157 157
1.12651992 0.24921350 1.83214009 159 160 163
1.12835872 0.25610782 1.84377050 162 163 166
1.12842331 0.26986970 1.85259330 157 163 166
1.13865113 0.27102539 1.86234021 156 163 167
1.12217355 0.28966069 0.97890568 153 153 159
1.12621807 0.29579712 0.98411896 148 149 153
1.12004697 0.28164175 1.83710527 162 164 166
1.12396660 0.30695550 0.98807944 148 149 152
1.12789506 0.59532684 1.71618187 152 152 151
1.12990040 0.59673279 1.72085037 155 155 154
1.13184111 0.60746222 1.72394896 155 155 154
1.13802103 0.62777553 1.72933841 152 155 156
1.14195168 0.25904757 1.85723794 158 159 163
1.14667423 0.26687772 1.86426412 157 163 167
1.15399754 0.35679151 1.41034174 155 155 155
1.15625274 0.35901539 1.42564160 162 163 165
1.15881157 0.36128390 1.41522300 160 160 159
1.15859294 0.36742038 1.43926084 170 171 172
1.15856516 0.36820212 1.44232309 169 170 171
1.15688378 0.38455398 1.62759382 159 158 154
1.14472574 0.61430145 1.73098013 162 163 159
1.14727105 0.62964267 1.73200479 159 162 163
1.14557874 0.62471113 1.74355080 152 152 151
1.14913088 0.64460717 1.73707286 168 171 172
1.15540539 0.65065774 1.74828129 167 169 170
1.16116989 0.35939291 1.42714071 160 161 163
1.16123593 0.36449096 1.41818380 165 166 166
1.16797906 0.36996528 1.43239244 159 159 160
1.17005871 0.37483382 1.44868049 162 163 164
1.17803314 0.38262910 1.44787705 155 156 158
1.17797926 0.38262834 1.46413264 168 169 170
1.17380033 0.38493988 1.65099277 160 159 156
1.17869520 0.42308119 1.48173255 148 147 147
1.16497362 0.63388848 1.71618187 161 163 164
1.16869999 0.63212453 1.73024438 156 156 157
1.17045912 0.63019328 1.74587062 155 155 155
1.17699111 0.63123441 1.76688770 155 155 152
1.17090028 0.64501178 1.73443137 162 165 166
1.16924406 0.64966544 1.74921083 161 164 165
1.16580518 0.65700958 1.76228646 163 165 165
1.16178179 0.66384548 1.75619650 163 164 160
1.16744469 0.66719300 1.77113813 160 160 158
1.17087448 0.67212741 1.78627938 159 159 157
1.19953454 -0.39554060 1.09337389 163 167 168
1.18397367 0.14929409 1.23929036 144 143 144
1.18959287 0.14985885 1.24646219 144 144 145
1.19734287 0.35149854 1.69897699 141 141 144
1.19740736 0.35238171 1.70324588 139 139 141
1.18158892 0.37801336 1.43697709 152 154 155
1.19412506 0.37905052 1.67795014 170 166 160
1.18595707 0.39229682 1.43926084 141 142 144
1.18869066 0.39047051 1.45095893 154 155 156
1.19035151 0.39111297 1.46961396 161 162 162
1.19441749 0.39684341 1.48417588 156 156 155
1.18823458 0.38223971 1.66815351 166 164 158
1.19713036 0.38353508 1.68491030 168 164 158
1.19723184 0.40265672 1.47459923 155 155 154
1.19573364 0.41085360 1.49014967 148 148 148
1.18852385 0.42298034 1.48702229 150 150 152
1.18288469 0.63138342 1.73373878 160 160 160
1.18449587 0.62952998 1.74940121 153 153 153
1.19026121 0.63361542 1.76998071 153 153 153
1.19401455 0.63543263 1.78510264 157 157 155
1.18297136 0.65740383 1.74714386 160 161 161
1.18005955 0.65986764 1.76995254 159 160 161
1.18415395 0.66351140 1.77151318 157 157 158
1.20465475 -0.40196413 1.07517159 148 156 156
1.21388569 -0.40253993 1.08550718 142 149 149
1.20853593 -0.39577725 1.09486980 152 159 160
1.21236094 -0.38742765 1.10238696 151 154 155
1.21246068 -0.37825328 1.10428424 157 161 162
1.20160210 0.15832511 1.26002204 144 151 151
1.21283855 0.16372047 1.27048874 148 152 156
1.20615244 0.34856200 1.69897699 146 146 151
1.20633762 0.35592926 1.70815522 136 136 140
1.20838747 0.37894446 1.69306014 169 164 158
1.21271039 0.36906060 1.71239981 150 149 150
1.21848512 0.36488063 1.72053766 144 143 147
1.20151699 0.39573075 1.47050887 156 156 157
1.20171189 0.39831537 1.48011315 159 159 159
1.20988144 0.38285946 1.69051035 169 166 159
1.21016431 0.38280225 1.70324588 166 162 155
1.20188334 0.40419398 1.48856530 156 156 155
1.20224571 0.40800029 1.50642633 156 157 155
1.20316809 0.63411638 1.77924371 152 152 152
1.20640597 0.63549648 1.78745613 153 153 152
1.22123003 -0.40277280 1.09249932 137 144 146
1.22641122 -0.40097447 1.10181585 130 135 141
1.22229397 -0.39996532 1.09514034 131 138 144
1.22950978 -0.38932816 1.10629032 146 150 152
1.22910503 -0.37835581 1.10948582 152 159 159
