ply
format ascii 1.0
element vertex 1063
property float x
property float y
property float z
property uchar red
property uchar green
property uchar blue
end_header
0.12099444 0.21664198 0.64377195 142 145 155
0.12141532 0.21541455 0.64012450 140 145 152
0.12217562 0.21480604 0.63831621 139 143 152
0.12304717 0.21440226 0.63711637 138 142 154
0.12391545 0.21400000 0.63592106 138 145 152
0.12396795 0.21220838 0.63059705 141 148 154
0.41197830 0.41401815 1.23029375 144 150 157
0.41112024 0.41103426 1.22142673 144 147 155
0.40591753 0.40375930 1.19980860 145 147 155
0.40512317 0.40092093 1.19137406 149 149 158
0.40861863 0.40233511 1.19557643 152 152 161
0.40924156 0.40092093 1.19137406 162 162 171
0.40700892 0.39673740 1.17894232 162 162 171
0.40622073 0.39399657 1.17079771 164 164 172
0.41037065 0.39604864 1.17689562 160 160 168
0.41169009 0.39536223 1.17485583 157 158 163
0.41087240 0.39264029 1.16676736 158 159 164
0.41288903 0.39264029 1.16676736 166 167 169
0.42291266 0.40021756 1.18928397 169 171 172
0.42274329 0.39812219 1.18305731 167 169 170
0.21254107 0.17934278 0.53293383 153 153 153
0.21346220 0.17934278 0.53293383 158 159 157
0.21421494 0.17920189 0.53251517 152 152 151
0.21496648 0.17906123 0.53209722 144 145 146
0.21588616 0.17906123 0.53209722 140 143 144
0.21680585 0.17906123 0.53209722 139 143 145
0.21858341 0.17976674 0.53419375 140 143 147
0.21933387 0.17962520 0.53377312 141 144 149
0.22043002 0.17976674 0.53419375 143 147 154
0.86641395 0.43618357 1.29616034 146 151 154
0.86369991 0.43369582 1.28876781 141 146 149
0.85777372 0.42961207 1.27663243 134 142 145
0.86815500 0.43369582 1.28876781 131 139 142
0.86873096 0.43287289 1.28632224 132 139 141
0.88154131 0.43701917 1.29864335 138 144 146
0.87873572 0.43452191 1.29122257 142 146 147
0.87265646 0.43042266 1.27904117 144 148 149
0.86831391 0.42719853 1.26946032 153 157 157
0.86725986 0.42560449 1.26472354 158 162 162
0.86782676 0.42481193 1.26236844 162 166 165
0.98174918 0.38020667 1.12981975 122 126 128
0.97880793 0.37831509 1.12419879 114 119 121
0.98269409 0.37831509 1.12419879 125 128 133
0.97814864 0.37582210 1.11679053 125 126 133
0.96890539 0.37153748 1.10405838 118 120 126
0.96766168 0.37033117 1.10047376 121 123 126
0.64525694 0.21935001 0.65181905 122 130 135
0.64329082 0.21830049 0.64870036 137 145 149
0.64256734 0.21767558 0.64684337 151 159 162
0.64123791 0.21684791 0.64438391 156 165 165
0.63564658 0.21201116 0.63001102 169 177 173
0.63555413 0.21161781 0.62884218 172 178 174
0.63664109 0.21161781 0.62884218 174 179 176
0.64069968 0.21260393 0.63177246 172 176 175
0.61686403 0.17387500 0.51668584 160 167 169
0.61354828 0.17269039 0.51316565 155 162 164
-0.18855296 0.15358050 0.45404679 111 124 130
-0.18773787 0.15420020 0.45587885 105 117 121
-0.18732785 0.15451191 0.45680043 98 113 117
-0.18628724 0.15430397 0.45618564 92 107 111
-0.18549876 0.15430397 0.45618564 84 97 101
-0.18483467 0.15440787 0.45649281 80 92 98
0.06859504 0.24523602 0.72501802 168 169 173
0.06984818 0.24523602 0.72501802 171 173 177
0.07110132 0.24523602 0.72501802 167 171 174
0.07243191 0.24549860 0.72579426 161 165 166
0.07360759 0.24523602 0.72501802 160 163 165
0.07494087 0.24549860 0.72579426 156 157 161
0.07611385 0.24523602 0.72501802 150 152 156
0.07720185 0.24471258 0.72347051 144 146 151
0.07828521 0.24419136 0.72192955 140 141 147
0.07953301 0.24419136 0.72192955 131 137 143
0.08069487 0.24393159 0.72116154 122 127 136
0.08176737 0.24341369 0.71963042 122 126 137
0.08274766 0.24264094 0.71734589 124 128 140
0.08407650 0.24289797 0.71810579 129 132 144
0.08522741 0.24264094 0.71734589 136 138 151
0.08601219 0.24136388 0.71357036 138 141 153
0.08687973 0.24035187 0.71057844 141 141 153
0.08801565 0.24010020 0.70983440 143 143 154
0.08924254 0.24010020 0.70983440 143 143 149
0.09046943 0.24010020 0.70983440 141 141 150
0.09188876 0.24060409 0.71132410 138 138 149
0.09292322 0.24010020 0.70983440 132 131 150
0.09356228 0.23860113 0.70540255 132 133 151
0.09438863 0.23761211 0.70247859 124 125 144
0.09560281 0.23761211 0.70247859 129 129 148
0.09681699 0.23761211 0.70247859 128 130 145
0.09792969 0.23736614 0.70175141 127 129 144
0.09904008 0.23712067 0.70102566 132 134 147
0.11709964 0.21879360 0.64684337 138 144 150
0.11799248 0.21837685 0.64561129 137 144 150
0.11899504 0.21816906 0.64499700 140 143 154
0.12010986 0.21816906 0.64499700 136 139 151
0.12099444 0.21775469 0.64377195 134 136 149
0.12141532 0.21652095 0.64012450 132 133 145
0.12217562 0.21590932 0.63831621 130 132 144
0.12304717 0.21550347 0.63711637 128 130 143
0.12403180 0.21530111 0.63651818 129 135 142
0.12419903 0.21369588 0.63177246 132 138 145
0.41272736 0.41690126 1.23253059 143 146 156
0.41260710 0.41463959 1.22584414 137 140 149
0.40881178 0.40872672 1.20836341 139 143 152
0.40727046 0.40511605 1.19768882 140 144 152
0.41079214 0.40655264 1.20193589 147 151 158
0.41068509 0.40440157 1.19557643 155 158 166
0.40842956 0.40016699 1.18305731 154 156 164
0.40833649 0.39808279 1.17689562 154 156 163
0.41251919 0.40016699 1.18305731 152 155 160
0.41312203 0.39877510 1.17894232 153 155 160
0.41229165 0.39602017 1.17079771 155 157 162
0.41647315 0.39808279 1.17689562 155 159 160
0.42365593 0.40298012 1.19137406 161 165 165
0.42496824 0.40227315 1.18928397 161 165 165
0.21270829 0.18040574 0.53335315 157 158 158
0.21363015 0.18040574 0.53335315 163 163 162
0.21421494 0.18012230 0.53251517 160 160 158
0.21496648 0.17998092 0.53209722 159 159 157
0.21588616 0.17998092 0.53209722 152 153 152
0.21680585 0.17998092 0.53209722 142 144 146
0.21875578 0.18083256 0.53461504 141 144 147
0.21950671 0.18069007 0.53419375 141 145 148
0.22043002 0.18069007 0.53419375 143 147 153
0.85924488 0.43592337 1.28876781 151 157 157
0.86311328 0.43675369 1.29122257 146 154 154
0.86042833 0.43427214 1.28388608 142 150 150
0.85616136 0.43100694 1.27423275 136 145 145
0.86486655 0.43427214 1.28388608 132 141 142
0.86381358 0.43263337 1.27904117 129 138 139
0.86766142 0.43345121 1.28145909 129 138 139
0.87817669 0.43758720 1.29368675 131 139 140
0.87374288 0.43427214 1.28388608 129 133 136
0.86937582 0.43100694 1.27423275 138 142 145
0.86669087 0.42859006 1.26708758 150 154 154
0.86725986 0.42779046 1.26472354 153 157 156
0.86782676 0.42699385 1.26236844 154 158 157
0.98338813 0.38279748 1.13170588 130 135 138
0.98043388 0.38088986 1.12606621 120 125 129
0.98300701 0.37962863 1.12233746 122 124 131
0.97366267 0.37527937 1.10947931 115 116 123
0.97239739 0.37405497 1.10585940 111 114 119
0.96956372 0.37223327 1.10047376 114 118 121
0.97146583 0.37223327 1.10047376 121 125 127
0.97336793 0.37223327 1.10047376 132 138 138
0.97211385 0.37102863 1.09691238 139 145 145
0.65101606 0.22283351 0.65878701 114 124 132
0.64962941 0.22197066 0.65623605 115 124 130
0.64700568 0.22068882 0.65244645 125 133 139
0.64502931 0.21963188 0.64932168 141 149 155
0.63742375 0.21369588 0.63177246 169 179 176
0.63732779 0.21329832 0.63059705 175 179 178
0.63841772 0.21329832 0.63059705 170 174 173
0.64189613 0.21409495 0.63295221 162 166 165
0.64000225 0.21310008 0.63001102 158 162 161
0.64256638 0.21250759 0.62825936 153 156 156
0.64246148 0.21211442 0.62709701 147 151 150
0.64176434 0.21152739 0.62536150 148 152 151
0.61639422 0.17463495 0.51629233 158 164 167
0.61354828 0.17357735 0.51316565 156 160 163
-0.18745416 0.15540618 0.45710847 100 110 116
-0.18641269 0.15519688 0.45649281 95 104 110
-0.18537402 0.15498814 0.45587885 88 97 101
0.06734191 0.24648917 0.72501802 166 167 174
0.06859504 0.24648917 0.72501802 166 167 175
0.06984818 0.24648917 0.72501802 167 169 176
0.07110132 0.24648917 0.72501802 164 168 172
0.07235445 0.24648917 0.72501802 158 162 163
0.07352895 0.24622582 0.72424340 154 157 159
0.07486072 0.24648917 0.72501802 150 153 155
0.07603253 0.24622582 0.72424340 146 150 153
0.07720185 0.24596304 0.72347051 142 146 149
0.07828521 0.24543916 0.72192955 141 144 148
0.07953301 0.24543916 0.72192955 134 142 147
0.08069487 0.24517806 0.72116154 125 131 136
0.08176737 0.24465750 0.71963042 127 132 137
0.08266019 0.24362302 0.71658754 127 132 140
0.08407650 0.24413916 0.71810579 126 131 139
0.08531769 0.24413916 0.71810579 133 138 146
0.08610283 0.24285287 0.71432227 132 131 145
0.08697090 0.24183355 0.71132410 131 130 144
0.08820036 0.24183355 0.71132410 130 129 143
0.08933609 0.24158005 0.71057844 125 124 139
0.09056427 0.24158005 0.71057844 131 131 149
0.09188876 0.24183355 0.71132410 132 133 153
0.09292322 0.24132709 0.70983440 124 125 145
0.09356228 0.23982036 0.70540255 121 123 144
0.09438863 0.23882629 0.70247859 126 127 149
0.09560281 0.23882629 0.70247859 124 130 148
0.09691742 0.23907404 0.70320731 125 129 148
0.09803116 0.23882629 0.70247859 117 120 139
0.09924535 0.23882629 0.70247859 118 122 136
0.11576071 0.21949273 0.64561129 139 144 151
0.11698801 0.21970198 0.64622670 137 142 149
0.11799248 0.21949273 0.64561129 136 141 148
0.11888193 0.21907544 0.64438391 134 138 148
0.11999569 0.21907544 0.64438391 134 136 148
0.12087965 0.21865974 0.64316112 129 131 144
0.12141532 0.21762736 0.64012450 121 122 135
0.12217562 0.21701258 0.63831621 113 114 127
0.12316293 0.21680844 0.63771576 109 108 122
0.12414838 0.21660466 0.63711637 115 116 126
0.12443095 0.21518895 0.63295221 120 122 130
0.40486413 0.41751334 1.22806489 154 158 160
0.41347912 0.41979486 1.23477566 141 144 152
0.41260710 0.41675836 1.22584414 134 137 145
0.41027442 0.41228509 1.21268666 141 144 152
0.41163409 0.41154888 1.21052110 137 142 149
0.41520926 0.41302395 1.21485996 145 150 157
0.41141069 0.40718618 1.19768882 153 158 165
0.40986013 0.40362060 1.18720114 150 154 158
0.41047436 0.40221182 1.18305731 147 150 154
0.41469035 0.40432873 1.18928397 150 154 157
0.41601607 0.40362060 1.18720114 149 153 155
0.41515976 0.40081280 1.17894232 147 151 153
0.42440179 0.40575242 1.19347155 154 159 160
0.21287578 0.18147036 0.53377312 166 168 168
0.21363015 0.18132760 0.53335315 171 172 170
0.21421494 0.18104272 0.53251517 170 170 168
0.21479787 0.18075871 0.53167987 157 157 155
0.21571684 0.18075871 0.53167987 151 151 149
0.21680585 0.18090060 0.53209722 143 143 145
0.21875578 0.18175660 0.53461504 144 145 148
0.21933387 0.18147036 0.53377312 143 145 148
0.22043002 0.18161337 0.53419375 143 144 150
0.84955412 0.43320933 1.27423275 153 157 156
0.85497075 0.43484411 1.27904117 148 155 154
0.85395896 0.43320933 1.27423275 142 151 150
0.85136044 0.43078014 1.26708758 138 146 145
0.85836381 0.43320933 1.27423275 134 142 142
0.86056620 0.43320933 1.27423275 131 138 139
0.86276859 0.43320933 1.27423275 126 134 136
0.87483758 0.43815088 1.28876781 126 134 136
0.86880648 0.43402517 1.27663243 127 132 135
0.86611974 0.43158683 1.26946032 133 137 140
0.86507392 0.42997643 1.26472354 145 149 151
0.86725986 0.42997643 1.26472354 149 153 154
0.86782676 0.42917573 1.26236844 146 149 149
0.87163180 0.42997643 1.26472354 150 152 152
0.87709051 0.43158683 1.26946032 146 149 148
0.87764114 0.43078014 1.26708758 145 149 148
0.87818974 0.42997643 1.26472354 141 145 144
0.98668259 0.38604251 1.13549721 125 128 136
0.98169619 0.38030919 1.11863339 111 115 123
0.97878420 0.37843576 1.11312294 108 113 120
0.97430873 0.37596634 1.10585940 109 115 122
0.97463024 0.37535402 1.10405838 124 129 136
0.97653848 0.37535402 1.10405838 134 140 144
0.97368938 0.37352896 1.09869015 141 147 149
0.95037353 0.35898346 1.05590630 169 175 173
0.94047922 0.35456517 1.04291058 170 175 174
0.65228385 0.22440834 0.66006994 117 124 137
0.64962941 0.22310491 0.65623605 120 127 138
0.64825350 0.22224434 0.65370476 122 130 137
0.63980889 0.21559155 0.63413644 166 178 177
0.64030600 0.21539007 0.63354379 172 178 178
0.64080215 0.21518895 0.63295221 164 170 170
0.64309704 0.21559155 0.63413644 154 159 158
0.64059758 0.21438825 0.63059705 146 150 149
0.63990176 0.21379162 0.62884218 150 154 153
0.64218009 0.21418901 0.63001102 152 156 155
0.64326900 0.21418901 0.63001102 153 157 156
0.64316249 0.21379162 0.62884218 154 158 157
0.64246148 0.21319830 0.62709701 152 156 155
0.64176434 0.21260828 0.62536150 155 159 158
0.61639422 0.17552732 0.51629233 159 164 165
0.61354828 0.17446433 0.51316565 158 162 164
0.61892015 0.17472887 0.51394379 143 149 151
-0.18732785 0.15609100 0.45680043 100 107 116
-0.18603685 0.15567140 0.45557249 95 102 111
-0.18487671 0.15535818 0.45465583 87 95 104
-0.18446203 0.15567140 0.45557249 81 89 97
0.06734191 0.24774230 0.72501802 167 170 178
0.06852176 0.24747762 0.72424340 166 169 177
0.06977355 0.24747762 0.72424340 165 168 176
0.07102535 0.24747762 0.72424340 164 166 172
0.07227714 0.24747762 0.72424340 159 162 164
0.07345047 0.24721350 0.72347051 153 157 157
0.07478074 0.24747762 0.72424340 149 150 151
0.07595139 0.24721350 0.72347051 144 148 149
0.07711954 0.24694994 0.72269917 141 145 147
0.07828521 0.24668695 0.72192955 138 142 145
0.07944840 0.24642453 0.72116154 139 141 143
0.08060911 0.24616265 0.72039515 136 137 140
0.08168066 0.24564056 0.71886730 130 131 136
0.08257291 0.24460301 0.71583086 129 132 138
0.08389875 0.24486157 0.71658754 128 132 138
0.08522741 0.24512069 0.71734589 133 138 145
0.08610283 0.24408752 0.71432227 135 137 150
0.08697090 0.24306302 0.71132410 135 137 151
0.08820036 0.24306302 0.71132410 133 136 150
0.08933609 0.24280822 0.71057844 131 135 149
0.09065930 0.24306302 0.71132410 133 138 153
0.09188876 0.24306302 0.71132410 130 134 151
0.09292322 0.24255398 0.70983440 127 135 152
0.09365974 0.24129067 0.70613736 125 131 150
0.09448655 0.24028948 0.70320731 124 130 150
0.09570199 0.24028948 0.70320731 124 130 148
0.09691742 0.24028948 0.70320731 126 131 150
0.09803116 0.24004047 0.70247859 125 130 149
0.09945146 0.24053900 0.70393753 126 129 144
0.11453574 0.22039872 0.64499700 144 148 156
0.11565056 0.22039872 0.64499700 137 141 148
0.11698801 0.22081892 0.64622670 136 139 147
0.11788021 0.22039872 0.64499700 136 139 147
0.11876903 0.21998011 0.64377195 133 137 145
0.11988173 0.21998011 0.64377195 132 135 144
0.12076507 0.21956308 0.64255148 127 130 140
0.12130078 0.21852741 0.63952059 117 121 132
0.12217562 0.21811587 0.63831621 105 108 121
0.12316293 0.21791068 0.63771576 97 98 111
0.12414838 0.21770588 0.63711637 97 99 111
0.12466376 0.21668760 0.63413644 106 108 120
0.40633637 0.42116192 1.23253059 157 161 162
0.40921071 0.42192906 1.23477566 155 159 162
0.41512567 0.42580709 1.24612474 147 150 154
0.41575101 0.42424735 1.24156010 141 143 151
0.41410476 0.42039755 1.23029375 136 137 146
0.41323137 0.41736767 1.22142673 141 141 150
0.41896340 0.41887712 1.22584414 140 142 150
0.41433889 0.41216913 1.20621324 143 143 152
0.41130075 0.40709850 1.19137406 150 153 157
0.41836017 0.40998062 1.19980860 143 147 150
0.41821334 0.40781522 1.19347155 143 147 150
0.42665526 0.40998062 1.19980860 150 154 158
0.21363015 0.18224946 0.53335315 175 177 177
0.21421494 0.18196312 0.53251517 171 172 172
0.21462953 0.18153530 0.53126317 153 154 154
0.21554779 0.18153530 0.53126317 152 152 152
0.21663581 0.18167768 0.53167987 148 149 153
0.21841128 0.18239295 0.53377312 145 145 150
0.22008316 0.18224946 0.53335315 138 139 147
0.22083127 0.18210617 0.53293383 144 146 154
0.22140428 0.18182029 0.53209722 145 149 158
0.22232397 0.18182029 0.53209722 143 148 156
0.81768936 0.42347175 1.23929036 161 165 165
0.81093627 0.41887712 1.22584414 161 165 165
0.85015851 0.43459484 1.27184212 151 156 155
0.85076064 0.43378100 1.26946032 145 151 151
0.84977210 0.43216240 1.26472354 140 147 147
0.85355049 0.43297020 1.26708758 139 145 145
0.85734308 0.43378100 1.26946032 136 142 142
0.85953724 0.43378100 1.26946032 128 133 136
0.86823505 0.43705481 1.27904117 126 131 134
0.86554646 0.43459484 1.27184212 127 131 136
0.86611974 0.43378100 1.26946032 130 133 139
0.86669087 0.43297020 1.26708758 139 142 148
0.86888093 0.43297020 1.26708758 147 150 156
0.86944586 0.43216240 1.26472354 140 143 148
0.87326103 0.43297020 1.26708758 141 143 144
0.87873608 0.43459484 1.27184212 135 136 137
0.87928468 0.43378100 1.26946032 136 139 139
0.87983119 0.43297020 1.26708758 141 145 144
0.88367301 0.43378100 1.26946032 149 151 150
0.98999918 0.38930932 1.13931406 137 140 148
0.99286991 0.38735628 1.13359845 116 123 129
0.98821908 0.38478246 1.12606621 110 117 123
0.98688674 0.38350835 1.12233746 107 114 120
0.98393947 0.38161293 1.11679053 111 119 124
0.98586977 0.38161293 1.11679053 119 127 132
0.98455602 0.38035968 1.11312294 127 135 139
0.97527003 0.37603742 1.10047376 136 145 146
0.95185614 0.36137137 1.05755353 166 175 172
0.94047922 0.35636777 1.04291058 165 174 172
0.93366337 0.35310832 1.03337169 165 172 171
0.65483433 0.22643113 0.66265088 111 119 127
0.64160949 0.21729742 0.63592106 157 167 168
0.64210629 0.21709377 0.63532507 146 152 154
0.64320439 0.21709377 0.63532507 142 148 150
0.64430249 0.21709377 0.63532507 143 149 150
0.64299011 0.21628296 0.63295221 142 147 147
0.64168757 0.21547818 0.63059705 144 150 150
0.64517814 0.21628296 0.63295221 147 152 152
0.64566928 0.21608120 0.63236177 149 155 154
0.64375967 0.21507804 0.62942606 152 157 156
0.64305633 0.21448061 0.62767762 156 160 159
0.61880082 0.17736527 0.51905960 153 159 159
0.61592513 0.17628543 0.51589942 154 159 159
0.61308420 0.17521864 0.51277751 155 159 160
0.61443526 0.17535129 0.51316565 151 155 156
0.61485678 0.17521864 0.51277751 145 149 150
0.61845130 0.17548414 0.51355445 142 148 150
0.61975706 0.17535129 0.51316565 139 144 146
-0.18720171 0.15677491 0.45649281 97 99 114
-0.18591192 0.15635374 0.45526651 93 98 111
-0.18462904 0.15593486 0.45404679 90 97 108
-0.18409087 0.15614402 0.45465583 87 96 106
-0.18355124 0.15635374 0.45526651 88 97 107
0.06726997 0.24872941 0.72424340 171 174 180
0.06852176 0.24872941 0.72424340 170 173 179
0.06977355 0.24872941 0.72424340 167 170 177
0.07094955 0.24846396 0.72347051 163 166 172
0.07220001 0.24846396 0.72347051 160 162 165
0.07329403 0.24793476 0.72192955 156 158 160
0.07454182 0.24793476 0.72192955 152 153 155
0.07578962 0.24793476 0.72192955 145 146 150
0.07695546 0.24767099 0.72116154 140 141 145
0.07803590 0.24714515 0.71963042 137 138 141
0.07927972 0.24714515 0.71963042 134 135 138
0.08035294 0.24662153 0.71810579 131 132 135
0.08142163 0.24610014 0.71658754 129 131 135
0.08231214 0.24506393 0.71357036 130 133 139
0.08363353 0.24532217 0.71432227 135 138 145
0.08495770 0.24558094 0.71507579 138 142 150
0.08592175 0.24480624 0.71281999 135 139 150
0.08687973 0.24403641 0.71057844 142 148 159
0.08810791 0.24403641 0.71057844 142 149 162
0.08924254 0.24378087 0.70983440 144 152 161
0.09056427 0.24403641 0.71057844 143 152 161
0.09179244 0.24403641 0.71057844 140 150 159
0.09292322 0.24378087 0.70983440 134 148 160
0.09365974 0.24251118 0.70613736 131 145 157
0.09448655 0.24150491 0.70320731 129 144 155
0.09570199 0.24150491 0.70320731 130 135 151
0.09691742 0.24150491 0.70320731 128 132 148
0.09803116 0.24125464 0.70247859 126 129 147
0.09965844 0.24225883 0.70540255 123 125 141
0.11442687 0.22130297 0.64438391 148 149 153
0.11565056 0.22151354 0.64499700 137 139 146
0.11698801 0.22193587 0.64622670 136 139 147
0.11788021 0.22151354 0.64499700 136 139 147
0.11876903 0.22109282 0.64377195 134 137 145
0.11976799 0.22088304 0.64316112 132 135 143
0.12076507 0.22067368 0.64255148 124 132 138
0.12130078 0.21963276 0.63952059 114 122 129
0.12217562 0.21921915 0.63831621 104 112 120
0.12316293 0.21901292 0.63771576 96 98 116
0.12426516 0.21901292 0.63771576 88 90 109
0.12478048 0.21798758 0.63473016 90 91 111
0.42201596 0.42406327 1.23477566 140 140 149
0.41956478 0.41947880 1.22142673 138 138 146
0.21379837 0.18331553 0.53377312 175 177 176
0.21421494 0.18288353 0.53251517 168 169 169
0.21446146 0.18231067 0.53084719 160 161 161
0.21554779 0.18245356 0.53126317 157 158 158
0.21663581 0.18259665 0.53167987 154 155 158
0.21823944 0.18317130 0.53335315 145 146 150
0.21881698 0.18288353 0.53251517 138 139 143
0.21991014 0.18302731 0.53293383 137 139 144
0.22065780 0.18288353 0.53251517 134 137 145
0.22140428 0.18273997 0.53209722 136 138 150
0.22214960 0.18259665 0.53167987 140 142 157
0.22289374 0.18245356 0.53126317 142 144 159
0.22259088 0.18145809 0.52836466 142 145 159
0.81322926 0.42329225 1.23253059 155 162 163
0.80947250 0.42023599 1.22363150 157 164 164
0.81158745 0.42023599 1.22363150 158 164 164
0.83852100 0.43193087 1.25768435 157 163 162
0.84600776 0.43353954 1.26236844 153 159 159
0.84347749 0.43113098 1.25535524 147 153 153
0.84721619 0.43193087 1.25768435 143 149 150
0.85633004 0.43434837 1.26472354 123 128 132
0.86173141 0.43597516 1.26946032 120 125 130
0.86231077 0.43516025 1.26708758 127 131 137
0.86450082 0.43516025 1.26708758 133 135 143
0.86507392 0.43434837 1.26472354 132 134 141
0.86725986 0.43434837 1.26472354 138 138 145
0.86944586 0.43434837 1.26472354 138 138 145
0.87163180 0.43434837 1.26472354 133 133 137
0.87709051 0.43597516 1.26946032 129 130 132
0.87928468 0.43597516 1.26946032 132 135 136
0.87818974 0.43434837 1.26472354 142 146 146
0.87873626 0.43353954 1.26236844 152 156 156
0.87764949 0.43193087 1.25768435 159 160 159
1.01990449 0.40070695 1.16676736 123 128 132
1.00975549 0.39593661 1.15287733 116 123 128
0.99649566 0.38996774 1.13549721 110 118 123
0.99346596 0.38801789 1.12981975 104 112 117
0.99541879 0.38801789 1.12981975 111 120 124
1.00070727 0.38931561 1.13359845 123 131 135
0.99766159 0.38737226 1.12793982 133 142 145
0.96203494 0.36778948 1.07091916 164 171 171
0.95037353 0.36263353 1.05590630 162 171 170
0.94047922 0.35817036 1.04291058 161 170 169
0.93224227 0.35435423 1.03179884 161 171 170
0.93260616 0.35381570 1.03023076 162 171 170
0.65611708 0.22802226 0.66394889 122 131 132
0.64160949 0.21839656 0.63592106 139 148 149
0.64270860 0.21839656 0.63592106 139 146 148
0.64380777 0.21839656 0.63592106 138 144 146
0.64490688 0.21839656 0.63592106 136 142 144
0.64419311 0.21778366 0.63413644 139 145 146
0.64468610 0.21758012 0.63354379 141 147 148
0.64759684 0.21819188 0.63532507 142 148 149
0.64495736 0.21656813 0.63059705 145 151 151
0.61832738 0.17812604 0.51866245 151 155 156
0.61498904 0.17690785 0.51511538 151 155 156
0.61308420 0.17610495 0.51277751 151 155 156
0.61350638 0.17597184 0.51238990 146 150 151
0.61392796 0.17583892 0.51200289 141 145 146
0.61527765 0.17597184 0.51238990 136 140 141
0.61751562 0.17610495 0.51277751 143 147 148
0.61840194 0.17610495 0.51277751 144 148 149
0.61882013 0.17597184 0.51238990 140 145 146
0.06615953 0.25051650 0.72579426 172 177 182
0.06734191 0.25024858 0.72501802 171 176 181
0.06859504 0.25024858 0.72501802 170 175 180
0.06977355 0.24998121 0.72424340 170 175 180
0.07094955 0.24971442 0.72347051 165 169 172
0.07570899 0.24891746 0.72116154 146 146 152
0.07687368 0.24865294 0.72039515 138 138 144
0.07795314 0.24812557 0.71886730 135 135 142
0.07919565 0.24812557 0.71886730 132 132 140
0.08009839 0.24707752 0.71583086 118 119 126
0.08116423 0.24655682 0.71432227 131 134 142
0.08205304 0.24552195 0.71132410 139 142 150
0.08336998 0.24577984 0.71207124 149 152 160
0.08468970 0.24603829 0.71281999 151 154 162
0.08574143 0.24552195 0.71132410 149 153 163
0.08669797 0.24475148 0.70909190 151 156 166
0.08783171 0.24449573 0.70835096 153 161 170
0.08896308 0.24424052 0.70761150 155 163 169
0.09028036 0.24449573 0.70835096 154 164 170
0.09169632 0.24500777 0.70983440 152 167 171
0.09282602 0.24475148 0.70909190 142 157 162
0.09356228 0.24347806 0.70540255 146 159 165
0.09438863 0.24246882 0.70247859 144 154 160
0.09560281 0.24246882 0.70247859 138 145 153
0.09681699 0.24246882 0.70247859 133 138 149
0.09803116 0.24246882 0.70247859 132 134 149
0.09986627 0.24398583 0.70687366 121 122 140
0.11309808 0.22199470 0.64316112 152 153 155
0.11431820 0.22220552 0.64377195 147 149 153
0.11554063 0.22241674 0.64438391 135 137 142
0.11687659 0.22284040 0.64561129 132 135 141
0.11776816 0.22241674 0.64438391 128 132 137
0.11865634 0.22199470 0.64316112 132 137 142
0.11976799 0.22199470 0.64316112 131 135 141
0.12076507 0.22178428 0.64255148 125 131 138
0.12130078 0.22073813 0.63952059 115 122 130
0.12217562 0.22032243 0.63831621 105 112 122
0.12304717 0.21990828 0.63711637 95 96 117
0.12426516 0.22011515 0.63771576 78 79 100
0.42926461 0.43572143 1.26236844 133 133 142
0.42825651 0.43249983 1.25303483 137 137 146
0.42261061 0.42465049 1.23029375 139 139 146
0.21421494 0.18380395 0.53251517 169 170 171
0.21429366 0.18308483 0.53043181 165 166 166
0.21554779 0.18337180 0.53126317 160 161 161
0.21663581 0.18351562 0.53167987 154 155 156
0.21806787 0.18394844 0.53293383 145 146 148
0.21847373 0.18351562 0.53167987 133 134 142
0.21939270 0.18351562 0.53167987 134 135 142
0.22048460 0.18365967 0.53209722 127 130 139
0.22105725 0.18337180 0.53126317 130 133 143
0.22145484 0.18294169 0.53001708 134 137 147
0.22254492 0.18308483 0.53043181 139 143 156
0.22241752 0.18222930 0.52795315 141 145 159
0.81175333 0.42465049 1.23029375 147 157 159
0.80947250 0.42235091 1.22363150 150 160 161
0.80866808 0.42083168 1.21922994 153 163 162
0.81223625 0.42158994 1.22142673 155 165 164
0.82175058 0.42542258 1.23253059 155 166 164
0.82238561 0.42465049 1.23029375 156 166 165
0.83512163 0.43011472 1.24612474 154 163 162
0.83116394 0.42697522 1.23702896 153 162 161
0.83178419 0.42619747 1.23477566 150 157 158
0.84158313 0.43011472 1.24612474 143 149 151
0.84685034 0.43170187 1.25072300 131 137 140
0.85750234 0.43491155 1.26002204 122 127 133
0.86128110 0.43572143 1.26236844 130 132 145
0.86185801 0.43491155 1.26002204 122 124 137
0.86564487 0.43572143 1.26236844 112 113 127
0.86621374 0.43491155 1.26002204 108 110 123
0.86678046 0.43410465 1.25768435 111 112 122
0.87381780 0.43653435 1.26472354 118 118 125
0.87764114 0.43735030 1.26708758 130 131 136
0.87655437 0.43572143 1.26236844 141 145 145
0.87223917 0.43249983 1.25303483 153 157 157
0.86481363 0.42775577 1.23929036 153 155 155
1.03054702 0.40692595 1.17894232 126 127 133
1.01667166 0.40065482 1.16077375 117 122 126
1.00831842 0.39658037 1.14896917 111 120 124
1.00013351 0.39258793 1.13740242 110 118 122
1.01057744 0.39590934 1.14702511 113 123 126
1.00744605 0.39390978 1.14123201 120 130 134
1.00099266 0.39062172 1.13170588 130 140 143
0.98798817 0.38107884 1.10405838 160 169 168
0.98190051 0.37800068 1.09514034 163 171 170
0.96508420 0.37081206 1.07431352 161 168 168
0.95633197 0.36674359 1.06252635 158 167 166
0.94192833 0.36052760 1.04451752 157 166 165
0.93082547 0.35559636 1.03023076 157 166 165
0.92557293 0.35291466 1.02246130 157 168 166
0.65602446 0.23075189 0.66853237 156 160 159
0.65653253 0.23052454 0.66787374 157 161 162
0.65819275 0.23029765 0.66721636 150 157 158
0.65547508 0.22894561 0.66329926 147 156 157
0.65152156 0.22716740 0.65814739 151 160 161
0.64160949 0.21949570 0.63592106 124 132 134
0.64270860 0.21949570 0.63592106 131 136 139
0.64441228 0.21970180 0.63651818 137 138 142
0.64551246 0.21970180 0.63651818 137 138 142
0.64479631 0.21908465 0.63473016 135 140 142
0.64589334 0.21908465 0.63473016 135 141 143
0.64869493 0.21928999 0.63532507 133 139 140
0.64615953 0.21806376 0.63177246 134 140 141
0.61738265 0.17874898 0.51787001 147 152 153
0.61452210 0.17766318 0.51472425 148 153 153
0.61308420 0.17699124 0.51277751 148 152 153
0.61304301 0.17672388 0.51200289 149 153 154
0.61392796 0.17672388 0.51200289 152 156 157
0.61481291 0.17672388 0.51200289 156 160 161
0.61616325 0.17685746 0.51238990 153 157 158
0.61704886 0.17685746 0.51238990 151 157 157
0.61793453 0.17685746 0.51238990 146 152 152
0.61835277 0.17672388 0.51200289 140 146 147
0.06615953 0.25177097 0.72579426 176 179 182
0.06734191 0.25150171 0.72501802 180 183 184
0.06852176 0.25123301 0.72424340 177 181 183
0.07671064 0.24936807 0.71886730 138 139 143
0.07787057 0.24910392 0.71810579 131 131 140
0.07902804 0.24884032 0.71734589 126 127 136
0.07984545 0.24753062 0.71357036 122 124 132
0.08099354 0.24727035 0.71281999 138 141 149
0.08196703 0.24649276 0.71057844 145 149 157
0.08310808 0.24623466 0.70983440 155 159 167
0.08451197 0.24675141 0.71132410 159 162 170
0.08556186 0.24623466 0.70983440 159 163 171
0.08624689 0.24469729 0.70540255 159 164 171
0.08737520 0.24444292 0.70466930 159 167 173
0.08850117 0.24418910 0.70393753 162 170 175
0.08981113 0.24444292 0.70466930 162 171 174
0.09150469 0.24572006 0.70835096 163 174 175
0.09272902 0.24572006 0.70835096 164 172 176
0.09346502 0.24444292 0.70466930 161 170 174
0.09438863 0.24368300 0.70247859 155 163 169
0.09560281 0.24368300 0.70247859 154 162 166
0.09681699 0.24368300 0.70247859 143 151 155
0.09803116 0.24368300 0.70247859 127 135 139
0.10007498 0.24572006 0.70835096 115 116 134
0.11267049 0.22226284 0.64072955 141 145 147
0.11399343 0.22268380 0.64194304 134 136 142
0.11532139 0.22310635 0.64316112 131 134 140
0.11665440 0.22353050 0.64438391 126 131 136
0.11765632 0.22331823 0.64377195 124 131 134
0.11843161 0.22268380 0.64194304 125 132 135
0.11954116 0.22268380 0.64194304 124 132 136
0.12053657 0.22247313 0.64133573 121 123 134
0.12118646 0.22163440 0.63891786 114 116 129
0.12206069 0.22121739 0.63771576 105 109 124
0.12304717 0.22100949 0.63711637 100 101 120
0.12426516 0.22121739 0.63771576 103 104 124
0.43086931 0.43954036 1.26708758 131 131 140
0.43144649 0.43790334 1.26236844 134 134 143
0.21554779 0.18429004 0.53126317 164 165 166
0.21663581 0.18443458 0.53167987 155 156 158
0.21806787 0.18486957 0.53293383 144 145 147
0.21830252 0.18429004 0.53126317 132 135 141
0.21904910 0.18414573 0.53084719 128 131 139
0.22013901 0.18429004 0.53126317 122 126 139
0.22088414 0.18414573 0.53084719 127 130 143
0.22110909 0.18357073 0.52918959 129 132 145
0.22219720 0.18371414 0.52960300 134 138 151
0.22241752 0.18314181 0.52795315 138 142 156
0.81175333 0.42677695 1.23029375 138 148 153
0.80947250 0.42446586 1.22363150 146 157 160
0.80866808 0.42293903 1.21922994 149 161 162
0.81223625 0.42370108 1.22142673 153 165 166
0.82025915 0.42677695 1.23029375 154 169 167
0.82538158 0.42833167 1.23477566 158 174 172
0.83665961 0.43306464 1.24841964 163 174 173
0.83268344 0.42989779 1.23929036 163 172 171
0.83178419 0.42833167 1.23477566 159 167 167
0.84468859 0.43386364 1.25072300 152 160 160
0.84841567 0.43466562 1.25303483 148 157 157
0.85851598 0.43872032 1.26472354 144 152 154
0.85750234 0.43708938 1.26002204 135 142 145
0.85968018 0.43708938 1.26002204 131 134 146
0.86185801 0.43708938 1.26002204 125 128 142
0.86403584 0.43708938 1.26002204 122 124 140
0.86460662 0.43627846 1.25768435 118 119 137
0.86517531 0.43547055 1.25535524 115 116 133
0.86895424 0.43627846 1.25768435 116 117 133
0.87600380 0.43872032 1.26472354 124 125 140
0.87655437 0.43790334 1.26236844 135 139 140
0.87062985 0.43386364 1.25072300 143 147 146
1.05417621 0.41916952 1.20836341 129 129 137
1.03595197 0.41110855 1.18512559 128 128 137
1.01841545 0.40335178 1.16276479 124 126 133
1.01174819 0.39992192 1.15287733 117 125 130
1.00519323 0.39654991 1.14315653 117 126 130
1.01573348 0.39992192 1.15287733 118 128 133
1.01256001 0.39789188 1.14702511 120 132 137
1.00266659 0.39323428 1.13359845 121 133 139
0.99795073 0.39062142 1.12606621 127 138 142
1.00074887 0.38868445 1.12048233 152 160 163
0.99121690 0.38423872 1.10766637 153 161 162
0.98508334 0.38112494 1.09869015 150 159 158
0.96661603 0.37326047 1.07601881 150 159 158
0.95633197 0.36858007 1.06252635 150 159 158
0.94047922 0.36177552 1.04291058 151 160 159
0.92941296 0.35683474 1.02866745 151 160 159
0.92417896 0.35414773 1.02092147 149 160 158
0.65667206 0.23213632 0.66919231 156 160 159
0.65717995 0.23190740 0.66853237 159 165 162
0.65768689 0.23167892 0.66787374 164 170 168
0.65819275 0.23145089 0.66721636 167 174 171
0.65611708 0.23031743 0.66394889 166 175 171
0.65215474 0.22852682 0.65878701 166 175 171
0.65202606 0.22808351 0.65750909 168 174 171
0.64221191 0.22080196 0.63651818 125 133 139
0.64331210 0.22080196 0.63651818 130 136 143
0.64501792 0.22100949 0.63711637 132 135 143
0.64551246 0.22080196 0.63651818 134 137 144
0.64540058 0.22038810 0.63532507 129 133 140
0.64930344 0.22059484 0.63592106 114 120 123
0.64736617 0.21956497 0.63295221 122 128 130
0.61738265 0.17964408 0.51787001 140 147 146
0.61405581 0.17841737 0.51433372 142 148 148
0.61262077 0.17774308 0.51238990 143 148 149
0.61304301 0.17760883 0.51200289 146 150 151
0.61346465 0.17747478 0.51161647 151 156 156
0.61434889 0.17747478 0.51161647 158 164 164
0.61523318 0.17747478 0.51161647 155 161 161
0.61658281 0.17760883 0.51200289 150 156 156
0.61700177 0.17747478 0.51161647 145 151 151
0.61742008 0.17734094 0.51123065 140 146 147
0.06539517 0.25493610 0.73127490 175 176 178
0.06615953 0.25302544 0.72579426 178 179 181
0.06734191 0.25275484 0.72501802 178 179 181
0.06852176 0.25248480 0.72424340 177 180 181
0.07886114 0.24955203 0.71583086 124 126 133
0.07976149 0.24850239 0.71281999 132 135 141
0.08082356 0.24798088 0.71132410 145 150 157
0.08188120 0.24746154 0.70983440 152 156 164
0.08302115 0.24720269 0.70909190 156 161 168
0.08433498 0.24746154 0.70983440 158 163 170
0.08538306 0.24694438 0.70835096 160 165 172
0.08606777 0.24540579 0.70393753 161 166 173
0.08710357 0.24489717 0.70247859 165 170 177
0.08831774 0.24489717 0.70247859 168 176 179
0.08953193 0.24489717 0.70247859 169 177 179
0.09429093 0.24464366 0.70175141 172 181 182
0.09550384 0.24464366 0.70175141 172 181 181
0.09671676 0.24464366 0.70175141 158 167 168
0.09803116 0.24489717 0.70247859 148 156 157
0.09986627 0.24642938 0.70687366 138 141 155
0.11145770 0.22315937 0.64012450 139 140 143
0.11245791 0.22294885 0.63952059 134 137 143
0.11367050 0.22315937 0.64012450 126 128 135
0.11510298 0.22379334 0.64194304 130 132 140
0.11654361 0.22443093 0.64377195 122 127 133
0.11743327 0.22400548 0.64255148 119 126 131
0.11809611 0.22315937 0.64012450 118 126 132
0.11931518 0.22337030 0.64072955 115 123 132
0.12030892 0.22315937 0.64012450 113 116 129
0.12107234 0.22252898 0.63831621 110 111 126
0.12194597 0.22211069 0.63711637 118 122 139
0.12293164 0.22190213 0.63651818 128 133 148
0.12414838 0.22211069 0.63711637 140 145 160
0.12489743 0.22148620 0.63532507 146 154 166
0.42429915 0.44173041 1.26708758 105 105 114
0.42411101 0.43926725 1.26002204 107 107 116
0.42867926 0.44173041 1.26708758 117 117 124
0.43086931 0.44173041 1.26708758 125 125 133
0.21789657 0.18564476 0.53251517 142 143 145
0.21796089 0.18491845 0.53043181 130 134 139
0.21836510 0.18448538 0.52918959 126 132 139
0.21962266 0.18477386 0.53001708 124 131 141
0.22071131 0.18491845 0.53043181 126 133 144
0.22076441 0.18419780 0.52836466 125 132 143
0.22202374 0.18448538 0.52918959 129 136 147
0.80656070 0.42504635 1.21922994 151 161 164
0.80576962 0.42352289 1.21485996 150 162 164
0.80786937 0.42352289 1.21485996 156 168 170
0.82538158 0.43046591 1.23477566 165 179 178
0.83975261 0.43683138 1.25303483 172 184 182
0.83420849 0.43283108 1.24156010 177 186 183
0.83178419 0.43046591 1.23477566 173 181 179
0.84781706 0.43764034 1.25535524 172 178 176
0.85156381 0.43845227 1.25768435 166 173 171
0.86012071 0.44173041 1.26708758 162 170 168
0.85909915 0.44008523 1.26236844 159 166 166
0.86288792 0.44090629 1.26472354 153 159 163
0.86507392 0.44090629 1.26472354 145 150 158
0.86725986 0.44090629 1.26472354 134 138 151
0.86944586 0.44090629 1.26472354 123 124 146
0.87000871 0.44008523 1.26236844 105 106 128
0.88147885 0.44255763 1.26946032 130 131 140
1.04486370 0.41753671 1.19768882 120 123 130
1.02875793 0.41028780 1.17689562 126 129 137
1.01493371 0.40397570 1.15878952 128 130 138
1.01174819 0.40191460 1.15287733 125 129 137
1.00689125 0.39919895 1.14508760 122 129 135
1.01400900 0.40123221 1.15091991 121 129 135
1.01427615 0.40055215 1.14896917 121 131 138
1.00603127 0.39651975 1.13740242 121 132 139
1.00127721 0.39387628 1.12981975 124 135 141
1.00156081 0.39322093 1.12793982 131 139 145
1.00740945 0.39322093 1.12793982 138 146 152
0.99609977 0.38805547 1.11312294 144 152 157
0.98828685 0.38426957 1.10226321 141 150 152
0.96969444 0.37631494 1.07944560 141 149 150
0.95933932 0.37158141 1.06586766 141 150 151
0.94192833 0.36413833 1.04451752 143 152 152
0.93224227 0.35970438 1.03179884 146 155 154
0.92978007 0.35806936 1.02710891 148 160 159
0.94010168 0.36135441 1.03653193 148 164 163
0.93333060 0.35806936 1.02710891 151 166 165
0.65667206 0.23329297 0.66919231 153 157 158
0.65717995 0.23306289 0.66853237 154 159 157
0.65768689 0.23283328 0.66787374 158 164 161
0.65819275 0.23260412 0.66721636 163 169 165
0.65611708 0.23146501 0.66394889 165 171 167
0.65215474 0.22966547 0.65878701 166 173 169
0.65202606 0.22921996 0.65750909 168 173 169
0.64501792 0.22211069 0.63711637 122 130 136
0.64540058 0.22148620 0.63532507 120 127 133
0.64991313 0.22190213 0.63651818 103 109 115
0.64797115 0.22086520 0.63354379 118 123 128
0.61262077 0.17862870 0.51238990 147 156 155
0.61304301 0.17849378 0.51200289 149 158 157
0.61346465 0.17835908 0.51161647 152 160 159
0.61434889 0.17835908 0.51161647 159 165 165
0.61523318 0.17835908 0.51161647 157 163 163
0.61658281 0.17849378 0.51200289 155 162 162
0.61700177 0.17835908 0.51161647 153 162 161
0.61742008 0.17822456 0.51123065 154 163 162
0.06461918 0.25814942 0.73683894 163 164 166
0.06553657 0.25675401 0.73285604 168 169 171
0.06615953 0.25427994 0.72579426 172 173 175
0.06734191 0.25400797 0.72501802 173 173 175
0.07877795 0.25052473 0.71507579 129 131 138
0.07976149 0.24973445 0.71281999 135 138 145
0.08073884 0.24894911 0.71057844 140 145 151
0.08171007 0.24816871 0.70835096 148 156 161
0.08276144 0.24765116 0.70687366 150 161 167
0.08415873 0.24816871 0.70835096 153 165 170
0.08511623 0.24739319 0.70613736 158 167 173
0.08588939 0.24611135 0.70247859 164 172 178
0.08692342 0.24560234 0.70102566 168 173 180
0.08813509 0.24560234 0.70102566 172 177 182
0.08934675 0.24560234 0.70102566 172 178 181
0.09084024 0.24636665 0.70320731 174 180 182
0.09409611 0.24534862 0.70030147 174 180 182
0.09540508 0.24560234 0.70102566 171 178 178
0.09661674 0.24560234 0.70102566 168 175 175
0.09782841 0.24560234 0.70102566 161 166 167
0.11135255 0.22405420 0.63952059 134 135 139
0.11235191 0.22384304 0.63891786 131 134 142
0.11356326 0.22405420 0.63952059 121 124 132
0.11499408 0.22469012 0.64133573 120 123 131
0.11643304 0.22532965 0.64316112 110 118 124
0.11721107 0.22469012 0.64133573 111 119 126
0.11798470 0.22405420 0.63952059 110 118 125
0.11920252 0.22426577 0.64012450 105 111 126
0.12019542 0.22405420 0.63952059 111 117 133
0.12095845 0.22342187 0.63771576 127 133 149
0.12183146 0.22300231 0.63651818 132 138 154
0.12270121 0.22258431 0.63532507 133 139 152
0.12403180 0.22300231 0.63651818 150 157 168
0.42271888 0.44226715 1.26236844 112 112 121
0.42332417 0.44062608 1.25768435 105 104 114
0.42787948 0.44309226 1.26472354 107 108 112
0.21755478 0.18627252 0.53167987 139 142 149
0.21745044 0.18540004 0.52918959 135 139 146
0.21768537 0.18482292 0.52754229 130 136 143
0.21859717 0.18482292 0.52754229 127 134 141
0.80379170 0.42792335 1.22142673 151 161 166
0.80735755 0.42869577 1.22363150 156 167 168
0.80366981 0.42562267 1.21485996 159 170 171
0.79861355 0.42184272 1.20407081 160 171 170
0.79927504 0.42109478 1.20193589 162 174 173
0.83820325 0.43818718 1.25072300 171 179 178
0.83268344 0.43418181 1.23929036 172 178 176
0.86173141 0.44475180 1.26946032 175 179 178
0.86070198 0.44309226 1.26472354 171 174 173
0.86450082 0.44392049 1.26708758 165 169 169
0.86669087 0.44392049 1.26708758 157 160 162
0.86888093 0.44392049 1.26708758 147 151 154
0.87107098 0.44392049 1.26708758 136 135 153
1.04486370 0.41960680 1.19768882 128 132 134
1.03234243 0.41375864 1.18099630 131 135 138
1.01667166 0.40667373 1.16077375 131 134 138
1.01347172 0.40459532 1.15484130 130 134 139
1.01201963 0.40322149 1.15091991 130 134 139
1.01920009 0.40528578 1.15681207 129 133 139
1.01945984 0.40459532 1.15484130 126 133 139
1.01112080 0.40050161 1.14315653 125 133 139
1.00462604 0.39715293 1.13359845 125 133 139
1.00490487 0.39648992 1.13170588 124 134 141
1.00686097 0.39648992 1.13170588 130 139 146
1.00881696 0.39648992 1.13170588 134 144 151
1.00908840 0.39582908 1.12981975 136 147 154
1.00434566 0.39320770 1.12233746 142 153 159
0.98989648 0.38680369 1.10405838 143 151 156
0.97904843 0.38182870 1.08985829 142 150 154
0.96388590 0.37519345 1.07091916 142 151 154
0.94192833 0.36594370 1.04451752 141 151 152
0.93224227 0.36148775 1.03179884 141 152 152
0.92557293 0.35821638 1.02246130 142 154 154
0.93723553 0.36203882 1.03337169 143 159 158
0.93191862 0.35930023 1.02555501 147 163 162
0.65819275 0.23375735 0.66721636 160 166 166
0.65611708 0.23261259 0.66394889 165 169 168
0.65215474 0.23080413 0.65878701 163 167 166
0.64231801 0.22342187 0.63771576 131 137 143
0.64402610 0.22363226 0.63831621 130 138 144
0.64512938 0.22363226 0.63831621 129 137 143
0.64623266 0.22363226 0.63831621 124 133 138
0.64611912 0.22321190 0.63711637 121 130 136
0.65236330 0.22384304 0.63891786 101 108 114
0.64979303 0.22258431 0.63532507 118 122 130
0.61738265 0.18143427 0.51787001 129 138 139
0.61452210 0.18033217 0.51472425 138 147 148
0.61262077 0.17951433 0.51238990 144 153 153
0.61304301 0.17937875 0.51200289 146 156 155
0.61392796 0.17937875 0.51200289 145 154 153
0.61481291 0.17937875 0.51200289 145 154 153
0.61616325 0.17951433 0.51238990 147 156 155
0.61704886 0.17951433 0.51238990 150 159 158
0.61746782 0.17937875 0.51200289 154 163 162
0.61788607 0.17924337 0.51161647 156 165 164
0.06532470 0.25718656 0.73048687 153 154 157
0.06608877 0.25526112 0.72501802 155 156 158
0.07861210 0.25123066 0.71357036 127 128 137
0.07967771 0.25070289 0.71207124 133 136 144
0.08073884 0.25017729 0.71057844 139 144 151
0.08162478 0.24913271 0.70761150 147 153 160
0.08250335 0.24809682 0.70466930 151 158 165
0.08398321 0.24887294 0.70687366 154 163 170
0.08493928 0.24809682 0.70466930 158 166 173
0.08571175 0.24681400 0.70102566 167 175 183
0.08683362 0.24655902 0.70030147 170 175 182
0.09530652 0.24655902 0.70030147 174 179 180
0.09651694 0.24655902 0.70030147 174 178 179
0.09772735 0.24655902 0.70030147 170 174 175
0.11145770 0.22537218 0.64012450 132 136 139
0.11245791 0.22515957 0.63952059 124 129 136
0.11377794 0.22558519 0.64072955 118 125 133
0.11532139 0.22644131 0.64316112 115 123 131
0.11676539 0.22708766 0.64499700 108 116 125
0.11754469 0.22644131 0.64316112 103 110 124
0.11843161 0.22601244 0.64194304 102 109 127
0.12042263 0.22558519 0.64072955 116 122 139
0.12107234 0.22473553 0.63831621 138 144 160
0.12183146 0.22410248 0.63651818 147 154 166
0.12281632 0.22389226 0.63592106 155 161 171
0.41603088 0.44197989 1.25535524 138 139 143
0.41820067 0.44197989 1.25535524 112 112 121
0.42115036 0.44279990 1.25768435 112 112 123
0.42254022 0.44197989 1.25535524 101 101 116
0.21738428 0.18704478 0.53126317 142 145 153
0.22059247 0.18587939 0.52795315 123 131 139
0.22167765 0.18602426 0.52836466 128 136 144
0.80234605 0.42926103 1.21922994 164 173 172
0.80590284 0.43003449 1.22142673 160 169 168
0.80223215 0.42695731 1.21268666 158 168 167
0.79861355 0.42392388 1.20407081 162 172 171
0.80069470 0.42392388 1.20407081 167 176 175
0.82388091 0.43394390 1.23253059 171 177 177
0.83665961 0.43953800 1.24841964 172 178 178
0.83268344 0.43632382 1.23929036 171 176 176
0.86231077 0.44611055 1.26708758 173 174 174
0.87214130 0.44778451 1.27184212 152 153 156
0.87433952 0.44778451 1.27184212 144 145 151
1.07704592 0.43552762 1.23702896 138 142 143
1.05984378 0.42772248 1.21485996 135 139 140
1.03958690 0.41871777 1.18928397 135 139 140
1.02192116 0.41079026 1.16676736 133 137 138
1.01693654 0.40798143 1.15878952 133 137 139
1.02797115 0.41079026 1.16676736 135 139 142
1.02119958 0.40728521 1.15681207 134 140 144
1.01626205 0.40452397 1.14896917 133 141 146
1.00799727 0.40045157 1.13740242 133 141 146
1.00827146 0.39978081 1.13549721 131 142 147
1.00854468 0.39911228 1.13359845 133 145 150
1.01219666 0.39978081 1.13549721 137 149 154
1.01077306 0.39844596 1.13170588 140 154 158
1.00601125 0.39580289 1.12419879 143 157 162
0.99151129 0.38934606 1.10585940 145 158 162
0.97904843 0.38371244 1.08985829 146 156 159
0.96388590 0.37704444 1.07091916 150 159 162
0.94192833 0.36774907 1.04451752 153 163 164
0.93082547 0.36271906 1.03023076 154 165 165
0.65547508 0.23353145 0.66329926 155 156 158
0.65152156 0.23171762 0.65814739 157 158 160
0.64780271 0.22644131 0.64316112 132 136 142
0.64829928 0.22622667 0.64255148 127 132 139
0.64818108 0.22579862 0.64133573 125 131 138
0.64990443 0.22601244 0.64194304 122 129 136
0.64916974 0.22537218 0.64012450 120 128 134
0.66328281 0.22948955 0.65181905 113 121 127
0.66123044 0.22839151 0.64870036 107 115 121
0.65982598 0.22752063 0.64622670 104 111 117
0.61785465 0.18246876 0.51826596 128 140 141
0.61452210 0.18122183 0.51472425 134 147 147
0.61308420 0.18053642 0.51277751 141 154 154
0.61350638 0.18039995 0.51238990 144 157 157
0.61439198 0.18039995 0.51238990 145 158 158
0.61527765 0.18039995 0.51238990 151 161 161
0.61662936 0.18053642 0.51277751 155 164 163
0.61751562 0.18053642 0.51277751 157 166 165
0.61746782 0.18026370 0.51200289 155 164 163
0.61835277 0.18026370 0.51200289 155 164 163
0.03573380 0.18406816 0.52025467 148 149 152
0.04303412 0.18073912 0.51084542 150 150 157
0.04365390 0.17965604 0.50778413 150 150 157
0.07959410 0.25166929 0.71132410 129 132 140
0.08065430 0.25114223 0.70983440 134 139 146
0.08153967 0.25009471 0.70687366 140 145 153
0.08241767 0.24905589 0.70393753 151 156 165
0.08372131 0.24931479 0.70466930 153 161 169
0.09370888 0.24674982 0.69741958 175 179 182
0.09511001 0.24725857 0.69885755 175 179 182
0.09621873 0.24700393 0.69813782 175 179 182
0.11177433 0.22712199 0.64194304 124 131 133
0.11256409 0.22647858 0.64012450 119 124 131
0.11565056 0.22820249 0.64499700 112 120 129
0.17679772 0.22798558 0.64438391 131 131 142
0.17842029 0.22863758 0.64622670 129 129 140
0.17936626 0.22841983 0.64561129 115 115 126
0.17996794 0.22776906 0.64377195 103 103 114
0.41449574 0.44251072 1.25072300 142 147 148
0.41589016 0.44169581 1.24841964 120 121 126
0.41959342 0.44332868 1.25303483 109 110 117
0.21755478 0.18811044 0.53167987 146 150 156
0.21796089 0.18766887 0.53043181 144 148 154
0.21836510 0.18722937 0.52918959 142 145 152
0.21962266 0.18752214 0.53001708 141 144 152
0.22071131 0.18766887 0.53043181 141 145 153
0.22110909 0.18722937 0.52918959 137 141 149
0.22219720 0.18737563 0.52960300 134 138 146
0.80379170 0.43214563 1.22142673 161 167 163
0.80735755 0.43292567 1.22363150 159 165 161
0.80366981 0.42982227 1.21485996 157 163 159
0.80003458 0.42676303 1.20621324 160 166 163
0.80354923 0.42752373 1.20836341 163 168 167
0.83450180 0.44169581 1.24841964 170 174 175
0.83975261 0.44332868 1.25303483 169 173 173
0.87214130 0.44998276 1.27184212 156 157 162
0.87433952 0.44998276 1.27184212 148 150 156
1.08696353 0.44169581 1.24841964 145 146 148
1.06942654 0.43370855 1.22584414 139 140 142
1.04508734 0.42299968 1.19557643 136 138 139
1.02545118 0.41423285 1.17079771 135 137 139
1.04232335 0.41857037 1.18305731 137 141 144
1.02294517 0.40998432 1.15878952 138 143 146
1.01798749 0.40720004 1.15091991 138 147 148
1.00799727 0.40241748 1.13740242 139 148 149
1.00827146 0.40174341 1.13549721 138 149 151
1.00854468 0.40107161 1.13359845 139 151 154
1.01050401 0.40107161 1.13359845 143 155 158
1.00908840 0.39973471 1.12981975 144 158 161
1.00268555 0.39643112 1.12048233 146 161 163
0.98828685 0.38998508 1.10226321 148 162 165
0.97279251 0.38313231 1.08289433 151 163 163
0.96236563 0.37829784 1.06923008 154 166 166
0.94047922 0.36898586 1.04291058 159 170 170
0.92941296 0.36394662 1.02866745 163 174 173
0.92278922 0.36066288 1.01938617 162 173 173
0.65138638 0.22841983 0.64561129 123 126 132
0.65250230 0.22841983 0.64561129 122 125 131
0.65361816 0.22841983 0.64561129 119 124 130
0.65473408 0.22841983 0.64561129 116 124 128
0.66584373 0.23150659 0.65433574 111 119 124
0.66313416 0.23017353 0.65056801 108 116 122
0.66108644 0.22907433 0.64746118 105 113 119
0.61832738 0.18350483 0.51866245 137 150 150
0.61498904 0.18224986 0.51511538 141 154 154
0.61354828 0.18156004 0.51316565 145 158 158
0.61443526 0.18156004 0.51316565 145 158 158
0.61532223 0.18156004 0.51316565 147 160 160
