ply
format ascii 1.0
element vertex 1066
property float x
property float y
property float z
property uchar red
property uchar green
property uchar blue
end_header
-0.78990774 0.27015298 0.92651040 30 30 34
-0.79001028 0.29020807 0.92663068 31 29 34
-0.79010226 0.31026427 0.92673857 29 29 34
-0.79018181 0.33031989 0.92683190 29 29 32
-0.79024825 0.34957271 0.92690983 31 30 34
-0.79031053 0.36962796 0.92698289 32 30 34
-0.79030431 0.38962628 0.92704836 32 31 35
-0.78961557 0.40973839 0.92710753 32 31 34
-0.78966370 0.42979495 0.92716405 33 32 35
-0.78970823 0.44985193 0.92721633 34 32 36
-0.78974978 0.46990936 0.92726512 35 32 35
-0.78978766 0.48996665 0.92730960 34 32 34
-0.78982224 0.51002371 0.92735021 34 31 37
-0.78984372 0.52366212 0.92737542 34 32 36
-0.76990128 -0.62229540 0.92364164 0 0 0
-0.76982236 -0.61025983 0.92354695 0 0 0
-0.76969548 -0.59020906 0.92339473 0 0 0
-0.77032448 -0.57013401 0.92319222 0 0 0
-0.76277352 -0.54242687 0.91414660 125 162 179
-0.76977986 -0.55351877 0.92277333 7 9 10
-0.76396078 -0.53078760 0.89366372 127 170 184
-0.76526409 -0.53745673 0.90550642 127 169 187
-0.77024521 -0.50618835 0.85713112 128 157 176
-0.76363254 -0.51325647 0.86247372 131 162 181
-0.77004778 -0.49010332 0.84987611 122 153 173
-0.76127983 -0.46031505 0.83933118 110 145 164
-0.77003605 -0.47051046 0.84475328 116 147 166
-0.76763697 -0.44878085 0.83687815 110 138 160
-0.77593605 -0.45352702 0.84138620 112 139 160
-0.76947841 -0.43035153 0.83438499 101 131 152
-0.77868443 -0.43654117 0.84010975 105 132 152
-0.77003091 -0.41085014 0.83156519 98 122 145
-0.76035522 -0.38112773 0.81880778 87 113 138
-0.77070357 -0.39004725 0.82775860 91 114 138
-0.76612826 -0.36989918 0.81567396 90 108 137
-0.77394110 -0.37599777 0.82306627 87 112 136
-0.76665100 -0.34803931 0.81421620 86 102 127
-0.77502154 -0.32976495 0.82843375 85 93 131
-0.76026914 -0.31705057 0.81416887 85 97 129
-0.77023305 -0.31323153 0.82636875 69 96 135
-0.77363370 -0.28851244 0.83543947 70 97 131
-0.77083955 -0.27601314 0.83475929 73 90 132
-0.77781905 -0.27465873 0.84389710 76 92 118
-0.76157843 -0.24361642 0.83252156 65 83 120
-0.77526201 -0.25532629 0.84508479 71 89 119
-0.76927451 -0.23635042 0.84252644 81 83 127
-0.76236528 -0.21524579 0.83972812 74 87 126
-0.76585977 -0.20787986 0.84518629 65 87 102
-0.77986931 -0.20761585 0.86229169 82 81 115
-0.76212135 -0.18612462 0.84590119 65 84 107
-0.77747813 -0.17336628 0.86627546 67 81 100
-0.76339067 -0.14890129 0.85469005 66 78 100
-0.77736945 -0.14699495 0.87118707 65 76 94
-0.76736226 -0.10980258 0.86668390 58 63 84
-0.76530385 -0.08894273 0.86774528 47 44 54
-0.77775601 -0.08886567 0.88186425 45 44 51
-0.76538001 -0.07072339 0.87124753 44 47 53
-0.77595990 -0.06614467 0.88387074 44 43 60
-0.76353473 -0.04901432 0.87615911 46 47 60
-0.76826928 -0.04323762 0.88717683 69 72 96
-0.76957578 -0.03657132 0.89630759 113 118 140
-0.77017238 -0.02684592 0.90530720 121 132 148
-0.76999439 -0.00995718 0.91347759 130 134 137
-0.76996695 0.00978005 0.91792159 134 135 133
-0.76979603 0.02256998 0.91970141 116 118 118
-0.77012339 0.03276790 0.92070926 113 116 116
-0.76990767 0.04957671 0.92196261 110 112 111
-0.77001093 0.06990404 0.92312711 97 98 99
-0.76993728 0.08957523 0.92414473 69 74 86
-0.77001674 0.10980346 0.92473903 61 65 77
-0.77012987 0.12998402 0.92512972 59 63 75
-0.76978664 0.14987231 0.92542324 54 58 67
-0.76998758 0.16991049 0.92566481 48 52 60
-0.77015993 0.18995222 0.92587200 43 44 52
-0.77031321 0.20999760 0.92605626 37 37 44
-0.76971290 0.22998407 0.92621721 33 32 39
-0.76976770 0.25009566 0.92636292 32 30 36
-0.76987794 0.27014866 0.92649560 31 28 33
-0.76997943 0.29020402 0.92661773 31 28 34
-0.77007130 0.31026084 0.92672830 29 28 32
-0.77015256 0.33031783 0.92682610 29 28 31
-0.77022087 0.34957214 0.92690831 29 28 32
-0.77028418 0.36962861 0.92698451 30 28 32
-0.77034010 0.38968458 0.92705180 31 30 34
-0.77038991 0.40974026 0.92711174 32 31 34
-0.76963666 0.42979750 0.92716954 32 31 34
-0.76968133 0.44985534 0.92722335 33 31 34
-0.76972309 0.46991369 0.92727366 34 32 35
-0.76976113 0.48997188 0.92731949 34 32 35
-0.76979539 0.51002951 0.92736076 33 32 36
-0.76981601 0.52366787 0.92738561 33 32 35
-0.74985784 -0.62222247 0.92353339 0 0 0
-0.74978086 -0.61018823 0.92343859 0 0 0
-0.74965538 -0.59013830 0.92328402 0 0 0
-0.75027657 -0.57005642 0.92306652 0 0 0
-0.75119794 -0.54210156 0.91680379 135 168 185
-0.74964552 -0.55267223 0.92266449 5 6 7
-0.75325441 -0.52139666 0.87700309 131 167 187
-0.74739037 -0.53698345 0.90895134 135 170 188
-0.75073270 -0.50474948 0.85468282 131 162 180
-0.75403815 -0.51592464 0.86718626 129 166 184
-0.74395267 -0.48145496 0.83925999 127 158 176
-0.75083382 -0.49030499 0.84596846 126 158 177
-0.74844713 -0.46922944 0.83708807 120 151 170
-0.75735670 -0.47423039 0.84085396 120 151 171
-0.75004402 -0.44956972 0.83103105 113 143 164
-0.74170285 -0.42172003 0.81930833 108 135 153
-0.74966491 -0.43048555 0.82489873 106 136 155
-0.74571840 -0.40924601 0.81672771 97 127 150
-0.75483440 -0.41232723 0.82250639 99 126 149
-0.74915669 -0.39076308 0.81279267 95 119 142
-0.75914215 -0.39257887 0.82055604 101 116 138
-0.74236120 -0.36278885 0.79868653 88 109 136
-0.75103752 -0.37045815 0.80746999 88 111 138
-0.74625237 -0.35119620 0.79457757 86 104 137
-0.75520293 -0.35830193 0.80371976 90 106 137
-0.74529019 -0.33654537 0.79227436 86 99 131
-0.75816699 -0.32759121 0.80892313 90 94 124
-0.75303160 -0.29197842 0.81091520 69 96 134
-0.74993829 -0.26993275 0.81212485 81 87 128
-0.75617169 -0.25757167 0.82195210 67 84 125
-0.74139590 -0.21978031 0.81353319 54 85 112
-0.74683184 -0.19614228 0.82655457 77 84 111
-0.74893777 -0.16842823 0.83447969 66 82 103
-0.74396551 -0.14726308 0.83294365 73 79 102
-0.75420105 -0.14360840 0.84521765 74 80 107
-0.75540007 -0.12676925 0.84985369 67 80 105
-0.75151126 -0.08881256 0.85210645 47 42 58
-0.74446463 -0.06519132 0.85144648 46 45 53
-0.75747630 -0.06832528 0.86309898 44 47 52
-0.74571373 -0.05895791 0.85774769 43 44 61
-0.74946439 -0.05185400 0.86981473 48 47 60
-0.75018247 -0.04285296 0.88491170 69 73 98
-0.75018347 -0.03603791 0.89557977 113 124 145
-0.74987098 -0.02623293 0.90528772 127 137 151
-0.74999758 -0.00989666 0.91325678 127 133 137
-0.75001838 0.00989534 0.91779956 138 138 137
-0.75005021 0.02251876 0.91959560 117 119 121
-0.75006656 0.03303448 0.92064638 116 118 118
-0.74991067 0.04986012 0.92189650 108 110 111
-0.74997446 0.06953922 0.92298055 105 104 103
-0.75008392 0.08986125 0.92398689 83 85 91
-0.74997439 0.10979428 0.92466111 64 67 78
-0.75012621 0.12968918 0.92508033 59 62 75
-0.74976773 0.14986733 0.92539245 53 57 66
-0.74996762 0.16990579 0.92563918 47 49 57
-0.75013710 0.18994737 0.92584837 42 42 50
-0.75028668 0.20999232 0.92603299 38 37 44
-0.74997471 0.23024711 0.92619951 33 32 38
-0.74974116 0.25009158 0.92634779 31 30 36
-0.74985190 0.27014547 0.92648462 31 29 33
-0.74995288 0.29020141 0.92660939 29 27 32
-0.75004439 0.31025889 0.92672247 27 27 30
-0.75012617 0.33031692 0.92682352 27 27 31
-0.75019503 0.34957226 0.92690860 28 27 31
-0.75025828 0.36962951 0.92698675 29 27 31
-0.75031340 0.38968587 0.92705486 28 28 32
-0.75036248 0.40974192 0.92711550 30 29 32
-0.74960851 0.42979955 0.92717395 31 29 33
-0.74965296 0.44985804 0.92722893 33 30 34
-0.74969456 0.46991710 0.92728038 32 31 34
-0.74973229 0.48997588 0.92732706 33 32 35
-0.74976613 0.51003400 0.92736891 33 31 35
-0.74978579 0.52367217 0.92739322 28 26 29
-0.72983263 -0.62216103 0.92344220 0 0 0
-0.72975434 -0.61012518 0.92334314 0 0 0
-0.72994241 -0.59025676 0.92318001 0 0 0
-0.73023679 -0.56998101 0.92294436 0 0 0
-0.73872766 -0.54249201 0.91961384 139 171 188
-0.72983056 -0.55133060 0.92243126 8 11 12
-0.73503295 -0.52063605 0.87998605 131 170 190
-0.72248904 -0.52324891 0.88699359 137 171 186
-0.73327620 -0.53219059 0.90215123 138 170 185
-0.72913049 -0.50339910 0.85129155 132 168 186
-0.72611374 -0.51272896 0.86662138 130 170 190
-0.72869029 -0.48418714 0.83710237 132 162 180
-0.73085414 -0.49415737 0.84418450 133 164 184
-0.73005050 -0.46938587 0.83139232 126 156 175
-0.72312045 -0.44177854 0.81895244 113 148 163
-0.73029075 -0.45078339 0.82579496 119 148 166
-0.72851336 -0.42865466 0.81656535 113 140 159
-0.73593621 -0.43480582 0.82150176 113 141 161
-0.73045114 -0.41011054 0.81030786 100 132 152
-0.72518047 -0.38638253 0.79652790 94 123 143
-0.73215395 -0.39334871 0.80366213 95 125 146
-0.72833201 -0.37106275 0.79181805 90 116 139
-0.73754900 -0.37835559 0.80095667 89 117 144
-0.72336711 -0.34656562 0.77699468 88 108 135
-0.73259883 -0.35145917 0.78599443 88 107 134
-0.72678614 -0.33712535 0.77306658 85 101 139
-0.73643201 -0.33462071 0.78284574 97 107 135
-0.72166115 -0.30839386 0.77139592 77 97 135
-0.73142742 -0.30637672 0.78328240 85 98 127
-0.72647624 -0.29678407 0.77942288 74 95 134
-0.73585808 -0.28803939 0.79242742 71 94 129
-0.72846236 -0.26851759 0.78739429 74 92 128
-0.73119741 -0.25956716 0.79331481 76 92 120
-0.72676831 -0.22466667 0.79597270 78 83 126
-0.73348954 -0.23601712 0.80181611 69 93 126
-0.72477684 -0.20601293 0.79832530 72 88 125
-0.73972249 -0.21688969 0.81323934 67 98 114
-0.72179662 -0.19729644 0.79655915 66 87 106
-0.73083005 -0.17388389 0.81273580 66 82 105
-0.72917730 -0.15056356 0.81559315 73 80 99
-0.73452662 -0.12954983 0.82557055 64 79 103
-0.73954420 -0.11282318 0.83363628 71 77 93
-0.72233514 -0.09791325 0.81742293 42 47 61
-0.73404302 -0.09315241 0.83148158 43 43 62
-0.72620486 -0.07344000 0.83313264 45 45 55
-0.73043304 -0.06483480 0.84712979 47 47 55
-0.72882241 -0.05794132 0.85690899 49 49 58
-0.72958429 -0.04991545 0.86986413 52 52 65
-0.73051946 -0.04190498 0.88477545 75 82 108
-0.73010460 -0.03604740 0.89460116 115 125 140
-0.73002337 -0.02633951 0.90495986 129 138 151
-0.73000137 -0.00997172 0.91312196 127 131 136
-0.73007674 0.00975197 0.91771756 135 136 136
-0.72950601 0.02315398 0.91960043 119 122 123
-0.73030355 0.03345145 0.92062374 116 118 119
-0.72996305 0.04956950 0.92182864 114 116 114
-0.72998042 0.06989028 0.92294825 120 119 115
-0.73002179 0.08963368 0.92383901 105 102 103
-0.72993116 0.10978447 0.92457791 68 68 78
-0.73021636 0.12988390 0.92503003 57 60 69
-0.72974389 0.14986109 0.92535374 51 54 60
-0.72994503 0.16990023 0.92560882 44 45 53
-0.73011292 0.18994191 0.92582173 41 41 48
-0.73026087 0.20998697 0.92600933 38 38 42
-0.72997788 0.22982772 0.92617680 33 32 38
-0.72971619 0.25008782 0.92633382 32 31 36
-0.72982768 0.27014278 0.92647536 30 29 34
-0.72992863 0.29019958 0.92660352 28 27 31
-0.73002012 0.31025796 0.92671967 27 27 30
-0.73010174 0.33031684 0.92682329 28 26 30
-0.73016997 0.34957275 0.92690990 27 27 30
-0.73023243 0.36963048 0.92698919 28 26 31
-0.73028671 0.38968724 0.92705810 28 27 31
-0.73033481 0.40974353 0.92711915 28 28 31
-0.73038121 0.42980145 0.92717806 30 28 32
-0.72985733 0.45003551 0.92723435 33 29 33
-0.72966488 0.46991996 0.92728602 32 31 34
-0.72970184 0.48997902 0.92733299 32 31 34
-0.72973474 0.51003723 0.92737479 32 31 35
-0.72975378 0.52367543 0.92739900 10 10 11
-0.70981272 -0.62210085 0.92335287 0 0 0
-0.70973620 -0.61006584 0.92325332 0 0 0
-0.70994938 -0.58981921 0.92307792 0 0 0
-0.71021940 -0.56991925 0.92284438 0 0 0
-0.71747699 -0.54105872 0.91987938 132 160 180
-0.70988917 -0.55063122 0.92250303 3 4 4
-0.70463455 -0.52902940 0.89942777 137 168 188
-0.70580970 -0.53385211 0.90996625 134 171 188
-0.71014521 -0.50207305 0.85109700 132 170 188
-0.70490023 -0.51152409 0.86857435 138 172 187
-0.70980332 -0.48572514 0.83500979 131 167 182
-0.71067855 -0.49522565 0.84349104 130 169 186
-0.71041547 -0.46964660 0.82594489 131 162 179
-0.70812388 -0.44633208 0.81751492 116 153 168
-0.71182152 -0.45467469 0.82279270 126 154 172
-0.70994590 -0.43009408 0.80961228 113 146 163
-0.70549324 -0.40640189 0.79680525 104 136 155
-0.71247189 -0.41276319 0.80318763 105 137 156
-0.71033351 -0.38984653 0.79118239 100 129 148
-0.70543500 -0.36647823 0.77603797 91 119 140
-0.71198641 -0.37409565 0.78375128 94 122 141
-0.70044983 -0.34258319 0.75853270 94 110 135
-0.70939126 -0.35117522 0.76953910 92 113 137
-0.70673695 -0.32905670 0.75501882 89 103 136
-0.71489575 -0.33682939 0.76557310 85 106 135
-0.70850744 -0.31172753 0.75524250 81 100 126
-0.71812951 -0.28458010 0.77189922 60 94 133
-0.71991724 -0.26047448 0.77961439 77 91 121
-0.70715251 -0.24723968 0.76795372 74 89 126
-0.70764644 -0.23261350 0.77210208 72 92 123
-0.71040709 -0.20964421 0.78101045 67 96 118
-0.70919520 -0.16550103 0.78943554 64 84 100
-0.70390497 -0.14995828 0.78656635 73 79 104
-0.70521131 -0.12108933 0.79338944 65 81 106
-0.71377209 -0.13201825 0.80146217 67 78 106
-0.70212424 -0.10848245 0.79145539 69 75 94
-0.71759453 -0.10688663 0.81047302 69 75 102
-0.70122962 -0.08637399 0.79587971 45 45 58
-0.70639707 -0.08174557 0.81125423 45 45 54
-0.70894782 -0.07938765 0.81803248 45 45 52
-0.71003163 -0.07322480 0.83059035 46 46 57
-0.70933425 -0.06394307 0.84695539 48 48 58
-0.70998277 -0.05821197 0.85643866 49 50 59
-0.71004484 -0.05004798 0.86856012 53 54 65
-0.70987555 -0.04171266 0.88401992 79 85 110
-0.71008393 -0.03602093 0.89455161 117 127 142
-0.71003418 -0.02624762 0.90497069 128 137 151
-0.71001785 -0.00996155 0.91295839 129 133 138
-0.71002052 0.00987745 0.91761084 136 136 136
-0.71004993 0.02336061 0.91952648 122 123 123
-0.70996156 0.03367578 0.92056241 119 120 118
-0.70992707 0.04988053 0.92179336 118 120 119
-0.71002708 0.06953282 0.92289622 130 129 124
-0.71012856 0.08972991 0.92376379 126 122 116
-0.70988160 0.10977321 0.92448170 76 74 79
-0.71019989 0.12975909 0.92497695 53 56 63
-0.70972260 0.14985503 0.92531622 47 48 54
-0.70992510 0.16989500 0.92558024 44 43 50
-0.71009231 0.18993711 0.92579827 41 40 46
-0.71023910 0.20998251 0.92598965 38 37 43
-0.71017681 0.23018319 0.92616443 34 33 38
-0.70969480 0.25008511 0.92632374 32 30 37
-0.70980655 0.27014111 0.92646961 29 28 34
-0.70990701 0.29019871 0.92660075 28 28 31
-0.70999778 0.31025781 0.92671922 28 27 30
-0.71007822 0.33031718 0.92682422 27 26 30
-0.71014539 0.34957350 0.92691190 27 26 30
-0.71020673 0.36963159 0.92699196 27 26 31
-0.71026005 0.38968869 0.92706156 27 26 30
-0.71030745 0.40974542 0.92712343 28 27 30
-0.71035290 0.42980363 0.92718276 28 27 31
-0.70985442 0.44968221 0.92723813 30 29 32
-0.70963419 0.46992230 0.92729065 30 29 33
-0.70967005 0.48998140 0.92733750 32 30 35
-0.70970144 0.51003928 0.92737853 30 28 31
-0.70972096 0.52367828 0.92740403 0 0 0
-0.68979942 -0.62204306 0.92326711 0 0 0
-0.68972355 -0.61000786 0.92316556 0 0 0
-0.69004388 -0.59013935 0.92299247 0 0 0
-0.69021165 -0.56986190 0.92275154 0 0 0
-0.68996311 -0.54972804 0.92241937 1 1 1
-0.69510613 -0.52110913 0.88726684 138 169 190
-0.69174818 -0.53603477 0.91593154 116 152 165
-0.68716172 -0.53915947 0.92116237 50 68 73
-0.69431993 -0.50244081 0.85422325 136 170 185
-0.69606671 -0.51366332 0.87330317 135 172 187
-0.69434800 -0.51901627 0.88240397 135 171 187
-0.69054716 -0.48611150 0.83510694 134 168 185
-0.69275057 -0.49533051 0.84366535 136 170 186
-0.68906988 -0.46326618 0.81809191 130 162 178
-0.69035680 -0.47312851 0.82439857 134 165 182
-0.69038999 -0.45118241 0.81454154 125 157 174
-0.68582556 -0.42418472 0.79802899 116 149 167
-0.69145558 -0.43210892 0.80429924 116 151 167
-0.68972737 -0.41041016 0.79232160 109 140 162
-0.69958883 -0.41995437 0.80108356 112 144 161
-0.68601200 -0.38652185 0.77701445 105 132 151
-0.69215841 -0.39336755 0.78383193 106 132 153
-0.69030007 -0.37076054 0.77070210 98 123 145
-0.68654166 -0.34872522 0.75409638 92 115 139
-0.69266479 -0.35617853 0.76287026 91 118 142
-0.68534373 -0.32324061 0.73734119 89 107 135
-0.69229811 -0.33128368 0.74690917 89 109 134
-0.68502202 -0.31617304 0.73155408 91 101 133
-0.69549321 -0.28903001 0.74548817 78 97 128
-0.68091097 -0.27109617 0.73189396 63 100 136
-0.69762607 -0.27072988 0.75195596 74 95 132
-0.68402002 -0.22268397 0.74773836 75 88 125
-0.68712477 -0.20937815 0.75326389 70 88 123
-0.68286746 -0.17691014 0.75648367 73 87 110
-0.69162690 -0.16273840 0.76987541 65 84 104
-0.69052056 -0.13228779 0.77460057 64 77 96
-0.68291489 -0.10305419 0.77130479 66 78 94
-0.68248218 -0.08499987 0.77688493 45 45 57
-0.68793810 -0.08596792 0.79217380 45 45 57
-0.68865534 -0.08292950 0.80933394 47 47 55
-0.68371409 -0.08057995 0.82156970 49 49 57
-0.69273293 -0.07892427 0.81701729 47 46 56
-0.69026844 -0.07441429 0.83058980 49 50 59
-0.68989916 -0.06480193 0.84646071 50 50 59
-0.68955051 -0.05792093 0.85675082 51 52 62
-0.69027189 -0.04960384 0.86855212 54 55 67
-0.69056287 -0.04157206 0.88381406 78 87 114
-0.68978184 -0.03589747 0.89444557 111 123 141
-0.68998050 -0.02621655 0.90472256 125 137 149
-0.69006931 -0.00991036 0.91275436 128 132 136
-0.69003497 0.00985028 0.91748633 136 137 137
-0.68994628 0.02405072 0.91951728 123 122 125
-0.69003486 0.03454379 0.92057160 126 127 126
-0.68998556 0.04953667 0.92172086 122 123 121
-0.68998434 0.06990369 0.92287837 138 138 129
-0.69013910 0.08972579 0.92372188 137 131 124
-0.68984452 0.10976313 0.92439681 104 102 100
-0.69024097 0.12980902 0.92492810 57 57 64
-0.68976357 0.14990685 0.92528340 47 47 54
-0.68990956 0.16989054 0.92555590 43 43 50
-0.69007715 0.18993352 0.92578074 40 39 46
-0.69022360 0.20997970 0.92597723 38 37 43
-0.69018076 0.22988460 0.92615265 34 33 38
-0.68967733 0.25008366 0.92631835 32 31 37
-0.68978849 0.27014055 0.92646767 30 28 35
-0.68988754 0.29019870 0.92660070 29 28 32
-0.68997675 0.31025825 0.92672053 28 27 31
-0.69005541 0.33031787 0.92682617 27 26 30
-0.69012114 0.34957447 0.92691446 27 26 30
-0.69018125 0.36963287 0.92699518 28 26 31
-0.69023359 0.38969034 0.92706549 28 26 30
-0.69028011 0.40974743 0.92712798 28 27 30
-0.69032449 0.42980587 0.92718758 28 27 31
-0.69036561 0.44986478 0.92724280 29 28 31
-0.69033204 0.46998491 0.92729422 29 29 33
-0.68963697 0.48998301 0.92734055 30 29 33
-0.68966672 0.51004040 0.92738056 21 20 23
-0.68968597 0.52367963 0.92740644 0 0 0
-0.66978882 -0.62198439 0.92318003 0 0 0
-0.66971511 -0.60995030 0.92307844 0 0 0
-0.67006828 -0.58970975 0.92290273 0 0 0
-0.67021019 -0.56980646 0.92266175 0 0 0
-0.66998171 -0.54968486 0.92234723 0 0 0
-0.66078756 -0.52072298 0.89583552 133 175 189
-0.67712145 -0.53268692 0.91370100 131 172 185
-0.67018137 -0.53804672 0.92152772 30 42 46
-0.67497380 -0.51133287 0.87319794 135 171 187
-0.67043185 -0.48602153 0.83419729 137 170 186
-0.67031470 -0.49416833 0.84263496 135 171 186
-0.67027362 -0.46409145 0.81658309 133 164 183
-0.67133228 -0.47379617 0.82442897 134 167 184
-0.67026926 -0.45006750 0.80826061 129 159 178
-0.66941094 -0.42724653 0.79403305 120 153 170
-0.67232599 -0.43720576 0.80211564 126 156 171
-0.66455585 -0.40307263 0.77837562 111 142 161
-0.67082568 -0.41116992 0.78549351 114 145 166
-0.66973394 -0.38962535 0.77196714 108 136 155
-0.67624267 -0.39906066 0.78052905 106 139 160
-0.66750949 -0.36666563 0.75585554 100 127 148
-0.67181899 -0.37456353 0.76313975 102 130 150
-0.66517061 -0.34187808 0.73942702 92 116 142
-0.67072533 -0.35060882 0.74816363 94 120 145
-0.66828022 -0.33218135 0.73184925 89 114 135
-0.67503390 -0.33901740 0.74071495 91 116 137
-0.66586984 -0.31100305 0.71573499 88 103 131
-0.67471627 -0.31635325 0.72591391 87 104 132
-0.66458974 -0.28833109 0.70995428 80 99 131
-0.67832655 -0.28313155 0.72709155 81 96 131
-0.66524494 -0.27540964 0.71426096 80 97 130
-0.67168063 -0.27813534 0.72063369 81 96 129
-0.66324745 -0.25044229 0.71623424 81 90 130
-0.66946973 -0.24182099 0.72566310 72 93 125
-0.66060036 -0.23822236 0.71672034 80 88 127
-0.67053179 -0.22261291 0.73161313 71 87 119
-0.66541941 -0.21291571 0.72850755 73 87 123
-0.67576992 -0.21145995 0.74011815 73 86 128
-0.66471211 -0.19742250 0.73077410 63 94 121
-0.67877799 -0.19423034 0.74765861 71 89 122
-0.67718228 -0.16489197 0.75234586 63 84 105
-0.66112528 -0.15634185 0.73663393 64 85 103
-0.67206629 -0.15405148 0.74985206 69 80 104
-0.66738755 -0.13227851 0.74792066 68 79 102
-0.66277749 -0.10882151 0.74710992 69 76 105
-0.67895664 -0.11790149 0.76385194 64 77 110
-0.66429136 -0.08764485 0.75717343 44 46 58
-0.66875285 -0.08966314 0.77059717 44 46 59
-0.66969314 -0.08990643 0.79073928 47 47 60
-0.67014043 -0.08587469 0.81047935 48 48 59
-0.66581606 -0.08062278 0.82186069 50 49 61
-0.67029625 -0.07482262 0.83101977 50 51 60
-0.67043050 -0.06489437 0.84660618 51 52 60
-0.66953308 -0.05718479 0.85613644 53 55 62
-0.67025386 -0.04822715 0.86885221 57 59 71
-0.67032871 -0.04094592 0.88391513 84 95 119
-0.67002450 -0.03529492 0.89448865 106 119 140
-0.66995237 -0.02550334 0.90476709 128 136 146
-0.66991480 -0.00996443 0.91247542 129 133 135
-0.67005895 0.00982272 0.91735645 139 139 138
-0.66998239 0.02423949 0.91945095 123 124 124
-0.67000743 0.03443294 0.92048782 134 132 130
-0.66995257 0.04988982 0.92168916 128 128 126
-0.67002830 0.06950608 0.92281327 139 138 131
-0.67015153 0.08972174 0.92368007 160 157 148
-0.66983557 0.10975700 0.92434558 142 140 133
-0.67022150 0.12980207 0.92487814 73 71 76
-0.66975989 0.14978377 0.92525329 49 49 54
-0.66989939 0.16988718 0.92553751 44 44 50
-0.67006673 0.18993107 0.92576873 42 41 47
-0.67021280 0.20997819 0.92597055 39 38 42
-0.67034356 0.23002890 0.92615121 35 34 39
-0.66966460 0.25008390 0.92631920 32 31 37
-0.66977408 0.27014141 0.92647064 31 30 35
-0.66987077 0.29019985 0.92660438 30 29 33
-0.66995732 0.31025945 0.92672411 29 27 32
-0.67003370 0.33031915 0.92682975 27 26 30
-0.67009758 0.34957586 0.92691813 27 26 30
-0.67015616 0.36963446 0.92699915 28 27 31
-0.67020718 0.38969213 0.92706973 30 28 31
-0.67025248 0.40974938 0.92713239 30 29 32
-0.67029525 0.42980771 0.92719155 30 29 33
-0.67033446 0.44986622 0.92724578 30 29 32
-0.67030870 0.46986812 0.92729597 29 28 32
-0.66960217 0.48998345 0.92734139 30 29 33
-0.66963065 0.51004056 0.92738084 14 13 15
-0.66964834 0.52367901 0.92740533 0 0 0
-0.64977929 -0.62192311 0.92308907 0 0 0
-0.64970914 -0.60989147 0.92298941 0 0 0
-0.65003959 -0.59002919 0.92282019 0 0 0
-0.65021692 -0.56975486 0.92257818 0 0 0
-0.64999731 -0.54963672 0.92226654 0 0 0
-0.65527086 -0.52188002 0.89782605 132 171 192
-0.64816909 -0.52872886 0.91147595 105 136 150
-0.64955366 -0.53726909 0.92184041 4 5 6
-0.64728223 -0.50727194 0.87140125 131 173 186
-0.65727185 -0.51613780 0.88794732 133 173 187
-0.65122401 -0.48495223 0.83159307 136 170 186
-0.64915278 -0.49488924 0.84635864 135 172 186
-0.64996582 -0.46606552 0.81452376 133 166 183
-0.65162668 -0.47621485 0.82359312 134 168 183
-0.64730602 -0.44443715 0.79748492 131 163 180
-0.65201738 -0.45193136 0.80419934 132 163 182
-0.64999124 -0.43039439 0.79025239 124 157 174
-0.64880836 -0.40838387 0.77520194 119 148 168
-0.65472512 -0.41654896 0.78201758 119 152 169
-0.64516728 -0.38340348 0.75768429 110 140 157
-0.65126471 -0.39167986 0.76587246 113 141 160
-0.64985418 -0.36999969 0.75071964 106 133 153
-0.65745314 -0.37889210 0.76035935 110 136 154
-0.64814748 -0.34884058 0.73457830 99 126 146
-0.65484308 -0.35603295 0.74237721 99 127 148
-0.64866312 -0.32395266 0.71686991 91 114 135
-0.65183178 -0.33227435 0.72589741 92 116 138
-0.64326397 -0.30517142 0.69703821 89 105 131
-0.64836644 -0.31328057 0.70707289 90 109 132
-0.64639003 -0.29282259 0.69185563 85 102 128
-0.65346035 -0.28149697 0.70108549 82 96 133
-0.64593873 -0.27218601 0.69315726 82 95 131
-0.65441330 -0.27403611 0.70285261 82 95 131
-0.64261651 -0.25158543 0.69298796 77 94 132
-0.64326749 -0.23694745 0.69661292 78 90 125
-0.65296621 -0.22918923 0.70950626 71 91 124
-0.64555077 -0.21266455 0.71074750 76 88 122
-0.65994121 -0.21275323 0.72278219 74 93 126
-0.64584356 -0.18998471 0.71002787 73 89 120
-0.64257696 -0.14768509 0.71827159 68 81 105
-0.65142765 -0.14887715 0.72843795 69 81 104
-0.64525809 -0.14928035 0.89684713 123 122 120
-0.64499683 -0.14542146 0.90299266 127 109 96
-0.64165032 -0.13355996 0.71880592 70 81 103
-0.64475606 -0.12914817 0.73134842 71 79 102
-0.65264649 -0.13026721 0.74438528 70 78 102
-0.64516257 -0.13033335 0.90259296 132 114 98
-0.64539202 -0.11155797 0.72883808 68 77 103
-0.64131553 -0.10306991 0.75270861 71 79 104
-0.64399708 -0.10433091 0.77130528 69 80 104
-0.64378760 -0.10069527 0.78092855 75 83 109
-0.64521963 -0.10962944 0.90221324 132 109 101
-0.64387237 -0.09143749 0.73538122 54 60 78
-0.64847029 -0.09386103 0.75080844 57 62 77
-0.65191599 -0.09539285 0.77018634 54 58 75
-0.64955133 -0.09542504 0.79118121 51 53 69
-0.65024379 -0.08701565 0.81014032 52 52 64
-0.64976949 -0.08071459 0.82213756 52 52 62
-0.64263469 -0.08844481 0.89073222 129 115 112
-0.64515886 -0.08961793 0.90215639 133 110 93
-0.65007937 -0.07453412 0.83176450 52 53 62
-0.64998651 -0.06470219 0.84572917 55 55 63
-0.64742402 -0.06891907 0.89502222 134 118 114
-0.64576884 -0.06991915 0.90230034 135 115 94
-0.64975540 -0.05627138 0.85584541 55 57 62
-0.65040939 -0.04741518 0.86846796 60 61 74
-0.64896284 -0.04481714 0.88767963 108 107 118
-0.64552329 -0.05054669 0.90245390 137 116 100
-0.65304183 -0.03576654 0.89376124 113 120 137
-0.64853162 -0.02906706 0.90399153 134 128 125
-0.64996849 -0.00985543 0.91227274 134 137 139
-0.65001838 0.00985312 0.91724364 139 140 138
-0.65005328 0.02483944 0.91942510 128 130 128
-0.64993104 0.03541356 0.92050213 141 140 133
-0.65000735 0.04951330 0.92160000 133 133 130
-0.64997690 0.06990507 0.92278266 155 153 146
-0.65016648 0.08971778 0.92363926 181 180 169
-0.64983387 0.10975175 0.92430152 160 161 151
-0.65020270 0.12979479 0.92482612 101 99 99
-0.64980189 0.14994647 0.92522997 52 52 58
-0.64989359 0.16988475 0.92552421 45 44 51
-0.65006138 0.18992994 0.92576319 41 41 46
-0.65020657 0.20997807 0.92596997 39 39 42
-0.65033554 0.23002951 0.92615365 35 34 39
-0.64965417 0.25008502 0.92632335 33 32 38
-0.64976087 0.27014283 0.92647551 31 31 35
-0.64985465 0.29020137 0.92660922 30 29 34
-0.64993823 0.31026088 0.92672839 28 27 32
-0.65001211 0.33032057 0.92683373 27 26 31
-0.65007413 0.34957738 0.92692216 27 26 30
-0.65013128 0.36963625 0.92700366 27 26 29
-0.65018110 0.38969422 0.92707470 29 28 31
-0.65022514 0.40975164 0.92713748 30 29 32
-0.65026609 0.42980971 0.92719588 31 30 33
-0.65030307 0.44986758 0.92724860 31 30 32
-0.65033729 0.46992571 0.92729739 29 28 32
-0.65036768 0.48998308 0.92734071 29 28 32
-0.65039472 0.51003969 0.92737927 6 6 6
-0.65041109 0.52367747 0.92740261 0 0 0
-0.62977312 -0.62186129 0.92299731 0 0 0
-0.62970394 -0.60982971 0.92289594 0 0 0
-0.63006814 -0.58959641 0.92272539 0 0 0
-0.63022424 -0.56970045 0.92249003 0 0 0
-0.62999972 -0.54957402 0.92216131 0 0 0
-0.63237215 -0.52988827 0.91751294 88 115 126
-0.62881792 -0.53588400 0.92169250 3 4 5
-0.63593885 -0.51348772 0.88602281 130 169 187
-0.62932063 -0.48406504 0.83112304 135 173 188
-0.63569644 -0.49548086 0.84988263 133 173 188
-0.63052296 -0.46761023 0.81131327 135 171 186
-0.63039606 -0.47809274 0.82282115 137 173 187
-0.62947066 -0.44736478 0.79325438 133 165 182
-0.63340101 -0.45700869 0.80237282 134 166 183
-0.62574052 -0.42554168 0.77758717 128 161 176
-0.63172574 -0.43258250 0.78422726 130 162 177
-0.63064533 -0.40929626 0.76878689 124 153 172
-0.62934516 -0.38798816 0.75502461 116 144 163
-0.63361232 -0.39639414 0.76224299 119 146 167
-0.62625007 -0.36484521 0.73728052 111 136 156
-0.63093511 -0.37312164 0.74519109 111 138 157
-0.62328113 -0.34248329 0.71844412 98 128 150
-0.63107786 -0.35070016 0.72822411 102 129 150
-0.62881466 -0.32990274 0.71184188 98 120 142
-0.63795995 -0.33727077 0.72123612 100 120 143
-0.62126750 -0.30114168 0.67978233 89 112 136
-0.62771508 -0.30674316 0.69260095 92 113 136
-0.63225777 -0.31548257 0.70461519 91 115 137
-0.62573413 -0.28863437 0.67369621 84 104 129
-0.63381520 -0.29513036 0.68416333 88 105 131
-0.62542004 -0.27175300 0.67135781 82 98 128
-0.63691303 -0.27042382 0.68380698 83 96 129
-0.62640642 -0.24738233 0.67708505 77 93 130
-0.63016024 -0.24790654 0.68516177 79 95 130
-0.62346095 -0.23532537 0.67588521 78 93 130
-0.62841984 -0.23026544 0.68647564 75 93 125
-0.62352066 -0.21298788 0.67967719 71 88 123
-0.62728025 -0.21071148 0.69398099 75 91 120
-0.63449509 -0.21203033 0.70396300 76 91 121
-0.62711382 -0.19292914 0.69143036 75 88 121
-0.62561681 -0.17115116 0.69108182 74 81 114
-0.63812877 -0.17564380 0.70422512 72 80 125
-0.62260017 -0.14797276 0.69773855 67 84 108
-0.62777138 -0.14472978 0.71060681 71 82 106
-0.63045735 -0.14058899 0.72287397 74 81 105
-0.63203894 -0.14283373 0.87636844 121 122 129
-0.63075188 -0.14996373 0.89169337 137 121 115
-0.62990900 -0.14565917 0.90278538 134 109 88
-0.62091443 -0.13706632 0.69991326 71 80 104
-0.62918594 -0.13408101 0.71276045 72 79 104
-0.62930159 -0.12763313 0.72822782 72 80 104
-0.62249059 -0.12111653 0.74430579 73 84 104
-0.63378558 -0.13310812 0.87879029 121 114 118
-0.63491851 -0.12675527 0.88036117 122 120 126
-0.63039732 -0.12976872 0.90260999 137 111 89
-0.62739526 -0.11013509 0.71446289 69 78 102
-0.62967832 -0.11193343 0.72919281 70 79 103
-0.63164450 -0.11246727 0.74945759 71 81 106
-0.63049219 -0.11010286 0.77076664 72 84 109
-0.63067364 -0.10316753 0.78274715 73 83 109
-0.63364904 -0.11663033 0.87860097 115 117 131
-0.63698423 -0.10731645 0.88322545 125 114 117
-0.63060429 -0.10966381 0.90249781 136 109 86
-0.62649117 -0.09373977 0.71226196 65 71 94
-0.63573340 -0.09536763 0.72951553 66 72 94
-0.63856471 -0.09822721 0.74678320 72 79 98
-0.63013102 -0.09578499 0.79254373 55 55 73
-0.62966259 -0.08692113 0.81030005 54 56 65
-0.62865155 -0.08114782 0.82274837 54 55 66
-0.62077680 -0.09172489 0.85869473 105 89 95
-0.62481594 -0.08633813 0.86428190 90 83 85
-0.63842725 -0.09373956 0.88452232 126 110 117
-0.63054236 -0.08937605 0.90240947 136 109 84
-0.63056782 -0.07491135 0.83285636 54 55 66
-0.62956887 -0.06554129 0.84581893 59 58 67
-0.62790735 -0.06627325 0.86556975 114 103 103
-0.63800684 -0.06589436 0.88042337 134 117 116
-0.62981239 -0.06992091 0.90275888 136 110 83
-0.63055145 -0.05566036 0.85433661 61 60 68
-0.63469167 -0.04851025 0.86797129 67 65 74
-0.63874782 -0.04540215 0.88144588 94 89 94
-0.62948802 -0.05042232 0.90313499 136 111 88
-0.62983767 -0.03025121 0.90413306 133 115 101
-0.63001308 -0.00993866 0.91197224 133 137 140
-0.63006141 0.00980448 0.91712051 140 140 139
-0.62989141 0.02512471 0.91936363 126 128 128
-0.63013679 0.03527162 0.92041132 141 141 136
-0.62997378 0.04988717 0.92156418 149 147 142
-0.63002676 0.06948789 0.92271687 179 179 169
-0.63011342 0.08977465 0.92360113 184 183 171
-0.62983562 0.10974679 0.92425972 172 171 162
-0.63019255 0.12978881 0.92478350 133 129 125
-0.62980917 0.14972521 0.92520123 64 63 67
-0.62989092 0.16988302 0.92551469 46 46 51
-0.63005900 0.18992964 0.92576167 42 41 46
-0.63020302 0.20997882 0.92597329 38 38 43
-0.63032943 0.23003085 0.92615904 35 34 41
-0.62970701 0.25014354 0.92632969 33 32 38
-0.62974766 0.27014434 0.92648068 32 32 36
-0.62983803 0.29020274 0.92661362 31 29 36
-0.62991837 0.31026203 0.92673181 29 28 32
-0.62998954 0.33032156 0.92683651 27 26 32
-0.63004983 0.34957853 0.92692521 27 26 30
-0.63010569 0.36963775 0.92700740 27 26 30
-0.63015441 0.38969606 0.92707908 27 26 29
-0.63019709 0.40975357 0.92714187 29 28 31
-0.63023629 0.42981140 0.92719953 31 30 32
-0.63027119 0.44986868 0.92725088 31 29 33
-0.63030300 0.46992585 0.92729767 32 29 33
-0.63033095 0.48998206 0.92733878 29 27 31
-0.63035604 0.51003772 0.92737569 0 0 0
-0.63037126 0.52367491 0.92739807 0 0 0
-0.60976820 -0.62179668 0.92290141 0 0 0
-0.60969956 -0.60976468 0.92279751 0 0 0
-0.61010053 -0.58988734 0.92262163 0 0 0
-0.61033522 -0.57029248 0.92238787 0 0 0
-0.60989041 -0.55017272 0.92203699 0 0 0
-0.60817550 -0.52323917 0.91218128 128 163 176
-0.60952955 -0.53431356 0.92161773 3 4 4
-0.60996804 -0.50316559 0.87080908 131 172 185
-0.60648546 -0.51129575 0.88886252 137 167 184
-0.60798262 -0.51825126 0.90367925 137 170 184
-0.60263334 -0.48368546 0.83459902 135 170 191
-0.61455050 -0.49502564 0.85416651 131 169 188
-0.60954611 -0.46041415 0.79921150 139 173 188
-0.61040732 -0.46843147 0.80999134 135 172 188
-0.60151570 -0.44067609 0.77897194 133 166 182
-0.61044494 -0.44927922 0.78899234 136 168 184
-0.61712683 -0.45953455 0.80008513 138 173 188
-0.60962387 -0.42920365 0.77263839 131 164 180
-0.61435458 -0.43885086 0.78131592 131 164 182
-0.60805774 -0.40524925 0.75607800 124 157 173
-0.61205694 -0.41419368 0.76425833 126 160 175
-0.60232431 -0.38062343 0.73946771 115 149 164
-0.61079152 -0.39006160 0.74891014 118 150 168
-0.60884311 -0.36786553 0.73322268 116 140 161
-0.61485956 -0.37756840 0.74225498 118 142 164
-0.60770251 -0.34599654 0.71520840 103 133 153
-0.60947172 -0.35573061 0.72453675 110 136 156
-0.60637287 -0.32378817 0.69736191 95 125 146
-0.61009931 -0.33220206 0.70447137 100 126 149
-0.60324368 -0.30152874 0.67933193 89 117 136
-0.60854991 -0.31164033 0.68972766 92 119 141
-0.60407956 -0.28459912 0.65817469 90 106 131
-0.60975017 -0.29111401 0.67023490 89 110 133
-0.61508728 -0.29789550 0.68195578 91 111 136
-0.60585685 -0.27026178 0.65323209 82 102 131
-0.61605992 -0.26870806 0.66342008 82 100 129
-0.60489259 -0.25255261 0.65505630 82 99 130
-0.61245058 -0.24557166 0.66745323 81 96 130
-0.61873145 -0.24260236 0.68119478 79 95 128
-0.60291756 -0.23188088 0.65669155 78 95 129
-0.61052595 -0.23102442 0.66786107 78 94 127
-0.61886185 -0.23234754 0.68253102 80 95 126
-0.60138803 -0.21146557 0.65740978 73 91 126
-0.60782376 -0.21323246 0.67148442 76 91 123
-0.61489607 -0.21018466 0.68652003 77 92 119
-0.60697694 -0.18800567 0.67312621 78 87 119
-0.61554512 -0.19428565 0.68440208 77 88 120
-0.60498049 -0.17717610 0.66870203 74 90 114
-0.60220468 -0.14884496 0.67489686 68 84 109
-0.60791815 -0.14612292 0.69190346 69 84 108
-0.61316505 -0.14384694 0.70625300 71 83 109
-0.60805650 -0.14179389 0.84311503 107 111 121
-0.60962104 -0.15007104 0.89233147 154 141 131
-0.61026511 -0.14548056 0.90256331 137 111 89
-0.61039967 -0.13728464 0.69216725 71 81 106
-0.60925280 -0.13317676 0.71240831 70 83 106
-0.61127215 -0.12539116 0.72962679 71 83 107
-0.60958861 -0.12130659 0.74518410 74 84 110
-0.61046313 -0.12997124 0.90269913 138 112 87
-0.61289096 -0.10392595 0.69564195 66 79 103
-0.61787613 -0.10782628 0.70876034 69 79 104
-0.61085359 -0.11846518 0.75479227 77 86 110
-0.61035967 -0.10938532 0.77016652 76 87 111
-0.61800642 -0.10109980 0.78092616 79 87 111
-0.60420103 -0.10155288 0.83576616 92 90 94
-0.61041484 -0.10967941 0.90262819 139 111 85
-0.60864900 -0.09624079 0.69194945 69 78 100
-0.61781557 -0.09572064 0.70452427 69 76 99
-0.60305370 -0.09995969 0.77835109 81 93 118
-0.61003289 -0.09657525 0.79077814 56 59 77
-0.61010324 -0.08947729 0.81009003 56 58 69
-0.60851079 -0.08374145 0.82660112 61 60 70
-0.61275717 -0.09565484 0.84760151 101 79 86
-0.61045625 -0.08940375 0.90268988 138 111 87
-0.61450548 -0.07683172 0.83404993 59 59 70
-0.61647804 -0.06985988 0.84513033 66 64 70
-0.61014839 -0.07009229 0.90298312 138 111 86
-0.61923682 -0.05810401 0.84996089 70 63 72
-0.60999481 -0.05032574 0.90335181 137 112 85
-0.60970154 -0.03020575 0.90414654 135 116 100
-0.60998662 -0.00994593 0.91176215 136 137 139
-0.60997788 0.00987161 0.91703323 142 143 141
-0.61011000 0.02561997 0.91933785 137 137 136
-0.60987192 0.03616006 0.92042502 156 155 149
-0.61003989 0.04950046 0.92148095 179 179 169
-0.60992484 0.06988638 0.92269730 183 184 174
-0.61014382 0.08965379 0.92356369 185 184 173
-0.60984523 0.10974292 0.92422710 180 179 168
-0.61019010 0.12978406 0.92474975 155 153 144
-0.60985007 0.14997820 0.92518344 80 77 79
-0.60989268 0.16988241 0.92551124 50 50 54
-0.61006037 0.18993049 0.92576573 43 42 47
-0.61020205 0.20998052 0.92598074 38 38 43
-0.61032531 0.23003303 0.92616780 36 35 40
-0.60970768 0.25002783 0.92633646 34 34 38
-0.60973482 0.27014611 0.92648674 33 32 36
-0.60982156 0.29020428 0.92661853 32 31 35
-0.60989860 0.31026329 0.92673560 30 29 34
-0.60996705 0.33032266 0.92683961 28 26 32
-0.61002543 0.34957970 0.92692831 28 26 30
-0.61007988 0.36963920 0.92701105 28 26 30
-0.61012728 0.38969774 0.92708308 27 26 30
-0.61016840 0.40975520 0.92714556 27 26 29
-0.61020572 0.42981267 0.92720227 30 27 31
-0.61023865 0.44986937 0.92725229 31 29 33
-0.61026823 0.46992563 0.92729723 31 28 32
-0.61029365 0.48998051 0.92733585 23 21 24
-0.61031594 0.51003444 0.92736972 0 0 0
-0.61033046 0.52367135 0.92739178 0 0 0
-0.58976208 -0.62172647 0.92279721 0 0 0
-0.58969466 -0.60969478 0.92269171 0 0 0
-0.59011930 -0.58947102 0.92250258 0 0 0
-0.59021817 -0.57035759 0.92226362 0 0 0
-0.58998745 -0.55021697 0.92190301 0 0 0
-0.59265118 -0.52467349 0.91751350 74 97 104
-0.58929933 -0.53315889 0.92143128 2 2 2
-0.58512966 -0.50187434 0.87643945 140 172 186
-0.58722934 -0.48273802 0.83629135 134 171 186
-0.58778538 -0.48915664 0.84874186 133 169 186
-0.59051996 -0.49657798 0.86327851 136 168 184
-0.58644041 -0.46099278 0.79941633 134 171 188
-0.59194236 -0.46583849 0.80663350 133 171 189
-0.58638664 -0.47725051 0.82596429 135 170 188
-0.58829963 -0.44250542 0.77627666 136 169 185
-0.58892561 -0.45265376 0.78960264 135 169 187
-0.58549988 -0.42197026 0.75865433 132 164 182
-0.58984656 -0.43167758 0.76809727 133 167 183
-0.58965132 -0.41113431 0.75246777 130 161 177
-0.59876345 -0.41797619 0.76093146 129 160 178
-0.58755565 -0.38755763 0.73577685 122 154 170
-0.59478361 -0.39468245 0.74326665 123 155 172
-0.58110941 -0.36292531 0.71876114 117 146 164
-0.59017571 -0.36907869 0.72630470 115 146 164
-0.59033643 -0.34876175 0.71382031 110 138 158
-0.59454552 -0.35730892 0.72225113 115 140 161
-0.58911896 -0.32661337 0.69482119 105 129 151
-0.59032269 -0.33632134 0.70385570 108 132 153
-0.58870177 -0.30318435 0.67727443 95 123 143
-0.59081580 -0.31247681 0.68493230 97 124 145
-0.58988979 -0.28396225 0.65525941 89 111 135
-0.58863903 -0.29278678 0.66719616 91 118 137
-0.58489313 -0.26853330 0.63578213 85 107 131
-0.59012428 -0.27290561 0.64783830 85 106 133
-0.58619178 -0.24992157 0.63465712 84 98 129
-0.59148203 -0.24553343 0.65128321 83 98 130
-0.59662907 -0.24214973 0.66094633 80 99 130
-0.58436758 -0.23422541 0.63500921 81 96 129
-0.59053481 -0.23150745 0.65067262 80 97 128
-0.59680826 -0.23147326 0.66230731 80 97 128
-0.58413475 -0.20600688 0.63975728 72 89 126
-0.58872469 -0.21356476 0.65303647 77 93 125
-0.59189525 -0.21142651 0.66467932 78 93 121
-0.58266557 -0.19080343 0.65667241 77 90 120
-0.59429610 -0.18901439 0.66597493 78 89 116
-0.58824886 -0.17309465 0.65322176 76 88 116
-0.59697923 -0.17672146 0.66260793 76 88 116
-0.58511351 -0.14766108 0.65565310 72 83 108
-0.58759179 -0.14808764 0.67155538 72 84 110
-0.59122270 -0.14537229 0.68715143 71 86 111
-0.59801790 -0.14071639 0.70001698 71 86 109
-0.59003600 -0.14931091 0.89211072 149 134 126
-0.59010931 -0.14485072 0.90220437 138 114 88
-0.58141624 -0.13935676 0.65924299 68 83 109
-0.59111072 -0.13834017 0.67062014 69 83 109
-0.58573308 -0.13667089 0.69358289 74 87 109
-0.58942885 -0.13153942 0.70896924 74 85 110
-0.58982903 -0.12543138 0.72997124 78 86 113
-0.59106826 -0.12155285 0.74430709 77 87 117
-0.58994351 -0.12991895 0.90233766 142 113 88
-0.58823334 -0.11515486 0.75388233 80 89 114
-0.59011571 -0.10520554 0.76872441 80 89 115
-0.59395623 -0.10035487 0.78142816 89 93 126
-0.58234595 -0.11141335 0.80553493 102 106 118
-0.59768615 -0.10402973 0.82675439 86 87 97
-0.58984549 -0.10962590 0.90218684 139 113 87
-0.58684576 -0.09949990 0.77826347 81 87 118
-0.59079473 -0.09748012 0.79162401 60 64 82
-0.59292124 -0.09347833 0.80828888 62 60 73
-0.59803623 -0.08946859 0.82330424 68 64 73
-0.58993517 -0.08936716 0.90232422 142 112 85
-0.59020515 -0.06990434 0.90273762 140 113 87
-0.59037884 -0.05052745 0.90317526 141 115 86
-0.58998395 -0.03003911 0.90406932 137 118 102
-0.58999504 -0.00988592 0.91160701 140 141 143
-0.58998307 0.00974418 0.91692813 148 148 146
-0.59000104 0.02579320 0.91929722 170 169 164
-0.58997052 0.03605602 0.92036929 185 185 176
-0.58995963 0.04985848 0.92146719 185 184 175
-0.58998791 0.06949005 0.92264723 185 184 173
-0.59009544 0.08981764 0.92354148 186 184 174
-0.58985866 0.10973950 0.92419824 165 164 154
-0.59019298 0.12978018 0.92472207 120 118 113
-0.58986684 0.14967855 0.92515657 88 80 81
-0.58989624 0.16988227 0.92551039 57 54 57
-0.59006319 0.18993185 0.92577234 46 45 49
-0.59020199 0.20998265 0.92599012 41 40 46
-0.59032179 0.23003558 0.92617808 37 36 41
-0.58981728 0.25023268 0.92634704 34 34 37
-0.58972236 0.27014817 0.92649382 33 32 37
-0.58980516 0.29020596 0.92662391 32 31 36
-0.58987889 0.31026468 0.92673974 31 29 34
-0.58994465 0.33032388 0.92684304 28 27 31
-0.59000090 0.34958087 0.92693142 29 27 30
-0.59005359 0.36964046 0.92701420 28 26 30
-0.59009954 0.38969913 0.92708640 27 26 30
-0.59013893 0.40975640 0.92714827 28 26 29
-0.59017447 0.42981352 0.92720411 28 26 30
-0.59020547 0.44986962 0.92725281 28 27 30
-0.59023304 0.46992506 0.92729612 29 28 32
-0.59025599 0.48997855 0.92733217 16 15 17
-0.59027636 0.51003138 0.92736417 0 0 0
-0.59029032 0.52366814 0.92738609 0 0 0
-0.56975495 -0.62165015 0.92268393 0 0 0
-0.56988979 -0.61009736 0.92258155 0 0 0
-0.56992115 -0.59023866 0.92238686 0 0 0
-0.57020809 -0.57027327 0.92212724 0 0 0
-0.56996978 -0.55012083 0.92174181 0 0 0
-0.57240809 -0.52098870 0.91673964 106 140 150
-0.56974914 -0.53105487 0.92118377 3 5 5
-0.57111339 -0.50794185 0.89242411 128 169 181
-0.56748560 -0.51743508 0.91247004 126 162 176
-0.57441992 -0.48170461 0.83868492 135 169 184
-0.56890046 -0.48607066 0.84884098 139 170 185
-0.56072416 -0.49468722 0.86913514 134 168 181
-0.57961459 -0.46216124 0.79984444 136 169 189
-0.57321000 -0.46538079 0.80966640 134 170 186
-0.56608531 -0.47436625 0.82715686 136 168 184
-0.57275287 -0.44130883 0.77850802 134 169 184
-0.57101133 -0.44759184 0.78736713 134 169 185
-0.56895369 -0.45808766 0.80129285 133 170 185
-0.57137790 -0.42302589 0.75722497 131 167 183
-0.57135169 -0.43277807 0.76964405 134 168 184
-0.56502390 -0.40314272 0.73842886 131 162 178
-0.57119059 -0.41125473 0.74647233 132 163 179
-0.56145543 -0.38191751 0.71904609 123 155 172
-0.57027403 -0.38915883 0.72863131 127 156 173
-0.56891768 -0.36742328 0.71479726 118 150 167
-0.57387475 -0.37576071 0.72251882 118 152 169
-0.56214108 -0.34084713 0.69978791 115 142 161
-0.57023215 -0.35010065 0.70777100 115 143 163
-0.56970835 -0.32893116 0.69350798 112 135 155
-0.57347683 -0.33796009 0.70107599 111 138 157
-0.56968287 -0.30552881 0.67549674 101 127 148
-0.57126024 -0.31527470 0.68338812 105 129 150
-0.56988538 -0.28341544 0.65576285 92 117 141
-0.56920670 -0.29340685 0.66554296 98 122 143
-0.56567286 -0.26004043 0.61836684 88 111 133
-0.56951322 -0.26603130 0.63177664 87 109 135
-0.56830893 -0.27483480 0.64634284 90 112 140
-0.56441821 -0.25055871 0.61780868 84 104 131
-0.56689593 -0.24801346 0.62952977 84 103 132
-0.56695017 -0.24311409 0.64625685 85 104 133
-0.56447049 -0.23262722 0.61588787 85 96 130
-0.56730536 -0.23040076 0.63294781 83 98 130
-0.56687632 -0.23266765 0.64479596 83 100 131
-0.56785643 -0.21598944 0.63635326 80 94 128
-0.57454396 -0.21260167 0.64774172 79 95 125
-0.56231243 -0.18694767 0.63800296 80 90 122
-0.56741109 -0.19205526 0.64588784 78 91 123
-0.56562031 -0.17029300 0.63281880 78 89 116
-0.56843649 -0.16720707 0.64775479 77 89 116
-0.57549444 -0.16169663 0.66325168 76 90 117
-0.56513485 -0.14576102 0.63464159 71 85 109
-0.56791168 -0.15053103 0.65183442 74 87 113
-0.56809878 -0.14761086 0.67005461 76 88 115
-0.56733264 -0.14108696 0.68611921 77 87 114
-0.56134271 -0.14077343 0.70030072 76 90 115
-0.57009388 -0.14664602 0.87196608 142 130 131
-0.56859623 -0.14692839 0.88180270 155 140 131
-0.57008356 -0.14464327 0.90176017 141 118 94
-0.57394836 -0.13995217 0.67870800 78 87 114
-0.57200411 -0.13813933 0.69262028 73 89 117
-0.57022089 -0.13308730 0.70983485 77 89 118
-0.56970753 -0.12497442 0.72976524 81 89 117
-0.56703796 -0.12099046 0.74317298 83 90 116
-0.56116556 -0.12153427 0.77438554 93 95 125
-0.57230186 -0.12599803 0.79240260 104 104 116
-0.57482086 -0.13607343 0.80087006 119 123 131
-0.57009513 -0.12983895 0.90177826 144 114 90
-0.57089322 -0.11576979 0.75206198 80 90 118
-0.56811902 -0.10925787 0.76552766 83 92 117
-0.57918073 -0.11327105 0.80115661 99 102 119
-0.56983626 -0.10952638 0.90136797 142 112 88
-0.56969148 -0.09913435 0.77325156 86 93 118
-0.57477481 -0.09841260 0.78754718 68 72 84
-0.57006932 -0.09000895 0.90164350 143 114 88
-0.57012210 -0.07046658 0.90211135 143 117 88
-0.56986050 -0.05039430 0.90264077 144 116 90
-0.57016088 -0.03020964 0.90368079 140 121 101
-0.56997286 -0.00990245 0.91137691 146 146 147
-0.56998738 0.00987009 0.91686521 177 177 171
-0.57001611 0.02573792 0.91924782 185 185 176
-0.56989882 0.03610706 0.92034109 184 184 175
-0.57004326 0.04951556 0.92140870 185 184 175
-0.56995462 0.06986093 0.92263209 180 179 169
-0.57013719 0.08960106 0.92350474 151 151 144
-0.56987679 0.10973674 0.92417501 125 124 122
-0.57020198 0.12977741 0.92470236 118 117 114
-0.56984287 0.14997043 0.92513539 106 98 95
-0.56989699 0.16988129 0.92550487 64 60 62
-0.57006475 0.18993289 0.92577736 49 47 50
-0.57020120 0.20998466 0.92599896 42 40 47
-0.57031701 0.23003780 0.92618703 38 37 42
-0.56983066 0.24994581 0.92635240 35 34 38
-0.56970919 0.27015004 0.92650025 33 32 37
-0.56978838 0.29020756 0.92662903 32 31 35
-0.56985883 0.31026597 0.92674360 31 30 34
-0.56992175 0.33032490 0.92684592 30 29 32
-0.56997601 0.34958190 0.92693416 29 28 32
-0.57002677 0.36964146 0.92701671 29 28 31
-0.57007099 0.38970007 0.92708863 30 28 32
-0.57010882 0.40975723 0.92715015 27 26 29
-0.57014282 0.42981413 0.92720543 27 26 30
-0.57017207 0.44986970 0.92725299 28 26 29
-0.57019777 0.46992439 0.92729480 28 27 30
-0.57021843 0.48997656 0.92732839 8 8 8
-0.57023752 0.51002877 0.92735942 0 0 0
-0.57025033 0.52366485 0.92738026 0 0 0
-0.54974475 -0.62156495 0.92255747 0 0 0
-0.54968638 -0.61033849 0.92245950 0 0 0
-0.55013299 -0.59010738 0.92226055 0 0 0
-0.55020417 -0.57018917 0.92199121 0 0 0
-0.54996652 -0.55003201 0.92159295 0 0 0
-0.54962958 -0.53039470 0.92108327 0 0 0
-0.55411539 -0.50764828 0.89735699 131 168 181
-0.55175070 -0.51897528 0.91794076 82 104 113
-0.54290530 -0.51910691 0.92042426 68 83 89
-0.55295256 -0.48472440 0.84969445 133 168 182
-0.55775675 -0.49474913 0.86926395 131 168 181
-0.54808025 -0.46387755 0.81463269 137 168 184
-0.54876110 -0.47172002 0.82627400 136 169 184
-0.54664364 -0.44040022 0.77848428 135 170 185
-0.55087713 -0.44584111 0.78607046 134 168 184
-0.54691589 -0.45710593 0.80507409 135 169 184
-0.54717404 -0.42184546 0.75792431 135 168 182
-0.54978876 -0.43141274 0.76945019 135 167 182
-0.55045281 -0.40334239 0.73414062 131 164 180
-0.55076722 -0.41393313 0.74730962 134 167 182
-0.54933293 -0.38410116 0.71591344 129 159 176
-0.54948462 -0.39385024 0.72583511 129 162 177
-0.54875575 -0.36984180 0.70723620 124 154 171
-0.54621751 -0.34969381 0.69754823 120 147 166
-0.55407906 -0.35319986 0.70224099 119 149 165
-0.54164531 -0.32109005 0.67889881 113 139 156
-0.55025603 -0.33053243 0.68861655 114 140 159
-0.54940855 -0.30911625 0.67334601 103 133 150
-0.55612746 -0.31782685 0.68154686 108 134 152
-0.54975805 -0.28432111 0.65684056 97 123 145
-0.55206026 -0.29342886 0.66421668 97 126 147
-0.55330344 -0.26252235 0.63549389 89 112 137
-0.54918980 -0.27086123 0.64592260 93 117 142
-0.54554039 -0.24273027 0.59710966 84 105 131
-0.55080854 -0.24759584 0.61274616 85 106 133
-0.55107323 -0.25034708 0.63277566 87 109 136
-0.55760263 -0.24413227 0.64245555 87 104 134
-0.54393873 -0.23416461 0.59549284 82 102 129
-0.55092448 -0.23503413 0.60785007 84 100 132
-0.55067517 -0.22863353 0.63360326 83 101 132
-0.55670226 -0.22828812 0.64268798 82 100 131
-0.54525963 -0.21799531 0.60987994 81 97 126
-0.55273960 -0.21045256 0.63471761 78 97 127
-0.55711040 -0.21221430 0.64218601 77 97 128
-0.55068739 -0.18993626 0.63645403 79 92 125
-0.55664967 -0.18788737 0.64130052 78 91 124
-0.54480714 -0.16819081 0.61613472 78 89 117
-0.54752810 -0.17162906 0.63198582 78 91 119
-0.54852989 -0.16618081 0.64881807 77 91 120
-0.55161587 -0.16014692 0.66039803 80 95 118
-0.54071730 -0.14808254 0.59786433 66 87 108
-0.54579736 -0.14853875 0.61340654 74 87 114
