ply
format ascii 1.0
element vertex 1070
property float x
property float y
property float z
property uchar red
property uchar green
property uchar blue
end_header
0.26106867 0.10487325 0.64072955 127 127 126
0.26242417 0.10497247 0.64133573 128 127 126
0.26303494 0.10477421 0.64012450 128 127 127
0.26389217 0.10467537 0.63952059 129 128 127
0.25514746 0.10628206 0.64255148 130 129 127
0.25601539 0.10618141 0.64194304 129 128 127
0.25785747 0.10648393 0.64377195 130 129 128
0.25872448 0.10638290 0.64316112 129 129 128
0.25983614 0.10638290 0.64316112 129 129 128
0.26045358 0.10618141 0.64194304 129 129 129
0.26131567 0.10608096 0.64133573 129 129 129
0.26267266 0.10618141 0.64194304 129 128 126
0.26353264 0.10608096 0.64133573 127 127 125
0.26414135 0.10588062 0.64012450 130 129 127
0.25514746 0.10739266 0.64255148 130 129 125
0.25577319 0.10718945 0.64133573 130 129 125
0.25761282 0.10749455 0.64316112 130 129 127
0.25872448 0.10749455 0.64316112 130 129 127
0.25983614 0.10749455 0.64316112 131 130 128
0.26045358 0.10729096 0.64194304 131 130 128
0.26131567 0.10718945 0.64133573 130 129 127
0.26292163 0.10739266 0.64255148 129 129 127
0.26353264 0.10718945 0.64133573 129 129 127
0.26414135 0.10698702 0.64012450 129 129 127
0.25761282 0.10860620 0.64316112 130 130 128
0.25872448 0.10860620 0.64316112 130 130 128
0.25983614 0.10860620 0.64316112 130 130 128
0.26020718 0.10829795 0.64133573 130 130 129
0.26106867 0.10819560 0.64072955 130 130 130
0.26267266 0.10840051 0.64194304 131 131 129
0.26328358 0.10819560 0.64072955 130 130 128
0.26414135 0.10809343 0.64012450 130 130 128
0.25983614 0.10971785 0.64316112 131 131 129
0.26020718 0.10940645 0.64133573 131 131 130
0.26082215 0.10919983 0.64012450 131 131 131
0.26242417 0.10940645 0.64133573 130 130 129
0.26328358 0.10930304 0.64072955 130 130 128
0.26389217 0.10909681 0.63952059 130 130 129
0.26499751 0.10909681 0.63952059 130 130 129
0.26045358 0.11061960 0.64194304 131 131 129
0.26106867 0.11041049 0.64072955 131 131 129
0.26242417 0.11051495 0.64133573 131 131 129
0.26328358 0.11041049 0.64072955 131 131 129
0.26389217 0.11020217 0.63952059 131 131 129
0.26499751 0.11020217 0.63952059 130 130 128
0.26303494 0.11141264 0.64012450 131 131 129
0.26389217 0.11130753 0.63952059 131 131 129
0.28237385 0.10349648 0.59464198 130 129 127
0.28290531 0.10331522 0.59360057 130 129 127
0.28396270 0.10295461 0.59152865 130 130 129
0.28473663 0.10286485 0.59101295 130 130 130
0.69582057 0.11941901 0.68612534 112 113 110
0.69912934 0.11978272 0.68821508 113 114 112
0.28159308 0.10461603 0.59516406 130 129 127
0.28212637 0.10443266 0.59412080 130 129 127
0.28290531 0.10434121 0.59360057 131 130 127
0.28318739 0.10406782 0.59204525 131 130 128
0.28371513 0.10388637 0.59101295 132 131 129
0.28473663 0.10388637 0.59101295 132 131 129
0.28575817 0.10388637 0.59101295 132 131 129
0.68995708 0.11999764 0.68267053 110 111 107
0.69371420 0.12023982 0.68404830 113 114 111
0.69771272 0.12072711 0.68682051 113 114 112
0.69748646 0.12048297 0.68543160 113 114 112
0.69655824 0.12011861 0.68335873 113 114 112
0.28159308 0.10564473 0.59516406 130 129 126
0.28237385 0.10555205 0.59464198 130 129 126
0.28290531 0.10536720 0.59360057 131 130 126
0.28318739 0.10509113 0.59204525 131 130 126
0.68670249 0.12081259 0.68061429 110 111 105
0.68787891 0.12081259 0.68061429 110 111 107
0.69162047 0.12105568 0.68198377 114 115 111
0.69630176 0.12166769 0.68543160 113 114 111
0.69537711 0.12129974 0.68335873 113 114 112
0.69445807 0.12093401 0.68129832 113 114 112
0.69215745 0.12032934 0.67789185 111 114 112
0.69541538 0.12069142 0.67993164 111 115 112
0.28184053 0.10676716 0.59568703 130 129 125
0.28237385 0.10657985 0.59464198 129 129 126
0.28290531 0.10639319 0.59360057 130 130 126
0.68464035 0.12162264 0.67857039 110 112 107
0.68581319 0.12162264 0.67857039 111 112 107
0.68884844 0.12174451 0.67925036 112 113 109
0.69349688 0.12235752 0.68267053 112 113 109
0.69397795 0.12223443 0.68198377 113 114 110
0.69306499 0.12186662 0.67993164 112 113 110
0.69471860 0.12174451 0.67925036 112 113 110
0.28159308 0.10770211 0.59516406 130 130 126
0.28237385 0.10760763 0.59464198 129 129 125
0.28290531 0.10741919 0.59360057 129 129 125
0.68601376 0.12304183 0.67993164 110 112 106
0.68718898 0.12304183 0.67993164 110 111 106
0.68629909 0.12267271 0.67789185 110 111 107
0.69023168 0.12316537 0.68061429 111 112 108
0.69489652 0.12378678 0.68404830 111 112 108
0.69607884 0.12378678 0.68404830 111 112 108
0.69376081 0.12316537 0.68061429 111 112 108
0.69215745 0.12267271 0.67789185 111 112 108
0.69471860 0.12291855 0.67925036 111 112 108
0.28237385 0.10863543 0.59464198 130 130 128
0.28290531 0.10844517 0.59360057 130 130 128
0.68601376 0.12421704 0.67993164 109 110 106
0.68718898 0.12421704 0.67993164 109 110 106
0.68629909 0.12384439 0.67789185 109 110 106
0.68953937 0.12421704 0.67993164 110 111 107
0.69210297 0.12446672 0.68129832 111 112 108
0.69397795 0.12459194 0.68198377 111 112 108
0.69237053 0.12409257 0.67925036 112 113 109
0.69146603 0.12372067 0.67721462 112 113 108
0.69263649 0.12372067 0.67721462 111 113 108
0.69242358 0.12347396 0.67586422 111 112 108
0.28212637 0.10956711 0.59412080 133 133 129
0.28265780 0.10937539 0.59308124 133 133 130
0.28625730 0.10918434 0.59204525 131 131 129
0.68718898 0.12539224 0.67993164 110 111 107
0.68629909 0.12501606 0.67789185 110 111 107
0.68953937 0.12539224 0.67993164 110 111 107
0.69071460 0.12539224 0.67993164 110 111 107
0.69328052 0.12564430 0.68129832 111 112 108
0.69237053 0.12526660 0.67925036 114 114 110
0.69146603 0.12489118 0.67721462 114 115 110
0.69263649 0.12489118 0.67721462 113 115 109
0.28081092 0.11088555 0.59568703 133 133 129
0.28159308 0.11078819 0.59516406 133 133 130
0.28212637 0.11059400 0.59412080 135 135 132
0.28241074 0.11030398 0.59256279 135 135 132
0.28318739 0.11020764 0.59204525 134 134 132
0.28396270 0.11011147 0.59152865 132 132 130
0.28523400 0.11020764 0.59204525 132 132 130
0.28625730 0.11020764 0.59204525 132 132 130
0.28728059 0.11020764 0.59204525 131 131 129
0.28880838 0.11040048 0.59308124 131 131 129
0.28983346 0.11040048 0.59308124 130 130 128
0.29085857 0.11040048 0.59308124 130 130 128
0.29162851 0.11030398 0.59256279 131 130 128
0.29239711 0.11020764 0.59204525 131 131 129
0.69023168 0.12669453 0.68061429 110 111 108
0.69279921 0.12694944 0.68198377 110 111 108
0.69467688 0.12707730 0.68267053 111 111 108
0.69237053 0.12644063 0.67925036 114 114 111
0.69194525 0.12593588 0.67653877 115 115 112
0.28208840 0.11201357 0.59621096 133 133 131
0.28237385 0.11171880 0.59464198 135 135 133
0.28265780 0.11142557 0.59308124 135 135 133
0.28318739 0.11123094 0.59204525 135 135 133
0.28421068 0.11123094 0.59204525 135 135 133
0.28523400 0.11123094 0.59204525 133 133 131
0.28650752 0.11132817 0.59256279 132 132 130
0.28728059 0.11123094 0.59204525 131 131 129
0.28906128 0.11152314 0.59360057 130 130 128
0.29008725 0.11152314 0.59360057 131 131 129
0.29111326 0.11152314 0.59360057 131 131 129
0.29188365 0.11142557 0.59308124 132 131 129
0.29239711 0.11123094 0.59204525 132 131 129
0.68150485 0.12799942 0.68129832 112 115 111
0.68905526 0.12787092 0.68061429 111 112 110
0.69582057 0.12890631 0.68612534 111 112 110
0.69889981 0.12903690 0.68682051 112 112 110
0.69445807 0.12799942 0.68129832 114 114 112
-0.96972233 0.30457610 1.60637879 33 33 37
0.28233671 0.11314359 0.59673578 135 135 135
0.28287011 0.11294474 0.59568703 135 135 135
0.28290531 0.11254913 0.59360057 135 135 135
0.28318739 0.11225425 0.59204525 135 135 135
0.28421068 0.11225425 0.59204525 135 135 135
0.28548333 0.11235237 0.59256279 133 133 133
0.28675818 0.11245067 0.59308124 132 132 132
0.28778327 0.11245067 0.59308124 130 130 130
0.28956839 0.11274659 0.59464198 130 130 130
0.29059619 0.11274659 0.59464198 130 130 130
0.29136840 0.11264777 0.59412080 130 130 130
0.29213923 0.11254913 0.59360057 131 130 130
0.29290873 0.11245067 0.59308124 132 131 131
0.29393384 0.11245067 0.59308124 132 131 131
0.68425560 0.12969840 0.68404830 114 116 112
0.68199694 0.12904730 0.68061429 113 116 112
0.68317336 0.12904730 0.68061429 111 115 112
0.68849730 0.12982941 0.68473923 111 115 112
0.69344878 0.13009222 0.68612534 112 114 111
0.69533849 0.13022402 0.68682051 113 115 112
0.70055181 0.13075393 0.68961531 113 114 111
0.69726115 0.12969840 0.68404830 115 115 112
-0.97202575 0.30808264 1.61019444 32 32 36
0.28258547 0.11427559 0.59726155 134 134 132
0.28287011 0.11397433 0.59568703 135 135 133
0.28290531 0.11357512 0.59360057 135 135 134
0.28343493 0.11337657 0.59256279 135 135 134
0.28445911 0.11337657 0.59256279 135 135 134
0.28548333 0.11337657 0.59256279 134 134 133
0.28650752 0.11337657 0.59256279 132 132 132
0.28753170 0.11337657 0.59256279 131 131 129
0.28956839 0.11377438 0.59464198 129 129 127
0.29034150 0.11367466 0.59412080 130 130 128
0.29111326 0.11357512 0.59360057 130 130 128
0.29213923 0.11357512 0.59360057 131 130 128
0.29290873 0.11347576 0.59308124 131 130 128
0.29419121 0.11357512 0.59360057 132 131 129
0.29547596 0.11367466 0.59412080 133 132 130
0.68702865 0.13141114 0.68682051 115 116 112
0.68870515 0.13127813 0.68612534 113 117 113
0.69269550 0.13181178 0.68891448 113 117 113
0.69459212 0.13194588 0.68961531 113 117 112
0.69816792 0.13194588 0.68961531 114 117 112
0.70007205 0.13208024 0.69031757 114 117 112
0.70126522 0.13208024 0.69031757 115 117 113
0.70245838 0.13208024 0.69031757 115 117 113
-0.97666550 0.31234959 1.61788034 31 31 35
0.28233671 0.11520641 0.59673578 132 132 129
0.28287011 0.11500393 0.59568703 135 135 131
0.28290531 0.11460111 0.59360057 135 135 132
0.28343493 0.11440077 0.59256279 136 136 132
0.28445911 0.11440077 0.59256279 135 135 132
0.28548333 0.11440077 0.59256279 135 135 132
0.28625730 0.11430085 0.59204525 135 135 131
0.28728059 0.11430085 0.59204525 132 132 130
0.28906128 0.11460111 0.59360057 130 130 128
0.29008725 0.11460111 0.59360057 129 129 127
0.29085857 0.11450085 0.59308124 129 129 127
0.29188365 0.11450085 0.59308124 130 129 127
0.29265270 0.11440077 0.59256279 131 130 128
0.29367691 0.11440077 0.59256279 128 128 127
0.29495892 0.11450085 0.59308124 132 131 130
0.29676291 0.11480217 0.59464198 132 132 130
0.68793255 0.13300252 0.68891448 115 116 112
0.68842363 0.13286749 0.68821508 115 116 112
0.68891376 0.13273273 0.68751711 115 116 112
0.69010210 0.13273273 0.68751711 114 116 112
0.69340014 0.13313782 0.68961531 114 116 112
0.69529939 0.13327339 0.69031757 114 116 112
0.69649255 0.13327339 0.69031757 114 116 112
0.69697601 0.13313782 0.68961531 114 116 112
0.69887888 0.13327339 0.69031757 114 116 112
0.70150077 0.13354538 0.69172639 114 117 112
0.70269638 0.13354538 0.69172639 115 117 113
0.70317441 0.13340925 0.69102126 114 116 112
0.70436883 0.13340925 0.69102126 113 115 111
-0.98082834 0.31290558 1.60637879 29 29 33
-0.98134971 0.31665745 1.62563992 31 31 35
-0.96465993 0.31216586 1.60258114 31 31 35
-0.96188998 0.31216586 1.60258114 31 31 35
-0.95861638 0.31290558 1.60637879 32 31 38
0.28650752 0.11542496 0.59256279 132 132 128
0.28728059 0.11532415 0.59204525 131 131 128
0.28906128 0.11562710 0.59360057 131 131 127
0.28983346 0.11552595 0.59308124 129 129 127
0.29085857 0.11552595 0.59308124 129 129 127
0.29188365 0.11552595 0.59308124 129 129 127
0.29239711 0.11532415 0.59204525 129 129 127
0.29367691 0.11542496 0.59256279 128 128 128
0.29495892 0.11552595 0.59308124 130 131 131
0.29676291 0.11582996 0.59464198 131 132 132
0.29674950 0.11542496 0.59256279 134 135 135
0.29725403 0.11522352 0.59152865 134 135 135
0.68772548 0.13392104 0.68751711 115 116 112
0.68821579 0.13378537 0.68682051 115 115 111
0.68940288 0.13378537 0.68682051 116 116 112
0.69649255 0.13446656 0.69031757 115 116 112
0.69697601 0.13432977 0.68961531 115 116 112
-0.98315811 0.31643191 1.61019444 28 28 37
-0.98505461 0.31794232 1.61788034 28 28 37
-0.98696929 0.31946725 1.62563992 28 28 36
-0.99369133 0.32256135 1.64138460 29 29 36
-0.98134971 0.31946725 1.62563992 30 30 37
-0.96924263 0.31643191 1.61019444 31 30 36
-0.96645957 0.31643191 1.61019444 31 30 37
-0.96547997 0.31794232 1.61788034 32 31 38
-0.95583987 0.31568208 1.60637879 32 31 38
0.28728059 0.11634745 0.59204525 131 131 127
0.28906128 0.11665310 0.59360057 130 130 126
0.28983346 0.11655103 0.59308124 130 130 126
0.29085857 0.11655103 0.59308124 130 130 126
0.29188365 0.11655103 0.59308124 130 130 126
0.29265270 0.11644915 0.59256279 129 129 125
0.29393384 0.11655103 0.59308124 129 129 125
0.29521722 0.11665310 0.59360057 129 129 126
0.29676291 0.11685775 0.59464198 131 131 129
0.29700911 0.11655103 0.59308124 132 132 131
0.29777369 0.11644915 0.59256279 135 135 133
0.29853693 0.11634745 0.59204525 135 135 133
0.68702865 0.13497248 0.68682051 111 112 104
0.68751919 0.13483587 0.68612534 112 114 106
0.68870515 0.13483587 0.68612534 114 116 109
-0.98082834 0.31845856 1.60637879 27 26 35
-0.98505461 0.32073870 1.61788034 27 26 35
-0.98460811 0.32150602 1.62175083 28 27 36
-0.99129111 0.32461235 1.63741994 29 28 37
-0.98370874 0.32305172 1.62954772 30 29 37
-0.97155035 0.31997505 1.61402822 31 30 37
-0.96645957 0.31921500 1.61019444 31 30 37
-0.96139288 0.31845856 1.60637879 31 30 37
-0.96778971 0.32150602 1.62175083 31 30 37
-0.95811027 0.31921500 1.61019444 32 31 38
0.28702992 0.11726834 0.59152865 130 130 127
0.28855592 0.11747336 0.59256279 131 130 127
0.28958011 0.11747336 0.59256279 131 131 127
0.29060432 0.11747336 0.59256279 130 130 127
0.29162851 0.11747336 0.59256279 130 130 126
0.29265270 0.11747336 0.59256279 130 130 126
0.29367691 0.11747336 0.59256279 130 130 125
0.29495892 0.11757613 0.59308124 129 130 123
0.29650283 0.11778222 0.59412080 130 130 125
0.29700911 0.11757613 0.59308124 131 131 127
0.29777369 0.11747336 0.59256279 133 132 128
0.68702865 0.13615960 0.68682051 116 116 107
0.68682402 0.13588424 0.68543160 115 115 106
0.68800879 0.13588424 0.68543160 115 116 108
-0.98082834 0.32123506 1.60637879 28 26 34
-0.98505461 0.32353508 1.61788034 28 27 35
-0.98696929 0.32508680 1.62563992 29 28 36
-0.99369133 0.32823536 1.64138460 30 29 36
-0.98607910 0.32665348 1.63347435 31 30 37
-0.97386909 0.32353508 1.61788034 31 30 37
-0.96876067 0.32276475 1.61402822 31 30 37
-0.96778971 0.32430908 1.62175083 31 31 36
0.15575986 0.11646151 0.58238131 135 135 135
0.15663190 0.11636154 0.58188140 135 135 135
0.15750244 0.11626175 0.58138239 135 135 135
0.28830391 0.11839406 0.59204525 132 131 129
0.28932720 0.11839406 0.59204525 132 131 129
0.29137382 0.11839406 0.59204525 131 131 128
0.29265270 0.11849755 0.59256279 130 131 125
0.29393384 0.11860123 0.59308124 130 130 125
0.29495892 0.11860123 0.59308124 129 130 123
0.29676291 0.11891333 0.59464198 129 130 124
0.29700911 0.11860123 0.59308124 131 130 126
0.29777369 0.11849755 0.59256279 132 131 127
0.68633330 0.13720769 0.68612534 116 117 108
0.68682402 0.13706896 0.68543160 116 117 108
0.68662024 0.13679233 0.68404830 116 117 108
-0.98082834 0.32401156 1.60637879 28 27 35
-0.98741120 0.32711214 1.62175083 29 28 36
-0.98934180 0.32868481 1.62954772 29 28 35
-0.99369133 0.33107236 1.64138460 29 28 35
-0.98607910 0.32947680 1.63347435 30 29 36
-0.97619891 0.32711214 1.62175083 31 30 37
-0.97011060 0.32789660 1.62563992 31 31 35
0.15374666 0.11746811 0.58238131 131 131 131
0.15475327 0.11746811 0.58238131 132 132 132
0.15562616 0.11736728 0.58188140 134 134 134
0.15649757 0.11726662 0.58138239 135 135 135
0.15736747 0.11716613 0.58088416 135 135 135
0.28830391 0.11941736 0.59204525 132 131 129
0.28932720 0.11941736 0.59204525 132 131 129
0.29393384 0.11962631 0.59308124 130 131 124
0.29495892 0.11962631 0.59308124 130 130 123
0.29650283 0.11983600 0.59412080 130 130 124
0.29700911 0.11962631 0.59308124 130 129 126
0.68653715 0.13867432 0.68751711 117 118 108
0.68702865 0.13853382 0.68682051 111 112 107
0.68751919 0.13839360 0.68612534 114 115 110
0.68800879 0.13825367 0.68543160 116 117 112
0.68849730 0.13811402 0.68473923 117 118 113
-0.98315811 0.32756427 1.61019444 28 27 34
-0.99215835 0.33150133 1.62954772 27 26 34
-0.99652833 0.33390933 1.64138460 27 26 33
-0.99852681 0.33553421 1.64937186 28 27 34
0.15348294 0.11827149 0.58138239 131 131 131
0.15435544 0.11817014 0.58088416 131 131 131
0.15535945 0.11817014 0.58088416 134 134 134
0.15622959 0.11806897 0.58038688 135 135 135
0.15709823 0.11796797 0.57989037 135 135 135
0.15810053 0.11796797 0.57989037 135 135 135
0.29393384 0.12065141 0.59308124 131 131 124
0.29495892 0.12065141 0.59308124 130 130 123
0.29624319 0.12075706 0.59360057 130 130 123
0.68891376 0.13986264 0.68751711 116 117 115
0.68870515 0.13957952 0.68612534 121 122 119
-0.97850960 0.32878545 1.60258114 27 26 35
-0.98741120 0.33271828 1.62175083 27 26 35
-0.99172574 0.33512348 1.63347435 27 26 35
-0.99369133 0.33674634 1.64138460 27 26 34
0.15322013 0.11907212 0.58038688 132 131 131
0.15395966 0.11886858 0.57939476 132 131 131
0.15496109 0.11886858 0.57939476 134 133 133
0.15596253 0.11886858 0.57939476 135 134 134
0.15682992 0.11876708 0.57889998 133 132 132
0.15783051 0.11876708 0.57889998 133 132 132
0.15896684 0.11886858 0.57939476 133 132 132
0.28702992 0.12135798 0.59152865 132 132 130
0.28855592 0.12157014 0.59256279 132 132 130
0.29290873 0.12167650 0.59308124 130 130 124
0.29393384 0.12167650 0.59308124 129 130 124
0.29470110 0.12157014 0.59256279 129 129 122
0.29598403 0.12167650 0.59308124 130 130 123
0.29649031 0.12146397 0.59204525 130 129 125
-0.98828864 0.33392364 1.61402822 27 26 33
-0.97620177 0.33077341 1.59880149 27 26 33
-0.98037499 0.33313045 1.61019444 27 26 33
-0.97991949 0.33392364 1.61402822 27 26 33
-0.98415953 0.33632594 1.62563992 27 26 33
-0.97011060 0.33632594 1.62563992 27 26 33
0.14933538 0.12017817 0.58088416 136 136 135
0.15295821 0.11987002 0.57939476 132 131 131
0.15369692 0.11966547 0.57840604 132 131 131
0.15469666 0.11966547 0.57840604 133 132 132
0.15569638 0.11966547 0.57840604 133 132 132
0.15656252 0.11956345 0.57791293 133 132 132
0.15756141 0.11956345 0.57791293 133 132 132
0.15856028 0.11956345 0.57791293 133 132 132
0.28628048 0.12206086 0.58998418 133 133 132
0.28805232 0.12238038 0.59152865 132 132 131
0.28958011 0.12259433 0.59256279 132 132 130
0.29035050 0.12248727 0.59204525 131 131 129
0.29162851 0.12259433 0.59256279 130 130 128
0.29265270 0.12259433 0.59256279 130 130 128
0.29367691 0.12259433 0.59256279 130 130 127
0.29623160 0.12238038 0.59152865 130 129 125
-0.99301732 0.33832440 1.62175083 26 25 32
-0.97850960 0.33432531 1.60258114 27 26 33
-0.98270923 0.33671334 1.61402822 27 26 33
-0.98225820 0.33751696 1.61788034 27 26 33
-0.98180503 0.33832440 1.62175083 27 26 33
-0.97339588 0.33832440 1.62175083 27 26 33
-0.96597093 0.33671334 1.61402822 27 26 33
-0.96547997 0.33751696 1.61788034 27 26 32
0.14895247 0.12087145 0.57939476 135 135 136
0.14944300 0.12045963 0.57742065 135 135 137
0.15269721 0.12066519 0.57840604 131 131 131
0.15356590 0.12056232 0.57791293 132 131 131
0.15443312 0.12045963 0.57742065 133 132 132
0.15543114 0.12045963 0.57742065 133 132 132
0.15629603 0.12035711 0.57692921 135 134 134
0.15742719 0.12045963 0.57742065 136 135 135
0.15829039 0.12035711 0.57692921 135 134 134
0.28628048 0.12308060 0.58998418 133 133 131
0.28830391 0.12351057 0.59204525 132 132 130
0.28958011 0.12361854 0.59256279 131 131 129
0.29035050 0.12351057 0.59204525 131 131 129
0.29290873 0.12372669 0.59308124 131 130 128
0.29393384 0.12372669 0.59308124 131 131 128
-0.99301732 0.34112749 1.62175083 27 26 33
-0.97850960 0.33709523 1.60258114 27 26 33
-0.98505461 0.34031332 1.61788034 27 26 33
-0.98460811 0.34112749 1.62175083 27 26 33
-0.98180503 0.34112749 1.62175083 27 26 33
-0.98607910 0.34359345 1.63347435 27 27 32
-0.98325580 0.34359345 1.63347435 27 27 31
-0.97807562 0.34276751 1.62954772 27 26 31
-0.97059280 0.34112749 1.62175083 26 26 31
-0.96778971 0.34112749 1.62175083 26 26 31
-0.96039152 0.33950305 1.61402822 28 28 32
-0.94082206 0.33550891 1.59503961 28 28 32
0.14845859 0.12229098 0.58138239 136 136 136
0.14895247 0.12187289 0.57939476 135 135 135
0.14944300 0.12145765 0.57742065 135 135 135
0.15156814 0.12156120 0.57791293 132 132 131
0.15256703 0.12156120 0.57791293 131 131 130
0.15343510 0.12145765 0.57742065 131 131 130
0.15430169 0.12135428 0.57692921 131 130 130
0.15529886 0.12135428 0.57692921 132 131 131
0.15629603 0.12135428 0.57692921 134 133 133
0.15729322 0.12135428 0.57692921 136 135 135
0.15829039 0.12135428 0.57692921 136 135 135
0.15928756 0.12135428 0.57692921 136 135 135
0.16186582 0.12104523 0.57545996 133 132 132
0.28880838 0.12475178 0.59308124 133 132 130
0.28983346 0.12475178 0.59308124 132 131 129
0.29085857 0.12475178 0.59308124 132 131 129
0.29342216 0.12497045 0.59412080 132 131 128
-0.99820846 0.34475532 1.62563992 27 26 33
-0.99301732 0.34393054 1.62175083 27 26 32
-0.97850960 0.33986518 1.60258114 27 27 32
-0.98270923 0.34229279 1.61402822 27 27 31
-0.98225820 0.34310970 1.61788034 27 26 33
-0.98415953 0.34475532 1.62563992 27 26 33
-0.98607910 0.34641677 1.63347435 27 27 32
-0.98325580 0.34641677 1.63347435 27 27 32
-0.97573012 0.34475532 1.62563992 26 26 32
-0.96827632 0.34310970 1.61788034 26 25 32
-0.96547997 0.34310970 1.61788034 26 26 31
-0.96039152 0.34229279 1.61402822 26 26 30
-0.96680951 0.34558406 1.62954772 27 27 31
-0.95709085 0.34310970 1.61788034 27 27 31
-0.94527042 0.33986518 1.60258114 28 27 31
0.14858602 0.12340169 0.58188140 136 136 135
0.14907989 0.12297944 0.57989037 136 136 135
0.14944300 0.12245568 0.57742065 135 135 134
0.15169747 0.12266465 0.57840604 132 132 131
0.15256703 0.12256008 0.57791293 131 131 130
0.15343510 0.12245568 0.57742065 130 130 129
0.15430169 0.12235146 0.57692921 129 129 128
0.15529886 0.12235146 0.57692921 130 129 130
0.15629603 0.12235146 0.57692921 133 132 133
0.15729322 0.12235146 0.57692921 134 133 134
0.15829039 0.12235146 0.57692921 136 135 136
0.15928756 0.12235146 0.57692921 136 135 136
0.16014844 0.12224742 0.57643867 136 135 135
0.16128191 0.12235146 0.57692921 133 132 132
0.16186582 0.12203987 0.57545996 133 132 132
0.29008725 0.12588701 0.59360057 134 133 131
-1.00301909 0.34924012 1.63347435 26 25 32
-0.99779141 0.34840059 1.62954772 26 25 32
-0.98082834 0.34344703 1.60637879 26 25 32
-0.98505461 0.34590608 1.61788034 27 26 33
-0.98460811 0.34673360 1.62175083 27 26 32
-0.98652530 0.34840059 1.62954772 27 26 32
-0.98846096 0.35008368 1.63741994 27 26 31
-0.98325580 0.34924012 1.63347435 27 26 31
-0.98043245 0.34924012 1.63347435 27 26 30
-0.97059280 0.34673360 1.62175083 27 26 30
-0.96778971 0.34673360 1.62175083 27 26 30
-0.96730077 0.34756511 1.62563992 27 26 31
-0.97148007 0.35008368 1.63741994 27 26 32
-0.96168119 0.34756511 1.62563992 27 26 32
-0.94976103 0.34426281 1.61019444 27 26 33
-0.94697791 0.34426281 1.61019444 27 26 33
0.14419177 0.12408789 0.58038688 135 135 135
0.14783408 0.12462136 0.58288205 135 135 135
0.14833137 0.12419421 0.58088416 136 136 136
0.14882527 0.12376998 0.57889998 135 135 135
0.14944300 0.12345371 0.57742065 135 135 135
0.15031299 0.12334864 0.57692921 134 134 134
0.15156814 0.12355895 0.57791293 132 132 132
0.15243706 0.12345371 0.57742065 131 131 129
0.15330450 0.12334864 0.57692921 130 130 128
0.15417048 0.12324375 0.57643867 129 129 127
0.15529886 0.12334864 0.57692921 132 131 131
0.15616313 0.12324375 0.57643867 134 133 133
0.15729322 0.12334864 0.57692921 134 133 133
0.15829039 0.12334864 0.57692921 133 132 132
-1.01032257 0.35462701 1.64536858 26 26 30
-1.00261164 0.35291383 1.63741994 26 26 30
-0.98549896 0.34787220 1.61402822 26 26 30
-0.98977906 0.35037488 1.62563992 26 26 29
-0.98934180 0.35121712 1.62954772 26 26 30
-0.99129111 0.35291383 1.63741994 26 26 30
-0.98846096 0.35291383 1.63741994 26 25 29
-0.98801732 0.35376835 1.64138460 26 25 29
-0.98280066 0.35291383 1.63741994 26 24 30
-0.97525913 0.35121712 1.62954772 26 25 31
-0.97244257 0.35121712 1.62954772 27 25 32
-0.97196245 0.35206345 1.63347435 27 26 33
-0.97619599 0.35462701 1.64536858 27 26 33
-0.96864992 0.35291383 1.63741994 27 26 33
-0.95657748 0.34953666 1.62175083 27 26 33
-0.95606166 0.35037488 1.62563992 27 26 33
-0.94870174 0.34870246 1.61788034 27 26 33
0.14369965 0.12466411 0.57840604 135 135 135
0.14783408 0.12562883 0.58288205 135 135 135
0.14820437 0.12509103 0.58038688 135 135 135
0.14882527 0.12477056 0.57889998 135 135 135
0.14931580 0.12434581 0.57692921 135 135 135
0.15018517 0.12424008 0.57643867 135 135 135
0.15143904 0.12445173 0.57742065 133 133 133
0.15243706 0.12445173 0.57742065 131 131 131
0.15317415 0.12424008 0.57643867 130 130 130
0.15417048 0.12424008 0.57643867 130 130 130
0.15516680 0.12424008 0.57643867 132 131 131
0.15603045 0.12413452 0.57594889 135 134 134
0.15715946 0.12424008 0.57643867 136 135 135
-1.01278079 0.35834065 1.64937186 26 26 28
-1.00261164 0.35574397 1.63741994 25 25 28
-0.98785096 0.35149884 1.61788034 26 26 29
-0.99695140 0.35574397 1.63741994 26 26 29
-0.99652833 0.35660535 1.64138460 26 26 30
-0.99610317 0.35747090 1.64536858 26 26 30
-0.99325931 0.35747090 1.64536858 25 25 29
-0.99041539 0.35747090 1.64536858 25 25 29
-0.98997438 0.35834065 1.64937186 25 25 29
-0.97997051 0.35574397 1.63741994 26 25 30
-0.97950631 0.35660535 1.64138460 26 25 33
-0.97666931 0.35660535 1.64138460 26 25 34
-0.98095793 0.35921466 1.65339470 26 25 33
-0.97572035 0.35834065 1.64937186 26 25 32
0.14269993 0.12566383 0.57840604 135 135 134
0.14333275 0.12534298 0.57692921 135 135 134
0.14782469 0.12577115 0.57889998 135 135 134
0.14869829 0.12566383 0.57840604 135 135 134
0.14931580 0.12534298 0.57692921 135 135 135
0.15018517 0.12523641 0.57643867 135 135 135
0.15143904 0.12544975 0.57742065 133 133 133
0.15230733 0.12534298 0.57692921 131 131 131
0.15317415 0.12523641 0.57643867 130 130 130
0.15417048 0.12523641 0.57643867 130 130 130
0.15516680 0.12523641 0.57643867 131 131 131
0.15603045 0.12513000 0.57594889 132 132 132
0.15702593 0.12513000 0.57594889 135 134 134
-1.01773334 0.36295769 1.65743732 25 25 29
-1.00747871 0.36031479 1.64536858 25 25 29
-0.99258888 0.35599446 1.62563992 26 26 30
-1.00422835 0.36119145 1.64937186 26 26 30
-1.00137758 0.36119145 1.64937186 26 26 30
-0.98712355 0.36119145 1.64937186 26 25 32
-0.98667341 0.36207241 1.65339470 26 25 32
-0.98381567 0.36207241 1.65339470 26 25 32
0.14257826 0.12655558 0.57791293 135 135 135
0.14321087 0.12623273 0.57643867 135 135 135
0.14758028 0.12742463 0.58188140 135 135 135
0.14782469 0.12677172 0.57889998 135 135 135
0.14869829 0.12666357 0.57840604 135 135 135
0.14931580 0.12634017 0.57692921 135 135 135
0.15031299 0.12634017 0.57692921 135 135 135
0.15143904 0.12644778 0.57742065 134 134 134
0.15230733 0.12634017 0.57692921 131 131 131
0.15317415 0.12623273 0.57643867 130 130 130
0.15417048 0.12623273 0.57643867 131 130 130
0.15516680 0.12623273 0.57643867 132 131 131
0.15603045 0.12612548 0.57594889 132 131 131
0.15702593 0.12612548 0.57594889 133 132 132
-1.01773334 0.36582243 1.65743732 25 25 30
-1.00747871 0.36315867 1.64536858 25 25 30
-0.99737245 0.36053342 1.63347435 25 25 31
-1.00667775 0.36493018 1.65339470 25 24 31
0.14245681 0.12744580 0.57742065 135 135 135
0.14321087 0.12722906 0.57643867 135 135 135
0.14732736 0.12821026 0.58088416 136 136 136
0.14769857 0.12766328 0.57840604 136 136 136
0.14869829 0.12766328 0.57840604 136 136 136
0.14931580 0.12733734 0.57692921 135 135 135
0.15031299 0.12733734 0.57692921 135 135 135
0.15143904 0.12744580 0.57742065 136 135 135
0.15230733 0.12733734 0.57692921 134 133 133
0.15317415 0.12722906 0.57643867 132 131 131
0.15417048 0.12722906 0.57643867 131 130 130
0.15516680 0.12722906 0.57643867 131 130 130
0.15603045 0.12712096 0.57594889 132 131 131
0.15715946 0.12722906 0.57643867 133 132 132
-1.00261164 0.36423442 1.63741994 25 24 31
-0.99021423 0.36074892 1.62175083 25 24 31
-1.00422835 0.36689308 1.64937186 25 24 31
-1.00137758 0.36689308 1.64937186 25 24 31
-1.00096226 0.36778793 1.65339470 25 24 31
-0.99567598 0.36689308 1.64937186 25 24 31
-0.97997051 0.36423442 1.63741994 27 26 33
0.02464422 0.15293413 0.68751711 138 138 138
0.14233558 0.12833451 0.57692921 135 135 135
0.14308921 0.12811644 0.57594889 135 135 135
0.14432994 0.12833451 0.57692921 136 136 135
0.14707531 0.12899320 0.57989037 137 137 136
0.14744695 0.12844382 0.57742065 137 137 136
0.14844497 0.12844382 0.57742065 136 136 135
0.14918883 0.12822539 0.57643867 136 136 136
0.15018517 0.12822539 0.57643867 136 135 135
0.15131016 0.12833451 0.57692921 135 135 135
0.15217783 0.12822539 0.57643867 133 133 133
0.15317415 0.12822539 0.57643867 132 131 131
0.15417048 0.12822539 0.57643867 131 130 130
0.15516680 0.12822539 0.57643867 131 130 131
0.15603045 0.12811644 0.57594889 131 131 132
0.15715946 0.12822539 0.57643867 133 132 133
0.15802142 0.12811644 0.57594889 136 135 136
-1.00179100 0.36884645 1.64536858 25 24 31
-0.99652833 0.36795336 1.64138460 25 24 31
-0.99610317 0.36884645 1.64536858 25 24 31
-0.99567598 0.36974388 1.64937186 25 24 31
-0.99041539 0.36884645 1.64536858 26 25 32
-0.98997438 0.36974388 1.64937186 26 25 32
-0.97525913 0.36529985 1.62954772 26 25 32
-0.97011060 0.36442381 1.62563992 26 25 33
-0.97196245 0.36618009 1.63347435 26 25 33
0.02222251 0.15381046 0.68612534 136 136 136
0.02343214 0.15396629 0.68682051 137 137 137
0.02464422 0.15412244 0.68751711 138 138 138
0.02580637 0.15396629 0.68682051 138 138 138
0.14233558 0.12933169 0.57692921 136 136 136
0.14321087 0.12922171 0.57643867 136 136 135
0.14445287 0.12944186 0.57742065 137 137 135
0.14569910 0.12966274 0.57840604 137 137 135
0.14694960 0.12988439 0.57939476 136 136 134
0.14744695 0.12944186 0.57742065 136 136 134
0.14857152 0.12955220 0.57791293 136 136 134
0.14931580 0.12933169 0.57692921 136 136 134
0.15018517 0.12922171 0.57643867 136 135 133
0.15131016 0.12933169 0.57692921 138 134 133
0.15217783 0.12922171 0.57643867 134 131 130
0.15317415 0.12922171 0.57643867 132 131 130
0.15417048 0.12922171 0.57643867 131 130 130
0.15516680 0.12922171 0.57643867 131 130 130
0.15616313 0.12922171 0.57643867 131 131 133
0.15715946 0.12922171 0.57643867 132 131 133
-0.99172574 0.36900342 1.63347435 25 24 32
-0.98652530 0.36811638 1.62954772 25 24 33
-0.99325931 0.37169033 1.64536858 25 24 33
-0.98325580 0.36900342 1.63347435 26 25 34
-0.97059280 0.36635506 1.62175083 26 25 34
0.02114360 0.15578476 0.68961531 136 136 136
0.02224503 0.15515341 0.68682051 136 136 136
0.02345591 0.15531076 0.68751711 136 136 136
0.14857152 0.13055108 0.57791293 135 135 135
0.14931580 0.13032886 0.57692921 135 135 134
0.15031299 0.13032886 0.57692921 136 135 133
0.15131016 0.13032886 0.57692921 136 135 133
0.15529886 0.13032886 0.57692921 131 130 130
0.15629603 0.13032886 0.57692921 131 130 130
0.15742719 0.13043988 0.57742065 132 131 131
0.02019823 0.15891668 0.69813782 135 135 135
0.02118671 0.15729673 0.69102126 135 135 135
0.02226759 0.15649909 0.68751711 136 136 136
0.15543114 0.13143790 0.57742065 131 130 130
0.15642917 0.13143790 0.57742065 131 130 130
0.00840859 0.16558017 0.72192955 138 138 138
0.00965639 0.16558017 0.72192955 138 138 138
0.01088101 0.16522825 0.72039515 138 138 138
0.01327257 0.16400820 0.71507579 138 138 138
0.02021905 0.16028842 0.69885755 135 135 135
0.02125170 0.15897727 0.69314092 136 135 135
0.15642917 0.13243593 0.57742065 129 129 128
0.15756141 0.13254882 0.57791293 130 130 129
0.00839965 0.16665049 0.72116154 138 138 138
0.00964612 0.16665049 0.72116154 138 138 138
0.01086946 0.16629666 0.71963042 138 138 138
0.01325858 0.16507003 0.71432227 138 138 138
0.02026083 0.16183002 0.70030147 135 135 135
0.02133898 0.16083312 0.69598752 136 136 136
0.00593195 0.16861446 0.72424340 135 135 135
0.00717608 0.16843452 0.72347051 136 136 136
0.00839072 0.16771853 0.72039515 138 138 138
0.00963587 0.16771853 0.72039515 138 138 138
0.01085793 0.16736282 0.71886730 138 138 138
0.01204933 0.16665590 0.71583086 137 137 137
0.01325858 0.16630468 0.71432227 137 137 137
0.01446275 0.16595493 0.71281999 137 137 137
0.01572788 0.16630468 0.71432227 136 136 136
0.02032381 0.16354729 0.70247859 136 135 135
0.00593195 0.16986626 0.72424340 136 136 136
0.00716843 0.16950408 0.72269917 137 137 137
0.00839072 0.16896367 0.72039515 137 137 137
0.00963587 0.16896367 0.72039515 138 138 138
0.01085793 0.16860533 0.71886730 138 138 138
0.01204933 0.16789316 0.71583086 137 137 137
0.01325858 0.16753933 0.71432227 137 137 137
0.01447797 0.16736297 0.71357036 137 137 137
0.01572788 0.16753933 0.71432227 135 135 135
0.01694467 0.16736297 0.71357036 135 135 135
0.01817802 0.16736297 0.71357036 136 135 135
0.01939096 0.16718698 0.71281999 136 135 135
0.02047232 0.16596536 0.70761150 136 136 136
0.00592562 0.17093544 0.72347051 137 137 137
0.00716843 0.17075320 0.72269917 137 137 137
0.00838181 0.17002814 0.71963042 138 138 138
0.00963587 0.17020883 0.72039515 138 138 138
0.01085793 0.16984783 0.71886730 138 138 138
0.01206206 0.16930920 0.71658754 138 138 138
0.01327257 0.16895200 0.71507579 137 137 137
0.01447797 0.16859631 0.71357036 137 137 137
0.01574447 0.16895200 0.71507579 136 136 136
0.01694467 0.16859631 0.71357036 136 136 136
0.01817802 0.16859631 0.71357036 136 136 137
0.01939096 0.16841903 0.71281999 136 136 137
0.02053663 0.16771361 0.70983440 136 136 138
0.00716080 0.17181915 0.72192955 138 138 138
0.00838181 0.17127195 0.71963042 138 138 138
0.00962564 0.17127195 0.71963042 138 138 138
0.01085793 0.17109033 0.71886730 138 138 138
0.01206206 0.17054777 0.71658754 137 137 137
0.01327257 0.17018795 0.71507579 136 136 136
0.01447797 0.16982967 0.71357036 136 136 136
0.01574447 0.17018795 0.71507579 136 136 136
0.01694467 0.16982967 0.71357036 136 136 136
0.01817802 0.16982967 0.71357036 136 136 137
0.01941137 0.16982967 0.71357036 136 136 136
0.02055816 0.16911760 0.71057844 137 137 137
0.00716080 0.17306694 0.72192955 138 138 139
0.00838181 0.17251578 0.71963042 139 139 140
0.00962564 0.17251578 0.71963042 138 138 139
0.01085793 0.17233284 0.71886730 138 138 138
0.01207483 0.17196812 0.71734589 138 137 139
0.01327257 0.17142391 0.71507579 137 137 137
0.01447797 0.17106302 0.71357036 137 137 138
0.01572788 0.17124327 0.71432227 136 136 138
0.01694467 0.17106302 0.71357036 136 136 138
0.01817802 0.17106302 0.71357036 136 136 138
0.01939096 0.17088313 0.71281999 137 137 139
0.02055816 0.17034577 0.71057844 137 137 139
0.00715318 0.17412931 0.72116154 138 138 140
0.00837293 0.17357534 0.71886730 139 139 141
0.00963587 0.17394425 0.72039515 139 139 141
0.01086946 0.17375961 0.71963042 138 138 140
0.01207483 0.17320798 0.71734589 138 138 139
0.01327257 0.17265986 0.71507579 137 137 139
0.01449323 0.17247792 0.71432227 137 137 138
0.01574447 0.17265986 0.71507579 136 136 138
0.01694467 0.17229636 0.71357036 136 136 137
0.01817802 0.17229636 0.71357036 136 136 137
0.01941137 0.17229636 0.71357036 137 137 138
0.02057973 0.17175399 0.71132410 137 137 138
0.00715318 0.17537577 0.72116154 138 138 138
0.00837293 0.17481785 0.71886730 139 139 139
0.00963587 0.17518941 0.72039515 139 139 139
0.01086946 0.17500342 0.71963042 139 139 139
0.01210044 0.17481785 0.71886730 138 138 138
0.01328658 0.17407943 0.71583086 137 137 137
0.01450852 0.17389581 0.71507579 137 137 137
0.01576109 0.17407943 0.71583086 136 136 136
0.01696253 0.17371257 0.71432227 136 136 136
0.01821637 0.17389581 0.71507579 137 137 137
0.01943182 0.17371257 0.71432227 137 137 137
0.02579533 0.17500342 0.71963042 137 137 137
0.02701048 0.17481785 0.71886730 137 137 137
0.00837293 0.17606035 0.71886730 138 138 138
0.00964612 0.17662224 0.72116154 139 139 139
0.01086946 0.17624725 0.71963042 139 139 139
0.01208762 0.17587385 0.71810579 139 139 139
0.01328658 0.17531669 0.71583086 138 138 138
0.01449323 0.17494722 0.71432227 135 135 135
0.01576109 0.17531669 0.71583086 135 135 135
0.01696253 0.17494722 0.71432227 137 137 137
0.01819717 0.17494722 0.71432227 137 137 136
0.01945232 0.17513175 0.71507579 137 137 135
0.02328297 0.17606035 0.71886730 138 138 136
0.02460375 0.17662224 0.72116154 138 138 138
0.02585022 0.17662224 0.72116154 138 138 138
0.02706789 0.17643455 0.72039515 139 139 139
0.02831304 0.17643455 0.72039515 137 137 137
0.00836406 0.17711502 0.71810579 138 138 136
0.00963587 0.17767969 0.72039515 139 139 137
0.01086946 0.17749107 0.71963042 138 138 136
0.01208762 0.17711502 0.71810579 138 138 136
0.01328658 0.17655395 0.71583086 139 139 138
0.01449323 0.17618187 0.71432227 136 136 136
0.01576109 0.17655395 0.71583086 136 136 134
0.01696253 0.17618187 0.71432227 136 136 134
0.01821637 0.17636772 0.71507579 137 136 134
0.01945232 0.17636772 0.71507579 137 137 135
0.02066647 0.17618187 0.71432227 137 137 135
0.02206387 0.17749107 0.71963042 137 137 135
0.02328297 0.17730285 0.71886730 138 138 136
0.02460375 0.17786871 0.72116154 138 138 136
0.02585022 0.17786871 0.72116154 139 139 138
0.02709669 0.17786871 0.72116154 140 140 140
0.00836406 0.17835622 0.71810579 137 137 135
0.00963587 0.17892483 0.72039515 137 137 135
0.01086946 0.17873490 0.71963042 138 138 136
0.01328658 0.17779121 0.71583086 138 138 136
0.01449323 0.17741652 0.71432227 137 137 135
0.01574447 0.17760366 0.71507579 136 136 134
0.01696253 0.17741652 0.71432227 136 136 134
0.01821637 0.17760366 0.71507579 136 136 134
0.01947286 0.17779121 0.71583086 136 136 134
0.02068827 0.17760366 0.71507579 137 137 135
0.02328297 0.17854536 0.71886730 137 137 135
0.02462995 0.17930593 0.72192955 138 138 136
0.02585022 0.17911518 0.72116154 139 139 137
0.02709669 0.17911518 0.72116154 139 139 137
0.00963587 0.18016998 0.72039515 138 138 136
0.01574447 0.17883961 0.71507579 137 136 134
0.01694467 0.17846310 0.71357036 137 136 134
0.01821637 0.17883961 0.71507579 138 137 135
0.01945232 0.17883961 0.71507579 137 137 135
0.02068827 0.17883961 0.71507579 137 137 135
0.02197057 0.17921771 0.71658754 137 137 135
0.02323370 0.17940736 0.71734589 137 137 135
0.02455151 0.17997871 0.71963042 137 137 135
0.02582275 0.18016998 0.72039515 138 138 136
0.01819717 0.17988580 0.71432227 138 137 135
0.01943182 0.17988580 0.71432227 137 137 135
0.02447357 0.18064722 0.71734589 137 137 135
0.02397250 0.20771059 0.78188217 137 137 135
0.02526564 0.20723255 0.78008264 137 137 136
1.77706552 0.44575515 1.67795014 123 126 125
0.02520763 0.20810191 0.77829146 136 136 135
0.02658336 0.20834111 0.77918601 136 136 135
0.02786606 0.20786326 0.77739888 136 136 134
0.02914289 0.20738760 0.77561998 137 137 135
0.03020699 0.20550653 0.76858485 137 137 135
1.72982907 0.43887836 1.64138460 121 125 124
1.77267766 0.44754755 1.67380702 125 129 124
0.02517872 0.20920692 0.77739888 136 136 136
0.02655284 0.20944712 0.77829146 136 136 136
0.02783414 0.20896728 0.77650839 136 136 136
0.02910958 0.20848966 0.77473354 137 137 135
0.03031009 0.20754088 0.77120799 137 137 135
0.03139306 0.20590118 0.76511496 136 136 134
1.74388194 0.44603533 1.65743732 122 126 125
1.72982907 0.44171536 1.64138460 122 126 125
1.70785463 0.43539008 1.61788034 122 126 125
1.76831150 0.44933113 1.66968429 121 126 122
0.02386241 0.21079233 0.77829146 137 137 137
0.02514988 0.21030942 0.77650839 137 137 137
0.02652239 0.21055061 0.77739888 136 136 136
0.02783414 0.21030942 0.77650839 136 136 136
0.02910958 0.20982872 0.77473354 136 136 134
0.03031009 0.20887387 0.77120799 136 136 134
0.03139306 0.20722362 0.76511496 136 136 134
0.03256846 0.20629227 0.76167625 136 136 134
1.74815619 0.45000032 1.66149962 121 125 124
1.72982907 0.44455236 1.64138460 122 126 125
1.70785463 0.43818647 1.61788034 122 126 125
1.76831150 0.45221704 1.66968429 121 125 124
0.01628084 0.44738936 1.64138460 135 135 133
0.02211549 0.45066294 1.65339470 135 135 133
0.02497325 0.45066294 1.65339470 135 135 133
0.02789905 0.45176479 1.65743732 135 135 133
0.03076380 0.45176479 1.65743732 135 135 133
0.02251720 0.21213755 0.77829146 136 136 134
0.02383505 0.21189427 0.77739888 137 137 135
0.02514988 0.21165155 0.77650839 136 136 135
0.02783414 0.21165155 0.77650839 136 136 135
0.02910958 0.21116778 0.77473354 137 137 135
0.03031009 0.21020684 0.77120799 136 136 134
0.03139306 0.20854606 0.76511496 135 135 133
1.75099599 0.45510298 1.66968429 124 125 122
1.74957263 0.45398477 1.66558194 123 124 122
1.74388194 0.45176479 1.65743732 123 124 122
1.72982907 0.44738936 1.64138460 122 125 123
1.70785463 0.44098282 1.61788034 122 126 123
1.69849002 0.43784788 1.60637879 121 125 122
1.76831150 0.45510298 1.66968429 121 125 122
0.00487384 0.44484088 1.62175083 136 136 134
0.00769531 0.44590765 1.62563992 137 137 135
0.01055572 0.44805661 1.63347435 137 137 135
0.01341137 0.44913885 1.63741994 136 136 134
0.01628084 0.45022637 1.64138460 135 135 133
0.01911784 0.45022637 1.64138460 135 135 133
0.02206168 0.45241725 1.64937186 135 135 133
0.02491249 0.45241725 1.64937186 135 135 133
0.02783101 0.45352069 1.65339470 135 135 134
0.03068876 0.45352069 1.65339470 135 135 133
0.03346490 0.45241725 1.64937186 136 136 134
0.02117199 0.21348277 0.77829146 136 136 134
0.02251720 0.21348277 0.77829146 136 136 134
0.02383505 0.21323794 0.77739888 137 137 135
0.02514988 0.21299368 0.77650839 136 136 135
0.02786606 0.21323794 0.77739888 136 136 136
0.02914289 0.21274999 0.77561998 136 136 134
0.03037921 0.21202222 0.77296674 136 136 134
0.03146408 0.21034332 0.76684600 135 135 133
0.03271550 0.20986849 0.76511496 135 135 133
0.03411495 0.21034332 0.76684600 136 135 133
1.74241269 0.45574385 1.66149962 124 126 119
1.74528444 0.45574385 1.66149962 124 125 121
1.74388194 0.45462954 1.65743732 124 125 121
1.73402774 0.45131913 1.64536858 124 125 122
1.71194041 0.44484088 1.62175083 124 125 123
1.70252442 0.44167098 1.61019444 124 125 123
-0.02911116 0.45306337 1.64138460 137 137 137
-0.02627416 0.45306337 1.64138460 136 136 136
-0.02343716 0.45306337 1.64138460 136 135 135
-0.02055040 0.45196900 1.63741994 136 135 135
-0.01750880 0.44657558 1.61788034 136 135 135
-0.01464253 0.44445407 1.61019444 137 136 136
-0.01185944 0.44445407 1.61019444 137 136 136
-0.00914149 0.44764394 1.62175083 137 137 137
0.00208073 0.44979608 1.62954772 137 137 133
0.00487384 0.44764394 1.62175083 137 137 134
0.00767690 0.44764394 1.62175083 137 137 135
0.01055572 0.45087993 1.63347435 138 138 136
0.01341137 0.45196900 1.63741994 137 137 135
0.01624152 0.45196900 1.63741994 136 136 134
0.02485202 0.45416301 1.64536858 135 135 135
0.02776329 0.45526806 1.64937186 136 136 136
0.03061410 0.45526806 1.64937186 137 137 136
0.03338367 0.45416301 1.64536858 137 137 136
0.02249138 0.21458161 0.77739888 137 137 137
0.02383505 0.21458161 0.77739888 137 137 137
0.02514988 0.21433581 0.77650839 136 136 136
0.03034461 0.21311523 0.77208638 135 135 133
1.73954093 0.45861560 1.66149962 125 127 117
1.74241269 0.45861560 1.66149962 123 125 116
1.74528444 0.45861560 1.66149962 123 125 118
1.74388194 0.45749429 1.65743732 124 126 119
1.73402774 0.45416301 1.64536858 124 126 120
1.71604586 0.44871742 1.62563992 124 125 121
1.70252442 0.44445407 1.61019444 124 125 121
1.75534093 0.45749429 1.65743732 124 125 121
-0.02904085 0.45479915 1.63741994 138 137 137
-0.02621070 0.45479915 1.63741994 137 137 137
-0.02338055 0.45479915 1.63741994 137 136 136
-0.01467739 0.44830203 1.61402822 136 135 135
-0.01188768 0.44830203 1.61402822 137 136 136
-0.00914149 0.45044699 1.62175083 138 137 137
-0.00633842 0.45044699 1.62175083 138 138 138
0.00208073 0.45261261 1.62954772 138 138 138
0.00487384 0.45044699 1.62175083 138 138 138
0.00767690 0.45044699 1.62175083 138 138 138
0.01055572 0.45370325 1.63347435 138 138 138
0.01344384 0.45590037 1.64138460 137 137 137
0.01628084 0.45590037 1.64138460 136 136 136
0.02491249 0.45811886 1.64937186 135 135 135
0.02783101 0.45923620 1.65339470 137 137 137
0.03061410 0.45811886 1.64937186 138 138 138
0.03338367 0.45700690 1.64536858 138 138 138
0.02246561 0.21567795 0.77650839 137 137 137
0.02380775 0.21567795 0.77650839 137 137 136
0.02514988 0.21567795 0.77650839 137 137 135
0.02910958 0.21518497 0.77473354 136 135 134
0.03037921 0.21469425 0.77296674 136 135 135
1.73805737 0.46262124 1.66558194 127 128 117
1.73666918 0.46148738 1.66149962 126 127 116
1.73954093 0.46148738 1.66149962 125 126 115
1.74241269 0.46148738 1.66149962 124 125 114
1.74528444 0.46148738 1.66149962 124 125 117
1.74815619 0.46148738 1.66149962 124 126 118
1.73824680 0.45811886 1.64937186 125 126 119
1.72431588 0.45370325 1.63347435 125 126 119
1.71065104 0.44937196 1.61788034 125 126 119
1.75534093 0.46035904 1.65743732 125 126 120
1.75391746 0.45923620 1.65339470 124 125 121
-0.02614754 0.45652658 1.63347435 137 137 137
-0.02332421 0.45652658 1.63347435 137 137 137
-0.01750880 0.45216832 1.61788034 138 137 137
-0.01467739 0.45109174 1.61402822 137 136 136
-0.01188768 0.45109174 1.61402822 137 136 136
-0.00916341 0.45433700 1.62563992 137 137 137
-0.00635362 0.45433700 1.62563992 138 138 138
0.00208574 0.45652658 1.63347435 139 139 139
0.00488552 0.45433700 1.62563992 139 139 139
0.00769531 0.45433700 1.62563992 139 139 139
0.01058122 0.45762929 1.63741994 139 139 139
0.01344384 0.45873737 1.64138460 137 137 137
0.01632036 0.45985079 1.64536858 136 136 136
0.01916425 0.45985079 1.64536858 135 135 135
0.02216956 0.46322379 1.65743732 136 136 136
0.02497325 0.46209398 1.65339470 136 136 136
0.02783101 0.46209398 1.65339470 138 138 138
0.03068876 0.46209398 1.65339470 139 139 139
0.03354652 0.46209398 1.65339470 138 138 138
0.02112348 0.21702008 0.77650839 137 138 138
0.02243991 0.21677177 0.77561998 138 138 138
0.02378051 0.21677177 0.77561998 138 138 138
0.02509239 0.21652403 0.77473354 138 138 138
0.02646170 0.21677177 0.77561998 137 137 137
0.02907635 0.21627685 0.77384913 136 136 136
1.75240111 0.47012043 1.68211377 127 129 117
1.73805737 0.46550009 1.66558194 125 127 115
1.73242307 0.46322379 1.65743732 124 126 114
1.73954093 0.46435913 1.66149962 123 125 114
1.74241269 0.46435913 1.66149962 123 125 114
1.74957263 0.46550009 1.66558194 123 127 113
1.74815619 0.46435913 1.66149962 122 128 113
1.74248636 0.46209398 1.65339470 123 129 114
1.73266613 0.45873737 1.64138460 125 127 120
1.72298741 0.45542917 1.62954772 125 126 122
1.75534093 0.46322379 1.65743732 125 126 122
1.75820577 0.46322379 1.65743732 125 126 122
-0.01467739 0.45388144 1.61402822 137 137 135
-0.01188768 0.45388144 1.61402822 137 137 136
-0.00916341 0.45714679 1.62563992 138 138 137
0.00209078 0.46045944 1.63741994 139 139 139
0.00489727 0.45824569 1.62954772 139 139 139
0.00771381 0.45824569 1.62954772 138 138 138
0.01058122 0.46045944 1.63741994 139 139 139
0.01347647 0.46269467 1.64536858 139 139 139
0.01632036 0.46269467 1.64536858 137 137 137
0.01916425 0.46269467 1.64536858 136 136 136
0.02211549 0.46495172 1.65339470 137 137 137
0.02497325 0.46495172 1.65339470 137 137 137
0.02783101 0.46495172 1.65339470 137 137 136
0.03068876 0.46495172 1.65339470 136 137 136
0.03354652 0.46495172 1.65339470 136 137 136
0.01978135 0.21836221 0.77650839 137 138 138
0.02107520 0.21786310 0.77473354 137 138 138
0.02241426 0.21786310 0.77473354 139 139 139
0.02375333 0.21786310 0.77473354 139 139 139
0.02506375 0.21761440 0.77384913 139 139 139
0.02640128 0.21761440 0.77384913 139 138 137
0.02773882 0.21761440 0.77384913 138 137 137
0.02904320 0.21736626 0.77296674 137 137 137
0.03034461 0.21711870 0.77208638 137 136 136
1.74233830 0.46953255 1.66968429 124 126 113
1.73666918 0.46723092 1.66149962 124 126 112
1.74381495 0.46837890 1.66558194 124 126 112
1.74669385 0.46837890 1.66558194 125 127 113
1.74957263 0.46837890 1.66558194 124 127 113
1.75245142 0.46837890 1.66558194 124 127 113
1.74248636 0.46495172 1.65339470 124 127 113
1.73687160 0.46269467 1.64536858 124 126 114
1.73131108 0.46045944 1.63741994 124 126 116
1.75534093 0.46608853 1.65743732 124 126 116
1.75820577 0.46608853 1.65743732 125 127 118
1.76538682 0.46723092 1.66149962 125 126 119
1.76393521 0.46608853 1.65743732 124 126 118
1.76679993 0.46608853 1.65743732 123 127 119
1.76966476 0.46608853 1.65743732 122 127 119
1.77252948 0.46608853 1.65743732 123 127 119
-0.01467739 0.45667118 1.61402822 138 138 138
-0.01185944 0.45558643 1.61019444 138 138 139
-0.00918544 0.46106225 1.62954772 139 139 138
0.00209078 0.46328959 1.63741994 134 135 135
0.00490907 0.46217322 1.63347435 132 133 131
