ply
format ascii 1.0
element vertex 505
property float x
property float y
property float z
property uchar red
property uchar green
property uchar blue
end_header
-0.38796795 -0.12451189 0.69734771 166 166 168
-0.38424105 -0.13189021 0.70102621 163 163 165
-0.38460464 -0.11785354 0.69650307 173 174 176
-0.37845150 -0.12343616 0.69913494 172 172 173
-0.37779214 -0.13212848 0.70098976 177 177 178
-0.37767260 -0.11808108 0.69769674 178 178 180
-0.28394124 0.03625564 0.51699595 167 168 169
-0.28426882 0.04120096 0.51784899 163 167 166
-0.26645224 -0.24185455 0.79886302 175 174 174
-0.26905422 -0.24489317 0.80185358 174 173 173
-0.26530556 -0.23664986 0.79864808 176 176 177
-0.26550114 -0.23820281 0.80056289 175 175 176
-0.27613674 0.03760466 0.51648534 166 167 168
-0.27699409 0.04109975 0.51782629 170 170 171
-0.26442070 0.05754682 0.52230785 161 162 163
-0.26443366 0.06516595 0.51927677 156 156 154
-0.26225622 0.06178097 0.52139906 156 157 157
-0.26162266 0.09432539 0.57874265 165 166 165
-0.26253101 0.09280497 0.58048633 165 166 166
-0.25643593 -0.24129350 0.79940075 183 184 184
-0.25821004 -0.24407733 0.80097563 176 176 176
-0.25500183 -0.23542887 0.79851258 178 178 178
-0.25842912 -0.23842105 0.80058108 176 176 176
-0.25848380 0.05803663 0.52303139 159 163 162
-0.25800319 0.06202563 0.52199794 153 154 153
-0.25671145 0.09443064 0.57908147 162 162 161
-0.25662456 0.09064033 0.58081073 161 161 160
-0.22340593 -0.06099622 0.79658264 175 174 176
-0.22677966 -0.05514644 0.79856305 171 171 172
-0.22420322 -0.04778635 0.80162291 172 172 172
-0.21587988 -0.06135928 0.79533750 168 165 167
-0.21367943 -0.05650009 0.79759658 170 169 170
-0.21497597 -0.04864134 0.80212385 169 169 170
-0.19258329 0.17274667 0.99252099 174 174 174
-0.18612965 0.17443970 1.00470205 158 156 156
-0.18606645 0.18908119 1.00578147 154 153 153
-0.18451375 0.20373179 1.01178087 155 154 155
-0.16114793 -0.04418525 0.46066609 175 175 175
-0.16081098 -0.03839741 0.46151721 165 165 166
-0.16100317 0.05889685 0.53918624 165 164 164
-0.16103508 0.06030665 0.53929341 168 167 167
-0.16980951 0.17834098 0.99984050 170 171 171
-0.17605670 0.17681387 1.00466004 138 137 138
-0.17680768 0.18821291 1.00627629 159 158 158
-0.17839912 0.20228353 1.01329215 155 154 154
-0.15590215 -0.04975482 0.45958783 172 172 173
-0.15594911 -0.04390356 0.46106773 175 175 175
-0.15247690 -0.03877095 0.45963973 177 176 176
-0.15754153 -0.03848569 0.46142276 170 170 170
-0.15579930 0.05763386 0.53891871 166 165 164
-0.15582849 0.06086561 0.53919831 167 167 169
-0.15336137 0.06543752 0.54365897 165 165 167
-0.14710118 0.25603751 0.69423579 152 151 150
-0.15000236 0.26279611 0.69286272 149 149 150
-0.12071907 -0.20720954 0.45938020 170 171 173
-0.12144138 -0.20344716 0.46185086 168 169 171
-0.12191230 -0.19783863 0.46493616 174 175 175
-0.11940202 -0.20724109 0.45974359 171 172 174
-0.11916735 -0.20422893 0.46233948 175 176 177
-0.11914821 -0.19709059 0.46443358 177 178 177
-0.09294399 -0.86241198 1.77691483 173 174 176
-0.09236094 -0.87017961 1.78549488 173 174 176
-0.09044025 -0.85093456 1.76899743 175 177 178
-0.08426769 -0.82959265 1.75619650 177 177 178
-0.08784818 -0.83431484 1.76458309 174 174 175
-0.08232342 -0.81323719 1.74714386 173 174 174
-0.08027255 -0.16299396 0.79714670 161 161 162
-0.08642698 -0.15197500 0.79846038 171 172 174
-0.08262295 -0.15437107 0.80164248 174 174 177
-0.08555077 0.18961950 0.63549798 155 154 154
-0.06538426 -0.86508191 1.77924371 169 169 170
-0.06787332 -0.85033930 1.76776453 175 175 176
-0.06576961 -0.82975658 1.75425333 174 176 176
-0.07083345 -0.83087444 1.76177699 175 176 176
-0.07838032 -0.16265087 0.79658337 165 165 169
-0.07842698 -0.15931267 0.79940075 175 175 177
-0.07482135 -0.14970280 0.80334518 169 167 169
-0.07307204 0.18663980 0.63202057 162 161 161
-0.04990985 -0.86876616 1.77575648 168 171 173
-0.04859778 -0.87660855 1.78392589 177 181 184
-0.04784237 -0.84780532 1.75619650 174 175 175
-0.05372715 -0.85274255 1.76247752 169 170 171
-0.05839089 -0.83003461 1.75392753 170 174 174
-0.05861829 -0.82870412 1.76075804 175 179 181
-0.04353154 -0.42356311 1.09365183 164 164 167
-0.04872825 -0.41654701 1.08920647 169 169 171
-0.04545588 0.19667275 0.72860153 162 161 161
-0.04729053 0.20419396 0.72869056 164 161 160
-0.03009593 -0.42572426 1.09398612 172 172 173
-0.02285502 -0.41436120 1.07841702 175 176 176
-0.03204200 -0.41416492 1.08553676 173 173 174
-0.02429727 -0.18261651 0.72985282 170 170 171
-0.02214030 -0.17550500 0.73227851 168 167 169
-0.03085109 0.09495187 0.48805033 164 163 163
-0.03136194 0.10294969 0.48696119 149 148 150
-0.03789024 0.19656743 0.72896742 168 167 167
-0.03799124 0.20380013 0.73059291 158 155 155
-0.01942317 -0.42552160 1.09514314 176 176 176
-0.01908398 -0.41343972 1.07601881 175 175 175
-0.00300127 -0.31477969 0.63219479 173 174 175
-0.01618207 -0.18249514 0.72994068 170 169 169
-0.01604964 -0.17646231 0.73230531 171 171 172
-0.01685988 0.11499717 0.47562365 162 160 160
-0.01594369 0.12349766 0.47530512 159 158 157
0.00799419 -0.32469933 0.63460321 173 175 176
0.00753536 -0.31680405 0.63336260 172 175 176
0.01831564 -0.18469011 0.81071665 161 158 158
0.01197164 0.15581587 0.57876657 163 161 162
0.00602036 0.15653689 0.58167916 166 166 165
0.00705039 0.16198821 0.57924708 155 153 153
0.00613852 0.16192245 0.58136446 160 158 158
0.01104552 0.16818941 0.89831655 154 151 151
0.01308956 0.17073237 0.90253448 154 152 152
0.02423689 -0.20051199 0.45618564 173 174 175
0.02840276 -0.19368166 0.45498124 172 173 174
0.02755369 -0.18715124 0.80755570 177 177 178
0.02667193 -0.17856300 0.80573656 171 170 173
0.02900616 0.15115934 0.89861444 155 154 159
0.02850913 0.15531897 0.90167540 157 155 157
0.03222706 0.16347288 0.89906079 155 148 148
0.02672274 0.16772667 0.90356050 150 147 147
0.05876859 -0.32918929 0.72748226 176 176 177
0.07382154 -0.34171389 0.73472216 173 174 175
0.07146056 -0.33096259 0.73132495 173 173 174
0.07882000 -0.31908919 0.73075068 174 174 176
0.07990933 0.05877174 1.10766637 167 166 167
0.08549457 -0.34139422 0.73299151 166 167 167
0.08386541 -0.33026434 0.73063392 170 171 172
0.08101915 -0.31947199 0.72970140 179 179 179
0.08872721 0.03724167 1.12233746 175 174 176
0.09067139 0.05308246 1.11220791 161 160 162
0.08816972 0.04253992 1.12140989 178 178 179
0.08875675 0.06399246 1.09869015 163 163 169
0.09169547 0.06286244 1.10859430 172 172 177
0.09826387 0.06138840 1.12048233 169 168 173
0.10689672 0.05306729 1.11067374 159 159 161
0.10020053 0.04202177 1.12048233 151 148 154
0.10020053 0.06138840 1.12048233 173 172 175
0.15757976 -0.12837329 0.48725041 166 166 169
0.16512441 -0.12830259 0.48738727 168 167 169
0.17792184 0.18601570 0.49067452 154 153 153
0.18165353 0.18626025 0.49109965 160 159 159
0.21895251 0.08686317 0.83484215 169 168 172
0.23858104 -0.02710400 0.47332287 164 164 165
0.23908585 -0.01947756 0.47544698 159 158 160
0.22861115 0.07794049 0.83716596 158 158 160
0.22785452 0.08453269 0.83665643 164 163 164
0.23213674 0.09130425 0.84192371 168 168 168
0.25618529 -0.24151206 0.51938519 164 163 165
0.25814039 -0.24336015 0.52025467 172 171 171
0.25600219 -0.23529976 0.51914405 168 169 170
0.25103916 -0.23524739 0.52065457 169 169 170
0.25370638 -0.22125992 0.66240633 167 166 169
0.25206605 -0.21347665 0.65859630 169 168 168
0.25218489 -0.21536972 0.66143530 168 167 167
0.24456298 -0.02736922 0.47515270 167 168 169
0.24596693 -0.01839878 0.47676165 158 158 161
0.26013902 -0.23460735 0.51945734 161 162 164
0.27508409 -0.16174287 0.59549726 155 155 157
0.27677783 -0.15795458 0.59572775 163 163 166
0.27580282 0.15912885 0.58969333 163 162 161
0.27506926 0.16516905 0.58756843 159 159 159
0.28752339 -0.16499795 0.59599591 170 171 173
0.28292984 -0.15806739 0.59581371 171 171 173
0.29591141 0.10531806 0.63152212 152 152 153
0.28444912 0.16670716 0.59078294 167 166 165
0.30754081 0.10654427 0.63502265 145 144 146
0.33465558 -0.20924394 0.53972280 166 172 172
0.33697477 -0.20861888 0.54135733 167 169 170
0.33975352 -0.19892958 0.54340035 173 174 176
0.33816713 0.03975167 0.52631354 163 163 163
0.33826645 0.04500477 0.52656468 171 172 173
0.33462458 0.11573467 0.78593373 155 155 156
0.32929746 0.12590522 0.77909656 164 165 166
0.33049386 0.12550123 0.78128976 162 162 163
0.34779079 -0.20404129 0.54334233 165 166 167
0.34970777 -0.19937749 0.54400679 165 166 168
0.34511444 0.04817712 0.52903938 166 167 168
0.34254714 0.11516810 0.78561401 153 152 154
0.35731254 0.15460005 1.01467110 171 171 172
0.35677487 0.16475297 1.01401831 164 164 166
0.36906046 -0.22849756 0.51985568 179 179 179
0.37619798 -0.22983545 0.52110534 173 175 177
0.36922411 -0.00412907 0.52536695 153 155 156
0.37563834 0.00283383 0.52778666 158 160 161
0.36717634 0.15608968 1.01175345 163 163 165
0.36693286 0.16573404 1.00991039 163 162 163
0.38163252 -0.24072963 0.52379224 165 173 174
0.38495255 -0.24787630 0.55143067 171 171 171
0.38190522 -0.23293574 0.52194324 170 173 175
0.38461050 -0.23880437 0.54979062 178 178 180
0.38131446 0.00247165 0.53001839 142 141 144
0.45621578 -0.18224947 0.48569939 162 163 165
0.45768067 -0.17780944 0.48666259 167 169 172
0.45375167 0.17721347 0.63810823 157 157 157
0.44902881 0.17837411 0.64060876 156 162 161
0.45438354 0.18292706 0.63864130 162 162 162
0.45639497 0.18789208 0.64027576 153 154 155
0.47603623 -0.46137193 0.89906079 169 170 172
0.47776173 -0.46255140 0.90065384 167 167 169
0.47417879 -0.45949501 0.90025479 169 170 173
0.46269356 -0.18092928 0.48695315 160 164 166
0.46387662 -0.17760995 0.48783599 159 163 165
0.47837368 -0.12454019 0.85571009 157 154 157
0.47988185 -0.13129665 0.86026883 156 156 159
0.47445916 -0.11457543 0.85004515 170 170 172
0.46132071 0.18315266 0.63854212 159 160 161
0.48573247 -0.46674389 0.89880562 171 171 171
0.49062073 -0.46554985 0.90309537 161 164 164
0.48974558 -0.45722969 0.90755301 157 157 159
0.49447931 -0.24591844 0.67240942 158 159 160
0.48925081 -0.23904644 0.66985513 160 163 164
0.49056804 -0.14202036 0.87132627 151 151 155
0.48455428 -0.12486943 0.85733009 156 154 156
0.48696795 -0.13361725 0.86332154 157 158 161
0.48371567 -0.11728663 0.85448733 161 165 166
0.49365517 0.07843151 0.45083583 141 143 144
0.49485063 0.08600346 0.45206382 142 144 146
0.48855518 0.17683913 0.49307178 140 140 140
0.48961025 0.18220260 0.49411649 138 139 141
0.50561070 -0.24910502 0.67736957 147 149 151
0.51654712 -0.16448606 0.55796991 160 165 166
0.51026624 0.01969097 0.60928733 174 174 175
0.50872099 0.02648390 0.60751099 156 156 157
0.50147440 0.08622074 0.45288621 142 143 146
0.51869470 0.37867764 0.94151646 150 150 150
0.51995599 0.38406599 0.94677633 170 170 171
0.52258396 -0.16557020 0.55824992 156 159 161
0.52361441 -0.17168708 0.56024116 164 169 167
0.53711207 -0.02620000 0.54785535 161 162 163
0.53662136 0.01697635 0.53972280 163 164 164
0.53587340 0.01825314 0.54040870 153 154 154
0.53607750 0.02140413 0.54098254 146 146 147
0.52376539 0.37920479 0.94282715 167 170 169
0.53328912 0.38961244 0.94952848 162 163 163
0.53638368 0.40639912 0.95595010 158 159 161
0.53575465 0.41282640 0.96172852 157 158 159
0.55734948 -0.37175830 0.65854150 166 170 171
0.55622301 -0.37119719 0.66271491 167 170 170
0.54256948 -0.02342428 0.55047651 157 158 158
0.54350464 -0.01777753 0.55192657 157 158 161
0.54508215 0.01774278 0.54193482 150 150 150
0.54935680 0.02395072 0.54295107 144 145 146
0.54112238 0.39412883 0.94905004 157 158 160
0.54209629 0.40571166 0.95406154 156 157 159
0.57864129 -0.64589537 1.24575347 173 173 173
0.57545835 -0.62720737 1.23219432 173 174 176
0.57575635 -0.61538874 1.22584646 178 182 183
0.56559037 -0.37276456 0.65900096 167 169 170
0.56636871 -0.37075980 0.66185745 169 170 172
0.57833844 -0.36335224 0.72980097 156 162 162
0.57921527 -0.35767782 0.72852448 162 166 167
0.56751062 0.11275177 0.53737390 146 147 148
0.58955663 -0.66381145 1.25440912 165 166 166
0.58309376 -0.66272283 1.26002204 161 162 165
0.59645099 -0.64858601 1.23564672 168 169 172
0.58982542 -0.65123161 1.24786238 167 169 170
0.58886575 -0.62952693 1.23241268 172 173 176
0.59010875 -0.63857636 1.24269915 173 174 176
0.58623237 -0.61837365 1.23005058 172 175 177
0.58655544 -0.36643736 0.73285894 161 165 166
0.58399382 -0.35435210 0.72999965 159 163 164
0.59794965 -0.26236342 0.72127771 167 170 172
0.59919769 -0.25660312 0.71963042 165 169 168
0.59810156 -0.25883933 0.72100859 167 172 173
0.59692067 -0.04948505 0.71125097 155 156 157
0.59576548 -0.03576839 0.70888873 149 150 152
0.60434977 -0.64682677 1.23644071 161 162 163
0.60128957 -0.63877320 1.23477566 139 139 140
0.60758045 -0.26050717 0.71924886 170 174 177
0.60733051 -0.26448880 0.72238163 162 165 167
0.60718521 -0.25094287 0.71843539 164 169 170
0.60576077 -0.25300347 0.72082960 166 170 172
0.60282099 -0.23891169 0.71507579 164 165 167
0.60771865 -0.06080652 0.71357036 159 163 162
0.60623592 -0.05285005 0.71327439 154 155 156
0.63402097 -0.14391927 0.52799892 151 155 157
0.63116104 -0.13710528 0.52634194 154 157 159
0.64060956 -0.14696619 0.53043181 156 158 160
0.64010870 -0.13677429 0.53001708 152 155 160
0.67924196 -0.34395704 0.59884626 157 163 163
0.67901291 -0.34527675 0.60070178 160 167 168
0.67406057 -0.33720555 0.59922881 154 157 158
0.67685974 -0.33216980 0.60155583 147 153 154
0.68154810 -0.34381360 0.59950672 153 159 160
0.68082991 -0.34484449 0.60070178 160 167 168
0.68678907 -0.32790446 0.59888228 142 146 148
0.68544520 -0.32967370 0.60254316 144 147 148
0.69011062 -0.31910920 0.59884441 140 145 146
0.69842386 0.15807099 0.59194221 142 145 147
0.69987065 0.16114258 0.59308124 131 131 138
0.70799395 0.15788660 0.59304978 135 138 141
0.71026755 0.16663753 0.59412959 135 136 141
0.70880800 0.31649193 0.73924953 144 146 148
0.71543223 0.31487654 0.74245573 143 143 146
0.71785166 0.32283461 0.74421283 154 159 160
0.73953050 -0.28259303 1.17791897 164 164 164
0.73969012 -0.28689209 1.18305731 168 168 168
0.73547234 -0.27623512 1.17008172 160 160 161
0.73383012 -0.12324084 0.81525014 163 166 166
0.73385391 -0.11792250 0.81575795 163 165 166
0.73483913 0.11943897 0.89226063 165 165 166
0.73676326 0.12591454 0.89017246 162 163 163
0.72063839 0.16595010 0.59698157 138 139 142
0.72357096 0.31169074 0.74944735 148 148 150
0.72444517 0.32824009 0.74607390 145 146 148
0.74913559 -0.30378028 1.17486336 162 161 163
0.74635066 -0.30540125 1.18585894 172 172 173
0.74648424 -0.28904397 1.17156076 165 167 167
0.74386557 -0.29241829 1.18281978 162 163 164
0.74262946 -0.27685029 1.16477051 161 162 164
0.74600513 -0.12504401 0.81875028 165 168 169
0.75656533 -0.12547432 0.82148910 162 164 165
0.74480452 -0.11781762 0.81827939 165 169 171
0.75032079 -0.11963068 0.82102390 166 170 172
0.74856225 0.11903323 0.88826257 163 162 162
0.74603369 0.12503391 0.88879070 168 168 168
0.76146957 -0.31095293 1.18512923 158 154 157
0.76136404 -0.12596561 0.82069230 154 155 156
0.85855490 -0.10016323 0.99397629 182 186 187
0.85800034 -0.09871578 0.97961247 168 171 176
0.85828706 -0.09595178 0.99003492 161 163 166
0.86995635 -0.18293371 0.76806134 147 147 151
0.87212131 -0.17819536 0.77065342 160 161 163
0.86138666 -0.09532942 0.97961247 165 168 172
0.86557410 -0.08892029 0.99420776 165 167 168
0.86436196 -0.08148374 1.00230544 150 154 155
0.87184767 -0.07875433 0.99700082 147 148 148
0.87663717 -0.07675187 1.00762489 148 149 150
0.87375280 -0.03385957 0.75322316 149 154 156
0.89579964 -0.48211687 1.21292986 164 164 165
0.89118016 -0.46100360 1.19980860 166 172 172
0.89718353 -0.47552272 1.21328432 154 154 159
0.88778646 -0.18242652 0.77059771 160 164 166
0.88985341 -0.17716100 0.77485593 158 161 163
0.89400636 -0.16586123 0.78170396 158 161 162
0.89021643 -0.15963021 0.78068179 159 162 162
0.88141048 -0.07428245 1.00709246 151 153 155
0.88345379 -0.04050500 0.74866578 153 153 157
0.88214145 -0.03403888 0.74809228 148 149 150
0.90364686 -0.48210452 1.21377331 161 161 162
0.90937986 -0.47083442 1.21090482 164 165 169
0.90118325 -0.17407156 0.77888783 139 142 143
0.90545125 -0.16734107 0.78367241 154 156 158
0.91002784 -0.06481962 0.79845991 144 143 150
0.91729801 -0.06273409 0.80373545 155 159 162
0.91959445 -0.05350583 0.79440620 160 164 167
0.92281310 -0.46982825 1.20984825 162 163 165
0.92994121 -0.06259422 0.80607608 153 154 156
0.92436096 -0.05560293 0.79822543 155 161 162
0.92879821 -0.05804915 0.80576298 148 150 152
0.94349192 -0.06329978 0.80841182 153 154 156
0.94245412 -0.05781229 0.80788117 155 159 160
1.13605481 -0.78505681 1.24580651 164 170 172
1.13911045 -0.77002710 1.23477566 161 165 166
1.13617083 -0.77603626 1.24441403 173 175 177
1.15166044 -0.80050892 1.25072300 162 171 173
1.15826952 -0.79961771 1.23929036 157 166 166
1.14996750 -0.78970078 1.24947123 165 171 175
1.14353111 -0.77177810 1.23853656 165 168 170
1.14874142 -0.77323537 1.24794425 166 169 172
1.15658482 -0.77427330 1.26080418 170 171 175
1.17155086 -0.80256219 1.25461755 163 169 171
1.17220262 -0.80176085 1.26119524 164 170 172
1.16041148 -0.79961771 1.23929036 156 165 165
1.17043386 -0.79034531 1.25444541 155 160 162
1.17655683 -0.79883820 1.26002204 157 166 165
1.16192081 -0.76785799 1.23816047 156 164 164
1.16855275 -0.77112011 1.24843736 157 162 165
1.19259039 -0.80366291 1.26591053 161 165 166
1.18306917 -0.78866091 1.25768435 159 161 163
1.18897475 -0.79553779 1.26279901 157 159 162
1.20561544 -0.80618135 1.27160482 165 169 171
1.20182621 -0.79933661 1.26946032 160 166 168
1.23983812 -0.60665202 1.16877902 122 122 126
1.25461168 -0.62392465 1.17588145 151 156 157
1.25688064 -0.62319958 1.18099630 157 163 163
1.25158167 -0.60939224 1.17195208 149 154 156
1.24892879 -0.59857142 1.16877902 155 155 155
1.25029360 0.23313841 1.92741006 169 168 168
1.25846577 0.23669029 1.95077193 171 171 170
1.25687206 0.24392822 1.91494870 168 168 166
1.25449800 0.24002065 1.93683386 168 168 168
1.25846577 0.24174792 1.95077193 160 160 160
1.25450055 0.65578870 1.76995254 143 148 149
1.25829577 0.66159505 1.77458596 155 156 156
1.27126264 -0.62385236 1.17864994 147 152 152
1.27090740 -0.62459453 1.18151155 149 153 154
1.26867360 -0.61261510 1.17696220 144 148 150
1.27671482 -0.61199723 1.18214130 138 146 146
1.26019216 -0.59960526 1.17079771 155 164 163
1.27041179 0.23028951 1.89532266 171 171 171
1.26962957 0.22932432 1.90821980 173 173 172
1.26635276 0.23035073 1.92687243 171 171 171
1.26655504 0.23079991 1.94377890 162 162 162
1.26680160 0.24061839 1.91494870 158 158 158
1.26405642 0.24321512 1.92675910 166 166 165
1.26578021 0.24357700 1.94517428 164 164 164
1.26974854 0.65367745 1.76534810 157 158 159
1.26498687 0.66688091 1.75619650 155 156 156
1.27306638 0.67040266 1.77273623 156 156 157
1.27165596 0.67487301 1.78864113 158 160 160
1.26894144 0.68247432 1.77304959 159 163 164
1.27023380 0.68323133 1.79021564 154 159 160
1.28361201 -0.62428719 1.18305731 142 146 147
1.28949007 -0.61459618 1.18525239 138 147 149
1.28601468 0.21951917 1.90419054 173 175 176
1.28225774 0.22351240 1.89620471 155 156 156
1.28495059 0.22133105 1.90848775 167 168 167
1.28129995 0.65546060 1.77458596 153 153 154
1.29112709 0.65582705 1.78392589 157 157 159
1.29522272 0.66889581 1.78863562 156 156 157
1.29795837 0.68409449 1.79336464 151 151 153
1.30612722 0.67137781 1.79205721 165 166 167
1.30887850 0.68840847 1.79653593 158 157 159
1.30931411 0.69263013 1.80290389 156 156 157
1.31771553 0.70206517 1.80771160 168 168 168
1.39287418 -0.86664531 1.49540162 160 163 165
1.39182925 -0.86590606 1.50308609 161 162 164
1.39320404 -0.85264711 1.49683535 160 162 164
1.39962316 -0.85031829 1.50308609 163 165 166
1.39159525 -0.83363555 1.49467510 157 163 162
1.40154183 -0.84867299 1.49865715 162 165 166
1.40883001 -0.85129808 1.50694706 163 165 166
1.40316486 -0.83562442 1.49909859 159 167 166
1.41212168 -0.83468516 1.50718016 144 147 148
1.42713594 -0.85722393 1.51993692 164 168 167
1.42331962 -0.83458751 1.51540820 154 157 160
1.43441607 -0.26762721 1.27185204 156 158 160
1.43587969 -0.24346044 1.27125001 162 166 167
1.43910527 -0.24430764 1.28145909 167 171 170
1.44334316 -0.26562452 1.27639608 157 162 161
1.44824482 -0.26513126 1.28633668 153 156 156
1.44370288 -0.24971156 1.27703993 158 163 164
1.44931439 -0.25145639 1.28743297 159 163 164
1.46121472 -0.26055320 1.29616505 149 155 156
1.59862804 -0.68286681 1.79336464 136 137 139
1.59638095 -0.67927283 1.78392589 136 137 139
1.60382016 -0.68508918 1.79432106 138 140 142
1.61454153 -0.69457877 1.80771160 145 150 150
1.60059297 -0.67797357 1.78863287 124 123 126
1.63888502 -0.76191741 1.84209740 167 166 167
1.62842486 -0.70372218 1.82821608 146 150 149
1.63888502 -0.71097475 1.84209740 152 155 154
1.65065667 -0.76328695 1.85256448 165 165 166
1.65367591 -0.76170637 1.86234021 156 158 158
1.65264273 -0.75967824 1.85216355 170 170 171
1.65659934 -0.75110684 1.86533295 164 164 165
1.65426935 -0.72570653 1.85533504 164 167 167
1.65715637 -0.73188692 1.86747377 151 151 153
1.64803998 -0.71782098 1.84879899 158 162 161
1.65206647 -0.71878767 1.86234021 144 147 146
1.66519570 -0.76175958 1.85723794 174 174 176
1.66494203 -0.76063341 1.86234021 174 174 175
1.66889288 -0.75021679 1.86732809 162 163 163
1.66198564 -0.73286879 1.85723794 166 171 171
1.66252786 -0.73488218 1.86234021 165 167 168
1.67482516 -0.08442788 1.84712458 159 159 160
1.66619658 -0.07716575 1.83710527 160 161 161
1.67208397 -0.07758626 1.84711671 167 168 168
1.68297772 -0.75089365 1.86747062 160 160 160
1.68530974 -0.08798524 1.85596934 158 159 160
1.69507772 -0.09036156 1.86362281 158 159 160
1.71913612 -0.10216136 1.88827813 158 159 162
1.70773554 -0.08877418 1.87264013 161 161 163
1.71436083 -0.09862290 1.88303292 148 149 151
1.70019257 -0.07844121 1.86747062 166 167 169
1.72914216 -0.08939184 1.88653462 157 158 160
1.73464416 -0.07533450 1.89214612 151 152 156
1.73939359 0.13861237 1.55123997 139 145 144
1.74109882 -0.09767634 1.89620471 157 158 160
1.74684200 -0.07198894 1.89591004 154 155 158
1.75034012 -0.06642403 1.90866554 145 149 150
1.75681973 0.11743155 1.55479777 146 148 149
1.74808192 0.13841814 1.55658489 144 148 148
1.75486818 0.13387275 1.56557935 140 143 145
1.74652886 0.14573519 1.55127768 140 143 143
1.75230753 0.14429326 1.56436765 143 147 146
1.76491082 -0.08680992 1.90955448 164 165 168
1.77491033 -0.08232294 1.92037344 158 159 163
1.76883124 -0.06801119 1.91249954 153 157 157
1.77236806 -0.06287006 1.92741006 143 147 147
1.77265600 0.11861097 1.57041327 147 149 150
1.76220157 0.13420612 1.55718060 140 142 144
1.77052064 0.13143465 1.56920780 142 144 146
1.77696308 0.12863915 1.58109042 145 146 148
1.76421988 0.14986096 1.55658489 135 138 140
1.77322034 0.14715466 1.56953730 139 143 145
1.76219440 0.16177270 1.55479777 144 146 149
1.77991891 0.16364941 1.57283485 145 146 149
1.77456093 0.16304675 1.58016741 138 142 143
1.78502396 -0.06193164 1.93133146 147 150 150
1.79525304 -0.06144433 1.94238353 147 151 151
1.78876981 -0.05523101 1.93376826 154 157 161
1.78956258 -0.05677756 1.94349983 157 158 163
1.78567116 0.12875417 1.57503295 140 142 145
1.78073400 0.12495587 1.58201343 152 153 155
1.78334685 0.15249621 1.57466376 139 142 144
1.78925793 0.15407155 1.58542399 137 139 141
1.78328961 0.16345843 1.57101446 142 143 146
1.78582884 0.16288171 1.58386809 135 138 140
1.88392536 0.65449864 1.99968100 149 152 153
1.91336443 0.63167853 1.99674028 141 144 144
1.91424511 0.65016368 1.99800059 147 150 150
1.91219219 0.66909152 1.99512185 162 163 165
