ply
format ascii 1.0
element vertex 1059
property float x
property float y
property float z
property uchar red
property uchar green
property uchar blue
end_header
-0.45480424 -0.20686628 0.85917848 205 209 208
-0.45389450 -0.20712879 0.86026883 203 207 206
-0.45126227 -0.20660442 0.85809094 204 206 205
-0.12130354 -0.14919332 0.61964518 212 212 214
-0.11318573 -0.14837953 0.61626530 214 213 212
-0.11201873 -0.14824477 0.61570555 208 207 205
-0.11085384 -0.14811024 0.61514688 208 208 206
-0.10989033 -0.14824477 0.61570555 215 214 212
0.71507889 -0.35482064 1.47367787 103 102 104
0.71918947 -0.35559365 1.47688854 102 101 103
0.90554261 -0.37349540 1.55123997 80 80 86
0.90615022 -0.37264267 1.54769826 82 83 86
0.91090494 -0.37349540 1.55123997 85 86 89
0.91568154 -0.37435204 1.55479777 86 88 90
0.91626734 -0.37349540 1.55123997 86 87 89
0.91894853 -0.37349540 1.55123997 83 83 85
0.92800045 -0.37607718 1.56196272 82 82 85
0.93284959 -0.37694570 1.56557012 82 82 86
-0.48012215 -0.20669109 0.86465794 212 213 213
-0.47740978 -0.20616515 0.86245781 212 212 212
-0.47591907 -0.20616515 0.86245781 209 210 210
-0.47382557 -0.20590319 0.86136192 208 208 208
-0.47293770 -0.20616515 0.86245781 210 210 210
-0.47144702 -0.20616515 0.86245781 210 210 210
-0.46935919 -0.20590319 0.86136192 211 211 211
-0.46727663 -0.20564190 0.86026883 208 208 210
-0.46519938 -0.20538126 0.85917848 207 207 209
-0.46430284 -0.20564190 0.86026883 206 207 209
-0.46222934 -0.20538126 0.85917848 209 209 211
-0.46074432 -0.20538126 0.85917848 208 209 211
-0.45984212 -0.20564190 0.86026883 210 211 213
-0.45777428 -0.20538126 0.85917848 203 206 208
-0.45628926 -0.20538126 0.85917848 207 211 212
-0.45480424 -0.20538126 0.85917848 204 208 207
-0.45331922 -0.20538126 0.85917848 205 209 208
-0.12237454 -0.14812231 0.61964518 204 204 206
-0.12130354 -0.14812231 0.61964518 198 198 200
-0.12012272 -0.14798704 0.61907929 197 197 199
-0.11894407 -0.14785202 0.61851448 196 196 197
-0.11776756 -0.14771724 0.61795062 204 204 204
-0.11435485 -0.14744842 0.61682606 207 206 206
-0.11318573 -0.14731437 0.61626530 210 209 209
-0.11201873 -0.14718057 0.61570555 208 208 207
-0.11085384 -0.14704701 0.61514688 200 200 198
-0.10979061 -0.14704701 0.61514688 212 212 211
0.71663678 -0.35304099 1.47688854 101 100 102
0.71918947 -0.35304099 1.47688854 101 100 102
0.90701246 -0.37251911 1.55837202 84 83 89
0.90347517 -0.36996761 1.54769826 84 84 88
0.90408611 -0.36912486 1.54417276 85 86 88
0.90882528 -0.36996761 1.54769826 82 82 84
0.91358614 -0.37081420 1.55123997 82 82 84
0.91417545 -0.36996761 1.54769826 85 85 87
0.91685051 -0.36996761 1.54769826 81 81 84
0.92586714 -0.37251911 1.55837202 84 84 88
0.93070018 -0.37337744 1.56196272 90 90 96
-0.47382557 -0.20441440 0.86136192 215 215 215
-0.47293770 -0.20467447 0.86245781 215 215 215
-0.47144702 -0.20467447 0.86245781 212 212 212
-0.46935919 -0.20441440 0.86136192 210 210 210
-0.46727663 -0.20415498 0.86026883 209 209 210
-0.46519938 -0.20389624 0.85917848 211 211 213
-0.46430284 -0.20415498 0.86026883 212 212 214
-0.46222934 -0.20389624 0.85917848 214 214 216
-0.46016109 -0.20363814 0.85809094 214 214 216
-0.45925930 -0.20389624 0.85917848 213 214 216
-0.45628926 -0.20389624 0.85917848 207 211 212
-0.45422855 -0.20363814 0.85809094 201 205 205
-0.45331922 -0.20389624 0.85917848 200 204 203
-0.12226278 -0.14691702 0.61907929 199 199 200
-0.12119275 -0.14691702 0.61907929 199 199 199
-0.12001313 -0.14678296 0.61851448 210 210 210
-0.11894407 -0.14678296 0.61851448 207 207 207
-0.11776756 -0.14664917 0.61795062 207 207 207
-0.11691264 -0.14691702 0.61907929 209 209 209
-0.11552610 -0.14651561 0.61738783 213 212 212
-0.11445900 -0.14651561 0.61738783 212 211 211
-0.11318573 -0.14624920 0.61626530 202 202 202
-0.11201873 -0.14611638 0.61570555 196 196 196
-0.11085384 -0.14598379 0.61514688 191 191 191
-0.10979061 -0.14598379 0.61514688 200 199 199
-0.10862881 -0.14585143 0.61458915 207 206 206
-0.10756654 -0.14585143 0.61458915 204 204 203
0.70387340 -0.35048831 1.47688854 101 100 107
0.70489037 -0.34972638 1.47367787 104 103 109
0.71352774 -0.34896773 1.47048128 98 98 102
0.71762604 -0.34972638 1.47367787 98 98 102
0.71705550 -0.34821239 1.46729839 98 98 102
0.90347517 -0.36729252 1.54769826 86 86 88
0.90408611 -0.36645588 1.54417276 83 83 85
0.90675509 -0.36645588 1.54417276 81 81 83
0.91150033 -0.36729252 1.54769826 80 80 82
0.91209304 -0.36645588 1.54417276 78 78 81
0.91685051 -0.36729252 1.54769826 75 75 81
0.92586714 -0.36982560 1.55837202 78 79 85
0.93070018 -0.37067771 1.56196272 78 80 87
-0.47144702 -0.20318379 0.86245781 213 214 215
-0.46935919 -0.20292561 0.86136192 211 211 212
-0.46727663 -0.20266809 0.86026883 212 212 214
-0.46461052 -0.20215499 0.85809094 216 216 218
-0.46371436 -0.20241122 0.85917848 217 217 219
-0.46164423 -0.20215499 0.85809094 216 216 218
-0.45957935 -0.20189942 0.85700613 216 216 218
-0.12226278 -0.14584699 0.61907929 206 206 206
-0.12108218 -0.14571391 0.61851448 202 202 202
-0.12001313 -0.14571391 0.61851448 209 209 209
-0.11894407 -0.14571391 0.61851448 211 211 211
-0.11776756 -0.14558108 0.61795062 208 208 208
-0.11691264 -0.14584699 0.61907929 205 205 205
-0.11563142 -0.14558108 0.61795062 204 204 204
-0.11445900 -0.14544849 0.61738783 200 200 200
-0.11085384 -0.14492056 0.61514688 199 199 200
-0.10989033 -0.14505218 0.61570555 202 202 202
-0.10872738 -0.14492056 0.61514688 204 204 204
0.70234323 -0.34717923 1.47367787 100 98 109
0.70336133 -0.34642613 1.47048128 102 102 109
0.70590293 -0.34642613 1.47048128 100 100 104
0.70691109 -0.34567630 1.46729839 97 98 102
0.71098614 -0.34642613 1.47048128 97 98 102
0.71198332 -0.34567630 1.46729839 97 98 102
0.71606934 -0.34642613 1.47048128 97 98 102
0.71550679 -0.34492970 1.46412921 98 98 102
0.71959162 -0.34567630 1.46729839 99 99 103
0.90347517 -0.36461747 1.54769826 80 81 83
0.90203136 -0.36296010 1.54066324 79 80 82
0.90675509 -0.36378691 1.54417276 82 83 85
0.91150033 -0.36461747 1.54769826 78 78 80
0.91002005 -0.36296010 1.54066324 69 70 73
0.91476202 -0.36378691 1.54417276 63 64 69
-0.47264969 -0.20220761 0.86465794 206 208 209
-0.46995634 -0.20169309 0.86245781 215 216 218
-0.46727663 -0.20118117 0.86026883 220 220 222
-0.46519938 -0.20092620 0.85917848 223 223 225
-0.46430284 -0.20118117 0.86026883 220 220 222
-0.11894407 -0.14464486 0.61851448 210 210 210
-0.11776756 -0.14451301 0.61795062 207 207 207
-0.11552610 -0.14438139 0.61738783 214 214 214
-0.11191707 -0.14385732 0.61514688 203 203 205
-0.11085384 -0.14385732 0.61514688 210 210 212
-0.10989033 -0.14398798 0.61570555 209 209 210
-0.10882613 -0.14398798 0.61570555 203 203 203
0.70336133 -0.34388453 1.47048128 98 98 103
0.70844454 -0.34388453 1.47048128 99 100 102
0.71253175 -0.34463212 1.47367787 98 99 101
0.71352774 -0.34388453 1.47048128 97 98 101
0.71606934 -0.34388453 1.47048128 97 98 101
0.71705550 -0.34314018 1.46729839 98 98 102
0.72115254 -0.34388453 1.47048128 99 99 103
0.90141714 -0.36111793 1.54417276 80 80 82
0.89998591 -0.35948020 1.53716969 83 84 86
0.90469426 -0.36029720 1.54066324 86 86 87
0.90942407 -0.36111793 1.54417276 81 81 82
0.90795654 -0.35948020 1.53716969 74 76 77
0.90855318 -0.35866690 1.53369200 67 71 72
-0.47563866 -0.20071313 0.86465794 196 201 201
-0.47414419 -0.20071313 0.86465794 194 199 200
-0.47204760 -0.20045744 0.86355650 197 202 202
-0.46995634 -0.20020241 0.86245781 202 204 205
-0.46727663 -0.19969428 0.86026883 208 210 212
-0.46519938 -0.19944118 0.85917848 221 222 224
-0.46430284 -0.19969428 0.86026883 220 222 223
-0.11990372 -0.14344493 0.61795062 203 203 204
-0.11883564 -0.14344493 0.61795062 209 209 209
-0.11776756 -0.14344493 0.61795062 206 206 206
-0.11542098 -0.14318389 0.61682606 208 208 208
-0.11435485 -0.14318389 0.61682606 208 208 208
-0.11318573 -0.14305371 0.61626530 211 214 214
-0.11191707 -0.14279409 0.61514688 207 211 212
-0.11085384 -0.14279409 0.61514688 204 208 209
-0.10989033 -0.14292379 0.61570555 202 204 205
0.70844454 -0.34134293 1.47048128 98 98 102
0.71253175 -0.34208497 1.47367787 99 99 102
0.71352774 -0.34134293 1.47048128 98 98 102
0.71606934 -0.34134293 1.47048128 97 98 102
0.71705550 -0.34060410 1.46729839 98 98 102
0.72115254 -0.34134293 1.47048128 98 98 102
0.72526741 -0.34208497 1.47367787 99 98 103
0.89137971 -0.35763428 1.54066324 88 87 89
0.88999718 -0.35601604 1.53369200 85 85 87
0.89670551 -0.35763428 1.54066324 88 88 90
0.89732903 -0.35682333 1.53716969 87 88 89
0.89390492 -0.35441235 1.52678347 88 88 89
0.89856768 -0.35521239 1.53022993 88 88 90
0.90735716 -0.35763428 1.54066324 88 88 90
0.90385741 -0.35521239 1.53022993 87 89 89
0.90446061 -0.35441235 1.52678347 86 90 89
-0.47293770 -0.19871171 0.86245781 205 209 209
-0.47144702 -0.19871171 0.86245781 209 212 212
-0.46876353 -0.19820736 0.86026883 205 209 209
-0.46668440 -0.19795616 0.85917848 207 211 211
-0.46461052 -0.19770558 0.85809094 217 221 220
-0.46371436 -0.19795616 0.85917848 216 220 219
-0.11894407 -0.14250676 0.61851448 197 197 201
-0.11776756 -0.14237686 0.61795062 206 206 208
-0.11328872 -0.14211775 0.61682606 209 210 211
-0.11201873 -0.14185959 0.61570555 205 207 209
-0.11095453 -0.14185959 0.61570555 202 206 207
-0.10999023 -0.14198855 0.61626530 203 205 206
0.70998460 -0.33953783 1.47367787 99 97 101
0.71408409 -0.34027758 1.47688854 99 98 101
0.71507889 -0.33953783 1.47367787 98 98 102
0.71606934 -0.33880132 1.47048128 98 98 102
0.71861094 -0.33880132 1.47048128 98 98 102
0.72115254 -0.33880132 1.47048128 98 98 102
0.72369415 -0.33880132 1.47048128 100 98 105
0.88734633 -0.35336518 1.53369200 87 87 89
0.88598818 -0.35177344 1.52678347 88 88 90
0.89063305 -0.35256749 1.53022993 88 88 91
0.89327788 -0.35256749 1.53022993 88 88 90
0.89189619 -0.35098293 1.52335250 88 88 90
0.89452916 -0.35098293 1.52335250 85 85 86
0.90325147 -0.35336518 1.53369200 87 87 87
0.89979511 -0.35098293 1.52335250 89 89 90
0.90040475 -0.35019597 1.51993692 88 88 88
-0.47442839 -0.19722103 0.86245781 202 206 206
-0.47293770 -0.19722103 0.86245781 205 209 208
-0.47144702 -0.19722103 0.86245781 207 210 210
-0.46935919 -0.19697042 0.86136192 204 207 207
-0.46668440 -0.19647114 0.85917848 203 207 206
-0.46461052 -0.19622244 0.85809094 208 212 211
-0.46371436 -0.19647114 0.85917848 209 213 212
-0.46164423 -0.19622244 0.85809094 207 211 210
-0.11916152 -0.14169627 0.61964518 189 189 193
-0.11085384 -0.14066763 0.61514688 203 207 208
0.71153140 -0.33772489 1.47688854 105 103 108
0.71564323 -0.33846229 1.48011315 99 99 103
0.71507889 -0.33699071 1.47367787 98 98 102
0.71762604 -0.33699071 1.47367787 101 101 105
0.71861094 -0.33625969 1.47048128 99 99 104
0.72115254 -0.33625969 1.47048128 98 97 103
0.72212774 -0.33553186 1.46729839 100 96 104
0.88534325 -0.34992263 1.53022993 87 88 92
0.88598818 -0.34913450 1.52678347 88 88 93
0.89063305 -0.34992263 1.53022993 87 87 92
0.89126599 -0.34913450 1.52678347 88 87 91
0.88989639 -0.34756890 1.51993692 89 88 92
0.89452916 -0.34834993 1.52335250 86 86 88
0.90121251 -0.34992263 1.53022993 87 87 90
0.89979511 -0.34834993 1.52335250 89 89 91
0.90040475 -0.34756890 1.51993692 87 87 89
-0.47354019 -0.19597967 0.86355650 206 209 208
-0.47144702 -0.19573033 0.86245781 206 210 209
-0.46935919 -0.19548163 0.86136192 205 209 209
-0.46727663 -0.19523355 0.86026883 205 209 210
-0.46519938 -0.19498612 0.85917848 207 211 212
-0.11927054 -0.14075392 0.62021214 200 200 200
-0.11085384 -0.13960439 0.61514688 203 204 206
0.71153140 -0.33517221 1.47688854 98 99 103
0.71408409 -0.33517221 1.47688854 97 98 102
0.71507889 -0.33444357 1.47367787 99 99 103
0.71606934 -0.33371809 1.47048128 97 98 102
0.71550679 -0.33227655 1.46412921 97 97 102
0.71803743 -0.33227655 1.46412921 98 97 102
0.71746886 -0.33084741 1.45783186 101 96 104
0.88136417 -0.34571695 1.52335250 77 77 83
0.88201511 -0.34494179 1.51993692 80 78 85
0.88862711 -0.34649560 1.52678347 82 80 87
0.88926315 -0.34571695 1.52335250 88 86 93
0.88790560 -0.34417012 1.51653659 90 88 95
0.89252347 -0.34494179 1.51993692 89 88 92
0.89918280 -0.34649560 1.52678347 91 90 94
0.89777768 -0.34494179 1.51993692 94 94 97
0.89638507 -0.34340188 1.51315141 94 95 98
-0.46727663 -0.19374666 0.86026883 206 210 209
-0.11075334 -0.13841556 0.61458915 212 213 215
0.70642608 -0.33261952 1.47688854 102 101 108
0.71052670 -0.33334577 1.48011315 103 102 109
0.70998460 -0.33189645 1.47367787 96 96 100
0.71408409 -0.33261952 1.47688854 97 97 100
0.71352774 -0.33117649 1.47048128 98 98 101
0.71606934 -0.33117649 1.47048128 97 97 100
0.71550679 -0.32974592 1.46412921 97 97 101
0.71648991 -0.32903525 1.46097374 97 97 101
0.88862711 -0.34385666 1.52678347 80 79 83
0.88926315 -0.34308395 1.52335250 87 87 91
0.88790560 -0.34154892 1.51653659 86 86 91
0.89252347 -0.34231472 1.51993692 84 84 87
0.89918280 -0.34385666 1.52678347 90 90 92
0.89576918 -0.34154892 1.51653659 90 92 93
0.89438868 -0.34002754 1.50978136 87 91 92
0.89302039 -0.33851966 1.50308609 86 88 90
0.91650581 -0.34541258 1.53369200 83 83 85
-0.11065302 -0.13722888 0.61403245 215 216 216
0.70796847 -0.33078751 1.48011315 101 100 109
0.71208149 -0.33151135 1.48335195 102 101 109
0.71153140 -0.33006683 1.47688854 99 99 102
0.71564323 -0.33078751 1.48011315 98 98 101
0.71507889 -0.32934931 1.47367787 98 98 101
0.71762604 -0.32934931 1.47367787 97 97 101
0.71705550 -0.32792357 1.46729839 97 97 99
0.71648991 -0.32651010 1.46097374 98 96 99
0.88663018 -0.34045097 1.52335250 84 83 85
0.88926315 -0.34045097 1.52335250 83 82 87
0.88790560 -0.33892769 1.51653659 81 81 87
0.89252347 -0.33968762 1.51993692 80 80 83
0.89918280 -0.34121776 1.52678347 86 86 88
0.89576918 -0.33892769 1.51653659 82 84 86
0.89240116 -0.33666819 1.50642633 80 84 85
0.89104468 -0.33517849 1.49976075 82 84 86
0.90973848 -0.34121776 1.52678347 83 84 87
0.91443694 -0.34198800 1.53022993 83 84 87
0.91091311 -0.33968762 1.51993692 82 82 86
-0.11171433 -0.13616757 0.61403245 211 210 210
-0.11055288 -0.13604434 0.61347675 214 214 214
-0.10949254 -0.13604434 0.61347675 217 217 217
0.71364307 -0.32966885 1.48660493 99 99 103
0.71153140 -0.32751417 1.47688854 99 98 102
0.71564323 -0.32822925 1.48011315 99 98 102
0.71352774 -0.32609329 1.47048128 103 95 100
0.71606934 -0.32609329 1.47048128 103 94 99
0.71705550 -0.32538745 1.46729839 103 97 99
0.71648991 -0.32398492 1.46097374 100 95 97
0.71901512 -0.32398492 1.46097374 96 94 97
0.88334924 -0.33857882 1.52678347 82 82 84
0.88201511 -0.33706054 1.51993692 83 82 84
0.88862711 -0.33857882 1.52678347 84 83 84
0.89126599 -0.33857882 1.52678347 87 87 89
0.88989639 -0.33706054 1.51993692 86 86 89
0.89452916 -0.33781797 1.52335250 88 87 92
0.89918280 -0.33857882 1.52678347 92 91 97
0.89576918 -0.33630648 1.51653659 91 90 97
0.89438868 -0.33480847 1.50978136 88 87 94
0.91443694 -0.33934310 1.53022993 83 83 87
0.91296011 -0.33781797 1.52335250 82 82 86
-0.11181561 -0.13522875 0.61458915 206 205 204
-0.11075334 -0.13522875 0.61458915 205 205 203
0.71052670 -0.32567099 1.48011315 98 97 99
0.70998460 -0.32425505 1.47367787 98 97 99
0.71253175 -0.32425505 1.47367787 99 98 100
0.71198332 -0.32285133 1.46729839 101 97 100
0.71143961 -0.32145974 1.46097374 98 95 97
0.71242934 -0.32076842 1.45783186 96 96 96
0.71188724 -0.31939468 1.45158851 93 93 94
0.88136417 -0.33518499 1.52335250 83 83 83
0.88004196 -0.33368528 1.51653659 82 82 83
0.88464224 -0.33443344 1.51993692 83 83 84
0.88726932 -0.33443344 1.51993692 87 87 90
0.88592362 -0.33294043 1.51315141 88 88 92
0.89052677 -0.33368528 1.51653659 89 88 95
0.89515054 -0.33443344 1.51993692 85 84 91
0.88979739 -0.33146071 1.50642633 84 83 90
0.88845247 -0.32999408 1.49976075 88 87 94
0.91032708 -0.33518499 1.52335250 85 83 89
0.70285368 -0.31962341 1.46412921 97 96 98
0.70386404 -0.31893456 1.46097374 98 97 99
0.70791489 -0.31962341 1.46412921 99 97 100
0.70587188 -0.31756574 1.45470357 98 97 97
0.70535892 -0.31620863 1.44848680 92 91 91
0.70786250 -0.31620863 1.44848680 90 90 90
0.70734328 -0.31486306 1.44232309 92 92 93
0.88071030 -0.33330098 1.52678347 87 87 87
0.87938803 -0.33180636 1.51993692 83 83 83
0.88004196 -0.33106408 1.51653659 82 82 84
0.88464224 -0.33180636 1.51993692 86 86 88
0.88726932 -0.33180636 1.51993692 87 87 89
0.88592362 -0.33032510 1.51315141 88 88 90
0.88853902 -0.33032510 1.51315141 92 91 97
0.89314801 -0.33106408 1.51653659 85 84 91
0.88782448 -0.32812780 1.50308609 87 86 93
0.88649118 -0.32667911 1.49644995 86 85 93
0.91237736 -0.33330098 1.52678347 88 86 94
0.70235038 -0.31572893 1.45783186 99 96 99
0.70638925 -0.31640938 1.46097374 98 96 98
0.70436037 -0.31437677 1.45158851 94 94 94
0.70535892 -0.31370503 1.44848680 93 93 93
0.70635319 -0.31303614 1.44539833 93 93 95
0.70584148 -0.31170690 1.43926084 96 96 98
0.87873119 -0.32991901 1.52335250 84 84 86
0.87351239 -0.32697985 1.50978136 81 81 83
0.87612194 -0.32697985 1.50978136 81 81 83
0.88266313 -0.32844284 1.51653659 84 84 86
0.88330829 -0.32770973 1.51315141 84 84 86
0.88003057 -0.32552984 1.50308609 84 84 86
0.88067585 -0.32480964 1.49976075 84 83 90
0.88719368 -0.32625324 1.50642633 83 81 88
0.88390470 -0.32409263 1.49644995 83 82 90
0.88453859 -0.32337877 1.49315381 82 81 90
0.91032708 -0.32991901 1.52335250 84 83 91
0.70436037 -0.31186783 1.45158851 91 91 93
0.70535892 -0.31120145 1.44848680 93 93 95
0.70485032 -0.30987719 1.44232309 93 93 95
0.87612194 -0.32437032 1.50978136 85 84 88
0.88266313 -0.32582164 1.51653659 88 87 91
0.88330829 -0.32509437 1.51315141 88 87 90
0.87808359 -0.32221743 1.49976075 89 88 90
0.87873173 -0.32150611 1.49644995 87 86 90
0.88131821 -0.32150611 1.49644995 85 84 88
0.88001943 -0.32009292 1.48987222 83 83 87
0.88259453 -0.32009292 1.48987222 82 82 86
0.70436037 -0.30935887 1.45158851 91 91 93
0.70535892 -0.30869785 1.44848680 93 93 95
0.70485032 -0.30738425 1.44232309 94 94 96
0.87612194 -0.32176080 1.50978136 88 87 91
0.88266313 -0.32320043 1.51653659 88 87 91
0.88134098 -0.32176080 1.50978136 89 88 91
0.87614524 -0.31891963 1.49644995 90 90 92
0.87486917 -0.31751779 1.48987222 90 89 92
0.87937701 -0.31821716 1.49315381 87 87 89
0.87808955 -0.31682149 1.48660493 85 85 88
0.88065904 -0.31682149 1.48660493 84 84 88
0.87937158 -0.31543797 1.48011315 86 86 90
0.70084316 -0.30750841 1.45470357 90 90 92
0.70791489 -0.30950090 1.46412921 89 88 90
0.70587188 -0.30750841 1.45470357 92 91 92
0.70686930 -0.30684993 1.45158851 94 93 94
0.70635319 -0.30554140 1.44539833 93 93 94
0.70885146 -0.30554140 1.44539833 92 92 93
0.70983618 -0.30489132 1.44232309 90 89 91
0.72192305 -0.30684993 1.45158851 93 92 94
0.86647302 -0.31563637 1.49315381 88 88 91
0.87097228 -0.31633314 1.49644995 88 89 91
0.87163460 -0.31563637 1.49315381 89 89 91
0.86847657 -0.31356436 1.48335195 89 90 92
0.86724502 -0.31219807 1.47688854 87 88 90
0.87169683 -0.31287971 1.48011315 84 85 87
0.86856580 -0.31084362 1.47048128 87 88 91
0.87110740 -0.31084362 1.47048128 87 88 91
0.87175798 -0.31017080 1.46729839 87 87 91
0.69934243 -0.30434096 1.45158851 91 90 93
0.70638925 -0.30630869 1.46097374 91 90 94
0.70436037 -0.30434096 1.45158851 92 91 92
0.70535892 -0.30369067 1.44848680 92 91 93
0.70635319 -0.30304313 1.44539833 92 91 93
0.70885146 -0.30304313 1.44539833 90 89 91
0.70832908 -0.30175632 1.43926084 90 89 89
0.71232915 -0.30239835 1.44232309 90 89 90
0.71634620 -0.30304313 1.44539833 92 91 93
0.72038049 -0.30369067 1.44848680 93 92 95
0.71980792 -0.30239835 1.44232309 91 90 94
0.85822117 -0.31100050 1.48335195 88 89 90
0.86078501 -0.31100050 1.48335195 87 88 89
0.86524218 -0.31168252 1.48660493 89 90 90
0.86591274 -0.31100050 1.48335195 89 90 90
0.86469233 -0.30964538 1.47688854 88 89 89
0.85975266 -0.30697027 1.46412921 86 87 89
0.86228329 -0.30697027 1.46412921 88 89 91
0.86109430 -0.30564997 1.45783186 89 90 94
0.86361402 -0.30564997 1.45783186 89 90 94
0.86613375 -0.30564997 1.45783186 88 90 96
0.70285529 -0.30118707 1.44848680 92 91 91
0.70535892 -0.30118707 1.44848680 92 91 91
0.70635319 -0.30054489 1.44539833 91 90 90
0.70734328 -0.29990542 1.44232309 91 90 90
0.70682842 -0.29863465 1.43621159 91 90 90
0.71482205 -0.29990542 1.44232309 91 91 91
0.71884447 -0.30054489 1.44539833 87 87 89
0.71827972 -0.29926869 1.43926084 85 85 88
0.85634732 -0.30776322 1.48011315 86 86 87
0.85890555 -0.30776322 1.48011315 87 88 89
0.86334884 -0.30843666 1.48335195 90 90 92
0.86402208 -0.30776322 1.48011315 90 90 92
0.86094099 -0.30576041 1.47048128 89 89 91
0.85238862 -0.30183202 1.45158851 87 88 91
0.85673207 -0.30247971 1.45470357 89 90 93
0.85557443 -0.30118707 1.44848680 89 90 94
0.85624844 -0.30054489 1.44539833 89 90 94
0.86242443 -0.30183202 1.45158851 87 90 96
0.70135671 -0.29804662 1.44539833 90 90 90
0.70385492 -0.29804662 1.44539833 91 91 91
0.70635319 -0.29804662 1.44539833 92 92 92
0.70734328 -0.29741248 1.44232309 92 92 92
0.70682842 -0.29615226 1.43621159 91 90 90
0.71482205 -0.29741248 1.44232309 89 89 89
0.71731502 -0.29741248 1.44232309 90 90 90
0.71827972 -0.29678103 1.43926084 89 89 89
0.85146916 -0.30256248 1.46729839 88 88 90
0.86213970 -0.30454001 1.47688854 89 90 93
0.85537457 -0.30125833 1.46097374 90 90 93
0.84694779 -0.29741248 1.44232309 90 91 95
0.84944075 -0.29741248 1.44232309 90 90 94
0.85012490 -0.29678103 1.43926084 88 89 93
0.85261256 -0.29678103 1.43926084 89 90 94
0.70135671 -0.29554838 1.44539833 91 89 91
0.70535892 -0.29617989 1.44848680 92 90 91
0.70635319 -0.29554838 1.44539833 88 88 88
0.70734328 -0.29491955 1.44232309 88 88 88
0.70832908 -0.29429340 1.43926084 88 88 88
0.71081674 -0.29429340 1.43926084 89 89 89
0.71482205 -0.29491955 1.44232309 89 89 89
0.71731502 -0.29491955 1.44232309 90 89 89
0.71675789 -0.29366988 1.43621159 90 89 89
0.85170341 -0.29745105 1.45470357 91 89 93
0.84335905 -0.29366988 1.43621159 89 89 93
0.70638925 -0.29620799 1.46097374 92 86 88
0.70285529 -0.29367629 1.44848680 88 86 85
0.70535892 -0.29367629 1.44848680 90 89 88
0.70635319 -0.29305011 1.44539833 88 88 88
0.70885146 -0.29305011 1.44539833 88 88 88
0.70832908 -0.29180574 1.43926084 90 90 89
0.71081674 -0.29180574 1.43926084 90 90 90
0.71482205 -0.29242662 1.44232309 89 89 89
0.71731502 -0.29242662 1.44232309 88 88 88
0.71675789 -0.29118752 1.43621159 85 85 85
0.70791489 -0.29431713 1.46412921 93 87 89
0.70436037 -0.29179621 1.45158851 89 88 84
0.70686930 -0.29179621 1.45158851 92 90 86
0.70786250 -0.29117271 1.44848680 94 90 87
0.70885146 -0.29055187 1.44539833 92 90 86
0.70832908 -0.28931811 1.43926084 91 91 86
0.71081674 -0.28931811 1.43926084 89 89 87
0.71482205 -0.28993368 1.44232309 86 86 86
0.71579206 -0.28931811 1.43926084 83 83 83
0.71675789 -0.28870514 1.43621159 83 83 83
0.70635319 -0.28805360 1.44539833 91 87 83
0.70734328 -0.28744075 1.44232309 88 85 80
0.70682842 -0.28622276 1.43621159 87 85 79
0.70931077 -0.28622276 1.43621159 86 84 81
0.71330440 -0.28683046 1.43926084 85 83 83
0.71427554 -0.28622276 1.43621159 84 82 82
1.06747901 -0.22964315 1.81254506 51 50 57
1.03785217 -0.22895907 1.83214009 48 48 52
1.03821290 -0.22834194 1.82720172 49 48 52
1.06719971 -0.22711758 1.81740439 50 49 56
1.06747901 -0.22651032 1.81254506 50 49 56
1.04314339 -0.22763808 1.84711671 47 47 51
1.03785217 -0.22579236 1.83214009 46 46 50
1.04101884 -0.22579236 1.83214009 46 46 50
1.05272114 -0.22763808 1.84711671 46 46 51
1.05304444 -0.22701950 1.84209740 46 46 51
1.05336595 -0.22640426 1.83710527 46 46 51
1.05463469 -0.22397634 1.81740439 46 46 53
1.06061947 -0.22457843 1.82228994 48 47 54
1.07006848 -0.22457843 1.82228994 48 47 54
1.07034087 -0.22397634 1.81740439 48 47 53
1.03189659 -0.22202559 1.82720172 44 43 51
1.02950478 -0.22083510 1.81740439 43 43 49
1.05336595 -0.22322898 1.83710527 44 45 49
1.04802072 -0.22142875 1.82228994 45 46 49
1.05432010 -0.22142875 1.82228994 44 45 49
1.05463469 -0.22083510 1.81740439 44 44 51
1.06347823 -0.22202559 1.82720172 45 45 51
1.07533181 -0.22383559 1.84209740 45 46 52
1.07585263 -0.22262566 1.83214009 47 46 53
1.07321811 -0.22142875 1.82228994 47 46 52
1.02361929 -0.21711180 1.81254506 44 44 47
1.02401412 -0.21653284 1.80771160 43 44 46
1.02988493 -0.21711180 1.81254506 43 43 45
1.05336595 -0.22005369 1.83710527 44 44 46
1.04802072 -0.21827906 1.82228994 45 45 47
1.05716193 -0.21886742 1.82720172 43 44 47
1.06032002 -0.21886742 1.82720172 43 44 48
1.07214797 -0.22065167 1.84209740 43 44 48
1.08120799 -0.22185741 1.85216355 44 45 49
1.07876825 -0.22005369 1.83710527 45 45 52
1.07611096 -0.21886742 1.82720172 45 45 50
1.01817453 -0.21284078 1.80290389 43 43 46
1.02129066 -0.21284078 1.80290389 43 44 46
1.02988493 -0.21397896 1.81254506 41 42 44
1.03857172 -0.21512939 1.82228994 40 41 43
1.04452920 -0.21570925 1.82720172 42 42 44
1.05051899 -0.21629225 1.83214009 43 43 45
1.04802072 -0.21512939 1.82228994 42 43 44
1.05400372 -0.21570925 1.82720172 42 43 44
1.06001914 -0.21629225 1.83214009 43 43 46
1.06318581 -0.21629225 1.83214009 44 44 48
1.07214797 -0.21746776 1.84209740 44 44 48
1.08120799 -0.21865609 1.85216355 44 44 48
1.08145452 -0.21806030 1.84711671 43 43 47
1.07585263 -0.21629225 1.83214009 42 43 47
1.01236594 -0.20916830 1.79812157 40 39 45
1.01547384 -0.20916830 1.79812157 39 38 43
1.02129066 -0.20972461 1.80290389 37 37 41
1.02713859 -0.21028388 1.80771160 37 37 41
1.03578734 -0.21141140 1.81740439 38 38 42
1.04172134 -0.21197970 1.82228994 39 40 44
1.05051899 -0.21312554 1.83214009 40 41 45
1.05084562 -0.21255109 1.82720172 40 41 45
1.05685234 -0.21312554 1.83214009 42 42 46
1.06578004 -0.21428384 1.84209740 43 43 47
1.06606710 -0.21370311 1.83710527 44 44 48
1.07214797 -0.21428384 1.84209740 43 43 47
1.08120799 -0.21545479 1.85216355 42 42 46
1.08145452 -0.21486771 1.84711671 41 41 45
1.07585263 -0.21312554 1.83214009 40 40 45
1.07321811 -0.21197970 1.82228994 40 40 46
1.00615001 -0.20606039 1.79812157 39 38 43
1.00925803 -0.20606039 1.79812157 38 38 43
1.01236594 -0.20606039 1.79812157 37 37 41
1.01817453 -0.20660843 1.80290389 36 36 40
1.02129066 -0.20660843 1.80290389 36 36 40
1.03264606 -0.20827016 1.81740439 36 36 41
1.03857172 -0.20883003 1.82228994 37 36 41
1.04735231 -0.20995884 1.83214009 38 38 44
1.05910635 -0.21167512 1.84711671 39 38 46
1.05654120 -0.21052784 1.83710527 39 39 47
1.06549156 -0.21167512 1.84711671 40 40 48
1.07160401 -0.21225347 1.85216355 40 40 49
1.07187665 -0.21167512 1.84711671 39 39 48
1.07800663 -0.21225347 1.85216355 38 38 47
1.08417022 -0.21283498 1.85723794 39 39 47
1.08440924 -0.21225347 1.85216355 39 39 47
1.07876825 -0.21052784 1.83710527 38 38 45
1.07321811 -0.20883003 1.82228994 38 38 45
1.01236594 -0.20295249 1.79812157 37 37 41
1.01547384 -0.20295249 1.79812157 36 36 41
1.02129066 -0.20349225 1.80290389 36 35 41
1.03264606 -0.20512892 1.81740439 36 35 41
1.03857172 -0.20568034 1.82228994 36 35 42
1.04735231 -0.20679213 1.83214009 37 36 44
1.06200004 -0.20905216 1.85216355 38 37 46
1.06520140 -0.20905216 1.85216355 38 37 46
1.07132983 -0.20962490 1.85723794 39 38 47
1.07453990 -0.20962490 1.85723794 38 37 46
1.07480538 -0.20905216 1.85216355 37 37 46
1.08096004 -0.20962490 1.85723794 38 37 46
1.09014356 -0.21077986 1.86747062 38 37 46
1.08440924 -0.20905216 1.85216355 38 37 46
1.07295275 -0.20623474 1.82720172 38 37 44
1.00968766 -0.19931589 1.79336464 37 37 41
1.01278734 -0.19931589 1.79336464 36 36 41
1.02129066 -0.20037608 1.80290389 35 34 40
1.03821290 -0.20307657 1.82720172 34 33 41
1.04418552 -0.20362543 1.83214009 34 33 42
1.05304444 -0.20473209 1.84209740 35 34 43
1.06783521 -0.20698188 1.86234021 37 36 44
1.07105410 -0.20698188 1.86234021 37 35 44
1.08020830 -0.20812543 1.87262940 35 34 43
1.07749200 -0.20698188 1.86234021 35 34 43
1.08071089 -0.20698188 1.86234021 36 35 44
1.09293747 -0.20870195 1.87781680 37 36 45
1.09618318 -0.20870195 1.87781680 36 35 44
1.01236594 -0.19673668 1.79812157 37 36 42
1.01547384 -0.19673668 1.79812157 36 34 41
1.02950478 -0.19884644 1.81740439 35 33 40
1.05239618 -0.20264952 1.85216355 34 32 39
1.05559742 -0.20264952 1.85216355 33 32 38
1.06169951 -0.20320474 1.85723794 33 32 38
1.07373488 -0.20488875 1.87262940 34 32 38
1.07697153 -0.20488875 1.87262940 34 33 39
1.08320057 -0.20545630 1.87781680 34 33 38
1.08046019 -0.20432432 1.86747062 35 33 39
1.08668160 -0.20488875 1.87262940 35 33 40
1.09597337 -0.20602702 1.88303292 34 32 39
1.09922814 -0.20602702 1.88303292 34 32 39
1.01776516 -0.19466145 1.80771160 33 33 37
1.02088964 -0.19466145 1.80771160 34 33 37
1.05817854 -0.20054407 1.86234021 33 32 37
1.05848944 -0.19999464 1.85723794 33 32 37
1.06169951 -0.19999464 1.85723794 33 32 37
1.07670915 -0.20221065 1.87781680 33 32 37
1.07697153 -0.20165206 1.87262940 33 32 37
1.08320057 -0.20221065 1.87781680 33 33 37
1.08046019 -0.20109655 1.86747062 33 33 38
1.08668160 -0.20165206 1.87262940 34 33 40
1.08991826 -0.20165206 1.87262940 33 32 39
1.09315503 -0.20165206 1.87262940 32 31 38
1.02322233 -0.19256398 1.81740439 33 32 37
1.02361929 -0.19204910 1.81254506 33 32 38
1.05848944 -0.19678456 1.85723794 32 30 39
1.07697153 -0.19841537 1.87262940 31 30 39
1.08320057 -0.19896500 1.87781680 32 31 38
1.08046019 -0.19786876 1.86747062 31 30 38
1.08368802 -0.19786876 1.86747062 31 30 37
1.08691573 -0.19786876 1.86747062 31 30 37
1.08046019 -0.19464099 1.86747062 29 27 36
1.08368802 -0.19464099 1.86747062 28 27 35
1.08644617 -0.19247369 1.87781680 27 25 33
-0.02509695 -0.13929516 1.99968100 192 190 191
-0.02502314 -0.13543935 1.99379957 181 175 175
-0.02157702 -0.13543935 1.99379957 177 174 176
-0.02502314 -0.13199323 1.99379957 185 184 181
-0.02157702 -0.13199323 1.99379957 180 179 178
-0.02509695 -0.12892631 1.99968100 197 194 191
-0.02164067 -0.12892631 1.99968100 192 190 189
-0.02509695 -0.12547001 1.99968100 196 190 190
-0.10402738 -0.03017340 0.50892782 196 196 199
-0.10658628 -0.02927179 0.50854599 202 202 204
-0.10498584 -0.02931577 0.50931019 206 206 208
-0.10402738 -0.02929376 0.50892782 209 209 211
-0.10314774 -0.02929376 0.50892782 209 209 211
-0.10035813 -0.02924984 0.50816482 213 213 213
-0.09852763 -0.02922793 0.50778413 210 210 210
-0.10762674 -0.02843547 0.50931019 199 199 199
-0.10666630 -0.02841412 0.50892782 207 207 207
-0.10570730 -0.02839281 0.50854599 210 210 209
-0.10498584 -0.02843547 0.50931019 211 211 210
-0.10402738 -0.02841412 0.50892782 202 202 202
-0.10322524 -0.02843547 0.50931019 204 205 207
-0.10226810 -0.02841412 0.50892782 201 202 204
-0.10131240 -0.02839281 0.50854599 204 205 206
-0.10043342 -0.02839281 0.50854599 211 211 211
-0.09955443 -0.02839281 0.50854599 206 206 206
-0.09860149 -0.02837152 0.50816482 206 206 206
-0.09764996 -0.02835027 0.50778413 211 212 211
-0.09684484 -0.02837152 0.50816482 206 207 207
-0.09589463 -0.02835027 0.50778413 193 194 195
-0.09508820 -0.02837152 0.50816482 196 196 198
-0.09413931 -0.02835027 0.50778413 204 204 205
-0.09333156 -0.02837152 0.50816482 205 204 205
-0.09252259 -0.02839281 0.50854599 208 207 209
-0.10674644 -0.02755517 0.50931019 205 204 204
-0.10506478 -0.02757589 0.50969309 197 197 197
-0.10410554 -0.02755517 0.50931019 194 194 195
-0.10322524 -0.02755517 0.50931019 195 194 196
-0.10234494 -0.02755517 0.50931019 195 195 195
-0.10043342 -0.02751382 0.50854599 208 207 207
-0.09955443 -0.02751382 0.50854599 209 208 208
-0.09860149 -0.02749320 0.50816482 208 207 206
-0.09764996 -0.02747260 0.50778413 216 215 213
-0.09684484 -0.02749320 0.50816482 214 214 213
-0.09589463 -0.02747260 0.50778413 201 201 200
-0.09501697 -0.02747260 0.50778413 203 203 202
-0.09413931 -0.02747260 0.50778413 204 204 204
-0.09326164 -0.02747260 0.50778413 202 201 202
-0.09245323 -0.02749320 0.50816482 202 201 201
-0.10682670 -0.02669492 0.50969309 202 201 201
-0.10514383 -0.02671501 0.51007664 205 204 205
-0.10418382 -0.02669492 0.50969309 199 198 200
-0.10330285 -0.02669492 0.50969309 202 202 204
-0.10234494 -0.02667486 0.50931019 202 202 203
-0.10131240 -0.02663484 0.50854599 202 202 202
-0.10043342 -0.02663484 0.50854599 207 207 207
-0.09955443 -0.02663484 0.50854599 207 207 207
-0.09860149 -0.02661488 0.50816482 208 208 207
-0.09764996 -0.02659494 0.50778413 211 210 208
-0.09684484 -0.02661488 0.50816482 207 206 206
-0.09589463 -0.02659494 0.50778413 196 196 196
-0.09501697 -0.02659494 0.50778413 201 201 199
-0.09413931 -0.02659494 0.50778413 201 201 201
-0.09333156 -0.02661488 0.50816482 201 200 200
-0.09245323 -0.02661488 0.50816482 199 198 198
-0.10795116 -0.02587232 0.51084542 210 210 210
-0.10690708 -0.02583338 0.51007664 205 205 205
-0.10522301 -0.02585283 0.51046073 210 209 210
-0.10434072 -0.02585283 0.51046073 204 203 205
-0.10345843 -0.02585283 0.51046073 201 201 203
-0.10242189 -0.02581396 0.50969309 211 211 213
-0.10138846 -0.02577520 0.50892782 211 211 212
-0.10050882 -0.02577520 0.50892782 211 210 210
-0.09962918 -0.02577520 0.50892782 217 216 216
-0.09867546 -0.02575586 0.50854599 211 209 209
-0.09772316 -0.02573656 0.50816482 210 208 208
-0.09684484 -0.02573656 0.50816482 198 195 196
-0.09596653 -0.02573656 0.50816482 199 196 197
-0.09508820 -0.02573656 0.50816482 203 200 200
-0.09420988 -0.02573656 0.50816482 206 201 202
-0.09333156 -0.02573656 0.50816482 198 194 195
-0.09245323 -0.02573656 0.50816482 203 199 200
-0.10530230 -0.02498936 0.51084542 201 200 202
-0.10441934 -0.02498936 0.51084542 201 200 202
-0.10353639 -0.02498936 0.51084542 207 206 207
-0.10058434 -0.02491426 0.50931019 221 220 220
-0.09970403 -0.02491426 0.50931019 220 219 219
-0.09874954 -0.02489556 0.50892782 213 212 212
-0.09779648 -0.02487688 0.50854599 208 207 207
-0.09691750 -0.02487688 0.50854599 197 194 195
-0.09596653 -0.02485823 0.50816482 199 195 196
-0.09508820 -0.02485823 0.50816482 202 198 199
-0.09420988 -0.02485823 0.50816482 208 202 202
-0.09333156 -0.02485823 0.50816482 205 200 200
-0.09252259 -0.02487688 0.50854599 205 202 201
-0.10441934 -0.02410641 0.51084542 182 181 185
-0.10353639 -0.02410641 0.51084542 206 206 208
-0.10154092 -0.02405203 0.50969309 222 222 222
-0.10065996 -0.02405203 0.50969309 211 211 211
-0.09970403 -0.02403396 0.50931019 212 212 212
-0.09882373 -0.02403396 0.50931019 214 214 213
-0.09786990 -0.02401592 0.50892782 214 213 212
-0.09691750 -0.02399790 0.50854599 201 199 198
-0.09603851 -0.02399790 0.50854599 197 194 193
-0.09515954 -0.02399790 0.50854599 204 200 200
-0.09428056 -0.02399790 0.50854599 205 202 201
-0.09340157 -0.02399790 0.50854599 205 203 201
-0.09252259 -0.02399790 0.50854599 210 209 207
-0.09171242 -0.02401592 0.50892782 206 206 205
-0.09090102 -0.02403396 0.50931019 195 195 195
-0.10353639 -0.02322345 0.51084542 199 199 200
-0.10257614 -0.02320597 0.51046073 217 217 218
-0.10154092 -0.02317107 0.50969309 208 208 208
-0.10058434 -0.02315366 0.50931019 209 209 209
-0.09970403 -0.02315366 0.50931019 211 210 209
-0.09874954 -0.02313628 0.50892782 214 213 210
-0.09779648 -0.02311892 0.50854599 216 215 211
-0.09691750 -0.02311892 0.50854599 215 214 210
-0.09596653 -0.02310159 0.50816482 205 204 200
-0.09515954 -0.02311892 0.50854599 211 210 206
-0.09428056 -0.02311892 0.50854599 212 211 207
-0.09333156 -0.02310159 0.50816482 210 209 205
-0.09252259 -0.02311892 0.50854599 213 212 210
-0.09171242 -0.02313628 0.50892782 213 212 212
-0.09083277 -0.02313628 0.50892782 205 204 205
-0.10353639 -0.02234050 0.51084542 203 203 203
-0.10249896 -0.02230688 0.51007664 210 210 210
-0.10146464 -0.02227336 0.50931019 205 205 205
-0.10058434 -0.02227336 0.50931019 210 210 208
-0.09962918 -0.02225664 0.50892782 215 213 210
-0.09874954 -0.02225664 0.50892782 210 206 204
-0.09772316 -0.02222327 0.50816482 203 202 198
-0.09684484 -0.02222327 0.50816482 201 200 197
-0.09589463 -0.02220662 0.50778413 201 200 197
-0.09508820 -0.02222327 0.50816482 208 207 203
-0.09413931 -0.02220662 0.50778413 209 208 204
-0.09326164 -0.02220662 0.50778413 210 209 205
-0.09245323 -0.02222327 0.50816482 204 203 202
-0.10154092 -0.02140914 0.50969309 197 197 197
-0.10065996 -0.02140914 0.50969309 197 196 196
-0.09970403 -0.02139306 0.50931019 207 205 205
-0.09874954 -0.02137700 0.50892782 210 208 207
-0.09772316 -0.02134495 0.50816482 210 208 206
-0.09684484 -0.02134495 0.50816482 203 201 199
-0.09589463 -0.02132896 0.50778413 196 195 193
-0.09508820 -0.02134495 0.50816482 209 208 204
-0.09420988 -0.02134495 0.50816482 211 210 206
-0.09326164 -0.02132896 0.50778413 209 208 204
-0.09245323 -0.02134495 0.50816482 210 209 208
-0.10161733 -0.02054363 0.51007664 205 205 205
-0.10065996 -0.02052818 0.50969309 200 200 200
-0.09882373 -0.02051276 0.50931019 203 202 202
-0.09779648 -0.02048198 0.50854599 212 211 209
-0.09691750 -0.02048198 0.50854599 213 212 210
-0.09596653 -0.02046663 0.50816482 199 198 196
-0.09508820 -0.02046663 0.50816482 204 203 201
-0.09420988 -0.02046663 0.50816482 207 205 203
-0.09333156 -0.02046663 0.50816482 210 208 206
-0.09245323 -0.02046663 0.50816482 220 220 218
-0.10161733 -0.01966200 0.51007664 198 198 198
-0.10065996 -0.01964722 0.50969309 200 200 200
-0.09882373 -0.01963245 0.50931019 195 195 195
-0.09691750 -0.01960300 0.50854599 206 202 203
-0.09508820 -0.01958830 0.50816482 207 204 205
-0.01500347 -0.01677727 0.50288713 199 199 200
-0.01411333 -0.01675241 0.50214213 212 211 213
-0.01323562 -0.01674001 0.50177044 209 209 211
-0.01586090 -0.01589627 0.50251436 194 194 196
-0.01499235 -0.01589627 0.50251436 198 198 200
-0.01412379 -0.01589627 0.50251436 212 212 214
-0.01324542 -0.01588450 0.50214213 209 209 211
-0.01237751 -0.01588450 0.50214213 188 187 193
-0.01672946 -0.01502772 0.50251436 190 188 191
-0.01586090 -0.01502772 0.50251436 188 188 190
-0.01500347 -0.01503887 0.50288713 198 198 199
-0.01413427 -0.01503887 0.50288713 204 204 204
-0.01325524 -0.01502772 0.50251436 203 203 204
-0.01238668 -0.01502772 0.50251436 197 197 200
-0.13839586 -0.01462535 0.51905960 203 203 207
-0.01587267 -0.01416967 0.50288713 189 185 186
-0.01500347 -0.01416967 0.50288713 204 198 198
-0.01413427 -0.01416967 0.50288713 201 196 196
-0.01325524 -0.01415916 0.50251436 206 200 200
-0.01238668 -0.01415916 0.50251436 201 201 201
-0.13818425 -0.01370721 0.51826596 203 203 205
-0.13728847 -0.01370721 0.51826596 204 204 206
-0.13570440 -0.01372820 0.51905960 201 200 201
-0.01672946 -0.01329061 0.50251436 196 196 198
-0.01586090 -0.01329061 0.50251436 193 193 193
-0.01501461 -0.01331034 0.50326043 206 204 204
-0.01413427 -0.01330047 0.50288713 204 202 202
-0.01326507 -0.01330047 0.50288713 209 207 207
-0.01238668 -0.01329061 0.50251436 204 204 206
-0.13818425 -0.01281143 0.51826596 196 197 197
-0.13728847 -0.01281143 0.51826596 196 196 196
-0.13649704 -0.01282123 0.51866245 202 202 202
-0.13570440 -0.01283105 0.51905960 205 205 205
-0.01675430 -0.01244050 0.50326043 200 200 202
-0.01587267 -0.01243127 0.50288713 197 197 197
-0.01502576 -0.01244974 0.50363433 202 202 202
-0.01415527 -0.01244974 0.50363433 200 200 200
-0.01327492 -0.01244050 0.50326043 204 204 204
-0.01240507 -0.01244050 0.50326043 208 208 210
-0.01067331 -0.01244974 0.50363433 201 201 203
-0.00982471 -0.01247755 0.50475937 201 202 202
-0.00895228 -0.01247755 0.50475937 205 205 203
-0.00808586 -0.01248685 0.50513548 196 195 193
-0.13828997 -0.01192477 0.51866245 207 207 207
-0.13739350 -0.01192477 0.51866245 201 201 201
-0.01763724 -0.01157925 0.50363433 206 206 206
-0.01676675 -0.01157925 0.50363433 203 203 203
-0.01589626 -0.01157925 0.50363433 197 197 197
-0.01503694 -0.01158786 0.50400883 201 201 201
-0.01417634 -0.01159648 0.50438380 198 198 198
-0.01329466 -0.01158786 0.50400883 202 202 202
-0.01241429 -0.01157925 0.50363433 206 206 207
-0.01155238 -0.01158786 0.50400883 205 205 206
-0.01068919 -0.01159648 0.50438380 201 201 201
-0.00983204 -0.01161376 0.50513548 199 199 197
-0.00895895 -0.01161376 0.50513548 202 202 200
-0.00809189 -0.01162242 0.50551218 192 191 189
-0.00722894 -0.01163978 0.50626725 180 179 177
-0.13818425 -0.01101987 0.51826596 204 203 205
-0.13728847 -0.01101987 0.51826596 203 202 202
-0.13570440 -0.01103674 0.51905960 207 205 205
-0.13460112 -0.01101987 0.51826596 205 201 202
-0.13370535 -0.01101987 0.51826596 208 205 206
-0.01677921 -0.01071672 0.50400883 199 196 197
-0.01590807 -0.01071672 0.50400883 190 190 190
-0.01505933 -0.01073268 0.50475937 195 195 195
-0.01418689 -0.01073268 0.50475937 199 199 199
-0.01329466 -0.01071672 0.50400883 205 205 205
-0.01242352 -0.01071672 0.50400883 202 202 202
-0.00983937 -0.01074869 0.50551218 200 200 200
-0.00896563 -0.01074869 0.50551218 201 201 200
-0.00809793 -0.01075671 0.50588942 185 185 183
-0.13818425 -0.01012409 0.51826596 203 202 205
-0.13728847 -0.01012409 0.51826596 207 206 206
-0.13560057 -0.01013183 0.51866245 210 210 210
-0.13460112 -0.01012409 0.51826596 208 206 206
-0.13370535 -0.01012409 0.51826596 202 200 201
-0.01679170 -0.00985291 0.50438380 188 184 185
-0.01593176 -0.00986024 0.50475937 189 185 186
-0.01505933 -0.00986024 0.50475937 198 195 195
-0.01418689 -0.00986024 0.50475937 199 197 195
-0.01330455 -0.00985291 0.50438380 198 196 194
-0.01243276 -0.00985291 0.50438380 184 183 183
-0.00984671 -0.00988232 0.50588942 198 197 197
-0.00897232 -0.00988232 0.50588942 194 193 192
-0.00809793 -0.00988232 0.50588942 180 180 178
-0.13807867 -0.00922126 0.51787001 204 204 205
-0.13718358 -0.00922126 0.51787001 201 200 200
-0.13560057 -0.00923537 0.51866245 203 201 201
-0.13449830 -0.00922126 0.51787001 205 200 202
-0.13360320 -0.00922126 0.51787001 206 202 203
-0.13280956 -0.00922831 0.51826596 203 199 200
-0.04243303 -0.00924952 0.51945734 207 207 211
-0.04153519 -0.00924952 0.51945734 192 193 194
-0.04060624 -0.00924244 0.51905960 195 196 196
-0.03967870 -0.00923537 0.51866245 194 194 194
-0.03872298 -0.00922126 0.51787001 193 194 194
-0.03777018 -0.00920719 0.51707995 209 210 211
-0.03690460 -0.00921422 0.51747471 205 207 208
-0.03595529 -0.00920017 0.51668584 200 202 204
-0.03508899 -0.00920719 0.51707995 195 196 200
-0.01766348 -0.00898112 0.50438380 184 178 182
-0.01679170 -0.00898112 0.50438380 187 182 184
-0.01593176 -0.00898781 0.50475937 194 188 188
-0.01507055 -0.00899450 0.50513548 197 192 189
-0.01419746 -0.00899450 0.50513548 194 189 184
-0.01331446 -0.00898781 0.50475937 189 184 179
-0.01244202 -0.00898781 0.50475937 175 173 173
-0.01157821 -0.00899450 0.50513548 183 182 184
-0.00985406 -0.00901466 0.50626725 181 180 180
-0.00897232 -0.00900793 0.50588942 188 187 188
-0.00809793 -0.00900793 0.50588942 186 186 186
-0.13897377 -0.00832616 0.51787001 203 203 201
-0.13797328 -0.00831980 0.51747471 203 203 202
-0.13707887 -0.00831980 0.51747471 199 198 198
-0.13628849 -0.00832616 0.51787001 187 180 182
-0.13549690 -0.00833253 0.51826596 185 176 179
-0.13439563 -0.00831980 0.51747471 193 184 187
-0.13350122 -0.00831980 0.51747471 199 192 194
-0.13270810 -0.00832616 0.51787001 203 196 198
-0.13191378 -0.00833253 0.51826596 200 196 196
-0.13121864 -0.00834529 0.51905960 205 203 203
-0.13022177 -0.00833890 0.51866245 212 211 210
-0.04240054 -0.00834529 0.51905960 211 212 213
-0.04150339 -0.00834529 0.51905960 206 207 207
-0.04054415 -0.00833253 0.51826596 205 205 205
-0.03961808 -0.00832616 0.51787001 198 198 198
-0.03866391 -0.00831346 0.51707995 195 195 195
-0.03768395 -0.00829448 0.51589942 208 209 209
-0.03684834 -0.00830712 0.51668584 211 212 212
-0.03590057 -0.00829448 0.51589942 203 204 206
-0.03500887 -0.00829448 0.51589942 200 201 203
-0.01850773 -0.00809728 0.50363433 204 202 203
-0.01766348 -0.00810933 0.50438380 188 187 187
-0.01677921 -0.00810330 0.50400883 195 193 194
-0.01591991 -0.00810933 0.50438380 204 199 199
-0.01505933 -0.00811537 0.50475937 203 196 196
-0.01419746 -0.00812142 0.50513548 198 189 189
-0.01331446 -0.00811537 0.50475937 195 187 188
-0.01243276 -0.00810933 0.50438380 190 187 185
-0.01157821 -0.00812142 0.50513548 196 195 193
-0.01071310 -0.00812747 0.50551218 194 193 194
-0.00985406 -0.00813961 0.50626725 177 176 178
-0.00896563 -0.00812747 0.50551218 186 185 187
-0.00809189 -0.00812747 0.50551218 189 188 190
-0.13886769 -0.00742539 0.51747471 200 198 196
-0.13786803 -0.00741973 0.51707995 207 204 203
-0.13697430 -0.00741973 0.51707995 208 199 202
-0.13618445 -0.00742539 0.51747471 185 171 175
-0.13539340 -0.00743106 0.51787001 182 166 171
-0.13429311 -0.00741973 0.51707995 196 178 184
-0.13339938 -0.00741973 0.51707995 209 193 197
-0.13260680 -0.00742539 0.51747471 209 194 197
-0.13191378 -0.00743674 0.51826596 205 193 195
-0.13111824 -0.00744243 0.51866245 209 197 199
-0.13022177 -0.00744243 0.51866245 219 207 208
-0.12922643 -0.00743674 0.51826596 210 205 206
-0.12833066 -0.00743674 0.51826596 208 199 202
-0.04240054 -0.00744813 0.51905960 207 207 207
-0.04147164 -0.00744243 0.51866245 208 208 207
-0.04054415 -0.00743674 0.51826596 209 210 208
-0.03961808 -0.00743106 0.51787001 202 202 200
-0.03863444 -0.00741407 0.51668584 202 202 202
-0.03768395 -0.00740279 0.51589942 204 204 204
-0.03684834 -0.00741407 0.51668584 208 208 208
-0.03592791 -0.00740843 0.51629233 205 205 205
-0.03506224 -0.00741407 0.51668584 202 202 203
-0.01766348 -0.00723755 0.50438380 202 201 201
-0.01677921 -0.00723217 0.50400883 207 206 206
-0.01590807 -0.00723217 0.50400883 206 205 205
-0.01504812 -0.00723755 0.50438380 204 202 202
-0.01418689 -0.00724294 0.50475937 195 193 193
-0.01330455 -0.00723755 0.50438380 194 192 190
-0.01243276 -0.00723755 0.50438380 195 193 191
-0.01156959 -0.00724294 0.50475937 203 202 200
-0.01070512 -0.00724833 0.50513548 198 198 196
-0.00984671 -0.00725915 0.50588942 177 177 180
-0.00895895 -0.00724833 0.50513548 184 184 188
-0.13886769 -0.00653098 0.51747471 211 202 203
-0.13786803 -0.00652600 0.51707995 216 207 208
-0.13686991 -0.00652102 0.51668584 210 201 203
-0.13618445 -0.00653098 0.51747471 195 177 181
-0.13539340 -0.00653597 0.51787001 193 171 176
-0.13429311 -0.00652600 0.51707995 200 175 179
-0.13339938 -0.00652600 0.51707995 213 189 193
-0.13250566 -0.00652600 0.51707995 217 194 198
-0.13181300 -0.00653597 0.51787001 216 192 198
-0.13101800 -0.00654096 0.51826596 205 182 188
-0.13012221 -0.00654096 0.51826596 204 182 188
-0.12912771 -0.00653597 0.51787001 212 181 191
-0.12823261 -0.00653597 0.51787001 215 184 194
-0.12733753 -0.00653597 0.51787001 215 185 194
-0.12644243 -0.00653597 0.51787001 220 187 198
-0.12465224 -0.00653597 0.51787001 218 179 194
-0.12375714 -0.00653597 0.51787001 223 179 196
-0.04240054 -0.00655098 0.51905960 195 195 195
-0.04147164 -0.00654597 0.51866245 197 197 197
-0.04054415 -0.00654096 0.51826596 208 208 207
-0.03961808 -0.00653597 0.51787001 209 209 208
-0.03866391 -0.00652600 0.51707995 206 206 206
-0.03771264 -0.00651606 0.51629233 205 205 205
-0.03690460 -0.00653098 0.51747471 205 205 205
-0.03601018 -0.00653098 0.51747471 206 205 205
-0.03511577 -0.00653098 0.51747471 197 196 196
-0.03422136 -0.00653098 0.51747471 203 202 202
-0.01765035 -0.00636103 0.50400883 200 200 200
-0.01676675 -0.00635630 0.50363433 210 209 209
-0.01589626 -0.00635630 0.50363433 212 211 211
-0.01503694 -0.00636103 0.50400883 207 206 206
-0.01418689 -0.00637050 0.50475937 204 203 203
-0.01330455 -0.00636576 0.50438380 203 202 202
-0.01243276 -0.00636576 0.50438380 196 195 194
-0.01156959 -0.00637050 0.50475937 200 200 197
-0.01071310 -0.00638000 0.50551218 195 195 192
-0.00895895 -0.00637525 0.50513548 184 184 186
-0.13876176 -0.00563227 0.51707995 210 201 202
-0.13786803 -0.00563227 0.51707995 219 210 211
-0.13686991 -0.00562797 0.51668584 220 204 207
-0.13608058 -0.00563227 0.51707995 207 191 193
-0.13529004 -0.00563656 0.51747471 202 186 188
-0.13429311 -0.00563227 0.51707995 200 178 182
-0.13329770 -0.00562797 0.51668584 204 180 184
-0.13240466 -0.00562797 0.51668584 218 192 195
-0.13171239 -0.00563656 0.51747471 225 196 199
-0.13091791 -0.00564087 0.51787001 210 179 183
-0.12992355 -0.00563656 0.51747471 208 176 180
-0.12893073 -0.00563227 0.51707995 213 176 184
-0.12803699 -0.00563227 0.51707995 213 176 184
-0.12714326 -0.00563227 0.51707995 213 176 185
-0.12624954 -0.00563227 0.51707995 205 164 176
-0.12535580 -0.00563227 0.51707995 205 162 175
-0.12436721 -0.00562797 0.51668584 203 158 173
-0.12356834 -0.00563227 0.51707995 198 153 170
-0.23111065 -0.02165366 1.98795259 200 193 198
-0.22700892 -0.02159035 1.98213995 206 199 202
-0.04326457 -0.00564950 0.51866245 196 195 202
-0.04236810 -0.00564950 0.51866245 201 200 202
-0.04147164 -0.00564950 0.51866245 204 203 204
-0.04054415 -0.00564518 0.51826596 208 207 208
