ply
format ascii 1.0
element vertex 339
property float x
property float y
property float z
property uchar red
property uchar green
property uchar blue
end_header
-0.66245387 0.41799535 1.97636104 163 162 159
-0.66895884 0.41693360 1.98213995 162 161 159
-0.66640711 0.42940049 1.98546391 161 158 158
-0.66220576 0.45057774 1.99968100 151 146 143
-0.65249059 0.41571803 1.97636104 161 157 154
-0.64695966 0.41481124 1.98472334 161 154 153
-0.64992863 0.42596596 1.97636104 163 155 155
-0.64951312 0.42901271 1.99047194 162 156 154
-0.64838062 0.45172983 1.99968100 145 138 138
-0.63624701 0.41624070 1.98698954 162 156 155
-0.63132947 0.42991059 1.99147453 165 159 156
-0.62878467 0.44679114 1.99427846 165 156 152
-0.61319351 0.42984363 1.97512993 170 161 159
-0.61703100 0.43677506 1.98407749 169 159 155
-0.60916641 0.44821702 1.97157339 168 162 156
-0.61847484 0.45014018 1.98504627 168 161 157
-0.60376066 0.46219423 1.97061586 182 176 173
-0.58671510 0.45259710 1.93683386 177 177 171
-0.59476230 0.45431670 1.95501459 176 173 168
-0.56221521 0.43961877 1.88827813 178 177 172
-0.56378914 0.44870805 1.89356449 180 178 172
-0.56487916 0.45351861 1.90553153 172 171 163
-0.57840967 0.44709104 1.92037344 177 177 170
-0.56234610 0.46963975 1.87781680 167 159 163
-0.56684044 0.47105042 1.89282021 155 146 148
-0.56679863 0.46727837 1.90884535 170 164 161
-0.56513286 0.47032553 1.92037344 171 167 164
-0.55094736 0.44916422 1.89045865 144 142 143
-0.55378801 0.45648837 1.90419054 126 119 130
-0.55747762 0.47288540 1.87781680 166 162 161
-0.55096090 0.47397577 1.89026712 167 161 159
-0.55499147 0.46737236 1.90832131 164 158 156
-0.55259078 0.48689466 1.89443668 172 170 168
-0.53050268 0.42918208 1.85723794 182 181 175
-0.53401870 0.43653040 1.86576994 129 129 127
-0.53676876 0.44589547 1.87349874 135 130 134
-0.53457503 0.47434382 1.87716837 179 173 169
-0.53787076 0.46118030 1.88303292 180 176 171
-0.48012215 -0.20669109 0.86465794 212 213 213
-0.46628776 -0.20961110 0.85850448 209 211 212
-0.47035685 -0.20610933 0.86138867 208 209 210
-0.46467351 -0.19704804 0.85881597 210 214 213
-0.47012855 -0.19713033 0.86159796 206 210 210
-0.45537995 -0.20762295 0.85836371 208 212 212
-0.45750555 -0.20882812 0.86026883 208 212 213
-0.42490545 0.45485509 1.03116315 188 190 190
-0.43005468 0.45072498 1.04804550 181 181 179
-0.43324534 0.46263680 1.03488551 181 182 184
-0.43584291 0.46190723 1.04470597 180 180 181
-0.41550742 0.45556176 1.01923312 185 186 186
-0.41830367 0.45256663 1.02658191 185 187 187
-0.41869036 0.44840675 1.04633959 171 172 173
-0.41740921 0.46040037 1.01785564 182 182 182
-0.38331591 0.33062858 1.07346408 189 190 189
-0.36247863 0.28536647 1.03600601 161 156 155
-0.36777035 0.29334929 1.04365600 158 151 152
-0.36827934 0.30885923 1.05147995 195 179 182
-0.37696040 0.31715834 1.06252635 202 184 187
-0.36195109 0.33444932 1.05623934 192 193 191
-0.37089161 0.32964340 1.06562498 189 190 189
-0.37669860 0.34246529 1.06698672 189 194 194
-0.35729393 0.27995729 1.02710891 169 168 167
-0.35959592 0.31141692 1.04936814 202 194 194
-0.35683059 0.33327585 1.05324544 190 190 189
-0.34058902 0.49879631 1.48987222 183 183 185
-0.34101182 0.49802431 1.50308609 188 188 188
-0.34360978 0.50062227 1.50308609 186 186 187
-0.32336687 0.49803920 1.47240760 185 185 187
-0.33402053 0.49852229 1.48481043 186 185 187
-0.32175230 0.51236168 1.45704979 179 180 179
-0.32737439 0.50809612 1.46862679 183 183 184
-0.33397199 0.50327725 1.48108479 183 183 185
-0.32379069 0.52297159 1.45678910 181 180 180
-0.32867422 0.52449247 1.46731214 181 182 182
-0.31306601 0.49779493 1.45533187 183 184 184
-0.31285321 0.49860012 1.47007248 187 188 188
-0.31409326 0.50672853 1.43926084 188 188 188
-0.31597980 0.50729123 1.44918566 188 189 189
-0.31929396 0.52235880 1.45159519 185 181 181
-0.29170445 0.48931500 1.43926084 156 154 157
-0.29607928 0.49119942 1.44849342 172 171 172
-0.26895887 -0.00490960 1.95185399 204 133 157
-0.26586747 0.00828991 1.95922494 204 133 157
-0.26386054 0.01295279 1.96744988 206 138 160
-0.26398335 0.02520050 1.95781341 206 141 165
-0.25369757 -0.00491891 1.96898859 219 152 181
-0.24514719 -0.00680417 1.99968100 240 182 202
-0.25719506 0.01259567 1.97061586 212 145 167
-0.25478971 0.01096990 1.98504627 215 150 173
-0.24768249 0.23637045 0.61660809 181 182 182
-0.24904631 0.24079304 0.61626678 174 173 172
-0.22905979 -0.02162201 1.98504627 203 195 200
-0.22903861 -0.01135554 1.99235073 196 183 190
-0.22654603 0.01137638 1.99615214 198 162 179
-0.22556156 0.02660660 1.99968100 232 204 219
-0.22232236 0.15331140 0.63313333 164 162 162
-0.23812880 0.23442418 0.61433485 172 170 171
-0.21123316 -0.18123359 0.53934120 202 202 201
-0.20562397 -0.18502689 0.54132651 206 206 205
-0.21035387 -0.17917824 0.53907907 212 213 211
-0.20669160 -0.17891355 0.54183318 213 214 213
-0.21304210 0.15146846 0.62790256 162 158 157
-0.21317592 0.16107457 0.62392285 154 151 150
-0.20325316 0.33344699 1.43651651 198 177 181
-0.21555191 0.35183591 1.39713991 178 176 180
-0.21195213 0.35505095 1.41044083 189 188 190
-0.20753545 0.34992107 1.43083763 196 188 191
-0.20008636 0.34327272 1.44232309 196 186 189
-0.21519695 0.36331284 1.39483917 187 183 184
-0.21005330 0.36478494 1.40891275 195 194 194
-0.20285922 0.36299639 1.42676751 193 193 193
-0.18084390 0.23221850 0.81575429 191 191 189
-0.19033526 0.26732281 0.62787246 183 185 185
-0.19892351 0.35179374 1.43394065 194 189 192
-0.19839786 0.36015111 1.43015158 194 194 196
-0.16170689 -0.22928743 0.78567857 215 216 218
-0.16120113 -0.16474909 0.52085460 206 206 210
-0.16916150 0.23461103 0.81269301 189 189 188
-0.16374979 0.24272015 0.80715658 186 187 189
-0.15450513 -0.22696813 0.78699509 212 212 213
-0.15278176 -0.21819287 0.78902344 212 212 213
-0.15413453 -0.16224774 0.51927987 210 212 214
-0.15642389 -0.16513793 0.52039570 208 211 213
-0.15201322 -0.15906645 0.51863996 210 213 215
-0.15867569 0.23535522 0.81686120 184 183 182
-0.15810696 0.24261725 0.80907765 189 190 190
-0.14564053 0.28439222 1.19927865 184 182 184
-0.14559658 0.29272126 1.20901322 193 194 193
-0.14831618 0.30992177 1.21174664 193 193 192
-0.14115272 0.30875652 1.22326535 190 190 191
-0.14517370 0.32005975 1.21268666 190 189 183
-0.12375826 -0.16100722 0.62392268 204 204 208
-0.12119311 -0.14713168 0.61907961 203 203 204
-0.12328858 -0.15616419 0.62245716 207 207 208
-0.13322525 -0.00551104 0.51685062 199 169 178
-0.13457031 0.00164259 0.51459432 191 129 146
-0.12502119 0.29625849 0.71452955 174 173 172
-0.13728824 0.28778756 1.20479639 196 195 197
-0.12669728 0.30503103 0.71535985 167 167 165
-0.13963498 0.31651834 1.21922994 188 184 179
-0.13532048 0.31176816 1.22449031 190 188 187
-0.13678109 0.32039986 1.22197792 175 171 168
-0.11286830 -0.14636246 0.61643902 207 207 207
-0.11937981 -0.15268848 0.62078033 199 198 199
-0.11082361 -0.13674532 0.61424159 210 210 210
-0.10324737 -0.02594726 0.50957105 204 204 205
-0.10113864 -0.01965461 0.50988486 199 199 199
-0.11022674 0.23026283 0.55283837 171 171 171
-0.11323722 0.24058436 0.55633390 171 178 178
-0.11728396 0.29399728 0.71229981 166 166 165
-0.09578586 -0.02448310 0.50834354 206 205 204
-0.09694314 -0.01960792 0.50867367 202 200 200
-0.06011826 0.06215120 0.60743046 183 165 178
-0.06054578 0.24663066 0.75721208 175 174 174
-0.04102814 -0.20930316 0.51684033 211 211 210
-0.04177037 -0.00452741 0.51819724 203 202 204
-0.04107493 0.00414654 0.51648996 198 198 199
-0.04863622 0.07346883 0.59087385 198 152 166
-0.05606334 0.06245854 0.60671107 198 154 171
-0.04337672 0.08677255 0.58687627 196 152 165
-0.04091897 0.21938007 0.55580125 172 174 176
-0.05521611 0.21276355 0.73844427 193 194 196
-0.05414887 0.21692186 0.74306197 185 186 187
-0.04312164 0.22436557 0.55318338 177 179 180
-0.05292067 0.23339757 0.75119466 177 176 175
-0.05501302 0.24703113 0.75199719 177 176 175
-0.03499154 -0.20928378 0.51672723 210 210 210
-0.02376648 -0.13218537 1.99674028 187 184 183
-0.03713059 -0.00481573 0.51724427 200 199 199
-0.03759459 0.00305047 0.51638086 203 203 204
-0.03185859 0.08729100 0.57917944 223 175 192
-0.03578204 0.09299073 0.58360701 202 153 167
-0.03467834 0.10635016 0.57885109 197 146 160
-0.03489445 0.10284392 0.58273655 198 150 163
-0.03502874 0.21905048 0.55327971 169 171 170
-0.03425743 0.22217338 0.55196167 162 161 162
-0.01325851 -0.01044346 0.50420679 197 195 196
0.01239827 0.17956035 0.50382492 79 78 79
0.01357938 0.18092726 0.49918398 72 68 74
0.01159159 0.18821261 0.50905065 89 89 89
0.00853159 0.19827255 0.52118953 111 106 103
0.01170193 0.20147586 0.51801503 92 85 85
0.00944268 0.20317475 0.52248782 113 110 109
0.08838819 -0.20119748 0.61654915 135 136 140
0.09009702 -0.19329193 0.61252738 109 109 118
0.19909824 -0.50437903 1.11039466 91 96 121
0.19864482 -0.50160268 1.17587572 151 153 156
0.19683126 -0.48731668 1.08727056 91 101 126
0.19850158 -0.49521336 1.10706703 93 103 129
0.19887859 -0.49190103 1.16929936 150 151 152
0.19491505 -0.46288712 1.06655385 99 106 127
0.19666738 -0.45734877 1.05473915 93 98 123
0.19541482 -0.45845273 1.06252813 100 105 129
0.20127832 -0.52133866 1.12982599 92 98 126
0.20073758 -0.52068466 1.15287733 103 108 135
0.20057549 -0.51101917 1.11863339 88 96 120
0.20098460 -0.51138903 1.13099644 94 102 127
0.20165134 -0.50641017 1.14960235 110 117 133
0.20697206 -0.50213670 1.17317021 129 132 139
0.21513085 -0.50423443 1.18513909 112 117 130
0.20920805 -0.48609703 1.09302411 72 77 99
0.20228011 -0.49618151 1.15681493 135 135 140
0.20905204 -0.49084690 1.17227932 122 123 131
0.21304366 -0.48805581 1.18361224 104 105 115
0.20908909 -0.46434850 1.05172048 70 75 97
0.20809561 -0.46892937 1.07158251 75 81 105
0.20806766 -0.47104966 1.08706598 82 89 117
0.21558014 -0.47817432 1.17463238 122 122 129
0.21212696 -0.47808266 1.18305731 96 96 108
0.20537627 -0.44123113 1.01785564 69 72 98
0.20672298 -0.44617877 1.03338212 71 76 100
0.20820750 -0.45429456 1.05266036 76 82 108
0.20823174 -0.45483581 1.07009291 86 91 121
0.20897410 -0.45221792 1.08203077 93 97 121
0.20476183 -0.43640436 1.01481044 70 75 99
0.22562639 -0.48087047 1.18237031 114 117 126
0.22361535 -0.47947630 1.17894232 120 121 124
0.22439586 -0.47808266 1.18305731 126 127 129
0.25993812 0.01066312 0.46743107 18 17 27
0.26427953 0.00936661 0.46508220 18 17 27
0.29179787 0.15819209 0.47840123 8 8 9
0.29218322 0.15801799 0.48151648 8 8 10
0.29016334 0.16771344 0.47501472 8 7 9
0.29207817 0.16213505 0.48179945 9 8 10
0.31486096 0.02633722 0.45154895 19 17 26
0.44097489 0.03930383 0.61964518 18 17 26
0.44913166 0.03669133 0.62241605 18 17 26
0.44448383 0.04107202 0.61939367 19 18 27
0.44951201 0.04084631 0.62070961 19 17 26
0.53667440 0.05613284 1.13170907 26 26 41
0.53936207 0.06102528 1.13170588 27 26 44
0.54366389 0.04540753 1.10857874 25 24 39
0.55006249 0.05315060 1.13405713 24 24 40
0.55144491 0.05236288 1.14187352 22 24 41
0.54856647 0.06555336 1.13326352 25 24 43
0.56819612 0.05595064 1.13244697 23 22 38
0.56896017 0.06357359 1.13405005 23 24 39
0.57842138 0.06548401 1.14123201 21 23 38
0.58238055 0.06326484 1.13677057 23 22 37
0.58462465 0.06498417 1.14481917 22 22 37
0.69934243 -0.30434096 1.45158851 91 90 93
0.69464721 0.05836564 0.70796394 18 18 23
0.69159362 0.07276978 0.69492302 18 17 24
0.69838021 0.06606037 0.70280100 19 18 25
0.71231881 -0.34746512 1.47077185 99 99 102
0.71494910 -0.32580791 1.45783186 98 96 100
0.71451104 -0.33097365 1.47050001 98 97 101
0.71270952 -0.33105794 1.48132947 99 99 104
0.70708528 -0.30673161 1.43926084 93 92 93
0.70722907 -0.30821055 1.44801541 92 91 93
0.70588767 -0.31506673 1.46255147 95 94 96
0.71207992 -0.29166947 1.43790562 87 86 86
0.70880658 -0.29434350 1.44494764 89 88 88
0.70715207 -0.29526256 1.46255147 92 86 88
0.70281655 0.05788380 0.70791004 18 17 23
0.70266913 0.06406965 0.70668076 19 17 24
0.72252417 -0.34243748 1.47154681 98 98 102
0.72203174 -0.33734855 1.46968555 99 97 103
0.72115177 -0.30527030 1.45003766 93 92 94
0.75984091 0.10246936 0.77296674 24 23 30
0.77034559 0.09573897 0.77119479 20 19 25
0.76762064 0.10226071 0.77139347 22 21 27
0.85523589 -0.30151092 1.45004430 88 89 93
0.85553213 -0.30359702 1.46413378 88 88 90
0.85782468 -0.30884231 1.48119275 86 87 88
0.84869883 -0.29574398 1.43824442 88 89 93
0.84936398 -0.29742534 1.44644992 90 90 94
0.87840766 -0.32186177 1.49810535 88 87 90
0.87625325 -0.32637944 1.51181247 83 83 85
0.87873119 -0.32991901 1.52335250 84 84 86
0.86331663 -0.30469548 1.45627102 88 90 95
0.86609156 -0.30887152 1.47169213 87 88 90
0.87042778 -0.31405649 1.48727938 88 88 90
0.89170902 -0.34354064 1.51722271 88 88 92
0.89219256 -0.34919010 1.52740890 86 86 89
0.89404261 -0.35763428 1.54066324 88 87 89
0.88433774 -0.32509163 1.49572559 83 83 89
0.88734196 -0.33197970 1.51415220 85 85 89
0.88843268 -0.33723132 1.52580319 86 85 88
0.88065904 -0.31682149 1.48660493 84 84 88
0.91688871 -0.38329319 1.55837202 80 84 88
0.91990125 -0.38147661 1.56196272 84 86 91
0.90992873 -0.36899918 1.54815411 81 81 84
0.90040475 -0.34888244 1.51993692 87 87 88
0.90777477 -0.35107533 1.53138916 81 83 84
0.90735716 -0.35763428 1.54066324 88 88 90
0.91091311 -0.33968762 1.51993692 82 82 86
0.91208571 -0.33511321 1.52541418 84 83 89
0.92182684 -0.38598671 1.55837202 81 83 88
0.93052594 -0.38575723 1.56585912 81 82 86
0.92496930 -0.37341695 1.55837202 82 84 87
0.93047881 -0.37534594 1.56340568 83 84 88
0.92551806 0.21211014 1.35309192 19 18 25
0.93531497 0.20981711 1.36857307 19 18 25
0.94810434 0.17891521 1.39197505 23 22 31
0.95317405 0.17841031 1.40060294 23 22 31
0.94792903 0.18905553 1.39364125 23 22 31
0.95343123 0.19168553 1.40750989 24 23 32
0.94052660 0.20129631 1.37503421 22 21 30
0.94474118 0.20494471 1.38858247 20 19 28
0.95189312 0.20265334 1.40498292 21 20 29
0.95934772 0.20479319 1.42414248 22 21 30
0.96389191 0.18710184 1.39771509 22 22 31
0.97092346 0.19012196 1.40813399 22 21 30
0.97063352 0.20155032 1.40486259 20 18 28
0.96477869 0.20426428 1.43773621 24 23 32
0.96812685 0.20797136 1.44334817 22 21 30
0.98575570 0.18760919 1.41522926 22 21 30
0.98768733 0.18967521 1.42153008 21 20 29
0.98624152 0.20175783 1.41155294 19 18 27
1.01192193 -0.20606039 1.79812157 38 37 42
1.01817453 -0.20972461 1.80290389 39 39 43
1.01257870 -0.19802628 1.79574311 36 35 41
1.01776516 -0.19466145 1.80771160 33 33 37
1.02950478 -0.22083510 1.81740439 43 43 49
1.03645346 -0.22627974 1.82967091 46 46 51
1.02631343 -0.21022092 1.80921469 38 38 42
1.03848201 -0.20817908 1.82351789 36 36 41
1.02430901 -0.19453024 1.81376636 33 32 38
1.05463469 -0.22240572 1.81740439 44 44 52
1.05057625 -0.22305613 1.83133930 44 45 48
1.04963632 -0.22743189 1.84544361 46 46 51
1.04983035 -0.21297662 1.82897304 40 40 44
1.05503610 -0.20542656 1.84838530 35 34 41
1.05817854 -0.20054407 1.86234021 33 32 37
1.05848944 -0.19838960 1.85723794 32 31 38
1.06812465 -0.22681185 1.81497473 49 48 55
1.07033420 -0.22254842 1.82721949 46 46 52
1.07373989 -0.22224363 1.84209740 44 44 50
1.07050596 -0.21372841 1.82990509 41 41 46
1.06974084 -0.21103874 1.85023517 39 38 46
1.07439549 -0.20494084 1.86896081 34 33 40
1.06169951 -0.19999464 1.85723794 33 32 37
1.07697153 -0.19841537 1.87262940 31 30 39
1.08120799 -0.22185741 1.85216355 44 45 49
1.08240922 -0.21385055 1.85217044 40 40 46
1.08645703 -0.20509414 1.87224356 34 33 40
1.09760076 -0.20602702 1.88303292 34 32 39
1.08355127 -0.19633242 1.87042667 29 28 36
