ply
format ascii 1.0
element vertex 790
property float x
property float y
property float z
property uchar red
property uchar green
property uchar blue
end_header
-0.82240224 -0.26278322 1.43926084 71 65 67
-0.82502790 -0.25656819 1.43834606 72 67 69
-0.80717505 -0.26609235 1.42844131 73 68 69
-0.80218798 -0.24341056 1.41818380 69 67 70
-0.80829186 -0.25372250 1.42820397 72 66 68
-0.78911488 -0.26290739 1.41759164 75 69 70
-0.79478984 -0.26545984 1.42205256 75 69 69
-0.79124674 -0.24572078 1.41333291 72 67 70
-0.79505284 -0.25524484 1.42265058 74 68 69
-0.78742496 -0.23837598 1.40583470 75 69 72
-0.77675131 -0.26431542 1.40982997 74 69 69
-0.77128327 -0.24593700 1.39771509 74 69 71
-0.77550563 -0.25543177 1.40725352 75 70 70
-0.56457181 -0.42972116 1.25120072 73 71 72
-0.56126043 -0.41371773 1.24689110 73 72 73
-0.55127701 -0.42412205 1.23858367 74 73 73
-0.54889517 -0.42882706 1.24655616 74 73 73
-0.54857481 -0.41751017 1.23713780 73 73 74
-0.55077778 -0.41263068 1.24706011 73 73 74
-0.53562822 -0.42392291 1.23433483 73 73 73
-0.52283441 -0.40755837 1.21355753 73 73 75
-0.53352195 -0.41037994 1.23020782 73 74 74
-0.52506602 -0.38959288 1.21455727 76 74 74
-0.53370670 -0.39214937 1.22770420 76 75 75
-0.52568213 -0.37543289 1.21141522 76 74 76
-0.51645434 -0.38289859 1.19874871 78 74 75
-0.51897885 -0.39362296 1.20460829 74 73 73
-0.51497199 -0.36875595 1.19210752 76 75 77
-0.51990491 -0.37456810 1.20193589 74 74 76
-0.50235695 0.03468198 0.84262769 71 63 64
-0.50356370 0.04161502 0.83897507 72 64 61
-0.50257387 0.04398149 0.84196857 73 65 64
-0.49411078 0.01941119 0.83734797 76 70 67
-0.49483448 0.02545993 0.83803283 73 67 67
-0.49632165 0.03252100 0.84117435 72 65 65
-0.49699332 0.04363986 0.84269640 72 67 64
-0.34439826 0.01896695 0.82685635 83 79 79
-0.34336950 0.02773907 0.82803047 83 78 77
-0.34145959 0.04197614 0.83177225 83 76 73
-0.33297575 0.01462039 0.81448119 81 77 78
-0.33830900 0.01733023 0.82193730 82 79 79
-0.32371538 0.03589254 0.81871116 83 75 76
-0.33455774 0.03498125 0.82410595 84 77 76
-0.33147558 0.04370131 0.82534413 84 77 78
-0.29044348 0.03580201 0.51107089 73 67 69
-0.29055981 0.04628457 0.51061721 71 66 66
-0.24422873 -0.12595195 0.63534582 79 76 77
-0.24333368 -0.11648539 0.63375114 77 75 76
-0.24126207 0.03905419 0.64587538 83 79 78
-0.24300839 0.04150223 0.64843813 83 79 78
-0.23893463 -0.13010283 0.63627933 80 76 77
-0.23802534 -0.11334988 0.63269337 80 77 76
-0.22578527 -0.07071630 0.56414255 84 80 80
-0.23413263 0.03262382 0.63887209 86 77 79
-0.23367981 0.03619263 0.64401772 85 79 80
-0.22833011 0.04328708 0.63891786 82 79 79
-0.23434093 0.04218913 0.64522585 82 78 77
-0.20877614 -0.08023304 0.55724856 81 80 80
-0.21400793 -0.08110466 0.56061205 81 81 81
-0.20581290 -0.07604250 0.55679663 83 79 79
-0.21558954 -0.07609455 0.56089287 82 81 79
-0.20064261 0.19732578 0.53843741 150 157 161
-0.18155136 -0.22190860 0.50859783 70 70 73
-0.18381628 -0.21019335 0.50755141 74 73 75
-0.18381285 -0.19529740 0.50407276 75 75 77
-0.19383333 0.19405345 0.53587378 149 156 159
-0.17763950 -0.22103935 0.50687525 71 70 73
-0.17717207 -0.21006736 0.50468641 73 73 76
-0.17946763 -0.19673737 0.49857287 75 75 79
-0.17762695 -0.19716595 0.50254928 75 75 77
-0.16945058 -0.04786102 0.48434258 85 83 84
-0.15005073 0.19844919 0.62310331 120 119 119
-0.14058165 0.20638084 0.61964518 135 135 135
-0.15014865 0.20490848 0.62484955 127 128 129
-0.13951065 0.20530984 0.61964518 134 134 134
-0.13963829 0.20388970 0.62021214 131 131 131
-0.10477510 -0.37016470 0.89063992 88 90 93
-0.09189620 -0.36951347 0.89219676 87 89 90
-0.08754348 -0.37702608 0.90025479 87 88 88
-0.09326424 -0.35311844 0.87841511 85 87 88
-0.09503042 -0.35587735 0.88190845 86 90 91
-0.08043827 -0.22454671 0.53950810 88 88 90
-0.08424265 -0.22219026 0.54946116 87 89 91
-0.08593897 -0.21850662 0.55431651 89 90 93
-0.08883162 -0.21757210 0.56070487 87 89 93
-0.08820197 -0.07125232 0.67922155 98 96 101
-0.09384179 -0.06976395 0.68439205 97 97 102
-0.07676871 -0.23098934 0.53890577 84 86 88
-0.07663306 -0.22617791 0.54221571 86 88 91
-0.07836044 -0.21867024 0.54286738 88 90 95
-0.04361296 0.57640433 1.65339470 130 126 127
-0.04532624 0.56743072 1.67145700 125 121 122
-0.04448089 0.57621652 1.68629813 124 123 123
-0.04219605 0.57902950 1.71184814 127 122 123
-0.04246420 0.57824087 1.72272664 126 121 123
-0.04361596 0.58350454 1.69052430 126 123 124
-0.04208989 0.58494936 1.70754156 125 122 123
-0.02966495 0.55024311 1.67381722 121 115 116
-0.02893619 0.55387104 1.68629813 120 114 116
-0.02558988 0.55511161 1.70926092 116 109 112
-0.03032651 0.56426826 1.70970029 121 115 117
-0.02716107 0.57416470 1.72526268 126 118 121
-0.03884488 0.58788526 1.69472957 128 124 125
-0.02821660 0.59011863 1.71031899 126 124 123
-0.02982594 0.58895600 1.72822583 128 124 124
-0.02442799 0.60379417 1.71077555 130 126 127
-0.02761127 0.60282853 1.72491562 127 125 122
-0.01293014 -0.26042743 0.50966139 78 78 79
-0.01042973 -0.25275153 0.50815945 78 79 79
-0.00023802 -0.06086362 0.52713209 95 89 93
-0.00058113 -0.05812918 0.52815946 97 92 96
-0.01656297 0.55425227 1.69221072 118 112 114
-0.01852580 0.56720173 1.71185537 124 116 119
-0.01861976 0.57750803 1.72053766 127 121 122
-0.01854139 0.58888767 1.71329633 125 123 122
-0.01861976 0.58791637 1.72053766 126 125 125
0.00638906 -0.06542526 0.52673087 93 91 96
0.00509402 -0.05688054 0.52740857 96 94 97
0.04674527 -0.30188088 0.59916227 63 63 67
0.04547282 -0.30181131 0.60150117 63 63 67
0.05009410 -0.29350015 0.59572951 66 67 70
0.04544156 -0.29593844 0.60247141 65 66 68
0.05326878 -0.24709238 0.59290537 78 79 81
0.05317406 -0.23903858 0.59464389 76 77 81
0.07986291 -0.02891590 1.25768435 94 93 98
0.07044329 -0.00036214 0.69385040 91 82 85
0.07981567 -0.00486601 1.22363412 92 90 94
0.07751790 0.01822090 0.67880068 97 89 92
0.07252786 0.01142194 0.68866953 95 89 93
0.07418403 0.02177814 0.68857384 96 88 93
0.08628580 -0.44128832 1.11587209 72 73 77
0.09154031 -0.44547465 1.12796614 74 75 77
0.08685776 -0.42974675 1.09869015 74 75 79
0.08719305 -0.42961510 1.10664030 73 73 77
0.09558171 -0.42912238 1.12834294 70 70 75
0.09844325 -0.43602524 1.14509626 63 62 70
0.08644874 -0.40940002 1.09709244 76 76 79
0.09257627 -0.41271335 1.11022233 73 73 77
0.09803539 -0.41501650 1.12420229 72 73 77
0.09100774 -0.30158761 1.13265848 78 77 85
0.08975951 -0.30255449 1.16077375 79 78 86
0.09147487 -0.29677281 1.13235044 76 75 82
0.09305275 -0.29134281 1.15191728 75 75 82
0.09028838 -0.28952691 1.16439795 80 80 87
0.09270924 -0.26357286 1.13550997 77 76 80
0.09132005 -0.26843857 1.15289601 78 77 82
0.08905013 -0.27405162 1.16611375 79 79 85
0.09203851 -0.25856143 1.13931406 77 76 80
0.09094667 -0.24976904 1.15579763 79 79 82
0.09420733 -0.24657171 1.16372236 77 77 81
0.09795902 -0.25506529 1.18720114 76 76 78
0.09586506 -0.23143601 1.15878952 74 74 79
0.09313175 -0.22894867 1.16280583 78 77 83
0.09761757 -0.20589937 1.15878952 73 72 77
0.09476781 -0.21143591 1.16987982 76 76 80
0.09172785 -0.20791268 1.18247053 80 80 85
0.09720047 -0.10232989 1.15780079 77 75 81
0.09979103 -0.10092101 1.16077375 77 75 82
0.09755094 -0.09467726 1.15799854 76 75 80
0.09748109 -0.09065210 1.16768701 78 77 81
0.09472145 -0.08644681 1.18997198 84 82 86
0.09650581 -0.07195502 1.17634381 82 80 86
0.09499694 -0.06920697 1.18584141 84 82 88
0.08662583 -0.05130955 1.17236403 91 88 94
0.09197286 -0.05043801 1.18643739 85 83 88
0.08074397 -0.04648868 1.20591157 95 91 96
0.08046919 -0.04435638 1.23365313 97 93 97
0.08406108 -0.03437158 1.17649472 94 92 96
0.09123587 -0.03021863 1.19140373 89 86 91
0.08656124 -0.02611427 1.20508709 91 89 95
0.08034133 -0.03018574 1.23169281 93 91 96
0.08022061 -0.03123873 1.26331754 92 90 95
0.09040600 -0.00903226 1.19626212 92 86 92
0.08883521 -0.00915348 1.20357671 94 88 94
0.08010469 -0.01974446 1.22806489 95 89 95
0.08891576 0.00330820 1.21053844 91 87 91
0.08210053 0.00606631 1.22622903 92 89 93
0.09126305 0.03414743 1.13412839 86 82 85
0.09212818 0.02969440 1.14316452 86 81 83
0.09115850 0.05126619 1.13278179 88 84 88
0.09352893 0.05046654 1.14348218 88 83 86
0.09265515 0.07605673 1.09666167 83 81 84
0.09194141 0.07251617 1.11076804 87 83 86
0.08929809 0.06758119 1.12758903 89 86 90
0.09315629 0.06141513 1.14509408 84 80 87
0.09229192 0.09201236 1.09371130 80 78 80
0.09911061 0.09072161 1.10829441 69 69 72
0.09576500 0.10452980 1.09290307 78 74 76
0.09754976 0.11541303 1.10834396 79 77 79
0.09826076 0.12119142 1.10948670 78 76 78
0.10312537 -0.44428050 1.13260433 81 82 84
0.10053602 -0.44409809 1.14639123 73 73 79
0.10557491 -0.42873110 1.11587816 85 85 88
0.10432606 -0.43146081 1.13155237 82 82 87
0.10125046 -0.43610133 1.14704037 75 75 82
0.10553103 -0.41411707 1.11541441 87 87 89
0.10322553 -0.41257418 1.12562172 84 84 86
0.11070123 -0.24330645 1.13549936 94 93 97
0.10850227 -0.24589163 1.15444096 88 87 91
0.10523995 -0.24783845 1.16557300 81 81 85
0.10113515 -0.25685087 1.18596454 73 73 76
0.11219427 -0.23323943 1.13332968 93 92 95
0.10719461 -0.22968652 1.15465205 84 83 87
0.10634860 -0.22830949 1.16226976 83 82 86
0.10583879 -0.21353873 1.15344442 79 78 82
0.10501527 -0.21726934 1.16400057 80 80 83
0.10336710 -0.08844780 1.17160095 75 74 79
0.10589726 -0.08532493 1.18569121 73 72 76
0.10385280 -0.07184836 1.17452711 80 77 82
0.10603852 -0.06798377 1.18641867 78 75 80
0.10285705 -0.04844684 1.17594750 74 71 78
0.10674939 -0.04998542 1.18584594 77 73 79
0.10441544 -0.03209738 1.17520410 76 73 79
0.10544718 -0.03338687 1.18941941 78 75 81
0.10263842 -0.00862982 1.19704850 80 74 78
0.10125227 -0.01101457 1.20193589 81 75 79
0.10284146 0.05769858 1.13360000 76 74 82
0.10008357 0.05463512 1.14123201 80 77 83
0.10443101 0.07371450 1.09805523 78 75 78
0.10178573 0.07000979 1.10729184 75 72 77
0.10195737 0.06451077 1.12838904 76 73 80
0.10008357 0.06055270 1.14123201 76 74 83
0.10216767 0.09095597 1.09613889 69 67 70
0.10039673 0.08927906 1.10610241 72 70 73
0.10044965 0.08872493 1.12326813 75 73 75
0.10219865 0.10606770 1.09352779 70 67 70
0.10180012 0.11606677 1.10632153 74 72 75
0.10113421 0.12119139 1.10947931 73 72 74
0.15673621 -0.76291742 1.62695503 82 82 84
0.15761822 -0.76700164 1.65089512 83 82 84
0.15789563 -0.76237301 1.66888413 83 83 85
0.15388826 -0.74396861 1.56919408 84 84 86
0.15504444 -0.75346535 1.59503961 82 83 85
0.15439254 -0.75425786 1.60258114 82 82 84
0.15954359 -0.75576675 1.68630230 88 89 88
0.15967737 -0.72851056 1.65743732 90 91 93
0.15961945 0.13127455 0.45189026 115 109 111
0.15394572 0.17466519 1.01210204 114 107 110
0.15568832 0.18396420 1.01589801 116 107 110
0.15251883 0.18782041 1.02323589 120 112 114
0.15332507 0.20787574 0.45436417 0 0 0
0.15599783 0.21481254 0.46952625 0 0 0
0.15883338 0.22217183 0.48561183 0 0 0
0.16285740 -0.76285663 1.61788034 82 83 85
0.17141056 -0.76447635 1.63269658 79 79 80
0.16854745 -0.76819142 1.65121647 81 81 82
0.16781421 -0.76556277 1.66839558 82 82 83
0.17212278 -0.76820463 1.68672910 83 83 82
0.17563767 -0.77107221 1.71147195 85 86 84
0.17776471 -0.77309412 1.72163215 86 87 85
0.17118035 -0.75034440 1.59133047 81 81 83
0.16960629 -0.75681906 1.60802702 80 80 82
0.17586081 -0.75767398 1.62175083 79 79 79
0.16235487 -0.75077389 1.67519486 88 89 90
0.16841983 -0.75185848 1.68755098 89 89 89
0.17505569 -0.74999252 1.70969937 89 90 91
0.16788089 -0.74421117 1.72711575 89 89 91
0.16898808 -0.73614430 1.55837202 81 81 83
0.16254212 -0.72851056 1.65743732 92 93 95
0.16740717 -0.73055659 1.66778469 89 90 92
0.17598610 -0.73458149 1.68561119 88 89 91
0.17546067 -0.73825979 1.70646355 88 88 91
0.17729935 -0.71880907 1.66149962 87 88 90
0.17342564 -0.70698665 1.76841613 87 87 90
0.17489240 -0.71174126 1.78959417 86 86 88
0.17346515 -0.68288571 1.73818421 88 88 90
0.17242629 -0.68698987 1.75054735 87 87 89
0.17518232 -0.68953676 1.77074492 87 87 89
0.17618000 -0.68913959 1.78392589 87 88 89
0.17481217 -0.66497149 1.75168184 87 88 92
0.17442112 -0.67284572 1.76305068 87 88 90
0.17271908 -0.64865117 1.73500890 89 89 92
0.17443101 -0.65160620 1.74510448 89 89 92
0.17159017 -0.63218070 1.73277595 91 91 93
0.17692311 -0.63795468 1.74265254 94 94 96
0.17083690 -0.61188376 1.71184814 91 91 93
0.17170408 -0.61945051 1.72053766 90 91 93
0.16461247 0.13234711 0.45129204 115 109 109
0.16372122 0.17339278 1.00724431 111 104 107
0.16376196 0.18379622 1.01287440 113 104 109
0.16084181 0.22738443 0.49700525 0 0 0
0.16349437 0.23426879 0.51205275 0 0 0
0.16689059 0.24308323 0.53131888 0 0 0
0.17055241 0.25258697 0.55209168 0 0 0
0.17314504 0.25931579 0.56679922 0 0 0
0.17449981 0.26283193 0.57448459 0 0 0
0.17733615 0.27019325 0.59057462 0 0 0
0.18469803 -0.78102845 1.70324588 79 80 80
0.18642052 -0.78400733 1.72602126 80 81 81
0.18195499 -0.77232921 1.67795014 80 80 81
0.18039435 -0.77226341 1.69050336 79 80 80
0.18168562 -0.77214402 1.71186988 83 84 83
0.18240500 -0.77234457 1.72327946 86 87 86
0.18959530 -0.76272881 1.86747062 89 90 92
0.19533661 -0.77268050 1.89181411 88 90 91
0.18221192 -0.75643373 1.70753610 89 90 91
0.19286302 -0.74238852 1.83710527 87 88 91
0.19034812 -0.74863466 1.85386419 88 88 91
0.19604886 -0.75627710 1.86748008 87 88 91
0.19028554 -0.72672719 1.81255368 87 87 90
0.19045518 -0.73073288 1.82623537 85 85 88
0.19077050 -0.70824994 1.79665984 87 87 89
0.18883198 -0.71354161 1.80685388 86 87 88
0.19015338 -0.69167632 1.79242931 87 88 91
0.18648769 -0.69500475 1.80611332 87 89 91
0.19000473 -0.66788810 1.77517880 90 90 94
0.18624171 -0.67505494 1.78581364 89 89 93
0.19025380 -0.64815236 1.75237103 92 93 96
0.18828272 -0.65158525 1.76627316 92 92 95
0.18908428 -0.63096927 1.73448344 91 92 96
0.18621468 -0.63880126 1.75076494 91 92 96
0.18720037 -0.63706324 1.76381489 88 90 92
0.19386672 -0.09068265 0.84809299 91 89 94
0.19465967 -0.07729321 0.83897507 95 94 98
0.19296215 -0.07821186 0.84105688 96 95 99
0.18526390 -0.00327807 0.49698995 94 90 95
0.19224348 0.00829374 0.49741582 90 88 91
0.18030740 0.27790475 0.60742998 0 0 0
0.18186489 0.28194699 0.61626530 0 0 0
0.18429411 0.28825170 0.63004583 0 0 0
0.18769877 0.29708803 0.64935982 0 0 0
0.19131877 0.30648328 0.66989547 0 0 0
0.19517524 0.31649220 0.69177246 0 0 0
0.19822830 0.32441598 0.70909190 0 0 0
0.20093592 -0.70084134 1.79574311 85 86 87
0.20120206 -0.69244790 1.79812157 90 90 93
0.20184477 -0.66753403 1.78549488 93 93 97
0.20422004 -0.10118296 0.85552882 89 89 95
0.20856255 -0.09634193 0.85559776 92 88 91
0.21655270 -0.09354252 0.86099787 95 87 92
0.20232653 0.01190833 0.49843447 89 87 90
0.20436433 0.00682950 0.50028920 90 87 89
0.20214967 0.02096818 0.49655191 90 88 93
0.20145658 0.33279458 0.72740537 0 0 0
0.20601645 0.34462911 0.75327268 0 0 0
0.20964366 0.35404304 0.77384913 0 0 0
0.21218158 0.36062986 0.78824633 0 0 0
0.21618371 0.37101686 0.81094968 0 0 0
0.22039546 0.38194790 0.83484215 0 0 0
0.22335356 0.38962522 0.85162294 0 0 0
0.22643302 0.39761755 0.86909211 0 0 0
0.22964145 0.40594462 0.88729298 0 0 0
0.23298715 0.41462794 0.90627253 0 0 0
0.23647912 0.42369083 0.92608178 0 0 0
0.25626824 0.03725484 1.21791658 95 89 93
0.25027178 0.03716006 1.22335787 93 89 91
0.25314314 0.04913560 1.22912353 93 89 91
0.25700472 0.06526072 1.23665543 92 89 92
0.24012713 0.43315879 0.94677633 0 0 0
0.24394193 0.44305956 0.96841693 0 0 0
0.24793519 0.45342353 0.99106997 0 0 0
0.25211975 0.46428397 1.01480818 0 0 0
0.25650966 0.47567743 1.03971136 0 0 0
0.27411949 -0.34432461 1.37399391 89 89 94
0.27284688 -0.33450448 1.37189866 88 89 93
0.26921330 -0.33224450 1.38157435 92 92 96
0.27649328 -0.22726859 0.46792463 60 59 59
0.27773708 -0.08188026 0.46671375 73 72 74
0.27501315 -0.07352341 0.46285752 71 70 72
0.26437051 0.03714741 1.21440592 95 92 95
0.26376285 0.03398515 1.22142673 96 90 94
0.26449862 0.04143593 1.21704102 97 91 95
0.26413468 0.04726705 1.22551024 94 90 93
0.27559631 0.13368174 0.55249491 114 106 105
0.27283822 0.14149822 0.55449985 115 108 108
0.26112047 0.48764417 1.06586766 0 0 0
0.26596928 0.50022852 1.09337389 0 0 0
0.27107495 0.51347959 1.12233746 0 0 0
0.27645847 0.52745187 1.15287733 0 0 0
0.29193101 -0.36131552 0.75052213 73 73 76
0.29737797 -0.34409601 0.73924953 74 74 74
0.29201785 -0.34802329 0.74845992 77 77 78
0.29014718 -0.34423019 1.37065584 91 90 95
0.29202049 -0.33926443 0.75074470 76 77 78
0.29335641 -0.32782204 1.35598165 90 89 96
0.28951117 -0.33124736 1.36771706 92 90 98
0.29110000 -0.32114100 1.38345277 89 88 98
0.28588142 -0.31176655 1.35308295 87 86 92
0.28818230 -0.31427114 1.36397302 88 88 92
0.29110122 -0.31755798 1.38345850 88 87 92
0.29038741 -0.26673071 0.51867465 64 63 63
0.29368901 -0.26754167 0.52120139 63 63 64
0.29974724 -0.24220972 0.47941448 43 43 45
0.29912591 -0.24132047 0.48165412 42 42 43
0.28554095 -0.25375533 0.51671668 64 64 66
0.28608976 -0.25901298 0.52038787 64 64 66
0.29100985 -0.23217167 0.47641155 54 54 55
0.28889562 -0.22373124 0.48066094 55 55 57
0.28326802 -0.08202718 0.46491139 61 57 64
0.28193850 -0.07863839 0.46421642 54 53 56
0.28214318 0.54220575 1.18512559 0 0 0
0.28815508 0.55780882 1.21922994 0 0 0
0.29452321 0.57433647 1.25535524 0 0 0
0.31253140 -0.47041812 0.91442759 73 73 75
0.31426115 -0.47116966 0.92104870 73 73 73
0.30047962 -0.32980251 1.35038221 91 90 97
0.30140412 -0.24165843 0.47941480 45 45 47
0.30118024 -0.24361527 0.48133612 45 45 46
0.30135097 -0.23577900 0.47883149 47 47 49
0.30161434 -0.23208106 0.48058893 47 48 50
0.31886685 -0.21127545 0.59774012 74 74 74
0.30128026 0.59187347 1.29368675 0 0 0
0.30846295 0.61051512 1.33443272 0 0 0
0.31611279 0.63036931 1.37782896 0 0 0
0.33719066 -0.74272758 1.89885676 86 87 89
0.33909032 -0.74361145 1.90955448 86 86 88
0.33820543 -0.74296659 1.94238353 86 85 87
0.33020881 -0.73449790 1.87781680 86 87 89
0.33134208 -0.73574483 1.89356744 85 85 86
0.32815797 -0.73222404 1.90741496 87 86 88
0.33461149 -0.73329716 1.93133534 88 87 89
0.33682348 -0.73139164 1.94736281 91 90 91
0.33815497 -0.72541324 1.96948009 90 90 91
0.33374037 -0.72883316 1.99090187 87 87 88
0.33846439 -0.70842381 1.95359498 89 89 89
0.33449251 -0.70963919 1.96999224 84 84 86
0.33050112 -0.70841650 1.98431969 86 84 88
0.33615850 -0.69213367 1.96776648 84 85 89
0.33484986 -0.69993204 1.98213995 87 86 93
0.33175872 -0.48193302 0.91607483 72 72 73
0.32729819 -0.47109655 0.91415511 73 73 75
0.32985048 -0.21139173 0.59924136 73 72 72
0.32833925 -0.20859039 0.60121243 72 72 72
0.32427692 0.65155816 1.42414248 0 0 0
0.33300897 0.67422104 1.47367787 0 0 0
0.35246807 -0.76435947 1.92858803 85 89 91
0.35213967 -0.77261415 1.94517428 85 89 92
0.35031873 -0.74272758 1.89885676 82 82 84
0.35145772 -0.74624360 1.90915119 85 86 88
0.35063207 -0.74959194 1.92949522 85 85 87
0.35082852 -0.74620301 1.94909425 84 83 86
0.35231519 -0.74818454 1.96490383 85 84 86
0.35328752 -0.73909241 1.91494870 84 84 86
0.34871098 -0.72693507 1.93545434 89 89 91
0.34881762 -0.72964388 1.94797530 89 89 91
0.34702379 -0.71350597 1.93352615 89 89 90
0.34430614 -0.71090948 1.95118214 89 89 90
0.34552285 -0.70403421 1.96490383 88 88 92
0.34295458 -0.69867569 1.93131578 88 88 90
0.34089208 -0.69303754 1.95781341 85 86 91
0.34005728 -0.48641866 0.92481834 74 74 74
0.34237039 0.69851732 1.52678347 0 0 0
0.35243171 0.72463012 1.58385944 0 0 0
0.36067277 -0.76092982 1.93683386 90 90 92
0.36321703 -0.74736696 1.91494870 88 88 90
0.36335979 -0.74775320 1.92448854 89 89 93
0.36521776 -0.74713268 1.95218749 87 87 90
0.36589989 -0.74818456 1.96490383 87 87 89
0.37152302 0.39915569 1.23365313 115 109 110
0.37610385 0.40957872 1.23553182 118 115 113
0.37502808 0.41236094 1.24763304 119 114 114
0.37714872 0.42204374 1.23929036 119 116 111
0.37718806 0.42533589 1.25320605 120 115 112
0.37723809 0.43472049 1.26473830 124 119 118
0.36327448 0.75277108 1.64536858 0 0 0
0.37499344 0.78318608 1.71184814 0 0 0
0.38947450 0.39604980 1.23393993 116 109 107
0.39536461 0.39849612 1.24156010 119 108 105
0.38386493 0.41118145 1.23838580 118 113 109
0.39183589 0.41132869 1.24903678 117 113 109
0.38037136 0.42201632 1.23815966 120 116 112
0.38970467 0.42621418 1.25535928 120 116 112
0.39058068 0.43450269 1.26473592 121 119 118
0.39584458 0.44077657 1.27065122 123 121 120
0.38769928 0.81616235 1.78392589 0 0 0
0.41803430 -0.40441265 0.81707124 67 66 67
0.41677993 -0.41039684 0.82334611 67 67 68
0.41753829 -0.39628606 0.81288713 67 67 68
0.41751128 0.02477655 0.49470175 73 73 74
0.41616548 0.30510415 1.87392625 104 97 104
0.40237142 0.41369359 1.25381231 119 113 112
0.40188767 0.43641246 1.27068007 119 117 115
0.40026292 0.44201899 1.27423275 123 121 120
0.40152210 0.85203761 1.86234021 0 0 0
0.41661599 0.89121175 1.94796503 0 0 0
0.42170334 -0.40370430 0.81146180 66 66 67
0.42001393 -0.41371277 0.82168710 67 67 69
0.42175101 -0.39687585 0.80887276 66 66 67
0.42513637 0.02724281 0.49656567 74 74 76
0.42667402 0.03054091 0.50058490 75 74 76
0.43205631 0.21655694 0.45272787 108 138 150
0.43171112 0.22407327 0.45490232 30 37 40
0.43409245 0.22952685 0.46104670 0 0 0
0.43530091 0.29679463 1.87265080 100 95 98
0.43289438 0.29503940 1.88829870 100 96 100
0.43687499 0.29521766 1.90419054 100 96 99
0.42895783 0.30418780 1.87329210 103 97 101
0.43054082 0.30738635 1.88960902 104 97 102
0.43707643 0.33013605 1.85385501 116 108 111
0.45432196 -0.26291966 0.45205033 72 76 77
0.45263322 -0.25796232 0.45108310 74 75 77
0.44998799 -0.12229439 0.67910046 69 68 71
0.45643462 -0.12170557 0.68214639 67 66 69
0.45563752 -0.10947734 0.67904670 67 67 69
0.45530724 -0.11624296 0.68248101 66 66 69
0.44363762 0.29151626 1.89093012 100 94 99
0.44901703 0.28979067 1.91186629 100 93 98
0.45255890 0.28545566 1.92721243 101 92 97
0.45099252 0.30738277 1.90822107 100 97 98
0.45515403 0.31854424 1.92582905 106 102 103
0.45431450 0.32758231 1.81134316 114 107 108
0.45004339 0.33073141 1.82766277 116 109 110
0.44967623 0.33040638 1.84857047 118 109 112
0.45089170 0.33056158 1.86954267 116 108 111
0.45126066 0.32965273 1.89093014 112 107 109
0.45690519 0.33116938 1.91225159 111 107 110
0.45663825 0.32732463 1.92858803 109 102 106
0.46924212 -0.24237081 0.55473648 71 72 76
0.47151940 -0.24489756 0.56047288 68 69 72
0.46825230 -0.23423751 0.55145830 69 71 75
0.47884289 -0.20157350 0.58810755 70 70 74
0.47727099 -0.19645979 0.58498391 72 72 75
0.46093415 -0.12057805 0.68460690 68 67 69
0.46127920 -0.10923841 0.67884238 71 71 73
0.46152851 -0.11337357 0.68426113 69 69 71
0.47175383 -0.03078241 0.45181796 75 75 77
0.46346914 0.32554141 1.81194411 114 106 107
0.46405898 0.32319324 1.82969761 112 107 108
0.46166967 0.32332069 1.84545279 112 106 108
0.46003497 0.32683098 1.87781680 113 107 109
0.46160750 0.32747890 1.89091539 111 106 108
0.46285944 0.32905436 1.90955448 112 108 110
0.46579586 0.32900348 1.92860365 111 106 109
0.46771851 0.32688146 1.95359678 107 100 104
0.47599223 0.52767650 1.39341297 121 119 114
0.47676389 0.53118646 1.40205288 121 120 114
0.47770467 0.54645768 1.39771509 125 123 124
0.49026764 -0.20418078 0.58762460 71 71 74
0.49083698 -0.19521827 0.58840034 71 71 74
0.49243904 0.53372038 1.39389620 119 117 115
0.49087405 0.53400015 1.40387206 120 118 114
0.48052315 0.54605504 1.39771509 123 121 121
0.49127515 0.54733850 1.40746626 119 117 118
0.49799827 0.55562255 1.42115688 120 116 117
0.49857616 0.56454201 1.41582260 136 136 136
0.49825982 0.56328538 1.42190328 132 131 132
0.51357319 -0.08207780 0.55412931 78 78 82
0.51629442 -0.08073065 0.56070459 80 81 85
0.51770555 -0.07563336 0.55787530 79 80 82
0.51863675 -0.07258176 0.56153255 77 78 80
0.50083041 0.53689522 1.39483917 118 117 115
0.50220897 0.53369129 1.40544403 117 116 112
0.50536734 0.53965628 1.42115688 117 117 111
0.50486910 0.55006524 1.41342373 120 118 119
0.50582299 0.55208846 1.42243823 120 119 118
0.50921249 0.56181383 1.41818380 132 131 131
0.50666481 0.56274604 1.42364699 130 129 129
0.53842059 -0.30019386 0.74127069 66 66 68
0.52404168 -0.29153263 0.45921450 77 83 88
0.53206063 -0.28671544 0.46246456 73 80 83
0.53769980 -0.28884768 0.73409919 67 67 69
0.53783178 -0.29922570 0.74046099 66 66 68
0.53061916 -0.26569010 0.45684146 74 82 84
0.53087981 -0.27943384 0.46177978 74 83 84
0.53708577 -0.27890258 0.73246205 69 69 71
0.53187009 -0.25432970 0.45604253 73 79 83
0.53013180 -0.25447021 0.46036802 73 78 80
0.53613788 -0.20535608 0.45242666 75 82 86
0.53551609 -0.19609070 0.45189193 78 86 90
0.52100495 -0.07220254 0.55908659 78 79 81
0.52471690 -0.06663465 0.56647813 77 78 79
0.52184859 -0.05939166 0.56514543 76 76 76
0.54957384 -0.30170387 0.73807068 65 65 68
0.55108955 -0.30377583 0.74324207 65 65 69
0.54797932 -0.28971335 0.72985802 66 67 70
0.54585344 -0.29970220 0.74005657 67 67 69
0.54157350 -0.27916022 0.73049096 65 66 69
0.54050943 -0.25364894 0.45603225 90 93 97
0.55453143 -0.02372162 0.69458613 74 74 78
0.55202630 -0.01457878 0.69284695 75 75 78
0.54441293 0.05426604 0.51971352 71 71 73
0.54409736 0.05357207 0.52090742 71 71 73
0.55953747 0.05867586 1.10585940 79 76 78
0.54499462 0.06120754 0.51925907 71 72 75
0.54456069 0.06131139 0.52068311 71 71 75
0.57940483 -0.05829547 0.47975361 80 85 90
0.56059109 -0.02379932 0.69527479 76 76 81
0.56061411 -0.00759414 0.69742155 75 75 77
0.56669281 0.05569269 1.09226230 80 77 80
0.56283377 0.05807790 1.10484879 80 78 81
0.57816799 0.06703773 0.54860900 72 71 75
0.57206103 0.06205084 1.09792825 80 79 79
0.57107989 0.07092237 1.10509603 79 78 80
0.56865844 0.07327563 1.12269223 79 78 80
0.57705249 0.07548314 1.14832115 81 81 83
0.57115286 0.08496270 1.11255811 76 76 76
0.57041899 0.08468103 1.12546029 78 79 79
0.57753419 0.08751845 1.14759275 80 80 82
0.59531882 -0.52177291 1.23567860 71 71 71
0.59562125 -0.51385997 1.23443499 74 72 74
0.59454293 -0.51140569 1.25108898 73 72 74
0.58744943 -0.51898497 1.26002204 75 74 76
0.59910703 -0.49717125 1.23029375 74 73 75
0.59829235 -0.49753481 1.25535524 76 75 77
0.58609338 -0.04787425 0.48643245 75 78 83
0.59260745 -0.03536435 0.49183265 76 79 82
0.59737427 0.05844342 0.59729037 77 77 78
0.59664236 0.05885916 0.60061306 77 76 77
0.58332246 0.07355592 0.55083872 71 71 73
0.59722675 0.06601534 0.59677635 77 77 80
0.59785912 0.06462798 0.60165207 76 76 79
0.58056271 0.07396697 1.10585940 82 81 85
0.58229914 0.07621623 1.16356666 83 82 84
0.58337476 0.08212825 0.55210823 67 67 70
0.58047521 0.09073830 1.12419879 76 76 76
0.58132041 0.09137364 1.15681430 76 77 78
0.58289498 0.08769961 1.16657590 83 83 85
0.59528681 0.13207181 0.49381967 64 69 75
0.59821618 0.27583730 1.06252635 110 108 105
0.59140090 0.29375546 1.03455497 113 110 108
0.59207352 0.29390560 1.04648187 118 110 108
0.59639464 0.28939673 1.07154289 114 106 105
0.59058646 0.30246107 1.03299488 113 112 106
0.59134399 0.30404419 1.04647232 113 110 106
0.59728003 0.30749393 1.06086361 113 109 106
0.61117273 -0.52833402 1.21327452 66 66 68
0.61200425 -0.52216065 1.22835897 69 69 71
0.61035495 -0.51148380 1.23308991 75 73 75
0.60211935 -0.50588116 1.24963027 74 72 74
0.60147389 -0.49615961 1.23254451 74 73 75
0.60260552 -0.49810002 1.25350063 75 75 77
0.61704769 -0.32760637 0.62693718 72 73 75
0.61593949 -0.31619926 0.62713886 71 72 75
0.60151499 0.05566814 0.59807598 77 78 80
0.60299267 0.05425020 0.60216651 76 76 78
0.60079963 0.06562535 0.60411662 77 75 78
0.60077451 0.13892266 0.49830512 62 74 79
0.60174070 0.13870376 0.50093661 62 70 74
0.60245198 0.14047915 0.49955183 66 75 80
0.60738241 0.15081178 0.50505859 68 75 85
0.61662796 0.16480845 0.51372265 71 84 97
0.60339687 0.28929826 1.07242087 110 107 107
0.61244863 0.29375751 1.08116722 112 108 109
0.62837478 -0.52470488 1.21607773 70 70 70
0.62806776 -0.52418831 1.22802610 70 70 71
0.63892835 -0.52640235 1.24156010 71 71 73
0.62959976 -0.51558726 1.20621517 73 72 73
0.62037164 -0.51949912 1.23029375 71 71 73
0.63169253 -0.34574831 0.63335171 72 75 77
0.62512426 -0.33317721 0.62803001 72 73 75
0.62678154 -0.30169485 0.61144878 72 78 78
0.62499567 -0.31359306 0.62687707 72 74 76
0.63011636 -0.29184927 0.61009590 72 74 77
0.63745455 0.11422422 0.85883863 75 75 79
0.63683499 0.11606722 0.86170191 74 74 78
0.63691206 0.12765699 0.85748398 62 62 64
0.63823587 0.12572587 0.86328830 63 63 68
0.62230284 0.17058420 0.51780754 81 99 111
0.62495047 0.17497275 0.52179085 76 91 99
0.64123416 -0.52419955 1.22142673 73 73 73
0.64205106 0.11527916 0.85841145 75 75 78
0.64169967 0.11253483 0.86109074 76 76 78
0.64284117 0.12470523 0.85757366 71 71 74
0.64129275 0.12448409 0.86603791 66 66 72
0.67760847 0.13807644 0.56943982 69 72 79
0.67756558 0.14426487 0.56930350 66 68 73
0.69606805 0.00457710 0.71691600 73 73 75
0.69927279 0.00211747 0.72193120 74 74 76
0.68464991 0.13527057 0.57162336 75 79 86
0.68129650 0.14241074 0.56941786 74 76 80
0.71338627 -0.02299609 0.73764364 75 75 77
0.71564053 -0.02394585 0.74340067 75 75 77
0.70403996 -0.00982926 0.72683354 73 73 75
0.70043397 0.00087193 0.72269917 75 75 77
0.73028629 -0.45292128 1.07797735 59 60 61
0.73620395 -0.45461830 1.08151264 59 60 61
0.73316716 -0.30792739 1.21632830 69 67 69
0.73803434 -0.30739458 1.22230864 69 68 70
0.75661400 -0.46299275 1.09250936 59 58 63
0.75202354 -0.45148526 1.07614758 61 60 64
0.75226589 -0.45564059 1.08680083 60 59 63
0.75852495 -0.32190251 1.21486384 61 61 63
0.74625077 -0.30649402 1.21488831 56 56 57
0.75036166 -0.31112950 1.22358870 57 56 58
0.74334049 -0.29987866 1.21922994 54 52 54
0.77144614 -0.48101968 1.09869015 60 61 62
0.77073786 -0.48605410 1.10877981 59 59 61
0.77590172 -0.49517135 1.12340546 59 59 59
0.76501043 -0.47181406 1.09559301 60 60 62
0.76695859 -0.47595355 1.10116245 60 60 61
0.76186103 -0.32175781 1.21432829 63 62 64
0.76318824 -0.32121171 1.22289920 61 60 62
0.76290834 -0.31381299 1.21661210 63 63 65
0.76777616 -0.30861250 1.22680464 65 64 67
0.76522216 -0.29700252 1.22474182 65 65 67
0.79885667 -0.52457721 1.15462610 59 59 59
0.78470168 -0.50428963 1.13503206 60 60 60
0.79516687 -0.51499089 1.14842692 60 60 60
0.78255548 -0.49801781 1.12420082 60 60 60
0.78269738 -0.31223908 1.23477566 66 65 67
0.79458266 -0.31568924 1.24841964 65 65 67
0.79969770 -0.30539686 1.67795014 82 81 83
0.79810047 -0.30860771 1.71184814 82 81 83
0.79917794 -0.31166115 1.72053766 81 81 83
0.79804156 -0.29860792 1.67246664 80 79 81
0.79487231 -0.28522182 1.69594615 80 79 80
0.79534154 -0.28717020 1.70855582 80 79 80
0.79823011 -0.29903799 1.72491562 87 87 89
0.79550341 -0.27657942 1.69685328 81 81 83
0.79166195 -0.27610436 1.70754156 81 80 82
0.80062622 -0.52836204 1.15878952 61 60 60
0.80136305 -0.52314049 1.16276479 59 59 59
0.81495237 -0.32125413 1.71618187 84 83 85
0.80568352 -0.32288900 1.72491562 84 83 83
0.80675417 -0.31030025 1.69686385 82 81 83
0.80646851 -0.30814831 1.71423604 82 81 83
0.80675562 -0.31209607 1.72297360 82 82 83
0.80275857 -0.28868930 1.69050336 81 80 80
0.80771587 -0.29440074 1.70840724 81 79 79
0.80762923 -0.29865851 1.72272664 83 82 83
0.80090934 -0.27104881 1.69897699 84 80 83
0.80328001 -0.27458061 1.71185356 81 79 81
0.80764061 -0.27036947 1.72272664 78 77 79
0.95701900 -0.15212850 1.31757528 70 70 73
0.96136832 -0.15113768 1.31885576 68 67 73
0.97401815 -0.14975299 1.32904518 72 72 75
0.96136832 -0.13062187 1.31885576 73 72 75
0.96820261 -0.13579362 1.32958295 71 70 74
0.99029376 -0.14988138 1.33266990 74 74 77
1.05969381 -0.93364793 1.94796503 65 64 67
1.06894562 -0.93309249 1.95257576 64 63 65
1.07570088 -0.93497431 1.96490383 62 62 64
1.08820659 -0.94216868 1.99087608 65 64 66
1.08538914 -0.93701005 1.97636104 65 64 66
1.08513689 -0.93974984 1.98213995 64 64 66
1.45852470 0.07846509 1.55479777 78 78 80
1.47474182 0.03986436 1.56919408 75 75 77
1.47628981 0.05453561 1.57192679 75 75 76
1.46855688 0.07757547 1.53716969 81 80 82
1.47018812 0.07513700 1.55093346 77 77 79
1.47344280 0.07012410 1.56666816 76 76 78
1.47721848 0.07710600 1.58201775 80 80 81
1.47189450 0.08174615 1.54066324 80 79 81
1.47270277 0.08152062 1.56703646 79 79 80
1.47686112 0.08247660 1.58016741 81 81 83
1.48317377 0.04908685 1.57527339 76 76 76
1.49051888 0.04976221 1.58219889 75 75 75
1.48073232 0.07191168 1.55837202 78 77 78
1.48472757 0.06953168 1.57243598 76 76 77
1.48694360 0.06310090 1.58510164 76 77 77
1.48614159 0.08271966 1.56921089 79 79 81
1.48874726 0.08554739 1.59068599 80 80 81
1.49450893 0.08897081 1.60584400 80 79 80
1.50573199 0.04750027 1.59129788 74 74 75
1.51065359 0.08856248 1.59131292 79 79 81
1.50053096 0.08992891 1.61595428 80 79 81
1.50384529 0.09079361 1.62304719 79 79 81
1.64500034 -0.50521797 1.74714386 76 76 78
1.65781856 -0.50611138 1.76075804 78 78 82
1.67188770 -0.56008863 1.81740439 78 78 80
1.66826791 -0.56310797 1.82720172 79 79 81
1.67654860 -0.51585412 1.78392589 75 76 78
1.69134226 -0.56184614 1.82722304 77 77 79
1.69761997 -0.56605703 1.84713048 78 78 80
1.69552171 -0.57071805 1.86234021 77 77 79
1.69544697 -0.54124123 1.81740439 77 78 80
1.69797669 -0.54523535 1.82932580 77 78 79
1.69194639 -0.54882389 1.85723794 77 78 80
1.69683943 -0.54867526 1.86473629 76 78 79
1.68678188 -0.52306694 1.79812157 78 79 82
1.69034514 -0.52926732 1.81056544 76 78 81
1.69391419 -0.53281214 1.82592037 77 80 82
1.69040644 -0.53442734 1.85554647 77 78 80
1.69544044 -0.53604949 1.86491251 77 78 80
1.68529443 -0.51639809 1.79653593 75 76 79
1.69067579 -0.51405596 1.80703584 74 75 79
1.70112467 -0.56298476 1.83710527 76 77 79
1.70986710 -0.56400001 1.85217044 77 78 80
1.71085533 -0.56615499 1.87130250 77 78 79
1.70785141 -0.56892270 1.88303292 76 76 77
1.70318112 -0.55159163 1.83324942 76 77 79
1.70970553 -0.55101454 1.85091733 79 80 81
1.70972054 -0.55176748 1.86992476 79 80 81
1.70556184 -0.53461623 1.84879899 78 80 83
1.70000470 -0.51434904 1.82228994 74 75 79
1.72221404 -0.56776744 1.87651995 80 81 82
2.14610291 -0.40044191 1.92582905 76 78 80
2.15836644 -0.39938247 1.93683386 75 78 81
2.17993236 -0.44124961 1.95922494 75 75 76
2.16990952 -0.42911817 1.95021701 72 73 76
2.17009112 -0.40890131 1.95038017 75 77 79
2.19246308 -0.44424631 1.97253092 75 75 76
2.19239151 -0.42911488 1.97348845 72 73 76
2.19558287 -0.40924114 1.97636104 78 80 83
2.19262481 -0.39783175 1.97063243 74 77 82
2.20542860 -0.46182728 1.98213995 73 74 74
2.21095449 -0.45147346 1.98943153 74 75 77
2.21014071 -0.43112208 1.99380646 72 73 76
2.20644794 -0.41303849 1.98879768 75 79 81
2.21189618 -0.39617932 1.98795259 75 75 84
