ply
format ascii 1.0
element vertex 1103
property float x
property float y
property float z
property uchar red
property uchar green
property uchar blue
end_header
-0.12987301 0.13041909 0.72416342 175 175 176
-0.12978324 0.15034187 0.72366358 177 176 177
-0.12971124 0.17026053 0.72326282 177 177 177
-0.12964430 0.19016398 0.72289036 178 178 178
-0.12992919 0.21000316 0.72447635 154 153 150
-0.12999831 0.23033949 0.73140530 190 190 182
-0.13011304 0.24690110 0.73770776 190 189 180
-0.12962645 0.25627544 0.74129358 187 187 178
-0.12996013 0.26991047 0.74648605 187 186 178
-0.12997923 0.29026796 0.75410717 187 187 177
-0.13019051 0.30324013 0.75884284 186 185 176
-0.12997343 0.31314418 0.76225632 183 183 174
-0.13008550 0.33019026 0.76806758 143 143 136
-0.13012946 0.34988955 0.77506832 0 0 0
-0.12962274 0.36182294 0.77907964 0 0 0
-0.13010137 0.37209166 0.78233899 0 0 0
-0.12988671 0.38985551 0.78788186 0 0 0
-0.13006273 0.40998832 0.79410331 0 0 0
-0.13010424 0.42470297 0.79856411 0 0 0
-0.12989097 0.43458141 0.80150637 0 0 0
-0.12998393 0.45030814 0.80603911 0 0 0
-0.11002543 -0.50072871 0.74225425 0 0 0
-0.10994709 -0.49011781 0.74172510 0 0 0
-0.10980579 -0.47028229 0.74077203 0 0 0
-0.10948781 -0.44804641 0.73958672 0 0 0
-0.11030819 -0.45788861 0.74013961 0 0 0
-0.11012828 -0.42999202 0.73864267 0 0 0
-0.11001803 -0.40979177 0.73790395 0 0 0
-0.11018910 -0.38987922 0.73853735 18 18 18
-0.10300617 -0.38281918 0.74000571 42 42 43
-0.11008894 -0.36934189 0.73967456 41 41 42
-0.10300149 -0.37788496 0.74002802 42 42 42
-0.10980255 -0.34997751 0.73920222 38 38 40
-0.11016215 -0.32987300 0.73887164 37 37 39
-0.11010250 -0.30991065 0.73847156 35 35 38
-0.11002975 -0.28993500 0.73798367 35 34 36
-0.10995299 -0.26997571 0.73746869 36 36 38
-0.10987858 -0.25004894 0.73696988 104 104 106
-0.11035318 -0.23005436 0.73638979 176 177 175
-0.11032754 -0.21020401 0.73571735 178 179 178
-0.11023216 -0.19032913 0.73508130 180 180 180
-0.11013520 -0.16985117 0.73443452 180 180 180
-0.11004011 -0.15004540 0.73380030 181 181 182
-0.10994973 -0.13027945 0.73319747 182 182 182
-0.10986083 -0.10991432 0.73260529 181 181 182
-0.10977020 -0.08958025 0.73200131 93 93 96
-0.10967670 -0.06991025 0.73137864 35 34 38
-0.10957281 -0.05026869 0.73068580 33 32 36
-0.10948104 -0.03003637 0.73007355 32 32 35
-0.11002540 -0.00983870 0.72949887 32 32 35
-0.11032626 0.01047664 0.72882180 31 31 35
-0.11044083 0.03044970 0.72808211 32 31 34
-0.11032452 0.05053155 0.72731492 71 71 75
-0.11021512 0.07057511 0.72659421 182 182 182
-0.11010091 0.09057486 0.72584158 185 185 186
-0.10998470 0.11053113 0.72507536 185 186 186
-0.10989227 0.13047360 0.72446597 186 187 187
-0.10982055 0.15041049 0.72399347 187 188 188
-0.10976550 0.17034722 0.72363072 188 188 188
-0.10971739 0.19027579 0.72331434 192 193 193
-0.10993363 0.21007848 0.72473862 162 161 159
-0.10996769 0.23043280 0.73153849 193 193 185
-0.11004724 0.24626666 0.73754827 191 190 182
-0.10987327 0.25584634 0.74123007 190 190 181
-0.11002989 0.26999066 0.74664790 189 188 179
-0.11005505 0.29021427 0.75423901 188 187 178
-0.11004466 0.30334804 0.75903480 186 187 177
-0.10986373 0.31314516 0.76235278 188 187 176
-0.11008874 0.33023985 0.76819567 120 119 113
-0.11018408 0.34999738 0.77532484 0 0 0
-0.10966077 0.36192799 0.77923993 0 0 0
-0.10989989 0.37219290 0.78246603 0 0 0
-0.11003739 0.38972202 0.78787710 0 0 0
-0.11000849 0.40986927 0.79408135 0 0 0
-0.11009306 0.42471166 0.79858044 0 0 0
-0.10999535 0.43466271 0.80153239 0 0 0
-0.10990083 0.45012872 0.80596414 0 0 0
-0.09013915 -0.50072326 0.74224618 0 0 0
-0.09007152 -0.49009426 0.74168929 0 0 0
-0.08995324 -0.47024652 0.74071571 0 0 0
-0.08987523 -0.44841168 0.73960889 0 0 0
-0.08988232 -0.45836068 0.74013172 0 0 0
-0.09034914 -0.43003725 0.73872070 0 0 0
-0.09026810 -0.40987803 0.73805955 0 0 0
-0.09046391 -0.39247495 0.73823538 9 9 9
-0.08916397 -0.38264559 0.74010658 42 42 43
-0.09069161 -0.36622270 0.73978036 40 40 40
-0.08860184 -0.37563154 0.74012410 40 40 40
-0.09004991 -0.34979272 0.73946513 37 37 39
-0.09039849 -0.32998808 0.73912931 34 34 36
-0.09034888 -0.31001630 0.73872350 33 33 35
-0.09029091 -0.29003946 0.73824946 33 33 35
-0.09022647 -0.27006867 0.73772271 34 34 36
-0.09016669 -0.25013859 0.73723405 104 104 107
-0.09009962 -0.23021699 0.73668595 177 177 177
-0.08987674 -0.20983965 0.73600263 179 179 179
-0.09007845 -0.18996943 0.73534541 180 181 181
-0.08985754 -0.16991391 0.73470582 181 181 181
-0.08978037 -0.15010158 0.73407509 181 182 182
-0.08970678 -0.13032850 0.73347349 181 182 183
-0.08963719 -0.10995922 0.73290494 181 181 182
-0.08956610 -0.08961971 0.73232379 93 93 97
-0.08957055 -0.07001084 0.73170872 32 31 35
-0.09003600 -0.05029030 0.73099981 30 29 33
-0.08996087 -0.03004927 0.73038977 29 29 32
-0.09052294 -0.00984322 0.72983371 29 29 32
-0.09044207 0.01033058 0.72918215 30 29 32
-0.09035115 0.03046509 0.72844928 31 30 34
-0.09025390 0.05055590 0.72766536 68 68 71
-0.09032785 0.07026846 0.72697033 182 182 183
-0.09005882 0.09007526 0.72625016 184 184 186
-0.08984953 0.11038722 0.72547161 185 185 186
-0.08990425 0.13054214 0.72484664 186 186 187
-0.08984704 0.15049199 0.72438556 187 188 188
-0.08980079 0.17043708 0.72401250 188 188 188
-0.08976815 0.19039063 0.72374989 194 195 194
-0.08992434 0.21015463 0.72500500 164 162 159
-0.08997687 0.23044603 0.73164287 195 194 186
-0.09014368 0.24629431 0.73765923 192 191 182
-0.09003059 0.25588969 0.74135561 189 189 180
-0.08995155 0.26996824 0.74675019 189 188 179
-0.09005476 0.29054175 0.75444523 187 187 177
-0.08972954 0.30329712 0.75906619 188 186 176
-0.08995675 0.31325181 0.76244874 187 186 176
-0.09004637 0.33033339 0.76842776 95 95 90
-0.09015128 0.35009841 0.77545734 0 0 0
-0.09015957 0.36189484 0.77930191 0 0 0
-0.08974689 0.37228877 0.78251433 0 0 0
-0.09011668 0.38963166 0.78779436 0 0 0
-0.08992797 0.41012644 0.79407457 0 0 0
-0.08980434 0.42533622 0.79867948 0 0 0
-0.09014894 0.43510770 0.80157812 0 0 0
-0.09020567 0.45018879 0.80587513 0 0 0
-0.07024569 -0.50066372 0.74215792 0 0 0
-0.07019657 -0.49006152 0.74163997 0 0 0
-0.07010877 -0.47024499 0.74071330 0 0 0
-0.07000586 -0.44846074 0.73962587 0 0 0
-0.07005333 -0.45835797 0.74012735 0 0 0
-0.06992665 -0.43007758 0.73879029 0 0 0
-0.06987045 -0.40995543 0.73819899 0 0 0
-0.07004353 -0.39348390 0.73814236 6 6 6
-0.06976419 -0.38380301 0.74032488 42 42 45
-0.07582252 -0.36355919 0.73992266 40 39 40
-0.06897613 -0.37136744 0.74026176 40 40 42
-0.07149963 -0.34905822 0.73980216 37 37 39
-0.06292449 -0.35528807 0.74006045 38 38 39
-0.06999691 -0.33017263 0.73954276 34 34 36
-0.06995826 -0.31018885 0.73913456 32 32 35
-0.06991293 -0.29019890 0.73865531 32 32 35
-0.06986310 -0.27021741 0.73812907 34 34 36
-0.06965333 -0.24995092 0.73765052 106 106 110
-0.06992687 -0.23002707 0.73706462 177 178 178
-0.06969699 -0.20975523 0.73637324 179 180 180
-0.06963536 -0.18985922 0.73572243 181 181 182
-0.06957385 -0.16999872 0.73507246 181 182 182
-0.06967589 -0.15029557 0.73444519 181 181 182
-0.07008954 -0.13038987 0.73381857 181 182 183
-0.07003542 -0.11001119 0.73325153 181 181 182
-0.06998052 -0.08966293 0.73267691 95 95 99
-0.07001049 -0.06990261 0.73205729 32 31 34
-0.07048702 -0.05031532 0.73136364 29 28 30
-0.07042999 -0.03006497 0.73077294 28 27 31
-0.07038082 -0.00984895 0.73026379 28 28 30
-0.07031940 0.01033687 0.72962645 29 28 31
-0.07024928 0.03048391 0.72889894 30 30 34
-0.07033671 0.05024516 0.72814203 59 59 64
-0.06995331 0.06966909 0.72747971 182 182 182
-0.07004378 0.08943419 0.72676737 184 184 185
-0.07008343 0.10957776 0.72597750 185 185 186
-0.06993408 0.12992593 0.72533172 186 187 188
-0.06975266 0.15031129 0.72486786 187 188 189
-0.06978678 0.17050566 0.72448027 188 189 189
-0.06979741 0.19051167 0.72420991 192 193 193
-0.06989755 0.21022250 0.72524296 163 161 157
-0.07011907 0.23037137 0.73171638 194 193 185
-0.06983512 0.24638541 0.73782655 194 192 184
-0.07018420 0.25594471 0.74151501 190 189 181
-0.07004976 0.27008807 0.74691798 189 188 180
-0.06985871 0.29026562 0.75440151 186 186 177
-0.06987972 0.30333769 0.75908700 187 186 178
-0.07018840 0.31324780 0.76243924 185 185 176
-0.06993762 0.33038039 0.76859853 71 71 67
-0.07004263 0.35007782 0.77541211 0 0 0
-0.07039069 0.36190914 0.77926525 0 0 0
-0.07006740 0.37212446 0.78239190 0 0 0
-0.06978994 0.38965396 0.78768455 0 0 0
-0.07002734 0.40968562 0.79381320 0 0 0
-0.07006301 0.42538928 0.79855548 0 0 0
-0.07019807 0.43530472 0.80148947 0 0 0
-0.06999191 0.45007932 0.80567918 0 0 0
-0.04971279 -0.50057471 0.74202598 0 0 0
-0.04968322 -0.49002640 0.74158728 0 0 0
-0.04962711 -0.47026964 0.74075212 0 0 0
-0.05039984 -0.44814074 0.73963764 0 0 0
-0.04954963 -0.45797646 0.74013484 0 0 0
-0.05013781 -0.43010910 0.73884469 0 0 0
-0.05010168 -0.41001919 0.73831385 0 0 0
-0.05034512 -0.39432454 0.73819272 3 3 3
-0.04928985 -0.38484213 0.74070599 44 44 46
-0.04945896 -0.37006934 0.74058419 40 40 42
-0.05843680 -0.34187650 0.73997665 37 36 37
-0.04949658 -0.35033143 0.74026925 38 38 39
-0.05409784 -0.32753295 0.73986969 34 34 36
-0.04587618 -0.33236440 0.74014344 35 35 36
-0.05040353 -0.30976426 0.73959195 33 33 36
-0.04169040 -0.31844572 0.74001704 33 33 35
-0.05005718 -0.28985590 0.73909915 32 32 35
-0.05021981 -0.26987876 0.73858095 35 34 36
-0.05008644 -0.24979493 0.73810057 109 110 111
-0.05004532 -0.22983206 0.73749379 177 178 178
-0.04999944 -0.20988179 0.73681778 180 180 180
-0.04995611 -0.18997724 0.73617973 181 181 181
-0.04991112 -0.17010143 0.73551638 181 182 182
-0.05003053 -0.14951536 0.73482149 181 181 183
-0.05049478 -0.12986244 0.73418498 181 181 182
-0.05041845 -0.11007100 0.73365043 180 180 181
-0.05037947 -0.08971271 0.73308358 97 97 99
-0.05033791 -0.07001536 0.73247929 33 31 35
-0.05029188 -0.05034602 0.73181086 30 29 32
-0.05025379 -0.03008482 0.73125727 29 28 30
-0.05022053 -0.00985575 0.73077333 27 27 30
-0.05017759 0.01034426 0.73014932 29 27 31
-0.05012640 0.03050506 0.72940403 31 30 32
-0.05007511 0.04999525 0.72865739 53 52 57
-0.05002859 0.06945167 0.72797908 181 182 182
-0.04998017 0.08949671 0.72727506 183 183 184
-0.04992706 0.10949292 0.72650274 184 184 185
-0.04988287 0.12947006 0.72586008 186 186 187
-0.04985248 0.14945283 0.72541847 187 188 189
-0.04994212 0.16958950 0.72504034 188 188 189
-0.04983917 0.18981960 0.72469611 190 191 191
-0.04969665 0.20991859 0.72544869 163 162 159
-0.05021333 0.23043527 0.73190811 194 193 184
-0.05039062 0.24613468 0.73790519 191 191 182
-0.04932264 0.25566120 0.74158866 190 188 179
-0.05000698 0.27010754 0.74707723 181 180 170
-0.04990088 0.29046131 0.75457599 168 166 158
-0.05090533 0.30302804 0.75907029 160 158 151
-0.05016126 0.31286491 0.76240270 147 142 135
-0.04972000 0.33032965 0.76871294 33 32 31
-0.04993821 0.35007400 0.77540389 0 0 0
-0.05018452 0.36189086 0.77922592 0 0 0
-0.05031878 0.37207108 0.78229671 0 0 0
-0.04988407 0.38981421 0.78759154 0 0 0
-0.04992905 0.41002805 0.79376260 0 0 0
-0.04967772 0.42557526 0.79842677 0 0 0
-0.05051791 0.43532773 0.80130377 0 0 0
-0.04978291 0.44992571 0.80540439 0 0 0
-0.02982912 -0.50050195 0.74191811 0 0 0
-0.02981377 -0.48999360 0.74153800 0 0 0
-0.02978419 -0.47030472 0.74080769 0 0 0
-0.03063153 -0.44681052 0.73968312 0 0 0
-0.02952088 -0.45678335 0.74017869 0 0 0
-0.03048641 -0.42995735 0.73891175 0 0 0
-0.03032573 -0.41007081 0.73840705 0 0 0
-0.03062556 -0.39504745 0.73839475 2 2 2
-0.02951571 -0.38567291 0.74111298 45 45 44
-0.02979015 -0.36987444 0.74097565 41 42 43
-0.02977907 -0.34989428 0.74070371 39 39 39
-0.03017932 -0.32979510 0.74047461 36 36 38
-0.03580305 -0.30571961 0.73987157 33 32 35
-0.02807694 -0.31177758 0.74021782 34 33 36
-0.03071118 -0.28958923 0.73959014 33 32 35
-0.02207945 -0.29842495 0.74006119 34 32 36
-0.03035176 -0.26992060 0.73906312 35 34 36
-0.03033055 -0.24994505 0.73854410 111 110 113
-0.03030530 -0.22996799 0.73792991 178 179 179
-0.03027898 -0.21001664 0.73729138 180 181 180
-0.03025298 -0.19010091 0.73665895 181 182 182
-0.03022551 -0.17021085 0.73598951 182 182 183
-0.03019686 -0.14971534 0.73529252 181 182 183
-0.03017054 -0.12990271 0.73465089 180 181 181
-0.03014850 -0.11014012 0.73411135 180 180 181
-0.03012503 -0.08976853 0.73353952 97 97 100
-0.03010054 -0.07005969 0.73294349 33 32 35
-0.03007484 -0.05038104 0.73232061 30 29 32
-0.03005236 -0.03010610 0.73177357 29 28 31
-0.03003240 -0.00986267 0.73128676 28 27 31
-0.03000735 0.01035182 0.73067721 28 28 31
-0.02997630 0.03052665 0.72992070 31 30 32
-0.02994514 0.05002972 0.72916156 50 50 53
-0.02991590 0.06949633 0.72844798 181 181 181
-0.02988762 0.08955654 0.72776024 183 183 184
-0.02985696 0.10957035 0.72701623 184 185 186
-0.02983079 0.12956260 0.72637870 185 185 186
-0.02981262 0.14955923 0.72593499 186 187 187
-0.02979721 0.16954705 0.72555971 188 188 189
-0.02978230 0.18951697 0.72519447 188 188 188
-0.02980500 0.20973662 0.72573565 155 154 151
-0.03006782 0.23057196 0.73212494 159 156 151
-0.03030543 0.24577487 0.73791161 151 149 146
-0.02992655 0.25528241 0.74155226 148 147 143
-0.03004247 0.27020157 0.74723280 133 127 119
-0.03034539 0.29053561 0.75476883 127 126 120
-0.02986352 0.30268612 0.75909946 136 135 130
-0.02999184 0.31255562 0.76235545 142 140 134
-0.02970962 0.32993817 0.76874256 26 25 25
-0.02970675 0.34949757 0.77533034 0 0 0
-0.02998288 0.36190148 0.77924882 0 0 0
-0.03009851 0.37208901 0.78224878 0 0 0
-0.03030482 0.39029623 0.78760377 0 0 0
-0.02985482 0.41048205 0.79373548 0 0 0
-0.03002824 0.42596756 0.79834428 0 0 0
-0.03013623 0.43580610 0.80121424 0 0 0
-0.03028284 0.44976147 0.80511058 0 0 0
-0.00995200 -0.50046764 0.74186726 0 0 0
-0.00994729 -0.48998199 0.74152064 0 0 0
-0.00993842 -0.47035069 0.74088051 0 0 0
-0.01069552 -0.44467389 0.73974998 0 0 0
-0.00919263 -0.45502753 0.74025286 0 0 0
-0.00991351 -0.42958253 0.73903727 0 0 0
-0.00990670 -0.41013215 0.73851758 0 0 0
-0.01015401 -0.39559929 0.73852477 4 5 5
-0.00973885 -0.38635459 0.74155167 49 49 48
-0.00994526 -0.37011968 0.74146747 44 44 45
-0.00990241 -0.35011590 0.74126296 41 41 43
-0.00997691 -0.33015910 0.74103148 39 39 41
-0.00993469 -0.31019992 0.74068650 38 37 40
-0.01538794 -0.28417034 0.73987362 34 34 36
-0.00836419 -0.29187774 0.74027831 37 36 39
-0.01039603 -0.26970488 0.73958292 36 36 38
-0.00161328 -0.27736845 0.74006121 37 37 38
-0.00991274 -0.25011125 0.73903502 112 112 115
-0.00990436 -0.23011661 0.73840695 177 178 177
-0.00989593 -0.21015515 0.73777786 179 180 180
-0.00981396 -0.19014783 0.73716728 181 181 181
-0.00994871 -0.17025008 0.73648426 181 181 181
-0.00986930 -0.14981817 0.73579756 180 180 181
-0.00986062 -0.12998986 0.73514350 180 180 180
-0.00985299 -0.11021001 0.73457691 179 179 179
-0.00984516 -0.08982367 0.73398901 98 98 101
-0.00983716 -0.07010267 0.73339321 34 33 36
-0.00982933 -0.05041492 0.73281513 33 32 35
-0.00982235 -0.03012786 0.73230281 33 32 35
-0.00981573 -0.00986979 0.73181689 32 31 35
-0.00980766 0.01035945 0.73121441 32 31 34
-0.00996038 0.03024401 0.73046546 32 32 35
-0.00962475 0.04974250 0.72972346 48 48 51
-0.00977750 0.06954596 0.72896868 180 180 180
-0.00976798 0.08961624 0.72824548 183 183 183
-0.00975826 0.10964579 0.72751659 184 184 185
-0.00974973 0.12965154 0.72687748 185 185 186
-0.00974351 0.14965631 0.72640651 185 186 186
-0.00973812 0.16964852 0.72599442 186 186 187
-0.00973254 0.18961517 0.72557112 185 185 185
-0.00973769 0.20979440 0.72593742 130 127 126
-0.00982229 0.23060706 0.73223667 145 142 138
-0.00989999 0.24580834 0.73801212 142 141 137
-0.00994866 0.25534685 0.74163725 137 134 128
-0.01002485 0.27023596 0.74732790 139 138 135
-0.01012583 0.29056776 0.75485241 139 137 133
-0.00952786 0.30271577 0.75917387 138 138 133
-0.00956779 0.31254915 0.76233971 151 148 141
-0.00964924 0.32984929 0.76886753 15 14 13
-0.00973122 0.34939391 0.77537888 0 0 0
-0.00977997 0.36190052 0.77924678 0 0 0
-0.00981670 0.37204745 0.78216180 0 0 0
-0.00988273 0.39019770 0.78740518 0 0 0
-0.00995949 0.41037002 0.79351886 0 0 0
-0.00968211 0.42619643 0.79821329 0 0 0
-0.01059525 0.43595952 0.80105398 0 0 0
-0.01010177 0.44961132 0.80484184 0 0 0
0.00992406 -0.50050835 0.74192760 0 0 0
0.00991940 -0.49002013 0.74157844 0 0 0
0.01001276 -0.47028625 0.74099164 0 0 0
0.00819141 -0.44246392 0.73986089 0 0 0
0.01035093 -0.45252262 0.74033389 0 0 0
0.00988915 -0.42972630 0.73928451 0 0 0
0.00998245 -0.41011169 0.73872246 0 0 0
0.00937173 -0.39661435 0.73878157 6 6 6
0.01019353 -0.38712193 0.74212639 87 88 88
0.00982468 -0.36987996 0.74200218 86 86 87
0.00992348 -0.34978698 0.74183350 88 88 89
0.00992021 -0.32980606 0.74159291 90 90 91
0.00995273 -0.30982239 0.74121821 92 92 93
0.00986884 -0.28977222 0.74071261 93 93 95
0.00652153 -0.26417920 0.73987727 67 67 71
0.01129553 -0.27230069 0.74024311 108 109 109
0.00977315 -0.25010822 0.73950558 115 115 118
0.00992340 -0.23021774 0.73887660 123 123 125
0.00983844 -0.21025538 0.73827056 121 121 124
0.00986724 -0.18971553 0.73763500 119 119 120
0.00985780 -0.16979220 0.73693366 115 115 118
0.00984852 -0.14990901 0.73624352 111 111 114
0.00983966 -0.13006623 0.73557529 109 109 112
0.01019918 -0.11011189 0.73499400 103 103 106
0.01045838 -0.08987187 0.73438222 122 122 124
0.01044959 -0.07013830 0.73376685 131 130 132
0.01044170 -0.05044194 0.73320856 133 132 135
0.01043474 -0.03014479 0.73271543 135 135 137
0.01042815 -0.00987565 0.73225092 136 136 138
0.01042001 0.01036604 0.73167264 137 137 139
0.01041027 0.02993966 0.73098324 138 138 139
0.01039973 0.04947259 0.73024354 140 139 141
0.01038861 0.06959322 0.72946494 94 94 99
0.01037784 0.08967362 0.72871272 89 89 93
0.01036712 0.10971294 0.72796239 90 89 93
0.01035759 0.12972591 0.72729492 90 90 94
0.01035055 0.14973619 0.72679452 91 91 95
0.01034477 0.16973979 0.72638502 90 90 94
0.01033792 0.18970469 0.72591464 89 89 92
0.01019186 0.20965647 0.72624561 86 85 86
0.01041518 0.22981739 0.73211158 142 140 135
0.01011142 0.24528747 0.73789807 129 128 124
0.00992096 0.25536574 0.74169210 127 126 123
0.00981664 0.26992928 0.74728303 116 115 113
0.01027748 0.29026153 0.75487627 129 128 128
0.01015624 0.30275976 0.75928425 121 123 126
0.01019698 0.31255074 0.76234385 120 120 120
0.01028721 0.32993018 0.76905647 2 2 2
0.01037301 0.34944189 0.77548588 0 0 0
0.01042333 0.36190722 0.77926125 0 0 0
0.01046108 0.37201482 0.78209354 0 0 0
0.00995975 0.39002494 0.78722064 0 0 0
0.00992561 0.41027574 0.79333661 0 0 0
0.00998576 0.42655450 0.79814968 0 0 0
0.01002119 0.43637173 0.80098266 0 0 0
0.01006641 0.44947492 0.80459781 0 0 0
0.02980607 -0.50059601 0.74205755 0 0 0
0.02979199 -0.49010469 0.74170651 0 0 0
0.02976923 -0.46987468 0.74113980 0 0 0
0.02226095 -0.44056300 0.73996176 0 0 0
0.02993283 -0.44982252 0.74044627 0 0 0
0.02916710 -0.42919230 0.73959619 0 0 0
0.03567394 -0.43804677 0.74006817 0 0 0
0.02968715 -0.40980754 0.73908216 0 0 0
0.02873761 -0.39701151 0.73904484 19 19 18
0.03011407 -0.38817259 0.74271111 181 182 177
0.02982700 -0.37002204 0.74255778 180 181 177
0.02981883 -0.35003189 0.74235287 179 180 176
0.02980858 -0.33003000 0.74209646 177 178 176
0.02979260 -0.30998429 0.74170174 176 177 175
0.02977118 -0.28990664 0.74117177 176 177 174
0.02974660 -0.26982941 0.74056465 175 176 174
0.02819282 -0.24674620 0.73978253 77 78 79
0.03250596 -0.25527871 0.74014293 167 167 164
0.02969290 -0.22973414 0.73922897 37 37 41
0.02966743 -0.20975046 0.73859857 35 35 37
0.02964180 -0.18979928 0.73796065 34 34 36
0.02961414 -0.16986974 0.73727024 34 33 37
0.02958635 -0.14997679 0.73657636 33 32 35
0.02956019 -0.13012801 0.73592485 32 32 35
0.02988279 -0.11048290 0.73531470 33 32 38
0.03014713 -0.08991417 0.73473063 129 129 132
0.03027688 -0.06986951 0.73415858 183 183 183
0.02994826 -0.05018268 0.73359492 184 184 184
0.03008193 -0.03016207 0.73313714 184 184 186
0.03006319 -0.00988143 0.73268179 185 184 185
0.03003887 0.01037191 0.73209125 185 184 185
0.03001044 0.02995666 0.73139901 183 183 183
0.02998001 0.04950065 0.73065542 178 178 178
0.02995030 0.06963708 0.72992636 43 42 47
0.03004261 0.08982793 0.72914473 32 31 34
0.03051709 0.10977873 0.72839883 32 30 33
0.03048956 0.12980546 0.72774083 31 30 33
0.03046848 0.14982793 0.72724007 31 30 33
0.03045140 0.16984457 0.72683337 30 29 33
0.03043307 0.18982984 0.72639266 32 31 33
0.03044305 0.20936575 0.72663817 62 61 62
0.03003924 0.22930304 0.73211541 136 134 132
0.02951329 0.24491377 0.73789755 126 125 123
0.02994896 0.25516498 0.74187413 152 152 146
0.03016556 0.26977244 0.74736614 132 130 128
0.02970020 0.28991749 0.75475620 141 140 136
0.02984181 0.30276561 0.75929891 147 146 141
0.02996249 0.31255833 0.76236214 134 132 127
0.03023626 0.33003998 0.76931305 0 0 0
0.03043391 0.34944609 0.77558780 0 0 0
0.02995547 0.36193411 0.77931916 0 0 0
0.03006245 0.37201983 0.78210425 0 0 0
0.02967715 0.39018400 0.78722176 0 0 0
0.02980473 0.41022437 0.79323744 0 0 0
0.02998454 0.42648715 0.79802366 0 0 0
0.03009074 0.43629923 0.80084960 0 0 0
0.03000364 0.44925456 0.80442982 0 0 0
0.05033712 -0.50069188 0.74219966 0 0 0
0.05031391 -0.49020422 0.74185726 0 0 0
0.05027722 -0.46998701 0.74131701 0 0 0
0.05023237 -0.44972451 0.74065437 0 0 0
0.04833074 -0.42585891 0.73982364 0 0 0
0.05214112 -0.43464303 0.74018334 0 0 0
0.05015694 -0.41005621 0.73953060 0 0 0
0.04761987 -0.39861733 0.73939568 1 1 1
0.05006370 -0.38992487 0.74296312 175 177 172
0.04987638 -0.37008637 0.74304715 181 182 177
0.04961962 -0.35009917 0.74284185 180 181 177
0.04990078 -0.33011983 0.74257573 178 178 177
0.05033455 -0.31017318 0.74215341 177 177 176
0.05029385 -0.29005672 0.74155501 177 177 175
0.05024997 -0.26995473 0.74090857 175 176 174
0.04464054 -0.24252404 0.73992283 41 41 45
0.05100110 -0.25093818 0.74030887 116 117 117
0.04994542 -0.22957759 0.73955994 35 34 37
0.05777371 -0.23921306 0.74004217 38 38 41
0.05011439 -0.20983899 0.73891014 33 32 34
0.05007197 -0.18988224 0.73828355 32 31 33
0.05002871 -0.16995563 0.73764335 30 30 32
0.04998271 -0.15005591 0.73696479 30 29 32
0.04993702 -0.13019286 0.73629152 31 29 34
0.04989301 -0.11037022 0.73564303 33 32 36
0.04985347 -0.08995445 0.73506065 129 129 132
0.04981753 -0.06957661 0.73453019 184 184 184
0.04978071 -0.04986096 0.73398690 185 185 185
0.04974846 -0.03017759 0.73351276 185 185 185
0.04971525 -0.00988612 0.73302409 185 185 185
0.04967381 0.01037642 0.73241237 185 185 186
0.04962701 0.02996995 0.73172238 183 183 184
0.04957911 0.04952518 0.73101539 179 179 179
0.04953502 0.06967904 0.73036461 44 43 47
0.04959484 0.08968481 0.72959365 31 30 33
0.05005989 0.10984184 0.72881783 30 28 31
0.05001500 0.12988093 0.72816396 30 29 31
0.04998114 0.14991645 0.72766962 28 28 30
0.04995263 0.16994284 0.72725388 28 27 30
0.05040163 0.19006180 0.72682222 30 28 32
0.05040078 0.20934116 0.72696221 49 47 49
0.04970334 0.22937730 0.73223617 123 120 116
0.05005143 0.24516439 0.73799044 139 138 136
0.05020451 0.25534958 0.74174360 130 126 123
0.04990180 0.27007976 0.74734829 137 135 132
0.05017919 0.29048662 0.75485134 130 128 123
0.04974861 0.30269252 0.75918713 119 117 111
0.04972917 0.31256765 0.76238351 128 126 122
0.05020010 0.33016109 0.76959690 0 0 0
0.05023964 0.34940094 0.77563050 0 0 0
0.04948832 0.36194500 0.77934262 0 0 0
0.04966532 0.37203195 0.78212969 0 0 0
0.04998833 0.39010380 0.78721619 0 0 0
0.05009293 0.41006334 0.79319140 0 0 0
0.04998360 0.42647623 0.79800322 0 0 0
0.05016106 0.43629196 0.80083623 0 0 0
0.05015001 0.44957174 0.80453923 0 0 0
0.07023238 -0.50077368 0.74232092 0 0 0
0.07020183 -0.49029698 0.74199778 0 0 0
0.07015381 -0.47009617 0.74148925 0 0 0
0.07009465 -0.44985092 0.74086293 0 0 0
0.06148424 -0.42160379 0.73998298 0 0 0
0.07031467 -0.43014472 0.74035176 0 0 0
0.06440847 -0.40833027 0.73987878 0 0 0
0.07262315 -0.40995062 0.74066632 19 20 19
0.06952727 -0.39030293 0.74361587 178 180 174
0.06970264 -0.36985059 0.74350368 181 181 177
0.06968747 -0.34985592 0.74334207 179 180 177
0.06988273 -0.32997709 0.74301655 178 179 175
0.07021272 -0.30973345 0.74252812 177 178 176
0.07019361 -0.29019437 0.74190673 177 177 176
0.07013108 -0.27007778 0.74124624 176 176 175
0.07006942 -0.24999883 0.74059370 106 107 108
0.06887202 -0.22642626 0.73976717 34 33 36
0.07196134 -0.23602564 0.74015848 38 37 40
0.06994123 -0.20993224 0.73923860 33 32 34
0.06988722 -0.18998046 0.73866621 32 30 33
0.06983178 -0.17005609 0.73807954 29 29 32
0.07013824 -0.14998787 0.73742275 28 27 31
0.07040966 -0.12970661 0.73671586 29 28 32
0.07020358 -0.10988101 0.73606307 32 31 35
0.07022661 -0.09001210 0.73553185 128 127 130
0.07017464 -0.06962008 0.73498818 183 183 183
0.07011971 -0.04989006 0.73441408 184 184 184
0.07006964 -0.03019322 0.73389076 186 185 185
0.07002143 -0.00989100 0.73338585 185 185 185
0.06996323 0.01038160 0.73277660 184 184 185
0.06989691 0.02998471 0.73208226 184 183 184
0.06983071 0.04955051 0.73138848 180 179 179
0.06977142 0.06971745 0.73076664 46 44 48
0.06969993 0.08983408 0.73001693 30 30 32
0.06962808 0.10990902 0.72926308 29 28 30
0.06956794 0.12996452 0.72863222 28 27 29
0.06952313 0.15001797 0.72816219 28 26 29
0.06948413 0.17005968 0.72775402 26 26 28
0.06990338 0.18994113 0.72729182 28 27 30
0.06989477 0.20968040 0.72731745 36 35 37
0.06990946 0.22933710 0.73222537 109 107 104
0.07014082 0.24504916 0.73789134 126 124 120
0.07006421 0.25541891 0.74174436 125 122 119
0.07011449 0.26986127 0.74732947 133 128 121
0.06992765 0.29023002 0.75479375 121 117 114
0.07007729 0.30278459 0.75927653 111 110 111
0.06977307 0.31248665 0.76243496 100 101 101
0.07016639 0.33022611 0.76974958 0 0 0
0.06998552 0.34954795 0.77570646 0 0 0
0.06969617 0.36195771 0.77936999 0 0 0
0.06994816 0.37205906 0.78218654 0 0 0
0.07014993 0.38997796 0.78725150 0 0 0
0.06996426 0.41042805 0.79336313 0 0 0
0.06998927 0.42651217 0.79807048 0 0 0
0.07023809 0.43633109 0.80090806 0 0 0
0.06986566 0.44947095 0.80459034 0 0 0
0.09013507 -0.50086016 0.74244911 0 0 0
0.09024315 -0.49019008 0.74215309 0 0 0
0.08990370 -0.47003670 0.74169779 0 0 0
0.08997489 -0.45001036 0.74112576 0 0 0
0.08992427 -0.42991217 0.74070697 0 0 0
0.08988244 -0.40935861 0.74153652 39 39 38
0.08973375 -0.39025823 0.74443477 180 182 177
0.08985319 -0.36998471 0.74402751 180 182 177
0.09030740 -0.35010033 0.74386120 179 180 177
0.09025988 -0.32999901 0.74347048 178 179 176
0.09019445 -0.30985678 0.74293258 178 178 176
0.09018906 -0.29025460 0.74227743 177 177 176
0.08996234 -0.27013217 0.74160331 176 176 174
0.08995637 -0.25012637 0.74097158 105 105 107
0.08415449 -0.22220975 0.73991211 33 33 37
0.09066126 -0.23114531 0.74033972 36 36 38
0.08945575 -0.20969619 0.73964146 33 32 33
0.09764520 -0.21821757 0.74004238 34 32 35
0.08973173 -0.19009726 0.73912041 31 30 32
0.08966214 -0.17016375 0.73854706 29 28 31
0.08993207 -0.15040912 0.73790063 28 27 30
0.09013091 -0.12970994 0.73716180 30 28 32
0.09005438 -0.10986732 0.73653581 33 32 36
0.08999205 -0.09007258 0.73602551 128 127 130
0.08992312 -0.06966495 0.73546186 184 183 183
0.08985184 -0.04992166 0.73487868 185 184 185
0.09034692 -0.03014215 0.73434965 185 185 186
0.09035928 -0.00989712 0.73384091 185 185 185
0.09028427 0.01038803 0.73323155 185 185 185
0.09019700 0.03000276 0.73252323 184 183 184
0.09011300 0.04958120 0.73184102 180 180 180
0.09003794 0.06976184 0.73123133 48 46 51
0.08995112 0.08989672 0.73052506 31 30 32
0.08986455 0.10999320 0.72982098 30 28 31
0.08979115 0.13007026 0.72922438 28 27 30
0.08973538 0.15014340 0.72877116 28 27 29
0.08968197 0.17019612 0.72833806 27 26 29
0.08962129 0.19020926 0.72784493 29 27 31
0.08961053 0.20968693 0.72776229 43 42 45
0.09007789 0.22927961 0.73226137 144 141 137
0.08989324 0.24522310 0.73791955 117 115 116
0.09007525 0.25545668 0.74195573 149 148 143
0.09000183 0.27035034 0.74747789 121 118 112
0.08995053 0.29046000 0.75490919 133 133 129
0.09021795 0.30278546 0.75934874 148 148 144
0.09007253 0.31269115 0.76259955 113 110 105
0.09012793 0.33024338 0.76979022 0 0 0
0.08989110 0.34958572 0.77572862 0 0 0
0.08990706 0.36197650 0.77941045 0 0 0
0.09023657 0.37209691 0.78226594 0 0 0
0.08988397 0.39038009 0.78747974 0 0 0
0.09004386 0.41024184 0.79342059 0 0 0
0.09000475 0.42657906 0.79819566 0 0 0
0.09032489 0.43640011 0.80103475 0 0 0
0.08993321 0.44945435 0.80470061 0 0 0
0.11005044 -0.50097281 0.74261610 0 0 0
0.11000704 -0.48987021 0.74232289 0 0 0
0.10994952 -0.46973631 0.74193362 0 0 0
0.10987960 -0.45021334 0.74146035 0 0 0
0.10984020 -0.43019315 0.74119203 0 0 0
0.10990553 -0.40974557 0.74270212 66 66 64
0.10986258 -0.38999195 0.74486214 181 182 178
0.10971581 -0.36998183 0.74447888 180 181 178
0.11029864 -0.35030135 0.74428833 180 181 177
0.11023886 -0.33018280 0.74388438 178 179 176
0.11015467 -0.31001681 0.74331612 177 178 176
0.11005597 -0.28984334 0.74264971 176 177 175
0.10995960 -0.26971054 0.74199884 176 175 174
0.10986923 -0.25026746 0.74138931 104 104 103
0.10989059 -0.23008256 0.74068074 36 35 38
0.10604049 -0.20521297 0.73987667 33 31 33
0.11233747 -0.21251966 0.74019905 33 32 34
0.11019824 -0.19017023 0.73955028 32 31 33
0.11989486 -0.19991522 0.74000108 33 32 34
0.11025203 -0.17013539 0.73897149 30 29 32
0.10995423 -0.15021845 0.73832078 29 27 31
0.10994597 -0.12978790 0.73760464 29 28 32
0.10985266 -0.10993340 0.73697900 33 32 35
0.10977575 -0.09012622 0.73646349 127 126 129
0.10969536 -0.06970856 0.73592352 183 182 182
0.10961601 -0.04995633 0.73538992 184 184 184
0.11008841 -0.03030677 0.73486275 185 185 185
0.11009437 -0.00990392 0.73434264 185 185 185
0.11000071 0.01039488 0.73371844 185 184 185
0.10989152 0.03002188 0.73299034 183 183 183
0.11038766 0.04965129 0.73232586 180 180 180
0.11033445 0.06980912 0.73172561 49 47 51
0.11024091 0.08996819 0.73110426 31 30 33
0.11014280 0.11008854 0.73045286 30 29 31
0.11005613 0.13018679 0.72987752 30 28 30
0.10998928 0.15028001 0.72943412 28 27 29
0.10992433 0.17035155 0.72900333 29 28 30
0.10985329 0.19038880 0.72853181 29 28 31
0.10981743 0.20983923 0.72829425 33 30 33
0.11006782 0.22930256 0.73233478 111 107 106
0.10966088 0.24481791 0.73796589 146 144 140
0.11048503 0.25495128 0.74175248 148 143 139
0.10995258 0.27011622 0.74721944 120 116 111
0.11001371 0.29062980 0.75492761 144 142 135
0.10990322 0.30278174 0.75933938 124 117 113
0.10989642 0.31219728 0.76240352 93 89 85
0.11026058 0.32978996 0.76969044 0 0 0
0.10985511 0.34959801 0.77577159 0 0 0
0.11012456 0.36201007 0.77948271 0 0 0
0.11020162 0.37201636 0.78234149 0 0 0
0.10990862 0.39028838 0.78758853 0 0 0
0.11000371 0.41045841 0.79361992 0 0 0
0.10969652 0.42614524 0.79820646 0 0 0
0.11033614 0.43587320 0.80102932 0 0 0
0.11012281 0.44975910 0.80495906 0 0 0
0.12997328 -0.50107973 0.74277459 0 0 0
0.12992406 -0.48998247 0.74249310 0 0 0
0.12986573 -0.46987921 0.74215958 0 0 0
0.12979971 -0.44976676 0.74178109 0 0 0
0.12979714 -0.42988238 0.74176226 0 0 0
0.12980621 -0.41059962 0.74369596 85 86 84
0.12974876 -0.39000041 0.74517057 181 182 178
0.12986433 -0.36972876 0.74480112 181 182 177
0.13028833 -0.34979212 0.74457346 180 181 178
0.13022287 -0.32967910 0.74419907 178 178 176
0.13012838 -0.31015972 0.74365871 177 177 176
0.13001954 -0.28999390 0.74303595 176 176 174
0.12991098 -0.26986197 0.74241536 175 175 174
0.12993968 -0.24994903 0.74177724 99 100 100
0.12964733 -0.22996974 0.74106065 37 36 38
0.13020967 -0.21028077 0.74046638 35 33 35
0.12866828 -0.18722918 0.73980311 32 32 34
0.13289375 -0.19621868 0.74011875 34 32 34
0.13000800 -0.16970290 0.73931936 30 30 33
0.12989768 -0.14976892 0.73869180 30 29 32
0.12998656 -0.12971655 0.73801291 30 29 33
0.13030480 -0.10999362 0.73738227 33 32 35
0.13020606 -0.09017043 0.73682438 127 127 129
0.13011383 -0.06974436 0.73630261 183 182 182
0.13003029 -0.04998607 0.73582947 184 184 184
0.12993689 -0.03025135 0.73530043 184 183 184
0.12984012 -0.00990952 0.73475313 183 183 183
0.12972712 0.01040047 0.73411372 184 183 184
0.12960106 0.03003870 0.73339983 183 182 182
0.13008202 0.04960517 0.73277573 181 181 181
0.13002214 0.06985456 0.73220121 52 50 55
0.12991505 0.09002905 0.73159816 33 32 34
0.13036342 0.11023855 0.73098531 32 31 34
0.13034340 0.13028975 0.73045437 32 31 33
0.13027012 0.15040557 0.73004309 31 30 32
0.13019825 0.17050029 0.72963980 30 29 33
0.12997702 0.19036848 0.72917421 31 30 33
0.13020708 0.20980664 0.72889757 34 32 35
0.13000702 0.22949140 0.73264421 120 120 121
0.12986375 0.24492029 0.73808035 106 105 104
0.13026711 0.25524079 0.74188710 110 109 109
0.12983574 0.27014540 0.74740201 103 103 103
0.13016841 0.29044405 0.75486137 112 111 108
0.12980142 0.30271333 0.75923942 97 95 95
0.13000219 0.31187570 0.76220947 89 88 88
0.13001378 0.32950476 0.76961500 0 0 0
0.12986959 0.34961847 0.77580143 0 0 0
0.12931497 0.36165204 0.77943725 0 0 0
0.13015352 0.37178985 0.78237910 0 0 0
0.13000846 0.39009996 0.78767654 0 0 0
0.13007190 0.41038404 0.79373771 0 0 0
0.13003100 0.42594483 0.79830169 0 0 0
0.12993928 0.43582792 0.80118556 0 0 0
0.12993925 0.44967981 0.80515996 0 0 0
0.14988691 -0.50112859 0.74284702 0 0 0
0.14983589 -0.49004864 0.74259364 0 0 0
0.14978001 -0.46997850 0.74231645 0 0 0
0.15030925 -0.44983077 0.74194915 0 0 0
0.14992898 -0.43023889 0.74216589 0 0 0
0.14991367 -0.41081311 0.74471628 119 120 115
0.14975631 -0.39011554 0.74539072 181 182 176
0.14985391 -0.37010161 0.74506113 181 181 177
0.15028647 -0.34991038 0.74482528 180 181 177
0.15021306 -0.32979538 0.74446158 178 178 175
0.15010696 -0.31027529 0.74393589 176 177 175
0.14999101 -0.29012051 0.74336074 176 176 173
0.14987111 -0.26998947 0.74276616 175 176 174
0.14994827 -0.24972583 0.74211077 96 96 96
0.15024247 -0.22977705 0.74142941 39 39 42
0.15011712 -0.20973856 0.74081080 38 37 39
0.14302048 -0.18251508 0.73993222 34 33 35
0.15071471 -0.19048582 0.74031358 37 36 38
0.14909536 -0.16881822 0.73967472 34 34 36
0.15616564 -0.17744101 0.74008046 37 37 40
0.14976931 -0.14985048 0.73909429 35 34 36
0.14982993 -0.13007688 0.73845261 35 34 38
0.15014922 -0.11005934 0.73782250 36 35 40
0.15001975 -0.09021494 0.73718693 127 127 130
0.14991052 -0.06977728 0.73665024 180 180 180
0.15003486 -0.04987112 0.73617445 181 181 181
0.15035344 -0.03026791 0.73570246 180 179 179
0.15024077 -0.00991491 0.73515090 179 178 178
0.15011008 0.01040615 0.73451118 179 179 178
0.14997360 0.03005696 0.73384285 179 178 178
0.14984735 0.04967501 0.73322471 178 177 177
0.14973674 0.06990078 0.73268420 63 62 67
0.14961911 0.09009183 0.73210808 48 47 50
0.15004325 0.11017324 0.73149983 48 47 51
0.15001813 0.13038186 0.73097034 46 45 48
0.14993991 0.15051821 0.73058927 43 42 46
0.15009779 0.17024409 0.73022765 44 43 48
0.15047650 0.18953076 0.72979013 46 45 48
0.15034875 0.20955736 0.72950677 41 40 42
0.14997097 0.22960772 0.73296303 116 114 108
0.14960806 0.24430613 0.73814664 120 118 115
0.15037449 0.25445016 0.74222743 149 147 139
0.15002159 0.26970423 0.74791559 135 132 126
0.15003668 0.28991565 0.75510451 122 121 119
0.14922942 0.30265482 0.75942283 138 138 135
0.15015522 0.31156922 0.76223972 111 112 110
0.15001243 0.32944503 0.76957050 0 0 0
0.14993883 0.34959430 0.77582384 0 0 0
0.15020875 0.36129162 0.77943682 0 0 0
0.14988239 0.37159152 0.78246479 0 0 0
0.15003405 0.38969521 0.78772906 0 0 0
0.15007359 0.40966732 0.79368056 0 0 0
0.14971540 0.42580268 0.79842364 0 0 0
0.15028719 0.43564110 0.80132324 0 0 0
0.14999477 0.44996980 0.80548273 0 0 0
0.16978820 -0.50112901 0.74284764 0 0 0
0.16974141 -0.49008053 0.74264240 0 0 0
0.16969105 -0.47004500 0.74242133 0 0 0
0.17018405 -0.44991520 0.74196018 0 0 0
0.16985011 -0.42945442 0.74227804 0 0 0
0.16978845 -0.41087618 0.74545340 145 147 141
0.16975025 -0.39017257 0.74550032 168 169 164
0.16999841 -0.36990694 0.74522408 159 160 157
0.17028476 -0.35000133 0.74501902 149 149 148
0.17020078 -0.32987964 0.74465158 140 140 138
0.17007565 -0.31034558 0.74410430 132 132 132
0.16994291 -0.29018409 0.74352371 124 125 124
0.16980908 -0.27005185 0.74293806 118 118 119
0.16986149 -0.25008346 0.74232812 122 122 122
0.17017159 -0.22986629 0.74171783 126 127 127
0.17004054 -0.20983341 0.74114614 133 132 134
0.16992371 -0.18984704 0.74063697 138 138 139
0.16845171 -0.16465138 0.73984539 133 133 134
0.17119958 -0.17428064 0.74019118 152 152 153
0.17028079 -0.14991403 0.73940783 150 150 150
0.17013409 -0.12999303 0.73877085 154 154 155
0.16998893 -0.11010688 0.73814114 160 159 160
0.16984090 -0.09025308 0.73749827 110 110 112
0.16970784 -0.06980302 0.73692058 60 59 63
0.16979102 -0.05016023 0.73640022 54 51 58
0.17011097 -0.03027638 0.73590990 45 44 50
0.16998895 -0.00991791 0.73538205 43 42 47
0.16997900 0.01051226 0.73479606 41 41 47
0.17034794 0.03007120 0.73418923 40 40 44
0.17020901 0.04969985 0.73359088 43 41 46
0.17006503 0.06992802 0.73297053 180 179 179
0.16994249 0.09013305 0.73244171 185 185 185
0.16980102 0.11029641 0.73183189 185 185 185
0.16967715 0.13044026 0.73129783 184 184 184
0.16952505 0.15004584 0.73095667 183 183 184
0.16986432 0.16938680 0.73063898 181 181 180
0.17005975 0.18956976 0.73022666 179 179 177
0.16999276 0.20968148 0.72993994 131 130 130
0.16996366 0.22963434 0.73330590 88 87 88
0.17005535 0.24403159 0.73842901 137 135 130
0.16994648 0.25433691 0.74218357 127 124 121
0.17004246 0.26985762 0.74808950 137 135 129
0.16986872 0.28994763 0.75538326 117 117 116
0.17067993 0.30189896 0.75949232 130 130 128
0.17000825 0.31105578 0.76226451 115 112 108
0.17007152 0.32946260 0.76959560 0 0 0
0.16997068 0.34963672 0.77591787 0 0 0
0.16976409 0.36143206 0.77963955 0 0 0
0.16997678 0.37153011 0.78264990 0 0 0
0.17000048 0.38986836 0.78799410 0 0 0
0.17001189 0.41002157 0.79397280 0 0 0
0.17008136 0.42534441 0.79847131 0 0 0
0.17000828 0.43520407 0.80137919 0 0 0
0.17005494 0.45022825 0.80574779 0 0 0
0.19033788 -0.50114569 0.74287236 0 0 0
0.19029968 -0.49013341 0.74272294 0 0 0
0.19025627 -0.47012825 0.74255276 0 0 0
0.19013914 -0.44995681 0.74209493 0 0 0
0.19011113 -0.42955288 0.74290654 9 9 8
0.18975199 -0.41040074 0.74580315 57 57 59
0.18972254 -0.39017190 0.74549953 51 51 54
0.18995925 -0.37024960 0.74528951 48 48 51
0.19027194 -0.35005255 0.74512829 46 45 47
0.19017958 -0.32993048 0.74476634 43 42 43
0.19003734 -0.31038942 0.74420936 41 40 43
0.18988451 -0.29021823 0.74361105 40 40 41
0.19000207 -0.26993383 0.74302645 41 41 42
0.19024025 -0.24999708 0.74249005 135 135 137
0.19010501 -0.22994180 0.74196192 178 178 177
0.18996861 -0.20991348 0.74142924 180 179 179
0.18983788 -0.18991941 0.74091884 179 179 179
0.18431460 -0.16121443 0.73995472 179 179 179
0.19016431 -0.17062289 0.74032888 179 179 179
0.18998769 -0.14976894 0.73966735 179 179 179
0.19766747 -0.15873638 0.74002897 180 180 180
0.18999603 -0.13004101 0.73904399 179 179 179
0.18987547 -0.11010601 0.73839915 178 178 178
0.19029724 -0.09028213 0.73773553 101 101 102
0.19014513 -0.06982430 0.73714590 34 33 36
0.19000624 -0.05003902 0.73660765 32 31 34
0.18988007 -0.03028490 0.73611860 31 29 33
0.18974800 -0.00992088 0.73560634 32 31 33
0.18971831 0.01031619 0.73505327 31 31 34
0.19008692 0.03008220 0.73445938 32 31 33
0.18992092 0.04971519 0.73381819 37 36 40
0.19036309 0.06998945 0.73322219 180 181 182
0.19026906 0.09016679 0.73271666 188 188 188
0.19010349 0.11033367 0.73207926 187 188 188
0.18996509 0.13048454 0.73154624 186 187 187
0.18988236 0.15001796 0.73122758 186 187 187
0.18980278 0.16953666 0.73092106 183 183 183
0.18969373 0.18964100 0.73050146 180 180 179
0.18962076 0.20976225 0.73021998 135 133 133
0.19002338 0.22982537 0.73385907 114 112 105
0.18972651 0.24357010 0.73862406 112 111 109
0.19020470 0.25371816 0.74229687 116 115 111
0.19005417 0.27006322 0.74857533 126 125 124
0.18996474 0.28946770 0.75533778 130 129 124
0.19082194 0.30105868 0.75937519 133 132 126
0.18980114 0.31072883 0.76234390 105 101 97
0.19008314 0.32943571 0.76961167 0 0 0
0.18992812 0.34965265 0.77609137 0 0 0
0.18965283 0.36073594 0.77964193 0 0 0
0.19000968 0.37090375 0.78271507 0 0 0
0.18998989 0.38982682 0.78823150 0 0 0
0.19002392 0.40990706 0.79415843 0 0 0
0.18973431 0.42529676 0.79865330 0 0 0
0.19032837 0.43518984 0.80156037 0 0 0
0.18999704 0.45003307 0.80582747 0 0 0
0.21027644 -0.50123243 0.74300094 0 0 0
0.21023806 -0.49022741 0.74286546 0 0 0
0.21019421 -0.47022801 0.74271059 0 0 0
0.21009428 -0.45011506 0.74235648 0 0 0
0.20995753 -0.42961613 0.74361963 33 34 31
0.20979802 -0.41034523 0.74586635 51 50 51
0.20972249 -0.39022308 0.74559737 45 45 45
0.20984501 -0.37002214 0.74539250 44 42 43
0.21026250 -0.35009890 0.74522695 41 40 41
0.21017058 -0.32999002 0.74490096 39 38 40
0.21008407 -0.30987787 0.74434287 38 37 39
0.20977200 -0.28971509 0.74375142 38 37 38
0.20993931 -0.27029707 0.74320527 40 40 41
0.21021205 -0.25009168 0.74277175 138 138 141
0.21007357 -0.23004112 0.74228228 179 179 179
0.20992258 -0.21000390 0.74174876 180 180 179
0.20977748 -0.19000082 0.74123631 180 180 180
0.21023938 -0.16999856 0.74060669 180 180 180
0.20804762 -0.14640504 0.73981105 179 179 179
0.21263752 -0.15468115 0.74015051 180 180 180
0.20987969 -0.13009296 0.73933955 179 179 178
0.20974112 -0.11022937 0.73871057 178 178 178
0.21014261 -0.09031697 0.73801968 100 100 101
0.20996572 -0.06984831 0.73739874 33 32 35
0.20993984 -0.04995400 0.73683710 31 30 32
0.21031167 -0.03029551 0.73637828 29 29 32
0.21017186 -0.00992472 0.73588863 30 29 31
0.21001507 0.01041817 0.73533974 30 29 31
0.20984756 0.03009425 0.73475335 32 31 33
0.20965863 0.04973369 0.73409182 38 37 40
0.21008096 0.06993912 0.73349858 180 181 181
0.20996981 0.09019706 0.73296372 188 188 189
0.21026484 0.11048909 0.73231067 188 188 189
0.21022628 0.13048935 0.73178147 186 186 187
0.21020694 0.15002116 0.73144806 186 186 187
0.21007158 0.16958137 0.73111420 182 182 181
0.20994389 0.18968472 0.73067007 178 178 176
0.20986762 0.20981545 0.73040408 138 136 135
0.21004841 0.22999040 0.73447972 122 121 117
0.20889714 0.24309221 0.73897288 126 123 121
0.21045054 0.25316372 0.74258039 114 109 105
0.21002902 0.27023802 0.74916729 147 145 140
0.20998629 0.28953535 0.75563487 122 121 118
0.20937838 0.30091057 0.75942602 123 124 122
0.21028652 0.31109550 0.76257657 123 123 119
0.20986855 0.32997863 0.76992451 0 0 0
0.20989829 0.34977729 0.77630556 0 0 0
0.20723337 0.36084509 0.77987783 0 0 0
0.21021020 0.37090519 0.78298222 0 0 0
0.21000607 0.39018022 0.78862384 0 0 0
0.21001341 0.41023229 0.79452136 0 0 0
0.21003210 0.42484171 0.79875193 0 0 0
0.20993834 0.43452828 0.80155892 0 0 0
0.20999832 0.45026721 0.80601561 0 0 0
0.23185591 -0.50089090 0.74318015 0 0 0
0.23002630 -0.48998331 0.74302729 0 0 0
0.23030934 -0.47004613 0.74288357 0 0 0
0.22992734 -0.45005312 0.74270132 0 0 0
0.22990524 -0.43003783 0.74430741 62 63 60
0.22981084 -0.40975487 0.74596500 48 48 48
0.22976040 -0.38968453 0.74580030 43 43 43
0.22992225 -0.37035666 0.74566372 42 41 42
0.23027064 -0.35018125 0.74548813 39 39 39
0.23021319 -0.33011347 0.74517986 38 37 38
0.23005685 -0.30993935 0.74467327 36 36 38
0.22988313 -0.28976989 0.74411067 37 36 37
0.22976135 -0.27024224 0.74358748 40 39 42
0.23013521 -0.25012666 0.74320022 141 141 142
0.23010662 -0.23018763 0.74275513 179 179 179
0.22993843 -0.21013522 0.74221241 181 181 180
0.22976704 -0.19010938 0.74165956 181 181 181
0.23020590 -0.17009109 0.74100966 180 181 180
0.22289947 -0.14200001 0.73994912 179 179 179
0.23037192 -0.15052551 0.74038974 180 180 180
0.22894525 -0.12902212 0.73968329 178 178 177
0.23543510 -0.13757859 0.74008765 179 179 179
0.23031290 -0.11008554 0.73909407 177 177 177
0.22993999 -0.09025184 0.73841575 98 97 99
0.22984261 -0.06988519 0.73778715 32 31 34
0.22978563 -0.05017708 0.73721626 30 29 31
0.23015327 -0.03031040 0.73674145 29 28 30
0.23000462 -0.00992980 0.73626569 29 28 30
0.22995249 0.01052524 0.73569692 31 29 31
0.23027946 0.03010891 0.73511156 32 31 33
0.23007390 0.04975839 0.73445540 39 38 40
0.22989051 0.07001403 0.73386990 180 180 180
0.22971410 0.09023920 0.73330702 188 189 189
0.22996569 0.11029047 0.73261992 189 188 188
0.22995344 0.12994224 0.73205246 186 186 186
0.23023556 0.14962640 0.73166280 186 186 186
0.23033302 0.16961267 0.73125015 181 180 178
0.23017828 0.18970788 0.73075928 175 175 172
0.23012096 0.20986591 0.73057659 136 133 130
0.23000707 0.23030259 0.73514071 125 124 120
0.22959780 0.24192276 0.73929095 152 149 145
0.23008306 0.25154458 0.74294509 151 148 142
0.23011810 0.26974824 0.74922838 138 133 130
0.23006950 0.28981458 0.75627785 132 130 129
0.22782070 0.30048311 0.75975089 114 115 115
0.22997568 0.31035290 0.76276095 101 100 97
0.23022422 0.32988656 0.77009482 0 0 0
0.22995642 0.34993972 0.77660397 0 0 0
0.22986419 0.37022611 0.78308364 0 0 0
0.23016556 0.38995968 0.78889556 0 0 0
0.22988202 0.40964220 0.79466891 0 0 0
0.22967673 0.42380210 0.79873337 0 0 0
0.23040400 0.43445372 0.80179076 0 0 0
0.23002077 0.45041858 0.80621393 0 0 0
0.25021764 -0.50085114 0.74338800 0 0 0
0.25016262 -0.48982240 0.74322472 0 0 0
0.25012279 -0.46983584 0.74310642 0 0 0
0.25029561 -0.44976167 0.74320349 0 0 0
0.24969675 -0.43041613 0.74519281 95 98 92
0.24991307 -0.40994680 0.74631422 46 46 46
0.24987478 -0.38989314 0.74619976 41 41 42
0.24982178 -0.36982362 0.74604161 40 40 41
0.24975320 -0.34974090 0.74583700 39 38 39
0.24971065 -0.33024212 0.74557344 37 36 37
0.25012371 -0.31009245 0.74513249 36 36 37
0.24998432 -0.28996209 0.74460433 37 36 38
0.24981935 -0.26983565 0.74411284 41 40 43
0.25029913 -0.24982236 0.74376324 148 148 150
0.25035732 -0.23005892 0.74334033 180 180 179
0.24985414 -0.21000222 0.74276459 181 181 180
0.24980957 -0.19024136 0.74217392 181 181 181
0.25009903 -0.17009775 0.74146891 181 181 181
0.24999177 -0.15019898 0.74081325 179 179 178
0.24491715 -0.12388967 0.73987648 178 177 177
0.25123386 -0.13214302 0.74027081 178 178 177
0.24994558 -0.10949207 0.73952443 176 176 176
0.25846866 -0.11848903 0.74003538 176 176 176
0.24998464 -0.08978585 0.73889965 93 93 94
0.24989778 -0.06982865 0.73827066 32 31 33
0.25021652 -0.05011333 0.73770045 29 28 31
0.25003560 -0.03032802 0.73716731 30 29 31
0.24986166 -0.00993512 0.73665495 29 28 30
0.24978018 0.01033060 0.73608142 32 30 32
0.25010493 0.03012481 0.73549868 33 31 34
0.24988799 0.04978584 0.73486045 38 37 40
0.25028997 0.07009104 0.73428600 180 180 180
0.25012313 0.09028589 0.73368720 188 188 188
0.24986471 0.11046155 0.73292967 188 188 188
0.24964528 0.12998365 0.73228668 186 186 186
0.24987355 0.14935345 0.73182586 185 185 183
0.25003230 0.16970275 0.73132397 177 177 173
0.25038958 0.18970955 0.73076635 172 172 165
0.25021796 0.20977488 0.73059383 139 138 132
0.24995728 0.23035382 0.73570554 144 142 136
0.24865880 0.24165883 0.73958182 142 142 138
0.24999259 0.25122177 0.74287035 125 122 117
0.25005690 0.27001030 0.74962603 128 127 121
0.24991074 0.28984696 0.75671550 138 135 128
0.25845907 0.29913074 0.76006848 110 110 110
0.24993462 0.30947565 0.76302396 122 120 116
0.24999981 0.32975957 0.77027141 6 6 5
0.24994096 0.34945268 0.77678554 0 0 0
0.25182301 0.35964945 0.78020825 0 0 0
0.24996400 0.36991299 0.78336866 0 0 0
0.24999736 0.38969910 0.78918055 0 0 0
0.24998035 0.40981907 0.79508118 0 0 0
0.24945775 0.42333444 0.79894197 0 0 0
0.25033433 0.43372274 0.80190134 0 0 0
0.25001913 0.45050016 0.80646934 0 0 0
0.26994753 -0.50106184 0.74373151 0 0 0
0.27017412 -0.49000373 0.74349953 0 0 0
0.27012185 -0.46999353 0.74335605 0 0 0
0.27019537 -0.44950409 0.74359231 4 4 4
0.27018236 -0.43019350 0.74656476 133 135 129
0.26995202 -0.41001701 0.74686514 46 45 46
0.27006715 -0.39018344 0.74675531 41 41 42
0.26999667 -0.37008106 0.74656071 41 40 40
0.26991690 -0.34997676 0.74634008 39 39 39
0.26986943 -0.32991584 0.74610387 37 36 37
0.27033147 -0.30972388 0.74570470 36 36 37
0.27015509 -0.29020107 0.74521805 38 37 39
0.26997785 -0.27005904 0.74472905 42 41 44
0.26984715 -0.24998582 0.74436844 152 152 152
0.26976719 -0.22982960 0.74391359 180 180 179
0.27011759 -0.20981270 0.74334239 181 181 181
0.27004238 -0.18996867 0.74271190 181 181 181
0.26998999 -0.17000590 0.74196977 181 181 180
0.27016087 -0.15007810 0.74131611 179 179 178
0.26964998 -0.13012273 0.74066988 178 178 177
0.26717982 -0.10488648 0.73982187 175 175 175
0.27240597 -0.11330372 0.74022151 176 175 175
0.26997404 -0.08985032 0.73943072 91 90 91
0.26985591 -0.07007925 0.73879622 32 31 33
