ply
format ascii 1.0
element vertex 1088
property float x
property float y
property float z
property uchar red
property uchar green
property uchar blue
end_header
1.60763705 0.24956818 1.95922494 90 89 87
1.60176468 0.24813388 1.94796503 92 91 89
1.59141254 0.24601308 1.93131578 96 95 93
1.59930706 0.24671598 1.93683386 96 95 94
1.60265470 0.24671598 1.93683386 90 89 87
1.17763472 0.16020517 1.25768435 101 100 98
1.17762363 0.15990850 1.25535524 94 93 91
1.18198228 0.16020517 1.25768435 86 85 83
1.19524372 0.16170523 1.26946032 80 79 77
1.19743788 0.16170523 1.26946032 77 76 74
1.22720981 0.16542259 1.29864335 80 79 76
1.23418307 0.16605882 1.30363810 82 81 78
1.23169899 0.16542259 1.29864335 84 84 80
1.22923386 0.16479120 1.29368675 89 89 82
-0.57558650 0.11366529 0.88037902 160 157 147
-0.56954217 0.11337082 0.87809825 160 158 148
-0.56802446 0.11337082 0.87809825 162 163 152
-0.56650668 0.11337082 0.87809825 151 152 142
-0.56498897 0.11337082 0.87809825 98 100 92
-0.56347126 0.11337082 0.87809825 15 16 9
-0.56195354 0.11337082 0.87809825 35 35 35
-0.55971080 0.11322416 0.87696230 39 39 40
-0.55747390 0.11307787 0.87582928 39 39 40
-0.55667931 0.11322416 0.87696230 38 38 40
-0.55516356 0.11322416 0.87696230 37 37 39
-0.55364776 0.11322416 0.87696230 35 35 37
-0.55213201 0.11322416 0.87696230 34 34 36
-0.54990488 0.11307787 0.87582928 34 34 36
-0.54627371 0.11264127 0.87244767 33 33 35
-0.54336715 0.11235208 0.87020773 33 33 35
-0.53885490 0.11235208 0.87020773 35 35 37
-0.56174266 0.13102137 1.01480818 32 30 30
-0.56251490 0.13161243 1.01938617 31 29 30
-0.56322581 0.13260950 1.02710891 32 31 33
-0.56145054 0.13260950 1.02710891 33 32 34
-0.55714279 0.13200946 1.02246130 33 32 34
-0.56735593 0.13485712 1.04451752 33 32 34
-0.56642330 0.13506523 1.04612935 34 32 34
-0.56461519 0.13506523 1.04612935 35 31 34
-0.56280702 0.13506523 1.04612935 35 30 34
-0.56186593 0.13527399 1.04774630 37 31 35
-0.56092197 0.13548340 1.04936814 37 31 36
-0.55997503 0.13569345 1.05099511 37 31 36
-0.55729449 0.13548340 1.04936814 37 33 37
-0.55548072 0.13548340 1.04936814 36 35 39
-0.55281121 0.13527399 1.04774630 38 35 40
-0.55100030 0.13527399 1.04774630 37 31 37
-0.54918933 0.13527399 1.04774630 51 44 48
1.60086429 0.25295454 1.95922494 94 90 87
1.60890067 0.25368774 1.96490383 89 85 83
1.60300410 0.25222558 1.95357883 84 81 80
1.59717512 0.25078014 1.94238353 83 79 78
1.58689141 0.24864282 1.92582905 92 88 86
1.59475064 0.24935120 1.93131578 99 95 92
1.59808874 0.24935120 1.93131578 100 95 92
1.17763472 0.16237898 1.25768435 114 113 111
1.17979348 0.16207828 1.25535524 95 94 92
1.19078386 0.16328782 1.26472354 93 92 90
1.19074833 0.16298375 1.26236844 91 90 88
1.21326423 0.16576187 1.28388608 87 86 84
1.22710359 0.16734660 1.29616034 85 84 82
1.21770239 0.16576187 1.28388608 86 85 83
1.20621455 0.16389938 1.26946032 85 84 80
1.18183160 0.16000415 1.23929036 96 96 89
1.17751563 0.15913141 1.23253059 113 109 102
-0.57633495 0.11533674 0.88152385 160 157 147
-0.57406479 0.11518695 0.88037902 159 156 146
-0.57028085 0.11503755 0.87923717 160 159 146
-0.56802446 0.11488854 0.87809825 163 164 148
-0.56650668 0.11488854 0.87809825 152 152 137
-0.56498897 0.11488854 0.87809825 97 98 86
-0.56420207 0.11503755 0.87923717 14 15 4
-0.56195354 0.11488854 0.87809825 36 36 37
-0.55971080 0.11473991 0.87696230 40 40 42
-0.55747390 0.11459167 0.87582928 40 40 42
-0.55667931 0.11473991 0.87696230 39 39 41
-0.55516356 0.11473991 0.87696230 39 39 41
-0.55436492 0.11488854 0.87809825 38 37 39
-0.55213201 0.11473991 0.87696230 36 36 38
-0.55061626 0.11473991 0.87696230 35 35 37
-0.54627371 0.11414923 0.87244767 34 34 36
-0.54406554 0.11400251 0.87132627 30 27 30
-0.53885490 0.11385617 0.87020773 40 34 40
-0.56006581 0.13237904 1.01177883 33 29 32
-0.56167024 0.13317411 1.01785564 34 30 34
-0.55991101 0.13317411 1.01785564 33 30 34
-0.56067729 0.13377669 1.02246130 34 31 35
-0.55975431 0.13397878 1.02400577 35 31 36
-0.55714279 0.13377669 1.02246130 35 31 36
-0.56561291 0.13624263 1.04130852 35 31 36
-0.56468046 0.13645223 1.04291058 35 30 36
-0.56287789 0.13645223 1.04291058 37 33 38
-0.56107533 0.13645223 1.04291058 39 36 41
-0.56099886 0.13687338 1.04612935 40 37 42
-0.56005502 0.13708493 1.04774630 42 39 44
-0.55824405 0.13708493 1.04774630 46 40 46
-0.55643314 0.13708493 1.04774630 51 47 52
-0.55462217 0.13708493 1.04774630 66 64 66
-0.55195814 0.13687338 1.04612935 79 75 77
-0.54834181 0.13687338 1.04612935 105 95 96
1.59070528 0.25634089 1.95922494 102 96 94
1.58493018 0.25486767 1.94796503 93 87 85
1.58374608 0.25413740 1.94238353 75 69 67
1.59625089 0.25560218 1.95357883 71 65 63
1.60425067 0.25634089 1.95922494 70 63 62
1.59381783 0.25413740 1.94238353 71 62 63
1.58356285 0.25197145 1.92582905 78 69 70
1.57348108 0.24984212 1.90955448 71 63 63
1.57678163 0.24984212 1.90955448 73 64 65
1.57564366 0.24914032 1.90419054 82 73 73
1.57893491 0.24914032 1.90419054 93 83 80
1.19524372 0.16609354 1.26946032 113 114 112
1.19074833 0.16516565 1.26236844 113 114 112
1.20640957 0.16703193 1.27663243 110 111 108
1.22476184 0.16926327 1.29368675 105 105 102
1.21540046 0.16766343 1.28145909 101 100 97
1.20621455 0.16609354 1.26946032 95 95 90
1.19719899 0.16455279 1.25768435 89 89 82
1.17967498 0.16185027 1.23702896 91 91 84
1.17537856 0.16096906 1.23029375 98 95 89
-0.57633495 0.11686038 0.88152385 157 153 140
-0.57406479 0.11670861 0.88037902 159 155 139
-0.57102150 0.11670861 0.88037902 159 156 139
-0.56876117 0.11655724 0.87923717 161 160 142
-0.56650668 0.11640626 0.87809825 153 151 135
-0.56498897 0.11640626 0.87809825 105 103 95
-0.56420207 0.11655724 0.87923717 13 11 5
-0.56195354 0.11640626 0.87809825 39 36 38
-0.55971080 0.11625567 0.87696230 46 42 45
-0.55819505 0.11625567 0.87696230 43 41 43
-0.55667931 0.11625567 0.87696230 41 39 41
-0.55516356 0.11625567 0.87696230 40 38 40
-0.55436492 0.11640626 0.87809825 39 37 39
-0.55213201 0.11625567 0.87696230 39 36 38
-0.55061626 0.11625567 0.87696230 38 35 37
-0.54697770 0.11580623 0.87357193 39 36 37
-0.54476577 0.11565719 0.87244767 37 31 35
-0.53885490 0.11536025 0.87020773 41 35 39
-0.55923110 0.13392791 1.01027095 40 32 37
-0.56082821 0.13473108 1.01632965 37 29 35
-0.55907154 0.13473108 1.01632965 35 27 33
-0.55714279 0.13554394 1.02246130 39 33 39
-0.56301832 0.13740923 1.03653193 41 38 42
-0.56381309 0.13804245 1.04130852 41 40 42
-0.56201327 0.13804245 1.04130852 43 44 44
-0.55935425 0.13783072 1.03971136 44 45 45
-0.56013447 0.13846785 1.04451752 47 48 49
-0.55919069 0.13868153 1.04612935 50 51 51
-0.55738258 0.13868153 1.04612935 51 51 51
-0.55643314 0.13889588 1.04774630 63 60 59
-0.55376625 0.13868153 1.04612935 90 83 82
1.57703161 0.25749466 1.94238353 112 106 104
1.56248069 0.25457686 1.92037344 116 110 108
1.56137681 0.25385773 1.91494870 120 114 112
1.56911922 0.25457686 1.92037344 115 109 107
1.58139813 0.25602746 1.93131578 107 100 98
1.57130635 0.25385773 1.91494870 98 87 88
1.56138408 0.25172445 1.89885676 97 87 88
1.55594933 0.25032210 1.88827813 86 78 78
1.56356835 0.25102133 1.89355266 78 72 70
1.56247675 0.25032210 1.88827813 80 74 72
1.56574047 0.25032210 1.88827813 91 83 78
1.57338691 0.25102133 1.89355266 95 85 80
1.57665980 0.25102133 1.89355266 102 92 86
1.18198228 0.16672659 1.25768435 90 91 91
1.19078386 0.16765976 1.26472354 91 92 90
1.18853498 0.16703649 1.26002204 86 87 85
1.19293022 0.16734755 1.26236844 82 83 81
1.20182621 0.16828771 1.26946032 83 84 81
1.19952774 0.16765976 1.26472354 88 89 87
1.19057238 0.16580375 1.25072300 93 93 88
1.17752624 0.16368967 1.23477566 86 85 81
1.17537856 0.16309552 1.23029375 83 82 76
-0.57708538 0.11853817 0.88267165 157 150 138
-0.57481134 0.11838403 0.88152385 153 146 132
-0.57176405 0.11838403 0.88152385 137 130 120
-0.56876117 0.11807694 0.87923717 134 126 119
-0.56724149 0.11807694 0.87923717 126 118 114
-0.56498897 0.11792398 0.87809825 105 99 97
-0.56420207 0.11807694 0.87923717 45 39 37
-0.56195354 0.11792398 0.87809825 51 45 45
-0.55971080 0.11777143 0.87696230 51 45 45
-0.55819505 0.11777143 0.87696230 49 43 43
-0.55667931 0.11777143 0.87696230 46 40 40
-0.55516356 0.11777143 0.87696230 43 38 39
-0.55436492 0.11792398 0.87809825 42 38 39
-0.55284721 0.11792398 0.87809825 42 38 39
-0.55061626 0.11777143 0.87696230 42 38 39
-0.54697770 0.11731613 0.87357193 41 37 38
-0.54546779 0.11731613 0.87357193 42 38 39
-0.53885490 0.11686433 0.87020773 41 37 39
-0.55509478 0.13467059 1.00279856 56 46 50
-0.55915159 0.13607970 1.01329124 52 41 46
-0.55823463 0.13628341 1.01480818 51 40 47
-0.55714279 0.13731119 1.02246130 72 69 70
-0.56294835 0.13962778 1.03971136 77 77 76
-0.56115127 0.13962778 1.03971136 64 65 63
-0.55849761 0.13941395 1.03811920 55 56 54
-0.55841362 0.13984227 1.04130852 60 60 58
-0.55738258 0.14048968 1.04612935 68 64 61
-0.55557442 0.14048968 1.04612935 78 72 68
1.55475712 0.25716755 1.91494870 94 88 86
1.54931378 0.25572279 1.90419054 93 88 85
1.54825592 0.25500649 1.89885676 93 90 87
1.55589628 0.25572279 1.90419054 90 87 84
1.56357956 0.25644314 1.90955448 87 83 80
1.56247878 0.25572279 1.90419054 85 77 76
1.55702269 0.25429419 1.89355266 89 81 80
1.55162716 0.25288144 1.88303292 90 83 81
1.55921304 0.25358585 1.88827813 87 84 79
1.56247675 0.25358585 1.88827813 88 85 80
1.56574047 0.25358585 1.88827813 97 90 85
1.56900418 0.25358585 1.88827813 101 93 87
1.57226801 0.25358585 1.88827813 100 92 86
1.57993257 0.25429419 1.89355266 101 91 86
1.57440984 0.25288144 1.88303292 101 91 86
1.19300961 0.17016320 1.26708758 75 76 73
1.19074833 0.16952945 1.26236844 78 79 75
1.19293022 0.16952945 1.26236844 81 82 78
1.19734180 0.16984573 1.26472354 81 84 81
1.19057238 0.16796553 1.25072300 69 69 65
1.17752624 0.16582389 1.23477566 67 66 62
1.17324924 0.16492267 1.22806489 69 67 63
1.17112863 0.16432728 1.22363150 78 75 68
1.17536521 0.16462444 1.22584414 95 92 84
-0.57859212 0.12037728 0.88497627 105 97 93
-0.57631016 0.12022033 0.88382250 101 93 89
-0.57325494 0.12022033 0.88382250 93 84 82
-0.57024038 0.11990767 0.88152385 88 77 77
-0.56797814 0.11975195 0.88037902 71 61 61
-0.56645650 0.11975195 0.88037902 65 54 54
-0.56566948 0.11990767 0.88152385 65 54 54
-0.56268239 0.11959662 0.87923717 75 66 67
-0.56043583 0.11944170 0.87809825 75 67 67
-0.55891812 0.11944170 0.87809825 63 56 56
-0.55740041 0.11944170 0.87809825 55 49 49
-0.55588263 0.11944170 0.87809825 50 46 46
-0.55508393 0.11959662 0.87923717 44 43 41
-0.55284721 0.11944170 0.87809825 46 45 43
-0.55132949 0.11944170 0.87809825 50 49 49
-0.54697770 0.11882602 0.87357193 44 43 43
-0.54546779 0.11882602 0.87357193 41 40 40
-0.53954750 0.11852056 0.87132627 44 44 44
-0.56122679 0.14099234 1.03653193 100 97 91
-0.55858111 0.14077710 1.03494942 87 84 78
-0.55594355 0.14056249 1.03337169 74 70 65
1.54602253 0.25901404 1.90419054 89 84 81
1.54497397 0.25828850 1.89885676 86 81 78
1.54393125 0.25756702 1.89355266 81 78 74
1.55810201 0.25828850 1.89885676 83 79 76
1.55702269 0.25756702 1.89355266 91 87 84
1.55162716 0.25613609 1.88303292 98 94 90
1.55921304 0.25684956 1.88827813 101 99 91
1.56247675 0.25684956 1.88827813 100 98 90
1.56574047 0.25684956 1.88827813 97 93 86
1.56464589 0.25613609 1.88303292 95 89 83
1.56790054 0.25613609 1.88303292 94 88 82
1.57553172 0.25684956 1.88827813 90 82 77
1.56571150 0.25472099 1.87262940 89 80 76
1.56032753 0.25332141 1.86234021 90 80 77
1.19734180 0.17203172 1.26472354 82 84 81
1.17538524 0.16765273 1.23253059 80 79 75
1.17112863 0.16644223 1.22363150 87 85 78
-0.57934850 0.12206624 0.88613313 120 115 111
-0.57706255 0.12190689 0.88497627 124 116 113
-0.57400334 0.12190689 0.88497627 127 119 116
-0.57172734 0.12174795 0.88382250 128 119 118
-0.56945729 0.12158942 0.88267165 124 116 114
-0.56719309 0.12143131 0.88152385 118 110 108
-0.56640601 0.12158942 0.88267165 110 103 100
-0.56414580 0.12143131 0.88152385 102 99 95
-0.56189150 0.12127361 0.88037902 88 87 82
-0.55964303 0.12111631 0.87923717 73 71 67
-0.55884820 0.12127361 0.88037902 65 63 59
-0.55732650 0.12127361 0.88037902 59 58 55
-0.55580485 0.12127361 0.88037902 56 55 53
-0.55428320 0.12127361 0.88037902 56 55 53
-0.55204457 0.12111631 0.87923717 56 55 55
-0.54768348 0.12049120 0.87469918 53 52 52
-0.54546779 0.12033592 0.87357193 43 42 41
-0.53954750 0.12002657 0.87132627 51 51 49
-0.55866408 0.14213192 1.03179884 91 88 81
-0.55603439 0.14191592 1.03023076 88 85 79
-0.55341268 0.14170057 1.02866745 79 75 70
1.56138408 0.26157051 1.89885676 85 84 78
1.55594933 0.26011330 1.88827813 94 94 87
1.56356835 0.26083988 1.89355266 100 100 91
1.56684124 0.26083988 1.89355266 101 101 92
1.57011402 0.26083988 1.89355266 96 95 87
1.57665980 0.26083988 1.89355266 90 86 82
1.17538524 0.16978306 1.23253059 90 89 85
-0.58010679 0.12375963 0.88729298 133 133 126
-0.57706255 0.12343650 0.88497627 137 134 130
-0.57475364 0.12359785 0.88613313 140 136 131
-0.57247370 0.12343650 0.88497627 140 135 129
-0.57019973 0.12327556 0.88382250 137 132 126
-0.56793165 0.12311505 0.88267165 131 127 117
-0.56714445 0.12327556 0.88382250 123 119 109
-0.56414580 0.12295495 0.88152385 100 103 93
-0.56189150 0.12279527 0.88037902 74 78 67
-0.56036985 0.12279527 0.88037902 64 68 59
-0.55884820 0.12279527 0.88037902 62 67 59
-0.55732650 0.12279527 0.88037902 61 63 58
-0.55580485 0.12279527 0.88037902 60 60 58
-0.55356425 0.12263601 0.87923717 58 58 57
-0.55204457 0.12263601 0.87923717 56 56 55
-0.54697770 0.12184582 0.87357193 56 56 55
-0.54546779 0.12184582 0.87357193 54 54 52
-0.53954750 0.12153260 0.87132627 59 59 57
-0.53597474 0.12106576 0.86797929 60 60 57
1.56576991 0.26559651 1.90419054 65 64 55
1.56029546 0.26411274 1.89355266 77 75 67
1.56794810 0.26485255 1.89885676 83 83 75
1.17538524 0.17191339 1.23253059 78 78 73
-0.57475364 0.12512946 0.88613313 133 128 122
-0.57247370 0.12496611 0.88497627 132 127 120
-0.57094407 0.12496611 0.88497627 131 126 118
-0.56793165 0.12464067 0.88267165 125 123 109
-0.56714445 0.12480318 0.88382250 118 116 101
-0.56414580 0.12447859 0.88152385 88 93 77
-0.56189150 0.12431693 0.88037902 78 83 67
-0.55964303 0.12415569 0.87923717 71 76 68
-0.55884820 0.12431693 0.88037902 65 69 65
-0.55732650 0.12431693 0.88037902 61 64 62
-0.55580485 0.12431693 0.88037902 59 60 59
-0.55356425 0.12415569 0.87923717 57 58 57
-0.55204457 0.12415569 0.87923717 56 57 57
-0.54697770 0.12335572 0.87357193 56 57 57
-0.54546779 0.12335572 0.87357193 56 57 57
-0.54024190 0.12319696 0.87244767 66 66 64
-0.53666192 0.12272312 0.86909211 69 69 67
1.57018054 0.26964518 1.90955448 87 84 76
1.56029546 0.26738557 1.89355266 104 101 93
1.57235241 0.26888776 1.90419054 107 104 97
-0.57322204 0.12666108 0.88613313 131 124 117
-0.57169044 0.12666108 0.88613313 129 123 114
-0.56867212 0.12633079 0.88382250 123 121 108
-0.56788486 0.12649572 0.88497627 104 102 89
-0.56414580 0.12600224 0.88152385 66 66 61
-0.56189150 0.12583859 0.88037902 71 71 67
-0.55964303 0.12567538 0.87923717 70 71 70
-0.55884820 0.12583859 0.88037902 67 69 68
-0.55660367 0.12567538 0.87923717 63 64 64
-0.55508393 0.12567538 0.87923717 59 60 60
-0.55204457 0.12567538 0.87923717 54 55 55
-0.54697770 0.12486562 0.87357193 54 55 55
-0.54546779 0.12486562 0.87357193 55 56 56
-0.54024190 0.12470492 0.87244767 61 61 61
-0.53666192 0.12422528 0.86909211 73 73 72
1.57819641 0.27843598 1.94796503 76 70 72
1.57252574 0.27684492 1.93683386 58 55 56
1.56248069 0.27449211 1.92037344 48 47 47
1.56137681 0.27371672 1.91494870 51 50 50
1.56468666 0.27371672 1.91494870 64 62 61
1.57690549 0.27527192 1.92582905 75 73 71
1.58926404 0.27684492 1.93683386 84 83 80
1.57907677 0.27449211 1.92037344 90 89 85
1.56906116 0.27217898 1.90419054 97 97 92
1.58123577 0.27371672 1.91494870 102 101 94
-0.57243872 0.12836048 0.88729298 125 121 111
-0.56941450 0.12802532 0.88497627 110 107 99
-0.56862724 0.12819268 0.88613313 88 85 77
-0.56488037 0.12769192 0.88267165 71 68 66
-0.56262219 0.12752588 0.88152385 69 67 65
-0.56036985 0.12736025 0.88037902 68 66 66
-0.55508393 0.12719508 0.87923717 58 59 59
-0.55276150 0.12736025 0.88037902 54 55 55
-0.54697770 0.12637551 0.87357193 53 54 54
1.57819641 0.28180289 1.94796503 75 69 71
1.56804562 0.27939430 1.93131578 75 71 72
1.56248069 0.27781135 1.92037344 79 78 78
1.56579995 0.27781135 1.92037344 87 86 85
1.56911922 0.27781135 1.92037344 81 80 79
1.58139813 0.27939430 1.93131578 78 78 76
1.59381783 0.28099543 1.94238353 81 81 78
1.58807433 0.27939430 1.93131578 86 87 79
1.57792592 0.27702656 1.91494870 86 86 78
1.58571517 0.27781135 1.92037344 86 86 77
-0.57015884 0.12972429 0.88613313 100 97 90
-0.56488037 0.12921755 0.88267165 75 73 72
-0.56262219 0.12904952 0.88152385 68 67 66
-0.56036985 0.12888193 0.88037902 63 63 63
-0.55276150 0.12888193 0.88037902 53 54 54
1.57367432 0.28435266 1.94238353 82 78 77
1.55916154 0.28113055 1.92037344 76 72 71
1.55806696 0.28033638 1.91494870 68 67 65
1.56137681 0.28033638 1.91494870 77 75 73
1.56468666 0.28033638 1.91494870 77 76 73
1.57690549 0.28192922 1.92582905 76 76 73
1.58926404 0.28354025 1.93683386 81 81 78
1.57907677 0.28113055 1.92037344 91 92 83
1.56906116 0.27876148 1.90419054 91 93 82
1.57678163 0.27954671 1.90955448 90 92 81
1.56470752 0.28607056 1.93131578 81 77 76
1.55475712 0.28364623 1.91494870 77 73 72
1.55367804 0.28284723 1.90955448 72 68 67
1.55697858 0.28284723 1.90955448 78 74 73
1.55589628 0.28205270 1.90419054 84 81 77
1.56799650 0.28364623 1.91494870 87 87 78
1.58023417 0.28525785 1.92582905 91 91 82
1.57018054 0.28284723 1.90955448 96 96 86
1.56029546 0.28047699 1.89355266 97 97 86
1.56794810 0.28126264 1.89885676 94 93 84
1.56470752 0.28940868 1.93131578 80 78 77
1.55037749 0.28614774 1.90955448 80 78 76
1.54497397 0.28454468 1.89885676 85 82 81
1.55260503 0.28534395 1.90419054 92 89 88
1.55589628 0.28534395 1.90419054 97 94 92
1.57243836 0.28776896 1.92037344 98 96 91
1.58023417 0.28858650 1.92582905 97 95 89
1.56576991 0.28534395 1.90419054 96 93 88
1.55594933 0.28295946 1.88827813 94 91 86
1.55921304 0.28295946 1.88827813 95 91 86
1.58023417 0.29191512 1.92582905 73 72 68
1.56576991 0.28863519 1.90419054 73 71 67
1.55162716 0.28542814 1.88303292 73 69 66
0.66498190 0.13817671 0.84419906 94 91 92
0.64545506 0.13209035 0.80701411 74 74 74
0.64839369 0.13240561 0.80894017 77 76 77
0.65212649 0.13288131 0.81184649 80 77 79
0.66851795 0.14068705 0.85055441 86 82 83
0.66332978 0.13928892 0.84210169 87 83 84
0.65260625 0.13525642 0.81772238 92 91 92
0.64622438 0.13364431 0.80797595 85 85 86
0.64839369 0.13380378 0.80894017 82 82 82
0.65134645 0.13412389 0.81087542 87 86 87
0.48119843 0.09123480 0.55158001 93 89 90
0.47942114 0.09071811 0.54845619 98 94 94
0.47959307 0.09057155 0.54757017 101 97 98
0.47976443 0.09042546 0.54668695 98 94 93
0.47993526 0.09027985 0.54580665 94 90 89
0.64928448 0.13867718 0.82973295 76 76 76
0.65472549 0.13953111 0.83484215 80 80 80
0.66086692 0.14022185 0.83897507 80 81 81
0.64884484 0.13617699 0.81477386 114 114 114
0.65025312 0.13617699 0.81477386 119 119 119
0.64699554 0.13520198 0.80894017 117 117 117
0.64839369 0.13520198 0.80894017 108 108 108
0.65056825 0.13536350 0.80990660 105 104 103
0.65196812 0.13536350 0.80990660 96 95 94
0.48046452 0.09241375 0.55292970 86 84 84
0.48063615 0.09226324 0.55202919 93 91 90
0.48041663 0.09203839 0.55068386 101 98 97
0.47903359 0.09159196 0.54801279 108 104 103
0.47959307 0.09151798 0.54757017 108 103 103
0.47976443 0.09137037 0.54668695 100 95 94
0.47954914 0.09114984 0.54536754 90 86 85
0.48087865 0.09122323 0.54580665 90 86 85
0.48104739 0.09107658 0.54492915 85 83 82
0.25159475 0.07616164 0.45102584 110 108 106
0.25187156 0.07600992 0.45012739 110 109 107
0.25332239 0.07621234 0.45132613 110 108 106
0.64577258 0.14028302 0.83074981 106 106 105
0.64483768 0.13976915 0.82770675 104 104 103
0.64469397 0.13942868 0.82569045 98 98 98
0.64376873 0.13892104 0.82268429 91 91 91
0.64754826 0.13942868 0.82569045 86 86 86
0.64818591 0.13925906 0.82468593 83 83 83
0.65278786 0.13994002 0.82871866 80 80 80
0.64836615 0.13808316 0.81772238 84 88 86
0.64588392 0.13725533 0.81281996 85 89 81
0.64574027 0.13692696 0.81087542 94 99 89
0.64791685 0.13709094 0.81184649 106 109 100
0.64699554 0.13660017 0.80894017 117 118 109
0.64916837 0.13676336 0.80990660 126 127 119
0.65056825 0.13676336 0.80990660 121 121 113
0.65196812 0.13676336 0.80990660 111 111 103
0.65414947 0.13692696 0.81087542 100 99 93
0.65398645 0.13660017 0.80894017 95 94 92
0.65460348 0.13643736 0.80797595 71 70 69
0.48024505 0.09314153 0.55158001 91 91 90
0.48002666 0.09291472 0.55023688 98 97 96
0.47903359 0.09253915 0.54801279 109 103 103
0.47959307 0.09246441 0.54757017 108 102 102
0.47976443 0.09231527 0.54668695 100 94 94
0.47954914 0.09209247 0.54536754 89 82 82
0.48087865 0.09216662 0.54580665 90 83 83
0.48066100 0.09194453 0.54449141 87 83 83
0.47967571 0.09157675 0.54231346 82 81 81
0.48348436 0.09194453 0.54449141 75 74 74
0.74379122 0.33715048 1.97636104 100 93 93
0.74072856 0.33422723 1.95922494 87 83 82
0.25114939 0.07704372 0.45162681 102 99 95
0.25159475 0.07694120 0.45102584 110 107 103
0.25203893 0.07683895 0.45042646 113 111 108
0.25349116 0.07704372 0.45162681 115 113 111
0.25393343 0.07694120 0.45102584 116 116 113
0.64340711 0.14119978 0.82770675 93 90 89
0.64312726 0.14051351 0.82368392 87 85 84
0.64221001 0.14000317 0.82069230 85 83 83
0.64597464 0.14051351 0.82368392 79 77 78
0.64803457 0.14034298 0.82268429 79 78 78
0.64945650 0.14034298 0.82268429 81 82 80
0.65008950 0.14017287 0.82168710 85 88 86
0.64758497 0.13932845 0.81673717 83 86 85
0.64511043 0.13849415 0.81184649 83 87 79
0.64496881 0.13816322 0.80990660 89 94 84
0.64714181 0.13832849 0.81087542 100 103 94
0.64699554 0.13799836 0.80894017 108 109 100
0.64839369 0.13799836 0.80894017 111 112 103
0.65056825 0.13816322 0.80990660 110 110 101
0.65274799 0.13832849 0.81087542 109 109 100
0.65414947 0.13832849 0.81087542 110 110 101
0.65320700 0.13783388 0.80797595 113 113 106
0.47963735 0.09378964 0.54979062 91 91 89
0.47864664 0.09341084 0.54757017 99 96 95
0.47920600 0.09333545 0.54712820 101 98 97
0.47937784 0.09318503 0.54624647 100 96 95
0.47954914 0.09303509 0.54536754 96 91 90
0.48087865 0.09311000 0.54580665 92 86 86
0.48104739 0.09296031 0.54492915 86 81 81
0.48044440 0.09266236 0.54318255 80 79 79
0.48348436 0.09288564 0.54449141 81 80 80
0.25114939 0.07782432 0.45162681 107 101 99
0.25176224 0.07777251 0.45132613 121 116 114
0.25254232 0.07777251 0.45132613 126 121 122
0.25366017 0.07787620 0.45192790 130 125 125
0.25444129 0.07787620 0.45192790 126 123 121
0.25505239 0.07782432 0.45162681 126 123 120
0.25566265 0.07777251 0.45132613 128 123 121
0.25576159 0.07756594 0.45012739 129 124 121
0.64498210 0.14297956 0.82973295 94 88 88
0.64248431 0.14210986 0.82468593 89 83 83
0.64390969 0.14210986 0.82468593 86 81 82
0.64298844 0.14159308 0.82168710 86 81 83
0.64676046 0.14210986 0.82468593 86 81 83
0.64661264 0.14176492 0.82268429 85 82 83
0.65040255 0.14228295 0.82569045 82 81 81
0.65103668 0.14210986 0.82468593 82 81 80
0.65166932 0.14193718 0.82368392 90 90 87
0.64993411 0.14125067 0.81969994 90 90 88
0.64899665 0.14074013 0.81673717 91 91 86
0.64806592 0.14023325 0.81379575 93 93 86
0.64947248 0.14023325 0.81379575 97 98 91
0.64854336 0.13973002 0.81087542 100 101 93
0.65072328 0.13989736 0.81184649 100 100 92
0.65369219 0.14023325 0.81379575 98 99 90
0.65667546 0.14057076 0.81575429 100 100 91
0.65808541 0.14057076 0.81575429 115 115 106
0.65555102 0.13973002 0.81087542 115 116 108
0.47963735 0.09473990 0.54979062 101 101 99
0.47864664 0.09435727 0.54757017 98 98 95
0.47920600 0.09428111 0.54712820 98 97 94
0.47937784 0.09412917 0.54624647 101 101 98
0.47916365 0.09390217 0.54492915 104 104 102
0.48126614 0.09412917 0.54624647 103 103 101
0.48104739 0.09390217 0.54492915 102 101 100
0.48082969 0.09367626 0.54361814 106 105 104
0.48293114 0.09390217 0.54492915 111 111 110
0.48387301 0.09390217 0.54492915 116 115 115
0.25114939 0.07860491 0.45162681 119 117 113
0.25176224 0.07855258 0.45132613 118 116 112
0.25271058 0.07860491 0.45162681 129 123 121
0.25399885 0.07876234 0.45253128 130 124 123
0.25461105 0.07870980 0.45222938 129 123 121
0.25539267 0.07870980 0.45222938 129 123 121
0.25617433 0.07870980 0.45222938 129 121 120
0.25627211 0.07850032 0.45102584 125 117 115
0.64312726 0.14336085 0.82368392 102 97 97
0.64221001 0.14284018 0.82069230 95 92 95
0.64519066 0.14318687 0.82268429 91 88 91
0.64582884 0.14301331 0.82168710 86 85 87
0.64803457 0.14318687 0.82268429 84 83 85
0.65072095 0.14284018 0.82069230 84 84 84
0.64899665 0.14215179 0.81673717 83 83 82
0.64806592 0.14163983 0.81379575 83 83 80
0.64947248 0.14163983 0.81379575 87 87 84
0.65009862 0.14147000 0.81281996 95 94 91
0.65228564 0.14163983 0.81379575 100 98 94
0.65526551 0.14198072 0.81575429 101 99 95
0.65825969 0.14232326 0.81772238 99 95 92
0.65967309 0.14232326 0.81772238 116 112 109
0.47963735 0.09569017 0.54979062 117 117 115
0.47864664 0.09530370 0.54757017 110 110 107
0.47920600 0.09522678 0.54712820 104 104 100
0.47937784 0.09507331 0.54624647 107 107 103
0.47916365 0.09484404 0.54492915 108 108 105
0.48126614 0.09507331 0.54624647 109 109 107
0.48143440 0.09492034 0.54536754 111 111 109
0.48121560 0.09469180 0.54405445 118 118 116
0.25607601 0.07970412 0.45343935 130 124 122
0.25668803 0.07965084 0.45313627 134 126 122
0.25729924 0.07959764 0.45283356 134 126 122
0.25722280 0.07933266 0.45132613 128 120 114
0.25834689 0.07943844 0.45192790 125 117 111
0.63988596 0.14373663 0.81772238 103 103 105
0.64914918 0.14391021 0.81870997 88 87 87
0.64665931 0.14304641 0.81379575 93 92 91
0.64651364 0.14270379 0.81184649 89 88 84
0.64714181 0.14253309 0.81087542 91 90 86
0.64854336 0.14253309 0.81087542 94 91 87
0.65072328 0.14270379 0.81184649 95 91 86
0.65290838 0.14287490 0.81281996 94 90 86
0.65509880 0.14304641 0.81379575 95 91 89
0.47886062 0.09648394 0.54890031 122 123 117
0.47826034 0.09617244 0.54712820 119 120 114
0.47881955 0.09609489 0.54668695 114 113 109
0.47899187 0.09594014 0.54580665 116 115 111
0.47916365 0.09578590 0.54492915 116 116 113
0.48126614 0.09601746 0.54624647 116 116 115
0.48104739 0.09578590 0.54492915 117 117 116
0.48121560 0.09563215 0.54405445 115 113 113
0.25433841 0.08043405 0.45313627 117 117 113
0.25512162 0.08043405 0.45313627 127 120 119
0.25607601 0.08048785 0.45343935 132 123 123
0.25668803 0.08043405 0.45313627 139 129 126
0.25712749 0.08032666 0.45253128 142 132 128
0.25705168 0.08005945 0.45102584 142 134 128
0.25800288 0.08011275 0.45132613 139 131 125
0.63604969 0.14427979 0.81281996 107 108 106
0.64836615 0.14514999 0.81772238 116 115 112
0.64588392 0.14427979 0.81281996 123 122 119
0.64496881 0.14376266 0.80990660 123 122 116
0.64559734 0.14359111 0.80894017 122 122 115
0.64854336 0.14393462 0.81087542 122 121 113
0.65072328 0.14410700 0.81184649 121 120 109
0.47432044 0.09766992 0.55023688 134 135 124
0.47713920 0.09727514 0.54801279 134 134 123
0.47847319 0.09735384 0.54845619 125 125 115
0.47787464 0.09703980 0.54668695 121 121 112
0.47881955 0.09703980 0.54668695 122 121 117
0.47899187 0.09688353 0.54580665 127 126 122
0.47916365 0.09672777 0.54492915 129 128 126
0.48126614 0.09696160 0.54624647 128 127 127
0.48143440 0.09680559 0.54536754 124 123 123
0.48160210 0.09665007 0.54449141 116 113 114
0.25131682 0.08100069 0.45192790 117 118 111
0.25176224 0.08089282 0.45132613 123 124 119
0.25304773 0.08105472 0.45222938 125 125 120
0.25433841 0.08121726 0.45313627 124 123 119
0.25495118 0.08116301 0.45283356 129 124 122
0.25573388 0.08116301 0.45283356 134 125 126
0.25634533 0.08110883 0.45253128 136 127 126
0.25661358 0.08094672 0.45162681 138 128 126
0.25653961 0.08067797 0.45012739 138 129 125
0.25731763 0.08067797 0.45012739 138 130 124
0.63834590 0.14621063 0.81575429 119 117 109
0.64362848 0.14709567 0.82069230 116 113 107
0.64504695 0.14709567 0.82069230 108 105 99
0.65008950 0.14727397 0.82168710 120 117 113
0.64914918 0.14674036 0.81870997 123 120 113
0.64743656 0.14603488 0.81477386 122 120 113
0.64651364 0.14551021 0.81184649 125 125 114
0.64714181 0.14533615 0.81087542 128 129 117
0.65009862 0.14568467 0.81281996 130 131 118
0.65385550 0.14621063 0.81575429 130 131 117
0.47260219 0.09846112 0.54934508 138 139 128
0.47240320 0.09822233 0.54801279 138 139 128
0.47675377 0.09814299 0.54757017 132 134 120
0.47808638 0.09822233 0.54801279 133 134 120
0.47787464 0.09798469 0.54668695 138 139 125
0.47881955 0.09798469 0.54668695 140 140 131
0.47899187 0.09782691 0.54580665 139 139 131
0.47877878 0.09759118 0.54449141 137 137 130
0.48126614 0.09790574 0.54624647 130 130 128
0.48104739 0.09766963 0.54492915 127 127 125
0.25070283 0.08183636 0.45222938 128 129 120
0.25114939 0.08172732 0.45162681 126 128 119
0.25142744 0.08156430 0.45072597 124 126 118
0.25271058 0.08172732 0.45162681 126 127 120
0.25399885 0.08189099 0.45253128 125 127 120
0.25461105 0.08183636 0.45222938 128 127 121
0.25539267 0.08183636 0.45222938 132 129 124
0.25617433 0.08183636 0.45222938 133 128 124
0.25627211 0.08161857 0.45102584 134 128 124
0.64001662 0.14833459 0.81969994 141 138 129
0.63681328 0.14726615 0.81379575 136 132 124
0.64207381 0.14815544 0.81870997 129 126 118
0.64426702 0.14833459 0.81969994 127 124 116
0.64724910 0.14869419 0.82168710 114 111 103
0.64866930 0.14869419 0.82168710 114 111 103
0.65008950 0.14869419 0.82168710 118 115 107
0.64836615 0.14797673 0.81772238 112 109 101
0.64665931 0.14726615 0.81379575 118 115 107
0.64574027 0.14673768 0.81087542 125 124 115
0.64791685 0.14691342 0.81184649 130 130 120
0.65087909 0.14726615 0.81379575 130 130 120
0.65464330 0.14779843 0.81673717 130 131 120
0.47107521 0.09908942 0.54757017 135 135 127
0.47164065 0.09900945 0.54712820 129 130 123
0.47144482 0.09877029 0.54580665 130 131 124
0.47238821 0.09877029 0.54580665 132 133 123
0.47465712 0.09884989 0.54624647 135 138 118
0.47636899 0.09900945 0.54712820 135 138 118
0.47770020 0.09908942 0.54757017 136 139 118
0.47748956 0.09884989 0.54624647 138 141 120
0.47881955 0.09892960 0.54668695 139 141 126
0.47860652 0.09869083 0.54536754 141 142 131
0.47839454 0.09845322 0.54405445 143 144 134
0.48087865 0.09877029 0.54580665 141 142 134
0.48027524 0.09845322 0.54405445 136 137 131
0.24168953 0.23279020 1.27423275 142 136 134
0.24435124 0.23322859 1.27663243 140 132 128
0.24748996 0.23411037 1.28145909 128 125 119
0.25036877 0.08250792 0.45162681 136 137 126
0.25081518 0.08239813 0.45102584 132 133 123
0.25126040 0.08228863 0.45042646 124 125 116
0.25254232 0.08245299 0.45132613 130 131 122
0.25366017 0.08256292 0.45192790 130 131 122
0.25427178 0.08250792 0.45162681 130 130 121
0.25505239 0.08250792 0.45162681 132 129 121
0.25566265 0.08245299 0.45132613 132 129 121
0.63924366 0.14957051 0.81870997 142 136 128
0.63604969 0.14849447 0.81281996 139 133 125
0.64207381 0.14957051 0.81870997 133 128 121
0.64426702 0.14975138 0.81969994 138 133 126
0.65008950 0.15011440 0.82168710 124 121 113
0.64836615 0.14939009 0.81772238 119 119 110
0.64588392 0.14849447 0.81281996 123 124 115
0.64574027 0.14813922 0.81087542 128 128 119
0.64714181 0.14813922 0.81087542 130 131 122
0.65009862 0.14849447 0.81281996 131 132 123
0.46767128 0.09971368 0.54580665 128 128 122
0.46861467 0.09971368 0.54580665 125 126 122
0.47031540 0.09987450 0.54668695 127 128 124
0.47088057 0.09979402 0.54624647 125 127 122
0.47106552 0.09963346 0.54536754 127 130 125
0.47200817 0.09963346 0.54536754 133 134 129
0.47295079 0.09963346 0.54536754 134 136 128
0.47427496 0.09971368 0.54580665 134 136 127
0.47598481 0.09987450 0.54668695 135 137 126
0.47731465 0.09995511 0.54712820 137 139 123
0.47748956 0.09979402 0.54624647 138 140 125
0.47843370 0.09979402 0.54624647 143 143 131
0.47860652 0.09963346 0.54536754 146 146 137
0.47762787 0.09923428 0.54318255 148 148 139
0.48049176 0.09963346 0.54536754 149 147 140
0.47989011 0.09931386 0.54361814 148 144 139
0.24123608 0.23455173 1.27184212 141 137 134
0.24389194 0.23499261 1.27423275 136 133 127
0.24748996 0.23632526 1.28145909 129 126 119
0.25048187 0.08306716 0.45042646 136 135 125
0.25220650 0.08312239 0.45072597 145 146 137
0.25332239 0.08323307 0.45132613 144 145 136
0.25376460 0.08312239 0.45072597 144 145 136
0.25498360 0.08301200 0.45012739 137 136 127
0.64001662 0.15116815 0.81969994 131 122 116
0.63834590 0.15044051 0.81575429 133 124 118
0.64362848 0.15135117 0.82069230 130 124 117
0.64914918 0.15098558 0.81870997 125 124 115
0.64743656 0.15025970 0.81477386 129 129 120
0.46767128 0.10065706 0.54580665 124 126 120
0.46861467 0.10065706 0.54580665 115 119 117
0.47031540 0.10081941 0.54668695 123 126 124
0.47088057 0.10073817 0.54624647 126 130 128
0.47106552 0.10057608 0.54536754 128 132 130
0.47200817 0.10057608 0.54536754 130 134 133
0.47295079 0.10057608 0.54536754 133 136 130
0.47427496 0.10065706 0.54580665 135 137 130
0.47598481 0.10081941 0.54668695 136 138 130
0.47692972 0.10081941 0.54668695 139 141 129
0.47748956 0.10073817 0.54624647 140 141 128
0.47843370 0.10073817 0.54624647 142 141 130
0.47783768 0.10041451 0.54449141 148 140 134
0.47610191 0.09985309 0.54144716 146 138 132
0.48010552 0.10049523 0.54492915 149 141 136
0.47912166 0.10009293 0.54274768 150 142 138
0.24078432 0.23630665 1.26946032 137 135 132
0.24389194 0.23719501 1.27423275 138 135 128
0.24655780 0.23764171 1.27663243 134 131 123
0.24876435 0.23764171 1.27663243 130 127 119
0.25239688 0.23899195 1.28388608 128 125 117
0.25064841 0.08390143 0.45072597 139 136 126
0.25109357 0.08379000 0.45012739 140 138 129
0.63847256 0.15221682 0.81772238 119 108 106
0.63681328 0.15148589 0.81379575 125 115 112
0.64362848 0.15276967 0.82069230 127 119 112
0.64914918 0.15240066 0.81870997 125 125 112
0.64588392 0.15130426 0.81281996 134 135 121
0.47031540 0.10176431 0.54668695 130 136 132
0.47050142 0.10160044 0.54580665 134 138 134
0.47106552 0.10151871 0.54536754 135 137 134
0.47200817 0.10151871 0.54536754 132 135 132
0.47257060 0.10143710 0.54492915 134 136 131
0.47351247 0.10143710 0.54492915 137 139 132
0.47521836 0.10160044 0.54580665 139 141 134
0.47616172 0.10160044 0.54580665 141 142 133
0.47710511 0.10160044 0.54580665 138 139 130
0.47804850 0.10160044 0.54580665 137 137 128
0.47592631 0.10095020 0.54231346 144 141 133
0.21611680 0.22865248 1.21704102 105 98 97
0.21861285 0.22906372 1.21922994 111 104 106
0.22403635 0.23030639 1.22584414 124 119 121
0.22534016 0.22947645 1.22142673 129 123 125
0.22951902 0.23156260 1.23253059 133 132 130
0.23550305 0.23541485 1.25303483 137 136 133
0.24033426 0.23805501 1.26708758 137 137 130
0.24343435 0.23894827 1.27184212 137 137 130
0.24655780 0.23984827 1.27663243 138 137 130
0.24876435 0.23984827 1.27663243 132 129 121
0.25335658 0.24212819 1.28876781 129 126 118
0.25655961 0.24305235 1.29368675 128 125 120
0.25879565 0.24305235 1.29368675 133 129 128
0.25098217 0.08479323 0.45132613 139 136 128
0.25142744 0.08468048 0.45072597 145 139 132
0.63376993 0.15216181 0.80990660 122 113 114
0.47031540 0.10270922 0.54668695 138 140 137
0.47088057 0.10262646 0.54624647 141 142 140
0.47106552 0.10246133 0.54536754 140 140 138
0.47238821 0.10254382 0.54580665 139 139 137
0.47257060 0.10237896 0.54492915 139 139 135
0.47389340 0.10246133 0.54536754 140 140 134
0.47521836 0.10254382 0.54580665 142 142 137
0.47616172 0.10254382 0.54580665 140 139 131
0.47766390 0.10246133 0.54536754 132 131 122
0.47478685 0.10164360 0.54101503 138 136 128
0.47345480 0.10115920 0.53843671 141 138 130
0.21650550 0.23117106 1.21922994 120 112 108
0.21900675 0.23158759 1.22142673 122 113 116
0.22151701 0.23200561 1.22363150 124 115 118
0.22403635 0.23242515 1.22584414 129 121 124
0.22574690 0.23200561 1.22363150 131 130 130
0.22910248 0.23326880 1.23029375 135 134 133
0.23420432 0.23627043 1.24612474 138 137 135
0.23943916 0.23935030 1.26236844 139 138 134
0.24252431 0.24024507 1.26708758 138 137 133
0.24563263 0.24114655 1.27184212 138 137 132
0.24876435 0.24205482 1.27663243 132 130 121
0.25335658 0.24435572 1.28876781 125 121 113
0.25705016 0.24575739 1.29616034 132 128 123
0.25879565 0.24528839 1.29368675 142 137 136
0.26013651 0.17322253 0.91360086 115 109 102
0.25114939 0.08563032 0.45162681 139 131 127
0.25176224 0.08557331 0.45132613 143 134 132
0.25304773 0.08574457 0.45222938 148 139 138
0.25382939 0.08574457 0.45222938 151 142 139
0.25427178 0.08563032 0.45162681 151 143 139
0.25539267 0.08574457 0.45222938 148 144 137
0.25617433 0.08574457 0.45222938 140 137 129
0.25661358 0.08563032 0.45162681 144 140 133
0.25653961 0.08534602 0.45012739 140 135 130
0.25748861 0.08540273 0.45042646 128 122 118
0.47069499 0.10373778 0.54712820 136 136 134
0.47088057 0.10357060 0.54624647 138 138 136
0.21595177 0.23496883 1.22806489 130 122 118
0.21728711 0.23412056 1.22363150 131 123 120
0.21940206 0.23412056 1.22363150 132 121 124
0.22191758 0.23454393 1.22584414 138 129 131
0.22444221 0.23496883 1.22806489 139 132 133
0.22615513 0.23454393 1.22584414 140 133 133
0.22868744 0.23496883 1.22806489 140 135 134
0.23249480 0.23668393 1.23702896 140 136 134
0.23766881 0.23974638 1.25303483 141 139 134
0.24117196 0.24108326 1.26002204 143 140 135
0.24380296 0.24153221 1.26236844 145 141 136
0.25505552 0.17456634 0.91237128 142 135 128
0.25767288 0.17527404 0.91607004 140 135 126
0.26101989 0.17646639 0.92230183 130 126 119
0.26119256 0.17551123 0.91730964 122 119 112
0.25114939 0.08641092 0.45162681 137 128 127
0.25176224 0.08635339 0.45132613 140 131 130
0.25321668 0.08658397 0.45253128 141 132 131
0.25399885 0.08658397 0.45253128 141 133 133
0.25444129 0.08646853 0.45192790 139 130 131
0.25539267 0.08652622 0.45222938 133 127 126
0.25617433 0.08652622 0.45222938 128 124 121
0.25661358 0.08641092 0.45162681 127 123 121
0.25671008 0.08618126 0.45042646 121 117 116
0.25731763 0.08612403 0.45012739 110 103 103
0.21190970 0.23496315 1.21704102 125 116 115
0.21556127 0.23666270 1.22584414 131 122 121
0.21650550 0.23538575 1.21922994 138 129 128
0.21900675 0.23580986 1.22142673 142 133 130
0.22151701 0.23623551 1.22363150 148 140 136
0.22403635 0.23666270 1.22584414 147 140 136
0.22574690 0.23623551 1.22363150 143 135 132
0.22827390 0.23666270 1.22584414 142 135 131
0.23122895 0.23752172 1.23029375 142 134 130
0.23549236 0.23969683 1.24156010 143 136 132
0.23983458 0.24191216 1.25303483 145 137 132
0.24289832 0.24280979 1.25768435 144 136 131
0.25623751 0.17806050 0.92230183 130 123 117
0.25574392 0.17661873 0.91483378 142 136 129
0.25837117 0.17733668 0.91855264 143 138 132
0.26137549 0.17830309 0.92355835 143 140 132
0.26154646 0.17733668 0.91855264 139 136 129
0.26171559 0.17638069 0.91360086 130 126 122
0.26400629 0.17685740 0.91607004 126 125 122
0.26703307 0.17781858 0.92104870 125 124 122
0.27095327 0.17830309 0.92355835 129 125 126
0.26961103 0.17638069 0.91360086 135 132 132
0.25114939 0.08719152 0.45162681 132 123 123
0.25192997 0.08719152 0.45162681 133 124 125
0.25321668 0.08736613 0.45253128 134 125 126
0.25416851 0.08742449 0.45283356 132 125 126
0.25478101 0.08736613 0.45253128 130 126 124
0.25573388 0.08742449 0.45283356 131 127 125
0.25634533 0.08736613 0.45253128 129 125 124
0.25712749 0.08736613 0.45253128 119 115 114
0.25773761 0.08730786 0.45222938 100 96 95
0.21478447 0.23792100 1.22142673 131 122 121
0.21572950 0.23664185 1.21485996 139 130 129
0.21822037 0.23706670 1.21704102 141 132 131
0.22072019 0.23749308 1.21922994 141 133 130
0.22363196 0.23835047 1.22363150 143 135 129
0.22534016 0.23792100 1.22142673 143 135 129
0.22786185 0.23835047 1.22363150 142 134 128
0.23081005 0.23921405 1.22806489 141 133 128
0.23377968 0.24008392 1.23253059 142 134 128
0.23763829 0.24184278 1.24156010 139 130 127
0.24110901 0.24317892 1.24841964 139 130 129
0.24371563 0.24362759 1.25072300 121 110 112
0.25693664 0.18014482 0.92481834 138 132 129
0.25678355 0.17892432 0.91855264 143 138 134
0.26013359 0.18014482 0.92481834 145 141 136
0.26244816 0.18063769 0.92734861 146 142 137
0.26261401 0.17965463 0.92230183 147 142 137
0.26277804 0.17868221 0.91730964 145 138 134
0.26580226 0.17965463 0.92230183 139 133 131
0.26812598 0.18014482 0.92481834 138 132 131
0.27169359 0.18039092 0.92608178 135 126 127
0.27070552 0.17868221 0.91730964 138 129 130
0.27377287 0.17965463 0.92230183 142 134 133
0.27649555 0.18039092 0.92608178 142 134 132
0.27742290 0.17892432 0.91855264 140 134 121
0.25098217 0.08791355 0.45132613 129 122 121
0.25142744 0.08779664 0.45072597 129 122 121
0.25304773 0.08808950 0.45222938 129 123 124
0.25416851 0.08820719 0.45283356 131 125 125
0.25478101 0.08814830 0.45253128 130 126 123
0.25573388 0.08820719 0.45283356 132 128 125
0.25651658 0.08820719 0.45283356 131 127 125
0.32441545 0.37738764 1.92037344 134 129 124
0.21534358 0.23831455 1.21268666 117 107 109
0.21782929 0.23874164 1.21485996 126 117 117
0.22032392 0.23917027 1.21704102 136 127 126
0.22322902 0.24003214 1.22142673 142 134 130
0.22493486 0.23960042 1.21922994 142 134 129
0.22745129 0.24003214 1.22142673 142 134 130
0.23039266 0.24090025 1.22584414 142 134 130
0.23335540 0.24177466 1.23029375 139 131 126
0.23633973 0.24265544 1.23477566 137 128 125
0.23934586 0.24354266 1.23929036 134 123 123
0.24193017 0.24398871 1.24156010 131 120 117
0.25818291 0.18149570 0.92355835 144 138 136
0.26156095 0.18274051 0.92989278 145 139 137
0.26316819 0.18274051 0.92989278 147 140 137
0.26369029 0.18199158 0.92608178 148 140 136
0.26529095 0.18199158 0.92608178 150 140 137
0.26725671 0.18224055 0.92734861 149 139 138
0.27270070 0.18374874 0.93502325 135 127 124
0.27292138 0.18174329 0.92481834 134 125 124
0.27489489 0.18199158 0.92608178 135 127 123
0.27687380 0.18224055 0.92734861 133 125 121
0.27847663 0.18224055 0.92734861 128 120 114
0.27893475 0.18149570 0.92355835 120 114 98
0.27788094 0.17978115 0.91483378 135 129 112
0.25053570 0.08881189 0.45192790 129 121 115
0.25064841 0.08857569 0.45072597 129 121 116
0.25109357 0.08845806 0.45012739 129 121 116
0.25304773 0.08887114 0.45222938 129 125 122
0.25416851 0.08898987 0.45283356 133 129 126
0.25495118 0.08898987 0.45283356 132 128 125
0.25590482 0.08904935 0.45313627 132 128 125
0.25668803 0.08904935 0.45313627 132 128 125
0.32258776 0.37856203 1.90955448 143 135 131
0.32406256 0.37644121 1.89885676 137 128 125
0.21611680 0.24127382 1.21704102 101 90 94
0.21822037 0.24127382 1.21704102 106 96 98
0.22072019 0.24170776 1.21922994 128 119 119
0.22322902 0.24214327 1.22142673 138 130 126
0.22493486 0.24170776 1.21922994 143 135 131
0.22704221 0.24170776 1.21922994 144 136 132
0.22956243 0.24214327 1.22142673 143 135 131
0.23293266 0.24345927 1.22806489 141 133 129
0.23804034 0.24434458 1.23253059 138 129 128
0.24017067 0.24434458 1.23253059 139 128 118
0.26425567 0.18510953 0.93373531 144 139 133
0.26441273 0.18409523 0.92861897 145 138 133
0.26798993 0.18434776 0.92989278 146 137 133
0.26996750 0.18460098 0.93117011 140 128 125
0.27307737 0.18562087 0.93631470 133 120 117
0.27318639 0.18460098 0.93117011 130 118 115
0.27366811 0.18384339 0.92734861 124 113 111
0.27564803 0.18409523 0.92861897 116 108 106
0.27725306 0.18409523 0.92861897 112 103 101
0.27885813 0.18409523 0.92861897 108 101 100
0.27931529 0.18334177 0.92481834 107 101 97
0.27863300 0.18185320 0.91730964 135 130 123
0.25064841 0.08935473 0.45072597 124 123 116
0.25304773 0.08965278 0.45222938 126 122 119
0.25433841 0.08983257 0.45313627 130 126 123
0.25512162 0.08983257 0.45313627 132 128 125
0.32349902 0.38294125 1.91494870 145 135 130
0.32406256 0.37972325 1.89885676 134 124 119
0.21782929 0.24294122 1.21485996 109 101 101
0.22072019 0.24381511 1.21922994 123 115 115
0.22322902 0.24425441 1.22142673 128 119 118
0.22453104 0.24337737 1.21704102 128 122 118
0.22663459 0.24337737 1.21704102 134 129 123
0.22832823 0.24294122 1.21485996 138 132 126
0.23167357 0.24425441 1.22142673 137 129 128
0.23632164 0.24469531 1.22363150 144 136 135
0.26798993 0.18595500 0.92989278 142 133 130
0.26959717 0.18595500 0.92989278 135 126 124
0.27232510 0.18672341 0.93373531 130 118 117
0.27281165 0.18595500 0.92989278 120 107 107
0.27366811 0.18544623 0.92734861 114 102 103
0.27564803 0.18570027 0.92861897 105 95 97
0.27763340 0.18595500 0.92989278 92 83 86
0.27924064 0.18595500 0.92989278 86 82 83
0.27969685 0.18519290 0.92608178 111 106 105
0.28014937 0.18443701 0.92230183 129 123 121
0.25109357 0.09001408 0.45012739 127 126 120
0.25433841 0.09061577 0.45313627 124 123 117
0.25512162 0.09061577 0.45313627 128 126 123
0.32719615 0.39066538 1.93683386 135 126 118
0.32497287 0.38408113 1.90419054 121 112 108
0.22072019 0.24592245 1.21922994 112 107 104
0.22282752 0.24592245 1.21922994 121 113 108
0.22412865 0.24504100 1.21485996 126 118 109
0.22582373 0.24460265 1.21268666 127 119 108
0.22710721 0.24373062 1.20836341 133 123 111
0.23084170 0.24548092 1.21704102 133 124 117
0.26462016 0.18859707 0.93502325 136 135 129
0.26477543 0.18756224 0.92989278 137 134 128
0.26638266 0.18756224 0.92989278 138 134 129
0.26798993 0.18756224 0.92989278 139 135 130
0.26959717 0.18756224 0.92989278 137 131 129
0.27195051 0.18807824 0.93245095 133 124 123
0.27281165 0.18756224 0.92989278 136 127 126
0.27366811 0.18704908 0.92734861 132 123 124
0.27801475 0.18781988 0.93117011 132 123 126
0.27924064 0.18756224 0.92989278 137 129 132
0.28007948 0.18704908 0.92734861 138 129 131
0.28091377 0.18653871 0.92481834 142 133 132
0.30816489 0.39972335 1.96490383 141 129 124
0.31521574 0.40441221 1.98795259 144 132 127
0.31865177 0.40441221 1.98795259 142 130 125
0.32020971 0.40205410 1.97636104 143 131 126
0.32081968 0.39856809 1.95922494 144 133 127
0.32420605 0.39856809 1.95922494 141 134 124
0.32570970 0.39627746 1.94796503 135 129 121
0.32719615 0.39401302 1.93683386 132 125 120
0.32588828 0.38846356 1.90955448 118 110 111
0.32826409 0.38737237 1.90419054 97 89 91
0.33062661 0.38628727 1.89885676 97 89 91
0.22202887 0.24714079 1.21485996 119 109 104
0.22293010 0.24581918 1.20836341 120 109 103
0.26049042 0.19073936 0.93760973 126 123 123
0.26211098 0.19073936 0.93760973 135 134 134
0.26519880 0.19180050 0.94282591 141 140 136
0.26571968 0.19100355 0.93890840 139 138 134
0.26477543 0.18916950 0.92989278 138 137 133
0.26638266 0.18916950 0.92989278 139 136 133
0.26762280 0.18891035 0.92861897 139 135 132
0.26959717 0.18916950 0.92989278 138 134 131
0.27195051 0.18968990 0.93245095 140 133 131
0.27281165 0.18916950 0.92989278 145 136 135
0.27404299 0.18891035 0.92861897 141 135 134
0.27640530 0.18942934 0.93117011 142 134 134
0.27839717 0.18968990 0.93245095 150 141 142
0.27924064 0.18916950 0.92989278 150 141 142
0.28007948 0.18865193 0.92734861 146 137 137
0.28091377 0.18813719 0.92481834 146 137 136
0.30834371 0.40784821 1.98795259 120 110 107
0.31086808 0.40665567 1.98213995 133 122 118
0.31707543 0.41025439 1.99968100 138 126 121
0.31958896 0.40904778 1.99379957 139 127 122
0.32114598 0.40665567 1.98213995 140 128 123
0.32174960 0.40311953 1.96490383 139 127 122
0.32514578 0.40311953 1.96490383 134 129 121
0.32664835 0.40079609 1.95357883 126 121 114
0.32813367 0.39849925 1.94238353 118 113 107
0.32497287 0.39066359 1.90419054 98 92 92
0.32643020 0.38848111 1.89355266 98 96 94
0.26049188 0.19478466 0.94942838 119 111 111
0.26176628 0.19451223 0.94810051 116 111 111
0.26157579 0.19316144 0.94151646 125 120 121
0.26283807 0.19289353 0.94021058 136 132 132
0.26519880 0.19343010 0.94282591 140 138 136
0.26571968 0.19262637 0.93890840 141 139 137
0.26513913 0.19103879 0.93117011 142 138 137
0.26638266 0.19077674 0.92989278 144 138 137
0.26762280 0.19051540 0.92861897 141 133 132
0.26922786 0.19051540 0.92861897 141 133 132
0.27120441 0.19077674 0.92989278 142 134 133
0.27243793 0.19051540 0.92861897 144 135 134
0.27366811 0.19025478 0.92734861 144 135 134
0.27763340 0.19077674 0.92989278 146 137 137
0.27885813 0.19051540 0.92861897 146 137 136
0.27931529 0.18973567 0.92481834 146 137 136
0.28014937 0.18921937 0.92230183 143 134 133
0.30670658 0.41371068 1.99968100 108 99 104
0.30744213 0.41008165 1.98213995 102 97 98
0.31086808 0.41008165 1.98213995 127 119 119
0.31707543 0.41371068 1.99968100 142 130 127
0.31958896 0.41249388 1.99379957 137 127 122
