ply
format ascii 1.0
element vertex 1060
property float x
property float y
property float z
property uchar red
property uchar green
property uchar blue
end_header
0.44728094 -0.04698050 0.64255148 92 71 71
0.45009807 -0.04715930 0.64499700 93 72 72
0.45078397 -0.04711447 0.64438391 94 74 74
0.26593852 -0.04461535 0.94545585 194 193 193
0.26645780 -0.04442945 0.94151646 187 186 184
0.26697275 -0.04424509 0.93760973 201 200 199
0.26933837 -0.04436783 0.94021058 189 188 189
0.27021390 -0.04424509 0.93760973 182 180 181
0.26504371 -0.04310143 0.94810051 200 199 196
0.26556814 -0.04292134 0.94413906 194 193 190
0.26608822 -0.04274275 0.94021058 188 187 187
0.26697275 -0.04262451 0.93760973 195 194 195
0.26933837 -0.04274275 0.94021058 181 180 182
0.27021390 -0.04262451 0.93760973 178 172 176
0.27270070 -0.04250693 0.93502325 181 179 179
0.27393898 -0.04244838 0.93373531 187 185 186
0.27678549 -0.04238999 0.93245095 180 178 179
0.26049188 -0.04152079 0.94942838 201 200 198
0.26140067 -0.04140481 0.94677633 195 194 192
0.26430440 -0.04134706 0.94545585 199 196 193
0.26483047 -0.04117478 0.94151646 192 190 186
0.26571968 -0.04106072 0.93890840 203 202 201
0.26660401 -0.04094729 0.93631470 208 206 206
0.26859331 -0.04100393 0.93760973 192 190 192
0.26984069 -0.04094729 0.93631470 184 177 179
0.27108461 -0.04089081 0.93502325 185 178 180
0.27270070 -0.04089081 0.93502325 190 185 188
0.27356216 -0.04077832 0.93245095 194 192 194
0.27678549 -0.04077832 0.93245095 184 180 185
0.26085722 -0.03993571 0.95075995 186 183 183
0.26140067 -0.03976838 0.94677633 190 184 184
0.26340500 -0.03982400 0.94810051 198 189 188
0.26430440 -0.03971291 0.94545585 196 187 185
0.26519880 -0.03960245 0.94282591 196 188 183
0.26571968 -0.03943789 0.93890840 208 203 202
0.26660401 -0.03932895 0.93631470 204 201 200
0.26896533 -0.03943789 0.93890840 188 186 189
0.26984069 -0.03932895 0.93631470 187 184 185
0.27145901 -0.03932895 0.93631470 189 185 186
0.27270070 -0.03927470 0.93502325 192 192 193
0.27393898 -0.03922061 0.93373531 193 193 194
0.27716675 -0.03922061 0.93373531 196 195 197
0.25957799 -0.03834618 0.95209527 186 182 183
0.26085722 -0.03829240 0.95075995 175 170 172
0.26140067 -0.03813195 0.94677633 191 182 185
0.26340500 -0.03818528 0.94810051 203 195 191
0.26467353 -0.03813195 0.94677633 207 199 194
0.26556814 -0.03802574 0.94413906 208 203 196
0.26608822 -0.03786752 0.94021058 199 194 191
0.26697275 -0.03776276 0.93760973 184 181 178
0.26896533 -0.03781507 0.93890840 184 183 183
0.26984069 -0.03771061 0.93631470 196 195 197
0.27145901 -0.03771061 0.93631470 193 192 194
0.27307737 -0.03771061 0.93631470 185 184 184
0.27393898 -0.03760672 0.93373531 188 187 187
0.27555287 -0.03760672 0.93373531 195 194 194
0.27716675 -0.03760672 0.93373531 196 195 195
0.26140067 -0.03649553 0.94677633 188 182 184
0.26303712 -0.03649553 0.94677633 202 197 193
0.26430440 -0.03644463 0.94545585 205 200 196
0.26446316 -0.03624244 0.94021058 203 197 193
0.26535216 -0.03614218 0.93760973 195 190 188
0.26623628 -0.03604248 0.93502325 189 185 183
0.26822233 -0.03609226 0.93631470 193 192 192
0.26946849 -0.03604248 0.93502325 196 195 197
0.27108461 -0.03604248 0.93502325 192 191 193
0.27232510 -0.03599283 0.93373531 182 181 181
0.27356216 -0.03594333 0.93245095 182 180 180
0.26067254 -0.03476200 0.94413906 191 187 186
0.26230443 -0.03476200 0.94413906 188 184 183
0.26320311 -0.03466544 0.94151646 176 172 171
0.26373157 -0.03452160 0.93760973 181 177 176
0.26462016 -0.03442637 0.93502325 200 198 197
0.26586956 -0.03437895 0.93373531 200 199 199
0.26748344 -0.03437895 0.93373531 196 196 196
0.26872718 -0.03433166 0.93245095 197 196 196
0.27033883 -0.03433166 0.93245095 194 193 193
0.27195051 -0.03433166 0.93245095 182 181 183
0.27318639 -0.03428450 0.93117011 174 173 175
0.27441889 -0.03423747 0.92989278 172 171 173
0.26283807 -0.03299228 0.94021058 177 168 169
0.26462016 -0.03281026 0.93502325 200 199 198
0.26550385 -0.03271999 0.93245095 194 193 192
0.26748344 -0.03276506 0.93373531 194 193 193
0.26835805 -0.03267505 0.93117011 196 195 197
0.26996750 -0.03267505 0.93117011 192 191 195
0.27157694 -0.03267505 0.93117011 174 174 177
0.27281165 -0.03263023 0.92989278 172 172 175
0.27404299 -0.03258553 0.92861897 176 175 179
0.27564803 -0.03258553 0.92861897 192 188 187
0.26748344 -0.03115118 0.93373531 191 191 191
0.26872718 -0.03110833 0.93245095 193 193 194
0.26996750 -0.03106560 0.93117011 193 193 195
0.27157694 -0.03106560 0.93117011 184 183 187
0.27281165 -0.03102298 0.92989278 178 178 181
0.27404299 -0.03098048 0.92861897 181 181 184
0.26535216 -0.02965985 0.93760973 179 173 173
0.26822233 -0.02961889 0.93631470 190 186 186
0.26909733 -0.02953729 0.93373531 197 195 195
0.27071121 -0.02953729 0.93373531 200 200 200
0.27195051 -0.02949666 0.93245095 199 198 198
0.26498565 -0.02800054 0.93631470 191 186 186
0.26623628 -0.02796192 0.93502325 193 189 188
0.26822233 -0.02800054 0.93631470 194 190 189
0.26946849 -0.02796192 0.93502325 187 184 184
0.27071121 -0.02792340 0.93373531 184 183 183
0.27195051 -0.02788500 0.93245095 184 183 183
0.26462016 -0.02634581 0.93502325 198 194 194
0.26586956 -0.02630952 0.93373531 196 192 191
0.26785237 -0.02634581 0.93502325 191 190 190
0.26909733 -0.02630952 0.93373531 174 173 173
0.27033883 -0.02627333 0.93245095 179 178 178
0.27195051 -0.02627333 0.93245095 176 175 175
0.27281165 -0.02620125 0.92989278 177 176 176
0.26462016 -0.02472970 0.93502325 192 187 190
0.26586956 -0.02469563 0.93373531 194 190 193
0.26785237 -0.02472970 0.93502325 187 185 187
0.26909733 -0.02469563 0.93373531 177 174 176
0.26748344 -0.02308175 0.93373531 197 191 193
0.27964792 -0.00530583 0.71357036 190 186 187
0.28088126 -0.00530583 0.71357036 169 165 167
-0.02847220 -0.00332662 0.58288205 170 166 167
0.27196154 -0.00406820 0.71281999 166 153 155
0.27348116 -0.00407248 0.71357036 160 147 149
0.27471453 -0.00407248 0.71357036 174 159 160
0.27594787 -0.00407248 0.71357036 179 166 167
0.27747330 -0.00407677 0.71432227 171 160 161
0.27870795 -0.00407677 0.71432227 166 161 162
0.27994260 -0.00407677 0.71432227 165 160 162
0.28117725 -0.00407677 0.71432227 147 143 148
0.28241190 -0.00407677 0.71432227 159 155 160
0.28334796 -0.00407248 0.71357036 174 170 175
0.28518170 -0.00408107 0.71507579 169 167 172
0.28702319 -0.00408970 0.71658754 184 183 187
0.28887248 -0.00409836 0.71810579 183 183 183
-0.02849670 -0.00232115 0.58338368 172 163 166
0.27376935 -0.00284212 0.71432227 167 149 152
0.27500400 -0.00284212 0.71432227 173 154 154
0.27594787 -0.00283913 0.71357036 190 175 175
0.27776599 -0.00284512 0.71507579 173 162 162
0.27870795 -0.00284212 0.71432227 159 153 154
0.27994260 -0.00284212 0.71432227 161 155 157
0.28147385 -0.00284512 0.71507579 150 144 149
0.28241190 -0.00284212 0.71432227 165 159 164
0.28334796 -0.00283913 0.71357036 170 166 170
-0.03481635 -0.00132306 0.58793741 173 162 167
-0.03371244 -0.00131963 0.58641165 174 163 166
-0.02955591 -0.00131508 0.58438951 167 158 159
-0.02852125 -0.00131395 0.58388615 170 161 163
0.27319360 -0.00160409 0.71281999 162 141 144
0.27442566 -0.00160409 0.71281999 181 161 164
0.27565771 -0.00160409 0.71281999 192 177 178
0.27841458 -0.00160578 0.71357036 185 181 178
0.27964792 -0.00160578 0.71357036 181 178 175
0.28088126 -0.00160578 0.71357036 161 156 158
0.28211462 -0.00160578 0.71357036 178 173 174
0.28305003 -0.00160409 0.71281999 164 158 160
-0.03484657 -0.00030713 0.58844781 172 162 164
-0.03374162 -0.00030633 0.58691937 177 168 167
-0.03272718 -0.00030633 0.58691937 176 168 165
-0.03171274 -0.00030633 0.58691937 167 156 156
-0.03064523 -0.00030580 0.58590478 159 150 149
-0.02958141 -0.00030527 0.58489376 167 158 157
-0.02854584 -0.00030501 0.58438951 172 164 165
0.26864997 -0.00037087 0.71057844 178 170 171
0.27016133 -0.00037126 0.71132410 176 167 168
0.27167588 -0.00037165 0.71207124 165 158 157
0.27319360 -0.00037204 0.71281999 155 148 148
0.27471453 -0.00037243 0.71357036 161 154 154
0.27594787 -0.00037243 0.71357036 155 149 148
0.27747330 -0.00037283 0.71432227 165 161 158
0.27870795 -0.00037283 0.71432227 186 183 182
0.27964792 -0.00037243 0.71357036 183 180 179
0.28117725 -0.00037283 0.71432227 159 155 156
0.28211462 -0.00037243 0.71357036 175 171 172
0.28334796 -0.00037243 0.71357036 181 175 177
0.28488117 -0.00037283 0.71432227 176 168 171
0.28641763 -0.00037322 0.71507579 163 154 157
0.28856677 -0.00037441 0.71734589 154 145 150
-0.03487685 0.00071057 0.58895904 175 166 167
-0.03374162 0.00070811 0.58691937 170 162 162
-0.03272718 0.00070811 0.58691937 167 159 158
-0.03174022 0.00070872 0.58742791 172 161 162
-0.03067174 0.00070750 0.58641165 165 158 156
-0.02960695 0.00070628 0.58539885 169 164 162
-0.02857047 0.00070567 0.58489376 170 168 168
0.27016133 0.00085820 0.71132410 179 177 177
0.27224782 0.00086091 0.71357036 165 164 164
0.27376935 0.00086182 0.71432227 155 154 154
0.27500400 0.00086182 0.71432227 150 146 149
0.27835324 0.00086455 0.71658754 175 169 170
0.27929655 0.00086364 0.71583086 180 174 176
0.28023788 0.00086273 0.71507579 174 167 169
0.28147385 0.00086273 0.71507579 159 150 155
0.28241190 0.00086182 0.71432227 169 160 165
0.28394574 0.00086273 0.71507579 185 176 181
0.28548282 0.00086364 0.71583086 171 162 167
0.28732690 0.00086547 0.71734589 163 154 159
0.28917879 0.00086730 0.71886730 175 166 171
0.85625613 0.00241259 1.99968100 151 144 140
0.85718387 0.00240550 1.99379957 166 162 159
-0.03493756 0.00173155 0.58998418 137 131 133
-0.03380015 0.00172554 0.58793741 142 137 139
-0.03278395 0.00172554 0.58793741 164 160 160
-0.03176775 0.00172554 0.58793741 171 166 167
-0.03069830 0.00172255 0.58691937 168 164 165
-0.02963254 0.00171958 0.58590478 169 165 166
-0.02857047 0.00171661 0.58489376 160 160 160
0.27376935 0.00209647 0.71432227 171 170 169
0.27529410 0.00209868 0.71507579 185 181 181
0.27959180 0.00210312 0.71658754 169 160 162
0.28053382 0.00210090 0.71583086 167 158 160
0.28206894 0.00210312 0.71658754 163 154 159
0.28270981 0.00209868 0.71507579 171 162 167
0.28454605 0.00210312 0.71658754 179 172 176
0.28578460 0.00210312 0.71658754 178 171 175
0.28763127 0.00210757 0.71810579 169 160 165
0.28948578 0.00211205 0.71963042 176 167 170
0.82514954 0.00586888 1.99968100 172 170 163
0.82616878 0.00585162 1.99379957 169 162 158
0.82961488 0.00585162 1.99379957 180 173 168
0.85279983 0.00586888 1.99968100 136 124 121
0.85373771 0.00585162 1.99379957 150 141 136
0.85467011 0.00583446 1.98795259 182 177 170
0.85810614 0.00583446 1.98795259 183 178 173
0.86154217 0.00583446 1.98795259 177 171 167
0.87008125 0.00586888 1.99968100 171 165 163
-0.03481635 0.00274174 0.58793741 109 106 108
-0.03371244 0.00273463 0.58641165 122 118 121
-0.03269887 0.00273463 0.58641165 154 150 152
-0.03168531 0.00273463 0.58641165 173 170 173
-0.03064523 0.00273227 0.58590478 165 163 165
-0.02958141 0.00272755 0.58489376 164 161 164
-0.02854584 0.00272520 0.58438951 155 155 157
-0.02753577 0.00272520 0.58438951 149 148 147
0.27376935 0.00333112 0.71432227 184 183 181
0.27500400 0.00333112 0.71432227 175 172 171
0.27653003 0.00333463 0.71507579 180 176 176
0.27894297 0.00334876 0.71810579 183 174 175
0.27929655 0.00333815 0.71583086 166 157 159
0.28053382 0.00333815 0.71583086 168 159 162
0.28206894 0.00334168 0.71658754 166 161 164
0.28270981 0.00333463 0.71507579 183 178 181
0.28454605 0.00334168 0.71658754 181 177 178
0.28578460 0.00334168 0.71658754 179 175 176
0.28793630 0.00335231 0.71886730 164 160 161
0.28948578 0.00335587 0.71963042 148 141 143
0.82514954 0.00932516 1.99968100 180 167 165
0.82616878 0.00929774 1.99379957 175 162 159
0.82961488 0.00929774 1.99379957 169 156 154
0.85279983 0.00932516 1.99968100 141 129 124
0.85373771 0.00929774 1.99379957 151 140 135
0.85467011 0.00927047 1.98795259 163 154 150
0.85810614 0.00927047 1.98795259 166 158 156
0.86407608 0.00929774 1.99379957 160 152 152
0.87008125 0.00932516 1.99968100 153 148 148
-0.03570867 0.00374495 0.58590478 161 161 161
-0.03472600 0.00374819 0.58641165 126 124 126
-0.03362517 0.00373849 0.58489376 119 116 119
-0.03264239 0.00374172 0.58539885 155 151 152
-0.03163058 0.00374172 0.58539885 171 170 171
-0.03061877 0.00374172 0.58539885 172 171 171
-0.02958141 0.00373849 0.58489376 165 164 164
-0.02854584 0.00373527 0.58438951 150 149 149
-0.02753577 0.00373527 0.58438951 158 151 152
0.27348116 0.00456096 0.71357036 170 169 167
0.27471453 0.00456096 0.71357036 159 158 156
0.27623865 0.00456577 0.71432227 182 181 179
0.27864778 0.00458509 0.71734589 186 182 183
0.27929655 0.00457541 0.71583086 161 157 159
0.28023788 0.00457058 0.71507579 161 158 161
0.28177106 0.00457541 0.71583086 174 172 175
0.28300834 0.00457541 0.71583086 183 182 184
0.28454605 0.00458024 0.71658754 179 178 178
0.28608704 0.00458509 0.71734589 179 178 178
0.28854829 0.00460458 0.72039515 181 180 180
0.29010171 0.00460948 0.72116154 162 160 161
0.29353145 0.00462424 0.72347051 172 167 168
0.83206213 0.01278145 1.99968100 152 137 140
0.85279983 0.01278145 1.99968100 155 143 140
0.85373771 0.01274386 1.99379957 157 146 144
0.85467011 0.01270649 1.98795259 152 142 141
0.85810614 0.01270649 1.98795259 148 139 139
0.86407608 0.01274386 1.99379957 157 148 149
0.87008125 0.01278145 1.99968100 157 154 153
-0.03675313 0.00476176 0.58641165 149 148 149
-0.03469599 0.00475764 0.58590478 142 139 144
-0.03362517 0.00474943 0.58489376 150 146 150
-0.03264239 0.00475353 0.58539885 153 149 152
-0.03165792 0.00475764 0.58590478 160 159 159
-0.03061877 0.00475353 0.58539885 173 172 170
-0.02958141 0.00474943 0.58489376 168 167 164
-0.02857047 0.00474943 0.58489376 149 141 142
-0.02755952 0.00474943 0.58489376 158 149 152
0.27044511 0.00578214 0.71207124 170 161 164
0.27196154 0.00578822 0.71281999 153 147 150
0.27348116 0.00579431 0.71357036 142 141 143
0.27471453 0.00579431 0.71357036 155 152 154
0.27594787 0.00579431 0.71357036 185 181 182
0.27835324 0.00581881 0.71658754 189 186 187
0.27929655 0.00581266 0.71583086 181 179 180
0.28053382 0.00581266 0.71583086 169 168 169
0.28206894 0.00581881 0.71658754 171 171 172
0.28330749 0.00581881 0.71658754 182 181 182
0.28514892 0.00583114 0.71810579 178 178 179
0.28639010 0.00583114 0.71810579 180 180 180
0.28854829 0.00584973 0.72039515 183 183 183
0.29010171 0.00585595 0.72116154 168 168 168
0.29228100 0.00587470 0.72347051 172 171 171
0.29353145 0.00587470 0.72347051 163 159 160
0.29478192 0.00587470 0.72347051 146 142 144
0.29666561 0.00588727 0.72501802 160 156 159
0.83551842 0.01623774 1.99968100 172 170 172
0.85029161 0.01618998 1.99379957 149 140 138
0.85123408 0.01614250 1.98795259 156 147 146
0.85467011 0.01614250 1.98795259 163 152 152
0.85559702 0.01609530 1.98213995 167 157 157
0.86154217 0.01614250 1.98795259 162 153 154
0.86752218 0.01618998 1.99379957 152 147 146
-0.03675313 0.00577532 0.58641165 156 154 156
-0.03567784 0.00576535 0.58539885 157 153 158
-0.03469599 0.00577033 0.58590478 156 155 157
-0.03362517 0.00576037 0.58489376 155 154 155
-0.03264239 0.00576535 0.58539885 151 151 152
-0.03165792 0.00577033 0.58590478 155 154 154
-0.03064523 0.00577033 0.58590478 164 162 161
-0.02960695 0.00576535 0.58539885 167 162 161
-0.02859514 0.00576535 0.58539885 151 142 143
-0.02758333 0.00576535 0.58539885 154 145 147
0.27835324 0.00705737 0.71658754 193 194 194
0.27929655 0.00704992 0.71583086 191 192 192
0.28053382 0.00704992 0.71583086 181 182 182
0.28206894 0.00705737 0.71658754 176 176 175
0.28330749 0.00705737 0.71658754 185 185 184
0.28545129 0.00707982 0.71886730 185 185 185
0.28669378 0.00707982 0.71886730 184 184 184
0.28854829 0.00709487 0.72039515 180 180 180
0.29010171 0.00710242 0.72116154 171 169 169
0.29228100 0.00712516 0.72347051 172 169 170
0.29384506 0.00713277 0.72424340 167 163 166
0.29509684 0.00713277 0.72424340 168 164 167
0.29666561 0.00714040 0.72501802 166 162 165
0.84243095 0.01969402 1.99968100 154 150 151
0.84588724 0.01969402 1.99968100 166 158 159
0.84684551 0.01963610 1.99379957 173 164 166
0.84779805 0.01957852 1.98795259 162 153 154
0.84874511 0.01952127 1.98213995 157 147 148
0.84968662 0.01946436 1.97636104 148 136 137
0.85902303 0.01952127 1.98213995 162 151 153
0.86244899 0.01952127 1.98213995 150 141 142
0.67284262 0.00595564 0.60472065 151 151 168
-0.03570867 0.00678302 0.58590478 163 160 162
-0.03472600 0.00678889 0.58641165 161 159 160
-0.03365421 0.00677716 0.58539885 159 159 159
-0.03267061 0.00678302 0.58590478 149 148 148
-0.03168531 0.00678889 0.58641165 133 132 132
-0.03069830 0.00679477 0.58691937 144 143 143
-0.02965818 0.00678889 0.58641165 149 148 148
-0.02861985 0.00678302 0.58590478 115 110 110
-0.02763105 0.00678889 0.58641165 128 122 122
0.27929655 0.00828718 0.71583086 185 186 184
0.28083035 0.00829594 0.71658754 175 175 174
0.28236741 0.00830472 0.71734589 165 164 163
0.28330749 0.00829594 0.71658754 170 168 167
0.28575432 0.00833116 0.71963042 173 172 171
0.28699815 0.00833116 0.71963042 177 176 175
0.28885525 0.00834889 0.72116154 174 173 172
0.29041067 0.00835778 0.72192955 169 168 168
0.29290619 0.00839354 0.72501802 164 163 163
0.29447427 0.00840252 0.72579426 157 154 155
0.29541245 0.00839354 0.72501802 167 163 165
0.29698321 0.00840252 0.72579426 171 167 168
0.29823771 0.00840252 0.72579426 176 172 173
0.83995324 0.02308222 1.99379957 168 162 164
0.84092605 0.02301453 1.98795259 162 155 157
0.84436208 0.02301453 1.98795259 156 148 151
0.84531915 0.02294724 1.98213995 153 146 147
0.84968662 0.02288034 1.97636104 139 127 130
0.66420132 0.00697596 0.60257053 150 150 161
0.67224294 0.00699461 0.60418171 145 143 159
0.67779213 0.00701964 0.60634333 111 109 124
0.67884016 0.00701964 0.60634333 123 121 135
0.68171746 0.00703852 0.60797477 145 143 158
0.68338120 0.00704484 0.60852051 170 168 183
-0.03567784 0.00778898 0.58539885 144 142 147
-0.03472600 0.00780245 0.58641165 139 137 142
-0.03365421 0.00778898 0.58539885 168 166 171
-0.03267061 0.00779571 0.58590478 167 161 165
-0.03168531 0.00780245 0.58641165 151 149 151
-0.03072490 0.00781598 0.58742791 145 144 145
-0.02965818 0.00780245 0.58641165 155 154 154
-0.02864461 0.00780245 0.58641165 148 147 147
-0.02763105 0.00780245 0.58641165 145 142 143
-0.02661748 0.00780245 0.58641165 156 151 152
-0.02560392 0.00780245 0.58641165 160 154 156
0.27959180 0.00953450 0.71658754 165 164 164
0.28112754 0.00954459 0.71734589 164 158 160
0.28236741 0.00954459 0.71734589 165 158 160
0.28330749 0.00953450 0.71658754 173 165 165
0.28545129 0.00956483 0.71886730 167 161 161
0.28669378 0.00956483 0.71886730 183 176 177
0.28885525 0.00959536 0.72116154 180 177 177
0.29041067 0.00960558 0.72192955 182 179 180
0.29541245 0.00964667 0.72501802 162 158 159
0.29666561 0.00964667 0.72501802 172 168 169
0.83061802 0.02645055 1.98795259 174 169 171
0.83650714 0.02652834 1.99379957 176 171 172
0.83995324 0.02652834 1.99379957 179 176 177
0.84339935 0.02652834 1.99379957 158 155 156
0.84436208 0.02645055 1.98795259 141 136 137
0.84531915 0.02637321 1.98213995 148 142 144
0.84627062 0.02629632 1.97636104 148 142 144
0.84968662 0.02629632 1.97636104 149 140 141
0.66315985 0.00801745 0.60257053 169 172 180
0.66420132 0.00801745 0.60257053 162 165 173
0.66406226 0.00800323 0.60150117 151 154 162
0.66569257 0.00801033 0.60203540 136 138 146
0.66732579 0.00801745 0.60257053 141 143 150
0.66777372 0.00801033 0.60203540 148 149 157
0.67000437 0.00802459 0.60310662 145 144 158
0.67164433 0.00803173 0.60364366 129 128 142
0.67208922 0.00802459 0.60310662 118 117 131
0.67613935 0.00806044 0.60580146 122 120 134
0.67658180 0.00805325 0.60526055 124 123 137
0.67823350 0.00806044 0.60580146 131 130 143
0.67988819 0.00806765 0.60634333 144 144 154
0.68215650 0.00808211 0.60742998 156 156 165
-0.03672136 0.00880840 0.58590478 154 153 155
-0.03564705 0.00879320 0.58489376 141 136 146
-0.03469599 0.00880840 0.58590478 139 134 144
-0.03362517 0.00879320 0.58489376 156 151 161
-0.03267061 0.00880840 0.58590478 165 159 163
-0.03165792 0.00880840 0.58590478 155 149 152
-0.03067174 0.00881602 0.58641165 156 151 152
-0.02965818 0.00881602 0.58641165 153 152 152
-0.02861985 0.00880840 0.58590478 162 161 163
-0.02763105 0.00881602 0.58641165 156 154 155
-0.02661748 0.00881602 0.58641165 162 158 159
-0.02560392 0.00881602 0.58641165 160 156 159
0.28172377 0.01080734 0.71886730 176 172 173
0.28266653 0.01079589 0.71810579 181 177 178
0.28330749 0.01077306 0.71658754 175 171 172
0.28545129 0.01080734 0.71886730 166 161 162
0.28669378 0.01080734 0.71886730 181 175 177
0.29478192 0.01087654 0.72347051 157 153 154
0.29634866 0.01088816 0.72424340 170 163 164
0.29760045 0.01088816 0.72424340 177 169 170
0.29853329 0.01087654 0.72347051 178 169 170
0.83749002 0.02988656 1.98795259 175 174 174
0.84092605 0.02988656 1.98795259 171 169 170
0.84436208 0.02988656 1.98795259 160 156 157
0.84531915 0.02979917 1.98213995 164 159 160
0.84968662 0.02971230 1.97636104 158 152 152
0.66062254 0.00906701 0.60310662 149 154 160
0.66107684 0.00905895 0.60257053 160 166 170
0.66211832 0.00905895 0.60257053 167 172 176
0.66374981 0.00906701 0.60310662 163 171 175
0.66420132 0.00905895 0.60257053 160 169 173
0.66465199 0.00905090 0.60203540 157 165 169
0.66628432 0.00905895 0.60257053 145 151 154
0.66732579 0.00905895 0.60257053 150 157 159
0.66836733 0.00905895 0.60257053 159 165 168
0.67000437 0.00906701 0.60310662 148 151 160
0.67164433 0.00907508 0.60364366 141 142 154
0.67208922 0.00906701 0.60310662 139 140 151
0.67493302 0.00909127 0.60472065 147 147 156
0.67597824 0.00909127 0.60472065 145 145 154
0.67702347 0.00909127 0.60472065 146 146 154
0.67867410 0.00909939 0.60526055 158 158 167
0.68093622 0.00911567 0.60634333 164 164 173
-0.03665800 0.00980414 0.58489376 156 155 157
-0.03561632 0.00979569 0.58438951 146 145 147
-0.03466602 0.00981261 0.58539885 154 153 155
-0.03362517 0.00980414 0.58489376 151 147 150
-0.03264239 0.00981261 0.58539885 150 141 146
-0.03163058 0.00981261 0.58539885 157 148 152
-0.03064523 0.00982109 0.58590478 163 154 157
-0.02963254 0.00982109 0.58590478 156 153 154
-0.02859514 0.00981261 0.58539885 152 151 151
-0.02758333 0.00981261 0.58539885 152 151 151
-0.02659448 0.00982109 0.58590478 165 164 164
-0.02558179 0.00982109 0.58590478 164 162 164
0.28077903 0.01206263 0.71963042 169 167 170
0.28202283 0.01206263 0.71963042 160 156 158
0.28296629 0.01204984 0.71886730 171 167 168
0.28360727 0.01202434 0.71734589 165 158 161
0.28545129 0.01204984 0.71886730 168 160 162
0.28669378 0.01204984 0.71886730 178 170 171
0.29478192 0.01212700 0.72347051 158 150 153
0.29634866 0.01213996 0.72424340 170 159 161
0.29728284 0.01212700 0.72347051 166 155 157
0.29853329 0.01212700 0.72347051 163 154 155
0.84092605 0.03332258 1.98795259 163 160 160
0.84189320 0.03322514 1.98213995 152 147 147
0.66075587 0.01012745 0.60418171 142 150 156
0.66121083 0.01011843 0.60364366 156 162 166
0.66166496 0.01010943 0.60310662 162 168 170
0.66270739 0.01010943 0.60310662 162 168 170
0.66374981 0.01010943 0.60310662 159 167 169
0.66479224 0.01010943 0.60310662 159 168 169
0.66465199 0.01009147 0.60203540 160 169 170
0.66687709 0.01010943 0.60310662 151 160 161
0.66791952 0.01010943 0.60310662 157 166 167
0.66836733 0.01010044 0.60257053 171 180 181
0.67000437 0.01010943 0.60310662 165 172 177
0.67164433 0.01011843 0.60364366 162 168 174
0.67208922 0.01010943 0.60310662 161 166 172
0.67493302 0.01013648 0.60472065 161 163 171
0.67597824 0.01013648 0.60472065 159 159 167
0.67702347 0.01013648 0.60472065 159 159 167
0.67867410 0.01014553 0.60526055 172 172 181
0.68032765 0.01015460 0.60580146 173 173 182
-0.03561632 0.01080576 0.58438951 170 171 173
-0.03466602 0.01082442 0.58539885 155 156 158
-0.03362517 0.01081508 0.58489376 157 157 159
-0.03264239 0.01082442 0.58539885 162 155 160
-0.03163058 0.01082442 0.58539885 161 155 159
-0.03064523 0.01083378 0.58590478 164 157 161
-0.02963254 0.01083378 0.58590478 165 164 164
-0.02859514 0.01082442 0.58539885 165 163 163
-0.02760717 0.01083378 0.58590478 167 165 165
0.28018415 0.01327826 0.71810579 157 153 156
0.28172377 0.01329234 0.71886730 150 146 149
0.28266653 0.01327826 0.71810579 158 153 156
0.28330749 0.01325019 0.71658754 165 156 159
0.28484717 0.01326421 0.71734589 172 163 164
0.28578460 0.01325019 0.71658754 171 162 163
0.29603237 0.01337746 0.72347051 167 156 157
0.29728284 0.01337746 0.72347051 167 155 157
0.65853775 0.01115185 0.60310662 165 170 177
0.66134530 0.01118169 0.60472065 163 168 174
0.66121083 0.01116178 0.60364366 168 173 177
0.66225415 0.01116178 0.60364366 171 176 179
0.66329753 0.01116178 0.60364366 169 174 176
0.66434085 0.01116178 0.60364366 166 173 175
0.66538423 0.01116178 0.60364366 163 172 173
0.66524279 0.01114194 0.60257053 162 171 172
0.66747093 0.01116178 0.60364366 153 162 163
0.66851425 0.01116178 0.60364366 157 166 167
0.66896194 0.01115185 0.60310662 175 184 185
0.67060095 0.01116178 0.60364366 171 179 181
0.67284262 0.01118169 0.60472065 168 176 178
0.67268765 0.01116178 0.60364366 166 174 176
0.67493302 0.01118169 0.60472065 168 171 174
0.67658180 0.01119168 0.60526055 167 168 172
0.67762792 0.01119168 0.60526055 165 166 170
0.67928058 0.01120168 0.60580146 167 168 175
0.68032765 0.01120168 0.60580146 168 168 177
-0.03668965 0.01183624 0.58539885 168 168 172
-0.03564705 0.01182602 0.58489376 169 169 173
-0.03472600 0.01185671 0.58641165 155 155 159
-0.03365421 0.01183624 0.58539885 167 167 171
-0.03269887 0.01185671 0.58641165 167 166 170
-0.03165792 0.01184647 0.58590478 160 157 161
-0.03067174 0.01185671 0.58641165 167 161 165
-0.02965818 0.01185671 0.58641165 169 166 165
-0.02864461 0.01185671 0.58641165 158 153 152
-0.02765497 0.01186698 0.58691937 159 153 153
0.28232256 0.01456574 0.72039515 170 168 170
0.28296629 0.01453485 0.71886730 176 175 176
0.28360727 0.01450409 0.71734589 178 174 173
0.66193581 0.01223782 0.60526055 173 178 183
0.66180015 0.01221601 0.60418171 174 178 183
0.66225415 0.01220513 0.60364366 173 177 181
0.66329753 0.01220513 0.60364366 169 173 177
0.66493297 0.01221601 0.60418171 165 171 174
0.66538423 0.01220513 0.60364366 162 169 172
0.66583467 0.01219427 0.60310662 160 166 169
0.66806585 0.01221601 0.60418171 154 160 163
0.66911012 0.01221601 0.60418171 157 163 165
0.66955763 0.01220513 0.60364366 174 180 182
0.67344338 0.01223782 0.60526055 174 177 178
0.67328721 0.01221601 0.60418171 172 176 176
0.67553568 0.01223782 0.60526055 175 177 177
0.67718643 0.01224876 0.60580146 173 174 174
0.67823350 0.01224876 0.60580146 166 167 167
0.67988819 0.01225971 0.60634333 160 161 165
0.68093622 0.01225971 0.60634333 159 160 165
-0.03668965 0.01284805 0.58539885 170 169 176
-0.03564705 0.01283696 0.58489376 169 169 173
-0.03472600 0.01287028 0.58641165 158 158 161
-0.03368330 0.01285915 0.58590478 144 143 147
-0.03272718 0.01288142 0.58691937 151 150 154
-0.03168531 0.01287028 0.58641165 160 157 162
-0.03072490 0.01289258 0.58742791 172 168 173
-0.02970958 0.01289258 0.58742791 174 165 166
-0.02866941 0.01288142 0.58691937 162 153 154
-0.02770294 0.01290377 0.58793741 169 160 161
0.28326666 0.01579410 0.71963042 183 182 182
0.28390771 0.01576064 0.71810579 180 180 178
0.66193581 0.01328397 0.60526055 171 173 178
0.66180015 0.01326029 0.60418171 164 166 171
0.66225415 0.01324848 0.60364366 157 161 165
0.66270739 0.01323669 0.60310662 153 157 161
0.66493297 0.01326029 0.60418171 155 158 162
0.66538423 0.01324848 0.60364366 158 160 165
0.66583467 0.01323669 0.60310662 158 160 165
0.66866177 0.01327212 0.60472065 157 159 163
0.66911012 0.01326029 0.60418171 160 162 166
0.66955763 0.01324848 0.60364366 173 175 179
0.67404521 0.01329584 0.60580146 175 176 178
0.67388785 0.01327212 0.60472065 174 175 176
0.67613935 0.01329584 0.60580146 174 175 175
0.67718643 0.01329584 0.60580146 173 174 174
0.67823350 0.01329584 0.60580146 172 172 172
0.67988819 0.01330773 0.60634333 170 171 173
0.68032765 0.01329584 0.60580146 170 171 173
-0.03567784 0.01385986 0.58539885 173 173 175
-0.03478618 0.01390791 0.58742791 162 162 164
-0.03371244 0.01388384 0.58641165 143 142 144
-0.03278395 0.01391997 0.58793741 139 138 140
-0.03171274 0.01389586 0.58691937 163 162 163
-0.03075155 0.01391997 0.58793741 171 168 169
-0.02973534 0.01391997 0.58793741 172 163 164
-0.02869426 0.01390791 0.58742791 152 145 145
-0.02775108 0.01394416 0.58895904 167 161 161
-0.02675636 0.01395628 0.58947116 170 164 166
-0.02571514 0.01394416 0.58895904 160 158 160
0.66075587 0.01430457 0.60418171 176 177 179
0.66062254 0.01427911 0.60310662 166 167 169
0.66166496 0.01427911 0.60310662 154 157 158
0.66538423 0.01429183 0.60364366 160 161 164
0.66524279 0.01426642 0.60257053 161 162 165
0.66851425 0.01429183 0.60364366 162 163 166
0.67388785 0.01431733 0.60472065 163 164 164
0.67613935 0.01434292 0.60580146 160 161 161
0.67779213 0.01435575 0.60634333 162 162 162
0.67884016 0.01435575 0.60634333 171 171 171
0.67988819 0.01435575 0.60634333 177 177 178
-0.03487685 0.01496212 0.58895904 163 162 164
-0.03377086 0.01492323 0.58742791 163 161 163
-0.03077824 0.01494914 0.58844781 163 162 162
-0.02978701 0.01496212 0.58895904 137 134 134
-0.02871914 0.01493617 0.58793741 113 109 110
0.66016746 0.01533518 0.60364366 181 182 184
0.66062254 0.01532153 0.60310662 179 180 182
0.66107684 0.01530791 0.60257053 173 174 176
0.66538423 0.01533518 0.60364366 161 162 164
0.66911012 0.01534885 0.60418171 166 167 169
0.67388785 0.01536254 0.60472065 141 142 143
0.67779213 0.01540376 0.60634333 150 151 152
0.67988819 0.01540376 0.60634333 169 170 172
0.77372158 0.02957088 1.08985829 103 84 78
0.77999711 0.02966627 1.09337389 104 83 79
0.77937281 0.02957088 1.08985829 104 82 79
0.77875251 0.02947610 1.08636510 105 82 79
0.77689511 0.02933506 1.08116722 106 82 79
0.77876383 0.02933506 1.08116722 107 83 80
0.77938950 0.02928835 1.07944560 105 84 76
0.66062254 0.01636395 0.60310662 177 177 181
0.66166496 0.01636395 0.60310662 176 176 180
0.66657138 0.01640775 0.60472065 152 153 155
0.67988819 0.01645178 0.60634333 165 166 168
0.77247965 0.03140412 1.08810890 102 84 80
0.77436036 0.03140412 1.08810890 104 85 81
0.77748907 0.03145461 1.08985829 105 83 80
0.77812177 0.03140412 1.08810890 105 82 79
0.77750647 0.03130363 1.08462691 106 83 80
0.77565801 0.03115409 1.07944560 108 82 80
0.77752376 0.03115409 1.07944560 108 82 80
0.77691525 0.03105519 1.07601881 106 84 77
0.67328721 0.01743740 0.60418171 160 160 162
0.67928058 0.01748415 0.60580146 167 169 171
0.77436036 0.03328483 1.08810890 104 87 82
0.77748907 0.03333834 1.08985829 106 85 82
0.77812177 0.03328483 1.08810890 107 83 82
0.77875251 0.03323149 1.08636510 107 83 81
0.77689511 0.03307249 1.08116722 107 83 81
0.77752376 0.03301982 1.07944560 107 82 81
0.77938950 0.03301982 1.07944560 105 83 81
0.67328721 0.01848168 0.60418171 170 170 174
0.67493302 0.01849817 0.60472065 170 170 173
0.67718643 0.01853123 0.60580146 164 165 169
0.67823350 0.01853123 0.60580146 164 165 168
0.67928058 0.01853123 0.60580146 165 168 171
-0.29175830 0.02197405 0.67993164 191 189 189
-0.28942192 0.02188624 0.67721462 194 193 191
0.77372158 0.03522207 1.08985829 103 85 81
0.77685428 0.03527879 1.09161329 104 85 80
0.77999711 0.03533569 1.09337389 105 84 81
0.78188688 0.03533569 1.09337389 105 83 82
0.78377670 0.03533569 1.09337389 106 83 82
0.78314024 0.03522207 1.08985829 107 83 82
0.78502399 0.03522207 1.08985829 105 81 80
0.78817487 0.03527879 1.09161329 107 81 82
0.67000437 0.01949122 0.60310662 168 169 174
0.67164433 0.01950857 0.60364366 171 171 177
0.67268765 0.01950857 0.60364366 172 172 179
0.67433149 0.01952596 0.60418171 171 172 178
0.67597824 0.01954338 0.60472065 164 170 174
0.67762792 0.01956083 0.60526055 167 174 178
0.67867410 0.01956083 0.60526055 171 178 182
-0.29146594 0.02312606 0.67925036 193 192 190
-0.28913307 0.02303374 0.67653877 192 192 190
0.77683359 0.03734597 1.09691238 102 87 83
0.77621746 0.03722550 1.09337389 102 85 82
0.77936435 0.03728564 1.09514034 102 85 82
0.78568864 0.03740650 1.09869015 101 86 82
0.78758764 0.03740650 1.09869015 101 86 82
0.78820914 0.03734597 1.09691238 102 85 84
0.78882861 0.03728564 1.09514034 101 84 83
0.67268765 0.02055192 0.60364366 171 175 182
0.67373103 0.02055192 0.60364366 172 176 183
0.67597824 0.02058859 0.60472065 168 175 181
0.67702347 0.02058859 0.60472065 169 177 183
0.67867410 0.02060697 0.60526055 172 180 185
1.22270310 0.03623204 1.06419444 163 165 169
-0.30025649 0.02425149 0.67789185 178 175 172
-0.29439807 0.02425149 0.67789185 193 188 186
-0.29234934 0.02417896 0.67586422 181 180 178
-0.29234704 0.02427577 0.67857039 191 190 188
-0.29088300 0.02425149 0.67789185 196 195 193
-0.28884479 0.02417896 0.67586422 194 193 191
-0.28596595 0.02403518 0.67184526 194 192 190
0.77683359 0.03924190 1.09691238 109 89 82
0.77621746 0.03911531 1.09337389 105 87 81
0.78062540 0.03924190 1.09691238 103 86 80
0.78378963 0.03930550 1.09869015 102 85 80
0.78441727 0.03924190 1.09691238 101 84 81
0.78758764 0.03930550 1.09869015 101 84 80
0.78948659 0.03930550 1.09869015 102 85 82
0.78882861 0.03917850 1.09514034 103 86 83
0.67658180 0.02165312 0.60526055 165 173 179
0.67762792 0.02165312 0.60526055 167 175 181
0.67867410 0.02165312 0.60526055 170 178 184
1.22270310 0.03807142 1.06419444 167 170 176
-0.30256128 0.02532189 0.67519110 194 185 183
-0.29995653 0.02539778 0.67721462 174 166 167
-0.29878601 0.02539778 0.67721462 174 165 166
-0.29731846 0.02537243 0.67653877 181 172 172
-0.29614913 0.02537243 0.67653877 186 177 176
-0.29439807 0.02542317 0.67789185 193 181 176
-0.29234934 0.02534713 0.67586422 181 172 170
-0.29205471 0.02542317 0.67789185 188 178 178
-0.29088300 0.02542317 0.67789185 195 187 185
-0.28884479 0.02534713 0.67586422 195 188 185
0.77745366 0.04127138 1.10047376 106 86 76
0.77683359 0.04113782 1.09691238 107 87 77
0.77621746 0.04100512 1.09337389 107 87 79
0.78062540 0.04113782 1.09691238 106 86 79
0.78378963 0.04120449 1.09869015 104 85 78
0.78568864 0.04120449 1.09869015 103 85 79
0.78886616 0.04127138 1.10047376 102 85 79
0.78948659 0.04120449 1.09869015 100 80 77
0.78882861 0.04107136 1.09514034 104 83 81
1.21902430 0.03991079 1.06419444 156 164 167
1.22086370 0.03991079 1.06419444 162 169 173
1.22078669 0.03984823 1.06252635 169 174 178
1.22454250 0.03991079 1.06419444 172 178 181
1.21872890 0.03966174 1.05755353 178 183 187
-0.30252302 0.02638378 0.67251176 198 194 191
-0.30195978 0.02643624 0.67384875 198 191 189
-0.29906026 0.02648890 0.67519110 178 169 170
-0.29789323 0.02648890 0.67519110 174 166 167
-0.29643095 0.02646254 0.67451924 182 174 175
-0.29497159 0.02643624 0.67384875 180 172 173
-0.29410395 0.02656829 0.67721462 181 168 165
-0.29205814 0.02648890 0.67519110 177 165 165
-0.29147175 0.02654177 0.67653877 186 175 175
-0.29059243 0.02656829 0.67721462 196 185 184
-0.28827000 0.02646254 0.67451924 197 186 185
-0.28568283 0.02633154 0.67118007 193 185 181
0.78125852 0.04338475 1.10585940 109 88 77
0.77683359 0.04303375 1.09691238 108 87 76
0.77747148 0.04296422 1.09514034 108 85 75
0.78189063 0.04310349 1.09869015 108 85 76
0.78633851 0.04324367 1.10226321 108 85 76
0.78696406 0.04317347 1.10047376 108 84 77
0.79014885 0.04324367 1.10226321 107 84 77
0.79205406 0.04324367 1.10226321 102 76 72
0.79010504 0.04303375 1.09691238 105 78 75
1.19679415 0.04148963 1.05755353 177 181 187
1.19675505 0.04142501 1.05590630 178 181 187
1.20598722 0.04155446 1.05920601 177 182 187
1.20970809 0.04161949 1.06086361 172 178 183
1.21534562 0.04175016 1.06419444 166 172 176
1.21527719 0.04168472 1.06252635 158 167 168
1.21711361 0.04168472 1.06252635 162 171 172
1.21704257 0.04161949 1.06086361 169 178 179
1.21887612 0.04161949 1.06086361 175 184 185
1.22070980 0.04161949 1.06086361 178 187 188
1.21493816 0.04136058 1.05426419 180 188 190
-0.30278426 0.02746443 0.67051619 199 199 195
-0.30222321 0.02751886 0.67184526 190 190 186
-0.30165991 0.02757352 0.67317957 189 188 184
-0.29960382 0.02749162 0.67118007 193 192 188
-0.29933283 0.02757352 0.67317957 187 186 184
-0.29846570 0.02760093 0.67384875 183 182 180
-0.29730099 0.02760093 0.67384875 179 175 174
-0.29584220 0.02757352 0.67317957 179 175 174
-0.29409456 0.02751886 0.67184526 180 175 175
-0.29381043 0.02771111 0.67653877 186 176 176
-0.29176754 0.02762839 0.67451924 183 174 174
-0.29118115 0.02768349 0.67586422 187 178 177
-0.29001299 0.02768349 0.67586422 194 185 184
-0.28741205 0.02754617 0.67251176 194 186 184
-0.28483677 0.02741020 0.66919231 181 176 171
0.78253508 0.04537015 1.10766637 113 88 78
0.77809262 0.04500249 1.09869015 114 89 79
0.77872950 0.04492967 1.09691238 115 90 79
0.78315991 0.04507554 1.10047376 114 89 77
0.78761923 0.04522237 1.10405838 110 85 73
0.78824371 0.04514884 1.10226321 111 83 73
0.79272687 0.04529614 1.10585940 112 82 73
0.79334402 0.04522237 1.10405838 111 81 73
0.79267031 0.04507554 1.10047376 112 81 74
1.19492996 0.04325005 1.05590630 161 166 173
1.19489384 0.04318279 1.05426419 165 170 177
1.20044994 0.04331753 1.05755353 169 174 181
1.20410573 0.04331753 1.05755353 171 178 183
1.20970809 0.04345311 1.06086361 169 177 181
1.21534562 0.04358954 1.06419444 165 174 178
1.21527719 0.04352121 1.06252635 160 169 172
1.21711361 0.04352121 1.06252635 162 172 174
1.21704257 0.04345311 1.06086361 167 176 179
1.21697164 0.04338521 1.05920601 170 179 182
1.21880245 0.04338521 1.05920601 172 181 184
1.21493816 0.04318279 1.05426419 173 182 186
1.21298742 0.04304889 1.05099511 173 181 186
-0.30248508 0.02859508 0.66985363 194 194 192
-0.30162534 0.02862336 0.67051619 190 190 189
-0.30136064 0.02870855 0.67251176 187 187 186
-0.29930747 0.02862336 0.67051619 194 193 192
-0.29873952 0.02868010 0.67184526 194 193 191
-0.29816931 0.02873706 0.67317957 194 193 191
-0.29700574 0.02873706 0.67317957 185 183 182
-0.29525581 0.02868010 0.67184526 187 184 183
-0.29351279 0.02862336 0.67051619 190 186 185
-0.29381043 0.02888046 0.67653877 191 185 185
-0.29176754 0.02879425 0.67451924 189 183 182
-0.29118115 0.02885166 0.67586422 193 187 185
-0.28972411 0.02882292 0.67519110 193 188 185
-0.28684291 0.02865170 0.67118007 193 188 186
-0.28455588 0.02853867 0.66853237 175 173 167
0.78381580 0.04736206 1.10947931 111 85 77
0.77872950 0.04682559 1.09691238 115 87 78
0.78443336 0.04705401 1.10226321 116 86 76
0.78890407 0.04720753 1.10585940 113 83 73
0.79081547 0.04720753 1.10585940 111 81 71
0.79402214 0.04728467 1.10766637 112 82 72
0.79463822 0.04720753 1.10585940 112 81 73
0.79395920 0.04705401 1.10226321 113 81 74
1.19307160 0.04500500 1.05426419 164 170 176
1.19303846 0.04493512 1.05262709 165 171 177
1.19858015 0.04507510 1.05590630 168 173 180
1.19853830 0.04500500 1.05426419 171 177 184
1.20036054 0.04500500 1.05426419 168 175 181
1.20593369 0.04514542 1.05755353 163 171 177
1.21154177 0.04528672 1.06086361 157 165 171
1.21337533 0.04528672 1.06086361 156 166 171
1.21711361 0.04535771 1.06252635 159 169 174
1.21514094 0.04521596 1.05920601 164 174 179
1.21697164 0.04521596 1.05920601 158 168 173
1.21690106 0.04514542 1.05755353 159 169 174
1.21305156 0.04493512 1.05262709 162 172 177
1.21110976 0.04479600 1.04936814 166 175 180
1.21292353 0.04479600 1.04936814 169 177 183
1.20726192 0.04452033 1.04291058 169 176 182
-0.30218646 0.02972349 0.66919231 190 190 190
-0.30132729 0.02975286 0.66985363 192 193 193
-0.30076391 0.02981178 0.67118007 192 192 192
-0.29901171 0.02975286 0.66985363 198 198 198
-0.29844373 0.02981178 0.67118007 203 203 203
-0.29787350 0.02987093 0.67251176 195 195 195
-0.29641703 0.02984133 0.67184526 185 185 184
-0.29496348 0.02981178 0.67118007 186 186 185
-0.29322276 0.02975286 0.66985363 187 187 186
-0.29439217 0.02998994 0.67519110 188 186 185
-0.29351750 0.03001984 0.67586422 189 185 184
-0.29147753 0.02993032 0.67384875 192 187 187
-0.29089114 0.02998994 0.67519110 196 191 190
-0.28943583 0.02996010 0.67451924 195 194 188
-0.28655919 0.02978229 0.67051619 187 186 180
0.78890407 0.04911892 1.10585940 114 83 76
0.79210764 0.04919918 1.10766637 113 83 77
0.79402214 0.04919918 1.10766637 113 82 77
0.79593664 0.04919918 1.10766637 112 81 77
0.79395920 0.04895918 1.10226321 113 80 77
1.19118881 0.04668201 1.05099511 172 179 183
1.19485784 0.04675450 1.05262709 170 177 183
1.19667721 0.04675450 1.05262709 169 176 182
1.20218265 0.04682721 1.05426419 162 170 175
1.20776153 0.04697332 1.05755353 151 159 165
1.20958948 0.04697332 1.05755353 152 161 166
1.21520889 0.04712034 1.06086361 156 165 171
1.21135545 0.04690015 1.05590630 163 172 178
1.21318054 0.04690015 1.05590630 161 169 175
1.21311593 0.04682721 1.05426419 161 169 175
1.21117091 0.04668201 1.05099511 163 170 176
1.20540750 0.04625176 1.04130852 169 175 181
-0.30188847 0.03084968 0.66853237 188 189 189
-0.30073294 0.03084968 0.66853237 197 198 198
-0.30016950 0.03091065 0.66985363 204 205 205
-0.29871655 0.03088014 0.66919231 205 206 206
-0.29698959 0.03094123 0.67051619 198 198 199
-0.29583064 0.03094123 0.67051619 182 183 185
-0.29438055 0.03091065 0.66985363 186 186 188
-0.29293329 0.03088014 0.66919231 183 183 184
-0.29409924 0.03112595 0.67451924 178 177 177
-0.29351750 0.03118801 0.67586422 183 179 178
-0.29147753 0.03109501 0.67384875 189 185 183
-0.29031283 0.03109501 0.67384875 192 188 185
-0.28914812 0.03109501 0.67384875 188 187 179
-0.28627601 0.03091065 0.66985363 176 176 167
0.79019314 0.05111369 1.10766637 116 85 83
0.79210764 0.05111369 1.10766637 114 84 81
0.79402214 0.05111369 1.10766637 113 82 79
0.79593664 0.05111369 1.10766637 112 81 78
0.79395920 0.05086436 1.10226321 112 81 78
1.19297230 0.04842350 1.04936814 164 170 173
1.20031595 0.04857388 1.05262709 164 171 175
1.20400488 0.04864942 1.05426419 155 162 167
1.20395470 0.04857388 1.05262709 152 158 163
1.21141732 0.04880121 1.05755353 154 160 166
1.20759344 0.04857388 1.05262709 163 169 175
1.20753777 0.04849857 1.05099511 172 177 183
1.20935440 0.04849857 1.05099511 175 179 186
1.20551145 0.04819966 1.04451752 173 176 182
1.20355868 0.04797788 1.03971136 176 178 185
1.20906460 0.04812551 1.04291058 175 177 181
-0.29379991 0.03200519 0.66853237 179 179 181
-0.29322517 0.03232396 0.67519110 183 178 173
-0.29089919 0.03219569 0.67251176 190 185 180
-0.28944966 0.03216379 0.67184526 191 185 180
-0.28828841 0.03216379 0.67184526 183 180 172
-0.28599343 0.03203678 0.66919231 165 162 154
0.79081547 0.05294169 1.10585940 110 82 79
0.79272687 0.05294169 1.10585940 109 81 78
0.79463822 0.05294169 1.10585940 110 82 79
0.79395920 0.05276953 1.10226321 110 82 79
1.18929029 0.05008219 1.04612935 163 168 172
1.19659984 0.05023725 1.04936814 170 175 179
1.20027161 0.05031513 1.05099511 165 169 174
1.20022726 0.05023725 1.04936814 158 162 166
1.20764935 0.05047163 1.05426419 154 157 162
1.20572126 0.05031513 1.05099511 159 162 167
1.20566857 0.05023725 1.04936814 173 176 181
1.20561600 0.05015960 1.04774630 181 183 188
1.20365679 0.04992809 1.04291058 177 178 184
1.20171559 0.04969871 1.03811920 178 178 183
-0.29264221 0.03342440 0.67384875 187 182 175
-0.29032314 0.03329202 0.67118007 191 184 178
-0.28916308 0.03329202 0.67118007 190 182 176
-0.28771812 0.03325909 0.67051619 180 176 169
-0.28571138 0.03316069 0.66853237 158 155 147
0.79014885 0.05467470 1.10226321 107 83 78
0.79334402 0.05476375 1.10405838 107 84 78
0.79138559 0.05449747 1.09869015 107 84 78
1.18929029 0.05189034 1.04612935 170 176 177
1.19109845 0.05189034 1.04612935 172 177 179
1.19290662 0.05189034 1.04612935 178 183 186
1.19656134 0.05197054 1.04774630 174 179 182
1.19652295 0.05189034 1.04612935 167 171 174
1.20390463 0.05213169 1.05099511 160 164 166
1.20199418 0.05197054 1.04774630 161 165 167
1.20194733 0.05189034 1.04612935 172 174 177
1.20375550 0.05189034 1.04612935 181 182 185
1.20185423 0.05173068 1.04291058 178 179 182
1.20180786 0.05165121 1.04130852 174 175 178
1.20176160 0.05157200 1.03971136 173 173 176
1.19987810 0.05141428 1.03653193 177 177 180
-0.29206157 0.03452046 0.67251176 190 185 178
-0.29003599 0.03441802 0.67051619 192 185 179
-0.28859159 0.03438401 0.66985363 188 180 174
-0.28715006 0.03435007 0.66919231 173 167 161
-0.28514895 0.03424864 0.66721636 160 155 148
0.79402214 0.05685722 1.10766637 105 84 76
0.79593664 0.05685722 1.10766637 105 84 76
0.79267031 0.05648802 1.10047376 107 84 76
1.18745780 0.05361575 1.04451752 177 183 183
1.18926311 0.05361575 1.04451752 178 184 185
1.19106853 0.05361575 1.04451752 181 187 188
1.19471478 0.05369849 1.04612935 179 185 186
1.19467926 0.05361575 1.04451752 175 180 181
1.20204103 0.05386474 1.04936814 170 173 174
1.20013916 0.05369849 1.04612935 167 170 171
1.20009530 0.05361575 1.04451752 168 169 171
1.20005167 0.05353326 1.04291058 169 170 173
1.20000803 0.05345103 1.04130852 167 167 170
1.19996464 0.05336905 1.03971136 169 169 171
1.20176160 0.05336905 1.03971136 174 174 176
1.19987810 0.05320584 1.03653193 180 180 182
0.80188376 0.05935363 1.11863339 109 89 78
0.80117309 0.05915839 1.11495364 105 85 74
0.79395920 0.05848505 1.10226321 105 85 74
1.20390463 0.05576481 1.05099511 171 172 175
1.20199418 0.05559243 1.04774630 167 168 171
1.20009530 0.05542111 1.04451752 162 163 166
1.20190072 0.05542111 1.04451752 157 157 161
1.20000803 0.05525085 1.04130852 156 156 160
1.20180786 0.05525085 1.04130852 163 163 168
0.80453902 0.06149004 1.12233746 108 88 78
0.80381721 0.06128710 1.11863339 106 85 76
0.79654962 0.06058725 1.10585940 105 85 75
0.79586440 0.06039022 1.10226321 105 84 75
0.80647886 0.06342991 1.12233746 108 87 83
0.80178148 0.06290913 1.11312294 106 85 80
0.80393016 0.06547818 1.12419879 109 83 76
0.80587322 0.06547818 1.12419879 109 84 80
0.80781633 0.06547818 1.12419879 111 86 82
0.80575067 0.06515403 1.11863339 111 87 82
0.80393016 0.06742127 1.12419879 112 86 80
0.80721188 0.06753326 1.12606621 112 86 81
0.80781633 0.06742127 1.12419879 110 84 79
0.80708253 0.06719839 1.12048233 109 84 79
0.80526561 0.06947958 1.12606621 112 86 81
0.80721188 0.06947958 1.12606621 112 86 81
0.80781633 0.06936435 1.12419879 111 85 80
0.80526561 0.07142589 1.12606621 112 86 79
0.80855501 0.07154474 1.12793982 111 85 79
0.80915821 0.07142589 1.12606621 110 84 78
0.81110454 0.07142589 1.12606621 109 84 78
0.80990261 0.07361678 1.12981975 111 84 77
0.81185538 0.07361678 1.12981975 110 84 77
-0.14388819 0.05004608 0.74822497 101 73 71
0.81397247 0.07594933 1.13549721 110 83 78
-0.15534134 0.05214510 0.75996846 108 83 69
-0.15351149 0.05197031 0.75742108 108 83 71
-0.15102118 0.05156700 0.75154305 109 84 72
-0.14791833 0.05094571 0.74248832 109 84 72
-0.14388819 0.05133933 0.74822497 101 74 72
-0.14243773 0.05128273 0.74740005 104 76 76
-0.14208584 0.05162423 0.75237721 108 80 81
-0.15499382 0.05333905 0.75826830 109 83 73
-0.15299866 0.05310146 0.75489068 109 82 73
-0.15085395 0.05280744 0.75071079 110 83 74
-0.14775649 0.05217190 0.74167597 109 84 74
-0.14599536 0.05200121 0.73924953 108 83 73
-0.14599127 0.05245887 0.74575561 106 80 73
-0.14502138 0.05257455 0.74740005 103 77 71
-0.14372955 0.05257455 0.74740005 101 75 70
-0.14181232 0.05234370 0.74411839 105 76 75
-0.14145784 0.05269073 0.74905175 109 82 81
-0.15482064 0.05458860 0.75742108 108 81 75
-0.15265866 0.05428533 0.75321317 109 82 75
-0.15068707 0.05404513 0.74988037 109 83 75
-0.14775649 0.05345382 0.74167597 108 82 74
-0.14631447 0.05339540 0.74086541 108 81 74
-0.14583084 0.05368878 0.74493611 106 79 74
-0.14470230 0.05374785 0.74575561 103 75 71
-0.14357126 0.05380704 0.74657691 102 74 70
-0.14150167 0.05351237 0.74248832 107 79 77
-0.14114591 0.05386636 0.74740005 108 80 78
-0.13985409 0.05386636 0.74740005 110 83 81
-0.15464784 0.05583535 0.75657570 102 78 70
-0.15232016 0.05546394 0.75154305 105 79 72
-0.15052056 0.05528008 0.74905175 107 81 76
-0.14759500 0.05467593 0.74086541 106 79 75
-0.14631447 0.05467593 0.74086541 107 79 75
-0.14551103 0.05485578 0.74330246 107 79 75
-0.14438461 0.05491600 0.74411839 106 78 74
-0.14325571 0.05497634 0.74493611 104 77 72
-0.14088443 0.05455668 0.73924953 104 78 71
-0.14052618 0.05491600 0.74411839 109 83 78
-0.13954638 0.05503682 0.74575561 110 83 79
1.12669611 0.07314105 0.99106997 173 182 184
-0.15265866 0.05688906 0.75321317 100 76 71
-0.15052056 0.05657476 0.74905175 102 76 71
-0.14743388 0.05589537 0.74005657 102 76 71
-0.14599536 0.05583441 0.73924953 102 76 71
