ply
format ascii 1.0
element vertex 1036
property float x
property float y
property float z
property uchar red
property uchar green
property uchar blue
end_header
0.14406027 -0.27413726 0.61403245 156 156 158
0.14512157 -0.27413726 0.61403245 158 158 160
0.14618288 -0.27413726 0.61403245 167 167 169
0.14724419 -0.27413726 0.61403245 164 164 166
0.14857465 -0.27463481 0.61514688 162 162 164
0.14963788 -0.27463481 0.61514688 156 158 160
0.15029196 -0.27388918 0.61347675 149 151 153
0.37880081 -0.61639011 1.38063514 149 149 149
0.38118714 -0.61639011 1.38063514 162 162 162
0.38753834 -0.61891115 1.38628185 164 166 167
0.39233050 -0.61891115 1.38628185 169 171 171
0.39392102 -0.61764807 1.38345277 170 173 172
0.39631218 -0.61764807 1.38345277 167 168 168
0.39951873 -0.61891115 1.38628185 164 166 166
1.18359590 -0.64945823 1.45470357 175 179 180
1.18611026 -0.64945823 1.45470357 178 182 183
1.18607938 -0.64806753 1.45158851 179 183 184
1.18604863 -0.64668280 1.44848680 178 182 183
1.18601799 -0.64530396 1.44539833 177 184 184
-0.42121553 -0.30421379 0.68404830 180 181 181
-0.41918722 -0.30360109 0.68267053 182 183 183
-0.41716707 -0.30299082 0.68129832 185 185 185
-0.41640800 -0.30329564 0.68198377 184 184 184
-0.41439545 -0.30268660 0.68061429 178 179 179
-0.41321906 -0.30268660 0.68061429 178 179 179
-0.41162941 -0.30238301 0.67993164 184 185 185
-0.41127923 -0.30299082 0.68129832 187 188 188
-0.40968990 -0.30268660 0.68061429 183 185 184
-0.40892410 -0.30299082 0.68129832 180 183 182
-0.40733713 -0.30268660 0.68061429 181 183 183
0.13638406 -0.27258214 0.61292207 130 130 135
0.13731928 -0.27233592 0.61236840 154 153 159
0.13837771 -0.27233592 0.61236840 162 162 166
0.13943614 -0.27233592 0.61236840 163 164 166
0.14049457 -0.27233592 0.61236840 156 156 157
0.14168099 -0.27258214 0.61292207 154 154 155
0.14286955 -0.27282885 0.61347675 156 156 158
0.14392990 -0.27282885 0.61347675 158 158 160
0.14499025 -0.27282885 0.61347675 160 160 162
0.14605059 -0.27282885 0.61347675 167 167 169
0.14711094 -0.27282885 0.61347675 160 160 162
0.14857465 -0.27357158 0.61514688 161 161 163
0.14963788 -0.27357158 0.61514688 159 160 162
0.15042810 -0.27307597 0.61403245 155 156 158
0.38041237 -0.61275584 1.37782896 162 161 161
0.38753834 -0.61651504 1.38628185 162 164 164
0.38993442 -0.61651504 1.38628185 165 169 169
0.39233050 -0.61651504 1.38628185 166 170 169
0.39472657 -0.61651504 1.38628185 170 174 173
0.39631218 -0.61525685 1.38345277 165 169 168
1.16850996 -0.64694393 1.45470357 173 174 174
1.16851664 -0.64555860 1.45158851 173 173 173
1.17353463 -0.64555860 1.45158851 172 172 172
1.18362153 -0.64833522 1.45783186 175 179 178
1.18359590 -0.64694393 1.45470357 180 184 183
1.18357038 -0.64555860 1.45158851 181 185 184
1.18607938 -0.64555860 1.45158851 179 183 183
1.18351972 -0.64280570 1.44539833 178 182 182
1.18349457 -0.64143801 1.44232309 167 176 174
1.17348063 -0.62676895 1.40933859 167 173 173
1.17836642 -0.62807471 1.41227472 169 175 175
1.17835248 -0.62676895 1.40933859 170 177 177
-0.42036718 -0.30242112 0.68267053 185 185 185
-0.41834465 -0.30181324 0.68129832 184 185 185
-0.41674823 -0.30151021 0.68061429 184 185 185
-0.41557184 -0.30151021 0.68061429 183 183 183
-0.41397983 -0.30120781 0.67993164 180 180 180
-0.41080531 -0.30060479 0.67857039 182 183 183
-0.41045418 -0.30120781 0.67993164 185 189 188
-0.40886888 -0.30090600 0.67925036 186 189 189
-0.40810379 -0.30120781 0.67993164 184 188 187
-0.40652084 -0.30090600 0.67925036 182 186 185
0.13626085 -0.27127749 0.61236840 139 139 143
0.13719535 -0.27103266 0.61181575 155 155 159
0.13825282 -0.27103266 0.61181575 151 153 156
0.13931030 -0.27103266 0.61181575 147 151 152
0.14049457 -0.27127749 0.61236840 144 146 148
0.14168099 -0.27152276 0.61292207 153 153 155
0.14286955 -0.27176848 0.61347675 158 158 159
0.14392990 -0.27176848 0.61347675 160 160 160
0.14499025 -0.27176848 0.61347675 164 164 164
0.14591853 -0.27152276 0.61292207 170 170 170
0.14711094 -0.27176848 0.61347675 161 161 161
0.14963788 -0.27250832 0.61514688 156 157 158
0.15056448 -0.27226126 0.61458915 155 156 158
0.37964073 -0.60913628 1.37503421 160 159 159
0.38514227 -0.61411899 1.38628185 159 158 157
0.38753834 -0.61411899 1.38628185 160 161 160
0.38993442 -0.61411899 1.38628185 164 166 166
0.39233050 -0.61411899 1.38628185 164 168 167
0.39472657 -0.61411899 1.38628185 163 167 166
0.39712265 -0.61411899 1.38628185 155 158 158
0.39951873 -0.61411899 1.38628185 151 152 153
1.15845251 -0.64442956 1.45470357 169 169 169
1.16096687 -0.64442956 1.45470357 172 172 172
1.16598332 -0.64581543 1.45783186 172 172 172
1.16850305 -0.64581543 1.45783186 170 171 171
1.17354655 -0.64720732 1.46097374 171 172 172
1.17354262 -0.64581543 1.45783186 173 174 174
1.17606235 -0.64581543 1.45783186 172 173 173
1.17605293 -0.64442956 1.45470357 174 175 175
1.18617249 -0.64720732 1.46097374 183 185 184
1.18359590 -0.64442956 1.45470357 185 186 186
1.18611026 -0.64442956 1.45470357 181 183 183
1.18607938 -0.64304966 1.45158851 176 179 178
1.18604863 -0.64167559 1.44848680 170 173 172
1.18601799 -0.64030743 1.44539833 151 160 158
1.18346941 -0.63758850 1.43926084 148 157 156
1.17348444 -0.62563372 1.41227472 166 175 174
1.17104602 -0.62303776 1.40641463 165 174 174
1.17591655 -0.62433302 1.40933859 168 177 176
1.17347324 -0.62174779 1.40350282 170 179 178
-0.41994426 -0.30093813 0.68198377 182 183 183
-0.41792461 -0.30033383 0.68061429 182 182 182
-0.41633022 -0.30003262 0.67993164 180 181 181
-0.41515502 -0.30003262 0.67993164 178 178 178
-0.41356501 -0.29973197 0.67925036 180 180 180
-0.41080531 -0.29943195 0.67857039 178 178 178
-0.40845960 -0.29943195 0.67857039 186 190 189
-0.40810379 -0.30003262 0.67993164 186 190 189
-0.40652084 -0.29973197 0.67925036 185 189 188
0.13613787 -0.26997519 0.61181575 140 140 143
0.13719535 -0.26997519 0.61181575 145 145 147
0.13825282 -0.26997519 0.61181575 141 142 144
0.13931030 -0.26997519 0.61181575 151 152 154
0.14036778 -0.26997519 0.61181575 154 155 157
0.14168099 -0.27046338 0.61292207 159 159 161
0.14274038 -0.27046338 0.61292207 162 162 162
0.14379977 -0.27046338 0.61292207 163 163 162
0.14499025 -0.27070814 0.61347675 164 164 162
0.14591853 -0.27046338 0.61292207 169 169 169
0.37887225 -0.60553139 1.37225068 157 156 154
0.38435626 -0.61047453 1.38345277 159 158 155
0.38753834 -0.61172289 1.38628185 162 162 161
0.38913864 -0.61047453 1.38345277 165 165 165
0.39233050 -0.61172289 1.38628185 161 162 162
0.39472657 -0.61172289 1.38628185 159 160 160
0.39712265 -0.61172289 1.38628185 152 152 154
0.39951873 -0.61172289 1.38628185 153 153 155
0.40273839 -0.61297643 1.38912261 157 157 159
1.15845251 -0.64191526 1.45470357 165 165 164
1.16096687 -0.64191526 1.45470357 161 161 160
1.16598332 -0.64329571 1.45783186 160 160 160
1.17102146 -0.64468211 1.46097374 165 166 166
1.17354655 -0.64468211 1.46097374 170 171 171
1.17607176 -0.64468211 1.46097374 174 175 175
1.17859697 -0.64468211 1.46097374 173 173 173
1.17858207 -0.64329571 1.45783186 174 175 175
1.17856729 -0.64191526 1.45470357 180 180 180
1.18617249 -0.64468211 1.46097374 185 186 186
1.18359590 -0.64191526 1.45470357 181 181 181
1.18611026 -0.64191526 1.45470357 175 176 176
1.18607938 -0.64054072 1.45158851 169 170 170
1.18604863 -0.63917202 1.44848680 162 165 165
1.18601799 -0.63780916 1.44539833 151 159 162
1.18346941 -0.63510084 1.43926084 157 165 169
1.17843676 -0.62975264 1.42714071 167 175 178
1.16860878 -0.62189710 1.40933859 164 172 173
1.17348444 -0.62319273 1.41227472 163 172 173
1.17104602 -0.62060684 1.40641463 164 173 173
1.17347693 -0.62060684 1.40641463 166 175 174
-0.41591308 -0.29855794 0.67925036 179 179 179
-0.40963247 -0.29825908 0.67857039 183 183 183
-0.40805116 -0.29796082 0.67789185 186 187 187
-0.40611389 -0.29825908 0.67857039 186 190 189
0.13707164 -0.26867524 0.61126405 147 148 151
0.13812816 -0.26867524 0.61126405 156 157 160
0.13918468 -0.26867524 0.61126405 158 159 161
0.14036778 -0.26891771 0.61181575 159 160 162
0.14155300 -0.26916063 0.61236840 162 163 164
0.14274038 -0.26940399 0.61292207 163 164 166
0.14366986 -0.26916063 0.61236840 164 165 165
0.37726411 -0.60438299 1.37503421 155 155 153
0.37887225 -0.60315955 1.37225068 157 156 154
0.39233050 -0.60932684 1.38628185 164 164 164
0.39392102 -0.60808331 1.38345277 164 164 165
0.39631218 -0.60808331 1.38345277 163 164 166
0.39951873 -0.60932684 1.38628185 164 165 167
0.40273839 -0.61057544 1.38912261 162 162 164
0.40680662 -0.61308813 1.39483917 161 161 161
0.40921748 -0.61308813 1.39483917 159 158 158
1.15597188 -0.63803172 1.45158851 163 163 161
1.15600550 -0.63666844 1.44848680 166 166 166
1.16098988 -0.63803172 1.45158851 169 169 169
1.16850305 -0.64077598 1.45783186 169 169 169
1.17102277 -0.64077598 1.45783186 170 170 170
1.17354262 -0.64077598 1.45783186 169 169 169
1.17859697 -0.64215696 1.46097374 160 160 160
1.17858207 -0.64077598 1.45783186 168 168 168
1.17856729 -0.63940090 1.45470357 177 177 177
1.18617249 -0.64215696 1.46097374 181 181 181
1.18359590 -0.63940090 1.45470357 175 175 175
1.18357038 -0.63803172 1.45158851 167 168 168
1.18607938 -0.63803172 1.45158851 164 165 166
1.18604863 -0.63666844 1.44848680 163 167 168
1.18601799 -0.63531095 1.44539833 159 168 170
1.18346941 -0.63261324 1.43926084 162 171 172
1.17843676 -0.62728596 1.42714071 165 174 175
1.17349195 -0.62334901 1.41818380 162 171 172
1.16618431 -0.61817598 1.40641463 163 172 173
1.17348444 -0.62075174 1.41227472 163 172 173
1.17104602 -0.61817598 1.40641463 164 172 172
1.17347693 -0.61817598 1.40641463 165 174 173
0.13589258 -0.26737761 0.61071336 140 141 143
0.13694815 -0.26737761 0.61071336 156 157 161
0.13800372 -0.26737761 0.61071336 166 166 170
0.13905929 -0.26737761 0.61071336 166 167 171
0.14024121 -0.26761872 0.61126405 163 164 166
0.14142525 -0.26786023 0.61181575 160 161 162
0.14261143 -0.26810220 0.61236840 167 167 165
0.14354020 -0.26786023 0.61181575 169 169 167
0.37251085 -0.60200638 1.37503421 160 162 161
0.37488747 -0.60200638 1.37503421 162 163 161
0.37650043 -0.60078776 1.37225068 153 152 150
0.37810683 -0.59957403 1.36947846 161 160 158
0.39233050 -0.60693073 1.38628185 167 167 167
0.39392102 -0.60569215 1.38345277 163 164 165
0.39712265 -0.60693073 1.38628185 162 163 165
0.40033740 -0.60817444 1.38912261 160 161 162
0.40356538 -0.60942328 1.39197505 159 159 159
0.40764540 -0.61193639 1.39771509 158 158 158
0.40921748 -0.61067724 1.39483917 157 157 157
1.15108633 -0.63146627 1.44232309 168 168 168
1.15850914 -0.63416481 1.44848680 171 171 171
1.16349876 -0.63552278 1.45158851 168 168 168
1.16850996 -0.63688660 1.45470357 165 165 165
1.17102420 -0.63688660 1.45470357 162 162 162
1.17606235 -0.63825619 1.45783186 158 158 158
1.17858207 -0.63825619 1.45783186 165 165 166
1.17856729 -0.63688660 1.45470357 169 170 170
1.18362153 -0.63825619 1.45783186 169 169 170
1.18106151 -0.63552278 1.45158851 165 165 167
1.18357038 -0.63552278 1.45158851 159 160 162
1.18607938 -0.63552278 1.45158851 163 165 167
1.18604863 -0.63416481 1.44848680 163 169 170
1.18349457 -0.63146627 1.44232309 163 172 173
1.18346941 -0.63012558 1.43926084 167 176 177
1.17349195 -0.62089777 1.41818380 161 168 169
1.16618431 -0.61574513 1.40641463 163 169 170
1.17348444 -0.61831069 1.41227472 162 168 168
1.17104602 -0.61574513 1.40641463 165 171 170
1.17347693 -0.61574513 1.40641463 167 174 173
1.17828393 -0.61067724 1.39483917 168 177 174
1.17827034 -0.60942328 1.39197505 164 169 167
1.17821670 -0.60445851 1.38063514 158 158 160
1.17581344 -0.60200638 1.37503421 153 154 155
0.13577028 -0.26608232 0.61016369 153 154 156
0.13682489 -0.26608232 0.61016369 154 155 159
0.13787951 -0.26608232 0.61016369 151 152 156
0.13893412 -0.26608232 0.61016369 158 159 163
0.14011486 -0.26632205 0.61071336 164 164 166
0.14129773 -0.26656219 0.61126405 161 161 163
0.14235425 -0.26656219 0.61126405 169 169 167
0.14341077 -0.26656219 0.61126405 165 165 161
0.37337276 -0.59720701 1.36947846 153 153 153
0.37498227 -0.59600294 1.36671746 150 149 147
0.37658527 -0.59480375 1.36396754 160 159 158
0.39152983 -0.60330093 1.38345277 159 160 162
0.39392102 -0.60330093 1.38345277 155 156 158
0.39712265 -0.60453469 1.38628185 155 156 158
0.40033740 -0.60577351 1.38912261 158 158 159
0.40356538 -0.60701740 1.39197505 155 155 157
0.40764540 -0.60952055 1.39771509 155 155 156
0.41006124 -0.60952055 1.39771509 157 157 157
0.89303559 -0.68748248 1.57649267 156 156 158
1.16351628 -0.63166124 1.44848680 166 166 166
1.16601992 -0.63166124 1.44848680 163 163 164
1.17353857 -0.63437223 1.45470357 163 164 166
1.17353463 -0.63301384 1.45158851 163 164 166
1.17353070 -0.63166124 1.44848680 167 168 170
1.17855251 -0.63301384 1.45158851 169 170 173
1.17853785 -0.63166124 1.44848680 168 169 173
1.18104136 -0.63166124 1.44848680 158 163 165
1.18102145 -0.63031441 1.44539833 159 163 166
1.18100154 -0.62897331 1.44232309 159 166 168
1.18098176 -0.62763792 1.43926084 164 171 172
1.17349577 -0.61974311 1.42115688 166 171 170
1.16860235 -0.61586970 1.41227472 166 170 170
1.16376984 -0.61204445 1.40350282 167 172 171
1.17104471 -0.61458933 1.40933859 169 173 172
1.16862154 -0.61204445 1.40350282 168 172 171
1.17347693 -0.61331421 1.40641463 168 172 171
1.17104864 -0.61077988 1.40060294 169 173 172
1.17346954 -0.61077988 1.40060294 169 175 173
1.17346585 -0.60952055 1.39771509 170 176 174
1.18073201 -0.61077988 1.40060294 174 183 181
1.17828393 -0.60826635 1.39483917 168 177 176
1.17827034 -0.60701740 1.39197505 168 172 173
1.17825687 -0.60577351 1.38912261 165 166 168
1.18065774 -0.60577351 1.38912261 161 161 163
1.18063939 -0.60453469 1.38628185 159 159 161
1.18062115 -0.60330093 1.38345277 162 162 164
1.18060291 -0.60207224 1.38063514 166 168 170
0.13564818 -0.26478937 0.60961497 165 164 166
0.13670185 -0.26478937 0.60961497 153 153 156
0.13775551 -0.26478937 0.60961497 149 149 152
0.13880919 -0.26478937 0.60961497 159 159 162
0.13986285 -0.26478937 0.60961497 164 164 164
0.14104337 -0.26502770 0.61016369 169 169 169
0.14222600 -0.26526648 0.61071336 172 172 170
0.14328156 -0.26526648 0.61071336 161 161 158
0.37112355 -0.59125656 1.36122859 135 132 133
0.37272787 -0.59007168 1.35850072 142 139 140
0.37507594 -0.59007168 1.35850072 160 157 158
0.37970680 -0.59364069 1.36671746 169 168 166
0.89303559 -0.68475765 1.57649267 145 146 148
0.89576042 -0.68475765 1.57649267 146 147 151
0.90162545 -0.67688686 1.55837202 171 171 173
0.90431899 -0.67688686 1.55837202 165 165 166
1.16103542 -0.62781614 1.44539833 162 162 162
1.16353369 -0.62781614 1.44539833 162 163 163
1.16852343 -0.62915766 1.44848680 168 169 171
1.17102706 -0.62915766 1.44848680 172 173 176
1.17353070 -0.62915766 1.44848680 171 173 177
1.17603421 -0.62915766 1.44848680 171 174 178
1.17602491 -0.62781614 1.44539833 168 173 175
1.17852318 -0.62781614 1.44539833 159 165 167
1.17850864 -0.62648040 1.44232309 156 162 164
1.17349577 -0.61728674 1.42115688 169 173 172
1.16860235 -0.61342871 1.41227472 171 175 174
1.16376984 -0.60961860 1.40350282 174 178 177
1.17348444 -0.61342871 1.41227472 174 178 177
1.17104602 -0.61088336 1.40641463 167 170 170
1.17347693 -0.61088336 1.40641463 167 169 169
1.17104864 -0.60835904 1.40060294 170 172 172
1.17346954 -0.60835904 1.40060294 170 176 174
1.17346585 -0.60710472 1.39771509 170 175 174
1.17588162 -0.60710472 1.39771509 172 179 178
1.18073201 -0.60835904 1.40060294 174 180 180
1.17828393 -0.60585552 1.39483917 170 175 176
1.18069470 -0.60585552 1.39483917 169 170 172
1.18067622 -0.60461146 1.39197505 166 167 168
1.18065774 -0.60337251 1.38912261 163 164 166
1.18305874 -0.60337251 1.38912261 161 163 164
1.18062115 -0.60090977 1.38345277 166 169 170
1.18060291 -0.59968591 1.38063514 168 173 173
0.14354177 -0.72235000 1.66968429 164 163 163
0.13657902 -0.26349875 0.60906726 158 158 158
0.13855998 -0.26326221 0.60852051 163 163 164
0.13961175 -0.26326221 0.60852051 165 165 165
0.14091653 -0.26373571 0.60961497 170 170 170
0.14209798 -0.26397309 0.61016369 172 172 172
0.14302386 -0.26373571 0.60961497 166 167 163
0.37198240 -0.58654821 1.35578370 151 145 147
0.37357861 -0.58537745 1.35307753 164 160 161
0.88766879 -0.68843687 1.59129536 164 165 167
0.88833392 -0.68682456 1.58756876 161 161 163
0.88899595 -0.68521988 1.58385944 157 157 159
0.89173353 -0.68521988 1.58385944 149 149 151
0.89031076 -0.68203276 1.57649267 145 146 147
0.89096355 -0.68045032 1.57283485 150 151 152
0.89368206 -0.68045032 1.57283485 153 154 158
0.89432561 -0.67887521 1.56919408 143 144 148
0.89703780 -0.67887521 1.56919408 141 142 146
0.89767212 -0.67730737 1.56557012 156 157 161
0.90037805 -0.67730737 1.56557012 152 153 156
0.89893192 -0.67419332 1.55837202 161 162 164
0.90162545 -0.67419332 1.55837202 173 173 173
0.90640265 -0.67574680 1.56196272 166 166 166
0.90701246 -0.67419332 1.55837202 163 163 163
1.15856516 -0.62398744 1.44232309 162 163 163
1.17352664 -0.62531793 1.44539833 170 176 178
1.17352283 -0.62398744 1.44232309 166 172 174
1.17601573 -0.62398744 1.44232309 160 166 168
1.17850864 -0.62398744 1.44232309 159 164 167
1.17597914 -0.61872172 1.43015158 170 174 174
1.17104077 -0.61354417 1.41818380 172 175 175
1.16617286 -0.60971749 1.40933859 173 176 176
1.16136539 -0.60593820 1.40060294 170 174 173
1.17104471 -0.60971749 1.40933859 163 167 166
1.17104602 -0.60845250 1.40641463 162 163 164
1.17347693 -0.60845250 1.40641463 166 167 168
1.17104864 -0.60593820 1.40060294 170 172 173
1.17346954 -0.60593820 1.40060294 171 175 176
1.17105126 -0.60344464 1.39483917 168 172 174
1.17588162 -0.60468888 1.39771509 172 176 178
1.18073201 -0.60593820 1.40060294 172 176 177
1.17828393 -0.60344464 1.39483917 169 173 174
1.18069470 -0.60344464 1.39483917 168 172 173
1.18067622 -0.60220551 1.39197505 167 171 172
1.18308210 -0.60220551 1.39197505 164 169 170
1.18305874 -0.60097152 1.38912261 163 170 168
1.18062115 -0.59851855 1.38345277 165 173 171
0.12364492 -0.72124052 1.67380702 175 175 174
0.12685117 -0.72302580 1.67795014 178 178 175
0.12911220 -0.71946406 1.66968429 177 177 176
0.14100316 -0.72124052 1.67380702 166 163 162
0.14354177 -0.71946406 1.66968429 164 161 161
0.15145344 -0.71593732 1.66149962 150 146 150
0.13633403 -0.26197526 0.60797477 159 159 159
0.13818784 -0.26150620 0.60688615 164 164 164
0.13923679 -0.26150620 0.60688615 165 165 165
0.14066353 -0.26221043 0.60852051 168 168 169
0.14184263 -0.26244602 0.60906726 172 172 172
0.14289536 -0.26244602 0.60906726 173 173 170
0.14394809 -0.26244602 0.60906726 172 172 169
0.14487065 -0.26221043 0.60852051 173 173 169
0.14592242 -0.26221043 0.60852051 167 167 163
0.88909250 -0.68892080 1.59880149 167 167 168
0.88975739 -0.68729979 1.59503961 163 162 162
0.89041919 -0.68568641 1.59129536 158 157 157
0.89107788 -0.68408060 1.58756876 153 152 153
0.89382190 -0.68408060 1.58756876 154 153 153
0.89447105 -0.68248230 1.58385944 157 157 157
0.89511722 -0.68089139 1.58016741 163 163 165
0.89994621 -0.68248230 1.58385944 161 161 165
0.90057963 -0.68089139 1.58016741 140 141 145
0.90331084 -0.68089139 1.58016741 125 126 130
0.90393496 -0.67930794 1.57649267 125 126 130
0.90665978 -0.67930794 1.57649267 129 130 134
0.90727466 -0.67773181 1.57283485 158 159 163
1.17350721 -0.61624980 1.43015158 161 165 166
1.17103803 -0.61366051 1.42414248 165 167 169
1.16614985 -0.60981715 1.41522300 178 179 181
1.16373694 -0.60728151 1.40933859 177 178 180
1.16134405 -0.60476691 1.40350282 174 177 179
1.15897083 -0.60227305 1.39771509 165 169 172
1.16619563 -0.60476691 1.40350282 156 159 162
1.16862154 -0.60476691 1.40350282 162 164 166
1.17104733 -0.60476691 1.40350282 170 173 174
1.17104864 -0.60351741 1.40060294 177 180 182
1.17104995 -0.60227305 1.39771509 180 184 187
1.16864669 -0.59979963 1.39197505 176 180 183
1.17346215 -0.60103381 1.39483917 170 174 175
1.17829752 -0.60227305 1.39771509 164 168 169
1.17586446 -0.59979963 1.39197505 161 165 166
1.18069470 -0.60103381 1.39483917 166 170 171
1.18067622 -0.59979963 1.39197505 166 170 170
1.18308210 -0.59979963 1.39197505 165 170 169
1.18548810 -0.59979963 1.39197505 164 172 169
0.11756855 -0.71657819 1.66968429 183 182 186
0.12075188 -0.71834749 1.67380702 181 181 181
0.12364492 -0.71834749 1.67380702 176 176 176
0.12653796 -0.71834749 1.67380702 175 175 174
0.12911220 -0.71657819 1.66968429 163 163 163
0.13232404 -0.71834749 1.67380702 164 164 164
0.13521709 -0.71834749 1.67380702 165 165 165
0.13811012 -0.71834749 1.67380702 172 168 169
0.14100316 -0.71834749 1.67380702 167 163 164
0.14354177 -0.71657819 1.66968429 166 162 163
0.14606792 -0.71481752 1.66558194 164 162 162
0.14894673 -0.71481752 1.66558194 164 163 163
0.15145344 -0.71306551 1.66149962 167 163 164
0.15432520 -0.71306551 1.66149962 153 149 151
0.15758321 -0.71481752 1.66558194 147 143 145
0.13608994 -0.26045725 0.60688615 158 159 160
0.13794085 -0.25999174 0.60580146 163 164 166
0.13898793 -0.25999174 0.60580146 164 165 167
0.14028575 -0.26045725 0.60688615 166 167 168
0.14158821 -0.26092443 0.60797477 174 174 174
0.14251123 -0.26069063 0.60742998 178 178 175
0.14474072 -0.26092443 0.60797477 167 167 163
0.14566092 -0.26069063 0.60742998 167 167 163
0.14697421 -0.26115865 0.60852051 165 165 161
0.14789322 -0.26092443 0.60797477 157 157 158
0.88909250 -0.68615741 1.59880149 169 166 167
0.88975739 -0.68454289 1.59503961 165 161 162
0.89251429 -0.68454289 1.59503961 161 158 159
0.89316964 -0.68293601 1.59129536 159 155 156
0.89592004 -0.68293601 1.59129536 160 159 159
0.89656585 -0.68133664 1.58756876 163 163 163
0.89720863 -0.67974472 1.58385944 161 161 163
0.90205383 -0.68133664 1.58756876 139 139 143
0.90268379 -0.67974472 1.58385944 114 115 120
0.90542138 -0.67974472 1.58385944 111 111 120
0.90604204 -0.67816025 1.58016741 115 114 126
0.91089648 -0.67974472 1.58385944 133 132 147
0.91150439 -0.67816025 1.58016741 166 165 177
1.17350721 -0.61377794 1.43015158 157 158 160
1.17103803 -0.61119902 1.42414248 166 167 169
1.16372037 -0.60610569 1.41227472 179 180 182
1.16132259 -0.60359073 1.40641463 178 178 180
1.15894449 -0.60109657 1.40060294 175 178 181
1.15658605 -0.59862292 1.39483917 167 171 174
1.16619563 -0.60234106 1.40350282 164 168 171
1.16620696 -0.60109657 1.40060294 174 178 179
1.16862786 -0.60109657 1.40060294 179 183 184
1.16863418 -0.59985721 1.39771509 181 185 186
1.16864038 -0.59862292 1.39483917 178 182 183
1.16864669 -0.59739369 1.39197505 174 178 179
1.17587304 -0.59862292 1.39483917 156 160 161
1.17345488 -0.59616953 1.38912261 156 160 160
1.17827034 -0.59739369 1.39197505 161 165 164
1.17825687 -0.59616953 1.38912261 164 168 167
0.11468263 -0.71369225 1.66968429 172 168 172
0.11756855 -0.71369225 1.66968429 188 185 187
0.12105077 -0.71722537 1.67795014 173 172 173
0.12364492 -0.71545446 1.67380702 162 162 163
0.12685117 -0.71722537 1.67795014 162 162 164
0.12943099 -0.71545446 1.67380702 161 160 162
0.13265157 -0.71722537 1.67795014 163 162 164
0.13521709 -0.71545446 1.67380702 164 163 165
0.13845198 -0.71722537 1.67795014 165 164 164
0.14135218 -0.71722537 1.67795014 165 164 164
0.14389619 -0.71545446 1.67380702 165 164 164
0.14642769 -0.71369225 1.66968429 167 166 164
0.14931360 -0.71369225 1.66968429 170 169 168
0.15145344 -0.71019375 1.66149962 170 167 168
0.15470439 -0.71193874 1.66558194 164 162 162
0.15758321 -0.71193874 1.66558194 164 162 162
0.13608994 -0.25940830 0.60688615 156 160 161
0.13701622 -0.25917625 0.60634333 164 167 169
0.13818784 -0.25940830 0.60688615 166 168 171
0.13911225 -0.25917625 0.60634333 162 163 165
0.14041145 -0.25964072 0.60742998 161 162 163
0.14158821 -0.25987360 0.60797477 173 173 172
0.14251123 -0.25964072 0.60742998 177 178 172
0.14368989 -0.25987360 0.60797477 167 168 161
0.14474072 -0.25987360 0.60797477 161 162 156
0.14579156 -0.25987360 0.60797477 165 165 160
0.14710626 -0.26034057 0.60906726 162 162 159
0.14789322 -0.25987360 0.60797477 152 151 157
0.88909250 -0.68339401 1.59880149 169 164 165
0.88975739 -0.68178600 1.59503961 168 161 164
0.89041919 -0.68018556 1.59129536 163 161 161
0.89107788 -0.67859262 1.58756876 155 154 154
0.89382190 -0.67859262 1.58756876 164 164 165
0.89447105 -0.67700714 1.58385944 169 169 171
0.89720863 -0.67700714 1.58385944 149 149 156
0.89994621 -0.67700714 1.58385944 118 117 128
0.90268379 -0.67700714 1.58385944 112 111 124
0.90542138 -0.67700714 1.58385944 110 107 123
0.90815896 -0.67700714 1.58385944 116 114 130
0.91089648 -0.67700714 1.58385944 147 146 162
0.91363406 -0.67700714 1.58385944 168 168 177
1.17103803 -0.60873753 1.42414248 168 168 170
1.16373694 -0.60240966 1.40933859 174 175 178
1.16134405 -0.59991521 1.40350282 173 176 179
1.15897083 -0.59744138 1.39771509 168 172 175
1.16378617 -0.59867573 1.40060294 171 175 177
1.16620696 -0.59867573 1.40060294 177 182 183
1.16862786 -0.59867573 1.40060294 178 184 184
1.16863418 -0.59744138 1.39771509 178 183 184
1.16864038 -0.59621203 1.39483917 177 181 182
1.16625190 -0.59376854 1.38912261 171 175 176
1.17827034 -0.59498781 1.39197505 155 159 158
0.11440086 -0.70905989 1.66558194 170 168 172
0.11727968 -0.70905989 1.66558194 186 185 187
0.12075188 -0.71256143 1.67380702 169 169 171
0.12334038 -0.71080637 1.66968429 151 151 153
0.12653796 -0.71256143 1.67380702 154 153 157
0.12943099 -0.71256143 1.67380702 164 163 166
0.13298073 -0.71609771 1.68211377 163 162 165
0.13555178 -0.71432519 1.67795014 163 162 164
0.13845198 -0.71432519 1.67795014 163 162 164
0.14135218 -0.71432519 1.67795014 165 164 166
0.14389619 -0.71256143 1.67380702 166 165 166
0.14642769 -0.71080637 1.66968429 169 169 164
0.14931360 -0.71080637 1.66968429 172 172 167
0.15145344 -0.70732200 1.66149962 163 164 159
0.13621187 -0.25859085 0.60742998 153 157 158
0.13713889 -0.25835934 0.60688615 156 160 161
0.13831165 -0.25859085 0.60742998 156 159 161
0.13936156 -0.25859085 0.60742998 156 157 158
0.14053738 -0.25882277 0.60797477 159 159 158
0.14171532 -0.25905511 0.60852051 169 169 165
0.14263904 -0.25882277 0.60797477 170 171 164
0.14487065 -0.25905511 0.60852051 167 167 163
0.14592242 -0.25905511 0.60852051 163 161 158
0.14710626 -0.25928783 0.60906726 152 149 148
0.14802597 -0.25905511 0.60852051 141 140 143
0.88700050 -0.67902911 1.59503961 169 162 165
0.88766879 -0.67743516 1.59129536 174 168 171
0.89041919 -0.67743516 1.59129536 173 172 174
0.88899595 -0.67426956 1.58385944 163 162 165
0.89382190 -0.67584866 1.58756876 170 170 176
0.89447105 -0.67426956 1.58385944 171 171 178
0.89720863 -0.67426956 1.58385944 143 142 152
0.89994621 -0.67426956 1.58385944 129 127 138
0.90268379 -0.67426956 1.58385944 117 115 129
0.90542138 -0.67426956 1.58385944 115 113 128
0.90815896 -0.67426956 1.58385944 134 134 145
0.91089648 -0.67426956 1.58385944 162 162 169
0.91363406 -0.67426956 1.58385944 164 164 168
1.16134405 -0.59748942 1.40350282 164 168 171
1.15658605 -0.59380120 1.39483917 167 171 174
1.16378617 -0.59625489 1.40060294 170 175 177
1.16380250 -0.59502554 1.39771509 169 177 177
1.16621828 -0.59502554 1.39771509 169 176 177
1.16622949 -0.59380120 1.39483917 166 170 172
1.16864038 -0.59380120 1.39483917 164 168 169
-0.34231013 -0.20618056 0.48629257 162 163 166
0.11412046 -0.70445025 1.66149962 178 178 181
0.11699223 -0.70445025 1.66149962 187 187 188
0.12045446 -0.70792043 1.66968429 177 177 179
0.12303733 -0.70618105 1.66558194 160 160 162
0.12622629 -0.70792043 1.66968429 162 161 165
0.12911220 -0.70792043 1.66968429 164 164 168
0.13298073 -0.71319032 1.68211377 162 162 166
0.13555178 -0.71142501 1.67795014 163 162 164
0.13845198 -0.71142501 1.67795014 163 162 164
0.14135218 -0.71142501 1.67795014 165 164 166
0.14389619 -0.70966840 1.67380702 166 165 166
0.14606792 -0.70618105 1.66558194 168 168 165
0.14931360 -0.70792043 1.66968429 169 169 166
0.15145344 -0.70445025 1.66149962 151 151 147
0.15739928 -0.30706805 0.72424340 172 173 173
0.15848176 -0.30674034 0.72347051 158 162 162
0.16007389 -0.30739647 0.72501802 148 150 153
0.13608994 -0.25731039 0.60688615 151 152 156
0.13818784 -0.25731039 0.60688615 153 154 156
0.13923679 -0.25731039 0.60688615 158 158 156
0.14053738 -0.25777191 0.60797477 161 161 158
0.14158821 -0.25777191 0.60797477 161 161 157
0.14263904 -0.25777191 0.60797477 160 159 155
0.14802597 -0.25800332 0.60852051 141 140 140
0.88909250 -0.67786717 1.59880149 168 166 168
0.88975739 -0.67627221 1.59503961 173 172 174
0.89041919 -0.67468470 1.59129536 168 169 173
0.88899595 -0.67153198 1.58385944 157 158 162
0.89382190 -0.67310464 1.58756876 167 169 176
0.89447105 -0.67153198 1.58385944 169 173 179
0.89720863 -0.67153198 1.58385944 154 155 164
0.89994621 -0.67153198 1.58385944 154 155 162
0.90268379 -0.67153198 1.58385944 139 140 148
0.90542138 -0.67153198 1.58385944 145 146 152
0.90815896 -0.67153198 1.58385944 157 158 162
0.91302973 -0.67310464 1.58756876 160 161 165
0.91577375 -0.67310464 1.58756876 156 157 159
1.15894449 -0.59383410 1.40060294 155 157 161
1.15421116 -0.59017599 1.39197505 164 166 170
1.16138661 -0.59260970 1.39771509 165 168 171
1.16140783 -0.59139031 1.39483917 161 165 169
1.16621828 -0.59260970 1.39771509 161 163 168
1.16622949 -0.59139031 1.39483917 159 161 163
1.16624069 -0.59017599 1.39197505 160 161 163
-0.34206477 -0.20519283 0.48594397 170 171 173
0.10576439 -0.70330226 1.66558194 164 164 164
0.11440086 -0.70330226 1.66558194 182 182 182
0.11727968 -0.70330226 1.66558194 186 186 186
0.12045446 -0.70503449 1.66968429 185 186 188
0.12334038 -0.70503449 1.66968429 169 170 172
0.12622629 -0.70503449 1.66968429 164 164 167
0.12911220 -0.70503449 1.66968429 161 161 163
0.13298073 -0.71028292 1.68211377 162 162 164
0.13555178 -0.70852476 1.67795014 163 163 164
0.13845198 -0.70852476 1.67795014 165 165 165
0.14135218 -0.70852476 1.67795014 167 167 167
0.14389619 -0.70677537 1.67380702 169 169 167
0.14606792 -0.70330226 1.66558194 169 170 168
0.14931360 -0.70503449 1.66968429 160 161 159
0.15145344 -0.70157844 1.66149962 150 149 147
0.15723130 -0.30548987 0.72347051 154 156 157
0.15865108 -0.30581626 0.72424340 144 148 149
0.16007389 -0.30614334 0.72501802 141 142 144
0.13596821 -0.25603220 0.60634333 156 156 158
0.13886383 -0.25557500 0.60526055 158 158 154
0.14146134 -0.25649107 0.60742998 161 161 157
0.88909250 -0.67510378 1.59880149 164 164 167
0.88766879 -0.67193431 1.59129536 167 168 172
0.88833392 -0.67036068 1.58756876 167 167 174
0.88899595 -0.66879439 1.58385944 164 165 172
0.89173353 -0.66879439 1.58385944 166 172 175
0.89447105 -0.66879439 1.58385944 169 175 177
0.89720863 -0.66879439 1.58385944 165 171 171
0.89994621 -0.66879439 1.58385944 163 169 169
0.90057963 -0.66723543 1.58016741 164 168 168
0.90542138 -0.66879439 1.58385944 172 176 176
0.90815896 -0.66879439 1.58385944 172 174 176
0.91089648 -0.66879439 1.58385944 168 169 171
0.91363406 -0.66879439 1.58385944 163 163 165
1.16134405 -0.59263772 1.40350282 145 145 151
1.15658605 -0.58897942 1.39483917 157 156 163
1.16619563 -0.59263772 1.40350282 156 155 162
1.16620696 -0.59141326 1.40060294 157 157 164
1.17104733 -0.59263772 1.40350282 158 159 165
1.16863418 -0.59019387 1.39771509 157 158 161
1.17104995 -0.59019387 1.39771509 162 163 165
0.45940471 -0.22503459 0.53293383 152 153 155
0.46032584 -0.22503459 0.53293383 144 145 147
0.46052286 -0.22468133 0.53209722 151 152 154
-0.34339699 -0.20464632 0.48664168 173 174 176
-0.34206477 -0.20435293 0.48594397 173 174 176
-0.34073633 -0.20406036 0.48524827 172 175 176
-0.33989763 -0.20406036 0.48524827 170 174 175
0.10050060 -0.70388228 1.67380702 165 165 165
0.10313898 -0.70214862 1.66968429 165 165 165
0.10602489 -0.70214862 1.66968429 161 161 161
0.10811195 -0.69699836 1.65743732 158 158 158
0.11124869 -0.69870669 1.66149962 169 169 169
0.11412046 -0.69870669 1.66149962 176 176 176
0.11699223 -0.69870669 1.66149962 180 180 180
0.12045446 -0.70214862 1.66968429 184 187 187
0.12303733 -0.70042342 1.66558194 169 173 174
0.12591615 -0.70042342 1.66558194 155 160 161
0.12911220 -0.70214862 1.66968429 161 163 165
0.13265157 -0.70562458 1.67795014 164 165 167
0.13521709 -0.70388228 1.67380702 166 167 168
0.13845198 -0.70562458 1.67795014 171 171 169
0.14135218 -0.70562458 1.67795014 172 172 168
0.14389619 -0.70388228 1.67380702 172 172 168
0.14606792 -0.70042342 1.66558194 169 169 166
0.14931360 -0.70214862 1.66968429 156 156 155
0.15145344 -0.69870669 1.66149962 156 155 154
0.15865108 -0.30456445 0.72424340 152 153 156
0.16024528 -0.30521664 0.72579426 152 152 154
0.88909250 -0.67234039 1.59880149 163 163 167
0.88766879 -0.66918385 1.59129536 162 162 167
0.88833392 -0.66761672 1.58756876 169 169 176
0.88899595 -0.66605687 1.58385944 173 175 179
0.89173353 -0.66605687 1.58385944 164 172 172
0.89238608 -0.66450429 1.58016741 158 167 166
0.89511722 -0.66450429 1.58016741 164 173 172
0.89784843 -0.66450429 1.58016741 173 182 181
0.90057963 -0.66450429 1.58016741 179 185 183
0.90331084 -0.66450429 1.58016741 181 187 185
0.90815896 -0.66605687 1.58385944 179 181 182
0.91089648 -0.66605687 1.58385944 177 178 179
0.91363406 -0.66605687 1.58385944 172 172 174
1.16134405 -0.59021187 1.40350282 136 135 145
1.15658605 -0.58656859 1.39483917 153 152 163
1.16619563 -0.59021187 1.40350282 158 157 165
1.16620696 -0.58899242 1.40060294 159 159 166
1.17104733 -0.59021187 1.40350282 161 161 167
1.16863418 -0.58777803 1.39771509 162 163 165
0.45393583 -0.22323596 0.53084719 167 168 170
0.45485336 -0.22323596 0.53084719 169 170 171
0.45648581 -0.22358614 0.53167987 171 172 173
0.45812342 -0.22393742 0.53251517 167 168 168
0.45940471 -0.22411346 0.53293383 161 162 163
0.45996422 -0.22393742 0.53251517 155 156 158
0.46052286 -0.22376165 0.53209722 163 164 166
0.46144256 -0.22376165 0.53209722 167 168 170
0.46236223 -0.22376165 0.53209722 166 167 169
0.46328193 -0.22376165 0.53209722 164 165 167
0.46383753 -0.22358614 0.53167987 164 164 166
-0.34423813 -0.20380521 0.48664168 173 174 174
-0.34364370 -0.20395161 0.48699126 173 174 175
-0.34206477 -0.20351301 0.48594397 173 174 175
-0.34073633 -0.20322165 0.48524827 175 177 178
-0.33989763 -0.20322165 0.48524827 175 178 178
-0.33857420 -0.20293114 0.48455456 170 173 174
-0.11778537 -0.19647104 0.46912929 187 188 188
-0.11689363 -0.19633517 0.46880487 189 191 190
-0.11600311 -0.19619948 0.46848089 194 198 197
0.10074937 -0.70272440 1.67795014 158 158 158
0.10339364 -0.70098925 1.67380702 165 164 164
0.10602489 -0.69926268 1.66968429 165 165 165
0.10811195 -0.69413364 1.65743732 162 162 162
0.11124869 -0.69583493 1.66149962 165 165 165
0.11440086 -0.69754457 1.66558194 166 166 166
0.11699223 -0.69583493 1.66149962 169 169 170
0.12015850 -0.69754457 1.66558194 174 177 178
0.12303733 -0.69754457 1.66558194 167 171 172
0.12591615 -0.69754457 1.66558194 159 164 165
0.12943099 -0.70098925 1.67380702 164 167 168
0.13265157 -0.70272440 1.67795014 164 166 168
0.13555178 -0.70272440 1.67795014 165 166 165
0.13845198 -0.70272440 1.67795014 173 174 170
0.14135218 -0.70272440 1.67795014 163 164 158
0.14425237 -0.70272440 1.67795014 143 143 141
0.14606792 -0.69754457 1.66558194 132 132 133
0.14931360 -0.69926268 1.66968429 141 141 143
0.15882076 -0.30363706 0.72501802 159 159 163
0.16041704 -0.30428794 0.72657216 163 163 166
0.88833392 -0.66487271 1.58756876 168 172 173
0.88692367 -0.66177309 1.58016741 171 175 176
0.88965487 -0.66177309 1.58016741 163 170 170
0.89031076 -0.66023409 1.57649267 158 165 164
0.89303559 -0.66023409 1.57649267 166 175 174
0.89576042 -0.66023409 1.57649267 176 184 183
0.89848524 -0.66023409 1.57649267 177 182 181
0.90331084 -0.66177309 1.58016741 173 177 176
0.45358065 -0.22214448 0.53043181 170 171 172
0.45449746 -0.22214448 0.53043181 175 176 176
0.45612806 -0.22249267 0.53126317 174 175 175
0.45776382 -0.22284195 0.53209722 171 172 172
0.45996422 -0.22301701 0.53251517 171 173 174
0.46052286 -0.22284195 0.53209722 171 173 175
0.46108064 -0.22266717 0.53167987 168 169 171
0.46199960 -0.22266717 0.53167987 167 168 170
0.46328193 -0.22284195 0.53209722 166 167 169
0.46383753 -0.22266717 0.53167987 165 165 167
0.46475649 -0.22266717 0.53167987 164 164 166
-0.34423813 -0.20296408 0.48664168 173 174 174
-0.34339699 -0.20296408 0.48664168 173 174 174
-0.34206477 -0.20267309 0.48594397 173 174 174
-0.34073633 -0.20238294 0.48524827 174 175 175
-0.33965448 -0.20223817 0.48490116 177 178 178
-0.33833236 -0.20194927 0.48420846 170 171 171
-0.33725455 -0.20180511 0.48386285 161 162 162
-0.33617827 -0.20166117 0.48351771 165 166 166
-0.11689363 -0.19552487 0.46880487 188 190 189
0.10074937 -0.69982415 1.67795014 163 162 162
0.10364956 -0.69982415 1.67795014 175 174 174
0.10628668 -0.69809622 1.67380702 177 176 176
0.10837693 -0.69296318 1.66149962 172 172 174
0.11440086 -0.69466579 1.66558194 167 167 167
0.11727968 -0.69466579 1.66558194 165 165 167
0.12045446 -0.69637674 1.66968429 164 166 168
0.12303733 -0.69466579 1.66558194 164 168 169
0.12591615 -0.69466579 1.66558194 162 166 169
0.12911220 -0.69637674 1.66968429 160 164 165
0.13232404 -0.69809622 1.67380702 154 158 159
0.13521709 -0.69809622 1.67380702 159 158 160
0.13845198 -0.69982415 1.67795014 165 164 163
0.14170292 -0.70156074 1.68211377 144 143 141
0.14389619 -0.69809622 1.67380702 132 131 133
0.14642769 -0.69637674 1.66968429 139 138 140
0.14968228 -0.69809622 1.67380702 149 149 151
0.15899080 -0.30270767 0.72579426 162 162 164
0.16058916 -0.30335727 0.72735178 163 163 165
0.88076448 -0.65446520 1.56919408 172 174 176
0.88552654 -0.65598369 1.57283485 168 172 173
0.88824505 -0.65598369 1.57283485 168 173 174
0.88890117 -0.65446520 1.56919408 171 177 177
0.89161336 -0.65446520 1.56919408 173 178 178
0.89640063 -0.65598369 1.57283485 168 170 170
0.45358065 -0.22122768 0.53043181 175 176 178
0.45960319 -0.22192226 0.53209722 170 174 175
0.46016169 -0.22174822 0.53167987 167 170 172
0.46108064 -0.22174822 0.53167987 169 170 172
0.46199960 -0.22174822 0.53167987 170 170 172
0.46291858 -0.22174822 0.53167987 168 169 171
0.46383753 -0.22174822 0.53167987 167 168 170
0.55680329 -0.19593138 0.46977952 154 159 164
-0.34632233 -0.20285107 0.48839471 173 173 173
-0.34374458 -0.20183319 0.48594397 172 172 172
-0.34315065 -0.20197797 0.48629257 171 171 171
-0.34181973 -0.20168860 0.48559588 172 172 172
-0.34049261 -0.20140006 0.48490116 173 174 174
-0.33941171 -0.20125610 0.48455456 176 177 177
-0.33833236 -0.20111234 0.48420846 170 171 171
-0.33677378 -0.20068231 0.48317310 165 165 165
-0.33593866 -0.20068231 0.48317310 168 169 169
-0.33486485 -0.20053938 0.48282894 175 176 176
-0.11681284 -0.19458002 0.46848089 187 186 186
-0.11592299 -0.19444564 0.46815735 186 190 189
0.10050060 -0.69520319 1.67380702 172 172 172
0.10313898 -0.69349086 1.66968429 179 179 179
0.10576439 -0.69178694 1.66558194 174 174 174
0.10811195 -0.68840414 1.65743732 169 170 170
0.11384144 -0.68840414 1.65743732 165 165 167
0.11642154 -0.68672508 1.65339470 164 165 167
0.11986399 -0.69009137 1.66149962 161 163 165
0.12273577 -0.69009137 1.66149962 167 169 171
0.12560754 -0.69009137 1.66149962 170 172 175
0.12879497 -0.69178694 1.66558194 165 166 168
0.13167380 -0.69178694 1.66558194 147 148 150
0.13811012 -0.69520319 1.67380702 154 150 153
0.14100316 -0.69520319 1.67380702 151 147 150
0.14389619 -0.69520319 1.67380702 144 143 145
0.14606792 -0.69178694 1.66558194 144 144 146
0.15899080 -0.30145320 0.72579426 168 168 169
0.16058916 -0.30210009 0.72735178 163 163 165
0.16184632 -0.30210009 0.72735178 161 161 162
0.87469023 -0.64725816 1.55837202 169 171 173
0.88143635 -0.65024775 1.56557012 168 170 172
0.88414228 -0.65024775 1.56557012 169 171 173
0.88480484 -0.64874953 1.56196272 171 174 175
0.88750458 -0.64874953 1.56196272 170 172 173
0.89432561 -0.65175301 1.56919408 164 164 164
0.46016169 -0.22082925 0.53167987 162 163 165
0.46108064 -0.22082925 0.53167987 171 171 173
0.46199960 -0.22082925 0.53167987 171 171 173
0.46291858 -0.22082925 0.53167987 169 169 171
0.46383753 -0.22082925 0.53167987 168 169 171
0.55364466 -0.19458002 0.46848089 152 157 162
0.55483782 -0.19471459 0.46880487 151 156 161
0.55680329 -0.19511940 0.46977952 152 157 162
0.55684352 -0.19484933 0.46912929 150 155 160
-0.34632233 -0.20200692 0.48839471 170 172 174
-0.34423813 -0.20128185 0.48664168 166 166 168
-0.34315065 -0.20113745 0.48629257 168 168 170
-0.34206477 -0.20099327 0.48594397 171 171 172
-0.34049261 -0.20056196 0.48490116 172 172 172
-0.33941171 -0.20041859 0.48455456 174 174 174
-0.33833236 -0.20027544 0.48420846 172 172 172
-0.33677378 -0.19984719 0.48317310 164 164 164
-0.33593866 -0.19984719 0.48317310 162 162 162
-0.33486485 -0.19970484 0.48282894 174 174 174
-0.33403033 -0.19970484 0.48282894 175 176 176
-0.11867835 -0.19417286 0.46945420 175 174 176
-0.11778537 -0.19403848 0.46912929 189 188 189
-0.11681284 -0.19377029 0.46848089 187 186 186
-0.11592299 -0.19363646 0.46815735 186 186 186
0.10784826 -0.68386734 1.65339470 167 168 168
0.11070602 -0.68386734 1.65339470 163 164 164
0.11356378 -0.68386734 1.65339470 163 164 165
0.11613827 -0.68220341 1.64937186 163 164 166
0.11957093 -0.68553936 1.65743732 161 162 164
0.12243568 -0.68553936 1.65743732 171 171 173
0.14065586 -0.69060493 1.66968429 164 160 162
0.15773633 -0.30019873 0.72579426 172 173 173
0.15899080 -0.30019873 0.72579426 169 169 170
0.16076164 -0.30116606 0.72813302 166 166 165
0.16202016 -0.30116606 0.72813302 167 166 164
0.16561782 -0.30084291 0.72735178 156 155 151
0.70096445 -0.73980373 1.78863287 156 160 161
0.70220315 -0.73785686 1.78392589 166 167 167
0.45776382 -0.22008289 0.53209722 153 159 159
0.46052286 -0.22008289 0.53209722 160 161 162
0.46144256 -0.22008289 0.53209722 173 173 175
0.46236223 -0.22008289 0.53209722 173 173 175
0.55159664 -0.19390430 0.46880487 167 172 177
0.55202520 -0.19377029 0.46848089 162 167 172
0.55321723 -0.19390430 0.46880487 158 162 168
0.55364466 -0.19377029 0.46848089 157 160 166
0.55483782 -0.19390430 0.46880487 155 158 164
0.55641770 -0.19417286 0.46945420 151 153 160
0.55684352 -0.19403848 0.46912929 149 151 158
-0.34607300 -0.20101795 0.48804307 173 174 174
-0.34399119 -0.20029694 0.48629257 160 161 163
-0.34315065 -0.20029694 0.48629257 163 164 166
-0.34206477 -0.20015335 0.48594397 167 168 169
-0.34049261 -0.19972384 0.48490116 170 171 172
-0.33965448 -0.19972384 0.48490116 173 174 174
-0.33833236 -0.19943851 0.48420846 174 174 174
-0.33677378 -0.19901207 0.48317310 167 167 167
-0.33569938 -0.19887032 0.48282894 158 158 158
-0.33462653 -0.19872877 0.48248529 168 168 168
-0.12046804 -0.19362962 0.47010529 163 164 165
-0.11957257 -0.19349544 0.46977952 161 161 163
-0.11867835 -0.19336145 0.46945420 177 176 178
-0.11778537 -0.19322763 0.46912929 187 186 188
-0.11681284 -0.19296056 0.46848089 185 184 184
-0.11592299 -0.19282730 0.46815735 183 182 181
0.10784826 -0.68100959 1.65339470 168 169 169
0.11328746 -0.67935264 1.64937186 164 164 167
0.11613827 -0.67935264 1.64937186 160 160 166
0.15790538 -0.29926467 0.72657216 169 170 172
0.16254394 -0.30087706 0.73048687 170 169 167
0.16489142 -0.30055320 0.72970057 165 164 161
0.16579571 -0.29990754 0.72813302 160 159 156
0.17283088 -0.30120164 0.73127490 165 164 163
0.69911981 -0.73477352 1.78392589 163 165 166
0.70220315 -0.73477352 1.78392589 170 170 170
0.70528656 -0.73477352 1.78392589 176 176 176
0.70836991 -0.73477352 1.78392589 166 165 165
0.45393583 -0.21864833 0.53084719 172 181 180
0.45612806 -0.21881969 0.53126317 164 167 168
0.45740479 -0.21899131 0.53167987 150 152 154
0.45832375 -0.21899131 0.53167987 144 145 146
0.45924270 -0.21899131 0.53167987 150 151 151
0.46016169 -0.21899131 0.53167987 163 164 164
0.46071929 -0.21881969 0.53126317 172 173 174
0.46163753 -0.21881969 0.53126317 172 173 173
0.46291858 -0.21899131 0.53167987 170 171 172
0.46383753 -0.21899131 0.53167987 168 169 171
0.46512130 -0.21916321 0.53209722 171 172 173
0.46604100 -0.21916321 0.53209722 173 174 175
0.55197841 -0.19322763 0.46912929 161 165 170
0.55202520 -0.19296056 0.46848089 158 162 167
0.55360007 -0.19322763 0.46912929 164 165 171
0.55364466 -0.19296056 0.46848089 164 164 171
0.55483782 -0.19309400 0.46880487 158 158 166
0.55641770 -0.19336145 0.46945420 151 151 160
0.55722910 -0.19336145 0.46945420 150 150 159
-0.34290469 -0.19931343 0.48594397 159 160 162
-0.34206477 -0.19931343 0.48594397 162 162 164
-0.34049261 -0.19888572 0.48490116 166 166 168
-0.33941171 -0.19874357 0.48455456 169 170 171
-0.33809087 -0.19845985 0.48386285 171 171 171
-0.33653390 -0.19803579 0.48282894 168 168 168
-0.33522186 -0.19775409 0.48214212 161 161 161
-0.33415085 -0.19761354 0.48179945 166 166 166
-0.12496403 -0.19348799 0.47174102 179 179 179
-0.12406233 -0.19335344 0.47141296 181 181 181
-0.12316188 -0.19321907 0.47108537 182 183 183
-0.12226269 -0.19308490 0.47075823 184 185 185
-0.12153342 -0.19321907 0.47108537 185 185 185
-0.12055163 -0.19295090 0.47043154 174 174 174
-0.11957257 -0.19268347 0.46977952 167 167 168
-0.11867835 -0.19255003 0.46945420 181 181 182
-0.11778537 -0.19241677 0.46912929 181 181 181
-0.11681284 -0.19215083 0.46848089 175 174 174
-0.11592299 -0.19201812 0.46815735 178 177 175
-0.11511382 -0.19201812 0.46815735 171 170 168
-0.11430465 -0.19201812 0.46815735 173 171 171
-0.11260854 -0.19188561 0.46783426 184 184 183
0.15824461 -0.29864901 0.72813302 158 160 159
0.16162969 -0.30026162 0.73206460 161 160 158
0.16307110 -0.30058622 0.73285604 163 162 160
0.16433778 -0.30058622 0.73285604 167 166 164
0.16524717 -0.29993770 0.73127490 164 163 162
0.16615266 -0.29929197 0.72970057 158 157 156
0.16795626 -0.30026162 0.73206460 157 157 156
0.16922157 -0.30026162 0.73206460 159 159 159
0.17048688 -0.30026162 0.73206460 160 160 160
0.17156692 -0.29993770 0.73127490 166 163 162
0.17301752 -0.30026162 0.73206460 165 163 162
0.69787294 -0.73362070 1.78863287 167 167 169
0.70096445 -0.73362070 1.78863287 172 172 174
0.70836991 -0.73169011 1.78392589 166 165 165
0.71145326 -0.73169011 1.78392589 164 163 163
0.45322600 -0.21739034 0.53001708 178 184 184
0.45541424 -0.21756044 0.53043181 168 169 170
0.45668840 -0.21773081 0.53084719 153 154 154
0.45760593 -0.21773081 0.53084719 153 154 154
0.45852345 -0.21773081 0.53084719 162 163 163
0.45908147 -0.21756044 0.53043181 169 170 170
0.45999828 -0.21756044 0.53043181 171 171 171
0.46091509 -0.21756044 0.53043181 170 170 170
0.46219355 -0.21773081 0.53084719 168 169 169
0.46347404 -0.21790144 0.53126317 170 171 171
0.46475649 -0.21807235 0.53167987 174 175 174
0.46567547 -0.21807235 0.53167987 168 168 166
0.46659443 -0.21807235 0.53167987 163 163 160
0.46714702 -0.21790144 0.53126317 161 161 158
0.55197841 -0.19241677 0.46912929 160 162 167
0.55202520 -0.19215083 0.46848089 158 160 164
0.55360007 -0.19241677 0.46912929 162 163 168
0.55402756 -0.19228370 0.46880487 163 164 168
0.55483782 -0.19228370 0.46880487 160 160 165
0.55641770 -0.19255003 0.46945420 152 151 158
0.55722910 -0.19255003 0.46945420 151 150 157
0.55765438 -0.19241677 0.46912929 151 150 159
-0.34157506 -0.19818938 0.48524827 160 161 161
-0.34024921 -0.19790605 0.48455456 167 167 168
-0.33916926 -0.19776469 0.48420846 171 171 172
-0.33760890 -0.19734181 0.48317310 168 168 168
-0.33605519 -0.19692074 0.48214212 167 167 167
-0.33474571 -0.19664103 0.48145726 166 166 166
-0.33343989 -0.19636211 0.48077434 171 171 171
-0.12496403 -0.19267263 0.47174102 182 182 182
-0.12414867 -0.19267263 0.47174102 178 179 179
-0.12324753 -0.19253863 0.47141296 172 173 173
-0.12234765 -0.19240484 0.47108537 179 180 180
-0.12161794 -0.19253863 0.47141296 183 183 183
-0.12071919 -0.19240484 0.47108537 178 178 178
-0.11973853 -0.19213779 0.47043154 170 170 170
-0.11884296 -0.19200455 0.47010529 182 182 182
-0.11778537 -0.19160593 0.46912929 176 176 176
-0.11689363 -0.19147342 0.46880487 170 169 169
-0.11600311 -0.19134109 0.46848089 178 178 177
-0.11511382 -0.19120896 0.46815735 180 179 177
-0.11430465 -0.19120896 0.46815735 187 183 182
-0.11260854 -0.19107699 0.46783426 185 185 183
0.16197954 -0.29964346 0.73364919 157 157 155
0.16342445 -0.29996809 0.73444402 158 158 156
0.16469388 -0.29996809 0.73444402 169 168 166
0.16560447 -0.29931954 0.73285604 169 169 169
0.16651113 -0.29867375 0.73127490 162 162 162
0.16831981 -0.29964346 0.73364919 155 155 155
0.16940452 -0.29931954 0.73285604 157 157 157
0.17085591 -0.29964346 0.73364919 159 159 159
