ply
format ascii 1.0
element vertex 640
property float x
property float y
property float z
property uchar red
property uchar green
property uchar blue
end_header
-0.72728749 -0.62486835 1.23557479 167 167 167
-0.73046316 -0.63519020 1.24447709 169 170 171
-0.72231957 -0.61197070 1.22875070 175 175 173
-0.72011960 -0.59709458 1.22806489 180 185 185
-0.71806815 -0.62487125 1.23365724 167 170 170
-0.70440221 -0.60228196 1.21922994 166 167 164
-0.71175901 -0.60762670 1.22462599 171 172 169
-0.70950049 -0.58509950 1.21690716 178 181 180
-0.71099124 -0.59419825 1.22371637 175 177 176
-0.71222548 -0.57878341 1.21341109 181 184 184
-0.70033896 -0.48716334 1.64536858 184 185 185
-0.69616759 -0.59173784 1.21443307 175 176 175
-0.68584245 -0.50139558 1.61788034 175 176 178
-0.69585228 -0.50138822 1.63151103 173 173 176
-0.68263396 -0.49403679 1.61616829 174 175 176
-0.69201593 -0.49205579 1.63021941 180 181 181
-0.69864327 -0.48598376 1.64138460 186 188 188
-0.69174713 -0.47587752 1.63347435 188 188 189
-0.66931608 -0.50241417 1.61542899 182 185 186
-0.66737844 -0.51037186 1.62330647 177 177 179
-0.66843429 -0.49215061 1.61368801 183 183 183
-0.67644867 -0.48446191 1.62486584 179 179 177
-0.66832529 -0.47391243 1.61355585 185 185 185
-0.65376874 -0.50219458 1.61326146 179 179 181
-0.65082977 -0.49184487 1.61191051 185 186 186
-0.65384644 -0.48577669 1.62175083 183 184 184
-0.63856207 -0.49297423 1.60867181 178 178 179
-0.46054751 0.01312922 1.19347155 155 156 158
-0.44531079 -0.00061399 1.17638567 175 173 173
-0.44145922 -0.00474654 1.18934256 184 183 183
-0.44271460 0.00142238 1.17894232 171 171 171
-0.44863822 0.01040878 1.19067856 169 169 170
-0.44531815 0.02405568 1.19004343 146 144 147
-0.42110824 -0.30765453 0.68404892 177 177 177
-0.43851356 -0.00061373 1.17587572 173 172 172
-0.43802628 -0.00216031 1.18695262 179 179 181
-0.43889476 0.00141991 1.17689562 161 160 162
-0.43559422 0.00957725 1.19096556 171 171 173
-0.43048838 0.02791256 1.17894232 162 156 155
-0.43666527 0.02478593 1.18812103 172 171 170
-0.40856756 -0.30674246 0.67951939 174 178 177
-0.41376567 -0.30561827 0.68167761 178 179 179
-0.40988267 -0.29892059 0.67874056 182 184 184
-0.40616047 -0.28617027 1.73729513 136 127 133
-0.40122291 -0.26341164 1.71618187 135 126 131
-0.40328221 -0.27143801 1.72756031 132 126 131
-0.40118136 -0.25650726 1.70969212 135 126 133
-0.40521505 -0.25961947 1.72053766 135 126 132
-0.38826478 -0.28779766 1.72739568 135 126 131
-0.38832474 -0.26715800 1.71163721 126 117 126
-0.39206138 -0.27540031 1.72452371 128 120 126
-0.38709570 -0.25303027 1.69136648 133 124 132
-0.39625031 -0.25765762 1.70753610 135 125 134
-0.37685955 -0.30056760 1.73373878 136 129 133
-0.37722809 -0.29264618 1.73247509 134 124 130
-0.36984479 -0.26158360 1.69472957 129 119 131
-0.37532547 -0.26611029 1.70969212 129 115 128
-0.37845075 -0.26854092 1.72053766 130 116 129
-0.36410974 -0.24666320 1.67028781 129 120 126
-0.37337771 -0.25162768 1.68687139 132 123 129
-0.37538321 -0.25627425 1.70324588 131 122 129
-0.35860729 -0.24906008 1.66968429 129 120 126
-0.34291741 -0.20249653 0.48626836 170 171 172
-0.34213331 -0.19056301 0.48391141 169 170 170
-0.34048891 -0.17515285 0.47958396 168 174 172
-0.34145135 -0.17798125 0.48100355 173 177 177
-0.34356674 -0.07407025 0.81936995 181 181 181
-0.34623538 -0.06615490 0.82237602 170 171 172
-0.34950185 -0.05849834 0.81945245 173 173 173
-0.34550788 -0.05619344 0.82233448 176 178 179
-0.34986342 -0.02770255 0.60548399 174 175 176
-0.34755156 -0.01905414 0.60234119 183 183 183
-0.33806104 -0.20163095 0.48416018 170 171 172
-0.33472126 -0.19109146 0.48147750 170 171 171
-0.32244964 -0.14488891 0.45956337 177 179 178
-0.32295883 -0.14645334 0.46133472 177 179 178
-0.32322222 -0.13772542 0.45943220 172 176 174
-0.32421873 -0.13580343 0.46059171 173 175 175
-0.33898172 -0.07410064 0.81969994 189 189 189
-0.33968596 -0.06695306 0.82140287 173 175 175
-0.33898172 -0.05922440 0.81969994 185 192 192
-0.33959781 -0.05649289 0.82118970 173 176 177
-0.31766110 -0.14433754 0.45927678 167 168 169
-0.31934544 -0.14831993 0.46098270 172 174 174
-0.30711305 0.01278766 0.91186241 167 164 164
-0.31071002 0.02171232 0.91228603 177 177 176
-0.29662073 0.01281430 0.91240829 176 174 174
-0.29551627 0.02238129 0.90748666 179 173 175
-0.26534684 -0.02357355 0.63671823 135 134 138
-0.27439267 -0.02266420 0.64181497 166 166 170
-0.26440099 -0.01755857 0.63436859 156 157 156
-0.27455855 -0.01854562 0.64243257 173 177 180
-0.25709504 -0.02396197 0.63105871 128 124 133
-0.25669422 -0.01818898 0.62947905 154 152 152
-0.24380451 0.03327490 0.49659129 181 180 178
-0.24455960 0.04024661 0.49863382 165 161 160
-0.25551130 0.05785414 0.65204807 184 181 181
-0.24870435 0.06674807 0.65171348 174 173 173
-0.22151332 -0.11146851 0.47709016 178 179 179
-0.23897134 0.03477374 0.49635176 178 176 174
-0.23827660 0.06933659 0.64916808 177 176 177
-0.21517485 -0.11016770 0.47746078 177 177 177
-0.20125468 0.20973865 0.72795363 158 156 157
-0.18332774 0.19913246 0.73524064 140 134 136
-0.18811610 0.20914588 0.73242329 159 157 158
-0.18349971 0.22201502 0.73207356 169 168 168
-0.18532845 0.25491928 0.60411411 168 168 168
-0.18498708 0.26327040 0.60504297 163 164 163
-0.17879181 0.20765161 0.73712692 164 163 164
-0.17712543 0.20912030 0.74389830 166 163 162
-0.17830752 0.25620348 0.60349391 167 167 166
-0.17903136 0.26335719 0.60371134 151 153 153
-0.14014417 -0.02079455 0.45741689 147 93 110
-0.14014417 -0.01921333 0.45741689 144 93 111
-0.14440150 0.07290536 0.59018504 174 172 172
-0.12371265 -0.19109866 0.47150217 179 180 180
-0.12127959 -0.19223653 0.54367814 178 179 180
-0.13456868 -0.02350786 0.45485971 143 106 122
-0.13564528 -0.01763544 0.45496275 146 94 115
-0.13798511 0.07433885 0.58966806 177 172 172
-0.12236314 0.41973302 1.32919967 174 173 172
-0.12141089 0.43470288 1.31885576 164 164 164
-0.12758922 0.43061938 1.33198161 165 164 165
-0.13285530 0.43084925 1.34236014 150 144 148
-0.12787035 0.44452252 1.33069825 162 160 158
-0.11766402 -0.20036499 0.54347295 176 177 179
-0.11626443 -0.19059382 0.46871388 181 181 180
-0.11674878 -0.18971921 0.54268615 175 176 177
-0.10268741 0.15632090 0.45656706 163 163 164
-0.10654161 0.43677030 1.31821552 157 158 161
-0.11040337 0.43072951 1.33117103 161 162 162
-0.10971994 0.44438319 1.32790716 159 158 161
-0.09655632 0.15302150 0.45665325 169 169 170
-0.09934037 0.43100461 1.32854939 166 164 162
-0.09958425 0.44357690 1.33181107 158 158 160
-0.04363471 0.13889476 0.67955315 172 168 168
-0.04313026 0.13797401 0.68112749 169 163 164
-0.04186463 0.14907940 0.48675318 171 170 169
-0.04546250 0.14867157 0.67403810 158 157 159
-0.05641980 0.14443664 0.68107031 170 170 172
-0.04532183 0.16010824 0.66787374 172 172 167
-0.03363282 -0.02538333 0.71349816 161 151 149
-0.02832373 -0.01833577 0.71324877 163 154 153
-0.03218051 0.13841645 0.48893926 167 166 168
-0.03673843 0.13949473 0.67993164 177 169 172
-0.03818560 0.13862342 0.68215856 164 157 160
-0.03491275 0.14632341 0.48815884 167 166 167
-0.03663828 0.15119810 0.67337472 163 160 161
-0.03442189 0.16042450 0.66919298 144 141 143
-0.02478951 0.33990356 1.39771509 173 167 169
-0.02980554 0.33837283 1.40641463 169 163 161
-0.02317895 0.34835899 1.39771509 172 172 173
-0.02698615 0.35120776 1.40581822 167 165 166
-0.02477250 0.37105313 1.39675645 159 152 151
-0.02483806 0.36385915 1.41180263 170 171 171
-0.02878966 0.36786746 1.42281695 170 171 170
-0.01044152 0.35329444 1.41102413 147 146 149
-0.00457525 0.34894426 1.42175400 153 152 153
-0.00898349 0.37708194 1.39638865 161 158 159
-0.00755859 0.36908176 1.40977865 162 161 162
-0.01391624 0.36622322 1.42205256 165 165 165
-0.01041057 0.38411453 1.39547957 166 165 164
0.01434755 -0.13304120 0.45557682 168 166 168
0.00803665 -0.04367812 0.50436124 153 143 142
0.00769317 -0.03645157 0.50364046 158 148 147
0.00596676 0.35526552 1.41464447 141 143 145
0.00181654 0.34473652 1.42264968 158 153 154
0.00473452 0.37185600 1.39675776 165 165 166
0.00735191 0.36535734 1.41017753 156 156 157
0.01286823 0.36279872 1.42115688 163 169 168
0.02029449 -0.13112576 0.45618564 164 159 159
0.03929826 0.09282581 0.49982814 164 154 155
0.03496834 0.09629361 0.50154196 168 166 166
0.03180360 0.35616494 0.89082471 160 160 159
0.03478022 0.36451633 0.88725196 146 147 149
0.04081767 0.09262678 0.49992025 160 149 152
0.04231968 0.09528252 0.50083730 164 163 164
0.04424790 0.35827580 0.89079088 134 127 132
0.04427608 0.36739304 0.88692246 96 96 99
0.07857952 -0.24103984 0.99397629 136 136 141
0.06559172 -0.22062480 0.97961247 157 157 159
0.07549864 -0.22665117 0.98892021 158 156 158
0.07622257 -0.21883526 0.98572245 152 150 151
0.06816359 0.06501070 0.59990430 152 148 147
0.07173624 0.06973664 0.60428330 144 142 145
0.08548486 -0.23036228 0.99278838 162 159 161
0.08442068 -0.21907206 0.98692663 161 160 165
0.11092436 -0.70618553 1.66832631 173 173 174
0.11184312 -0.68681998 1.65486654 163 164 165
0.11006112 -0.69618875 1.66680635 170 170 170
0.11471287 -0.67935264 1.64937186 162 162 166
0.11173757 0.13642589 0.46984702 151 149 152
0.11290941 0.14146529 0.46992682 148 145 147
0.12524804 -0.72213316 1.67587858 176 176 174
0.12961527 -0.71040798 1.67353427 166 166 167
0.13298073 -0.71319032 1.68211377 162 162 165
0.12243568 -0.68553936 1.65743732 171 171 173
0.12803649 -0.69531301 1.66805418 162 164 165
0.13769141 -0.26741078 0.61050402 153 154 156
0.13778037 -0.25832152 0.60663335 158 159 161
0.13794052 -0.06614909 0.97876432 149 144 146
0.13886680 -0.06393708 0.98292722 161 156 157
0.13006961 -0.05232474 0.97673675 186 161 166
0.13699966 -0.05015779 0.98455986 171 154 161
0.14227246 -0.72179526 1.67174566 165 163 162
0.14717545 -0.71008799 1.66948121 163 162 161
0.14170292 -0.70156074 1.68211377 144 143 141
0.14584642 -0.69608814 1.66969445 145 144 145
0.15839440 -0.30378744 0.72478663 161 162 163
0.15807500 -0.29895684 0.72735259 163 164 165
0.14410270 -0.26894478 0.61195022 162 162 163
0.14377344 -0.25892702 0.60808986 161 160 158
0.14009167 -0.06654534 0.97961247 159 151 154
0.14594365 -0.06622994 0.98581228 160 154 156
0.14544680 -0.05202624 0.99016202 164 158 160
0.16411107 -0.30194447 0.72927865 160 160 159
0.17001191 -0.29596401 0.73328824 163 163 162
0.17203043 0.19711744 0.53048428 145 146 147
0.17353647 0.20188089 0.53050722 135 135 138
0.18637113 -0.30042556 0.55656147 172 172 172
0.19114448 -0.29034388 0.55601398 158 158 157
0.19165304 -0.27995172 0.55793566 177 178 175
0.19335475 -0.18076890 0.47411094 162 162 165
0.19506348 -0.17723853 0.47588586 167 168 170
0.18072490 0.19734167 0.53108490 153 152 153
0.18087356 0.20279762 0.53163833 137 137 139
0.20016937 -0.17658342 0.47563229 176 177 178
0.23517364 -0.02599714 0.47219933 156 156 158
0.23678294 -0.01989462 0.47363639 159 159 162
0.24216031 -0.02865419 0.47076835 153 152 155
0.25292003 0.19053116 0.69072261 144 143 145
0.25591671 0.20113248 0.69598790 140 140 143
0.26171946 0.19627132 0.69243481 129 130 133
0.26160687 0.20100539 0.69513326 134 134 139
0.29587927 0.13195920 0.54874141 146 146 151
0.30539873 0.12871110 0.55043642 134 135 140
0.33759328 -0.07121018 1.93407482 157 154 158
0.33480745 -0.06659152 1.94970229 160 155 157
0.33413853 -0.04060294 1.90956205 172 170 167
0.33562260 -0.04688199 1.92995971 161 160 161
0.33037571 -0.05303453 1.94769726 161 159 159
0.33350291 -0.02718246 1.89422306 154 148 150
0.33350919 -0.03613379 1.90597852 164 159 158
0.32820019 -0.03590729 1.92310125 146 138 140
0.33582633 0.07433190 0.46636116 145 144 145
0.35400000 -0.14116122 0.47664472 159 161 163
0.35170117 -0.13463179 0.47876170 163 164 165
0.34697541 -0.13197376 0.48087100 161 161 161
0.35651947 -0.09652840 0.56288490 148 147 150
0.35674542 -0.08277372 1.97061586 145 143 152
0.35277789 -0.06899287 1.93438138 167 158 158
0.35091834 -0.06969406 1.94837986 160 155 156
0.35278295 -0.04066013 1.91225159 173 171 172
0.35130820 -0.04923051 1.93050529 165 163 165
0.35127822 -0.05324969 1.94536463 155 152 156
0.35205562 -0.02861244 1.89389156 157 147 149
0.34822710 -0.03340628 1.90687503 166 159 160
0.35096914 -0.03751361 1.92037344 173 167 167
0.34171432 0.06998208 0.46728668 141 143 144
0.37957388 -0.62362602 1.38345277 167 166 166
0.37693544 -0.60385868 1.37384127 157 157 155
0.37880081 -0.61758327 1.38063514 152 152 153
0.37334120 -0.58801726 1.35646567 154 150 151
0.37564625 -0.59541416 1.36626466 154 153 152
0.37399938 -0.22227419 0.45222980 160 162 164
0.37174313 -0.21709026 0.45172135 160 166 165
0.37678429 -0.18392044 0.49443205 160 160 159
0.37703399 -0.17870852 0.49458623 148 140 142
0.37525901 -0.12198034 0.53770948 162 163 166
0.37554202 -0.11680459 0.53744381 155 156 160
0.36604922 -0.09464583 0.55893371 156 156 155
0.36285550 -0.09417303 0.56270529 154 153 155
0.37355703 -0.08198040 1.95172910 156 155 158
0.37034089 -0.06699383 1.90902414 163 163 165
0.36628098 -0.06867469 1.92907308 156 150 152
0.36409087 -0.07778446 1.94797795 157 149 154
0.36786152 -0.04507417 1.89548680 157 154 156
0.36479969 -0.04959240 1.90907786 162 159 162
0.36260970 -0.05232425 1.92427475 165 163 165
0.36615402 -0.02691555 1.87574184 156 149 151
0.36680075 -0.03289773 1.88799979 153 143 144
0.36117649 -0.03719749 1.90419054 157 147 148
0.37974325 0.09132042 0.52468407 145 146 146
0.39174044 -0.62776477 1.39127559 160 161 163
0.38938954 -0.63784889 1.40156957 170 167 167
0.38041237 -0.61275584 1.37782896 162 161 161
0.39287786 -0.61238982 1.38531221 161 163 163
0.38214700 -0.18323966 0.49510102 152 149 148
0.38162832 -0.17951237 0.49562600 152 150 151
0.38288799 -0.12249999 0.53667416 162 163 164
0.38191416 -0.11723512 0.53591785 157 159 163
0.39968607 -0.08281339 0.60418171 146 146 150
0.39935365 -0.07563826 0.60526055 147 148 148
0.38191950 0.07897401 0.51658928 127 129 132
0.38388690 0.08203126 0.51816814 135 136 139
0.38668070 0.09263541 0.52525561 143 143 145
0.39928272 0.14269599 0.71357036 125 125 134
0.41275159 -0.64161646 1.41522300 143 142 144
0.41448221 -0.64185029 1.42115688 136 130 134
0.40251728 -0.62632698 1.39389229 159 157 158
0.40638032 -0.63512397 1.40447342 143 140 144
0.40532300 -0.61014763 1.39317527 158 158 158
0.40461808 -0.08436481 0.60599296 150 150 151
0.40882672 -0.07416601 0.60709615 152 151 149
0.41509350 0.08757110 0.45128403 118 120 123
0.40584816 0.13558800 0.71813730 138 138 139
0.41100577 0.13175747 0.72188822 142 142 145
0.40504845 0.14207389 0.71454815 136 136 140
0.40518501 0.14039999 0.72077835 128 127 132
0.43475850 -0.26823028 0.52254724 159 163 164
0.42062241 0.13345166 0.72364297 144 144 146
0.45028498 -0.26626023 0.52848892 158 165 165
0.45700359 -0.22286363 0.53170918 166 168 169
0.45532037 -0.20996123 0.52691084 164 166 167
0.45384663 -0.19957332 0.52333502 165 167 167
0.47796321 -0.32228754 1.06670961 165 166 167
0.46134241 -0.27000374 0.53442332 159 165 166
0.46200379 -0.22222451 0.53188862 165 166 168
0.46299713 -0.21460798 0.52978689 163 165 166
0.47738941 -0.07509424 0.58472609 149 150 151
0.46564873 0.13227832 0.63936990 136 136 136
0.47458446 0.13125391 0.64313177 137 138 139
0.47858101 0.14044437 0.64133573 141 141 145
0.47974988 0.22572560 0.58590549 139 137 137
0.47511865 0.35577007 1.10909092 132 132 140
0.47697504 0.36216360 1.11752887 147 147 155
0.47623867 0.36988179 1.12808552 154 155 159
0.47786176 0.37774931 1.14606285 151 149 149
0.47854476 0.38049802 1.13360155 172 175 178
0.47684174 0.38324994 1.14950085 150 150 151
0.49618762 -0.34142291 1.06969512 170 169 169
0.49285120 -0.34066951 1.08116722 162 159 158
0.49374154 -0.32896112 1.07011032 161 161 161
0.49176681 -0.33934203 1.08289433 142 141 141
0.49416406 -0.31853130 1.06586927 173 175 176
0.49017652 -0.06704405 0.57979125 124 124 129
0.48476583 -0.07004874 0.58320775 150 151 153
0.48813787 0.07623488 0.60518891 138 140 142
0.48775837 0.08198864 0.60533377 135 135 136
0.49511580 0.13856350 0.57939476 135 134 132
0.49090873 0.13815159 0.58285235 127 128 130
0.48276302 0.13425964 0.64428029 137 139 141
0.49328483 0.14385654 0.57920510 129 129 129
0.49057356 0.14250276 0.58261602 129 131 132
0.49626220 0.21159655 0.58931018 126 127 130
0.49033340 0.22422113 0.58803989 140 141 141
0.48225482 0.35860940 1.11130408 119 122 129
0.48408028 0.36322287 1.11588040 132 134 142
0.48518147 0.37372175 1.12513918 139 140 148
0.48068023 0.38084140 1.13170588 172 172 179
0.50437105 -0.34020205 1.06796721 166 165 165
0.50235458 -0.33072923 1.06820767 161 160 160
0.50324857 -0.31977111 1.06754625 170 170 172
0.50811836 0.07878661 0.75721303 145 145 146
0.50721241 0.09147252 0.75197016 145 143 144
0.50533448 0.10436132 0.75378066 129 128 133
0.50753838 0.10946875 0.76124880 131 130 136
0.50138878 0.21041687 0.58943640 129 130 133
0.50465614 0.22702743 0.59287598 137 139 139
0.55494113 -0.18746374 0.46837696 155 158 163
0.54939543 -0.06165446 0.57951929 148 149 153
0.55101824 -0.06304901 0.58238216 149 153 156
0.54964544 -0.05354081 0.57574554 141 141 145
0.55962694 0.06990632 1.40933859 133 132 134
0.55664474 0.06627453 1.43621159 137 137 146
0.55711249 0.06538104 1.44386071 150 151 159
0.55775476 0.10622716 0.79611538 147 152 154
0.56170805 -0.18610684 0.46915207 147 151 157
0.57628095 0.03989823 1.47048128 146 145 146
0.57669688 0.05359862 1.40740748 148 147 149
0.57269505 0.05222900 1.45258410 153 153 159
0.57223094 0.05318201 1.46798364 146 146 153
0.57106960 0.05691250 1.48335195 144 146 153
0.57886388 0.07898242 0.79752024 126 126 125
0.57748875 0.07715218 0.81231757 135 135 137
0.56502721 0.07499237 1.39085158 149 147 150
0.57094764 0.06777019 1.41101226 150 148 150
0.56660791 0.06457272 1.42882339 148 144 147
0.56389595 0.06292566 1.44894695 139 138 145
0.56634452 0.06336436 1.47240760 152 153 158
0.56850570 0.06332213 1.48335195 149 153 154
0.57599499 0.08827106 0.79730007 140 141 142
0.57397759 0.08768540 0.80798798 142 142 143
0.57230471 0.08411063 0.82141601 144 145 145
0.56464621 0.10733189 0.79857756 152 154 159
0.56613931 0.11036275 0.80224120 145 146 149
0.57598553 0.21791025 0.76872446 139 140 143
0.57730982 0.22664105 0.77487784 135 136 138
0.57840969 0.23689535 0.78008264 140 140 142
0.58643223 0.05185154 1.41523230 142 143 145
0.59050878 0.05481050 1.42599435 145 145 146
0.58017933 0.05933020 1.44848680 161 161 161
0.58134784 0.07729098 0.79714626 144 145 146
0.58106122 0.07642290 0.80302294 140 140 141
0.58520664 0.07549597 1.41523129 144 143 148
0.58916259 0.06618896 1.42500814 146 144 149
0.58107182 0.08197614 0.79714670 143 142 143
0.58278920 0.23121316 0.77510434 141 141 143
0.58076924 0.23824367 0.78008264 148 149 151
0.61874673 -0.16298093 0.67934806 152 153 155
0.61860818 -0.16521570 0.68190074 153 154 154
0.61879786 -0.15865250 0.67925080 159 159 163
0.61830902 -0.15854207 0.68129879 158 159 163
0.61713661 0.23669140 0.63931977 144 147 149
0.61708403 0.23680502 0.64012450 138 144 146
0.61721575 0.24690042 0.63905198 130 131 135
0.61677744 0.24500804 0.64204659 126 127 132
0.62154398 -0.16396384 0.67936423 150 153 154
0.63045405 -0.16367807 0.68344109 152 154 156
0.62591836 -0.15498035 0.67951275 154 156 158
0.62863238 -0.15505183 0.68217970 156 159 161
0.62672192 0.24601050 0.64330017 130 132 137
0.64043641 -0.15896951 0.68313164 143 149 155
0.69728482 -0.72054386 1.77924371 169 169 169
0.69801272 -0.72722361 1.78811538 168 169 169
0.69728482 -0.70824271 1.77924371 165 166 164
0.69941947 -0.71816000 1.78864527 169 171 171
0.71020100 -0.72361912 1.77924371 166 166 166
0.70621078 -0.73108612 1.78459832 168 168 168
0.70846222 -0.70912136 1.77413474 157 156 156
0.70748129 -0.71539753 1.78601788 162 163 163
0.71141787 -0.69695005 1.75468385 155 155 155
0.70980844 -0.69376327 1.77212933 159 160 161
0.71105121 -0.69735622 1.78549488 163 163 164
0.73051242 -0.70344363 1.77181075 168 168 170
0.73295061 -0.69562264 1.77113660 169 170 171
0.73612022 -0.69468963 1.78392589 164 165 166
0.83927754 -0.13094922 0.72637768 145 152 155
0.85421652 -0.14916143 0.72931859 158 164 166
0.84780879 -0.12785701 0.71886795 149 155 156
0.84642993 -0.13163085 0.72502196 150 155 160
0.87759769 -0.76057345 1.31629479 137 136 138
0.87692006 -0.75744678 1.31324158 149 148 149
0.87469023 -0.64725816 1.55837202 169 171 173
0.86109029 -0.15192068 0.73334188 158 163 166
0.87473255 0.51012802 1.15878952 161 163 166
0.87597784 0.51846871 1.16176927 140 141 141
0.87635010 0.52209744 1.16426831 140 141 139
0.88896293 -0.78440611 1.31484703 160 160 159
0.88948355 -0.78679719 1.33506133 154 153 154
0.88801539 -0.79187542 1.34236014 158 158 160
0.88827515 -0.76496404 1.29864335 154 157 155
0.88735919 -0.77079745 1.31063615 154 154 153
0.88749610 -0.77448858 1.33034376 145 145 147
0.89279800 -0.68332186 1.57527339 149 150 152
0.89174878 -0.68425918 1.59042476 161 159 160
0.89893192 -0.67419332 1.55837202 161 162 164
0.89523251 -0.66799917 1.57284699 159 164 165
0.89245168 -0.67188760 1.58658801 162 164 168
0.88760590 -0.65282675 1.56821332 169 172 173
0.89482729 0.51602235 1.15806169 143 148 151
0.89122765 0.51498403 1.16607895 146 150 152
0.89648410 0.51510594 1.18444222 145 149 150
0.89188862 0.52248177 1.15776205 134 135 138
0.88822051 0.52414423 1.16754200 141 142 143
0.90198143 -0.68103981 1.58263453 134 135 139
0.90364559 -0.67554009 1.55837202 168 168 168
0.90493002 -0.67788037 1.57067060 146 146 149
0.90779956 -0.67239060 1.58338417 149 150 156
0.90092401 0.51517312 1.15813037 145 147 153
0.90575705 0.51342481 1.17154906 137 138 142
0.91031139 0.51276386 1.18859746 140 145 145
0.90123224 0.52225393 1.15681207 135 140 146
0.92511048 0.51270547 1.19190449 135 137 139
0.93742669 0.52058265 1.19663262 137 136 136
0.94135833 0.51897198 1.19768882 151 153 153
0.94302446 0.52196431 1.19980860 143 143 143
0.99927244 -0.04031420 0.85430911 155 156 157
0.99971223 -0.05463629 0.87076700 142 145 147
0.99886006 -0.03876418 0.85269415 146 146 148
1.00158256 -0.04120971 0.85755128 148 149 151
1.00844875 -0.04788966 0.87034384 133 134 138
1.01531309 -0.04610941 0.88037902 119 124 129
1.00201190 -0.03771121 0.85665089 146 146 148
1.00945536 -0.03722136 0.86825747 144 145 149
1.01739526 -0.03550387 0.88152385 148 151 152
1.02137983 -0.03334851 0.88497627 147 151 152
1.09199828 -0.12044932 1.30741072 141 146 147
1.08284622 -0.10326945 1.27663696 156 159 160
1.08651035 -0.10350722 1.28957727 141 144 146
1.09175910 -0.11138224 1.30689836 136 138 140
1.09151769 -0.09407046 1.27904117 156 156 157
1.09403547 -0.09560358 1.29232114 149 151 152
1.09219192 -0.09479622 1.30426947 140 141 143
1.10164630 -0.09140899 1.29616034 147 147 149
1.10137749 -0.09288434 1.30113602 134 135 137
1.15387185 -0.92122771 1.73818421 161 161 169
1.15635769 -0.92675427 1.75165856 164 164 172
1.15035814 -0.90681064 1.69897699 146 146 147
1.15517075 -0.90523418 1.70754336 158 162 163
1.15857031 -0.90974981 1.72241393 159 161 164
1.15733179 -0.91790946 1.74377537 169 171 175
1.15710940 -0.89702667 1.71113670 152 156 155
1.15626788 -0.68528789 1.07944560 153 153 159
1.15078605 -0.68519879 1.09119829 157 164 164
1.15253639 -0.66849625 1.07944560 152 156 157
1.15348585 -0.67584222 1.08928788 154 163 163
1.15845251 -0.64317241 1.45470357 167 167 166
1.15602760 -0.63286374 1.44664166 165 166 165
1.15897083 -0.60227305 1.39771509 165 169 172
1.15894449 -0.60109657 1.40060294 175 178 181
1.15658770 -0.59259825 1.39484113 162 164 169
1.15894449 -0.59383410 1.40060294 155 157 161
1.15487283 -0.06469253 1.17689908 146 146 151
1.15885568 -0.06411875 1.18512559 150 152 156
1.16488767 -0.92022628 1.73818421 161 164 167
1.16526152 -0.92381184 1.75232014 163 165 170
1.16555667 -0.92332759 1.76420298 162 163 167
1.16758765 -0.90545800 1.71239528 172 179 180
1.16654462 -0.90696634 1.72853836 162 165 166
1.16894830 -0.91241306 1.75037863 165 167 169
1.16844966 -0.91773224 1.76812332 153 156 158
1.16504085 -0.89653271 1.69897699 167 175 179
1.16498113 -0.89753495 1.71371477 163 166 166
1.16749542 -0.89639699 1.72619532 166 166 166
1.16816194 -0.68322924 1.09005890 153 157 160
1.16422596 -0.67628989 1.08898752 154 157 159
1.17102485 -0.64374752 1.45617726 170 171 170
1.17523005 -0.64468212 1.46097374 168 169 169
1.17365745 -0.62340478 1.41039768 165 173 173
1.17843676 -0.62851930 1.42714071 166 174 176
1.17254812 -0.63138672 1.44927550 165 167 169
1.17581344 -0.60200638 1.37503421 153 154 155
1.17616911 -0.60577249 1.39431459 168 173 173
1.16896308 -0.60972570 1.40601192 169 173 173
1.17288740 -0.61492205 1.42564949 165 167 168
1.16931105 -0.59480935 1.39450112 165 169 170
1.16533451 -0.59418865 1.40226001 161 163 168
1.16294141 -0.06138044 1.18668771 144 146 152
1.16961167 -0.05105582 1.19248577 138 141 143
1.17605305 -0.04409291 1.20761983 140 146 145
1.17877758 -0.03813420 1.20550168 142 143 143
1.18312281 -0.92327569 1.76995859 166 168 170
1.19561386 -0.92375073 1.78864527 168 169 171
1.19003785 -0.91088271 1.77114719 165 165 165
1.19798021 -0.91288543 1.78654088 165 165 166
1.18575766 -0.64607357 1.45200639 175 179 179
1.18617249 -0.64468213 1.46097374 183 184 183
1.18297188 -0.63261322 1.43926084 159 167 169
1.18401995 -0.63536434 1.44907915 162 166 167
1.18117401 -0.60311887 1.38933969 164 166 168
1.18073201 -0.60835904 1.40060294 173 179 179
1.18209410 -0.59952067 1.38800261 165 171 170
1.18407266 -0.05258740 1.19663729 140 143 146
1.19170465 -0.04714214 1.20613257 139 141 143
1.18981930 -0.03703252 1.21289480 140 140 139
1.20194829 -0.92243308 1.79812157 165 167 169
1.20341802 -0.90449435 1.79336464 162 162 162
1.21429378 -0.06274746 1.21813548 143 143 147
1.20870253 -0.05016552 1.21619467 141 143 146
1.21763184 -0.04854665 1.22289789 135 137 140
1.20483109 -0.03734450 1.21860453 147 148 148
1.21126294 -0.03601648 1.22197792 146 148 147
1.21957922 0.66709143 1.76075804 139 143 144
1.22923286 -0.04809556 1.23044923 138 139 143
1.22552609 0.66232777 1.75619650 141 143 144
1.22808522 0.67289561 1.77165723 138 143 144
1.22329295 0.67741060 1.78392589 133 138 139
1.23238325 0.68178320 1.77924371 126 129 132
1.22957774 0.68471071 1.78769891 125 127 128
1.22929515 0.68859692 1.80633797 137 138 138
1.23219603 0.70502056 1.79041665 135 136 137
1.23906434 0.72129071 1.79336464 137 138 140
1.24395001 -0.04991312 1.23929036 136 134 140
1.24408233 -0.04571266 1.24156010 144 146 149
1.24347655 0.67591455 1.77459407 139 141 141
1.24468438 0.68178320 1.77924371 142 144 146
1.24775302 0.69042807 1.79101127 136 137 140
1.25656176 0.69708180 1.80290389 130 131 136
1.25035254 0.70552884 1.79495148 136 137 138
1.25279874 0.70893015 1.80421508 130 131 134
1.24545896 0.72320396 1.79812157 131 132 134
1.25359098 0.72329201 1.80610903 119 120 124
1.26243430 0.70517442 1.79574311 143 143 143
1.26435220 0.70175609 1.80290389 142 142 143
1.29477323 0.05374564 1.26402407 128 127 129
1.30856860 0.05666597 1.27583555 131 131 133
1.30545270 0.06100237 1.27423275 135 136 140
1.31561506 0.06158114 1.28632224 139 140 144
1.33002055 0.05863288 1.29493296 130 131 131
1.32398158 0.06404774 1.29122728 138 139 142
1.33526397 0.06453924 1.30113602 137 138 141
1.35328364 0.05702501 1.30931896 128 130 131
1.34924989 0.06460758 1.31074876 140 141 143
1.35484695 0.21402932 1.73522059 138 137 137
1.35787994 0.21925109 1.74489820 141 140 140
1.35661004 0.23020851 1.73651718 144 144 144
1.35504137 0.22987627 1.74850760 142 142 142
1.35652900 0.22124392 1.76075804 147 147 147
1.35194800 0.24781521 1.73374818 140 139 139
1.35643221 0.24421207 1.74546254 139 138 138
1.36494645 0.05843749 1.31565705 120 123 127
1.36028707 0.06313864 1.31885576 143 144 146
1.37479340 0.06615262 1.33000869 135 136 137
1.36239809 0.21249633 1.74828129 138 139 138
1.37242001 0.21551432 1.76997973 142 143 141
1.36066846 0.23142614 1.73818421 150 149 149
1.36114188 0.22656427 1.74716719 143 143 142
1.36885810 0.22377314 1.76882440 145 144 144
1.36100594 0.24923763 1.73670240 141 140 139
1.36805533 0.25090368 1.74756490 139 138 138
1.36565900 0.24559054 1.76075804 142 141 142
1.36970967 0.26013151 1.75619650 130 130 133
1.37604004 0.26420564 1.76824521 139 140 142
1.38613311 0.05900050 1.32833262 124 130 134
1.38989102 0.06632555 1.33399992 137 138 140
1.38685000 0.07354452 1.34236014 138 139 139
1.38336909 0.26013151 1.75619650 138 139 141
1.38419531 0.26317962 1.76305068 136 137 139
1.38727891 0.26648182 1.78863287 145 146 148
1.40560726 0.06537610 1.33722450 138 140 142
1.73233145 -0.50081080 1.87781680 132 131 132
1.73346892 -0.50336763 1.88434422 147 147 147
1.73137252 -0.49729028 1.87677932 138 138 140
1.74206841 -0.50081080 1.87781680 144 144 146
1.74922025 -0.50635866 1.89180103 148 149 150
1.75419462 -0.51515171 1.90687251 152 152 154
1.74206841 -0.49594235 1.87781680 162 162 163
1.75503731 -0.49707338 1.88827813 164 166 164
1.77500939 -0.52509332 1.93131578 154 154 156
1.76568192 -0.50407845 1.89620471 160 163 162
1.77071810 -0.51494998 1.91225159 149 150 151
1.76827186 -0.51879907 1.92037344 153 153 155
1.78723310 -0.52788391 1.93235826 149 149 152
1.79216422 -0.53526916 1.94673546 156 156 159
1.78306359 -0.50762498 1.90955448 165 169 168
1.79326725 -0.51694429 1.92582905 155 157 158
1.81097392 -0.56575045 1.95451985 151 150 155
1.81538837 -0.56886638 1.96490383 153 152 155
1.80685097 -0.54880929 1.95396816 151 151 154
1.81624299 -0.55451643 1.97062415 162 162 163
1.81351215 -0.52888330 1.94797579 153 154 157
1.81355739 -0.51989824 1.93683386 159 162 163
1.82665694 -0.58174813 1.97636104 131 130 135
1.82134688 -0.57324491 1.97061586 151 148 154
1.82340062 -0.55019188 1.95859759 131 132 135
1.83083048 -0.55100925 1.96750021 141 142 145
1.82825990 -0.53256598 1.95570016 150 151 155
1.83418055 -0.53648949 1.96490383 152 151 157
1.84276003 -0.55020839 1.97348845 145 146 150
