ply
format ascii 1.0
element vertex 1081
property float x
property float y
property float z
property uchar red
property uchar green
property uchar blue
end_header
0.18989638 -0.35015551 0.97023851 111 116 123
0.19001631 -0.33023978 0.97085189 111 115 122
0.19017075 -0.31035615 0.97164121 112 116 123
0.18427261 -0.28547246 0.95410184 153 151 152
0.19332800 -0.29147699 0.96792068 113 115 120
0.18425359 -0.26976949 0.95318376 136 136 139
0.19561963 -0.27035414 0.96426093 106 108 113
0.18490626 -0.24983310 0.95321507 92 92 99
0.19611774 -0.24985432 0.96370209 102 105 114
0.18539087 -0.23010558 0.95272365 128 128 132
0.19594843 -0.22979819 0.96273196 100 100 110
0.18671549 -0.20910482 0.95212993 98 97 101
0.19672628 -0.21100150 0.96183533 98 98 104
0.18831519 -0.18941596 0.95205802 104 103 108
0.19803493 -0.19215458 0.96068054 96 98 106
0.18977703 -0.16994410 0.95227165 98 98 104
0.19029179 -0.14995171 0.95117398 87 85 89
0.19030338 -0.13009255 0.95131046 81 79 83
0.19010524 -0.11010980 0.95037496 68 68 72
0.18965257 -0.09000024 0.94848153 75 74 77
0.18983423 -0.07019312 0.94884772 68 65 69
0.18997009 -0.04300724 0.93460098 131 130 136
0.19007356 -0.05310326 0.94622274 83 79 83
0.18998299 -0.02656147 0.91417253 142 141 144
0.18996610 -0.03646407 0.92468256 141 141 144
0.18966083 -0.00127831 0.89959187 147 147 148
0.18996022 -0.01134676 0.90411019 138 138 142
0.19008449 0.01036300 0.89601765 149 148 150
0.19009890 0.03034991 0.89161815 149 146 148
0.19006840 0.05022125 0.88870039 141 140 143
0.18962931 0.07002884 0.88664715 140 140 143
0.18971754 0.08992572 0.88508728 135 133 136
0.19056658 0.10953293 0.88388620 122 121 126
0.19035245 0.13001110 0.88289297 144 142 144
0.19017920 0.15047571 0.88208940 168 164 164
0.19004078 0.17017203 0.88144736 160 158 157
0.18992406 0.18986114 0.88090596 156 154 153
0.18982523 0.20954565 0.88044755 149 148 147
0.18970811 0.23603175 0.87990426 171 166 163
0.18975377 0.22543994 0.88011605 154 151 151
0.18965478 0.25040890 0.87965696 160 155 153
0.18958904 0.27008074 0.87935197 144 139 139
0.18953330 0.28975410 0.87909345 149 148 146
0.18948406 0.30942650 0.87886502 147 146 143
0.18944027 0.32985744 0.87866196 140 139 138
0.18940861 0.35030144 0.87851511 149 147 144
0.18940590 0.37003633 0.87850251 31 30 29
0.18942507 0.38981507 0.87859137 0 0 0
0.18943247 0.40957249 0.87862573 0 0 0
0.18943447 0.43007858 0.87863507 0 0 0
0.18943215 0.45057481 0.87862433 0 0 0
0.18942634 0.47030257 0.87859741 0 0 0
0.18941637 0.49001834 0.87855117 0 0 0
0.20950974 -0.60594938 0.90635651 0 0 0
0.20974306 -0.59015493 0.90736575 0 0 0
0.21012461 -0.57001575 0.90901585 0 0 0
0.21003303 -0.54972045 0.91177329 0 0 0
0.20996300 -0.52994581 0.91561987 0 0 0
0.21283646 -0.52196338 0.93119923 79 91 91
0.21093370 -0.52758514 0.95665898 117 125 124
0.20856788 -0.52142948 0.96045301 117 126 126
0.20921692 -0.51840636 0.91883111 0 0 0
0.20477579 -0.51711572 0.92336495 44 46 46
0.20986025 -0.51003096 0.96181521 118 124 125
0.21033146 -0.49034756 0.96397388 118 124 125
0.21060588 -0.47013655 0.96523293 117 123 126
0.21020070 -0.45029666 0.96599561 115 121 124
0.20995179 -0.43052987 0.96635800 116 120 124
0.21007746 -0.41049150 0.96634521 113 120 122
0.20984010 -0.39023550 0.96650957 113 117 123
0.20966684 -0.37001478 0.96756194 112 117 121
0.20977232 -0.34970157 0.96856848 109 115 122
0.20977348 -0.32964548 0.96910341 110 115 121
0.20988958 -0.30971812 0.96964074 109 115 121
0.20962063 -0.28999400 0.96773334 110 113 121
0.21031544 -0.26985843 0.96571790 108 111 121
0.21055743 -0.24985847 0.96499885 106 109 120
0.21043581 -0.22971025 0.96443703 105 108 118
0.21032737 -0.20959789 0.96393642 103 106 118
0.21024831 -0.18958528 0.96284017 101 104 116
0.20331424 -0.16444842 0.95944149 95 100 109
0.21080298 -0.17133118 0.96122361 98 103 112
0.20971325 -0.14959962 0.95829067 83 83 90
0.21699691 -0.15817997 0.96028472 97 102 113
0.21044920 -0.13033511 0.95691172 65 63 67
0.21017355 -0.11034557 0.95566276 62 61 66
0.20983886 -0.09037904 0.95414119 60 60 63
0.20969970 -0.07054141 0.95351476 60 58 61
0.20986363 -0.04324309 0.93403017 131 132 137
0.20998481 -0.05376139 0.94829512 86 86 89
0.21002680 -0.02651608 0.91369609 133 133 137
0.20978268 -0.03640278 0.92393961 134 133 137
0.20945055 -0.00124690 0.89937465 152 147 147
0.20999747 -0.01139903 0.90385678 136 136 140
0.21012383 0.01041665 0.89585469 151 148 150
0.21011118 0.03034684 0.89152520 152 150 151
0.21002384 0.05021814 0.88864465 152 151 151
0.20954304 0.07002594 0.88661018 141 139 141
0.21017372 0.08970483 0.88507600 130 130 133
0.21042277 0.10953073 0.88386839 132 131 134
0.21018770 0.13000935 0.88288097 155 154 155
0.20999757 0.15047450 0.88208227 165 161 160
0.20984472 0.17017067 0.88144027 163 159 159
0.20971699 0.18986064 0.88090366 165 163 160
0.20960772 0.20954495 0.88044468 158 155 154
0.20947968 0.23603247 0.87990695 159 157 157
0.20952766 0.22543803 0.88010848 168 165 164
0.20942010 0.25040883 0.87965667 141 139 141
0.20988641 0.27023563 0.87935585 125 124 122
0.21004773 0.28975684 0.87910170 130 129 130
0.20999326 0.30942956 0.87887373 130 127 127
0.20994482 0.32986080 0.87867093 154 152 149
0.20990904 0.35030387 0.87852123 151 147 142
0.20990748 0.37004149 0.87851465 29 28 27
0.20992987 0.38982257 0.87860829 0 0 0
0.20993666 0.40957764 0.87863679 0 0 0
0.20993779 0.43008176 0.87864157 0 0 0
0.20993432 0.45057619 0.87862704 0 0 0
0.20992703 0.47030212 0.87859658 0 0 0
0.20991562 0.49001703 0.87854882 0 0 0
0.22979182 -0.60573003 0.90602851 0 0 0
0.23005787 -0.58996727 0.90707729 0 0 0
0.23027462 -0.57003635 0.90876745 0 0 0
0.22980736 -0.54947684 0.91167770 0 0 0
0.23002546 -0.52979898 0.91548061 0 0 0
0.23050856 -0.52428032 0.92895668 77 82 85
0.23074488 -0.52882701 0.95700159 118 125 125
0.22772444 -0.52153084 0.96002786 117 126 124
0.22268306 -0.51892250 0.91869044 17 17 17
0.23774174 -0.51630146 0.95990332 116 121 126
0.22906126 -0.50994598 0.96083488 118 124 126
0.23003912 -0.48992972 0.96302564 117 123 125
0.23042264 -0.46966951 0.96412038 117 122 124
0.23051877 -0.44990922 0.96478739 114 120 123
0.23059533 -0.43004219 0.96510818 114 119 122
0.23058033 -0.40999894 0.96504580 113 118 123
0.23056478 -0.38995546 0.96498005 112 117 120
0.23001888 -0.37008714 0.96564683 110 115 122
0.22996392 -0.35046697 0.96650386 109 113 121
0.22929560 -0.33030014 0.96716699 108 114 121
0.22954368 -0.31016738 0.96778245 109 113 122
0.22968544 -0.29028367 0.96741046 107 112 120
0.22971813 -0.27042511 0.96643041 106 110 121
0.23072744 -0.25002751 0.96565040 103 109 119
0.23061246 -0.22988463 0.96516976 103 108 118
0.23051664 -0.20977851 0.96476878 102 105 118
0.23028072 -0.18957583 0.96378078 99 105 117
0.22986508 -0.17011203 0.96204024 99 103 116
0.23001636 -0.14664272 0.95897505 73 73 78
0.22990116 -0.15673812 0.96054674 98 101 117
0.23050075 -0.13045314 0.95777411 65 63 66
0.23019438 -0.11044200 0.95649958 62 60 64
0.22984197 -0.09046384 0.95503344 59 59 63
0.22963198 -0.07058926 0.95416075 60 59 61
0.22980325 -0.04326812 0.93317897 127 127 130
0.22990414 -0.05379208 0.94850150 88 88 93
0.23027761 -0.02674416 0.91346387 128 127 133
0.22945858 -0.03656551 0.92346343 127 127 132
0.23057128 -0.00155786 0.89929215 145 142 144
0.22982873 -0.01163506 0.90370480 134 132 136
0.23009590 0.01040583 0.89571010 151 149 150
0.23011814 0.03034359 0.89142797 155 153 153
0.22997515 0.05021469 0.88858280 155 152 152
0.22957635 0.07012032 0.88655740 147 146 148
0.23046328 0.08969086 0.88504223 130 129 132
0.23027675 0.10952788 0.88384521 131 131 134
0.23002174 0.13000720 0.88286636 151 150 150
0.22981421 0.15047237 0.88206982 167 163 162
0.22964804 0.17016908 0.88143200 164 161 160
0.22950870 0.18985924 0.88089719 158 154 154
0.22951307 0.20964074 0.88043587 162 160 159
0.23022260 0.23590787 0.87990399 167 167 165
0.22989820 0.22534152 0.88010964 156 152 150
0.22994405 0.25040699 0.87965024 168 165 161
0.23038179 0.26992467 0.87935879 147 141 137
0.23055984 0.28975617 0.87909962 137 133 131
0.23049999 0.30942874 0.87887141 159 157 153
0.23044886 0.32986288 0.87867646 139 137 135
0.23040959 0.35030606 0.87852671 134 132 131
0.23040854 0.37004495 0.87852272 30 31 31
0.23043465 0.38982874 0.87862223 0 0 0
0.23044058 0.40958140 0.87864488 0 0 0
0.23044077 0.43008373 0.87864562 0 0 0
0.23043611 0.45057661 0.87862787 0 0 0
0.23042748 0.47030126 0.87859498 0 0 0
0.23041482 0.49001585 0.87854671 0 0 0
0.25004659 -0.60548050 0.90565532 0 0 0
0.25034409 -0.58974293 0.90673242 0 0 0
0.24993590 -0.56963417 0.90852333 0 0 0
0.25008434 -0.54951248 0.91149653 0 0 0
0.24960043 -0.53073256 0.91535238 2 2 2
0.25040015 -0.52784250 0.92978240 105 112 110
0.25030426 -0.52980161 0.95667190 117 124 125
0.25121706 -0.51168180 0.95929063 118 123 124
0.24478263 -0.50347629 0.96040669 117 123 126
0.25839658 -0.49991026 0.95993322 118 124 124
0.24982999 -0.49019269 0.96174356 117 122 124
0.24982965 -0.47021285 0.96286156 114 122 124
0.25040670 -0.44976248 0.96354470 113 120 122
0.25028600 -0.42948153 0.96384929 111 119 122
0.25026681 -0.40945913 0.96377553 111 117 122
0.25023457 -0.38941904 0.96365208 111 116 121
0.25034734 -0.36959806 0.96408748 110 114 120
0.25044906 -0.34978528 0.96476854 109 113 120
0.24985198 -0.33005332 0.96539660 108 112 120
0.25002212 -0.31024077 0.96605292 106 112 118
0.25008022 -0.29027215 0.96627597 106 110 117
0.25003015 -0.27016583 0.96582954 105 109 118
0.25060447 -0.24987866 0.96507402 103 108 118
0.25045096 -0.22972104 0.96448287 103 106 117
0.25035369 -0.20963504 0.96410824 99 104 116
0.25012045 -0.18946310 0.96320985 100 104 114
0.25840449 -0.16144515 0.95996261 99 103 114
0.24961225 -0.17008350 0.96152099 99 101 115
0.25129221 -0.14887104 0.95879010 76 77 82
0.24640701 -0.15786943 0.96034977 98 101 117
0.25027130 -0.13040430 0.95741609 63 61 66
0.24999766 -0.11042624 0.95636712 61 59 61
0.24968575 -0.09047637 0.95517246 59 59 59
0.24951688 -0.07061611 0.95452328 60 58 61
0.24984357 -0.04317726 0.93260685 144 143 144
0.24990643 -0.05375343 0.94852911 92 90 93
0.25003648 -0.02732189 0.91355838 126 126 132
0.24996108 -0.03715930 0.92360875 120 123 128
0.24983980 -0.00202433 0.89927525 145 145 145
0.25004701 -0.01221551 0.90368771 129 129 134
0.25006149 0.01039499 0.89556523 150 148 149
0.25011838 0.03034005 0.89132228 155 154 154
0.24992007 0.05021052 0.88850802 158 153 153
0.24977551 0.07009798 0.88650636 152 150 152
0.25046201 0.08978466 0.88499633 129 129 132
0.25012815 0.10952435 0.88381658 125 124 128
0.24985371 0.13000433 0.88284677 142 139 140
0.24962929 0.15046964 0.88205377 170 166 164
0.24944992 0.17016675 0.88141995 168 165 164
0.24994927 0.18994928 0.88088314 171 168 165
0.25004034 0.20944835 0.88042940 170 166 164
0.25054346 0.23527281 0.87990998 160 158 155
0.25060169 0.22467903 0.88011456 164 162 161
0.25047146 0.25040896 0.87965716 142 139 139
0.25038373 0.27007984 0.87934908 154 152 151
0.25031089 0.28975410 0.87909333 137 134 132
0.25024856 0.30942976 0.87887430 141 139 137
0.25019253 0.32986327 0.87867750 152 149 145
0.25014986 0.35030644 0.87852767 148 147 145
0.25014867 0.37004530 0.87852350 42 41 40
0.25017897 0.38983212 0.87862986 0 0 0
0.25018432 0.40958317 0.87864868 0 0 0
0.25018373 0.43008422 0.87864662 0 0 0
0.25017803 0.45057595 0.87862660 0 0 0
0.25016823 0.47029976 0.87859218 0 0 0
0.25015452 0.49001437 0.87854406 0 0 0
0.26994351 -0.60565342 0.90523135 0 0 0
0.27050644 -0.59017323 0.90633036 0 0 0
0.26964167 -0.56946157 0.90820968 0 0 0
0.27021074 -0.54961608 0.91120380 0 0 0
0.27174557 -0.54107852 0.95332806 117 123 124
0.26951027 -0.53304675 0.91497321 1 1 1
0.26997006 -0.53104266 0.92712066 87 91 95
0.26982423 -0.53076669 0.95556442 116 124 124
0.27046711 -0.51034876 0.95810082 115 122 122
0.27330527 -0.49609727 0.95952259 115 122 122
0.26825916 -0.48761331 0.96072145 116 121 122
0.26964153 -0.47002056 0.96158306 113 120 122
0.26984121 -0.45041010 0.96229475 112 118 121
0.26985351 -0.43049771 0.96256407 111 117 121
0.26996601 -0.41052136 0.96251095 110 117 120
0.26982179 -0.39052229 0.96244958 110 115 119
0.26985722 -0.37012086 0.96276406 109 114 119
0.27031859 -0.34962892 0.96335542 106 113 118
0.27024818 -0.32948962 0.96374716 107 111 117
0.27040097 -0.30967606 0.96429389 106 110 118
0.27045187 -0.28973124 0.96447615 106 109 116
0.27037785 -0.26965414 0.96421246 105 107 117
0.27021086 -0.24950096 0.96361571 102 108 116
0.26998772 -0.22944357 0.96304844 102 104 117
0.26982380 -0.20957005 0.96257071 98 104 114
0.26968555 -0.19000496 0.96174240 99 103 114
0.27271961 -0.16626289 0.95929191 100 101 114
0.26749911 -0.17415818 0.96066801 99 102 112
0.27020604 -0.15030770 0.95769311 79 79 85
0.26986253 -0.13027563 0.95647382 61 60 64
0.26965465 -0.11035256 0.95573572 60 59 61
0.26941190 -0.09044743 0.95487332 59 58 59
0.26981637 -0.07042636 0.95454521 59 58 60
0.27003489 -0.04393407 0.93308816 138 138 138
0.26992734 -0.05448598 0.94923257 89 87 89
0.26999165 -0.02728084 0.91309392 128 125 132
0.26999005 -0.03717691 0.92300190 126 124 132
0.26997669 -0.00202380 0.89904458 144 144 146
0.27002843 -0.01216822 0.90336549 128 128 133
0.27001397 0.01038394 0.89539813 146 145 146
0.27011076 0.03033618 0.89120640 152 151 152
0.26985946 0.05020595 0.88842610 154 151 152
0.26996847 0.07002281 0.88645563 154 152 153
0.27033529 0.08978067 0.88495670 138 138 141
0.26997862 0.10952095 0.88378902 130 129 132
0.26968539 0.13000174 0.88282909 142 140 142
0.26944400 0.15046711 0.88203886 167 164 163
0.27001233 0.17016401 0.88140582 162 159 159
0.27048610 0.18975637 0.88087434 167 164 161
0.27047013 0.20953827 0.88041649 162 157 154
0.27031294 0.23527143 0.87990483 148 144 144
0.27037453 0.22467667 0.88010528 168 165 163
0.27023230 0.25040476 0.87964236 157 156 155
0.27014172 0.27007934 0.87934741 145 142 141
0.27005937 0.28974945 0.87907929 165 162 157
0.26999423 0.30942735 0.87886731 152 150 146
0.26993528 0.32986249 0.87867544 157 157 151
0.26988873 0.35030494 0.87852390 119 118 119
0.26988629 0.37004214 0.87851599 38 37 38
0.26992208 0.38983325 0.87863243 0 0 0
0.26992691 0.40958293 0.87864817 0 0 0
0.26992580 0.43008321 0.87864457 0 0 0
0.26991932 0.45057434 0.87862346 0 0 0
0.26990852 0.47029769 0.87858831 0 0 0
0.26989388 0.49001248 0.87854066 0 0 0
0.29047055 -0.60568935 0.90479792 0 0 0
0.28989446 -0.58994586 0.90598621 0 0 0
0.28987471 -0.57005598 0.90782881 0 0 0
0.28991252 -0.54995416 0.91089805 0 0 0
0.29249872 -0.54021990 0.93633988 113 118 121
0.29105382 -0.54270272 0.95066757 114 122 124
0.28974764 -0.53511543 0.91438678 0 0 0
0.28845151 -0.53519721 0.92718445 74 83 83
0.29012002 -0.53026532 0.95493781 116 123 123
0.28988617 -0.51000168 0.95708409 113 122 121
0.29058800 -0.49037989 0.95894054 113 120 120
0.28131675 -0.48194758 0.96014012 114 121 122
0.29503772 -0.47294643 0.95961747 112 119 118
0.28655945 -0.46764598 0.96049520 112 119 120
0.28984012 -0.45000040 0.96099427 109 117 120
0.28950888 -0.43001909 0.96132715 111 116 120
0.28952765 -0.41010659 0.96138905 108 115 118
0.28951503 -0.39014932 0.96134662 109 114 119
0.28958129 -0.37029430 0.96156706 108 113 119
0.28965776 -0.35044472 0.96203138 106 112 117
0.28969775 -0.33035931 0.96225827 106 111 119
0.28985630 -0.31010896 0.96263194 105 109 116
0.28994101 -0.28990987 0.96276398 104 107 118
0.28987340 -0.26995311 0.96255858 101 108 115
0.28978894 -0.25010098 0.96218075 101 106 116
0.28978906 -0.23044183 0.96162727 100 104 114
0.29932305 -0.20181353 0.95993445 96 100 110
0.28978452 -0.21061602 0.96100479 97 103 111
0.29579818 -0.18804672 0.95966076 96 101 113
0.28647282 -0.19204206 0.96053483 97 102 113
0.29045324 -0.17019922 0.95857352 96 100 112
0.28126559 -0.17931167 0.96012282 92 100 109
0.28974893 -0.15014052 0.95663281 76 77 82
0.28947127 -0.13017180 0.95571382 60 59 63
0.28986588 -0.11011093 0.95515129 59 57 63
0.28993548 -0.09041385 0.95452118 58 58 60
0.29025749 -0.07077542 0.95405249 59 57 60
0.28978390 -0.04397697 0.93224611 138 136 137
0.29006199 -0.05456319 0.94836973 87 85 88
0.29002159 -0.02729589 0.91268617 127 127 133
0.29000874 -0.03719623 0.92244395 128 126 130
0.29075695 -0.00260692 0.89903175 141 141 144
0.28973648 -0.01267227 0.90332343 129 130 134
0.29001984 0.01035461 0.89523907 143 142 144
0.29009820 0.03033231 0.89109125 148 148 150
0.28979472 0.05020129 0.88834278 153 149 148
0.29010147 0.06998264 0.88640021 148 146 147
0.29020733 0.08977685 0.88491874 132 132 135
0.28982849 0.10951781 0.88376349 130 129 132
0.28951590 0.12999899 0.88281029 145 142 143
0.28990890 0.15055711 0.88202019 166 162 161
0.29057381 0.17016112 0.88139081 169 165 164
0.29039818 0.18985082 0.88085807 164 161 158
0.29024815 0.20953505 0.88040297 166 163 159
0.29041048 0.23489290 0.87989657 161 158 156
0.28977275 0.22435342 0.88010081 163 158 155
0.28999432 0.25040209 0.87963297 165 161 157
0.28989633 0.27007576 0.87933583 160 157 154
0.28981201 0.28974974 0.87908006 147 143 143
0.28974190 0.30942735 0.87886741 137 135 133
0.28967693 0.32986054 0.87867028 149 148 144
0.28962615 0.35030188 0.87851625 140 139 134
0.28962326 0.37003857 0.87850749 52 50 49
0.28966360 0.38983210 0.87862985 0 0 0
0.28966798 0.40958058 0.87864314 0 0 0
0.28966683 0.43008080 0.87863964 0 0 0
0.28965994 0.45057192 0.87861873 0 0 0
0.28964835 0.47029516 0.87858359 0 0 0
0.28963275 0.49001003 0.87853626 0 0 0
0.31035886 -0.60555763 0.90444193 0 0 0
0.30963999 -0.58973051 0.90567151 0 0 0
0.31014909 -0.56998653 0.90762943 0 0 0
0.30998831 -0.55012263 0.91071865 0 0 0
0.31216956 -0.54307864 0.93464492 113 120 119
0.31014563 -0.54412189 0.94977981 114 122 122
0.30886165 -0.53717860 0.91398268 4 5 5
0.30915233 -0.53801102 0.92386927 90 97 97
0.31023487 -0.52958781 0.95374138 114 120 121
0.30969609 -0.50983349 0.95630037 115 119 120
0.31007214 -0.48983148 0.95792718 113 118 119
0.31022520 -0.47023767 0.95878907 110 118 118
0.31240839 -0.45142962 0.95949119 110 116 119
0.30376488 -0.44549729 0.96024009 110 116 119
0.31595083 -0.43014432 0.95975306 109 115 119
0.30537603 -0.42918025 0.96034838 110 116 120
0.31775969 -0.41062130 0.95985339 108 114 118
0.30733063 -0.40929923 0.96041097 109 115 117
0.31875723 -0.38982174 0.95991079 109 113 115
0.30820284 -0.38972713 0.96043237 107 113 118
0.31979744 -0.37465680 0.95996829 108 113 116
0.30962946 -0.36970366 0.96054974 106 111 117
0.31012343 -0.35008797 0.96084698 106 111 117
0.31016674 -0.33020574 0.96098147 106 110 118
0.30965701 -0.31052644 0.96129259 105 109 116
0.30946013 -0.29045859 0.96136607 103 107 115
0.31012394 -0.27037160 0.96104924 101 106 114
0.31945320 -0.24589141 0.95993106 96 103 115
0.30941790 -0.25070302 0.96070536 101 105 115
0.31554010 -0.22835885 0.95967618 98 101 110
0.30586539 -0.23176840 0.96048095 99 103 113
0.31140807 -0.20964787 0.95940877 98 101 110
0.30223271 -0.21608024 0.96020866 101 102 110
0.31030155 -0.19025824 0.95883084 96 100 110
0.30985714 -0.17012893 0.95745691 96 100 109
0.30993870 -0.14986367 0.95555545 73 74 78
0.30985501 -0.13006081 0.95490026 60 59 62
0.31028276 -0.11039524 0.95456757 58 57 62
0.31042376 -0.09037487 0.95410915 58 57 60
0.31020370 -0.07053645 0.95343428 57 56 59
0.31010573 -0.04401729 0.93149964 129 130 133
0.30986635 -0.05454471 0.94738261 86 83 87
0.31020385 -0.02802789 0.91291299 133 133 136
0.30950547 -0.03774665 0.92251452 132 133 135
0.31032880 -0.00280084 0.89889969 131 131 135
0.30989345 -0.01299592 0.90318749 128 129 134
0.31002270 0.01037125 0.89508153 141 139 142
0.31007988 0.03032840 0.89097443 152 151 151
0.30972529 0.05019647 0.88825671 152 149 149
0.31023129 0.06994228 0.88634268 150 147 147
0.31007751 0.08977298 0.88488034 127 128 131
0.30967693 0.10951455 0.88373711 135 135 135
0.30968340 0.13018978 0.88278307 146 146 146
0.31047118 0.15036401 0.88200948 170 167 164
0.31037265 0.17015808 0.88137512 160 157 157
0.31018533 0.18984762 0.88084318 166 161 159
0.31002650 0.20953249 0.88039214 161 159 156
0.30984985 0.23450713 0.87989046 166 164 162
0.30992215 0.22391371 0.88009582 160 159 158
0.30975872 0.25040169 0.87963166 155 153 149
0.30964906 0.27007102 0.87932033 163 160 157
0.30956095 0.28974644 0.87907007 153 147 144
0.30948385 0.30942161 0.87885112 161 159 154
0.30941598 0.32985611 0.87865842 151 149 146
0.30995555 0.35042442 0.87850445 146 145 143
0.30989278 0.36987613 0.87848644 61 58 57
0.30940160 0.38982668 0.87861760 0 0 0
0.30940720 0.40957609 0.87863350 0 0 0
0.30940664 0.43007701 0.87863188 0 0 0
0.30939979 0.45056869 0.87861243 0 0 0
0.30938768 0.47029218 0.87857803 0 0 0
0.30973539 0.49018906 0.87853055 0 0 0
0.32976691 -0.60515573 0.90416180 0 0 0
0.32978852 -0.58966069 0.90540445 0 0 0
0.33015507 -0.57001733 0.90753996 0 0 0
0.33000850 -0.55019771 0.91094657 1 1 1
0.33157911 -0.54556208 0.92981858 107 113 113
0.33007872 -0.54626717 0.94842994 113 121 121
0.32533423 -0.53865215 0.91329673 7 8 8
0.32152306 -0.53997161 0.92209756 91 98 97
0.32989565 -0.53021627 0.95274318 112 118 121
0.33033174 -0.51015931 0.95550351 112 118 119
0.32960820 -0.49014526 0.95694479 112 116 120
0.32981964 -0.46980649 0.95775790 110 116 118
0.33007278 -0.45028771 0.95849396 109 115 117
0.33005285 -0.43036098 0.95887888 108 114 117
0.33024252 -0.41010026 0.95911708 107 112 118
0.33046330 -0.38971882 0.95923779 107 112 116
0.33044362 -0.36952969 0.95938811 106 112 117
0.33187529 -0.35014313 0.95954204 104 110 116
0.32264137 -0.34688429 0.96012736 104 110 113
0.33312027 -0.32993258 0.95956638 105 109 114
0.32343149 -0.32934485 0.96014776 105 110 114
0.33521120 -0.31083403 0.95965453 104 108 116
0.32517814 -0.30889182 0.96036431 104 107 117
0.33517594 -0.28944940 0.95959899 103 106 114
0.32474068 -0.29059309 0.96035305 104 107 114
0.33257200 -0.26911957 0.95944623 101 104 115
0.32352309 -0.27315261 0.96019245 103 106 114
0.33031446 -0.25001443 0.95919751 99 104 112
0.33015635 -0.23001001 0.95873806 99 102 110
0.32998315 -0.21001421 0.95823494 98 100 109
0.32977127 -0.19001793 0.95761970 95 99 109
0.33005004 -0.16984962 0.95621685 94 99 108
0.33018218 -0.14991012 0.95444912 73 72 76
0.33018097 -0.12994026 0.95401910 58 57 58
0.33015198 -0.11014339 0.95393458 58 57 59
0.32999786 -0.09031656 0.95348892 58 57 58
0.32976487 -0.07041258 0.95260367 56 54 56
0.32991174 -0.04480829 0.93195048 126 125 126
0.33009469 -0.05538746 0.94749579 79 75 77
0.33006248 -0.02808817 0.91244689 138 137 137
0.32985744 -0.03796561 0.92204811 139 138 137
0.33042071 -0.00283012 0.89869282 127 127 133
0.32982867 -0.01301813 0.90289563 130 131 134
0.33001728 0.01035124 0.89492844 131 131 135
0.33005796 0.03032465 0.89086196 147 146 147
0.32965411 0.05019197 0.88817633 151 148 148
0.33036038 0.06990229 0.88628999 150 148 149
0.32994699 0.08976939 0.88484466 129 130 133
0.32952445 0.10951139 0.88371148 130 130 132
0.33020004 0.12985242 0.88277399 149 147 147
0.33040693 0.15045875 0.88198980 171 168 167
0.33017079 0.17015506 0.88135943 165 162 160
0.32997120 0.18984407 0.88082665 167 165 161
0.32980325 0.20952918 0.88037835 160 157 154
0.32961806 0.23450539 0.87988393 158 152 148
0.32969094 0.22390932 0.88007851 170 167 162
0.32951839 0.25039781 0.87961803 149 149 148
0.32946539 0.27012128 0.87930932 163 157 152
0.33007090 0.28974468 0.87906484 150 146 142
0.32998762 0.30941881 0.87884309 143 143 139
0.32991478 0.32985258 0.87864905 148 144 140
0.33042974 0.35015992 0.87849234 167 165 160
0.33035955 0.37017916 0.87846631 75 74 74
0.32989591 0.38981837 0.87859887 0 0 0
0.32990311 0.40956888 0.87861802 0 0 0
0.32990434 0.43007182 0.87862126 0 0 0
0.32989809 0.45056467 0.87860459 0 0 0
0.32988592 0.47028905 0.87857217 0 0 0
0.33020527 0.48982344 0.87852656 0 0 0
0.34955285 -0.60509209 0.90390570 0 0 0
0.34989677 -0.59008499 0.90514805 0 0 0
0.35008476 -0.57035735 0.90744996 0 0 0
0.34968758 -0.55158476 0.91090907 1 2 2
0.34996673 -0.54969034 0.92871432 94 107 104
0.35032035 -0.54873069 0.94785732 112 118 118
0.34993625 -0.53049520 0.95219001 111 118 118
0.35030647 -0.51050906 0.95493750 109 117 119
0.34979806 -0.49013522 0.95620065 109 115 118
0.35029258 -0.46990556 0.95676999 109 116 117
0.34952477 -0.44973699 0.95732130 109 114 116
0.34966075 -0.43004870 0.95769368 107 114 116
0.34977921 -0.41032405 0.95801794 107 113 116
0.34982706 -0.39050745 0.95814898 107 111 117
0.34971659 -0.37041601 0.95833705 106 110 115
0.34992833 -0.35003474 0.95842714 104 110 115
0.35003958 -0.32967641 0.95840836 104 108 116
0.35001306 -0.30954350 0.95848888 102 108 115
0.34988349 -0.28953444 0.95830632 101 106 113
0.34978900 -0.26958576 0.95804746 100 103 112
0.34964536 -0.24961208 0.95765374 97 102 110
0.35020641 -0.22955881 0.95710155 97 100 109
0.35008537 -0.20965505 0.95659594 95 98 108
0.34985324 -0.18968893 0.95596146 95 98 108
0.35010742 -0.16968366 0.95460211 93 98 106
0.34966310 -0.14959833 0.95318752 70 70 74
0.34959475 -0.12980129 0.95300034 57 57 59
0.34958661 -0.11003301 0.95297844 57 57 57
0.34999550 -0.09005503 0.95255857 59 57 58
0.34996912 -0.07045997 0.95160630 55 53 56
0.34990997 -0.04473390 0.93084528 129 129 130
0.35009423 -0.05526678 0.94617977 79 78 80
0.35009674 -0.02819143 0.91203687 150 148 149
0.34919502 -0.03797089 0.92133993 142 141 144
0.35004775 -0.00357783 0.89875952 134 135 138
0.35004992 -0.01373582 0.90292207 140 139 140
0.35000719 0.01035875 0.89477544 127 127 132
0.35003771 0.03032148 0.89076667 146 145 146
0.34970579 0.05028630 0.88809830 156 154 153
0.35037754 0.06999635 0.88623229 146 143 144
0.34981580 0.08976604 0.88481138 128 127 132
0.34967542 0.10968297 0.88367941 131 130 133
0.35046960 0.12993645 0.88275345 149 147 146
0.35021951 0.15045650 0.88197659 158 155 154
0.34996982 0.17015280 0.88134777 159 155 154
0.34975751 0.18984116 0.88081311 162 159 158
0.34957880 0.20952554 0.88036305 159 158 156
0.34958752 0.23459020 0.87987922 145 142 141
0.34946427 0.22390832 0.88007455 147 144 139
0.35003558 0.25039237 0.87959893 167 165 160
0.34997483 0.27001721 0.87930922 154 150 147
0.35057809 0.28974091 0.87905330 146 144 140
0.35049044 0.30941540 0.87883346 154 151 147
0.35041203 0.32984802 0.87863690 147 146 144
0.35034914 0.35028710 0.87847920 157 154 151
0.35033290 0.37000943 0.87843857 84 82 80
0.35038538 0.38980565 0.87857016 0 0 0
0.35039607 0.40955907 0.87859694 0 0 0
0.35040039 0.43006521 0.87860773 0 0 0
0.35039577 0.45056033 0.87859612 0 0 0
0.35038405 0.47028614 0.87856672 0 0 0
0.35036633 0.49000224 0.87852229 0 0 0
0.36977174 -0.60494263 0.90368242 0 0 0
0.37022531 -0.59018797 0.90492739 0 0 0
0.36987060 -0.57040659 0.90737109 0 0 0
0.37528589 -0.56098555 0.94510314 111 118 118
0.36952743 -0.55374733 0.91059292 3 4 4
0.37006098 -0.55451164 0.92875487 97 109 110
0.36982818 -0.55035923 0.94887278 111 116 118
0.37010953 -0.53047628 0.95232234 109 116 119
0.37001454 -0.51037458 0.95468443 109 115 118
0.37039383 -0.49025295 0.95566427 109 114 117
0.37028918 -0.47025592 0.95603867 108 113 117
0.37002064 -0.44978865 0.95631541 107 112 115
0.36994042 -0.42957072 0.95662919 107 113 116
0.37007814 -0.40988166 0.95698540 106 112 116
0.37015138 -0.39011016 0.95717432 105 111 115
0.36995159 -0.37023195 0.95733305 105 111 114
0.37017621 -0.35042876 0.95723948 106 109 115
0.37011265 -0.33051858 0.95707624 104 108 116
0.36991398 -0.31042914 0.95696676 104 108 115
0.36992741 -0.29019990 0.95673384 101 107 113
0.36986430 -0.27009234 0.95646231 98 103 112
0.36980634 -0.24985359 0.95612460 98 102 110
0.37033583 -0.22966563 0.95560539 96 99 108
0.37027643 -0.20946818 0.95507306 93 98 106
0.36992635 -0.18939150 0.95446170 92 98 108
0.37012145 -0.16925977 0.95317222 93 97 107
0.36978616 -0.14940770 0.95197697 68 67 72
0.36980580 -0.12966850 0.95202659 57 56 59
0.36977330 -0.10991364 0.95194304 58 57 58
0.37015694 -0.09031109 0.95155689 58 56 58
0.37008899 -0.07033016 0.95063968 55 54 55
0.37025244 -0.04540564 0.93089911 126 126 128
0.36970353 -0.05587501 0.94612995 78 77 79
0.36995495 -0.02889009 0.91221192 155 154 154
0.36988091 -0.03870527 0.92146642 119 119 120
0.37000273 -0.00357701 0.89855486 138 137 138
0.37003299 -0.01374684 0.90265817 144 142 143
0.36999095 0.01034801 0.89462754 130 130 133
0.37001579 0.03031853 0.89067765 139 140 143
0.36981055 0.05022072 0.88804433 153 150 150
0.37027247 0.06999293 0.88618866 145 143 144
0.36968402 0.08976290 0.88478025 126 126 129
0.37003951 0.10948820 0.88366640 128 129 131
0.37035596 0.12998822 0.88273674 144 141 141
0.37003323 0.15045494 0.88196747 164 162 158
0.36976833 0.17015056 0.88133612 163 160 159
0.36954476 0.18983902 0.88080323 167 164 161
0.36971959 0.20970495 0.88034963 163 160 157
0.37015740 0.23370583 0.87987643 158 158 156
0.36986074 0.22321231 0.88007553 165 164 159
0.37056065 0.25039297 0.87960089 152 148 143
0.37043585 0.27006620 0.87930470 154 152 150
0.37032613 0.28973792 0.87904421 158 156 154
0.37023475 0.30941323 0.87882734 149 147 145
0.37014966 0.32984369 0.87862538 156 153 147
0.37008339 0.35028266 0.87846807 161 157 150
0.37005804 0.36999643 0.87840795 88 84 80
0.37011390 0.38979254 0.87854060 0 0 0
0.37012775 0.40954812 0.87857342 0 0 0
0.37013555 0.43005748 0.87859191 0 0 0
0.37013339 0.45055553 0.87858674 0 0 0
0.37012283 0.47028344 0.87856167 0 0 0
0.37010520 0.49000085 0.87851979 0 0 0
0.38998212 -0.60479537 0.90346243 0 0 0
0.39021960 -0.59009023 0.90468987 0 0 0
0.38996983 -0.57049144 0.90718721 0 0 0
0.39158723 -0.56229177 0.93403178 108 119 121
0.39094132 -0.56321867 0.94602330 109 117 118
0.38906670 -0.55613144 0.91056761 8 8 8
0.38876327 -0.55723596 0.92475086 103 112 117
0.38986122 -0.55047032 0.94984637 109 115 117
0.39019598 -0.53041680 0.95238172 109 115 118
0.38968404 -0.51020284 0.95436162 109 115 117
0.38996484 -0.48993842 0.95505041 108 113 115
0.39006223 -0.47024799 0.95528956 107 113 116
0.39004382 -0.45041125 0.95539838 106 112 114
0.39018455 -0.43004814 0.95570875 107 112 115
0.39046142 -0.40960302 0.95599137 105 111 114
0.39045359 -0.38973315 0.95624948 105 110 113
0.39021757 -0.37004117 0.95638314 104 110 113
0.39042745 -0.35004318 0.95618550 104 109 114
0.39029276 -0.33009756 0.95585616 104 107 115
0.39018591 -0.31018695 0.95559481 104 107 114
0.39004219 -0.29026021 0.95524323 100 106 111
0.38992437 -0.27036589 0.95495473 99 103 111
0.38980288 -0.25048087 0.95465700 98 102 110
0.38965217 -0.23059151 0.95428765 94 98 108
0.39008528 -0.21048928 0.95376734 94 97 107
0.38992322 -0.19033019 0.95316228 92 98 106
0.39017137 -0.17026982 0.95192593 92 97 106
0.39013205 -0.14974453 0.95096921 67 67 71
0.39000400 -0.12954500 0.95112125 57 56 58
0.38993012 -0.10979819 0.95094169 57 56 57
0.38978943 -0.09004216 0.95059846 56 55 58
0.38993760 -0.07007450 0.94975400 54 54 56
0.39002235 -0.04550157 0.93016127 124 125 126
0.39017040 -0.05606681 0.94555897 82 78 80
0.38995227 -0.02887468 0.91172335 154 152 152
0.38949882 -0.03867643 0.92078000 141 138 135
0.39040665 -0.00403023 0.89849927 134 134 136
0.38976382 -0.01413073 0.90254742 151 150 151
0.39002996 0.01034649 0.89448351 140 141 143
0.39005213 0.03029784 0.89059875 135 136 138
0.38985652 0.05020848 0.88798693 152 149 148
0.39016466 0.06998938 0.88614329 151 150 149
0.38955047 0.08975968 0.88474828 132 132 136
0.39034670 0.10934481 0.88364947 135 136 136
0.39018278 0.12998563 0.88271914 140 140 141
0.38984440 0.15045260 0.88195360 157 156 154
0.38956703 0.17014864 0.88132607 165 162 159
0.38981136 0.19000805 0.88078929 169 167 163
0.39023277 0.20934048 0.88034832 166 163 160
0.39044365 0.23374089 0.87986875 166 162 157
0.39052983 0.22314485 0.88006294 178 174 168
0.39032205 0.25039122 0.87959477 153 152 150
0.39018993 0.27006386 0.87929698 154 153 150
0.39007911 0.28973888 0.87904723 141 139 136
0.38997716 0.30940978 0.87881755 149 148 144
0.38988765 0.32984011 0.87861582 153 151 148
0.38981761 0.35027864 0.87845800 136 134 132
0.38978454 0.36998605 0.87838353 90 88 86
0.38983946 0.38977780 0.87850731 0 0 0
0.38985749 0.40953624 0.87854791 0 0 0
0.38986897 0.43004861 0.87857375 0 0 0
0.38986996 0.45055001 0.87857596 0 0 0
0.38986137 0.47028073 0.87855658 0 0 0
0.38984416 0.48999973 0.87851779 0 0 0
0.41019034 -0.60465972 0.90325975 0 0 0
0.41003060 -0.58986866 0.90449437 0 0 0
0.41034212 -0.57004797 0.90730571 1 1 1
0.41121890 -0.56562664 0.92951501 98 107 107
0.41129767 -0.56648917 0.94794934 108 116 116
0.40637075 -0.55867129 0.91039055 7 8 8
0.40953359 -0.55035803 0.95052842 108 115 116
0.41020192 -0.53047239 0.95236937 109 114 117
0.41005803 -0.51003139 0.95392959 107 114 116
0.40951337 -0.48962771 0.95444415 106 113 114
0.40956951 -0.46989659 0.95457540 107 113 115
0.40960792 -0.45013945 0.95466474 106 112 114
0.40971255 -0.43044906 0.95490900 106 110 114
0.40963656 -0.41017630 0.95513698 105 111 113
0.41003329 -0.38961254 0.95524127 104 110 113
0.40986981 -0.36952388 0.95527695 105 108 114
0.40978711 -0.34964015 0.95508435 104 108 115
0.40962707 -0.32970221 0.95471113 103 108 115
0.41016808 -0.30967609 0.95435034 103 106 111
0.41011852 -0.28986309 0.95393624 100 104 112
0.41002496 -0.27001566 0.95371817 99 103 110
0.40990805 -0.25016306 0.95344639 98 102 108
0.40977375 -0.23031242 0.95313363 95 99 107
0.41032498 -0.21050406 0.95267160 92 98 107
0.41013114 -0.19055840 0.95205028 92 97 108
0.40979066 -0.17049721 0.95092000 91 96 105
0.41010655 -0.14993168 0.95008663 66 67 70
0.41021009 -0.12943664 0.95032642 56 55 56
0.41011744 -0.10970241 0.95011152 57 56 56
0.40996316 -0.08996226 0.94975401 56 55 56
0.40999656 -0.07038487 0.94876196 55 54 56
0.41026700 -0.04604784 0.93006171 119 119 122
0.40967470 -0.05654761 0.94468566 79 74 76
0.41022155 -0.02921109 0.91154881 152 151 150
0.40516316 -0.03865243 0.92020860 151 151 147
0.41006159 -0.00435367 0.89841830 144 145 146
0.41003670 -0.01449624 0.90242216 150 149 149
0.41006502 0.01034502 0.89434500 145 145 145
0.41008323 0.03031300 0.89051018 133 133 137
0.40989976 0.05019623 0.88792919 154 152 150
0.41005632 0.06998608 0.88610114 146 145 145
0.40965874 0.08991462 0.88470741 129 130 132
0.41043351 0.10949960 0.88361589 132 133 133
0.41000869 0.12998302 0.88270126 127 128 128
0.40965343 0.15044967 0.88193646 167 165 162
0.40966919 0.17032076 0.88131083 155 153 154
0.41033616 0.18966080 0.88078809 162 157 154
0.41043118 0.20951887 0.88033499 165 164 162
0.41021201 0.23373985 0.87986488 163 162 158
0.41030321 0.22314423 0.88006048 169 165 162
0.41007802 0.25038626 0.87957755 168 168 163
0.40994632 0.27006326 0.87929498 141 139 138
0.40982667 0.28973596 0.87903842 150 150 148
0.40980885 0.31005369 0.87880108 154 151 145
0.40952605 0.33047035 0.87860312 151 147 143
0.40955165 0.35027484 0.87844848 160 159 153
0.40951098 0.36997657 0.87836127 124 124 122
0.40956574 0.38976516 0.87847878 0 0 0
0.40958710 0.40952537 0.87852458 0 0 0
0.40960187 0.43004005 0.87855624 0 0 0
0.40960615 0.45054461 0.87856539 0 0 0
0.40959959 0.47027791 0.87855130 0 0 0
0.40958259 0.48999809 0.87851484 0 0 0
0.43040167 -0.60454094 0.90308235 0 0 0
0.42978553 -0.58961285 0.90433426 0 0 0
0.42963688 -0.57067814 0.90719540 4 4 4
0.43113580 -0.57179911 0.93198982 105 111 114
0.43055726 -0.56868069 0.94793883 107 115 115
0.42986509 -0.55022271 0.95063330 107 115 116
0.42995942 -0.53045797 0.95222848 107 113 115
0.43024027 -0.51022126 0.95326184 105 113 115
0.42997135 -0.48991838 0.95375279 107 111 115
0.42986710 -0.46954063 0.95385208 104 112 114
0.42990636 -0.44979751 0.95393935 105 111 114
0.42997680 -0.43008266 0.95409589 105 112 114
0.43005160 -0.41036496 0.95426205 105 110 113
0.42996186 -0.39045994 0.95431777 105 109 112
0.42994913 -0.37020169 0.95426197 102 109 114
0.43005316 -0.34977203 0.95403719 104 107 113
0.42990254 -0.32948065 0.95367723 104 107 113
0.43028459 -0.30954770 0.95327674 102 106 111
0.43023305 -0.28952924 0.95283762 100 104 110
0.43013191 -0.26970291 0.95261349 99 102 109
0.43004275 -0.24989254 0.95241573 95 101 108
0.42995599 -0.23009226 0.95222331 93 98 105
0.42979919 -0.21026569 0.95187559 92 98 106
0.42982113 -0.19022746 0.95128486 92 97 107
0.42999968 -0.17059032 0.95021800 92 95 103
0.43014610 -0.15035588 0.94940239 64 64 68
0.43061095 -0.12990667 0.94965508 55 54 55
0.43036227 -0.10963024 0.94948766 55 55 56
0.43023850 -0.08991123 0.94921442 57 56 57
0.42989649 -0.06998470 0.94798126 56 55 55
0.43004825 -0.04630726 0.92957907 118 119 122
0.43008364 -0.05676549 0.94391815 76 74 76
0.42998328 -0.02964113 0.91145159 153 152 151
0.43014209 -0.00445237 0.89823681 148 146 147
0.42984117 -0.01456149 0.90216291 138 137 138
0.43009017 0.01034348 0.89419885 143 143 145
0.43005101 0.03031014 0.89042427 132 133 136
0.42994204 0.05018417 0.88787483 156 153 150
0.42994752 0.06998301 0.88606199 144 141 140
0.42992754 0.08977986 0.88468381 136 137 137
0.43027581 0.10949655 0.88359111 143 142 141
0.42983280 0.12998008 0.88268135 142 141 140
0.42958245 0.15054340 0.88191103 165 161 158
0.43020301 0.16997213 0.88130330 169 168 163
0.43042694 0.18983302 0.88077521 158 155 151
0.43020861 0.20951732 0.88032841 164 162 156
0.43016428 0.23314244 0.87987010 165 164 160
0.42966604 0.22259277 0.88006700 171 169 164
0.42984286 0.25038699 0.87957991 149 146 142
0.42970406 0.27006350 0.87929597 141 140 138
0.42956884 0.28972969 0.87901928 164 162 157
0.42946050 0.31016216 0.87879758 142 141 137
0.42984309 0.33076409 0.87859733 147 146 143
0.43004612 0.35027243 0.87844245 158 157 152
0.42999885 0.36997003 0.87834594 152 149 143
0.43005112 0.38975366 0.87845275 0 0 0
0.43007677 0.40951630 0.87850511 0 0 0
0.43009418 0.43003244 0.87854067 0 0 0
0.43010140 0.45053949 0.87855539 0 0 0
0.43009646 0.47027469 0.87854529 0 0 0
0.43007957 0.48999582 0.87851077 0 0 0
0.45023621 -0.60461236 0.90302831 0 0 0
0.44978105 -0.58965025 0.90427353 0 0 0
0.45284091 -0.58001900 0.93657804 103 112 120
0.45572108 -0.58114326 0.94316790 108 116 118
0.44939764 -0.57305004 0.90689523 6 7 7
0.44872321 -0.57421506 0.92722416 103 115 115
0.44995025 -0.57050379 0.94816411 108 115 115
0.45034519 -0.54997310 0.95070617 107 114 115
0.44959459 -0.53032351 0.95198547 108 114 114
0.44987202 -0.51007217 0.95257438 106 112 115
0.44996491 -0.49041086 0.95290390 106 111 115
0.44993136 -0.47019815 0.95297970 105 111 115
0.45028099 -0.44972865 0.95303143 106 111 113
0.45015326 -0.42966564 0.95317073 103 111 114
0.45023389 -0.40996883 0.95334134 103 111 112
0.45028427 -0.39023958 0.95344767 104 110 113
0.45025099 -0.37043706 0.95337733 104 108 112
0.45008728 -0.35053582 0.95303071 102 109 112
0.44985451 -0.33057002 0.95267014 103 107 112
0.44960132 -0.31027016 0.95229412 100 106 111
0.45017457 -0.28944138 0.95180684 101 104 111
0.45024295 -0.26942129 0.95161923 97 103 110
0.45016735 -0.24964150 0.95145926 96 100 106
0.45010412 -0.22987522 0.95132529 93 98 106
0.45000483 -0.21009750 0.95111533 91 97 105
0.45001026 -0.19043666 0.95057807 92 97 104
0.45008666 -0.17036411 0.94955254 91 95 103
0.44976586 -0.15056038 0.94887541 64 63 65
0.44991412 -0.13010188 0.94918830 53 53 54
0.44981220 -0.10957090 0.94897345 55 55 55
0.44967962 -0.08986195 0.94869380 57 56 56
0.45001981 -0.07017925 0.94741228 56 56 57
0.45020729 -0.04635488 0.92865344 122 121 123
0.44971020 -0.05675462 0.94318208 76 74 76
0.45002162 -0.02962946 0.91095855 148 145 145
0.45005952 -0.00513009 0.89825773 144 144 144
0.44985781 -0.01525789 0.90218082 132 131 133
0.45005146 0.01034191 0.89405689 146 144 145
0.45001337 0.03030718 0.89033523 134 136 139
0.44998058 0.05017196 0.88781787 146 145 143
0.44983555 0.06997971 0.88602004 147 147 143
0.45013731 0.08969681 0.88465372 138 137 137
0.45011571 0.10949317 0.88356382 139 139 138
0.44965385 0.12997653 0.88265720 141 140 139
0.44991399 0.15050291 0.88189296 172 169 164
0.45047508 0.17013959 0.88127922 161 158 155
0.45020960 0.18982974 0.88075979 163 160 156
0.44998635 0.20951602 0.88032304 164 163 158
0.44975241 0.23297952 0.87986535 167 163 158
0.44985276 0.22238402 0.88006170 170 169 161
0.44960123 0.25038408 0.87956969 141 140 140
0.44944945 0.27005635 0.87927269 160 160 157
0.45002117 0.28977758 0.87901176 170 167 161
0.44995817 0.31015671 0.87878218 159 158 155
0.45031545 0.33041658 0.87859365 153 152 149
0.45054153 0.35027097 0.87843880 171 169 160
0.45048946 0.36996635 0.87833730 133 127 124
0.45053280 0.38974010 0.87842192 2 2 2
0.45056797 0.40950944 0.87849040 0 0 0
0.45058764 0.43002661 0.87852873 0 0 0
0.45059705 0.45053523 0.87854708 0 0 0
0.45059295 0.47027138 0.87853909 0 0 0
0.45057589 0.48999306 0.87850581 0 0 0
0.46979717 -0.60450276 0.90318440 0 0 0
0.47008606 -0.58975887 0.90435432 0 0 0
0.47098216 -0.58336138 0.93459572 103 116 118
0.47086410 -0.58288729 0.94350433 106 115 114
0.46890336 -0.57581042 0.90688811 9 10 11
0.46891501 -0.57869508 0.92361879 91 103 106
0.46992572 -0.57021996 0.94854159 107 114 114
0.47027971 -0.55006490 0.95055845 106 114 114
0.46996781 -0.53010502 0.95159156 106 113 114
0.47007487 -0.50966311 0.95180970 105 111 113
0.47013525 -0.48998516 0.95193296 105 111 115
0.47013890 -0.47024507 0.95194075 105 111 112
0.47000215 -0.45031648 0.95197843 105 110 114
0.47022093 -0.43000866 0.95210673 104 111 112
0.47046737 -0.40971904 0.95229158 105 109 113
0.46981476 -0.38991665 0.95250843 104 108 113
0.47028814 -0.36998802 0.95237180 102 108 114
0.47019298 -0.35017494 0.95205005 102 108 112
0.47001270 -0.33030209 0.95168484 102 106 111
0.46980131 -0.31042342 0.95125708 100 104 112
0.47001836 -0.29078049 0.95089749 98 103 108
0.47039158 -0.27000726 0.95078717 96 102 110
0.47033210 -0.24943360 0.95066682 94 99 105
0.47025957 -0.22968077 0.95052050 93 97 104
0.47016821 -0.20992523 0.95033586 91 96 105
0.46994804 -0.19012584 0.94989052 92 95 104
0.46995424 -0.17005794 0.94890460 90 95 103
0.46997179 -0.15046609 0.94828225 61 62 64
0.47014634 -0.13002588 0.94863423 54 54 55
0.47003004 -0.10950463 0.94839963 55 55 56
0.46993163 -0.08981491 0.94820068 57 56 56
0.47009084 -0.07012604 0.94701754 57 55 57
0.47006807 -0.04021687 0.91961247 153 153 151
0.47001304 -0.04784879 0.92984585 114 114 113
0.46998304 -0.05756291 0.94337048 75 74 73
0.47004261 -0.02950202 0.91038657 145 145 144
0.47002763 -0.00507699 0.89803987 140 141 141
0.46985473 -0.01528365 0.90191325 125 127 130
0.47001103 0.01034057 0.89392378 147 146 145
0.46997562 0.03030445 0.89025361 134 135 138
0.47002017 0.05016013 0.88776772 146 144 142
0.46972301 0.06997660 0.88598057 145 142 141
0.47029052 0.08966650 0.88462264 135 135 135
0.46995575 0.10949010 0.88353907 136 136 136
0.46964442 0.13010832 0.88262833 151 151 150
0.47035148 0.15028167 0.88188132 167 165 162
0.47026719 0.17013605 0.88126090 168 166 161
0.46999652 0.18982842 0.88075371 148 146 144
0.46975833 0.20951228 0.88030736 163 162 156
0.46951653 0.23297655 0.87985425 147 145 143
0.46962193 0.22238149 0.88005169 149 145 140
0.46977327 0.25055765 0.87954226 168 167 162
0.46996204 0.27005406 0.87926509 156 152 149
0.47052855 0.28967659 0.87902075 139 137 134
0.47045916 0.31015394 0.87877431 168 166 159
0.47035775 0.33058784 0.87858486 167 164 159
0.47027850 0.35027018 0.87843682 134 132 127
0.47022223 0.36996400 0.87833173 131 129 127
0.47025215 0.38972499 0.87838771 18 18 18
0.47029922 0.40950254 0.87847557 0 0 0
0.47032244 0.43002181 0.87851892 0 0 0
0.47033312 0.45053102 0.87853886 0 0 0
0.47032918 0.47026732 0.87853151 0 0 0
0.47031169 0.48998917 0.87849884 0 0 0
0.48987087 -0.60473115 0.90336662 0 0 0
0.49027535 -0.58987050 0.90490536 2 2 2
0.49043698 -0.58772614 0.93184660 101 113 114
0.49064778 -0.58585555 0.94391153 102 113 115
0.48693505 -0.57847545 0.90671326 18 21 21
0.49002159 -0.57011755 0.94857999 105 113 113
0.48991876 -0.54997949 0.95041073 105 112 114
0.49010662 -0.53032335 0.95115041 103 113 112
0.49045244 -0.50976679 0.95107781 105 111 113
0.49026831 -0.48955152 0.95109023 104 111 114
0.49021624 -0.46977535 0.95098951 104 111 114
0.49019718 -0.45003328 0.95095315 105 109 115
0.49026815 -0.43037197 0.95109091 104 110 113
0.49016321 -0.41013945 0.95122305 103 109 113
0.48997543 -0.38961077 0.95138727 102 109 111
0.49026396 -0.36966363 0.95122623 103 107 113
0.49024084 -0.34980248 0.95103793 104 107 112
0.49011794 -0.32999424 0.95079885 101 106 111
0.48992966 -0.31015454 0.95043318 98 105 112
0.48977126 -0.29034720 0.95012598 97 103 108
0.48963854 -0.27048319 0.95008684 95 102 108
0.48978574 -0.24993786 0.94994716 94 99 105
0.48973276 -0.22938659 0.94976800 92 97 103
0.49028508 -0.20974741 0.94953150 91 97 103
0.49010914 -0.18998565 0.94919060 90 95 102
0.49009312 -0.17032580 0.94826483 91 95 102
0.49010266 -0.15035654 0.94759184 60 61 62
0.49030855 -0.12993754 0.94798977 55 55 55
0.49020350 -0.10943370 0.94778603 57 56 56
0.49015608 -0.08976656 0.94769387 58 57 56
0.48982732 -0.06988560 0.94663897 58 57 57
0.49035444 -0.04018596 0.91890569 148 148 146
0.48992565 -0.04786142 0.92902442 121 118 116
0.49006679 -0.05752787 0.94279680 77 73 74
0.48992021 -0.02966002 0.91005267 140 140 140
0.49018846 -0.00562531 0.89802244 135 135 136
0.48954582 -0.01566534 0.90179699 129 128 129
0.49002605 0.01033918 0.89379430 145 145 144
0.48999299 0.03027471 0.89017497 133 134 135
0.49005577 0.05014812 0.88771447 144 143 142
0.48972960 0.07007135 0.88593323 148 147 145
0.49032784 0.08968968 0.88458977 125 126 129
0.48979564 0.10948725 0.88351610 125 126 128
0.48989578 0.13003051 0.88260806 141 141 139
0.49039910 0.15043582 0.88185519 174 173 165
0.49006144 0.17013358 0.88124798 161 158 154
0.48977240 0.18982289 0.88072822 176 173 167
0.48953019 0.20950882 0.88029262 166 162 156
0.48997895 0.23226429 0.87984846 165 164 160
0.48939380 0.22161988 0.88004737 174 173 166
0.49027097 0.25019524 0.87954709 157 153 149
0.49047823 0.27005387 0.87926456 149 145 142
0.49033114 0.28972369 0.87900095 153 153 151
0.49020512 0.31015414 0.87877491 152 150 144
0.49009912 0.33058786 0.87858494 144 142 137
0.49001349 0.35026803 0.87843145 136 135 133
0.48995142 0.36995913 0.87832020 156 155 153
0.48996553 0.38970630 0.87834562 34 33 33
0.49002943 0.40949533 0.87846005 0 0 0
0.49005669 0.43001691 0.87850892 0 0 0
0.49006763 0.45052571 0.87852852 0 0 0
0.49006325 0.47026152 0.87852067 0 0 0
0.49004501 0.48998312 0.87848798 0 0 0
0.51032349 -0.60491409 0.90363967 0 0 0
0.50937483 -0.59079325 0.90542974 6 6 7
0.51001724 -0.59322560 0.93245164 105 112 114
0.51025815 -0.58784152 0.94424060 105 112 113
0.51012249 -0.56977593 0.94859193 103 113 114
0.51000429 -0.55024141 0.95005652 105 112 113
0.50974362 -0.53038706 0.95062132 105 112 113
0.50952164 -0.51041456 0.95041744 103 111 113
0.50960161 -0.48999538 0.95035726 103 110 113
0.51022574 -0.46936450 0.95016798 104 111 113
0.51024097 -0.44959123 0.95001863 104 110 114
0.51027303 -0.42991398 0.95007880 103 110 113
0.51016046 -0.41041763 0.95022896 104 110 113
0.50945111 -0.39029136 0.95043654 102 107 114
0.50975971 -0.36973506 0.95029691 104 107 112
0.51028763 -0.34945940 0.95010559 102 106 111
0.51017265 -0.32967949 0.94989170 100 105 109
0.51000494 -0.30987579 0.94957934 99 104 108
0.50986961 -0.29010303 0.94932723 98 103 107
0.50986409 -0.27040990 0.94931672 95 101 107
0.50965149 -0.25019363 0.94929287 93 98 104
0.51003578 -0.22975714 0.94902149 92 96 104
0.51038375 -0.20957635 0.94875713 91 95 104
0.51019279 -0.18982777 0.94840217 90 96 102
0.50991500 -0.16984250 0.94748233 89 95 101
0.51018506 -0.15024139 0.94686677 59 59 60
0.50974455 -0.12995924 0.94731838 55 54 54
0.50958938 -0.10937501 0.94728006 58 56 55
0.50961492 -0.08973155 0.94732706 57 57 56
0.50999391 -0.07005512 0.94639064 58 57 57
0.51174963 -0.04064610 0.91873449 136 135 135
0.50979523 -0.04817658 0.92881331 121 120 119
0.51029998 -0.05751262 0.94254633 76 69 71
0.50998539 -0.02958197 0.90955597 142 142 141
0.50981161 -0.00590516 0.89792706 135 136 137
0.51000598 -0.01605822 0.90170086 129 129 130
0.51003230 0.01033771 0.89365976 144 143 143
0.51000206 0.03029870 0.89008078 136 137 138
0.51008407 0.05013565 0.88765262 146 144 142
0.50984687 0.07003259 0.88589522 151 149 146
0.51024805 0.08974033 0.88455676 134 134 135
0.50963321 0.10948414 0.88349086 129 130 132
0.51024928 0.12982438 0.88259333 142 142 141
0.51020285 0.15043257 0.88183608 165 161 158
0.50985109 0.17012975 0.88122810 172 172 166
0.50955599 0.18982068 0.88071800 170 168 161
0.50984200 0.20966008 0.88028167 162 162 157
0.51061275 0.23203635 0.87984405 175 171 164
0.50946716 0.22154163 0.88003865 169 168 164
0.51039873 0.25037763 0.87954707 146 144 141
0.51022842 0.27005044 0.87925353 152 152 147
