ply
format ascii 1.0
element vertex 1078
property float x
property float y
property float z
property uchar red
property uchar green
property uchar blue
end_header
0.07081293 0.11420488 0.57109678 203 197 195
0.07180002 0.11420488 0.57109678 195 191 188
0.07272585 0.11410876 0.57061601 182 180 174
0.07365011 0.11401279 0.57013613 187 186 181
0.88190037 0.36737451 1.83710527 172 163 162
0.88989896 0.36937657 1.84711671 156 146 146
0.89553171 0.37038580 1.85216355 152 142 141
0.90367109 0.37242088 1.86234021 166 155 155
0.90440542 0.37140054 1.85723794 157 150 149
0.91010892 0.37242088 1.86234021 150 144 143
0.91332781 0.37242088 1.86234021 152 145 143
0.91654670 0.37242088 1.86234021 156 148 146
0.92229944 0.37344682 1.86747062 151 136 139
0.92552722 0.37344682 1.86747062 143 128 131
0.93132061 0.37447846 1.87262940 164 149 153
1.01580036 0.19338259 0.96703541 171 175 181
1.01602244 0.19310711 0.96565789 167 170 178
1.01624382 0.19283243 0.96428424 164 167 175
1.01936054 0.19310711 0.96565789 161 162 170
1.02248609 0.19338259 0.96703541 167 168 176
1.02562070 0.19365886 0.96841693 174 176 184
1.02582896 0.19338259 0.96703541 181 185 192
0.06883874 0.11519198 0.57109678 190 189 185
0.06982584 0.11519198 0.57109678 196 190 188
0.07081293 0.11519198 0.57109678 183 178 175
0.07180002 0.11519198 0.57109678 186 183 177
0.07278711 0.11519198 0.57109678 194 186 182
0.07365011 0.11499821 0.57013613 188 183 178
0.88429683 0.37155673 1.84209740 170 162 162
0.88989896 0.37256914 1.84711671 162 151 151
0.89553171 0.37358710 1.85216355 157 146 146
0.90367109 0.37563977 1.86234021 165 154 154
0.90689003 0.37563977 1.86234021 167 160 160
0.91010892 0.37563977 1.86234021 164 158 158
0.91332781 0.37563977 1.86234021 160 154 154
0.91654670 0.37563977 1.86234021 161 155 155
0.92229944 0.37667459 1.86747062 157 146 148
0.92552722 0.37667459 1.86747062 147 135 137
1.01435339 0.19477618 0.96565789 171 173 178
1.01457715 0.19449912 0.96428424 169 169 176
1.01336086 0.19394735 0.96154869 169 169 177
1.01646459 0.19422284 0.96291453 161 161 170
1.02102959 0.19477618 0.96565789 166 166 175
1.02415752 0.19505404 0.96703541 175 175 183
1.02436769 0.19477618 0.96565789 186 186 191
0.06883874 0.11617907 0.57109678 188 186 183
0.06982584 0.11617907 0.57109678 184 179 176
0.07081293 0.11617907 0.57109678 183 177 174
0.07180002 0.11617907 0.57109678 182 178 173
0.07278711 0.11617907 0.57109678 182 174 170
0.07365011 0.11598365 0.57013613 189 181 177
0.88670641 0.37576175 1.84711671 158 153 152
0.89233041 0.37678841 1.85216355 154 145 144
0.89798522 0.37782070 1.85723794 157 148 147
0.90367109 0.37885869 1.86234021 167 158 157
0.90689003 0.37885869 1.86234021 173 167 166
0.90761548 0.37782070 1.85723794 176 172 171
0.91082555 0.37782070 1.85723794 171 170 168
0.91403562 0.37782070 1.85723794 161 160 158
0.91976565 0.37885869 1.86234021 152 144 145
0.92298454 0.37885869 1.86234021 136 127 128
0.26222971 0.10543162 0.51826596 160 159 155
1.01268435 0.19644524 0.96565789 176 179 178
1.01435339 0.19644524 0.96565789 174 177 177
1.01313603 0.19588716 0.96291453 173 174 176
1.01192558 0.19533224 0.96018672 171 172 174
1.01358509 0.19533224 0.96018672 168 169 172
1.02102959 0.19644524 0.96565789 171 172 174
1.02269864 0.19644524 0.96565789 177 178 181
1.02145755 0.19588716 0.96291453 184 184 188
0.06988471 0.11726496 0.57157826 186 180 180
0.07081293 0.11716617 0.57109678 183 177 176
0.07186056 0.11726496 0.57157826 182 174 172
0.07278711 0.11716617 0.57109678 184 176 172
0.07365011 0.11696909 0.57013613 187 179 175
0.89477515 0.38103080 1.85723794 182 176 174
0.90045220 0.38207757 1.86234021 170 164 162
0.90367109 0.38207757 1.86234021 163 158 155
0.90689003 0.38207757 1.86234021 163 158 156
0.90761548 0.38103080 1.85723794 166 162 160
0.91082555 0.38103080 1.85723794 170 167 166
0.91153830 0.37998974 1.85216355 157 156 154
0.91976565 0.38207757 1.86234021 145 140 140
0.92045581 0.38103080 1.85723794 137 131 131
0.26023918 0.10624617 0.51787001 156 152 150
0.26113430 0.10624617 0.51787001 134 130 127
0.26222971 0.10632740 0.51826596 134 130 127
0.26422328 0.10640875 0.51866245 161 157 154
1.01124382 0.19783249 0.96428424 175 176 176
1.01435339 0.19811431 0.96565789 175 176 176
1.01026595 0.19699185 0.96018672 174 175 175
1.01049423 0.19671321 0.95882863 169 170 170
1.01215148 0.19671321 0.95882863 174 174 174
1.01957726 0.19783249 0.96428424 179 179 179
1.01979327 0.19755147 0.96291453 182 182 182
1.01712322 0.19671321 0.95882863 181 181 182
0.07000276 0.11845264 0.57254380 184 178 180
0.07093244 0.11835267 0.57206064 177 171 173
0.07192121 0.11835267 0.57206064 174 166 166
0.07284849 0.11825289 0.57157826 187 179 180
0.89970505 0.38635790 1.86747062 177 172 166
0.90293282 0.38635790 1.86747062 163 157 151
0.90616059 0.38635790 1.86747062 165 158 156
0.90938836 0.38635790 1.86747062 164 157 156
0.91010892 0.38529649 1.86234021 160 154 153
0.91082555 0.38424090 1.85723794 157 153 152
0.91153830 0.38319105 1.85216355 153 150 150
0.91976565 0.38529649 1.86234021 150 148 147
0.26023918 0.10714127 0.51787001 150 146 145
0.26113430 0.10714127 0.51787001 129 125 124
0.26222971 0.10722318 0.51826596 144 140 139
0.26422328 0.10730522 0.51866245 145 139 139
0.26491705 0.10722318 0.51826596 146 140 138
0.26601622 0.10730522 0.51866245 145 140 137
1.01101518 0.19978337 0.96565789 174 175 175
1.01124382 0.19949917 0.96428424 173 174 174
1.01291049 0.19949917 0.96428424 173 174 174
1.01026595 0.19865145 0.96018672 172 173 173
1.00906694 0.19809029 0.95747435 166 167 167
1.01072192 0.19809029 0.95747435 169 169 169
1.01957726 0.19949917 0.96428424 175 175 175
1.01834679 0.19893323 0.96154869 178 178 178
1.01568663 0.19809029 0.95747435 178 178 179
0.07012121 0.11964434 0.57351255 200 196 196
0.07099235 0.11944223 0.57254380 199 195 195
0.07198195 0.11944223 0.57254380 193 188 188
0.89970505 0.38958567 1.86747062 168 158 156
0.90293282 0.38958567 1.86747062 150 139 137
0.90866375 0.39066190 1.87262940 156 144 143
0.90938836 0.38958567 1.86747062 161 149 149
0.91010892 0.38851538 1.86234021 156 148 148
0.91082555 0.38745096 1.85723794 158 150 151
0.91153830 0.38639235 1.85216355 164 158 158
0.91976565 0.38851538 1.86234021 155 152 151
0.25954238 0.10811897 0.51826596 175 171 171
0.26043814 0.10811897 0.51826596 146 142 142
0.26133394 0.10811897 0.51826596 131 128 127
0.26243034 0.10820168 0.51866245 150 147 146
0.26352844 0.10828453 0.51905960 162 157 156
0.26422328 0.10820168 0.51866245 157 151 151
0.26511973 0.10820168 0.51866245 138 137 135
0.26621988 0.10828453 0.51905960 130 129 127
0.26691267 0.10820168 0.51866245 149 147 146
1.00552249 0.20002773 0.95882863 174 175 175
1.00717974 0.20002773 0.95882863 168 169 169
1.00599122 0.19946347 0.95612389 171 171 171
1.00480926 0.19890240 0.95343435 167 167 167
1.00645721 0.19890240 0.95343435 164 164 164
1.01094890 0.19946347 0.95612389 162 162 162
1.00975311 0.19890240 0.95343435 171 171 171
1.00998056 0.19862305 0.95209527 174 174 175
0.90720254 0.39608690 1.88303292 146 136 135
0.90793520 0.39498970 1.87781680 145 133 133
0.91118085 0.39498970 1.87781680 152 136 137
0.91442651 0.39498970 1.87781680 159 143 144
0.91513717 0.39389858 1.87262940 158 149 150
0.91584390 0.39281344 1.86747062 164 155 155
0.91907167 0.39281344 1.86747062 165 157 156
0.25775081 0.10901474 0.51826596 161 161 156
0.25864658 0.10901474 0.51826596 174 173 169
0.25954238 0.10901474 0.51826596 172 171 169
0.26043814 0.10901474 0.51826596 142 141 141
0.26153389 0.10909815 0.51866245 140 140 140
0.26243034 0.10909815 0.51866245 161 160 160
0.26352844 0.10918169 0.51905960 170 168 168
0.26442561 0.10918169 0.51905960 158 155 155
0.26511973 0.10909815 0.51866245 137 133 132
0.26621988 0.10918169 0.51905960 144 141 140
0.26711705 0.10918169 0.51905960 158 152 154
0.99986553 0.20055033 0.95343435 184 186 186
1.00151348 0.20055033 0.95343435 181 182 182
1.00175250 0.20026866 0.95209527 181 182 184
1.00199080 0.19998778 0.95075995 171 172 174
1.00363410 0.19998778 0.95075995 159 160 161
1.00668931 0.20026866 0.95209527 150 150 152
1.00692070 0.19998778 0.95075995 161 160 161
1.00715148 0.19970769 0.94942838 171 169 171
0.90720254 0.39934158 1.88303292 150 143 143
0.91045725 0.39934158 1.88303292 147 139 140
0.91371191 0.39934158 1.88303292 149 139 140
0.91513717 0.39713526 1.87262940 147 138 139
0.25665879 0.10982656 0.51787001 152 147 142
0.25775081 0.10991053 0.51826596 161 157 152
0.25844899 0.10982656 0.51787001 150 146 143
0.25934410 0.10982656 0.51787001 130 127 124
0.26023918 0.10982656 0.51787001 126 126 122
0.26133394 0.10991053 0.51826596 148 148 145
0.26243034 0.10999462 0.51866245 168 168 167
0.26332682 0.10999462 0.51866245 166 166 164
0.26422328 0.10999462 0.51866245 153 153 151
0.26511973 0.10999462 0.51866245 145 140 140
0.26621988 0.11007884 0.51905960 157 151 151
0.99894643 0.20134869 0.94942838 177 178 178
0.99779248 0.20078626 0.94677633 171 171 171
0.99942893 0.20078626 0.94677633 159 159 159
1.00386941 0.20134869 0.94942838 154 153 155
1.00410414 0.20106709 0.94810051 156 155 157
1.00433815 0.20078626 0.94677633 162 160 163
0.91299331 0.40371767 1.88827813 166 160 158
0.25576371 0.11072166 0.51787001 131 122 122
0.25665879 0.11072166 0.51787001 158 153 149
0.25755391 0.11072166 0.51787001 156 151 148
0.25844899 0.11072166 0.51787001 149 143 142
0.25934410 0.11072166 0.51787001 146 141 139
0.26023918 0.11072166 0.51787001 137 133 130
0.26133394 0.11080631 0.51826596 145 141 139
0.26222971 0.11080631 0.51826596 146 145 143
0.26312548 0.11080631 0.51826596 145 145 142
0.26422328 0.11089108 0.51866245 144 144 140
0.26491705 0.11080631 0.51826596 144 144 140
0.26601622 0.11089108 0.51866245 151 150 146
0.26691267 0.11089108 0.51866245 157 156 152
0.99754930 0.20270580 0.94810051 181 182 182
0.99640083 0.20214038 0.94545585 185 186 186
0.99942893 0.20242269 0.94677633 177 178 178
0.91554362 0.40811825 1.89355266 164 160 155
0.25685501 0.11170208 0.51826596 144 137 137
0.25775081 0.11170208 0.51826596 150 144 144
0.25864658 0.11170208 0.51826596 145 140 140
0.25954238 0.11170208 0.51826596 151 146 145
0.26043814 0.11170208 0.51826596 140 134 134
0.26133394 0.11170208 0.51826596 148 143 143
0.26243034 0.11178755 0.51866245 152 150 149
0.26332682 0.11178755 0.51866245 153 152 150
0.26422328 0.11178755 0.51866245 148 147 145
0.26491705 0.11170208 0.51826596 143 142 140
0.26601622 0.11178755 0.51866245 144 143 141
0.26670861 0.11170208 0.51826596 154 153 150
0.99918801 0.20434451 0.94810051 185 189 188
0.25705156 0.11268402 0.51866245 134 129 128
0.25775081 0.11259787 0.51826596 145 141 140
0.25864658 0.11259787 0.51826596 156 152 151
0.25954238 0.11259787 0.51826596 159 155 154
0.26043814 0.11259787 0.51826596 149 143 143
0.26133394 0.11259787 0.51826596 156 150 150
0.26222971 0.11259787 0.51826596 163 158 157
0.26312548 0.11259787 0.51826596 161 156 156
0.26402128 0.11259787 0.51826596 156 153 152
0.26491705 0.11259787 0.51826596 154 150 149
0.26581284 0.11259787 0.51826596 158 154 153
0.26670861 0.11259787 0.51826596 157 153 152
0.25794801 0.11358048 0.51866245 159 155 152
0.25884447 0.11358048 0.51866245 155 151 150
0.25954238 0.11349364 0.51826596 157 153 152
0.26043814 0.11349364 0.51826596 158 154 151
0.26133394 0.11349364 0.51826596 158 154 152
0.26243034 0.11358048 0.51866245 154 148 146
0.26312548 0.11349364 0.51826596 161 155 154
0.26402128 0.11349364 0.51826596 160 154 149
0.26491705 0.11349364 0.51826596 153 147 143
0.26601622 0.11358048 0.51866245 163 154 154
0.25884447 0.11447695 0.51866245 165 161 153
0.25954238 0.11438943 0.51826596 167 164 156
0.26043814 0.11438943 0.51826596 164 161 154
0.26153389 0.11447695 0.51866245 160 157 151
0.26243034 0.11447695 0.51866245 153 149 142
0.26312548 0.11438943 0.51826596 169 164 157
0.26422328 0.11447695 0.51866245 170 162 156
0.26491705 0.11438943 0.51826596 153 146 140
0.25904268 0.11546176 0.51905960 161 154 148
0.25974095 0.11537342 0.51866245 176 173 165
0.26063740 0.11537342 0.51866245 183 181 173
0.26153389 0.11537342 0.51866245 167 167 158
0.26243034 0.11537342 0.51866245 154 151 146
0.26312548 0.11528521 0.51826596 166 160 158
0.26402128 0.11528521 0.51826596 173 167 167
0.26491705 0.11528521 0.51826596 165 159 159
0.25904268 0.11635891 0.51905960 154 145 141
0.25974095 0.11626988 0.51866245 167 159 153
0.26063740 0.11626988 0.51866245 180 175 168
0.26153389 0.11626988 0.51866245 174 174 166
0.26243034 0.11626988 0.51866245 150 148 142
0.26312548 0.11618099 0.51826596 162 158 155
0.26402128 0.11618099 0.51826596 172 168 167
0.25814551 0.11725606 0.51905960 138 128 125
0.25904268 0.11725606 0.51905960 139 129 126
0.25974095 0.11716635 0.51866245 151 141 138
0.26063740 0.11716635 0.51866245 158 148 145
0.26153389 0.11716635 0.51866245 167 159 157
0.26263130 0.11725606 0.51905960 153 147 144
0.26332682 0.11716635 0.51866245 161 158 153
0.26422328 0.11716635 0.51866245 172 169 165
0.25974095 0.11806281 0.51866245 142 134 130
0.26083699 0.11815321 0.51905960 138 130 126
0.26173413 0.11815321 0.51905960 138 127 129
0.26263130 0.11815321 0.51905960 155 144 146
0.26332682 0.11806281 0.51866245 156 152 150
0.91231608 0.35746980 1.43926084 123 89 74
0.91480368 0.35746980 1.43926084 129 95 80
0.89987785 0.35995743 1.43926084 125 99 82
0.90236551 0.35995743 1.43926084 123 91 80
0.90677834 0.36072329 1.44232309 126 95 83
0.91176420 0.36072329 1.44232309 125 94 79
0.91231608 0.35995743 1.43926084 130 98 82
0.91480368 0.35995743 1.43926084 129 96 81
0.91729134 0.35995743 1.43926084 129 96 81
0.91977900 0.35995743 1.43926084 130 96 81
0.90121698 0.36399069 1.44539833 126 101 87
0.90179247 0.36321625 1.44232309 127 101 87
0.90236551 0.36244509 1.43926084 124 94 82
0.90677834 0.36321625 1.44232309 126 95 83
0.90734076 0.36244509 1.43926084 123 92 78
0.91176420 0.36321625 1.44232309 123 92 78
0.91425717 0.36321625 1.44232309 128 96 82
0.91480368 0.36244509 1.43926084 129 96 82
0.91729134 0.36244509 1.43926084 127 95 80
0.91977900 0.36244509 1.43926084 127 95 80
0.92422891 0.36321625 1.44232309 128 95 80
0.93068218 0.36476845 1.44848680 128 94 79
0.94579405 0.36870763 1.46412921 121 91 74
0.89622051 0.36648893 1.44539833 130 99 85
0.90121698 0.36648893 1.44539833 118 88 76
0.90179247 0.36570919 1.44232309 126 96 84
0.90236551 0.36493272 1.43926084 116 90 76
0.90677834 0.36570919 1.44232309 120 94 81
0.90734076 0.36493272 1.43926084 121 96 80
0.91176420 0.36570919 1.44232309 121 95 79
0.91231608 0.36493272 1.43926084 122 93 78
0.91480368 0.36493272 1.43926084 125 94 79
0.91729134 0.36493272 1.43926084 126 94 80
0.91783029 0.36415955 1.43621159 127 95 81
0.92422891 0.36570919 1.44232309 128 96 82
0.92869782 0.36648893 1.44539833 128 97 83
0.94375569 0.37043819 1.46097374 117 99 78
0.89622051 0.36898720 1.44539833 129 97 83
0.89680660 0.36820212 1.44232309 128 96 81
0.89929950 0.36820212 1.44232309 121 88 75
0.89987785 0.36742038 1.43926084 124 90 77
0.90236551 0.36742038 1.43926084 120 92 78
0.90485311 0.36742038 1.43926084 121 96 82
0.90541846 0.36664194 1.43621159 123 98 84
0.90982842 0.36742038 1.43926084 122 97 83
0.91038316 0.36664194 1.43621159 121 95 81
0.91286558 0.36664194 1.43621159 121 94 80
0.91534793 0.36664194 1.43621159 124 97 83
0.92226666 0.36742038 1.43926084 125 98 82
0.92672187 0.36820212 1.44232309 125 100 83
0.93970519 0.37136266 1.45470357 121 98 80
0.89431363 0.37069505 1.44232309 128 94 79
0.89490253 0.36990800 1.43926084 128 94 79
0.89929950 0.37069505 1.44232309 128 94 79
0.89987785 0.36990800 1.43926084 127 93 80
0.90236551 0.36990800 1.43926084 127 94 81
0.90485311 0.36990800 1.43926084 126 95 83
0.90541846 0.36912432 1.43621159 126 98 85
0.91176420 0.37069505 1.44232309 122 100 85
0.91231608 0.36990800 1.43926084 113 90 76
0.91286558 0.36912432 1.43621159 106 81 67
0.91729134 0.36990800 1.43926084 122 97 83
0.91783029 0.36912432 1.43621159 122 98 81
0.92422891 0.37069505 1.44232309 122 98 81
0.92869782 0.37148544 1.44539833 122 98 81
0.93920636 0.37468103 1.45783186 122 98 81
0.94375569 0.37548852 1.46097374 122 98 81
0.95477819 0.31851313 1.23929036 116 89 76
0.95692021 0.31851313 1.23929036 117 90 77
0.95731211 0.31793189 1.23702896 119 94 80
0.87319475 0.36848393 1.42414248 128 103 84
0.89622051 0.37398371 1.44539833 129 95 84
0.89680660 0.37318799 1.44232309 129 96 84
0.89929950 0.37318799 1.44232309 129 96 82
0.90179247 0.37318799 1.44232309 128 94 79
0.90236551 0.37239566 1.43926084 128 94 80
0.90677834 0.37318799 1.44232309 128 94 81
0.90734076 0.37239566 1.43926084 129 95 83
0.91370827 0.37398371 1.44539833 131 96 86
0.91231608 0.37239566 1.43926084 126 91 80
0.91480368 0.37239566 1.43926084 118 92 78
0.91924304 0.37318799 1.44232309 122 97 83
0.91977900 0.37239566 1.43926084 122 98 82
0.92817861 0.37478280 1.44848680 122 98 81
0.93467653 0.37639132 1.45470357 122 98 81
0.94530511 0.37965012 1.46729839 123 99 82
0.94989723 0.38047367 1.47048128 124 99 82
0.95263618 0.32065514 1.23929036 118 92 78
0.95652688 0.32124242 1.24156010 116 90 77
0.95867282 0.32124242 1.24156010 117 91 77
0.95906222 0.32065514 1.23929036 117 93 76
0.96120423 0.32065514 1.23929036 117 93 76
0.87136412 0.37016779 1.42115688 131 101 85
0.89431363 0.37568092 1.44232309 129 98 85
0.89490253 0.37488329 1.43926084 127 98 84
0.89929950 0.37568092 1.44232309 127 96 82
0.89987785 0.37488329 1.43926084 125 92 78
0.90236551 0.37488329 1.43926084 126 93 78
0.90677834 0.37568092 1.44232309 128 94 81
0.90734076 0.37488329 1.43926084 129 95 81
0.91370827 0.37648195 1.44539833 130 96 81
0.91425717 0.37568092 1.44232309 130 96 81
0.91675007 0.37568092 1.44232309 127 96 80
0.91924304 0.37568092 1.44232309 125 96 79
0.92173600 0.37568092 1.44232309 123 96 78
0.93016613 0.37809429 1.45158851 122 96 78
0.93870533 0.38053888 1.46097374 123 97 79
0.94735563 0.38301528 1.47048128 123 97 79
0.95196223 0.38384792 1.47367787 124 98 81
0.95263618 0.32279715 1.23929036 119 95 78
0.95652688 0.32338834 1.24156010 116 92 76
0.96043181 0.32398173 1.24383819 115 90 74
0.96081877 0.32338834 1.24156010 115 91 74
0.96120423 0.32279715 1.23929036 116 92 75
0.87440717 0.37498254 1.43015158 131 99 83
0.86954117 0.37184459 1.41818380 130 99 83
0.87382048 0.37262416 1.42115688 129 99 83
0.87444365 0.37184459 1.41818380 130 99 83
0.89052421 0.37657145 1.43621159 130 99 86
0.89300656 0.37657145 1.43621159 127 97 85
0.89548892 0.37657145 1.43621159 127 97 84
0.89797133 0.37657145 1.43621159 125 94 78
0.90045369 0.37657145 1.43621159 124 93 77
0.90485311 0.37737095 1.43926084 125 92 76
0.90541846 0.37657145 1.43621159 128 94 79
0.90982842 0.37737095 1.43926084 129 96 80
0.91231608 0.37737095 1.43926084 129 96 81
0.91480368 0.37737095 1.43926084 129 97 81
0.91924304 0.37817386 1.44232309 128 97 81
0.92173600 0.37817386 1.44232309 125 96 78
0.92817861 0.37979001 1.44848680 121 96 74
0.93870533 0.38306406 1.46097374 126 100 77
0.94941509 0.38639504 1.47367787 132 104 82
0.95196223 0.38639504 1.47367787 127 99 77
0.95914161 0.38723686 1.47688854 127 102 80
0.95613211 0.32613158 1.24383819 119 94 76
0.96004349 0.32673112 1.24612474 117 92 75
0.96219736 0.32673112 1.24612474 115 90 72
0.96258169 0.32613158 1.24383819 112 88 69
0.96296465 0.32553428 1.24156010 113 89 70
0.87073320 0.37586850 1.42414248 130 100 86
0.86772585 0.37351441 1.41522300 128 99 84
0.87017196 0.37351441 1.41522300 128 98 83
0.87080014 0.37273625 1.41227472 128 99 83
0.88243312 0.37665978 1.42714071 128 98 83
0.88676667 0.37745443 1.43015158 127 98 82
0.89359570 0.37825242 1.43317509 127 98 83
0.89797133 0.37905380 1.43621159 126 97 80
0.89854997 0.37825242 1.43317509 123 94 77
0.90293604 0.37905380 1.43621159 122 91 74
0.90350425 0.37825242 1.43317509 126 95 77
0.90790081 0.37905380 1.43621159 129 98 81
0.91038316 0.37905380 1.43621159 129 98 82
0.91286558 0.37905380 1.43621159 128 97 81
0.91729134 0.37985861 1.43926084 128 97 81
0.91977900 0.37985861 1.43926084 127 96 80
0.92817861 0.38229358 1.44848680 124 93 77
0.94073278 0.38642204 1.46412921 125 94 78
0.95148355 0.38978955 1.47688854 125 97 74
0.95196223 0.38894218 1.47367787 126 98 74
0.95450938 0.38894218 1.47367787 129 101 77
0.95914161 0.38978955 1.47688854 130 103 79
0.96169430 0.38978955 1.47688854 131 103 80
0.95573586 0.32888493 1.24612474 120 94 78
0.95788968 0.32888493 1.24612474 118 92 76
0.96004349 0.32888493 1.24612474 119 91 76
0.96219736 0.32888493 1.24612474 118 91 75
0.96258169 0.32828146 1.24383819 116 90 73
0.96296465 0.32768023 1.24156010 115 90 72
0.86232507 0.37362051 1.40641463 130 100 88
0.86475593 0.37362051 1.40641463 129 100 88
0.86539143 0.37284696 1.40350282 130 101 88
0.87689483 0.37674704 1.41818380 130 101 88
0.88489980 0.37912649 1.42714071 129 100 87
0.89171052 0.37992632 1.43015158 127 97 85
0.89607286 0.38072956 1.43317509 126 96 84
0.89665431 0.37992632 1.43015158 126 96 84
0.90102708 0.38072956 1.43317509 126 98 83
0.90159810 0.37992632 1.43015158 127 100 82
0.90790081 0.38153619 1.43621159 128 101 83
0.90845847 0.38072956 1.43317509 128 100 83
0.91286558 0.38153619 1.43621159 128 99 82
0.91729134 0.38234624 1.43926084 129 98 82
0.91977900 0.38234624 1.43926084 128 97 81
0.92817861 0.38479719 1.44848680 127 96 80
0.94073278 0.38895267 1.46412921 126 95 79
0.94941509 0.39148930 1.47367787 123 93 75
0.95196223 0.39148930 1.47367787 124 94 75
0.95450938 0.39148930 1.47367787 126 97 77
0.95705652 0.39148930 1.47367787 128 98 77
0.95960367 0.39148930 1.47367787 130 101 79
0.95573586 0.33103874 1.24612474 121 97 80
0.95788968 0.33103874 1.24612474 119 95 78
0.95828199 0.33043134 1.24383819 119 93 76
0.96219736 0.33103874 1.24612474 119 91 76
0.96258169 0.33043134 1.24383819 118 91 75
0.96120423 0.32922319 1.23929036 117 90 72
0.96334624 0.32922319 1.23929036 118 90 73
-0.08069117 0.14992288 0.56070459 154 142 137
-0.07978804 0.15004699 0.56116873 163 154 148
0.90845847 0.38320670 1.43317509 125 99 81
0.91286558 0.38401857 1.43621159 128 102 84
0.91729134 0.38483390 1.43926084 130 101 84
0.91977900 0.38483390 1.43926084 128 98 82
0.94989723 0.39318171 1.47048128 125 96 76
0.95398223 0.33258122 1.24383819 122 96 80
0.95613211 0.33258122 1.24383819 121 95 79
0.96004349 0.33319259 1.24612474 119 93 77
0.96219736 0.33319259 1.24612474 118 92 76
0.96258169 0.33258122 1.24383819 118 92 76
0.96296465 0.33197209 1.24156010 118 91 75
0.96511060 0.33197209 1.24156010 119 91 75
-0.07978804 0.15101692 0.56116873 165 157 152
0.91729134 0.38732153 1.43926084 125 101 80
0.95573586 0.33534640 1.24612474 120 93 79
0.95788968 0.33534640 1.24612474 119 92 79
0.96004349 0.33534640 1.24612474 118 91 78
0.96396935 0.33596399 1.24841964 117 90 77
0.96258169 0.33473110 1.24383819 118 91 77
0.96120423 0.33350721 1.23929036 118 92 77
0.96511060 0.33411804 1.24156010 117 92 77
-0.08075798 0.15198685 0.56116873 162 151 149
-0.07978804 0.15198685 0.56116873 162 157 154
0.91729134 0.38980919 1.43926084 124 103 85
0.95749599 0.33812177 1.24841964 115 93 79
0.95965374 0.33812177 1.24841964 115 93 78
0.96358609 0.33874562 1.25072300 115 93 78
0.96574789 0.33874562 1.25072300 117 92 78
0.96435118 0.33750021 1.24612474 117 92 78
0.96296465 0.33626395 1.24156010 117 92 78
0.96865880 0.33750021 1.24612474 117 92 78
-0.08069117 0.15283027 0.56070459 157 150 150
-0.07972205 0.15283027 0.56070459 159 153 153
-0.07875291 0.15283027 0.56070459 158 154 154
0.95749599 0.34027958 1.24841964 113 93 80
0.95965374 0.34027958 1.24841964 113 93 80
0.96358609 0.34090739 1.25072300 113 93 80
0.96574789 0.34090739 1.25072300 115 92 78
0.96435118 0.33965406 1.24612474 116 91 77
0.96296465 0.33840990 1.24156010 116 91 77
0.96865880 0.33965406 1.24612474 116 91 77
-0.08889865 0.15291405 0.55747682 118 101 106
-0.08779071 0.15266296 0.55656147 101 80 89
-0.08387396 0.15253772 0.55610490 158 149 152
-0.08291278 0.15253772 0.55610490 150 141 144
-0.08062449 0.15367231 0.56024116 162 158 157
-0.07959038 0.15354541 0.55977857 159 155 154
-0.07868782 0.15367231 0.56024116 150 147 146
-0.07778378 0.15379941 0.56070459 154 153 153
-0.07668778 0.15354541 0.55977857 150 149 149
0.95749599 0.34243736 1.24841964 113 93 79
0.95965374 0.34243736 1.24841964 112 94 79
0.96536726 0.34370330 1.25303483 112 93 79
0.96753299 0.34370330 1.25303483 113 93 78
0.96612716 0.34243736 1.24841964 115 93 78
0.96473157 0.34118071 1.24383819 114 92 77
0.96865880 0.34180787 1.24612474 114 93 76
0.98851353 0.34497863 1.25768435 114 92 73
0.98338950 0.34243736 1.24841964 115 94 74
-0.09001025 0.15413111 0.55839527 126 112 116
-0.08875268 0.15362494 0.55656147 89 63 73
-0.08764679 0.15337309 0.55564904 99 77 87
-0.08373658 0.15324748 0.55519396 162 153 156
-0.08277696 0.15324748 0.55519396 159 155 156
-0.08188442 0.15337309 0.55564904 154 152 152
-0.08125705 0.15400426 0.55793566 142 141 141
-0.08055791 0.15451294 0.55977857 157 153 152
-0.07952471 0.15438545 0.55931669 154 149 148
-0.07868782 0.15464063 0.56024116 144 140 139
-0.07771949 0.15464063 0.56024116 150 149 148
-0.07662451 0.15438545 0.55931669 148 147 149
0.96320146 0.34586906 1.25303483 114 93 77
0.96715498 0.34650958 1.25535524 114 92 77
0.96753299 0.34586906 1.25303483 114 92 77
0.96612716 0.34459516 1.24841964 115 93 78
0.96650499 0.34396172 1.24612474 114 92 77
0.96865880 0.34396172 1.24612474 115 91 75
0.97260052 0.34459516 1.24841964 115 92 75
0.97475833 0.34459516 1.24841964 116 92 75
0.97333109 0.34333059 1.24383819 117 93 74
0.98851353 0.34715244 1.25768435 117 94 75
0.98520386 0.34523094 1.25072300 116 94 74
-0.08964105 0.15446009 0.55610490 141 130 132
-0.08853462 0.15420708 0.55519396 126 112 114
-0.08743179 0.15395491 0.55428606 126 117 119
-0.08448859 0.15382913 0.55383319 145 144 142
-0.08353133 0.15382913 0.55383319 160 159 157
-0.08264160 0.15395491 0.55428606 160 159 157
-0.08092403 0.15433349 0.55564904 153 151 149
-0.08029270 0.15496860 0.55793566 166 160 158
-0.07926311 0.15484115 0.55747682 132 124 124
-0.07842856 0.15509625 0.55839527 114 107 107
-0.07752728 0.15522411 0.55885559 141 140 138
-0.07637246 0.15484115 0.55747682 146 145 145
0.96498519 0.34867936 1.25535524 114 94 75
0.96894932 0.34932625 1.25768435 114 94 75
0.96932471 0.34867936 1.25535524 114 93 75
0.96790963 0.34739271 1.25072300 116 94 77
0.96650499 0.34611553 1.24612474 114 92 75
0.96865880 0.34611553 1.24612474 114 91 74
0.97439498 0.34739271 1.25072300 116 92 75
0.97475833 0.34675294 1.24841964 117 93 76
0.97333109 0.34548047 1.24383819 118 92 76
0.99035096 0.34997556 1.26002204 119 93 76
0.98520386 0.34739271 1.25072300 118 92 75
-0.08912923 0.15453388 0.55292970 150 141 142
-0.08824552 0.15466003 0.55338109 148 141 141
-0.08707580 0.15428220 0.55202919 142 140 138
-0.08339507 0.15453388 0.55292970 153 152 150
-0.08243938 0.15453388 0.55292970 152 151 147
-0.08079158 0.15503971 0.55473965 150 144 142
-0.08009493 0.15554887 0.55656147 146 137 138
-0.07906805 0.15542127 0.55610490 92 77 83
-0.07823522 0.15567669 0.55701876 84 69 77
-0.07739966 0.15593295 0.55793566 116 107 114
-0.07624705 0.15554887 0.55656147 140 138 140
-0.07516166 0.15529388 0.55564904 142 141 142
0.97403032 0.35020062 1.25303483 120 90 76
0.97619605 0.35020062 1.25303483 121 89 78
0.97691607 0.34891075 1.24841964 122 90 78
0.99186033 0.35346740 1.26472354 122 89 77
0.99219519 0.35280919 1.26236844 121 89 77
0.98885274 0.35084912 1.25535524 122 89 77
0.98736560 0.34955448 1.25072300 121 89 77
-0.08942844 0.15435645 0.54890031 134 127 129
-0.08869516 0.15473232 0.55023688 130 124 126
-0.08781540 0.15485801 0.55068386 140 137 136
-0.08672269 0.15460682 0.54979062 162 161 160
-0.08366831 0.15423156 0.54845619 137 136 135
-0.08312387 0.15498391 0.55113161 140 139 138
-0.08223814 0.15511002 0.55158001 142 134 135
-0.08115271 0.15485801 0.55068386 109 98 101
-0.08065957 0.15574364 0.55383319 81 71 75
-0.07989814 0.15612631 0.55519396 67 56 60
-0.07893854 0.15612631 0.55519396 76 63 73
-0.07804284 0.15625428 0.55564904 95 83 93
-0.07714568 0.15638246 0.55610490 125 115 123
-0.07605971 0.15612631 0.55519396 138 136 139
-0.07497729 0.15587099 0.55428606 132 131 133
0.97981834 0.35367388 1.25768435 121 89 80
0.98017365 0.35301891 1.25535524 119 87 78
0.98052764 0.35236639 1.25303483 119 86 78
0.99557513 0.35698542 1.26946032 121 86 79
0.99404627 0.35565338 1.26472354 123 88 81
0.99252880 0.35433125 1.26002204 123 87 82
-0.08942844 0.15530518 0.54890031 136 130 132
-0.08876722 0.15580982 0.55068386 137 133 134
-0.08781540 0.15580982 0.55068386 144 141 142
-0.08373606 0.15530518 0.54890031 138 138 137
-0.08319150 0.15606338 0.55158001 128 126 126
-0.08230511 0.15619047 0.55202919 126 116 119
-0.08121870 0.15593649 0.55113161 111 101 104
-0.08072552 0.15682901 0.55428606 89 79 81
-0.07996363 0.15721467 0.55564904 101 94 95
-0.07900324 0.15721467 0.55564904 134 127 129
-0.07804284 0.15721467 0.55564904 143 136 138
-0.07720902 0.15747282 0.55656147 149 145 144
-0.07618450 0.15734364 0.55610490 153 151 153
-0.07503865 0.15695736 0.55473965 144 144 145
0.97655851 0.35783935 1.26472354 119 92 74
0.97510600 0.35650909 1.26002204 118 92 74
0.97764450 0.35584766 1.25768435 117 92 74
0.97981834 0.35584766 1.25768435 118 90 78
0.98199213 0.35584766 1.25768435 118 89 79
0.98234344 0.35518870 1.25535524 118 88 79
0.99371427 0.35850820 1.26708758 119 87 80
0.99404627 0.35783935 1.26472354 120 87 80
0.99068737 0.35584766 1.25768435 120 87 83
0.99102253 0.35518870 1.25535524 122 88 85
-0.08905660 0.15727268 0.55247909 140 135 137
-0.08393996 0.15663439 0.55023688 177 176 171
-0.08325925 0.15714461 0.55202919 146 144 138
-0.08237219 0.15727268 0.55247909 111 102 104
-0.08128478 0.15701674 0.55158001 95 88 88
-0.08072552 0.15778705 0.55428606 87 80 80
-0.08002923 0.15830483 0.55610490 139 133 133
-0.07900324 0.15817507 0.55564904 169 164 163
-0.07804284 0.15817507 0.55564904 167 163 161
-0.07714568 0.15830483 0.55610490 165 164 155
-0.07612205 0.15817507 0.55564904 164 163 160
-0.07497729 0.15778705 0.55428606 159 158 156
0.96819425 0.35935488 1.26236844 123 89 74
0.97037613 0.35935488 1.26236844 123 89 74
0.97437251 0.36002532 1.26472354 121 89 74
0.97473997 0.35935488 1.26236844 120 90 73
0.97510600 0.35868695 1.26002204 119 89 74
0.97547072 0.35802147 1.25768435 118 89 76
0.97583407 0.35735846 1.25535524 118 89 75
0.97800386 0.35735846 1.25535524 117 89 78
0.98017365 0.35735846 1.25535524 117 90 81
0.98234344 0.35735846 1.25535524 118 91 83
0.99186033 0.36002532 1.26472354 122 93 91
0.99219519 0.35935488 1.26236844 119 89 87
0.99068737 0.35802147 1.25768435 118 87 86
0.99102253 0.35735846 1.25535524 119 87 86
0.98770505 0.35538411 1.24841964 121 89 88
-0.08934787 0.15874510 0.55428606 124 120 119
-0.08414486 0.15797010 0.55158001 156 147 147
-0.08332710 0.15822759 0.55247909 103 92 93
-0.08243938 0.15835665 0.55292970 77 68 72
-0.08141727 0.15822759 0.55247909 82 73 77
-0.08079158 0.15887500 0.55473965 85 76 81
-0.08002923 0.15926600 0.55610490 150 144 144
-0.07900324 0.15913546 0.55564904 173 167 160
-0.07804284 0.15913546 0.55564904 166 162 152
-0.07714568 0.15926600 0.55610490 155 154 142
-0.07612205 0.15913546 0.55564904 151 150 145
0.96819425 0.36153680 1.26236844 123 89 74
0.97037613 0.36153680 1.26236844 123 89 74
0.97255808 0.36153680 1.26236844 121 88 74
0.97473997 0.36153680 1.26236844 120 88 75
0.97329694 0.36019528 1.25768435 119 88 75
0.97547072 0.36019528 1.25768435 117 86 79
0.97583407 0.35952824 1.25535524 116 85 80
0.97800386 0.35952824 1.25535524 115 85 80
0.98017365 0.35952824 1.25535524 111 83 79
0.98234344 0.35952824 1.25535524 105 77 73
0.99186033 0.36221129 1.26472354 103 75 73
0.99404627 0.36221129 1.26472354 109 80 79
0.99252880 0.36086479 1.26002204 115 85 85
0.99102253 0.35952824 1.25535524 117 88 88
0.98770505 0.35754192 1.24841964 118 88 89
-0.09015847 0.15944239 0.55338109 145 141 141
-0.08934787 0.15970314 0.55428606 137 133 133
-0.08824552 0.15944239 0.55338109 146 146 147
-0.08421338 0.15905288 0.55202919 91 83 87
-0.08332710 0.15918250 0.55247909 71 61 66
-0.08243938 0.15931235 0.55292970 99 90 93
-0.08148368 0.15931235 0.55292970 114 105 107
-0.08085775 0.15996473 0.55519396 141 132 132
-0.08009493 0.16035873 0.55656147 163 157 155
-0.07893854 0.15996473 0.55519396 165 163 154
-0.07791512 0.15983383 0.55473965 158 157 147
-0.07708245 0.16009586 0.55564904 153 154 144
-0.07605971 0.15996473 0.55519396 147 147 143
-0.07503865 0.15983383 0.55473965 139 137 136
0.96562862 0.36439726 1.26472354 118 93 76
0.96781462 0.36439726 1.26472354 117 93 76
0.96819425 0.36371869 1.26236844 120 91 75
0.97037613 0.36371869 1.26236844 121 89 74
0.97255808 0.36371869 1.26236844 120 88 74
0.97473997 0.36371869 1.26236844 119 87 76
0.97510600 0.36304262 1.26002204 118 86 75
0.97547072 0.36236909 1.25768435 117 85 76
0.97764450 0.36236909 1.25768435 116 85 78
0.97800386 0.36169803 1.25535524 116 85 79
0.98199213 0.36236909 1.25768435 115 87 82
0.98599523 0.36304262 1.26002204 115 88 83
0.99557513 0.36576205 1.26946032 116 88 85
0.99590433 0.36507839 1.26708758 116 89 87
0.99437708 0.36371869 1.26236844 116 89 87
0.99470663 0.36304262 1.26002204 116 89 87
-0.09008493 0.16026804 0.55292970 151 146 146
-0.08920199 0.16039887 0.55338109 153 147 147
-0.08817354 0.16026804 0.55292970 150 149 148
-0.08714677 0.16013741 0.55247909 146 145 145
-0.08612166 0.16000701 0.55202919 133 132 133
-0.08516752 0.16000701 0.55202919 129 129 129
-0.08421338 0.16000701 0.55202919 130 125 125
-0.08332710 0.16013741 0.55247909 110 103 103
-0.08250667 0.16039887 0.55338109 152 145 145
-0.08155020 0.16039887 0.55338109 157 149 149
-0.08085775 0.16092435 0.55519396 172 163 163
-0.08009493 0.16132070 0.55656147 170 164 162
-0.07893854 0.16092435 0.55519396 156 154 150
-0.07791512 0.16079265 0.55473965 155 155 150
-0.07695629 0.16079265 0.55473965 153 152 146
-0.07599747 0.16079265 0.55473965 147 147 144
-0.07503865 0.16079265 0.55473965 146 146 144
0.96485692 0.36795622 1.26946032 120 90 74
0.96344268 0.36658323 1.26472354 118 89 72
0.96562862 0.36658323 1.26472354 120 90 75
0.96781462 0.36658323 1.26472354 122 91 77
0.96819425 0.36590058 1.26236844 122 90 77
0.97037613 0.36590058 1.26236844 121 86 76
0.97255808 0.36590058 1.26236844 122 87 77
0.97473997 0.36590058 1.26236844 121 87 77
0.97510600 0.36522049 1.26002204 120 86 76
0.97547072 0.36454290 1.25768435 118 85 75
0.97764450 0.36454290 1.25768435 117 85 75
0.97800386 0.36386782 1.25535524 117 85 75
0.98199213 0.36454290 1.25768435 114 87 76
0.98599523 0.36522049 1.26002204 113 88 77
0.99371427 0.36726844 1.26708758 113 88 77
0.99404627 0.36658323 1.26472354 114 89 77
0.99437708 0.36590058 1.26236844 114 89 77
0.99286115 0.36454290 1.25768435 115 90 76
0.99135649 0.36319524 1.25303483 116 92 77
-0.08927487 0.16148718 0.55383319 154 142 144
-0.08817354 0.16122374 0.55292970 142 136 136
-0.08714677 0.16109234 0.55247909 149 146 146
-0.08619185 0.16109234 0.55247909 144 143 143
-0.08530646 0.16122374 0.55292970 139 140 138
-0.08428202 0.16109234 0.55247909 147 147 145
-0.08346315 0.16135535 0.55338109 135 134 132
-0.08250667 0.16135535 0.55338109 135 129 127
-0.08155020 0.16135535 0.55338109 135 127 128
-0.08085775 0.16188395 0.55519396 140 131 134
-0.08016075 0.16241603 0.55701876 139 130 129
-0.07900324 0.16201665 0.55564904 140 138 133
-0.07791512 0.16175148 0.55473965 148 147 141
-0.07708245 0.16201665 0.55564904 147 140 138
-0.07612205 0.16201665 0.55564904 151 147 145
-0.07510010 0.16188395 0.55519396 149 146 143
0.96485692 0.37015036 1.26946032 124 90 75
0.96344268 0.36876920 1.26472354 119 87 71
0.96562862 0.36876920 1.26472354 120 88 72
0.96601236 0.36808249 1.26236844 121 90 74
0.96639460 0.36739832 1.26002204 121 89 75
0.96857250 0.36739832 1.26002204 120 85 77
0.97075033 0.36739832 1.26002204 122 87 79
0.97292817 0.36739832 1.26002204 117 84 75
0.97329694 0.36671668 1.25768435 117 84 75
0.97366428 0.36603758 1.25535524 119 87 77
0.97583407 0.36603758 1.25535524 118 87 75
0.97619605 0.36536101 1.25303483 118 87 75
0.98017365 0.36603758 1.25535524 114 88 75
0.98416597 0.36671668 1.25768435 112 90 75
0.99186033 0.36876920 1.26472354 112 91 75
0.99219519 0.36808249 1.26236844 110 93 73
0.99068737 0.36671668 1.25768435 111 94 73
0.99102253 0.36603758 1.25535524 112 93 73
0.98588943 0.36334613 1.24612474 112 91 73
-0.08949422 0.16284356 0.55519396 149 140 143
-0.08831762 0.16244443 0.55383319 146 137 139
-0.08721785 0.16217943 0.55292970 146 142 141
-0.08633257 0.16231182 0.55338109 132 131 130
-0.08537610 0.16231182 0.55338109 132 131 130
-0.08353133 0.16244443 0.55383319 136 135 134
-0.08264160 0.16257726 0.55428606 129 127 126
-0.08175040 0.16271029 0.55473965 132 129 130
-0.08105691 0.16324465 0.55656147 141 137 137
-0.08035884 0.16378252 0.55839527 147 139 139
-0.07906805 0.16311073 0.55610490 149 142 140
-0.07804284 0.16297704 0.55564904 154 147 144
-0.07733601 0.16351314 0.55747682 159 151 148
-0.07637246 0.16351314 0.55747682 149 142 140
-0.07528508 0.16324465 0.55656147 136 130 128
0.96639460 0.36957616 1.26002204 120 90 74
0.96857250 0.36957616 1.26002204 121 90 77
0.97075033 0.36957616 1.26002204 121 89 78
0.97292817 0.36957616 1.26002204 118 86 76
0.97329694 0.36889049 1.25768435 115 83 74
0.97366428 0.36820737 1.25535524 121 89 80
0.97403032 0.36752677 1.25303483 117 89 78
0.97260052 0.36617309 1.24841964 117 88 77
0.98017365 0.36820737 1.25535524 115 89 77
0.98416597 0.36889049 1.25768435 114 92 77
0.99001324 0.37026438 1.26236844 115 93 78
0.99035096 0.36957616 1.26002204 113 96 76
0.98885274 0.36820737 1.25535524 112 97 75
-0.08257408 0.16340168 0.55383319 146 142 139
-0.08168356 0.16353530 0.55428606 137 133 130
-0.08112351 0.16434154 0.55701876 139 135 132
-0.08042509 0.16488348 0.55885559 141 136 131
-0.07906805 0.16407192 0.55610490 154 145 139
0.97075033 0.37175402 1.26002204 117 91 75
0.97292817 0.37175402 1.26002204 114 89 74
0.97329694 0.37106431 1.25768435 110 84 72
0.97366428 0.37037715 1.25535524 116 90 79
0.97583407 0.37037715 1.25535524 117 91 79
0.97439498 0.36901045 1.25072300 116 90 79
0.98199213 0.37106431 1.25768435 116 90 79
0.98599523 0.37175402 1.26002204 115 92 78
0.99001324 0.37244630 1.26236844 116 93 79
0.99035096 0.37175402 1.26002204 117 95 79
-0.08243938 0.16409081 0.55292970 131 126 126
-0.08055791 0.16612332 0.55977857 139 135 127
-0.07913297 0.16516858 0.55656147 152 144 137
0.97473997 0.37462819 1.26236844 116 90 72
0.97510600 0.37393185 1.26002204 110 85 66
0.97728384 0.37393185 1.26002204 113 89 71
0.97946173 0.37393185 1.26002204 116 92 75
0.97800386 0.37254694 1.25535524 116 92 76
0.98381740 0.37393185 1.26002204 116 92 77
0.98783135 0.37462819 1.26236844 116 92 77
0.98817307 0.37393185 1.26002204 116 92 77
0.98851353 0.37323812 1.25768435 115 91 76
-0.07926311 0.16640380 0.55747682 139 133 126
0.98128563 0.37681010 1.26236844 115 91 72
0.97981834 0.37541193 1.25768435 116 92 73
0.98199213 0.37541193 1.25768435 116 92 74
0.98599523 0.37610972 1.26002204 117 93 75
0.98451316 0.37471670 1.25535524 117 93 76
0.98485917 0.37402406 1.25303483 117 93 76
0.97981834 0.37758571 1.25768435 116 92 74
0.98234344 0.37688649 1.25535524 117 93 75
0.98088032 0.37549576 1.25072300 117 93 76
0.97942793 0.37411526 1.24612474 117 93 76
0.97439498 0.37765753 1.25072300 116 91 80
0.97691607 0.37696204 1.24841964 117 92 80
0.97548097 0.37557870 1.24383819 118 92 79
0.97227883 0.37352261 1.23702896 118 92 78
0.97154844 0.37703675 1.24156010 116 90 83
0.97191429 0.37634748 1.23929036 117 91 82
0.97050786 0.37497646 1.23477566 117 92 81
0.97154844 0.37918270 1.24156010 115 89 84
0.96874326 0.37642500 1.23253059 116 91 81
0.51672453 0.16092704 0.48317310 170 174 175
0.51719105 0.16081242 0.48282894 173 177 178
0.51802558 0.16081242 0.48282894 175 179 180
0.51286101 0.16107333 0.48111558 159 160 162
0.51635653 0.16164696 0.48282894 172 173 175
0.51645535 0.16141702 0.48214212 176 177 179
0.51728868 0.16141702 0.48214212 174 175 177
0.66179866 0.18451409 0.55113161 122 118 137
0.66060293 0.18391599 0.54934508 116 112 131
0.51213408 0.16167541 0.48043361 160 164 165
0.51515508 0.16236584 0.48248529 158 162 163
0.51562202 0.16225035 0.48214212 159 163 164
0.51535571 0.16190490 0.48111558 164 167 168
0.51618731 0.16190490 0.48111558 168 169 173
0.66192234 0.18576874 0.55202919 152 150 164
0.66233712 0.18561758 0.55158001 128 125 140
0.66060293 0.18486549 0.54934508 114 111 125
0.51478869 0.16308370 0.48214212 167 169 170
0.51562202 0.16308370 0.48214212 165 169 170
0.51499021 0.16262105 0.48077434 166 170 171
0.51545566 0.16250581 0.48043361 175 179 182
0.51628602 0.16250581 0.48043361 178 181 184
0.51638448 0.16227579 0.47975361 175 179 183
0.51804292 0.16227579 0.47975361 172 178 183
0.51997614 0.16262105 0.48077434 174 178 184
0.52191758 0.16296780 0.48179945 172 174 180
0.52275032 0.16296780 0.48179945 171 172 179
0.65852368 0.18657094 0.55158001 173 175 179
0.65894085 0.18641926 0.55113161 173 174 179
0.66150689 0.18687505 0.55247909 172 173 178
0.66246182 0.18687505 0.55247909 163 163 170
0.66287649 0.18672287 0.55202919 151 151 158
0.66113865 0.18596569 0.54979062 137 138 143
0.51405746 0.16368422 0.48145726 171 174 175
0.51488960 0.16368422 0.48145726 170 174 175
0.51426077 0.16322051 0.48009336 169 173 174
0.51472604 0.16310501 0.47975361 171 176 178
0.51555526 0.16310501 0.47975361 173 178 181
0.51601928 0.16298966 0.47941431 172 178 180
0.51648265 0.16287446 0.47907552 168 174 177
0.51767653 0.16298966 0.47941431 170 175 179
0.51960760 0.16333619 0.48043361 172 178 181
0.52154690 0.16368422 0.48145726 172 176 180
0.52237904 0.16368422 0.48145726 171 174 179
0.52246904 0.16345203 0.48077434 170 173 178
0.65482247 0.18782997 0.55247909 160 168 169
0.65524340 0.18767701 0.55202919 164 171 173
0.65757030 0.18752430 0.55158001 170 176 179
0.65798831 0.18737185 0.55113161 171 175 179
0.65840560 0.18721963 0.55068386 172 172 178
0.66096818 0.18767701 0.55202919 171 171 177
0.66192234 0.18767701 0.55202919 166 169 174
0.51426077 0.16405033 0.48009336 166 170 171
0.51472604 0.16393422 0.47975361 166 171 172
0.51519066 0.16381828 0.47941431 166 172 172
0.51601928 0.16381828 0.47941431 164 170 171
0.51648265 0.16370250 0.47907552 167 171 173
0.51767653 0.16381828 0.47941431 169 173 175
0.51923960 0.16405033 0.48009336 172 176 178
0.52154690 0.16451637 0.48145726 172 174 177
0.52237904 0.16451637 0.48145726 171 174 176
0.52209878 0.16416658 0.48043361 170 173 175
0.65600616 0.18940233 0.55428606 158 168 169
0.65482247 0.18878488 0.55247909 160 169 170
0.65471023 0.18847767 0.55158001 160 170 171
0.65513051 0.18832444 0.55113161 162 172 172
0.65608311 0.18832444 0.55113161 165 174 175
0.65650195 0.18817145 0.55068386 166 175 176
0.65692014 0.18801871 0.55023688 167 175 176
0.65733761 0.18786623 0.54979062 171 173 177
0.66043037 0.18847767 0.55158001 174 176 179
0.66138375 0.18847767 0.55158001 173 176 179
0.51601928 0.16464691 0.47941431 159 165 165
0.51611793 0.16441436 0.47873718 163 168 169
0.51767653 0.16464691 0.47941431 169 173 174
0.51887214 0.16476344 0.47975361 173 177 178
0.52117670 0.16523118 0.48111558 171 173 175
0.52200830 0.16523118 0.48111558 171 172 174
0.52172899 0.16488013 0.48009336 170 171 173
0.65547019 0.19020484 0.55383319 157 165 168
0.65428925 0.18958528 0.55202919 158 166 169
0.65417796 0.18927702 0.55113161 158 168 169
0.65459836 0.18912326 0.55068386 160 170 171
0.65555012 0.18912326 0.55068386 163 172 174
0.65596908 0.18896975 0.55023688 165 175 176
0.65638733 0.18881649 0.54979062 168 177 179
0.65733761 0.18881649 0.54979062 175 182 183
0.66043037 0.18943103 0.55158001 177 184 186
0.66138375 0.18943103 0.55158001 179 184 186
0.51601928 0.16547555 0.47941431 169 175 175
0.51611793 0.16524182 0.47873718 168 174 174
0.51731068 0.16535860 0.47907552 171 176 176
0.51887214 0.16559266 0.47975361 174 179 180
0.52080709 0.16594498 0.48077434 173 175 177
0.52200830 0.16606274 0.48111558 170 171 173
0.52172899 0.16570993 0.48009336 170 171 173
0.65493512 0.19100605 0.55338109 161 164 172
0.65428925 0.19053942 0.55202919 158 162 170
0.65417796 0.19022961 0.55113161 157 165 170
0.65459836 0.19007507 0.55068386 161 169 173
0.65501803 0.18992078 0.55023688 162 171 175
0.65596908 0.18992078 0.55023688 164 173 177
0.65638733 0.18976676 0.54979062 169 179 182
0.65680492 0.18961297 0.54934508 176 185 187
0.66043037 0.19038439 0.55158001 179 187 189
0.66138375 0.19038439 0.55158001 178 186 188
0.51565462 0.16618665 0.47907552 172 177 177
0.51611793 0.16606927 0.47873718 172 177 177
0.51731068 0.16618665 0.47907552 171 176 176
0.51850516 0.16630417 0.47941431 172 178 178
0.52043796 0.16665776 0.48043361 172 177 177
0.52163810 0.16677596 0.48077434 170 173 175
0.52135980 0.16642186 0.47975361 169 172 174
0.65440089 0.19180594 0.55292970 152 155 163
0.65375686 0.19133775 0.55158001 156 160 168
0.65417796 0.19118220 0.55113161 162 169 175
0.65459836 0.19102688 0.55068386 164 172 178
0.65501803 0.19087183 0.55023688 163 171 177
0.65596908 0.19087183 0.55023688 161 169 175
0.65638733 0.19071703 0.54979062 166 174 180
0.65680492 0.19056247 0.54934508 169 177 181
0.65989345 0.19118220 0.55113161 171 179 183
0.66084605 0.19118220 0.55113161 172 179 183
0.51565462 0.16701469 0.47907552 164 167 168
0.51575369 0.16677895 0.47839934 168 171 172
0.51694536 0.16689673 0.47873718 167 173 173
0.51777279 0.16689673 0.47873718 168 174 174
0.51933378 0.16713279 0.47941431 167 173 174
0.52053058 0.16725108 0.47975361 166 172 173
0.52025521 0.16689673 0.47873718 165 171 172
0.65440089 0.19276164 0.55292970 140 143 151
0.65375686 0.19229111 0.55158001 152 155 163
0.65417796 0.19213478 0.55113161 166 172 179
0.65459836 0.19197869 0.55068386 166 174 180
0.65555012 0.19197869 0.55068386 160 168 174
0.65596908 0.19182287 0.55023688 155 163 169
0.65638733 0.19166730 0.54979062 162 170 176
0.65680492 0.19151197 0.54934508 167 173 179
0.65989345 0.19213478 0.55113161 171 176 183
0.66030920 0.19197869 0.55068386 176 180 187
0.81270576 0.61527836 1.75619650 166 159 153
0.51575369 0.16760583 0.47839934 162 163 165
0.51658052 0.16760583 0.47839934 164 167 168
0.51740742 0.16760583 0.47839934 165 169 170
0.51823431 0.16760583 0.47839934 166 171 171
0.51942772 0.16772419 0.47873718 161 167 167
0.51952142 0.16748762 0.47806194 159 165 165
0.65397865 0.19387548 0.55338109 127 128 137
0.65386754 0.19355945 0.55247909 144 147 155
0.65375686 0.19324447 0.55158001 154 157 165
0.65417796 0.19308737 0.55113161 164 171 177
0.65459836 0.19293050 0.55068386 165 173 179
0.65555012 0.19293050 0.55068386 159 167 173
0.65650195 0.19293050 0.55068386 163 171 177
0.65692014 0.19277391 0.55023688 165 173 179
0.65733761 0.19261757 0.54979062 168 174 180
0.65989345 0.19308737 0.55113161 171 173 180
0.66030920 0.19293050 0.55068386 172 175 181
0.80264342 0.61991984 1.76075804 143 129 132
0.80359948 0.61831385 1.75619650 160 148 148
0.81270576 0.61831385 1.75619650 167 158 152
0.51492679 0.16843270 0.47839934 149 150 152
0.51502675 0.16819531 0.47772506 157 158 160
0.51621622 0.16831392 0.47806194 160 161 163
0.51667815 0.16819531 0.47772506 163 163 165
0.51786882 0.16831392 0.47806194 169 170 172
0.51869512 0.16831392 0.47806194 165 169 170
0.51878971 0.16807686 0.47738862 163 168 168
0.65386754 0.19451438 0.55247909 157 160 168
0.65375686 0.19419783 0.55158001 163 166 174
0.65364653 0.19388232 0.55068386 167 173 180
0.65353656 0.19356783 0.54979062 167 175 181
0.65448678 0.19356783 0.54979062 161 169 175
0.65543705 0.19356783 0.54979062 164 172 177
0.65585542 0.19341098 0.54934508 166 174 178
0.65627307 0.19325437 0.54890031 169 174 179
0.65828788 0.19356783 0.54979062 173 173 180
0.65870392 0.19341098 0.54934508 173 173 180
0.65965343 0.19341098 0.54934508 170 170 177
-0.25754049 0.29573467 0.83587158 108 83 66
0.80683476 0.62621623 1.76995254 123 105 109
0.80989397 0.62621623 1.76995254 136 120 122
0.82029593 0.62950349 1.77924371 146 134 130
0.81907165 0.62621623 1.76995254 159 147 142
0.51291108 0.16914020 0.47806194 148 147 147
0.51301378 0.16890198 0.47738862 146 145 146
0.51456368 0.16914020 0.47806194 151 151 153
0.51466405 0.16890198 0.47738862 154 154 156
0.51585245 0.16902101 0.47772506 156 156 158
0.51631433 0.16890198 0.47738862 157 157 159
0.51750386 0.16902101 0.47772506 169 169 171
0.51796454 0.16890198 0.47738862 167 168 170
0.51769596 0.16854590 0.47638217 159 160 163
