ply
format ascii 1.0
element vertex 906
property float x
property float y
property float z
property uchar red
property uchar green
property uchar blue
end_header
-0.86106671 -0.44713196 1.35795732 101 131 150
-0.86688198 -0.44681365 1.36562972 100 131 150
-0.86148852 -0.43818215 1.35714221 98 132 154
-0.87058800 -0.43613522 1.36914454 102 130 150
-0.84621850 -0.46616751 1.35250409 104 136 152
-0.84761310 -0.47675494 1.36122859 107 139 150
-0.85155193 -0.45324049 1.35559428 100 133 150
-0.85300541 -0.45044265 1.36491761 102 132 149
-0.85339662 -0.43891203 1.36672300 102 131 151
-0.83852518 -0.46517602 1.35038221 104 138 153
-0.72206134 0.61563975 1.98213995 101 107 112
-0.72373824 0.63231329 1.99146764 110 112 114
-0.72428420 0.65213278 1.99772052 126 131 131
-0.72184865 0.67161608 1.99576004 104 107 109
-0.72299515 0.68494482 1.98942292 98 106 108
-0.71130133 0.59325084 1.94798118 88 93 103
-0.70704859 0.60619760 1.95172910 95 101 104
-0.71547236 0.61147253 1.96872290 92 97 101
-0.70596763 0.61825541 1.98504627 90 90 95
-0.71483225 0.63434074 1.97636104 116 120 121
-0.71083670 0.63028694 1.99278191 102 103 106
-0.71724443 0.64401360 1.99577153 122 129 129
-0.71718198 0.67748598 1.98601504 97 105 106
-0.71520939 0.68244612 1.98213995 92 99 103
-0.68815398 0.57503372 1.89355266 92 96 103
-0.68297338 0.58322316 1.88827813 92 100 101
-0.69397491 0.58485320 1.90956962 79 84 91
-0.68938492 0.61487182 1.96871185 112 113 116
-0.69497269 0.61744511 1.98795259 113 113 120
-0.68125154 0.63080895 1.97063243 108 114 114
-0.69154990 0.63117954 1.98797321 114 118 119
-0.68841286 0.64597443 1.99382538 109 114 115
-0.67638046 0.57274702 1.87005001 87 93 98
-0.66054344 0.58320850 1.89885676 103 106 116
-0.66283143 0.59808046 1.91494870 137 138 139
-0.66992617 0.59482133 1.92582905 122 123 130
-0.66589829 0.60567862 1.92860365 133 135 137
-0.67152085 0.61565524 1.95117753 129 130 132
-0.66639390 0.62395563 1.95452523 130 132 133
-0.67160384 0.63370044 1.96980933 121 122 124
-0.67581075 0.63962150 1.98213995 121 122 125
-0.66530052 0.64288071 1.97636104 116 117 121
-0.67189137 0.64876597 1.99089901 112 116 118
-0.65772444 0.56120062 1.82720172 91 97 98
-0.64109927 0.56566596 1.85216355 99 101 112
-0.64462179 0.57199293 1.86234021 117 118 126
-0.65869832 0.57830656 1.89355266 89 91 104
-0.65470245 0.59058982 1.89620471 142 143 145
-0.65373673 0.61251957 1.92914608 139 140 142
-0.65357461 0.63145220 1.94985783 128 128 133
-0.62093258 0.55217975 1.80290389 121 123 130
-0.63615978 0.57050985 1.84711671 148 148 150
-0.63578838 0.60448939 1.89355266 142 143 144
-0.46231643 0.21295457 1.13257303 129 131 135
-0.46137142 0.22007692 1.12981975 113 114 116
-0.44819357 0.21583467 1.11560942 120 123 127
-0.44950118 0.21264968 1.12471318 125 128 129
-0.44616930 0.22176488 1.11863339 124 131 138
-0.42399543 0.20232940 1.09711119 120 122 124
-0.42827041 0.21324373 1.10627329 112 117 119
-0.42386941 0.22852247 1.09658475 115 121 124
-0.42959237 0.22346652 1.10383315 125 128 130
-0.40878046 0.21527921 1.09869015 120 123 127
-0.41449728 0.21201222 1.10533244 124 126 130
-0.41402116 0.23042074 1.07772946 101 105 106
-0.41459820 0.22717752 1.09320591 112 117 121
-0.41452622 0.22071301 1.10098503 107 111 118
-0.35516730 0.27799144 1.29722583 93 94 99
-0.34693141 0.27718444 1.30259638 106 106 108
-0.34943792 0.28612717 1.29759052 111 113 118
-0.34598419 0.28939723 1.30244756 113 115 119
-0.34194863 0.30106485 1.27423275 121 122 124
-0.34594537 0.30161142 1.29431807 108 112 113
-0.34950401 0.30208816 1.30238706 108 113 115
-0.32573698 0.05223962 0.55352406 128 131 131
-0.32780702 0.06228583 0.54815145 132 137 139
-0.32179587 0.27792008 1.27583253 133 134 134
-0.33095124 0.27961646 1.29321082 140 141 141
-0.32254288 0.29822016 1.25303769 135 138 139
-0.32706094 0.29351732 1.26995267 112 116 120
-0.33429220 0.28842855 1.29008413 109 112 117
-0.33792374 0.28043440 1.30113602 149 150 150
-0.32386820 0.30564812 1.25536102 115 121 125
-0.33113024 0.30809941 1.26555513 116 118 123
-0.33916661 0.30004400 1.28876781 91 93 96
-0.31953833 0.05364231 0.55225414 131 134 133
-0.30304690 0.25677129 0.73898111 117 121 118
-0.30497833 0.25739009 0.74613104 109 113 113
-0.31992456 0.27904078 1.27423275 129 130 130
-0.30978790 0.29481208 1.23135834 121 124 127
-0.31619797 0.29517483 1.24567077 134 137 139
-0.31381692 0.30333441 1.23853656 108 113 117
-0.31800564 0.30601931 1.24727640 112 117 122
-0.28789581 0.25461826 0.72839504 109 113 114
-0.29901498 0.25477102 0.74059637 100 105 105
-0.28838805 0.26267338 0.73008151 110 112 117
-0.29965010 0.26823059 0.74005657 107 110 116
-0.26172877 0.07813659 1.50531292 144 145 148
-0.26323490 0.08150175 1.51146638 136 138 143
-0.26427022 0.10833422 1.53068022 138 139 143
-0.27397343 0.10903620 1.55005940 116 115 122
-0.27034584 0.24829145 0.71735264 126 128 128
-0.27512440 0.25402143 0.72377755 133 136 137
-0.27760324 0.26105657 0.72719818 154 155 151
-0.24704698 0.07588791 1.48390838 133 132 138
-0.24171301 0.08747903 1.47688854 145 146 151
-0.24928270 0.08951853 1.48742092 128 129 136
-0.25902569 0.09837432 1.50978136 134 134 139
-0.24592081 0.10491655 1.49513880 125 125 134
-0.25309972 0.10739677 1.50980049 134 134 139
-0.25769587 0.11255014 1.52506799 143 146 147
-0.23291512 0.07320073 1.47581899 123 124 132
-0.22915543 0.07396259 1.48254699 128 129 134
-0.22926285 0.08908570 1.47260113 134 135 140
-0.23474874 0.09899946 1.48011315 134 135 141
-0.22430786 0.10213540 1.47368350 119 119 124
-0.23421256 0.10565838 1.48571640 133 133 138
-0.21483655 0.07987093 1.45783186 129 132 134
-0.21726613 0.07776939 1.46571380 119 122 123
-0.21208181 0.08646018 1.45301894 136 138 143
-0.21511022 0.09244023 1.46774750 128 129 132
-0.21797333 0.10216648 1.47048470 140 140 145
-0.20516509 0.15419886 0.60897849 127 128 129
-0.20512502 0.16318588 0.60690234 124 124 125
-0.20675292 0.17779901 0.93774033 123 125 132
-0.20589593 0.17819505 0.94268896 121 124 129
-0.20475733 0.18137698 0.93491101 126 130 136
-0.20120474 0.18195814 0.94250220 114 117 123
-0.20383556 0.21922019 0.50693203 113 117 122
-0.20946610 0.22495567 0.50504755 133 135 134
-0.18145553 0.01041854 1.52678347 157 157 155
-0.19744533 0.15523853 0.60317969 139 142 141
-0.19847602 0.16144015 0.60248371 139 140 137
-0.18170925 0.17448403 0.91607592 118 119 126
-0.18844208 0.17012102 0.93243498 127 129 134
-0.19550717 0.17667049 0.94265595 122 124 131
-0.19416754 0.18146014 0.93631674 120 122 129
-0.19437286 0.18174830 0.94294995 123 125 131
-0.16227619 -0.00604297 1.51880348 150 150 150
-0.16166362 -0.01663040 1.52678347 139 140 141
-0.16765943 0.01070977 1.51663946 150 148 147
-0.17775652 0.00842038 1.52335250 148 148 145
-0.16643062 0.02627403 1.51290554 133 133 138
-0.16393332 0.03606679 1.52335250 125 125 130
-0.17021242 0.11238154 0.56437174 137 139 140
-0.17455088 0.15947696 0.91176140 126 126 133
-0.16440640 0.17025902 0.89797001 144 146 146
-0.17165315 0.16779006 0.90799718 123 125 131
-0.14985530 -0.00671780 1.51804841 148 147 146
-0.15051552 -0.00694288 1.52373372 143 141 141
-0.15141266 0.01089834 1.51638217 146 144 145
-0.14734547 0.00605069 1.52335250 149 145 146
-0.15017216 0.02659091 1.51007552 131 131 136
-0.15866734 0.03606679 1.52335250 133 133 140
-0.14836404 0.15700098 0.49775356 122 126 127
-0.14397943 0.15630895 0.50102926 105 109 111
-0.15003699 0.16815218 0.49328731 131 134 137
-0.14367093 0.16095059 0.50146162 106 114 113
-0.15080669 0.17203058 0.65158870 147 148 148
-0.14830544 0.17144951 0.66174818 145 146 146
-0.15248421 0.17064776 0.89651491 119 119 127
-0.15612901 0.17293048 0.90245515 127 127 132
-0.14927626 0.18253034 0.49623732 199 200 191
-0.15241474 0.18565139 0.50028920 200 202 193
-0.13937523 -0.00471324 1.51399770 134 134 136
-0.13820856 0.01207505 1.51684984 140 140 141
-0.13288016 0.02816363 1.49976075 129 130 139
-0.13510614 0.02716758 1.50750402 130 132 138
-0.12157818 0.14884369 0.83315166 146 147 151
-0.12357475 0.14717447 0.85038736 108 108 115
-0.12941947 0.14764952 0.86202618 114 115 121
-0.13894576 0.16999741 0.65007114 179 180 181
-0.10109336 0.01505504 0.70842735 128 129 135
-0.10050464 0.02040122 0.70687366 113 116 124
-0.10052399 0.09920128 0.48971821 176 176 176
-0.10159239 0.10901878 0.49314525 130 131 135
-0.11286478 0.15659331 0.81925995 197 196 193
-0.11307962 0.15108003 0.82835302 187 187 186
-0.11158832 0.14618368 0.84519554 163 163 166
-0.11245035 0.16141918 0.81739767 196 195 192
-0.08711517 -0.08614653 0.55606253 88 98 119
-0.08303337 0.01798952 0.69864252 139 141 143
-0.09320985 0.01500771 0.70451876 132 132 137
-0.08483195 0.02015952 0.69849917 115 117 122
-0.09454194 0.02029915 0.70333709 137 139 144
-0.08977187 0.09428014 0.47975361 125 128 136
-0.09241216 0.09832942 0.48708851 140 142 143
-0.09400528 0.10734258 0.49079362 139 140 141
-0.07745988 -0.08990683 0.55790557 91 98 125
-0.07949912 0.01852761 0.69765900 130 132 138
-0.07987351 0.02012836 0.69741958 93 94 100
-0.06548250 0.33187327 0.82604736 197 198 189
-0.06691143 0.34472618 0.83378261 178 179 171
-0.07007037 0.34656504 0.84001470 200 201 192
-0.04413038 0.31860977 0.81673717 163 163 160
-0.05149893 0.31912053 0.82168710 164 164 162
-0.04638892 0.32523863 0.81920535 170 169 161
-0.05227378 0.32765195 0.82520847 169 168 162
-0.05700330 0.32769036 0.84001470 178 179 170
-0.05520933 0.34010214 0.83484215 170 163 154
-0.00022085 -0.18243225 0.48909944 102 110 124
-0.00121798 -0.17576848 0.48852355 101 110 121
-0.01037760 0.12945431 0.47176235 178 176 172
-0.00751186 0.12425117 0.48092729 163 161 158
-0.00332440 0.17306903 0.59113023 155 153 150
-0.00120439 0.18613130 0.91495808 194 193 187
-0.00318317 0.24473624 0.69876860 157 157 155
-0.00253938 0.24439443 0.70143228 155 153 151
0.00335044 -0.18300490 0.49025383 103 111 123
0.00424272 -0.17617521 0.49029352 102 110 121
0.01177808 -0.14279587 0.48575510 100 108 124
0.00834921 -0.13902646 0.48480555 100 108 121
0.01986852 -0.00507949 0.55428606 155 154 154
0.01772857 0.00476395 0.55117263 184 183 184
0.00060446 0.12862024 0.47338989 156 153 154
0.01550554 0.17930861 0.47873718 169 169 166
0.00403144 0.17259840 0.57380632 153 153 153
0.00123552 0.17020286 0.58729153 155 154 152
0.01867252 0.17842781 0.87561551 181 181 179
0.01494936 0.17673149 0.89256010 174 175 176
0.01043158 0.17717995 0.90884580 149 149 153
0.01768074 0.18593220 0.47550248 165 165 163
0.01354633 0.18343189 0.48345230 166 167 166
0.01745540 0.18307507 0.87538394 174 172 172
0.01276075 0.18491345 0.88902003 176 176 175
0.00591766 0.18528567 0.91118571 155 154 154
0.01023903 0.25038594 0.67789185 140 142 141
0.00548178 0.25093071 0.69347195 143 143 140
0.00360352 0.24970090 0.70141403 152 152 149
0.00509904 0.26067865 0.69598752 139 137 135
0.01607711 0.41725586 1.86490542 170 170 169
0.01414995 0.43011781 1.87619574 169 168 168
0.01282430 0.43147795 1.88408196 158 155 157
0.01591421 0.44292931 1.87695223 175 176 177
0.01875593 0.45494236 1.89091539 172 172 172
0.02561376 -0.00431769 0.55478040 174 172 172
0.02378322 0.00693805 0.55149381 189 188 187
0.03796946 0.17496519 0.49460947 168 167 164
0.03611857 0.17929880 0.50065896 167 167 167
0.02230625 0.17831813 0.86827001 179 175 173
0.02254454 0.17850246 0.88497627 186 185 182
0.03671005 0.16896160 1.15251931 144 143 149
0.03368262 0.17280437 1.16443537 143 144 146
0.02319711 0.18514279 0.47294889 157 155 152
0.03752849 0.18464718 0.49719817 160 158 155
0.03639787 0.18414672 0.50243371 158 157 155
0.02133411 0.18084349 0.86686939 163 157 159
0.03813159 0.18201355 1.15681430 171 171 174
0.03835082 0.18507037 1.16344217 168 167 173
0.03917521 0.39578229 1.77924371 147 144 143
0.03648296 0.39998156 1.79812157 163 159 156
0.03917521 0.40193284 1.77924371 137 137 140
0.03841570 0.40940793 1.79179990 153 152 152
0.03473195 0.41083851 1.80832545 161 160 159
0.03224880 0.41323188 1.82228994 159 157 158
0.02471770 0.41550753 1.84880817 169 168 168
0.02987098 0.43768740 1.77458596 136 135 144
0.03488897 0.43047813 1.79574311 158 155 157
0.03709886 0.42753569 1.80953705 179 175 170
0.03253720 0.42999906 1.82885969 179 178 175
0.02706711 0.43008981 1.84987955 180 180 179
0.02295303 0.42938530 1.86683287 173 172 173
0.02701591 0.44115195 1.78863287 132 130 137
0.02524011 0.44417340 1.80933996 135 131 135
0.02774805 0.44358143 1.83710527 158 155 154
0.02530773 0.44508312 1.85216355 167 167 165
0.02178721 0.44843294 1.87056589 170 169 169
0.05519395 0.15639376 1.13536291 127 126 132
0.05388022 0.15785631 1.14451478 144 144 144
0.04043313 0.17424631 0.49002391 165 162 156
0.05160720 0.16535615 1.10859717 177 174 172
0.04940393 0.16346747 1.13045165 146 144 149
0.04096820 0.16929565 1.14291842 161 158 163
0.04100183 0.18124392 0.49562619 148 142 140
0.04118509 0.18210314 1.14896917 174 174 179
0.05722905 0.21189737 0.67743237 163 158 154
0.05960263 0.21571757 0.68187204 171 168 162
0.05703386 0.22871593 0.68783659 172 169 166
0.05819455 0.27236095 0.70986669 149 147 141
0.05849558 0.28176535 0.71646891 131 131 131
0.04358921 0.39549986 1.77111998 135 132 136
0.04565020 0.41031281 1.77352792 161 160 162
0.04870210 0.41575660 1.79021013 175 175 175
0.05703059 0.41801467 1.80893931 180 180 176
0.04622482 0.42338213 1.77461024 163 155 152
0.04748056 0.42538416 1.79601573 166 161 157
0.05758736 0.42611589 1.81013693 157 153 150
0.06480930 0.15588746 1.13421328 122 123 129
0.07125327 0.17926063 0.49294336 128 128 127
0.06056628 0.16353545 1.10405838 183 182 178
0.06523151 0.16181598 1.13085486 131 132 140
0.07697675 0.18473789 0.47851290 170 166 158
0.07298043 0.18440474 0.49368702 154 155 152
0.07307040 0.21282365 0.67644148 152 154 154
0.06596176 0.21353104 0.68240233 140 138 139
0.07332096 0.22580748 0.67745189 145 146 146
0.06463557 0.22552811 0.68342659 145 144 142
0.06546740 0.26984519 0.69837453 143 144 142
0.06300269 0.27212787 0.70279299 137 137 135
0.06186313 0.28193837 0.71387428 117 117 119
0.07812852 0.37547836 1.75619650 173 171 165
0.07894663 0.38247731 1.77458596 161 155 151
0.07282509 0.39405434 1.79134565 148 145 145
0.06364150 0.39724140 1.80450646 148 143 145
0.07208353 0.40676065 1.79472916 175 175 175
0.07056479 0.41087976 1.80830193 173 172 172
0.06847012 0.41795638 1.82228994 178 178 177
0.07992312 0.42447293 1.79653593 131 131 136
0.06951779 0.42629118 1.81309074 145 142 144
0.07000753 0.42721239 1.82721695 156 152 153
0.07064422 0.43618683 1.84611835 129 124 132
0.06969230 0.44141856 1.85470074 128 126 137
0.06997496 0.44323677 1.86234021 124 123 133
0.09885868 0.16229869 0.57537985 122 122 123
0.09767628 0.17552238 0.81621363 176 176 175
0.09592326 0.17256217 0.82172106 172 173 172
0.08487663 0.18672506 0.47734626 119 119 122
0.08405473 0.19062343 0.48663411 132 132 131
0.09616443 0.18791413 0.77444571 174 174 173
0.09412782 0.19574395 0.78700976 171 170 171
0.09678312 0.18141367 0.81464926 181 181 180
0.09434805 0.18143203 0.82201950 176 176 175
0.09099353 0.20198072 0.48984010 82 85 87
0.08184073 0.21211937 0.67330705 170 169 166
0.08127822 0.20643796 0.68212581 179 179 176
0.09526812 0.20026055 0.77918601 174 174 174
0.09504458 0.20672000 0.79009885 166 163 161
0.09321874 0.21232213 0.80507445 149 148 148
0.08111374 0.22359801 0.67003133 155 156 155
0.09486180 0.37795462 1.72933277 150 150 149
0.08656209 0.37860671 1.74265254 147 147 145
0.09279946 0.38245797 1.73553050 156 156 156
0.08959630 0.38835042 1.75167186 148 147 149
0.08951014 0.39400928 1.77128849 144 143 145
0.08432223 0.39839713 1.79099876 145 145 147
0.08814831 0.40394789 1.77458596 136 135 136
0.08501380 0.40821186 1.79079959 162 161 158
0.08454560 0.42117907 1.79574311 144 143 144
0.08666926 0.42711067 1.80771160 131 131 135
0.11008108 0.15963963 0.57775079 168 168 161
0.10939325 0.16459444 0.57701140 146 145 144
0.11415736 0.17934448 0.77033162 143 137 139
0.10347544 0.17191102 0.81571469 170 168 166
0.10758074 0.17240855 0.82254477 159 157 158
0.11964918 0.17965382 1.15878952 183 181 175
0.11938813 0.17491760 1.16277162 144 141 143
0.10946562 0.19083063 0.77494004 156 154 152
0.10319808 0.19692893 0.78258949 172 171 169
0.11855348 0.19893917 1.13550572 160 160 160
0.11869477 0.19402901 1.15600372 154 152 155
0.11865028 0.19039423 1.16077375 160 157 156
0.10856942 0.20185972 0.77799529 138 137 138
0.10490752 0.20739813 0.78817830 132 132 135
0.10362826 0.21569852 0.80373642 126 126 128
0.11555142 0.20242335 1.13816836 156 154 153
0.11684735 0.20031576 1.15091991 165 166 167
0.13900380 -0.14565343 0.51214471 102 107 118
0.13964059 -0.13446245 0.50498153 101 108 119
0.13620039 0.03227122 0.64777956 141 140 142
0.13565889 0.04301010 0.64547103 140 141 144
0.13485657 0.15827167 1.14897249 128 128 135
0.13032875 0.17160200 1.13931406 144 144 145
0.12992788 0.17055580 1.14906789 140 139 141
0.12005964 0.17022142 1.16276479 109 108 116
0.13272278 0.18456531 1.13359845 141 142 148
0.12573622 0.18829575 1.15137896 141 139 141
0.13213697 0.32989683 1.75360505 179 177 177
0.13420818 0.33353855 1.76719421 179 177 177
0.13174261 0.35149840 1.74265254 176 174 171
0.13408752 0.34824604 1.77368109 177 176 174
0.13201125 0.35119263 1.78706388 170 169 169
0.14145514 -0.14603138 0.51042544 103 108 119
0.14528783 -0.13414167 0.50422806 101 107 116
0.14405534 0.03252173 0.64956797 155 153 152
0.14561794 0.04334747 0.64784048 146 145 148
0.14490112 0.15727304 1.14826345 130 129 135
0.14892587 0.17441162 1.13767827 170 169 168
0.14478433 0.16896231 1.14648047 160 160 162
0.14916394 0.18592905 1.13669436 146 144 147
0.14614294 0.18423716 1.14597361 156 153 154
0.14943066 0.31454539 1.73818421 161 161 160
0.14878295 0.31599218 1.74828129 162 160 159
0.14476870 0.31567273 1.76689577 173 173 172
0.14831401 0.32398164 1.75347838 161 158 157
0.14837229 0.33048850 1.77026178 167 164 163
0.15685921 0.33604071 1.78863287 152 147 148
0.14210499 0.34404054 1.77807927 179 177 175
0.14595459 0.34508517 1.78746232 172 169 168
0.17183027 0.16754502 0.67488638 158 157 155
0.16602552 0.16750213 0.68776709 157 157 158
0.16308972 0.17151333 0.70030147 164 164 162
0.17656571 0.23690562 0.65218436 164 164 164
0.17037454 0.24706402 0.65660846 150 150 147
0.16626098 0.25715718 0.66483985 143 142 139
0.16723923 0.26487515 0.67045687 154 151 145
0.16286785 0.26767623 0.68164104 177 178 168
0.16445222 0.31454539 1.73818421 149 140 143
0.16378721 0.31767488 1.74715555 151 143 146
0.16269945 0.32001135 1.75165856 156 151 152
0.16483245 0.32624628 1.77459407 157 153 153
0.16838696 0.33093993 1.79074143 145 140 141
0.17296209 0.33724464 1.80611332 155 150 150
0.16079926 0.34093133 1.79812157 151 152 151
0.16921050 0.34680465 1.81255916 166 163 161
0.17187429 0.35074118 1.82327230 175 174 170
0.19026904 0.07913475 1.00927170 125 124 135
0.19250399 0.08758388 0.99950068 117 117 124
0.19246695 0.08926664 1.00403575 120 121 129
0.18474336 0.23313243 0.64893558 162 162 158
0.18517823 0.24169797 0.65547107 172 171 165
0.20621531 0.08995073 0.99816581 131 131 138
0.20081067 0.08711062 1.00258761 122 123 128
0.21196251 0.15741598 0.49668977 156 156 156
0.21372151 0.16168590 0.49772254 173 172 166
0.20991925 0.16700637 0.51493060 155 155 152
0.20722855 0.17213093 0.52104241 143 141 139
0.21933320 0.16466871 0.68198512 162 162 162
0.21499048 0.18057975 0.51945751 147 147 145
0.21170424 0.18196306 0.52145736 154 154 151
0.23262283 0.15831052 0.69514697 147 147 148
0.23050527 0.16702836 0.67959100 170 167 161
0.22919253 0.16444572 0.68923128 168 167 164
0.23833774 0.29799566 1.72931588 176 175 175
0.23955999 0.30252814 1.73818421 179 176 177
0.23900703 0.30566317 1.75619650 180 174 176
0.23292758 0.31439137 1.77459569 162 158 162
0.23572402 0.33146247 1.79423411 130 131 134
0.23289891 0.33872190 1.80290389 143 143 142
0.23566385 0.34730076 1.81047727 135 136 139
0.25308596 0.12575126 0.45184235 166 165 160
0.25743888 0.19270433 0.93534966 163 163 165
0.25504197 0.19760548 0.94546239 131 131 137
0.25316240 0.21227312 0.93847612 147 147 147
0.25282253 0.20728872 0.94984895 159 159 157
0.24496672 0.20881881 0.96368502 166 166 165
0.25609243 0.28771996 1.66968429 178 175 173
0.25462666 0.29106445 1.69192610 181 179 176
0.25346212 0.29313508 1.70539099 180 179 175
0.25164257 0.29624999 1.72493804 184 184 178
0.25531403 0.30265374 1.71618187 179 173 169
0.25407560 0.30975982 1.72932941 165 160 159
0.24745629 0.31135030 1.74901794 169 165 165
0.24548023 0.31485809 1.76350920 165 161 162
0.25814554 0.32400809 1.73522059 124 124 130
0.25642163 0.33010748 1.74780216 138 138 141
0.24935003 0.32710324 1.77439928 146 144 144
0.24626439 0.33294481 1.78864625 132 132 137
0.25855938 0.34387019 1.76534331 173 174 171
0.25119153 0.34499729 1.79156918 145 147 150
0.24224743 0.34183806 1.80290389 133 133 135
0.27580246 0.13392283 0.58604700 167 167 166
0.26940740 0.19544102 0.93631804 174 174 173
0.26734696 0.19739201 0.94358326 169 169 169
0.26836338 0.20811787 0.93647336 179 179 177
0.26680328 0.20612043 0.94715017 166 166 165
0.26524792 0.31002801 1.71556277 150 145 146
0.26427014 0.31606090 1.72305860 137 134 137
0.28713473 0.13430754 0.59042390 176 176 172
0.28110382 0.19967079 0.94151646 166 162 159
0.28165883 0.20146296 0.94611979 164 163 160
0.28478341 0.24926419 0.68939191 149 145 141
0.28743089 0.25588465 0.70431482 146 142 139
0.29170004 0.26027736 0.69813782 156 156 150
0.29259496 0.26593803 0.71030194 162 163 157
0.29481881 0.27547585 0.72854816 164 165 162
0.28885888 0.29214278 0.71641961 142 136 133
0.29130725 0.29030239 0.73181070 160 159 155
0.29106242 0.29014868 0.74323864 154 155 154
0.31007842 0.07289266 0.47710242 145 146 144
0.31807800 0.07384925 0.48034867 136 139 135
0.31971002 0.08035408 0.48077434 144 140 136
0.31489189 0.13911032 0.75521918 170 170 169
0.31025177 0.13845400 0.76865646 140 137 139
0.31305288 0.13572016 0.78468163 150 150 150
0.31540930 0.14784239 0.75553515 155 155 155
0.31028893 0.14616425 0.76542045 148 147 146
0.31844966 0.16135376 0.76353844 171 170 167
0.32666025 -0.26006395 0.49122596 106 115 115
0.32753339 -0.25205562 0.49312300 105 113 113
0.32734765 0.05963080 0.75911790 160 160 160
0.33303378 0.05285633 0.76253388 155 153 152
0.32642709 0.06424559 0.75738701 136 137 141
0.32446593 0.06403879 0.76082134 121 123 126
0.32336283 0.15079319 0.75279795 168 167 164
0.32201670 0.15815175 0.76124880 159 159 156
0.32881639 0.17909150 0.50341181 130 130 131
0.32186204 0.16096894 0.76150564 171 171 168
0.32887883 0.18325988 0.50377372 147 147 141
0.34159344 0.05428849 0.76236253 152 151 151
0.39916084 0.13770326 0.48711699 173 174 166
0.39988673 0.14041476 0.48734137 173 174 165
0.41860856 -0.46861604 1.21052885 103 112 116
0.41828476 -0.45820710 1.21160388 107 111 118
0.40371087 0.13340049 0.48844380 161 162 156
0.41228855 0.12799926 0.50139928 154 154 152
0.40188473 0.14081971 0.48874682 172 173 164
0.43030435 -0.46827536 1.21506468 105 111 115
0.42893595 -0.45810620 1.21505404 105 110 115
0.43849732 -0.45767284 1.22418866 107 109 116
0.43200964 0.13002205 0.55613193 148 146 141
0.43084342 0.13518009 0.56422625 145 144 139
0.43193432 0.14256294 0.56693933 166 167 161
0.43774500 0.15462648 0.81307933 174 174 168
0.43405563 0.15604224 0.83031212 161 160 159
0.43809366 0.15201078 0.84001470 154 150 148
0.43883220 0.17730907 0.58807099 166 168 162
0.43655482 0.16254340 0.81281996 150 149 147
0.43694345 0.16262383 0.83041103 170 169 166
0.43812790 0.18336877 0.58893870 172 173 165
0.44448737 -0.46225480 1.21813646 105 110 114
0.44961186 -0.45684294 1.21704298 105 110 115
0.44576689 -0.45741687 1.22615961 107 109 117
0.44418923 -0.26219924 0.45222047 109 119 118
0.44756700 -0.25396601 0.45114501 108 117 117
0.44024995 0.15636304 0.81969994 169 169 165
0.44062561 0.15640251 0.82589935 173 174 168
0.44034906 0.17815311 0.59170236 159 160 158
0.44024995 0.16179404 0.81969994 155 153 151
0.44067282 0.16228595 0.82580778 158 155 153
0.44075583 0.18698139 0.59807881 171 172 163
0.44338359 0.19452727 0.60455898 169 169 163
0.44877612 0.20369734 0.61396144 144 146 144
0.45617535 0.20763772 0.63111642 156 156 151
0.45375744 0.47758079 1.25768435 169 167 160
0.45411354 0.47368918 1.26473019 167 165 159
0.45964307 0.47400400 1.28632224 172 172 167
0.45569170 0.47852749 1.32659853 159 160 160
0.45606063 0.48386718 1.27425373 156 156 152
0.45877254 0.48309219 1.28388608 158 159 152
0.45838456 0.48481727 1.33443791 159 161 159
0.45747083 0.49579354 1.34702900 151 149 151
0.45833096 0.50417103 1.35128246 145 140 141
0.46095552 0.47535425 1.28999519 171 171 164
0.46536723 0.47884670 1.30867147 174 175 171
0.46390891 0.46843681 1.33706474 175 175 167
0.47132727 0.47617549 1.34670009 166 166 161
0.46149670 0.48710750 1.29308012 154 154 148
0.46451465 0.48862099 1.30819455 155 154 150
0.46825986 0.49216477 1.33250331 161 161 156
0.46819969 0.49191189 1.34795921 162 163 161
0.47084200 0.50497163 1.33489029 131 131 131
0.46853318 0.50618512 1.34939419 133 132 132
0.49370478 0.07839693 0.53926849 116 117 117
0.49473373 0.07491077 0.54526512 120 123 124
0.49231017 0.08134418 0.53972280 135 136 137
0.49129395 0.08120910 0.54193583 124 125 126
0.50042433 0.07500456 0.54449141 102 109 109
0.51915661 0.09710571 1.41522926 150 151 151
0.51643612 0.11381808 1.41018970 153 153 153
0.51914108 0.10666495 1.42864615 168 168 167
0.51578878 0.22430368 0.61508265 160 161 150
0.51975429 0.24667511 0.61907929 113 113 110
0.51900127 0.24722933 0.62408459 135 135 131
0.53881903 -0.32463124 0.76880346 102 111 112
0.53080738 0.09492656 1.43411291 142 141 141
0.53705160 0.09024804 1.44471641 154 153 152
0.52572914 0.11292710 1.41424847 154 153 153
0.52935613 0.10580153 1.42990772 163 164 161
0.52925187 0.23772068 0.62919121 146 143 136
0.52635331 0.24773173 0.61915785 124 125 121
0.53005235 0.24504891 0.62499920 125 125 122
0.54866378 -0.32279360 0.77358424 100 111 113
0.55172966 -0.30997040 0.77178363 102 109 111
0.55447650 -0.29884760 0.77016073 101 105 108
0.54169538 0.09518929 1.43804114 144 144 145
0.54673230 0.09005648 1.44609128 142 141 142
0.54261064 0.10425973 1.43520371 154 154 154
0.54159262 0.23933697 0.62936051 144 145 134
0.54236072 0.23887458 0.64072955 160 161 144
0.54175361 0.24446769 0.62587791 151 154 144
0.55156615 0.24226922 0.65347645 171 173 156
0.56076950 0.24620055 0.66656029 180 182 168
0.61831325 0.11928471 0.81723215 126 127 129
0.61951399 0.11872566 0.82069230 133 134 136
0.61363181 0.12381889 0.81606167 146 147 144
0.61951399 0.12298117 0.82069230 143 146 145
0.63167426 0.10994251 0.81007696 124 128 127
0.62749087 0.12384864 0.81707661 139 141 141
0.63115260 0.12898130 0.82583513 140 142 141
0.63218844 0.14045514 0.83176911 172 172 169
0.63844582 0.17727635 0.65711964 137 139 135
0.63581514 0.19239023 0.63693029 164 165 154
0.63753790 0.18699320 0.65661745 153 154 147
0.64115366 0.12902673 0.83690351 146 148 148
0.64320996 0.13539836 0.84053579 160 161 158
0.64279721 0.17778791 0.65853192 143 145 140
0.64135095 0.17824137 0.66232984 136 138 135
0.64456739 0.18791293 0.65239123 148 149 141
0.64891479 0.19339534 0.66403689 150 151 145
0.65790253 0.20526859 0.67269328 160 161 152
0.65784842 0.45316356 1.01269171 135 135 131
0.66095398 0.20776220 0.67507014 154 155 146
0.66957523 0.45749339 1.01891524 114 114 112
0.67479537 0.45508859 1.02432811 156 157 152
0.66831481 0.46002254 1.02092147 5 5 5
0.69021487 0.43994957 1.01938617 164 164 160
0.68670639 0.44356709 1.01680371 161 162 159
0.68913680 0.45247695 1.02956729 146 147 145
0.69785893 0.44761103 1.04130852 158 159 159
0.68954968 0.46221091 1.03291618 126 126 126
0.77707976 0.41857320 1.21268666 155 155 146
0.77847070 0.42199071 1.21650162 159 158 150
0.77804853 0.42418931 1.22458094 171 170 161
0.79484646 0.39881660 1.21850030 158 158 150
0.78784441 0.41457877 1.21665298 145 146 143
0.79398951 0.41161838 1.22315461 159 160 157
0.78506190 0.42122054 1.21791658 132 133 127
0.78330462 0.43078147 1.22654720 162 161 150
0.81882542 0.23588058 1.14780405 156 155 149
0.81707102 0.24010119 1.15091991 169 168 164
0.80246121 0.39980817 1.22584414 147 147 145
0.80974745 0.41105929 1.22907367 161 161 156
0.81274753 0.42220277 1.23157369 160 161 156
0.83082564 0.23802838 1.15411983 151 151 147
0.82980389 0.25083620 1.15565024 162 162 156
0.83336484 0.25106606 1.16176965 154 154 150
0.83382726 0.26087976 1.15484130 175 176 165
0.82047343 0.40773228 1.23702896 128 128 128
0.82336542 0.42629449 1.23815966 160 161 156
0.83550130 0.42613583 1.24920340 166 166 158
0.84011692 0.23814425 1.16077375 153 152 148
0.84068370 0.25075585 1.15878952 168 168 164
0.85021023 0.24736187 1.16822618 165 165 161
0.84833942 0.41861705 1.26178402 124 125 126
0.84750389 0.42825559 1.25449847 141 141 137
0.84945817 0.42740027 1.26276570 143 143 141
0.85379925 0.44542393 1.27137649 157 158 149
0.86100066 0.24669772 1.17282331 180 180 173
0.86254585 0.41991237 1.27066016 147 146 144
0.86775078 0.42427897 1.27185656 150 150 146
0.87563293 0.43234169 1.28340251 144 144 143
0.86329526 0.44726610 1.27663696 157 158 149
0.87049890 0.45471418 1.29025187 160 160 151
0.89423400 0.35390769 0.99544448 159 158 147
0.89362308 0.36337308 0.99310071 167 168 157
0.88171393 0.42782666 1.29123348 153 152 142
0.91007866 0.36931078 1.01413718 163 163 152
0.91753534 0.36524226 1.02401205 158 157 148
0.91094756 0.38068293 1.01404971 182 182 170
0.91604641 0.38178577 1.02169138 180 181 168
0.93326885 0.35907166 1.04291058 170 172 163
0.92754122 0.36774236 1.03507755 158 158 149
0.93351161 0.37036734 1.04582687 156 156 146
0.93040603 0.38223046 1.03971136 171 171 160
0.93650958 0.38276465 1.04855722 161 162 152
0.94431119 0.36419036 1.04744200 166 168 159
0.95105135 0.37238690 1.06819689 161 162 154
0.97011933 0.05690686 0.93716101 122 129 128
0.96823276 0.05781481 0.94077075 118 123 122
0.97311731 0.06317010 0.93836729 131 134 134
0.97338282 0.06707277 0.94215895 135 137 136
0.96036577 0.37444919 1.07944560 157 158 151
0.96763115 0.37556678 1.08813694 165 166 160
0.97717214 0.37984157 1.10047376 162 163 156
0.97025605 0.38117045 1.09339098 161 161 154
0.96147296 0.41252740 1.61595428 179 180 171
0.96981081 0.41444606 1.62760085 178 178 170
0.97000122 0.42083737 1.63741994 179 180 170
0.97423077 0.42105839 1.64937186 185 185 176
0.98713620 0.07380733 0.93761085 149 149 146
0.98834088 0.07225159 0.94439367 149 150 148
0.99326533 0.08195020 0.94766158 167 170 162
0.98810256 0.38676661 1.11495364 161 162 155
0.99629575 0.38803053 1.12419879 163 164 158
0.99112982 0.41062799 1.57649267 172 172 165
0.99708160 0.41251040 1.58971831 165 165 160
0.99209688 0.41591261 1.61107063 141 138 135
0.99007867 0.41161299 1.63054552 143 139 136
0.99144686 0.40961052 1.64595250 151 147 143
0.99862480 0.40692380 1.66149962 149 143 141
0.99327167 0.42670418 1.61248610 125 125 127
0.98947841 0.42785971 1.63062302 137 135 133
0.98967657 0.43042809 1.64377499 152 146 140
1.00515521 0.39847668 1.59880149 158 159 153
1.00700724 0.39929434 1.60765668 153 152 147
1.01279008 0.39969401 1.62434979 157 153 149
1.01556084 0.39896470 1.64938647 174 171 164
1.00121254 0.41180700 1.59692055 166 167 162
1.00576034 0.40971600 1.61040155 165 165 160
1.00933663 0.41060475 1.62836848 158 157 152
1.01065451 0.40688450 1.64783129 156 154 147
1.01237458 0.40554851 1.66765332 162 161 153
1.00357500 0.43209674 1.61197647 137 138 139
1.00320429 0.42586439 1.63260598 136 136 135
1.00781244 0.42469335 1.64138460 155 156 150
1.00596440 0.44098282 1.61788034 136 137 138
1.00685298 0.44197430 1.62565117 127 129 130
1.02145284 0.39634439 1.64737511 169 166 160
1.02377403 0.40385649 1.63741994 147 143 140
1.02507194 0.40264555 1.64404058 153 148 144
1.03595781 0.40405202 1.66149962 159 153 151
1.05522692 0.39132893 1.21922994 134 126 122
1.05712819 0.39414516 1.22142673 120 116 113
1.04106104 0.40315652 1.66968429 148 143 141
1.07211102 0.39645073 1.23135629 141 139 134
1.07190745 0.40263709 1.23638747 132 133 130
1.07796931 0.40773713 1.24751348 121 121 122
1.07116544 0.43267617 1.51993692 119 119 119
1.07484837 0.43184701 1.52816517 126 126 125
1.07778347 0.43325049 1.54066324 126 126 123
1.08294624 0.39526320 1.23324259 155 155 148
1.09386683 0.39635018 1.24156010 156 157 150
1.08511484 0.40653362 1.23526669 165 166 158
1.08983835 0.41211364 1.24901834 146 149 145
1.09260122 0.41752850 1.26178510 126 128 128
1.08586433 0.42659638 1.23345141 160 161 155
1.09625807 0.43419420 1.25052824 155 155 148
1.09647784 0.42465916 1.27006468 126 126 126
1.08065331 0.43226805 1.53716969 124 124 124
1.08786210 0.42807174 1.55149550 133 132 130
1.09585706 0.43092812 1.56816820 142 140 136
1.11295962 -0.38123348 1.13518182 93 104 105
1.11417053 -0.37568129 1.13322055 93 103 105
1.10496634 0.41846054 1.25477514 154 157 151
1.10577679 0.41966662 1.26002204 153 156 152
1.10923359 0.40391667 1.58758613 182 183 174
1.10364101 0.42589455 1.25484726 156 157 154
1.10530681 0.42781243 1.26537642 142 144 142
1.11420648 0.43491720 1.28878896 132 133 132
1.10045314 0.43175872 1.56922770 139 139 135
1.11204704 0.42901500 1.58572568 149 148 143
1.10741874 0.44238739 1.27107787 147 147 142
1.11890370 0.44245940 1.28510416 145 145 143
1.12605844 -0.38217076 1.13467304 94 104 105
1.12817048 -0.37314361 1.13353763 91 101 104
1.13763285 -0.36551318 1.14123201 93 104 106
1.13280469 0.41032226 1.60966358 178 179 170
1.13347860 0.41313960 1.62564615 171 173 164
1.12293118 0.43954350 1.29616505 136 137 135
1.12152135 0.43644679 1.30363810 130 130 130
1.12517900 0.43275121 1.59579551 151 151 146
1.13383214 0.43070854 1.61085461 172 171 162
1.12482643 0.44336952 1.29533581 141 142 139
1.12985811 0.44506004 1.30742043 137 138 136
1.12685049 0.44302788 1.59503961 137 140 138
1.14552295 -0.38326591 1.14123201 99 108 109
1.14162850 -0.36391425 1.13931406 86 101 102
1.14350307 -0.36810541 1.14315653 91 103 105
1.14327816 0.40969323 1.61266162 170 170 163
1.14769480 0.41252561 1.62600369 171 172 165
1.15013798 0.42761930 1.61543233 170 170 162
1.15094536 0.42858043 1.62956592 176 176 167
1.15273144 0.43066835 1.64577858 178 178 169
1.15654109 0.43653462 1.66490155 173 173 165
1.14807228 0.45432690 1.33182478 137 138 137
1.15940118 0.45676431 1.35038221 136 137 137
1.15417230 0.44517739 1.61788034 162 164 160
1.15966944 0.45204583 1.63086287 154 157 152
1.15660894 0.44030583 1.65743732 174 175 164
1.16490245 0.42999016 1.63068310 166 165 159
1.16526592 0.43604136 1.64138460 177 176 166
1.16512299 0.43995476 1.67795014 174 175 166
1.16318104 0.45088464 1.63347909 159 162 156
1.17201474 0.45058493 1.64788526 159 160 158
1.16513109 0.44375473 1.67587858 170 171 161
1.17677426 0.45021272 1.69472957 161 162 152
1.16403878 0.46093473 1.35578370 138 139 138
1.17579953 0.46748124 1.37040253 138 138 137
1.18621139 0.45271972 1.65743732 168 169 166
1.19103324 0.45430796 1.66149962 166 168 165
1.18058479 0.46366668 1.37782896 132 133 133
1.19151390 0.47397393 1.39058393 141 141 139
1.21839571 0.40185679 1.44232309 154 154 151
1.21332121 0.49180266 1.43926084 173 174 165
1.21557709 0.49174415 1.44787705 172 173 164
1.22741783 0.39975977 1.43926084 147 147 145
1.22922072 0.39877360 1.44810903 140 140 139
1.22327173 0.40224740 1.43926084 154 154 151
1.22608525 0.40305271 1.44773623 153 154 151
1.23635948 0.40685472 1.47004225 150 151 147
1.23726189 0.47630795 1.47408272 168 168 157
1.22218466 0.49240176 1.45574633 173 174 165
1.23241626 0.48953503 1.47095365 165 165 156
1.23752737 0.48785433 1.48011315 176 177 165
1.22141767 0.50066823 1.45783186 175 176 167
1.22675633 0.50338025 1.46572065 175 176 167
1.24548844 0.37855092 1.47288918 177 177 167
1.25761819 0.39148930 1.47367787 177 178 169
1.25219945 0.39179423 1.48336460 169 172 163
1.24786268 0.40439557 1.47119780 145 145 143
1.25273799 0.40420057 1.48989902 151 153 146
1.25952792 0.40539655 1.50642633 150 155 147
1.24504197 0.47530439 1.47688854 169 170 158
1.24548077 0.47208864 1.48817985 163 164 155
1.25412469 0.47447354 1.50874507 158 158 149
1.25788200 0.47840932 1.52335250 172 169 159
1.24417977 0.48911473 1.48751819 170 170 160
1.25642163 0.48757035 1.50897262 170 171 160
1.25788200 0.48104233 1.52335250 168 168 157
1.24429223 0.50699371 1.49128691 173 174 165
1.25566974 0.50983259 1.50726509 171 173 164
1.26035810 0.39234222 1.47688854 175 176 167
1.26759670 0.39328275 1.49141515 175 176 167
1.26271248 0.40931925 1.47367787 145 144 142
1.26780093 0.40330282 1.48989377 156 157 151
1.26567626 0.40569751 1.50754468 157 160 153
1.26259270 0.47565240 1.52506799 164 162 153
1.26422139 0.48940962 1.51937020 170 171 161
1.26674016 0.49167337 1.52747586 170 171 161
1.26404929 0.50641274 1.51653659 174 175 166
1.27302639 0.51255751 1.53100967 173 174 164
1.26273870 0.52214000 1.51653659 171 172 163
1.26969580 0.52401341 1.52965552 165 167 159
1.29704640 0.15507003 1.41289377 127 132 131
1.29469997 0.16209755 1.41670340 132 133 133
1.28222454 0.39753881 1.49644995 178 179 168
1.28246915 0.40101054 1.49976075 175 176 167
1.29370648 0.40645491 1.51035553 170 171 161
1.28415008 0.51420038 1.54653384 177 178 169
1.29815435 0.52143335 1.56557012 178 179 170
1.30898545 0.15259385 1.41375439 122 130 128
1.31319803 0.14992193 1.42599520 130 132 132
1.30423844 0.16699053 1.42714071 135 136 136
1.31362259 0.41419559 1.52808560 167 168 161
1.31036631 0.52397392 1.58139809 175 176 167
1.33052480 0.15287637 1.41523294 129 136 135
1.33079700 0.14981387 1.42618648 132 136 136
1.32208776 0.41538489 1.53369200 171 172 163
1.34460774 0.14597841 1.42915386 136 138 138
1.55275238 0.37372530 1.39771509 163 163 156
1.55864131 0.37391343 1.40447342 161 162 154
1.54967256 0.39414995 1.39412902 164 164 156
1.55696262 0.38790737 1.40314332 165 167 159
1.57304025 0.35713729 1.41818380 149 150 147
1.56966317 0.37855697 1.39771509 157 157 151
1.57085495 0.37717710 1.40703344 158 159 151
1.57854569 0.36659059 1.42314728 157 158 151
1.56964318 0.38811214 1.40946978 164 165 158
1.57718813 0.39432986 1.42414248 159 160 156
1.58943319 0.35645930 1.43519942 156 158 153
1.59762498 0.35433007 1.44334817 157 159 153
1.58734028 0.37096936 1.43290377 159 160 152
1.59754989 0.36833372 1.44478328 157 158 154
1.58652186 0.38900310 1.41818380 166 167 158
1.58610364 0.38946577 1.42590198 164 165 159
1.59823000 0.38147846 1.44539833 162 163 155
1.59652972 0.40477948 1.44386071 164 165 156
1.60507953 0.35551123 1.45159296 158 161 152
1.60164499 0.37394829 1.44848680 161 162 154
1.60301685 0.39214219 1.44972749 165 165 160
1.60250241 0.40629175 1.44926223 162 163 156
1.69283026 -0.58247852 1.81375989 93 105 105
1.69494349 -0.58363011 1.83214679 92 104 104
1.69937944 -0.58998597 1.84209740 93 104 106
1.69326732 -0.57660276 1.81255153 94 105 107
1.69510639 -0.57679333 1.82721059 91 103 103
1.69937944 -0.57725030 1.84209740 88 102 103
1.68778086 0.62875426 1.81254506 169 171 152
1.70371437 -0.58285204 1.82969761 93 105 106
1.70447608 -0.58440435 1.84763241 91 102 103
1.70920828 -0.58220883 1.86674987 91 100 102
1.70891500 -0.56957655 1.83258347 93 103 105
1.71158527 -0.57035077 1.85027902 91 103 105
1.70839727 -0.57715589 1.86234021 91 100 104
1.71028852 -0.55625592 1.83586398 93 101 104
1.71595655 -0.55626998 1.85126097 94 103 107
1.72548759 -0.57279278 1.84209740 94 102 103
1.72017646 -0.54710829 1.83710527 94 102 106
1.72492760 -0.55276015 1.85073143 94 101 106
1.72681488 -0.55198612 1.86431563 94 101 105
1.73251907 0.65091580 1.86405035 170 170 153
1.75177348 0.65502536 1.88827813 175 176 160
1.75217168 0.66825631 1.89224139 168 167 152
1.75721113 0.67137633 1.91315063 171 172 161
1.76163340 0.65952051 1.92037344 179 181 165
1.76614442 0.67018504 1.90821350 171 172 156
1.77275399 0.67423042 1.92765796 173 175 163
1.76989639 0.68082625 1.91494870 167 164 147
1.77665129 0.68484059 1.92858025 164 163 150
1.77846682 0.68722296 1.94238353 162 164 154
1.79012382 0.67521650 1.93683386 176 178 162
1.78551265 0.67380846 1.94798349 176 177 164
1.79230882 0.68767570 1.95100027 168 168 157
1.79399246 0.69349268 1.96490383 161 163 154
1.79908669 0.70198315 1.96490383 150 150 140
1.80091059 0.67507237 1.97061586 177 178 163
1.80443716 0.68760993 1.95781341 170 169 158
1.80608562 0.68970093 1.97349674 170 171 161
1.81384540 0.68777784 1.98602649 174 175 166
1.80772700 0.70403053 1.97062912 155 153 143
1.81581408 0.71089527 1.98505485 148 148 139
1.82324100 0.71290827 1.97636104 150 146 140
1.82416611 0.71091911 1.99382021 152 151 143
1.98975004 0.36757773 1.79544894 155 155 149
1.98996778 0.36835945 1.80377802 160 160 152
1.99885297 0.38024342 1.80771160 170 171 164
2.00934476 0.35885115 1.81012833 156 156 147
2.00068069 0.36579460 1.79812157 139 139 133
2.01416516 0.36285252 1.80933996 153 154 146
2.01408768 0.36223590 1.82720172 158 158 149
2.00106454 0.38126013 1.81254506 171 172 165
2.03716326 0.35118657 1.80290389 167 168 159
2.03018300 0.36537533 1.80953060 151 152 144
2.03770518 0.36102393 1.83710527 159 159 151
2.04805708 0.34993175 1.81254506 169 170 161
2.04721355 0.35979879 1.84711671 159 160 150
2.04486465 0.36321491 1.83214009 152 153 144
2.04882288 0.36314604 1.85117071 159 159 150
2.05403590 0.36487329 1.86490542 162 162 153
2.06953168 0.35871266 1.86920444 160 161 152
2.06507170 0.36370707 1.83462268 151 152 143
2.06711125 0.36458106 1.85290420 154 155 147
2.06992374 0.36217124 1.87117178 162 163 154
2.09199805 0.36541505 1.87263513 154 155 148
2.10587147 0.36508546 1.87189652 157 158 152
2.10817575 0.37004954 1.88303292 152 153 144
