ply
format ascii 1.0
element vertex 1074
property float x
property float y
property float z
property uchar red
property uchar green
property uchar blue
end_header
-0.13024512 -0.41005948 1.01472809 98 112 123
-0.13024432 -0.38988771 1.01472213 98 110 124
-0.13024487 -0.36971970 1.01472639 97 110 125
-0.13024368 -0.34954711 1.01471713 97 109 125
-0.13024191 -0.33025022 1.01470365 96 107 125
-0.13023616 -0.31006758 1.01465881 97 106 126
-0.13022628 -0.28987741 1.01458172 96 106 126
-0.13021641 -0.26969022 1.01450493 94 105 126
-0.13021234 -0.24951733 1.01447331 94 104 126
-0.13021042 -0.23022605 1.01445824 92 103 125
-0.13020452 -0.21005245 1.01441213 89 103 125
-0.13018802 -0.18986530 1.01428377 88 102 125
-0.13015886 -0.16966674 1.01405685 89 102 126
-0.13011767 -0.14946341 1.01373575 71 75 90
-0.13007544 -0.13014697 1.01340585 57 59 69
-0.13004501 -0.10997799 1.01316858 55 56 67
-0.12999421 -0.08980479 1.01277343 55 56 66
-0.12992162 -0.07050997 1.01220844 57 58 69
-0.12993460 -0.05003566 1.00934076 107 110 123
-0.12995544 -0.02296963 0.99901983 161 161 162
-0.12989612 -0.03273686 1.00286674 152 151 156
-0.13001657 -0.00985985 0.99391229 160 159 159
-0.13002090 0.01057774 0.98586803 146 145 146
-0.12968158 0.03318502 0.97677929 141 142 145
-0.13013013 0.02322087 0.98081233 128 128 135
-0.13025249 0.05065835 0.96959087 128 129 135
-0.13052586 0.07655935 0.95881317 129 130 135
-0.12972798 0.06693468 0.96285063 128 129 134
-0.12987150 0.09019720 0.95301477 130 131 136
-0.13011177 0.11041185 0.94428115 130 131 135
-0.13008164 0.13032364 0.93554205 131 132 136
-0.12992553 0.15023826 0.92670512 139 139 143
-0.12999341 0.17300727 0.91636703 185 185 185
-0.13036012 0.16265921 0.92114187 150 150 153
-0.12999104 0.19028346 0.90834208 198 198 194
-0.12979148 0.21407469 0.89722680 201 201 197
-0.13015425 0.20427865 0.90178040 201 200 197
-0.12998051 0.23017593 0.88968072 200 200 197
-0.12985580 0.25589262 0.87745316 203 204 197
-0.13002084 0.24581608 0.88229088 200 201 196
-0.12999805 0.27051607 0.87049510 202 203 195
-0.13005942 0.29630511 0.85833388 203 203 195
-0.13006169 0.28658415 0.86286941 201 202 195
-0.13001638 0.30962139 0.85228150 202 203 194
-0.13031898 0.33929196 0.83998100 201 202 193
-0.13000336 0.32913360 0.84393980 203 204 195
-0.12983851 0.35000315 0.83634242 201 202 193
-0.13037983 0.37035760 0.83140582 17 17 16
-0.12994373 0.39042110 0.82834071 0 0 0
-0.12964920 0.41060670 0.82550374 0 0 0
-0.13037925 0.43033188 0.82269508 0 0 0
-0.13026677 0.45426382 0.81904079 0 0 0
-0.12966319 0.44457910 0.82062227 0 0 0
-0.12967431 0.46238865 0.81761341 0 0 0
-0.10963542 -0.66075361 0.97946686 0 0 0
-0.11095924 -0.65586100 0.97974537 0 0 0
-0.10890239 -0.64653723 0.98048404 0 0 0
-0.10989715 -0.63008538 0.98180503 0 0 0
-0.11009886 -0.60999101 0.98360770 0 0 0
-0.11034914 -0.59007723 0.98584436 0 0 0
-0.11003680 -0.57004012 0.98846460 0 0 0
-0.11018024 -0.55013033 0.99166603 0 0 0
-0.10977455 -0.53222297 0.99543823 4 5 5
-0.10980065 -0.52529085 1.01199994 104 118 121
-0.11003991 -0.51032548 1.01373061 104 117 123
-0.10993669 -0.49035091 1.01406887 103 115 122
-0.11003567 -0.47039733 1.01436022 103 114 122
-0.11005063 -0.45029627 1.01449796 100 113 122
-0.11005962 -0.43016657 1.01458080 100 112 123
-0.11006450 -0.41001815 1.01462588 100 111 123
-0.11006493 -0.38985228 1.01462992 98 110 123
-0.11006598 -0.36968806 1.01463957 98 109 126
-0.11006688 -0.34952338 1.01464835 99 108 124
-0.11006692 -0.33023236 1.01464872 95 108 124
-0.11006068 -0.31004687 1.01459108 97 106 125
-0.11005425 -0.28986328 1.01453236 95 105 124
-0.11004685 -0.26967942 1.01446435 94 105 125
-0.11004424 -0.24950922 1.01444030 95 104 126
-0.11004258 -0.23021851 1.01442505 93 103 126
-0.11003732 -0.21004510 1.01437657 91 101 125
-0.11002381 -0.18985935 1.01425213 90 101 124
-0.11000090 -0.16966406 1.01404118 90 101 125
-0.10996326 -0.14945735 1.01369364 70 75 89
-0.10992068 -0.13013351 1.01330063 57 58 67
-0.10989386 -0.10996545 1.01305319 55 55 65
-0.10985425 -0.08979718 1.01268854 54 55 64
-0.10979720 -0.07050673 1.01216300 57 57 67
-0.10999942 -0.05048986 1.00951349 106 108 122
-0.11009457 -0.02296887 0.99898688 161 160 162
-0.10998371 -0.03245024 1.00273865 157 157 160
-0.10988054 -0.01019787 0.99396741 156 154 154
-0.11013307 0.01070887 0.98569042 142 142 143
-0.10950610 0.03263066 0.97683674 133 134 139
-0.11081194 0.02281241 0.98083648 132 133 137
-0.11019170 0.05058676 0.96945713 127 128 134
-0.11062268 0.07654802 0.95867129 131 133 138
-0.10953356 0.06694049 0.96268840 137 137 141
-0.10995803 0.09007298 0.95291133 127 129 134
-0.11013238 0.11031295 0.94419912 132 132 137
-0.10992832 0.13064623 0.93528088 138 139 141
-0.11000066 0.14994517 0.92666663 178 179 179
-0.10993097 0.17205841 0.91659315 197 197 194
-0.11028497 0.16193299 0.92124647 195 195 191
-0.11007244 0.19039517 0.90813532 201 200 195
-0.11027992 0.21368308 0.89734471 202 201 197
-0.10953165 0.20374547 0.90193392 201 200 196
-0.10993104 0.23018669 0.88960114 202 201 196
-0.10972002 0.25519785 0.87766957 202 203 196
-0.11022426 0.24511710 0.88251457 201 201 195
-0.11006839 0.27021526 0.87050264 203 203 196
-0.10973522 0.29589483 0.85836114 199 200 193
-0.11020610 0.28632088 0.86283822 201 202 194
-0.10992956 0.30970775 0.85207458 201 202 194
-0.10998996 0.33928194 0.83995620 202 203 194
-0.11015910 0.32933225 0.84374959 203 204 195
-0.10984134 0.35005439 0.83645676 196 197 188
-0.11036226 0.37049677 0.83182611 0 0 0
-0.11013187 0.39028633 0.82878788 0 0 0
-0.10958128 0.40993975 0.82604719 0 0 0
-0.11002379 0.43013039 0.82320069 0 0 0
-0.11029303 0.45549066 0.81921379 0 0 0
-0.11016013 0.44578543 0.82084818 0 0 0
-0.10993479 0.46257709 0.81794665 0 0 0
-0.09104849 -0.66100759 0.97984334 0 0 0
-0.08090454 -0.66114700 0.98005000 0 0 0
-0.09529105 -0.65880614 0.97992765 0 0 0
-0.08884630 -0.64945412 0.98068077 0 0 0
-0.08977425 -0.62989840 0.98225919 0 0 0
-0.08962540 -0.61013933 0.98409143 0 0 0
-0.09006063 -0.59026095 0.98637329 0 0 0
-0.09019669 -0.56978845 0.98907855 0 0 0
-0.09018377 -0.54973903 0.99232699 0 0 0
-0.09016401 -0.53268194 0.99594219 0 0 0
-0.08983610 -0.52592622 1.01136123 103 115 120
-0.08980244 -0.51031726 1.01355742 105 117 122
-0.08983614 -0.49035537 1.01393886 102 115 121
-0.08986373 -0.47034658 1.01425075 102 113 121
-0.08987557 -0.45024580 1.01438426 101 113 121
-0.08988316 -0.43011963 1.01447008 99 112 122
-0.08988775 -0.40997613 1.01452191 100 110 123
-0.08988855 -0.38981426 1.01453098 99 110 121
-0.08988945 -0.36965223 1.01454132 99 108 123
-0.08989295 -0.34950024 1.01458133 98 108 123
-0.08989301 -0.33021070 1.01458210 97 107 124
-0.08988810 -0.31002720 1.01452672 96 106 125
-0.08988408 -0.28984868 1.01448140 95 106 125
-0.08987927 -0.26966959 1.01442735 95 104 126
-0.08987729 -0.24950050 1.01440494 95 104 126
-0.08987590 -0.23021045 1.01438943 93 104 125
-0.08987101 -0.21003628 1.01433398 91 102 125
-0.08985974 -0.18985082 1.01420659 90 100 123
-0.08984324 -0.16966057 1.01402096 92 100 124
-0.08980982 -0.14945008 1.01364288 70 73 87
-0.08977068 -0.13012058 1.01319992 57 57 67
-0.08974902 -0.10995486 1.01295565 55 55 65
-0.08971938 -0.08979114 1.01262142 53 53 63
-0.08967586 -0.07050456 1.01213151 56 55 65
-0.08995245 -0.05003731 1.00931135 109 111 124
-0.09023495 -0.02296813 0.99895398 156 155 155
-0.08981326 -0.03265779 1.00277104 160 159 163
-0.09013578 -0.00975981 0.99370136 147 146 148
-0.08988107 0.01054450 0.98560509 139 139 142
-0.09017635 0.03250925 0.97670005 131 132 138
-0.08944617 0.02237427 0.98083586 129 131 137
-0.09006667 0.05057692 0.96926875 130 130 136
-0.09050686 0.07648715 0.95854445 132 132 137
-0.08944221 0.06687090 0.96254907 134 135 139
-0.09018085 0.09006023 0.95277599 130 130 136
-0.08815294 0.11972966 0.93993280 153 153 156
-0.08991504 0.10998354 0.94419719 132 132 138
-0.09013699 0.13043005 0.93523363 179 178 178
-0.08997469 0.15012635 0.92644218 197 196 193
-0.09013252 0.17229630 0.91638849 198 197 194
-0.08982713 0.16187483 0.92115387 199 198 195
-0.08988467 0.19022959 0.90818774 202 201 197
-0.09036752 0.21357236 0.89739455 201 201 195
-0.08988198 0.20370152 0.90196573 201 201 196
-0.08978832 0.23023026 0.88955976 202 201 198
-0.08989305 0.25513262 0.87761904 204 204 198
-0.09038947 0.24510360 0.88246601 202 201 195
-0.08999757 0.27025771 0.87036442 202 202 195
-0.08976549 0.29595609 0.85814565 200 201 194
-0.08987389 0.28589153 0.86286982 204 204 196
-0.09009353 0.30974540 0.85187600 201 202 194
-0.08965864 0.33925826 0.83989756 203 203 194
-0.09006581 0.32911599 0.84371063 203 204 194
-0.09001623 0.35015614 0.83648807 177 177 170
-0.09043463 0.37020992 0.83219265 0 0 0
-0.08978993 0.38962988 0.82918351 0 0 0
-0.08965047 0.40952659 0.82644578 0 0 0
-0.08982724 0.42964428 0.82364568 0 0 0
-0.09040841 0.45633413 0.81935383 0 0 0
-0.09036130 0.44602575 0.82112961 0 0 0
-0.09016809 0.46270908 0.81818005 0 0 0
-0.06990846 -0.66128908 0.98026062 0 0 0
-0.06996277 -0.64993039 0.98102183 0 0 0
-0.07007867 -0.62977698 0.98264718 0 0 0
-0.06967506 -0.60951544 0.98457762 0 0 0
-0.06953029 -0.58986920 0.98692088 0 0 0
-0.06971709 -0.57007340 0.98957326 0 0 0
-0.06994806 -0.54965106 0.99285005 0 0 0
-0.07048670 -0.53296992 0.99632785 0 1 1
-0.07012674 -0.52643646 1.01175054 100 114 117
-0.06986773 -0.51006419 1.01337839 104 117 121
-0.06967230 -0.49028508 1.01379361 101 115 120
-0.06969475 -0.47028598 1.01412009 101 115 121
-0.06970403 -0.45018871 1.01425559 102 114 121
-0.06971055 -0.43006906 1.01435088 99 113 120
-0.06971430 -0.40992910 1.01440556 100 111 122
-0.06971552 -0.38977297 1.01442355 99 111 120
-0.06984786 -0.37033698 1.01444549 100 109 121
-0.06959705 -0.35021203 1.01449682 98 108 124
-0.06972147 -0.33018746 1.01451073 96 107 123
-0.06971819 -0.31000787 1.01446350 97 106 127
-0.06971540 -0.28983200 1.01442305 97 106 124
-0.06971258 -0.26965761 1.01438234 96 103 125
-0.06971118 -0.24948999 1.01436220 95 104 125
-0.06970970 -0.23019929 1.01434023 93 103 126
-0.06970484 -0.21002287 1.01426898 93 101 124
-0.06969607 -0.18983864 1.01414181 94 100 124
-0.06989008 -0.17021803 1.01396370 92 100 124
-0.06980092 -0.15024558 1.01349265 72 75 89
-0.07049771 -0.13010323 1.01306534 57 58 67
-0.07048050 -0.10993997 1.01281767 54 54 64
-0.07045674 -0.08977816 1.01247628 53 53 63
-0.07042759 -0.07049939 1.01205866 55 55 64
-0.07023926 -0.05025913 1.00935333 112 112 123
-0.07037465 -0.02296676 0.99889452 156 156 155
-0.06989097 -0.03252282 1.00267473 153 153 157
-0.07000886 -0.00997922 0.99370139 141 141 143
-0.06977226 0.01032973 0.98557032 133 133 140
-0.07041094 0.03245858 0.97655898 132 133 138
-0.06994056 0.02237118 0.98070051 126 128 133
-0.06995140 0.05056858 0.96910872 132 133 139
-0.07000521 0.07652520 0.95838496 131 132 137
-0.06946866 0.06686203 0.96242110 136 137 140
-0.07040963 0.09004784 0.95264529 135 136 142
-0.06945875 0.11971022 0.93978025 198 197 194
-0.06978365 0.10964847 0.94417484 176 175 175
-0.06998095 0.13035880 0.93513429 196 195 193
-0.07007202 0.15001633 0.92641481 198 197 194
-0.07011110 0.17216958 0.91646236 200 199 195
-0.06995011 0.16195195 0.92110956 202 200 197
-0.06980676 0.19003897 0.90829933 202 201 196
-0.07028195 0.21361978 0.89736876 201 201 195
-0.07026883 0.20385942 0.90190788 202 201 197
-0.06964482 0.23019769 0.88955371 203 202 197
-0.07016944 0.25511772 0.87756783 204 203 197
-0.07044424 0.24505204 0.88245977 201 201 195
-0.06984105 0.27043978 0.87018033 202 203 195
-0.07007953 0.29610947 0.85789777 201 201 194
-0.07005017 0.28574033 0.86278233 203 203 195
-0.07005680 0.31024791 0.85147707 201 202 194
-0.07005120 0.33921147 0.83978174 197 197 189
-0.06978036 0.32895973 0.84363430 200 201 192
-0.07027595 0.35029719 0.83638867 144 144 138
-0.07015408 0.37003261 0.83239611 0 0 0
-0.06990171 0.38948809 0.82940320 0 0 0
-0.06966972 0.40962833 0.82665102 0 0 0
-0.06953549 0.42969401 0.82386446 0 0 0
-0.07047511 0.45702659 0.81940171 0 0 0
-0.07029738 0.44655480 0.82123154 0 0 0
-0.07038027 0.46277623 0.81829881 0 0 0
-0.04972472 -0.66139490 0.98061079 0 0 0
-0.05053964 -0.65007575 0.98134032 0 0 0
-0.05056338 -0.62998437 0.98297079 0 0 0
-0.05015487 -0.61015247 0.98487109 0 0 0
-0.04993353 -0.59010353 0.98731311 0 0 0
-0.05007046 -0.57033213 0.99002258 0 0 0
-0.05009443 -0.54977688 0.99331260 0 0 0
-0.04987044 -0.53400220 0.99638373 0 0 0
-0.05001018 -0.52721575 1.01136405 95 108 109
-0.04974814 -0.51032420 1.01323444 106 117 122
-0.04951391 -0.49021217 1.01364284 103 116 120
-0.04952998 -0.47021729 1.01397199 103 115 121
-0.04953802 -0.45013610 1.01413712 102 114 121
-0.04954272 -0.43001913 1.01423308 102 112 122
-0.04954536 -0.40988127 1.01428723 101 111 121
-0.04954668 -0.38973099 1.01431439 100 110 120
-0.04954875 -0.37046191 1.01435762 100 109 121
-0.04955139 -0.35031860 1.01441206 98 108 123
-0.04955262 -0.33016366 1.01443770 98 108 124
-0.04955061 -0.30998725 1.01439608 98 106 125
-0.04954910 -0.28981549 1.01436536 97 106 124
-0.04954796 -0.26964709 1.01434288 97 105 124
-0.04954704 -0.24948060 1.01432395 96 104 123
-0.04954498 -0.23018587 1.01428087 93 103 125
-0.04954069 -0.21000721 1.01419332 94 101 124
-0.04953626 -0.18983151 1.01410401 93 100 122
-0.04952572 -0.17051460 1.01388708 92 100 123
-0.04987867 -0.15004582 1.01325888 71 74 88
-0.05035255 -0.13008083 1.01289125 57 57 67
-0.05033820 -0.10991653 1.01260075 55 55 64
-0.05032317 -0.08976245 1.01230246 55 55 63
-0.05031192 -0.07050121 1.01208629 54 54 63
-0.05017632 -0.05025887 1.00935379 118 117 126
-0.04965581 -0.02296642 0.99887944 151 151 152
-0.04984590 -0.03259188 1.00270463 151 150 155
-0.04995461 -0.01018183 0.99372736 146 145 147
-0.05020414 0.01075854 0.98529444 131 131 136
-0.05022938 0.03239160 0.97646548 133 134 140
-0.05044094 0.02236836 0.98057699 130 130 137
-0.04984642 0.05056398 0.96902051 131 131 136
-0.04920842 0.07587682 0.95854014 144 145 149
-0.04970881 0.06619806 0.96259389 136 137 141
-0.05037882 0.08985587 0.95257712 175 175 176
-0.04996131 0.11969733 0.93967902 198 196 193
-0.05019304 0.10963255 0.94403677 196 195 193
-0.04978101 0.13046468 0.93503755 195 195 195
-0.05005761 0.15001997 0.92643685 197 196 195
-0.04986919 0.17202125 0.91658925 201 199 195
-0.04977352 0.16192116 0.92117907 202 200 195
-0.05020620 0.19044161 0.90816715 200 200 195
-0.05002186 0.21427360 0.89707702 202 202 196
-0.05027739 0.20446179 0.90166007 200 200 196
-0.04960242 0.23014295 0.88955401 203 202 196
-0.05044725 0.25509943 0.87750481 201 201 194
-0.05007016 0.24505489 0.88240603 201 201 194
-0.05002674 0.27025518 0.87019082 203 203 195
-0.05005610 0.29607720 0.85780428 189 189 181
-0.04993465 0.28592442 0.86259732 195 195 188
-0.04982584 0.30994548 0.85149079 177 175 167
-0.04870916 0.33874364 0.83970179 172 170 162
-0.05026920 0.32885830 0.84351597 168 168 162
-0.05024256 0.35004733 0.83622532 106 103 101
-0.05001114 0.37002482 0.83237803 0 0 0
-0.04983645 0.38952152 0.82947418 0 0 0
-0.04967297 0.40967983 0.82675486 0 0 0
-0.04950583 0.42966337 0.82397307 0 0 0
-0.04994452 0.45707412 0.81948694 0 0 0
-0.04974291 0.44684712 0.82127810 0 0 0
-0.05058455 0.46282400 0.81838328 0 0 0
-0.03011351 -0.66090285 0.98094481 0 0 0
-0.03013610 -0.64951915 0.98168112 0 0 0
-0.03018482 -0.63017640 0.98327044 0 0 0
-0.03024374 -0.61012034 0.98519062 0 0 0
-0.03017095 -0.58970231 0.98773519 0 0 0
-0.03056373 -0.56998250 0.99050676 0 0 0
-0.03038294 -0.55026422 0.99373579 0 0 0
-0.02973226 -0.53449890 0.99658582 0 0 0
-0.03017831 -0.52764190 1.01152264 99 111 113
-0.03022623 -0.51009595 1.01311777 104 117 120
-0.03023854 -0.49015859 1.01353201 106 116 120
-0.03024809 -0.47016127 1.01385126 103 115 121
-0.03025330 -0.45008680 1.01402607 104 114 121
-0.03025614 -0.42997178 1.01412144 103 112 122
-0.03025796 -0.40983919 1.01418310 102 111 121
-0.03025890 -0.38969281 1.01421508 101 110 121
-0.03026050 -0.37042942 1.01426871 100 109 122
-0.03026238 -0.35029075 1.01433150 99 109 123
-0.03026364 -0.33014314 1.01437467 98 108 123
-0.03026236 -0.30996810 1.01433338 99 108 123
-0.03026184 -0.28980155 1.01431677 97 107 124
-0.03033378 -0.27043151 1.01432052 97 106 123
-0.03019413 -0.25027522 1.01428992 96 104 124
-0.03025896 -0.23017183 1.01421883 95 103 124
-0.03025697 -0.20999879 1.01415326 93 102 123
-0.03025510 -0.18982909 1.01409128 92 100 122
-0.03021918 -0.17032766 1.01273514 107 107 125
-0.03032035 -0.15007850 1.01047652 121 111 112
-0.02998298 -0.13000562 1.01033360 119 107 105
-0.03033915 -0.11018044 1.01008623 120 107 107
-0.02993656 -0.09009483 1.00959528 133 119 115
-0.03012536 -0.07032315 1.00953959 130 116 115
-0.03008657 -0.05020382 1.00834753 145 137 140
-0.02980096 -0.02296622 0.99887035 148 147 149
-0.02991533 -0.03259182 1.00270222 144 145 148
-0.03022957 -0.00978124 0.99352666 144 144 147
-0.03024797 0.01054125 0.98530924 132 132 137
-0.02997513 0.03239018 0.97642183 130 131 135
-0.03010058 0.02236681 0.98050923 128 129 132
-0.02974635 0.05056124 0.96896838 136 136 142
-0.02942561 0.07570667 0.95851981 193 192 191
-0.02955028 0.06604261 0.96257978 175 175 177
-0.02981835 0.09019771 0.95232938 194 193 192
-0.03046977 0.11969151 0.93963334 200 198 196
-0.03018790 0.10943837 0.94405055 198 197 196
-0.03032153 0.13040642 0.93506093 199 197 196
-0.03004309 0.15002613 0.92647450 198 196 193
-0.03009373 0.17234498 0.91647323 201 199 196
-0.02987266 0.16192807 0.92121839 199 197 195
-0.03023793 0.19024870 0.90827939 202 201 196
-0.02986594 0.21428040 0.89710559 201 200 194
-0.03001845 0.20446800 0.90168745 201 200 195
-0.02961474 0.23014437 0.88955959 200 200 193
-0.02997248 0.25510472 0.87752306 186 184 179
-0.02960442 0.24515734 0.88236459 185 183 178
-0.03026425 0.27011182 0.87026572 163 160 157
-0.03003833 0.29605794 0.85774850 167 167 163
-0.03020884 0.28580708 0.86261516 154 155 155
-0.02996889 0.31014680 0.85132647 144 141 138
-0.03012907 0.33841707 0.83961188 166 165 158
-0.03026988 0.32832185 0.84353921 148 148 145
-0.03000038 0.34996378 0.83602539 102 101 100
-0.02986465 0.36996535 0.83224389 0 0 0
-0.02976395 0.38950687 0.82944259 0 0 0
-0.02966826 0.40969197 0.82677926 0 0 0
-0.02956845 0.42967618 0.82399763 0 0 0
-0.02940789 0.45709514 0.81952461 0 0 0
-0.02947285 0.44674407 0.82133331 0 0 0
-0.03007582 0.46284903 0.81842757 0 0 0
-0.00977005 -0.66105921 0.98117690 0 0 0
-0.00977736 -0.64967009 0.98190931 0 0 0
-0.00979331 -0.63033174 0.98351281 0 0 0
-0.00981259 -0.61028159 0.98545112 0 0 0
-0.00983841 -0.58968945 0.98805048 0 0 0
-0.00986660 -0.56997527 0.99088878 0 0 0
-0.00989918 -0.55038032 0.99416758 0 0 0
-0.01004176 -0.53480560 0.99704199 2 2 2
-0.00999321 -0.52768964 1.01146034 103 117 120
-0.01008741 -0.51003248 1.01299193 104 119 121
-0.01009168 -0.49010477 1.01342069 108 116 122
-0.01009485 -0.47010862 1.01373770 105 115 123
-0.01009654 -0.45003425 1.01390772 104 114 119
-0.01009761 -0.42992704 1.01401595 102 113 120
-0.01009827 -0.40979936 1.01408462 103 111 120
-0.01009879 -0.38966454 1.01414157 102 110 119
-0.01009937 -0.37040541 1.01420299 100 110 121
-0.01010003 -0.35027054 1.01427310 100 109 121
-0.01010061 -0.33012978 1.01433373 100 108 125
-0.01010035 -0.30996079 1.01430952 100 108 124
-0.01010027 -0.28979656 1.01429933 98 106 123
-0.01010031 -0.27051340 1.01430430 97 107 125
-0.01009987 -0.25034094 1.01425777 98 105 123
-0.01009896 -0.23015893 1.01416185 95 103 123
-0.01009836 -0.20998781 1.01410043 95 101 123
-0.01009767 -0.18981594 1.01402122 94 99 123
-0.01007602 -0.17018774 1.01187356 125 117 126
-0.01004319 -0.15044728 1.00858827 156 131 119
-0.01004481 -0.13041450 1.00870579 156 132 118
-0.01004483 -0.11036424 1.00869825 157 132 120
-0.01004364 -0.09030384 1.00858048 156 133 121
-0.01004293 -0.07025076 1.00849646 157 132 123
-0.01003544 -0.05017216 1.00775369 153 139 136
-0.00994615 -0.02296477 0.99880787 141 142 143
-0.00998417 -0.03258915 1.00262046 146 147 151
-0.00989396 -0.00997820 0.99357521 145 145 147
-0.00981136 0.01054101 0.98528610 133 133 138
-0.00972282 0.03238933 0.97639646 142 142 147
-0.00976356 0.02236621 0.98048286 128 127 135
-0.00964836 0.05055821 0.96891165 181 180 181
-0.00954438 0.07570272 0.95846966 195 194 192
-0.00958461 0.06603821 0.96251553 196 194 193
-0.00948350 0.09002103 0.95236172 196 195 193
-0.01016867 0.11969010 0.93962229 198 197 195
-0.00982240 0.10981090 0.94388681 198 197 196
-0.01011902 0.13040234 0.93503227 200 199 197
-0.01002617 0.15002399 0.92646098 199 198 195
-0.00991908 0.17219051 0.91657365 201 200 195
-0.00996932 0.16192650 0.92120943 201 200 196
-0.00982987 0.19026064 0.90833608 197 195 190
-0.00970896 0.21428960 0.89714432 177 176 173
-0.00975871 0.20448158 0.90174738 181 178 174
-0.00962684 0.23014492 0.88956234 168 166 165
-0.00949631 0.25509808 0.87750031 160 158 155
-0.00954906 0.24507817 0.88237453 163 160 157
-0.00997749 0.27038474 0.87009037 161 160 157
-0.01002366 0.29604989 0.85772519 151 148 146
-0.01008024 0.28579355 0.86257432 158 156 154
-0.00994905 0.31001519 0.85133205 161 161 159
-0.00981038 0.33835008 0.83944568 167 168 164
-0.00985664 0.32827090 0.84340886 156 156 153
-0.00976860 0.34990377 0.83588197 96 94 92
-0.00972431 0.36989576 0.83208705 0 0 0
-0.00969244 0.38947463 0.82937348 0 0 0
-0.00966198 0.40969161 0.82677843 0 0 0
-0.00962940 0.42967227 0.82399018 0 0 0
-0.00957724 0.45709975 0.81953287 0 0 0
-0.00959828 0.44674300 0.82133130 0 0 0
-0.00956441 0.46285480 0.81843779 0 0 0
0.01058191 -0.66115299 0.98131608 0 0 0
0.01058990 -0.64976769 0.98205687 0 0 0
0.01080785 -0.63009869 0.98372836 0 0 0
0.01003555 -0.61031062 0.98566843 0 0 0
0.00980310 -0.58983139 0.98828840 0 0 0
0.00989647 -0.57006393 0.99118882 0 0 0
0.00980448 -0.55049012 0.99449719 0 0 0
0.00989239 -0.53569012 0.99719869 1 2 2
0.01003318 -0.52841793 1.01133386 106 117 122
0.01004677 -0.50998550 1.01289874 107 119 122
0.01005106 -0.49006126 1.01333065 108 117 122
0.01005400 -0.47005812 1.01362881 107 116 121
0.01005573 -0.44998752 1.01380241 105 116 122
0.01005682 -0.42988273 1.01391148 105 114 121
0.01005775 -0.40976601 1.01400217 104 112 122
0.01005857 -0.38964149 1.01408168 103 112 120
0.01005935 -0.37038941 1.01415924 102 111 122
0.01006025 -0.35026185 1.01424800 102 109 121
0.01006095 -0.33012469 1.01431811 101 109 122
0.01006085 -0.30995981 1.01430638 101 108 123
0.01006076 -0.28979545 1.01429540 99 107 123
0.01006079 -0.27051257 1.01430119 98 105 124
0.01006031 -0.25033948 1.01425177 97 104 124
0.01005920 -0.23015387 1.01413946 96 103 124
0.01005854 -0.20998200 1.01407233 95 101 122
0.01005761 -0.18980807 1.01398014 93 100 118
0.01003563 -0.17017491 1.01179873 130 121 122
0.01000375 -0.15044571 1.00857401 156 131 119
0.01000359 -0.13039565 1.00855953 157 133 119
0.01000323 -0.11034496 1.00852148 157 132 121
0.01000138 -0.09028272 1.00834345 157 133 120
0.01000027 -0.07023255 1.00823530 158 133 124
0.00999339 -0.05016141 1.00753922 156 140 138
0.01016034 -0.02306463 0.99873085 142 141 143
0.00984418 -0.03265488 1.00250309 150 149 152
0.00985440 -0.00997741 0.99350507 147 146 148
0.01028530 0.01075410 0.98515538 134 134 139
0.01052830 0.03238852 0.97637182 183 182 183
0.01057226 0.02236536 0.98044537 160 161 164
0.01044774 0.05055743 0.96889592 194 192 192
0.01033522 0.07570174 0.95845726 196 194 192
0.01037883 0.06603745 0.96250459 195 194 193
0.01026937 0.09002028 0.95235409 195 194 193
0.01013183 0.11968748 0.93960172 198 197 195
0.01017873 0.10962249 0.94395034 198 196 195
0.01008236 0.13039931 0.93501056 200 198 196
0.00999012 0.15002437 0.92646303 189 187 184
0.00988303 0.17218584 0.91654903 169 167 167
0.00993329 0.16192540 0.92120321 175 173 172
0.01020025 0.19045193 0.90820020 171 170 168
0.01044900 0.21428372 0.89711958 170 169 169
0.01050257 0.20447582 0.90172195 163 161 161
0.01036129 0.23014920 0.88957882 163 161 161
0.01022091 0.25510538 0.87752527 167 167 166
0.01027793 0.24509029 0.88241824 149 149 148
0.01013537 0.27025240 0.87018267 162 161 159
0.00998941 0.29602918 0.85766531 144 144 142
0.01004668 0.28579324 0.86257356 150 149 147
0.00991436 0.30997680 0.85122718 137 138 137
0.01050257 0.33762852 0.83945616 149 150 151
0.01005861 0.32770051 0.84342202 146 147 149
0.01045588 0.34983730 0.83572310 72 71 73
0.01052180 0.37036241 0.83184902 0 0 0
0.01025546 0.38995268 0.82920885 0 0 0
0.01034406 0.40968371 0.82676230 0 0 0
0.01030956 0.42967539 0.82399605 0 0 0
0.01025298 0.45777242 0.81946866 0 0 0
0.01027529 0.44740798 0.82125031 0 0 0
0.01024076 0.46288386 0.81848919 0 0 0
0.03009021 -0.66121895 0.98141398 0 0 0
0.03011283 -0.64983014 0.98215127 0 0 0
0.03016567 -0.62971177 0.98387312 0 0 0
0.02978301 -0.60948429 0.98589755 0 0 0
0.02945172 -0.58992455 0.98844458 0 0 0
0.02954267 -0.56946654 0.99149582 0 0 0
0.02964577 -0.54995484 0.99495153 0 0 0
0.02907832 -0.53700102 0.99775297 1 1 1
0.03037921 -0.52936429 1.01101346 104 116 119
0.03017711 -0.50993709 1.01280270 107 119 122
0.03019026 -0.49001917 1.01324358 107 118 122
0.03019889 -0.47001404 1.01353376 106 117 123
0.03020442 -0.44995037 1.01371877 108 116 122
0.03020781 -0.42984934 1.01383273 105 115 122
0.03021073 -0.40973711 1.01393073 104 114 120
0.03021355 -0.38961945 1.01402436 103 111 121
0.03021637 -0.37037419 1.01411763 102 111 121
0.03021947 -0.35025242 1.01422075 103 110 123
0.03022156 -0.33011575 1.01429062 101 110 122
0.03022160 -0.30995514 1.01429121 101 109 123
0.03022152 -0.28979342 1.01428831 100 108 122
0.03022140 -0.27050810 1.01428438 99 106 123
0.03022005 -0.25033619 1.01423844 98 105 124
0.03021717 -0.23015405 1.01414050 97 104 123
0.03021600 -0.20998745 1.01409861 96 102 119
0.03021440 -0.18981984 1.01404314 94 100 118
0.03013836 -0.17012828 1.01151633 132 121 121
0.03004408 -0.15041078 1.00834206 157 132 119
0.03004590 -0.13037473 1.00839727 156 132 118
0.03004409 -0.11032522 1.00834118 158 133 121
0.03003840 -0.09026564 1.00815086 160 134 122
0.03003394 -0.07021649 1.00800542 161 136 125
0.03001270 -0.05014937 1.00729477 155 139 135
0.02976155 -0.02382993 0.99886290 147 146 147
0.02987288 -0.03345337 1.00260170 156 155 157
0.02959832 -0.00997602 0.99338115 149 148 150
0.02983384 0.01032302 0.98525198 174 173 175
0.03032954 0.03237853 0.97630826 193 191 191
0.02929664 0.02227956 0.98039829 192 189 189
0.03054232 0.05055536 0.96885461 195 192 192
0.03021425 0.07570108 0.95844907 198 195 194
0.03034210 0.06603732 0.96250250 196 194 193
0.03002171 0.09001891 0.95233962 194 193 191
0.02961864 0.11968191 0.93955797 160 160 161
0.02975589 0.10961786 0.94391044 173 172 172
0.02992064 0.13058649 0.93485993 155 154 156
0.03000261 0.15000518 0.92634476 169 167 169
0.02968169 0.17216425 0.91643383 168 167 166
0.02983176 0.16190173 0.92106855 180 180 177
0.02979471 0.19003728 0.90831851 162 159 158
0.03051479 0.21432578 0.89707451 154 152 153
0.02998279 0.20446363 0.90166824 163 163 164
0.03035047 0.23015538 0.88960197 156 155 155
0.02993928 0.25511288 0.87755094 148 148 149
0.03010594 0.24509569 0.88243793 158 159 159
0.02968719 0.27024677 0.87016430 157 156 156
0.03034053 0.29560216 0.85772732 168 169 167
0.02987486 0.28542430 0.86267841 145 146 147
0.02977289 0.30993770 0.85111978 152 152 150
0.03008659 0.33758438 0.83934641 166 165 161
0.02971600 0.32740072 0.84341938 164 165 163
0.03018792 0.34995907 0.83556913 73 72 71
0.03053081 0.37043816 0.83169195 0 0 0
0.03043496 0.39005480 0.82908068 0 0 0
0.03034865 0.40966604 0.82672645 0 0 0
0.03024902 0.42968315 0.82401065 0 0 0
0.03008499 0.45781206 0.81953963 0 0 0
0.03015008 0.44744242 0.82131346 0 0 0
0.03004920 0.46292666 0.81856487 0 0 0
0.04959897 -0.66123695 0.98144070 0 0 0
0.04963654 -0.64985195 0.98218429 0 0 0
0.04972433 -0.62974314 0.98392215 0 0 0
0.04982654 -0.60973554 0.98594449 0 0 0
0.04995730 -0.58997651 0.98853171 0 0 0
0.05011269 -0.56953017 0.99160647 0 0 0
0.05047491 -0.54949339 0.99518304 0 0 0
0.04925126 -0.53738142 0.99789640 3 3 3
0.05029571 -0.53024210 1.01131928 107 119 122
0.05030480 -0.50989988 1.01272896 110 120 122
0.05032730 -0.48998917 1.01318156 108 119 122
0.05034153 -0.46998369 1.01346831 108 117 124
0.05035020 -0.44991698 1.01364345 108 117 123
0.05035550 -0.42981439 1.01375031 107 116 123
0.05036024 -0.40970273 1.01384567 106 115 123
0.05036595 -0.38959473 1.01396014 105 113 123
0.05037137 -0.37035649 1.01406917 104 111 123
0.05037676 -0.35023750 1.01417761 103 111 123
0.05038065 -0.33010439 1.01425577 101 109 123
0.05038123 -0.30994780 1.01426724 101 109 123
0.05038136 -0.28978816 1.01426991 101 108 122
0.05038113 -0.27050305 1.01426548 100 106 123
0.05037949 -0.25033452 1.01423190 99 106 125
0.05037614 -0.23015916 1.01416329 98 103 121
0.05037605 -0.21000034 1.01416066 96 102 119
0.05037188 -0.18982635 1.01407753 95 101 120
0.05022931 -0.17007808 1.01121268 133 120 122
0.05008039 -0.15039177 1.00821681 157 132 118
0.05008184 -0.13035558 1.00824747 156 132 116
0.05007998 -0.11031034 1.00820590 159 134 121
0.05007149 -0.09025514 1.00803271 159 133 122
0.05006152 -0.07020449 1.00783230 164 137 127
0.05002395 -0.05013872 1.00707785 157 140 136
0.05026492 -0.02376920 0.99862751 155 152 152
0.04979010 -0.03344567 1.00237161 158 157 159
0.05019316 -0.00997417 0.99320593 176 173 173
0.04977976 0.01053836 0.98502369 190 188 187
0.04957050 0.03139401 0.97662172 192 191 191
0.04955678 0.02152198 0.98061129 187 187 187
0.05050194 0.05066837 0.96875586 190 188 188
0.05008868 0.07569405 0.95836022 159 158 159
0.05030206 0.06603314 0.96244201 173 171 172
0.04976866 0.09000910 0.95223654 141 142 145
0.04991116 0.11966558 0.93942973 133 132 139
0.04988053 0.10976704 0.94371510 134 134 139
0.05008935 0.13017653 0.93491530 140 140 144
0.05001142 0.14998962 0.92624833 159 157 157
0.05026932 0.17214976 0.91635632 158 157 158
0.04972646 0.16188442 0.92097006 165 164 164
0.04982102 0.19022914 0.90818481 158 157 158
0.05033182 0.21406541 0.89718564 157 157 157
0.04908906 0.20426954 0.90174007 162 160 160
0.05034009 0.23015897 0.88961609 158 159 159
0.04965870 0.25511931 0.87757324 147 146 145
0.04993419 0.24509647 0.88244045 165 163 160
0.04989478 0.27032812 0.87012285 156 154 153
0.04973486 0.29578954 0.85769569 151 151 147
0.05053828 0.28558623 0.86258502 152 153 153
0.05008154 0.31010332 0.85103989 151 150 148
0.04967486 0.33760546 0.83939883 162 162 157
0.04991184 0.32754208 0.84340399 149 148 145
0.04966818 0.34963446 0.83567229 73 74 73
0.05028279 0.37061461 0.83164095 0 0 0
0.05049436 0.39003382 0.82903601 0 0 0
0.05035292 0.40965984 0.82671381 0 0 0
0.05019011 0.42969829 0.82403942 0 0 0
0.04992028 0.45785017 0.81960786 0 0 0
0.05002844 0.44748087 0.82138400 0 0 0
0.04986089 0.46296516 0.81863296 0 0 0
0.06995587 -0.66124598 0.98145411 0 0 0
0.07000863 -0.64985834 0.98219390 0 0 0
0.07013221 -0.62974641 0.98392729 0 0 0
0.07027659 -0.60974069 0.98595280 0 0 0
0.07046004 -0.58997395 0.98852739 0 0 0
0.06989267 -0.56959182 0.99158937 0 0 0
0.07001785 -0.54932612 0.99524147 0 0 0
0.07238933 -0.54070624 1.01091449 113 123 124
0.06994577 -0.53805965 0.99801510 10 12 12
0.06949149 -0.53060238 1.01156868 110 120 122
0.06955779 -0.50988741 1.01270412 110 120 124
0.06958869 -0.48997595 1.01315422 107 121 123
0.06960733 -0.46996417 1.01342617 110 119 124
0.06961868 -0.44989390 1.01359140 107 118 124
0.06962572 -0.42979046 1.01369389 109 117 123
0.06963243 -0.40968080 1.01379140 107 115 121
0.06964126 -0.38957920 1.01391979 105 114 123
0.06964892 -0.37034260 1.01403112 104 112 124
0.06965634 -0.35022422 1.01413918 103 111 122
0.06966162 -0.33009147 1.01421606 102 110 122
0.06966287 -0.30993778 1.01423448 101 109 121
0.06966326 -0.28977957 1.01423985 101 107 121
0.06966285 -0.27049457 1.01423364 100 107 123
0.06966091 -0.25032793 1.01420533 100 106 122
0.06965900 -0.23016221 1.01417694 97 104 121
0.06966031 -0.21000763 1.01419602 97 102 120
0.06965409 -0.18983181 1.01410587 97 101 119
0.06962762 -0.17020132 1.01301074 111 109 119
0.06962789 -0.15013407 1.01133042 105 94 93
0.06967146 -0.12983003 1.00997702 138 113 111
0.07017040 -0.11038484 1.00888155 152 126 121
0.07013730 -0.09029112 1.00842991 161 133 128
0.07011070 -0.07022044 1.00805797 165 139 131
0.07003884 -0.05013747 1.00703733 163 143 142
0.07007458 -0.02387788 0.99846019 179 178 177
0.06970049 -0.03343919 1.00217643 161 161 162
0.07007259 -0.00984389 0.99298439 188 185 184
0.07020192 0.01053713 0.98490787 190 187 186
0.06960024 0.03154582 0.97646689 170 169 170
0.06988844 0.02151974 0.98050915 184 183 184
0.07023328 0.05063232 0.96862654 137 137 143
0.06995683 0.07568407 0.95823378 131 132 138
0.07025356 0.06602331 0.96229856 134 134 140
0.06970706 0.09014721 0.95205758 132 133 138
0.07076884 0.11953811 0.93941017 135 136 139
0.07019511 0.10936602 0.94379572 138 138 142
0.06986068 0.13036770 0.93478345 145 145 148
0.07002208 0.14998697 0.92623208 162 161 162
0.07006805 0.17215111 0.91636344 173 172 171
0.06962364 0.16188282 0.92096095 177 175 173
0.07017294 0.19027932 0.90815473 164 162 161
0.06946629 0.21414025 0.89718054 170 170 169
0.06984637 0.20441746 0.90168737 159 157 158
0.07033290 0.23017048 0.88966089 150 149 149
0.06976873 0.25522741 0.87755877 147 148 147
0.06976597 0.24511068 0.88249154 138 137 136
0.07019586 0.27017716 0.87026096 157 153 149
0.07002168 0.29600660 0.85759984 157 156 153
0.06993481 0.28587262 0.86247613 168 167 163
0.06992418 0.30975925 0.85117278 159 156 152
0.06999412 0.33764197 0.83948960 133 135 138
0.07016215 0.32766964 0.84341709 140 139 137
0.06968155 0.34984401 0.83573992 60 60 58
0.06967351 0.37027985 0.83178209 0 0 0
0.07055897 0.39005322 0.82907744 0 0 0
0.07036041 0.40967525 0.82674485 0 0 0
0.07013502 0.42972799 0.82409623 0 0 0
0.06936503 0.45841997 0.81959015 0 0 0
0.06999725 0.44808587 0.82136654 0 0 0
0.06967650 0.46300760 0.81870803 0 0 0
0.09031177 -0.66124193 0.98144809 0 0 0
0.09037997 -0.64985548 0.98218960 0 0 0
0.09053713 -0.62972788 0.98389823 0 0 0
0.08994656 -0.60978182 0.98590539 0 0 0
0.09010158 -0.58992733 0.98844914 0 0 0
0.08939128 -0.56990497 0.99140522 0 0 0
0.09004357 -0.55020735 0.99502563 0 0 0
0.09151761 -0.54204260 1.00915242 104 113 114
0.08425238 -0.53943565 0.99806890 16 18 18
0.08964533 -0.52976968 1.01223213 112 123 124
0.08968744 -0.50988891 1.01270702 113 122 124
0.08972544 -0.48996756 1.01313677 111 120 123
0.08974833 -0.46994992 1.01339541 109 119 123
0.08976224 -0.44987669 1.01355262 110 119 125
0.08977147 -0.42977480 1.01365696 109 117 123
0.08977991 -0.40966497 1.01375223 107 116 124
0.08979161 -0.38956562 1.01388447 107 115 123
0.08980130 -0.37032907 1.01399407 105 113 121
0.08981050 -0.35021003 1.01409814 105 112 121
0.08981747 -0.33007870 1.01417679 104 111 121
0.08981796 -0.30992187 1.01418239 102 109 123
0.08981969 -0.28976864 1.01420171 102 108 120
0.08982120 -0.27049050 1.01421847 101 107 122
0.08981992 -0.25032746 1.01420355 101 106 121
0.08981849 -0.23016453 1.01418715 99 104 121
0.08981877 -0.21000647 1.01419057 98 102 121
0.08981110 -0.18983157 1.01410416 97 102 119
0.08979378 -0.17051883 1.01391213 99 101 119
0.08972710 -0.15025493 1.01316059 75 73 83
0.08998439 -0.13004248 1.01091394 122 98 103
0.09023428 -0.11040278 1.00904532 144 123 121
0.09019436 -0.09030565 1.00859227 160 141 138
0.09016243 -0.07023276 1.00823250 170 152 147
0.09004452 -0.05013246 1.00691553 175 161 161
0.09056880 -0.02450447 0.99855050 184 183 182
0.08976336 -0.03394275 1.00215675 183 181 181
0.08978746 -0.01009212 0.99296319 173 171 171
0.09020439 0.01075712 0.98471591 145 145 150
0.08984030 0.03154123 0.97632748 138 139 144
0.09021579 0.02151750 0.98040722 142 142 148
0.09002567 0.05054256 0.96850220 131 131 136
0.08981868 0.07567320 0.95809588 130 130 135
0.09019689 0.06601181 0.96213043 134 134 137
0.08988419 0.09004978 0.95200936 131 132 136
0.09010033 0.11891418 0.93963085 143 144 147
0.09005776 0.10888328 0.94395772 131 132 135
0.08987018 0.13049824 0.93467113 127 127 132
0.09002939 0.14998032 0.92619026 157 155 156
0.08986843 0.17215529 0.91638541 151 147 147
0.09031744 0.16188341 0.92096431 159 157 157
0.09013454 0.19037555 0.90813612 154 152 153
0.08953485 0.21429611 0.89717070 152 149 149
0.08998647 0.20447014 0.90169689 159 159 160
0.09027991 0.23023774 0.88970605 138 137 140
0.09023293 0.25504659 0.87770982 134 134 138
0.08960113 0.24512657 0.88254893 133 133 136
0.08996007 0.27036420 0.87022359 139 139 142
0.09004048 0.29603254 0.85767487 152 152 152
0.09005515 0.28571548 0.86266834 143 143 143
0.08995435 0.31008435 0.85117063 142 140 135
0.08939777 0.33808452 0.83946213 168 169 166
0.09018982 0.32807152 0.84335120 161 162 158
0.08992270 0.34991355 0.83590554 59 59 58
0.08933194 0.37017663 0.83199934 0 0 0
0.09052308 0.38987214 0.82926797 0 0 0
0.09037746 0.40972686 0.82684911 0 0 0
0.09008670 0.42977666 0.82418960 0 0 0
0.08959125 0.45858674 0.81965796 0 0 0
0.08978581 0.44821909 0.82143743 0 0 0
0.08949617 0.46305299 0.81878830 0 0 0
0.11066429 -0.66122017 0.98141580 0 0 0
0.10989912 -0.64983417 0.98215732 0 0 0
0.11008799 -0.62969427 0.98384568 0 0 0
0.10952444 -0.60960480 0.98583882 0 0 0
0.10973356 -0.58984617 0.98831298 0 0 0
0.11004403 -0.57010329 0.99111081 0 0 0
0.11005671 -0.55120949 0.99478793 0 0 0
0.11020114 -0.54367419 1.00988766 106 116 119
0.10976843 -0.52978447 1.01226044 113 124 124
0.10982280 -0.50991634 1.01276132 114 123 127
0.10986442 -0.48997203 1.01314588 114 122 124
0.10989061 -0.46994637 1.01338774 112 120 124
0.10990646 -0.44986850 1.01353415 111 119 124
0.10991670 -0.42976281 1.01362870 110 119 125
0.10992820 -0.40965788 1.01373472 108 116 124
0.10994265 -0.38955922 1.01386783 107 116 123
0.10995406 -0.37032141 1.01397301 107 115 122
0.10996386 -0.35019808 1.01406347 106 113 122
0.10997203 -0.33006638 1.01413895 104 111 122
0.10997276 -0.30991070 1.01414584 103 110 122
0.10997460 -0.28975759 1.01416306 101 109 122
0.10997694 -0.27048141 1.01418444 102 107 122
0.10997820 -0.25032544 1.01419554 100 107 121
0.10997907 -0.23016819 1.01420343 99 105 120
0.10997839 -0.21000787 1.01419707 99 103 120
0.10996509 -0.18982627 1.01407525 96 102 119
0.10993023 -0.17049267 1.01375529 99 102 120
0.10984038 -0.15022021 1.01292762 77 74 81
0.11004146 -0.12954062 1.01022689 126 103 107
0.11025519 -0.11036582 1.00871309 145 127 125
0.11023263 -0.09029753 1.00850436 161 143 140
0.11020598 -0.07023442 1.00825935 167 152 148
0.11005534 -0.05013132 1.00688119 177 165 166
0.11000602 -0.02468596 0.99853717 149 147 152
0.10995919 -0.03441824 1.00221694 160 158 161
0.11009271 -0.00984833 0.99274807 135 135 139
0.10981920 0.01038210 0.98473792 131 131 137
0.11007298 0.03153624 0.97617306 135 135 138
0.11053463 0.02151443 0.98026720 134 133 140
0.10996032 0.05052510 0.96838981 131 132 137
0.10995550 0.07551080 0.95807172 133 133 139
0.10994498 0.06588715 0.96208490 136 137 142
0.11005997 0.08992317 0.95198021 137 137 141
0.11000919 0.11887497 0.93959997 123 123 132
0.10985325 0.10891123 0.94388787 129 130 134
0.11004698 0.13020629 0.93472164 137 136 140
0.10990590 0.15006084 0.92603498 155 154 155
0.11010537 0.17231415 0.91631400 147 145 146
0.11020739 0.16187236 0.92090132 151 150 150
0.10991912 0.19013860 0.90825898 169 168 167
0.10969624 0.21430073 0.89719035 167 166 165
0.11024773 0.20447107 0.90170085 175 174 172
0.11012276 0.23027832 0.88973725 157 156 156
0.11001191 0.25555613 0.87755172 147 147 148
0.11004378 0.24563808 0.88238238 152 152 152
0.10991610 0.27038097 0.87023338 167 166 163
0.11006225 0.29605607 0.85774309 169 168 164
0.10995151 0.28583246 0.86269213 142 142 144
0.11003140 0.31006162 0.85138128 132 131 130
0.10991171 0.33841426 0.83960488 165 159 154
0.10989265 0.32816433 0.84352392 167 165 161
0.11014180 0.35007035 0.83616371 52 51 50
0.10967988 0.37000696 0.83233724 0 0 0
0.10993627 0.38954124 0.82958999 0 0 0
0.11041078 0.40982027 0.82703786 0 0 0
0.11004906 0.42984944 0.82432940 0 0 0
0.10943344 0.45862132 0.81971978 0 0 0
0.10967473 0.44826770 0.82152667 0 0 0
0.10985314 0.46310796 0.81882188 0 0 0
0.13016622 -0.66119251 0.98137475 0 0 0
0.12941523 -0.64980423 0.98211201 0 0 0
0.12955861 -0.63036931 0.98369036 0 0 0
0.12993666 -0.61031524 0.98561174 0 0 0
0.13020618 -0.58972874 0.98811612 0 0 0
0.13029064 -0.57012172 0.99080218 0 0 0
0.12976929 -0.55154145 0.99451552 2 2 2
0.13019070 -0.54510119 1.01111917 113 124 124
0.12990811 -0.52986165 1.01240754 114 124 125
0.12996531 -0.50996347 1.01285470 114 124 126
0.13000638 -0.48998652 1.01317558 114 123 125
0.13003274 -0.46994353 1.01338158 112 121 125
0.13005054 -0.44986242 1.01352038 112 119 124
0.13006202 -0.42975484 1.01360988 110 118 123
0.13007484 -0.40964786 1.01370991 111 116 123
0.13009213 -0.38955037 1.01384474 109 115 122
0.13010548 -0.37031260 1.01394889 107 114 122
0.13011612 -0.35018719 1.01403184 106 113 122
0.13012449 -0.33005284 1.01409731 103 112 121
0.13012304 -0.30989255 1.01408631 102 110 122
0.13012232 -0.28973415 1.01408092 102 108 122
0.13012570 -0.27046079 1.01410741 102 107 122
0.13013200 -0.25031570 1.01415614 101 108 120
0.13013609 -0.23016455 1.01418756 99 105 120
0.13013633 -0.21000637 1.01418945 98 103 119
0.13011082 -0.18981080 1.01399186 98 102 120
0.13006904 -0.17047727 1.01366469 99 101 119
0.12996650 -0.15021080 1.01286416 76 73 81
0.13008199 -0.12995194 1.01020720 123 102 105
0.13030635 -0.11036633 1.00871882 143 125 126
0.13028742 -0.09030353 1.00857258 158 142 141
0.13025611 -0.07023939 1.00833075 164 151 149
0.13008680 -0.05013793 1.00701895 155 142 146
0.12985313 -0.02468583 0.99853055 147 146 148
0.13005852 -0.03420590 1.00220514 138 137 143
0.13003048 -0.00992592 0.99272906 136 135 138
0.12980997 0.01046867 0.98461209 128 128 134
0.13023477 0.03159732 0.97606795 131 131 137
0.13000919 0.02151275 0.98019069 130 132 136
0.12996386 0.05052617 0.96829576 132 132 137
0.12958505 0.07485717 0.95826255 129 130 136
0.13012826 0.06519169 0.96227950 137 137 139
0.13017404 0.08982657 0.95194787 127 127 132
0.13030082 0.11886716 0.93953827 119 119 127
0.12993790 0.10885634 0.94384168 124 123 128
0.12992730 0.13052858 0.93450068 137 137 140
0.13002093 0.14994692 0.92598657 167 165 165
0.12988416 0.17198597 0.91640645 144 143 145
0.13009012 0.16185544 0.92080507 175 171 169
0.12999164 0.19014011 0.90825768 162 160 159
0.12987380 0.21433084 0.89731633 149 148 148
0.13026959 0.20456517 0.90175356 150 144 143
0.13002584 0.23022595 0.88987500 147 145 146
0.13004388 0.25586719 0.87753257 140 141 142
0.13000068 0.24584505 0.88239467 140 139 136
0.12999565 0.27027040 0.87048275 151 149 149
0.12978398 0.29591462 0.85808161 158 156 153
0.12985365 0.28596147 0.86275164 172 172 168
0.13012629 0.30984017 0.85180108 141 141 138
0.12890200 0.33911638 0.83978593 130 128 125
0.13001784 0.32912891 0.84354327 152 149 146
0.13001842 0.34991689 0.83665176 45 45 45
0.13005820 0.36975741 0.83284354 0 0 0
0.12963337 0.38960428 0.82997621 0 0 0
0.13046481 0.40995003 0.82730018 0 0 0
0.13002371 0.42994051 0.82450439 0 0 0
0.12890646 0.45894792 0.81967036 0 0 0
0.12984228 0.44877869 0.82152946 0 0 0
0.13035762 0.46304000 0.81883124 0 0 0
0.14965735 -0.66112457 0.98127390 0 0 0
0.14976943 -0.64973589 0.98200868 0 0 0
0.15000365 -0.63035259 0.98354514 0 0 0
0.15028893 -0.61026031 0.98541644 0 0 0
0.15021651 -0.58980257 0.98783652 0 0 0
0.14991137 -0.56957213 0.99053728 0 0 0
0.14942806 -0.55286101 0.99368945 1 1 1
0.15039417 -0.54668447 1.01089767 112 124 123
0.15005275 -0.52993758 1.01255223 115 124 126
0.15010902 -0.51000257 1.01293217 113 124 125
0.15014992 -0.49000248 1.01320845 113 124 126
0.15017585 -0.46994450 1.01338359 112 122 125
0.15019478 -0.44985849 1.01351153 113 119 125
0.15020720 -0.42974873 1.01359542 111 118 125
0.15022090 -0.40963898 1.01368795 109 117 123
0.15024007 -0.38953990 1.01381744 109 116 122
0.15025314 -0.37029690 1.01390585 107 115 122
0.15026511 -0.35017158 1.01398664 105 113 122
0.15027312 -0.33003443 1.01404066 104 111 121
0.15026924 -0.30987064 1.01401456 103 110 123
0.15026630 -0.28970961 1.01399486 103 109 121
0.15026875 -0.27043522 1.01401150 102 108 122
0.15027573 -0.25029164 1.01405877 101 107 119
0.15028294 -0.23014629 1.01410738 99 105 120
0.15028397 -0.20999094 1.01411415 98 104 119
0.15029321 -0.18966926 1.01360774 103 105 120
0.15076683 -0.17012291 1.01156167 119 114 118
0.15055463 -0.15017396 1.01124194 103 95 95
0.15066086 -0.12989717 1.00961966 136 112 111
0.15033933 -0.11035502 1.00861232 150 123 119
0.15031488 -0.09029216 1.00844598 154 130 126
0.15027834 -0.07023028 1.00820016 159 134 131
0.15010219 -0.05013719 1.00701546 157 140 141
0.14985425 -0.02446567 0.99851274 151 148 150
0.15014519 -0.03423520 1.00232587 141 139 142
0.14990642 -0.01013461 0.99284469 136 136 139
0.15001920 0.01065290 0.98451274 132 132 138
0.15016043 0.03164698 0.97596167 137 137 140
0.14948330 0.02151146 0.98013185 145 145 147
0.14996016 0.05050317 0.96819251 142 141 144
0.14958879 0.07490442 0.95814198 133 132 138
0.15006965 0.06518419 0.96216888 150 149 151
0.15009700 0.08996775 0.95179655 129 128 135
0.14977099 0.11885384 0.93943303 128 129 134
0.15015927 0.10862709 0.94382950 126 126 133
0.14997283 0.13024086 0.93451550 134 134 138
0.14995578 0.14997418 0.92590826 165 164 165
0.14996360 0.17218201 0.91622935 144 143 145
0.14997450 0.16184479 0.92074450 150 148 149
0.15006120 0.19039392 0.90812656 155 154 155
0.15003894 0.21433545 0.89733534 139 139 141
0.15000441 0.20449233 0.90179484 152 152 154
0.14997459 0.23026253 0.88989361 151 150 149
0.14976917 0.25588045 0.87757788 133 134 135
0.15011710 0.24583334 0.88243110 138 137 137
0.15002794 0.27034160 0.87059180 151 151 152
0.14980005 0.29616542 0.85829639 133 135 135
0.15012912 0.28641691 0.86287949 131 130 132
0.15003736 0.30965778 0.85215820 126 127 129
0.15004674 0.32990886 0.84366595 129 130 131
0.14997011 0.34968317 0.83723266 46 47 47
0.15015167 0.36975439 0.83339132 0 0 0
0.14960886 0.38994649 0.83037953 0 0 0
0.15035134 0.41023441 0.82756617 0 0 0
0.15000694 0.43003201 0.82468033 0 0 0
0.15111599 0.45871604 0.81969430 0 0 0
0.14962527 0.44857221 0.82162904 0 0 0
0.15034595 0.46304071 0.81876665 0 0 0
0.16998214 -0.66101693 0.98111413 0 0 0
0.17010823 -0.64962562 0.98184192 0 0 0
0.17036767 -0.63022086 0.98333950 0 0 0
0.17024072 -0.61033380 0.98514751 0 0 0
0.16972390 -0.58993158 0.98752876 0 0 0
0.16988936 -0.57031479 0.99010704 0 0 0
0.16990011 -0.55397486 0.99328445 5 5 5
0.17034210 -0.54806367 1.01135645 116 126 127
0.17019024 -0.52997232 1.01261861 117 125 126
0.17025297 -0.51003272 1.01299195 115 124 126
0.17029413 -0.49001645 1.01323721 114 123 126
0.17031945 -0.46994667 1.01338821 114 121 125
0.17033799 -0.44985279 1.01349864 114 120 124
0.17034974 -0.42973739 1.01356862 111 118 124
0.17001770 -0.40984644 1.01365542 110 117 123
0.16950751 -0.38952182 1.01377037 108 116 122
0.16952008 -0.37027493 1.01384564 106 115 122
0.16953128 -0.35014610 1.01391279 106 113 122
0.16953906 -0.33000801 1.01395948 105 112 121
0.16953515 -0.30984665 1.01393606 103 110 122
0.16953019 -0.28968436 1.01390647 104 109 120
0.16953290 -0.27041154 1.01392268 103 108 119
0.16953755 -0.25026501 1.01395071 101 107 120
0.16954652 -0.23012287 1.01400435 99 105 118
0.16954765 -0.20996957 1.01401115 98 102 118
0.16963962 -0.19046130 1.01343996 110 108 118
0.17034400 -0.17045331 1.00834941 155 131 114
0.17038800 -0.15045011 1.00860962 154 130 113
0.17036593 -0.13038589 1.00848012 156 131 116
0.17033721 -0.11032160 1.00830947 158 133 121
0.17031715 -0.09026927 1.00819130 157 132 119
0.17029074 -0.07021861 1.00803461 156 130 117
0.17011039 -0.05013442 1.00696627 152 137 132
0.16989258 -0.02477766 0.99863324 142 140 141
0.17005959 -0.03424833 1.00233439 144 144 146
0.16999979 -0.00977263 0.99267809 144 143 144
0.17007151 0.01062256 0.98445776 136 136 139
0.17012524 0.03138836 0.97597086 143 142 144
0.16810484 0.02150976 0.98005452 138 138 139
0.16995087 0.05051414 0.96806498 144 144 146
0.16985146 0.07488299 0.95801942 140 140 143
0.17000482 0.06517607 0.96204908 149 148 149
0.17000491 0.09010447 0.95160442 125 126 132
0.17004693 0.11883935 0.93931845 137 139 142
0.17008849 0.10883151 0.94361380 128 127 132
0.17002429 0.13035092 0.93437902 128 128 133
0.17001393 0.14993015 0.92588316 162 160 159
0.17010631 0.17222328 0.91613649 156 155 156
0.16985829 0.16183611 0.92069516 167 165 164
0.17000823 0.19025380 0.90813410 152 152 153
0.17018860 0.21431923 0.89726728 156 155 155
