ply
format ascii 1.0
element vertex 1081
property float x
property float y
property float z
property uchar red
property uchar green
property uchar blue
end_header
0.38641757 0.08952811 0.45557249 145 142 136
0.97204459 0.20400894 1.03811920 115 100 83
0.97383887 0.20400894 1.03811920 112 95 82
0.97712952 0.20432183 1.03971136 111 94 81
0.98193866 0.20495051 1.04291058 112 95 83
0.98374128 0.20495051 1.04291058 116 103 91
0.98252070 0.20432183 1.03971136 110 98 87
0.98431778 0.20432183 1.03971136 98 88 78
0.98460472 0.20400894 1.03811920 85 81 78
0.98639899 0.20400894 1.03811920 122 120 119
1.17300069 0.20307598 1.03337169 147 152 157
1.16766679 0.20184520 1.02710891 147 152 157
1.16944206 0.20184520 1.02710891 148 152 156
1.17121744 0.20184520 1.02710891 151 152 156
1.17655802 0.20245871 1.03023076 157 158 162
1.17299068 0.20153984 1.02555501 133 131 139
1.17121947 0.20093188 1.02246130 86 81 93
1.17298675 0.20093188 1.02246130 14 9 21
1.17652857 0.20123540 1.02400577 30 24 40
1.17474937 0.20062926 1.02092147 39 33 50
1.18183827 0.20123540 1.02400577 34 31 47
1.18004310 0.20062926 1.02092147 33 30 46
1.18180764 0.20062926 1.02092147 33 30 45
1.18535745 0.20093188 1.02246130 32 30 41
1.18000543 0.19972689 1.01632965 31 29 40
1.17647064 0.19883259 1.01177883 30 28 38
-0.19784230 0.20580325 1.03811920 91 90 88
-0.19604799 0.20580325 1.03811920 91 88 89
-0.19248506 0.20392947 1.02866745 87 86 86
-0.18898644 0.20208950 1.01938617 84 83 83
-0.18750647 0.20239384 1.02092147 79 79 79
-0.18546258 0.20208950 1.01938617 83 83 83
-0.18397731 0.20239384 1.02092147 92 91 92
-0.18221273 0.20239384 1.02092147 106 102 103
-0.17963654 0.20148353 1.01632965 115 111 112
-0.17734812 0.20088120 1.01329124 116 111 113
-0.17585960 0.20118192 1.01480818 106 100 102
-0.17436661 0.20148353 1.01632965 102 93 94
-0.17260997 0.20148353 1.01632965 94 88 88
-0.17136717 0.20208950 1.01938617 88 87 84
-0.16960524 0.20208950 1.01938617 77 77 73
-0.16809610 0.20239384 1.02092147 79 79 76
-0.16658239 0.20269912 1.02246130 80 80 78
-0.16506411 0.20300531 1.02400577 84 83 81
-0.16280235 0.20239384 1.02092147 92 91 89
-0.16152430 0.20300531 1.02400577 103 102 100
-0.15927319 0.20239384 1.02092147 107 104 103
-0.15727176 0.20208950 1.01938617 106 104 103
-0.15504353 0.20148353 1.01632965 100 99 99
0.04266895 0.14948778 0.75405097 133 118 114
0.04392340 0.14932169 0.75321317 132 120 120
0.04537652 0.14982109 0.75573224 125 114 114
0.04652714 0.14932169 0.75321317 126 115 115
0.30882856 0.15219651 0.76771444 140 135 128
0.30875680 0.15151016 0.76425236 145 137 131
0.31007776 0.15151016 0.76425236 149 141 135
0.31069815 0.15116931 0.76253301 151 143 136
0.31166553 0.15099946 0.76167625 155 147 139
0.31546322 0.15219651 0.76771444 156 148 140
0.31750929 0.15254201 0.76945728 161 152 146
0.31992868 0.15306324 0.77208638 151 141 136
0.32162949 0.15323776 0.77296674 133 121 118
0.32259765 0.15306324 0.77208638 122 110 107
0.32393214 0.15306324 0.77208638 112 99 99
0.32489657 0.15288910 0.77120799 103 90 91
0.32548898 0.15254201 0.76945728 97 84 86
0.32830954 0.15323776 0.77296674 103 90 92
0.33002186 0.15341268 0.77384913 103 90 92
0.32985321 0.15271536 0.77033162 102 93 94
0.37708610 0.09129722 0.46052435 139 123 113
0.37685803 0.09104981 0.45927632 137 120 110
0.37688580 0.09086512 0.45834473 135 119 108
0.37793356 0.09092660 0.45865482 133 116 106
0.37795913 0.09074242 0.45772576 125 108 98
0.37849471 0.09068119 0.45741689 121 108 97
0.37954143 0.09074242 0.45772576 119 108 96
0.38086653 0.09068119 0.45741689 112 102 96
0.38037384 0.09037627 0.45587885 118 108 103
0.38349712 0.09074242 0.45772576 129 123 118
0.38481957 0.09068119 0.45741689 142 137 130
0.38509050 0.09055898 0.45680043 147 143 135
0.38588002 0.09055898 0.45680043 150 146 139
0.38640919 0.09049799 0.45649281 149 144 137
0.38693765 0.09043709 0.45618564 148 143 137
0.97025025 0.20580325 1.03811920 121 101 89
0.97055823 0.20548856 1.03653193 116 96 84
0.97086531 0.20517483 1.03494942 112 95 82
0.97414136 0.20548856 1.03653193 110 95 82
0.98193866 0.20675310 1.04291058 110 95 82
0.98223013 0.20643552 1.04130852 104 93 81
0.98101610 0.20580325 1.03811920 94 87 74
0.98281038 0.20580325 1.03811920 84 76 63
0.98309916 0.20548856 1.03653193 94 91 86
0.98489076 0.20548856 1.03653193 125 124 124
0.98217690 0.20455025 1.03179884 171 170 170
1.17300069 0.20486207 1.03337169 148 156 160
1.17299867 0.20455025 1.03179884 148 156 160
1.17299664 0.20423938 1.03023076 146 152 156
1.17656541 0.20455025 1.03179884 142 146 149
1.18194675 0.20517483 1.03494942 152 156 159
1.17655063 0.20392947 1.02866745 121 121 126
1.17476332 0.20331243 1.02555501 73 68 76
1.17653584 0.20331243 1.02555501 27 22 30
1.17830849 0.20331243 1.02555501 31 25 39
1.17829847 0.20300531 1.02400577 40 32 50
1.18185365 0.20331243 1.02555501 40 32 50
1.18362617 0.20331243 1.02555501 37 31 48
1.18360817 0.20300531 1.02400577 35 30 47
1.18537807 0.20300531 1.02400577 34 29 46
1.18714797 0.20300531 1.02400577 32 29 43
1.18177724 0.20178606 1.01785564 31 28 42
1.17822921 0.20088120 1.01329124 29 27 40
-0.19604799 0.20759755 1.03811920 90 82 83
-0.19277760 0.20602006 1.03023076 97 89 91
-0.18955652 0.20446636 1.02246130 96 87 90
-0.18778929 0.20446636 1.02246130 95 88 90
-0.18546258 0.20385143 1.01938617 93 91 92
-0.18397731 0.20415843 1.02092147 102 100 100
-0.18221273 0.20415843 1.02092147 112 108 108
-0.17990626 0.20354535 1.01785564 113 109 108
-0.17761362 0.20293592 1.01480818 105 100 100
-0.17585960 0.20293592 1.01480818 96 91 91
-0.17489102 0.20385143 1.01938617 89 87 84
-0.17260997 0.20324017 1.01632965 80 80 76
-0.17136717 0.20385143 1.01938617 79 80 75
-0.16960524 0.20385143 1.01938617 76 77 72
-0.16784331 0.20385143 1.01938617 77 77 73
-0.16658239 0.20446636 1.02246130 81 78 77
-0.16506411 0.20477523 1.02400577 85 79 80
-0.16280235 0.20415843 1.02092147 98 93 94
-0.16152430 0.20477523 1.02400577 101 97 98
-0.15927319 0.20415843 1.02092147 99 95 96
0.04647550 0.15045638 0.75237721 114 104 108
0.30646041 0.15300360 0.76511496 149 143 138
0.30882856 0.15352345 0.76771444 144 139 134
0.30875680 0.15283111 0.76425236 145 137 131
0.30972856 0.15265901 0.76339173 146 138 132
0.31034905 0.15231596 0.76167625 143 136 130
0.31131575 0.15214500 0.76082134 143 136 129
0.31546322 0.15352345 0.76771444 141 134 124
0.31823173 0.15422207 0.77120799 138 128 122
0.32126316 0.15439773 0.77208638 140 128 123
0.32259765 0.15439773 0.77208638 143 131 126
0.32430151 0.15457377 0.77296674 135 123 121
0.32563752 0.15457377 0.77296674 105 93 92
0.32585883 0.15404682 0.77033162 89 76 78
0.32830954 0.15457377 0.77296674 84 71 73
0.33002186 0.15475023 0.77384913 75 62 64
0.32985321 0.15404682 0.77033162 93 84 85
0.33005947 0.15352345 0.76771444 123 116 116
0.33063751 0.15317650 0.76597947 135 132 129
0.33272949 0.15231596 0.76167625 140 139 135
0.37577957 0.09196825 0.45989949 139 126 116
0.37580958 0.09178144 0.45896536 140 123 112
0.37634805 0.09171935 0.45865482 139 121 109
0.37688580 0.09165733 0.45834473 137 119 107
0.37767801 0.09165733 0.45834473 136 118 105
0.37795913 0.09153356 0.45772576 133 115 103
0.37849471 0.09147179 0.45741689 133 115 102
0.37928531 0.09147179 0.45741689 134 116 104
0.38086653 0.09147179 0.45741689 130 120 104
0.38062981 0.09122557 0.45618564 132 123 107
0.38375625 0.09159540 0.45803502 139 134 122
0.38480791 0.09165733 0.45834473 142 137 125
0.38481957 0.09147179 0.45741689 146 140 128
0.38535017 0.09141012 0.45710847 149 143 131
0.38588002 0.09134851 0.45680043 150 143 132
0.38640919 0.09128700 0.45649281 151 142 134
0.38641757 0.09110296 0.45557249 149 138 132
0.38616690 0.09085871 0.45435110 145 135 129
0.96728766 0.20696366 1.03494942 126 100 95
0.96759921 0.20664817 1.03337169 120 94 88
0.96790987 0.20633364 1.03179884 116 92 84
0.97117144 0.20664817 1.03337169 113 94 83
0.97892660 0.20791595 1.03971136 114 95 84
0.98072368 0.20791595 1.03971136 106 92 85
0.97951609 0.20728011 1.03653193 96 88 84
0.98130763 0.20728011 1.03653193 89 81 77
0.98159826 0.20696366 1.03494942 103 99 97
0.98489076 0.20728011 1.03653193 127 128 128
0.98217690 0.20633364 1.03179884 164 164 164
1.17660284 0.20791595 1.03971136 140 148 152
1.17659533 0.20759755 1.03811920 141 149 153
1.17479146 0.20696366 1.03494942 137 146 148
1.17658031 0.20696366 1.03494942 139 148 149
1.17657280 0.20664817 1.03337169 140 149 150
1.18015802 0.20696366 1.03494942 138 144 146
1.18375409 0.20728011 1.03653193 144 150 152
1.18013215 0.20633364 1.03179884 108 109 116
1.17832851 0.20570743 1.02866745 31 25 42
1.18190002 0.20602006 1.03023076 24 18 35
1.18188453 0.20570743 1.02866745 33 27 44
1.18008101 0.20508502 1.02555501 44 38 55
1.18544042 0.20570743 1.02866745 38 32 49
1.18721843 0.20570743 1.02866745 37 31 48
1.18719482 0.20539576 1.02710891 36 30 47
1.18897009 0.20539576 1.02710891 35 29 46
1.19074535 0.20539576 1.02710891 33 29 44
1.18177724 0.20354535 1.01785564 31 28 42
1.17999303 0.20293592 1.01480818 30 27 41
-0.19634868 0.20971301 1.03971136 88 83 83
-0.19336534 0.20843427 1.03337169 95 89 90
-0.18984286 0.20654513 1.02400577 98 92 94
-0.18778929 0.20623361 1.02246130 101 95 97
-0.18546258 0.20561334 1.01938617 99 97 98
-0.18397731 0.20592301 1.02092147 101 100 99
-0.18221273 0.20592301 1.02092147 109 108 104
-0.17990626 0.20530462 1.01785564 100 97 93
-0.17761362 0.20468993 1.01480818 91 87 84
-0.17612326 0.20499682 1.01632965 84 80 79
-0.17462842 0.20530462 1.01785564 79 77 77
-0.17235157 0.20468993 1.01480818 75 74 73
-0.17110986 0.20530462 1.01785564 73 74 71
-0.16935058 0.20530462 1.01785564 84 85 80
-0.16784331 0.20561334 1.01938617 87 86 83
-0.16608138 0.20561334 1.01938617 78 74 73
-0.16481514 0.20623361 1.02246130 86 80 82
-0.16255754 0.20561334 1.01938617 108 103 103
-0.16128066 0.20623361 1.02246130 105 103 101
-0.15903369 0.20561334 1.01938617 97 94 93
0.30548277 0.15450042 0.76597947 153 146 136
0.30995882 0.15608776 0.77384913 151 144 136
0.31058726 0.15573221 0.77208638 148 140 137
0.30980462 0.15467520 0.76684600 143 135 131
0.31042773 0.15432605 0.76511496 139 129 125
0.31069815 0.15380527 0.76253301 133 126 120
0.32638183 0.15626615 0.77473354 105 95 95
0.32697353 0.15590978 0.77296674 86 76 77
0.32868433 0.15608776 0.77384913 83 73 74
0.33039904 0.15626615 0.77473354 83 73 74
0.33022848 0.15555504 0.77120799 105 97 99
0.33005947 0.15485038 0.76771444 126 118 120
0.33101153 0.15467520 0.76684600 134 133 130
0.33272949 0.15363245 0.76167625 141 139 135
0.46213955 0.16355607 0.81087542 154 142 135
0.37447655 0.09263745 0.45927632 140 127 116
0.37476256 0.09251209 0.45865482 139 126 115
0.37530139 0.09244955 0.45834473 142 127 114
0.37767801 0.09244955 0.45834473 135 118 103
0.37770408 0.09226240 0.45741689 131 114 99
0.37875026 0.09232470 0.45772576 131 115 99
0.37954143 0.09232470 0.45772576 136 120 104
0.38058954 0.09238708 0.45803502 142 125 109
0.38112369 0.09232470 0.45772576 144 135 116
0.38088611 0.09207601 0.45649281 144 141 120
0.38296455 0.09238708 0.45803502 143 140 119
0.38375625 0.09238708 0.45803502 145 142 121
0.38454792 0.09238708 0.45803502 147 144 124
0.38456008 0.09220019 0.45710847 148 144 125
0.38509050 0.09213806 0.45680043 149 141 125
0.38588002 0.09213806 0.45680043 147 139 123
0.38640919 0.09207601 0.45649281 148 139 126
0.38641757 0.09189037 0.45557249 148 136 126
0.38642588 0.09170549 0.45465583 143 132 122
0.96728766 0.20875248 1.03494942 126 100 98
0.96612650 0.20811701 1.03179884 122 95 93
0.96643889 0.20780073 1.03023076 118 91 89
0.96821952 0.20780073 1.03023076 117 91 87
0.97444296 0.20875248 1.03494942 119 94 89
0.97623181 0.20875248 1.03494942 107 86 81
0.97652972 0.20843427 1.03337169 77 64 62
0.97682679 0.20811701 1.03179884 84 71 68
0.98010194 0.20843427 1.03337169 111 104 102
0.98338711 0.20875248 1.03494942 148 149 149
0.98068422 0.20780073 1.03023076 159 160 160
1.17481065 0.21003515 1.04130852 147 153 157
1.17480576 0.20971301 1.03971136 147 154 157
1.17480099 0.20939185 1.03811920 147 156 157
1.17300272 0.20875248 1.03494942 149 158 159
1.17300069 0.20843427 1.03337169 146 155 156
1.17658031 0.20875248 1.03494942 146 155 156
1.17657280 0.20843427 1.03337169 149 157 159
1.18015802 0.20875248 1.03494942 154 159 164
1.18375409 0.20907168 1.03653193 151 156 160
1.18193114 0.20843427 1.03337169 117 119 128
1.18011928 0.20780073 1.03023076 33 27 47
1.18190002 0.20780073 1.03023076 26 19 41
1.18188453 0.20748541 1.02866745 33 26 47
1.18186903 0.20717102 1.02710891 42 35 57
1.18724203 0.20780073 1.03023076 38 31 53
1.18902266 0.20780073 1.03023076 37 31 50
1.18899632 0.20748541 1.02866745 37 31 48
1.19077432 0.20748541 1.02866745 36 30 47
1.19255233 0.20748541 1.02866745 34 30 45
1.18355441 0.20561334 1.01938617 32 29 43
1.18176210 0.20499682 1.01632965 32 29 43
-0.19099693 0.20958140 1.03023076 91 90 90
-0.18835749 0.20863020 1.02555501 96 96 96
-0.18425481 0.20800084 1.02246130 92 91 89
-0.18221273 0.20768759 1.02092147 98 96 93
-0.17990626 0.20706390 1.01785564 92 87 85
-0.17787990 0.20675346 1.01632965 88 82 81
-0.17612326 0.20675346 1.01632965 79 75 74
-0.17436661 0.20675346 1.01632965 77 74 74
-0.17209394 0.20613536 1.01329124 78 75 75
-0.17085332 0.20675346 1.01632965 83 82 82
-0.16909668 0.20675346 1.01632965 107 106 100
-0.16759130 0.20706390 1.01785564 128 126 119
-0.16608138 0.20737527 1.01938617 117 113 104
-0.16481514 0.20800084 1.02246130 126 121 116
-0.16255754 0.20737527 1.01938617 126 124 117
-0.16103777 0.20768759 1.02092147 111 113 105
-0.15903369 0.20737527 1.01938617 91 93 87
0.31200871 0.15778553 0.77561998 154 144 139
0.31085959 0.15653186 0.76945728 151 141 136
0.31113005 0.15600063 0.76684600 144 134 129
0.31104803 0.15529794 0.76339173 142 132 127
0.32927009 0.15706670 0.77208638 90 80 83
0.32873252 0.15617731 0.76771444 105 92 96
0.32894188 0.15564848 0.76511496 128 114 118
0.32989198 0.15547301 0.76425236 135 128 130
0.33235604 0.15477504 0.76082134 143 137 135
0.33180904 0.15391134 0.75657570 143 139 136
0.33200511 0.15339772 0.75405097 148 144 136
0.45773876 0.16797145 0.82569045 140 136 124
0.45860732 0.16776711 0.82468593 137 131 121
0.46262053 0.16715704 0.82168710 153 143 137
0.46235943 0.16655140 0.81870997 154 142 136
0.46631595 0.16695467 0.82069230 154 142 136
0.46492016 0.16595013 0.81575429 153 141 134
0.46409622 0.16515516 0.81184649 151 139 131
0.37396982 0.09330484 0.45865482 136 127 116
0.37425613 0.09317876 0.45803502 136 127 116
0.37504780 0.09317876 0.45803502 138 128 114
0.37558571 0.09311584 0.45772576 143 130 114
0.37637684 0.09311584 0.45772576 150 138 122
0.37767801 0.09324176 0.45834473 142 129 115
0.37795913 0.09311584 0.45772576 133 120 107
0.37900618 0.09317876 0.45803502 130 117 104
0.37979785 0.09317876 0.45803502 136 127 113
0.38084686 0.09324176 0.45834473 139 130 115
0.38138121 0.09317876 0.45803502 142 134 117
0.38191482 0.09311584 0.45772576 144 138 118
0.38322350 0.09324176 0.45834473 142 136 116
0.38375625 0.09317876 0.45803502 146 141 119
0.38480791 0.09324176 0.45834473 149 144 121
0.38533959 0.09317876 0.45803502 151 146 123
0.38613126 0.09317876 0.45803502 152 144 125
0.38666168 0.09311584 0.45772576 149 141 122
0.38719139 0.09305301 0.45741689 147 138 120
0.38745910 0.09292760 0.45680043 147 137 120
0.38824865 0.09292760 0.45680043 147 137 120
0.96876669 0.21086325 1.03653193 122 100 95
0.96612650 0.20990039 1.03179884 121 97 93
0.96497238 0.20926337 1.02866745 118 94 90
0.96528554 0.20894630 1.02710891 113 90 87
0.97000021 0.20958140 1.03023076 115 92 89
0.97325999 0.20990039 1.03179884 113 91 88
0.97208422 0.20926337 1.02866745 93 76 74
0.97386217 0.20926337 1.02866745 99 82 81
0.97712290 0.20958140 1.03023076 119 106 104
0.97890359 0.20958140 1.03023076 151 150 146
1.17481065 0.21183497 1.04130852 150 158 163
1.17480576 0.21151006 1.03971136 149 157 160
1.17480099 0.21118616 1.03811920 146 155 156
1.17479622 0.21086325 1.03653193 146 155 156
1.17479146 0.21054131 1.03494942 145 154 155
1.17658031 0.21054131 1.03494942 145 154 155
1.17836916 0.21054131 1.03494942 146 155 156
1.18196249 0.21086325 1.03653193 161 161 165
1.18556690 0.21118616 1.03811920 153 149 154
1.18373561 0.21054131 1.03494942 119 115 122
1.18191552 0.20990039 1.03179884 39 32 52
1.18369889 0.20990039 1.03179884 25 18 40
1.18548226 0.20990039 1.03179884 31 23 45
1.18366241 0.20926337 1.02866745 38 29 52
1.19086170 0.21022037 1.03337169 38 29 52
1.19264770 0.21022037 1.03337169 38 30 50
1.19261587 0.20990039 1.03179884 37 31 48
1.19258404 0.20958140 1.03023076 36 30 47
1.19436467 0.20958140 1.03023076 33 30 41
1.18355441 0.20737527 1.01938617 30 31 36
1.18176210 0.20675346 1.01632965 30 31 36
-0.19425368 0.21298046 1.03811920 86 86 86
-0.19157924 0.21200646 1.03337169 90 90 90
-0.18835749 0.21040279 1.02555501 93 93 93
-0.18425481 0.20976809 1.02246130 91 90 87
-0.18221273 0.20945217 1.02092147 87 84 79
-0.17990626 0.20882319 1.01785564 87 80 78
-0.17787990 0.20851010 1.01632965 85 77 76
-0.17638770 0.20882319 1.01785564 78 74 73
-0.17436661 0.20851010 1.01632965 78 74 73
-0.17183709 0.20757648 1.01177883 80 77 75
-0.17034255 0.20788676 1.01329124 105 103 100
-0.16884354 0.20819797 1.01480818 142 135 126
-0.16759130 0.20882319 1.01785564 143 135 125
-0.16608138 0.20913720 1.01938617 145 138 126
-0.16456693 0.20945217 1.02092147 133 132 118
-0.16231346 0.20882319 1.01785564 124 124 111
-0.16079561 0.20913720 1.01938617 108 109 98
-0.15879489 0.20882319 1.01785564 95 96 87
0.31380391 0.16004170 0.78008264 156 148 140
0.32725009 0.15679395 0.76425236 106 93 96
0.32783183 0.15644121 0.76253301 122 106 111
0.32878000 0.15626544 0.76167625 133 117 122
0.33046779 0.15644121 0.76253301 137 121 126
0.33066991 0.15591507 0.75996846 136 127 130
0.33161169 0.15574047 0.75911742 144 136 136
0.33107007 0.15487333 0.75489068 148 143 136
0.33163622 0.15452915 0.75321317 151 146 136
0.34041497 0.15556626 0.75826830 165 158 145
0.45415449 0.17127615 0.83484215 139 134 127
0.45336413 0.17043658 0.83074981 140 135 128
0.45368803 0.17001985 0.82871866 140 135 128
0.45456469 0.16981226 0.82770675 142 137 130
0.45910767 0.17043658 0.83074981 143 135 128
0.45885658 0.16981226 0.82770675 138 131 120
0.45916590 0.16939859 0.82569045 136 130 119
0.45947376 0.16898693 0.82368392 134 127 116
0.45978010 0.16857727 0.82168710 134 126 117
0.46120030 0.16857727 0.82168710 141 133 129
0.46262053 0.16857727 0.82168710 148 140 136
0.46291852 0.16816957 0.81969994 147 138 134
0.46633014 0.16736010 0.81575429 147 137 130
0.37422299 0.09416130 0.45896536 123 119 107
0.37450919 0.09403397 0.45834473 126 121 108
0.37504780 0.09397043 0.45803502 129 124 109
0.37558571 0.09390698 0.45772576 135 130 111
0.37767801 0.09403397 0.45834473 147 139 123
0.37821451 0.09397043 0.45803502 140 131 116
0.37900618 0.09397043 0.45803502 128 119 104
0.38005465 0.09403397 0.45834473 137 130 115
0.38110453 0.09409759 0.45865482 141 135 120
0.38163906 0.09403397 0.45834473 143 137 121
0.38217288 0.09397043 0.45803502 144 138 119
0.38322350 0.09403397 0.45834473 144 138 118
0.38375625 0.09397043 0.45803502 146 140 119
0.38480791 0.09403397 0.45834473 150 143 121
0.38507941 0.09390698 0.45772576 152 145 123
0.38613126 0.09397043 0.45803502 152 145 123
0.38666168 0.09390698 0.45772576 152 145 123
0.38719139 0.09384362 0.45741689 150 143 122
0.38772038 0.09378034 0.45710847 148 138 122
0.38851047 0.09378034 0.45710847 151 141 125
0.97173840 0.21330711 1.03971136 118 101 91
0.96759921 0.21200646 1.03337169 115 97 89
0.96351027 0.21072158 1.02710891 111 93 85
0.96382523 0.21040279 1.02555501 106 87 82
0.96852827 0.21104133 1.02866745 107 87 83
0.97030628 0.21104133 1.02866745 112 92 88
0.96914297 0.21040279 1.02555501 105 91 86
0.96944892 0.21008496 1.02400577 110 98 93
0.97416192 0.21072158 1.02710891 126 115 110
1.18208981 0.21528830 1.04936814 149 157 163
1.17300880 0.21330711 1.03971136 148 156 162
1.17480576 0.21330711 1.03971136 148 156 162
1.17480099 0.21298046 1.03811920 147 155 161
1.17659533 0.21298046 1.03811920 146 154 160
1.17658782 0.21265480 1.03653193 146 154 159
1.17837942 0.21265480 1.03653193 145 153 157
1.18017089 0.21265480 1.03653193 145 153 157
1.18377256 0.21298046 1.03811920 158 160 166
1.18738520 0.21330711 1.03971136 143 141 150
1.18554556 0.21265480 1.03653193 91 89 98
1.18371725 0.21200646 1.03337169 36 34 43
1.18550336 0.21200646 1.03337169 22 20 30
1.18728948 0.21200646 1.03337169 34 31 42
1.18726563 0.21168378 1.03179884 36 31 44
1.19267976 0.21233013 1.03494942 37 31 45
1.19446862 0.21233013 1.03494942 36 32 44
1.19443381 0.21200646 1.03337169 34 32 42
1.19621992 0.21200646 1.03337169 33 31 41
1.19800603 0.21200646 1.03337169 31 31 38
1.18355441 0.20913720 1.01938617 30 31 35
-0.19695283 0.21576603 1.04291058 89 88 88
-0.19485047 0.21543460 1.04130852 94 91 91
-0.19245939 0.21477477 1.03811920 92 88 88
-0.18864287 0.21249685 1.02710891 91 88 87
-0.18574189 0.21121675 1.02092147 91 90 88
-0.18397731 0.21121675 1.02092147 91 90 88
-0.18221273 0.21121675 1.02092147 88 87 83
-0.17990626 0.21058246 1.01785564 82 78 78
-0.17787990 0.21026675 1.01632965 77 74 75
-0.17638770 0.21058246 1.01785564 73 73 71
-0.17436661 0.21026675 1.01632965 73 72 71
-0.17107110 0.20839216 1.00726867 82 81 79
-0.17008831 0.20932525 1.01177883 106 99 91
-0.16859116 0.20963815 1.01329124 132 124 114
-0.16734004 0.21026675 1.01632965 141 133 123
-0.16608138 0.21089913 1.01938617 143 136 125
-0.16456693 0.21121675 1.02092147 128 126 113
-0.16207011 0.21026675 1.01632965 119 117 107
-0.16055417 0.21058246 1.01785564 101 102 94
-0.15855682 0.21026675 1.01632965 79 78 73
0.11211141 0.17487273 0.84525168 100 93 94
0.11314911 0.17422102 0.84210169 119 110 109
0.11503331 0.17487273 0.84525168 129 120 114
0.26487377 0.18901338 0.91360086 156 142 138
0.31694284 0.16441727 0.79471493 150 146 138
0.31757185 0.16403265 0.79285598 152 148 140
0.31489101 0.16194910 0.78278506 148 143 134
0.31370825 0.16065054 0.77650839 144 139 130
0.32889551 0.15955395 0.77120799 94 93 91
0.32836068 0.15865150 0.76684600 102 99 97
0.32857102 0.15811491 0.76425236 114 108 108
0.32989198 0.15811491 0.76425236 124 117 119
0.33121294 0.15811491 0.76425236 129 120 123
0.33178577 0.15775919 0.76253301 136 127 128
0.33272949 0.15758194 0.76167625 141 132 133
0.33255136 0.15687688 0.75826830 140 134 132
0.33274537 0.15635219 0.75573224 142 136 131
0.33405158 0.15635219 0.75573224 150 146 135
0.33685994 0.15705255 0.75911742 156 150 138
0.34024614 0.15740508 0.76082134 157 150 137
0.34079617 0.15705255 0.75911742 156 149 136
0.45392039 0.17208333 0.83176911 141 135 128
0.45535806 0.17208333 0.83176911 140 135 127
0.45567745 0.17166208 0.82973295 141 136 128
0.46023569 0.17229475 0.83279097 144 137 128
0.45997983 0.17166208 0.82973295 144 137 126
0.46028718 0.17124288 0.82770675 145 138 127
0.46003273 0.17061791 0.82468593 145 137 129
0.46033809 0.17020379 0.82268429 146 138 129
0.46232110 0.17041060 0.82368392 146 138 132
0.46374476 0.17041060 0.82368392 148 140 134
0.46404076 0.16999748 0.82168710 145 137 131
0.46858567 0.16958636 0.81969994 142 134 125
0.47171363 0.17020379 0.82268429 144 137 127
0.37501630 0.09495459 0.45896536 114 111 100
0.37580958 0.09495459 0.45896536 114 111 100
0.37634805 0.09489034 0.45865482 117 115 99
0.37714079 0.09489034 0.45865482 128 126 110
0.37793356 0.09489034 0.45865482 134 131 115
0.37847024 0.09482618 0.45834473 132 128 112
0.37926245 0.09482618 0.45834473 123 118 102
0.38031179 0.09489034 0.45865482 132 127 110
0.38110453 0.09489034 0.45865482 141 136 118
0.38163906 0.09482618 0.45834473 146 141 123
0.38191482 0.09469812 0.45772576 149 144 127
0.38296455 0.09476211 0.45803502 148 142 126
0.38375625 0.09476211 0.45803502 147 142 126
0.38454792 0.09476211 0.45803502 149 143 127
0.38456008 0.09457041 0.45710847 151 145 129
0.38509050 0.09450669 0.45680043 151 143 127
0.38614023 0.09457041 0.45710847 152 142 125
0.38693032 0.09457041 0.45710847 154 144 127
0.38745910 0.09450669 0.45680043 153 143 128
0.38798720 0.09444305 0.45649281 153 143 128
0.38851461 0.09437949 0.45618564 151 143 127
0.96319437 0.21281931 1.02866745 114 97 85
0.96737039 0.21217537 1.02555501 106 85 82
1.18208981 0.21710205 1.04936814 149 157 163
1.17300880 0.21510418 1.03971136 148 156 162
1.17480576 0.21510418 1.03971136 147 155 161
1.17660284 0.21510418 1.03971136 147 155 161
1.17839992 0.21510418 1.03971136 146 154 160
1.17838967 0.21477477 1.03811920 146 154 159
1.18018389 0.21477477 1.03811920 145 153 157
1.18197823 0.21477477 1.03811920 147 155 159
1.18558812 0.21510418 1.03971136 158 161 168
1.18738520 0.21510418 1.03971136 153 151 160
1.18736112 0.21477477 1.03811920 91 89 98
1.18915546 0.21477477 1.03811920 41 39 48
1.18912876 0.21444637 1.03653193 22 20 29
1.19092035 0.21444637 1.03653193 32 30 39
1.19271183 0.21444637 1.03653193 36 33 44
1.19633269 0.21477477 1.03811920 36 33 44
1.19629502 0.21444637 1.03653193 34 32 43
1.19808650 0.21444637 1.03653193 33 31 40
1.19987810 0.21444637 1.03653193 33 31 40
1.19983506 0.21411897 1.03494942 32 31 39
1.18355441 0.21089913 1.01938617 31 30 38
-0.17217833 0.12729037 0.61016369 96 95 92
-0.16359413 0.12717590 0.60961497 67 67 67
-0.16195787 0.12672007 0.60742998 68 68 68
-0.16105230 0.12683372 0.60797477 74 73 75
-0.19545095 0.21790385 1.04451752 91 84 85
-0.19334766 0.21756862 1.04291058 98 89 90
-0.18892913 0.21459727 1.02866745 91 87 86
-0.18602204 0.21330257 1.02246130 83 81 79
-0.18425481 0.21330257 1.02246130 78 77 75
-0.18221273 0.21298133 1.02092147 85 85 84
-0.17990626 0.21234174 1.01785564 85 85 84
-0.17787990 0.21202339 1.01632965 79 79 78
-0.17008831 0.21107404 1.01177883 100 93 82
-0.16859116 0.21138954 1.01329124 122 109 104
-0.16708952 0.21170600 1.01480818 132 118 114
-0.16583201 0.21234174 1.01785564 129 117 115
-0.16431946 0.21266106 1.01938617 118 114 110
-0.16182749 0.21170600 1.01480818 105 102 98
-0.16031346 0.21202339 1.01632965 94 91 89
-0.15831946 0.21170600 1.01480818 84 80 80
0.11051267 0.17611408 0.84419906 84 78 78
0.11211141 0.17633367 0.84525168 97 92 92
0.11314911 0.17567652 0.84210169 117 113 110
0.11503331 0.17633367 0.84525168 124 119 112
0.11693165 0.17699575 0.84842533 126 123 115
0.11854646 0.17721754 0.84948850 129 124 117
0.11956524 0.17655382 0.84630692 135 127 121
0.12087710 0.17633367 0.84525168 134 126 122
0.12218570 0.17611408 0.84419906 131 120 118
0.12364483 0.17611408 0.84419906 119 106 106
0.26594904 0.19136618 0.91730964 151 137 135
0.31731483 0.16598545 0.79564768 150 145 138
0.31489101 0.16330208 0.78278506 146 139 129
0.33080876 0.16052169 0.76945728 108 107 106
0.33253387 0.15943585 0.76425236 132 124 125
0.33310375 0.15907717 0.76253301 136 127 128
0.33329698 0.15854216 0.75996846 139 135 133
0.33423582 0.15836462 0.75911742 141 137 135
0.33517256 0.15818748 0.75826830 148 141 137
0.33723760 0.15854216 0.75996846 152 144 139
0.34007615 0.15925631 0.76339173 152 144 138
0.34062842 0.15889843 0.76167625 150 143 134
0.34117824 0.15854216 0.75996846 148 141 130
0.45503706 0.17394786 0.83381528 141 135 127
0.45647824 0.17394786 0.83381528 140 134 126
0.46023569 0.17373416 0.83279097 143 138 129
0.45997983 0.17309621 0.82973295 147 140 131
0.45972586 0.17246293 0.82669735 150 143 133
0.45947376 0.17183428 0.82368392 151 144 134
0.45978010 0.17141770 0.82168710 151 144 134
0.46176001 0.17162573 0.82268429 152 143 135
0.46318197 0.17162573 0.82268429 155 146 138
0.46404076 0.17141770 0.82168710 146 136 128
0.46602586 0.17162573 0.82268429 145 135 127
0.46915296 0.17121017 0.82069230 144 137 123
0.47228679 0.17183428 0.82368392 137 131 115
0.37844566 0.09581274 0.45927632 100 100 87
0.37872630 0.09568309 0.45865482 112 111 96
0.37977600 0.09574787 0.45896536 122 121 105
0.38108531 0.09587770 0.45958769 133 131 115
0.38136256 0.09574787 0.45896536 144 141 124
0.38189730 0.09568309 0.45865482 147 145 127
0.38217288 0.09555379 0.45803502 148 145 128
0.38322350 0.09561840 0.45834473 146 143 125
0.38401571 0.09561840 0.45834473 144 140 123
0.38480791 0.09561840 0.45834473 150 143 127
0.38456008 0.09536049 0.45710847 152 145 129
0.38509050 0.09529623 0.45680043 150 142 127
1.18208981 0.21891579 1.04936814 146 153 158
1.17481065 0.21723442 1.04130852 146 154 158
1.17661047 0.21723442 1.04130852 147 155 159
1.17841029 0.21723442 1.04130852 147 155 161
1.18021011 0.21723442 1.04130852 146 154 160
1.18019700 0.21690123 1.03971136 146 153 159
1.18199408 0.21690123 1.03971136 149 154 159
1.18379104 0.21690123 1.03971136 149 155 160
1.18740928 0.21723442 1.04130852 154 157 164
1.18920910 0.21723442 1.04130852 151 150 159
1.19100893 0.21723442 1.04130852 68 67 76
1.19097936 0.21690123 1.03971136 38 38 47
1.19277632 0.21690123 1.03971136 30 30 39
1.19457340 0.21690123 1.03971136 31 31 40
1.19637048 0.21690123 1.03971136 33 32 41
1.20000803 0.21723442 1.04130852 33 32 42
1.19996464 0.21690123 1.03971136 33 32 41
1.20176160 0.21690123 1.03971136 32 31 40
1.20355868 0.21690123 1.03971136 32 31 40
1.20350993 0.21656907 1.03811920 31 30 39
-0.17603044 0.12962843 0.61626530 102 98 95
-0.17417358 0.12904188 0.61347675 102 97 95
-0.17264451 0.12869249 0.61181575 99 94 91
-0.17081621 0.12811436 0.60906726 99 93 91
-0.16780882 0.12822957 0.60961497 74 71 70
-0.16660531 0.12811436 0.60906726 72 69 69
-0.16540398 0.12799937 0.60852051 70 69 69
-0.16449986 0.12811436 0.60906726 68 67 67
-0.16344714 0.12811436 0.60906726 73 73 75
-0.16195787 0.12776996 0.60742998 78 78 80
-0.16105230 0.12788457 0.60797477 81 80 82
-0.15971498 0.12765558 0.60688615 82 84 87
-0.19364558 0.21970922 1.04451752 91 85 85
-0.18892913 0.21637525 1.02866745 89 85 86
-0.18248756 0.21506982 1.02246130 77 77 74
-0.17990626 0.21410103 1.01785564 84 84 80
-0.16909668 0.21378003 1.01632965 113 98 96
-0.16734004 0.21378003 1.01632965 119 102 102
-0.16608138 0.21442299 1.01938617 123 105 107
-0.16431946 0.21442299 1.01938617 110 105 104
0.11253235 0.17846218 0.84842533 94 78 82
0.11343092 0.17757320 0.84419906 98 84 84
0.11517692 0.17801659 0.84630692 111 108 96
0.11707819 0.17868581 0.84948850 116 114 102
0.11854646 0.17868581 0.84948850 105 101 92
0.11971469 0.17823911 0.84736478 114 107 102
0.12102801 0.17801659 0.84630692 118 107 107
0.12233806 0.17779462 0.84525168 116 105 105
0.12379900 0.17779462 0.84525168 108 97 96
0.12557310 0.17823911 0.84736478 101 92 94
0.26594904 0.19295166 0.91730964 153 143 139
0.26717299 0.19269092 0.91607004 153 143 139
0.31806147 0.16775446 0.79751980 153 145 138
0.31794372 0.16696872 0.79378438 150 142 134
0.33231756 0.16258983 0.77296674 111 107 108
0.33233696 0.16130236 0.76684600 109 105 106
0.33253387 0.16075680 0.76425236 126 121 121
0.33347887 0.16057578 0.76339173 133 128 128
0.33329698 0.15985569 0.75996846 138 136 134
0.33423582 0.15967669 0.75911742 142 140 138
0.33592409 0.15985569 0.75996846 150 144 139
0.34045956 0.16075680 0.76425236 150 142 136
0.34139562 0.16057578 0.76339173 150 141 135
0.34194493 0.16021493 0.76167625 148 139 134
0.45503706 0.17538904 0.83381528 135 132 124
0.45647824 0.17538904 0.83381528 133 129 121
0.45910767 0.17474422 0.83074981 146 141 133
0.45829698 0.17389181 0.82669735 152 146 137
0.45860732 0.17346871 0.82468593 154 148 139
0.45891613 0.17304768 0.82268429 153 146 137
0.45922345 0.17262867 0.82069230 151 144 134
0.46008494 0.17241994 0.81969994 152 144 133
0.46262053 0.17283793 0.82168710 157 149 138
0.46291852 0.17241994 0.81969994 154 146 132
0.46489745 0.17262867 0.82069230 155 148 133
0.46631595 0.17262867 0.82069230 155 145 132
0.46604180 0.17200397 0.81772238 148 138 124
0.46745518 0.17200397 0.81772238 142 131 121
0.47171363 0.17304768 0.82268429 136 124 117
0.47313556 0.17304768 0.82268429 131 118 111
0.37895915 0.09673765 0.45989949 93 91 82
0.37975404 0.09673765 0.45989949 111 111 100
0.38054895 0.09673765 0.45989949 123 123 111
0.38186198 0.09686908 0.46052435 132 131 118
0.38187966 0.09667206 0.45958769 140 137 122
0.38215587 0.09654115 0.45896536 143 140 125
0.38243130 0.09641060 0.45834473 144 141 123
0.38348278 0.09647583 0.45865482 143 141 120
0.38427553 0.09647583 0.45865482 141 138 118
0.38506827 0.09647583 0.45865482 150 142 124
0.38533959 0.09634546 0.45803502 150 141 124
0.38587055 0.09628041 0.45772576 147 137 122
1.20642138 0.22561912 1.07261372 147 157 160
1.18392253 0.22107176 1.05099511 149 156 160
1.17481065 0.21903422 1.04130852 150 155 160
1.17661047 0.21903422 1.04130852 150 155 160
1.18022323 0.21937121 1.04291058 154 158 165
1.18202579 0.21937121 1.04291058 154 157 165
1.18200994 0.21903422 1.04130852 152 155 163
1.18380964 0.21903422 1.04130852 151 154 162
1.18560946 0.21903422 1.04130852 150 154 161
1.18923616 0.21937121 1.04291058 151 153 161
1.19287384 0.21970922 1.04451752 153 153 162
1.19467926 0.21970922 1.04451752 71 71 80
1.19464386 0.21937121 1.04291058 29 29 38
1.19644642 0.21937121 1.04291058 23 23 32
1.19824910 0.21937121 1.04291058 29 29 38
1.20005167 0.21937121 1.04291058 32 32 41
1.20370603 0.21970922 1.04451752 32 32 41
1.20365679 0.21937121 1.04291058 32 32 41
1.20726192 0.21937121 1.04291058 31 31 40
1.20535576 0.21869829 1.03971136 30 30 39
-0.17464773 0.13045642 0.61514688 84 75 74
-0.17295671 0.12998460 0.61292207 78 72 71
-0.17143232 0.12963296 0.61126405 77 72 70
-0.16826275 0.12963296 0.61126405 69 68 66
-0.16705561 0.12951618 0.61071336 69 68 66
-0.16555259 0.12916708 0.60906726 69 68 67
-0.16494447 0.12951618 0.61071336 66 65 65
-0.16374138 0.12939961 0.61016369 74 74 75
-0.16224864 0.12905113 0.60852051 82 82 83
-0.16134170 0.12916708 0.60906726 85 85 86
-0.16014509 0.12905113 0.60852051 87 88 89
-0.17085332 0.21553668 1.01632965 100 95 93
-0.16909668 0.21553668 1.01632965 108 98 99
-0.16456693 0.21651049 1.02092147 101 96 93
0.11162474 0.18083392 0.85269415 89 80 83
0.11309855 0.18083392 0.85269415 109 95 97
0.11399879 0.17992862 0.84842533 126 111 111
0.11560991 0.18015410 0.84948850 128 122 115
0.11722509 0.18038014 0.85055441 129 122 117
0.11884432 0.18060674 0.85162294 123 115 111
0.11986452 0.17992862 0.84842533 124 115 114
0.12148301 0.18015410 0.84948850 120 109 109
0.12279739 0.17992862 0.84842533 115 104 104
0.12426383 0.17992862 0.84842533 105 96 95
0.26316819 0.19720571 0.92989278 127 118 120
0.26190135 0.19506508 0.91979897 140 133 128
0.26436353 0.19453716 0.91730964 148 140 134
0.26667073 0.19506508 0.91979897 151 143 137
0.26789704 0.19480076 0.91855264 152 144 138
0.26767120 0.19348986 0.91237128 150 142 138
0.26924816 0.19348986 0.91237128 147 138 136
0.27082512 0.19348986 0.91237128 143 132 132
0.31994349 0.17013368 0.80223888 155 143 138
0.31906456 0.16893415 0.79658264 155 142 136
0.31819791 0.16775142 0.79100567 152 139 133
0.33233696 0.16262779 0.76684600 96 93 94
0.33328536 0.16244403 0.76597947 101 99 98
0.33385482 0.16207775 0.76425236 115 114 112
0.33367106 0.16135013 0.76082134 128 127 124
0.33498609 0.16135013 0.76082134 138 137 133
0.33667895 0.16153142 0.76167625 158 155 147
0.33913860 0.16207775 0.76425236 156 153 145
0.34122896 0.16244403 0.76597947 151 143 137
0.34216624 0.16226068 0.76511496 151 143 137
0.34310144 0.16207775 0.76425236 152 143 137
0.45760396 0.17726630 0.83587158 140 135 128
0.45791942 0.17683022 0.83381528 141 136 129
0.45823333 0.17639628 0.83176911 142 137 130
0.45967099 0.17639628 0.83176911 143 138 131
0.45829698 0.17532068 0.82669735 145 140 133
0.45860732 0.17489412 0.82468593 146 141 133
0.45891613 0.17446962 0.82268429 145 138 131
0.45922345 0.17404717 0.82069230 144 136 129
0.45952928 0.17362677 0.81870997 147 140 131
0.46262053 0.17425814 0.82168710 151 145 135
0.46291852 0.17383672 0.81969994 153 148 134
0.46489745 0.17404717 0.82069230 156 152 134
0.46631595 0.17404717 0.82069230 157 151 135
0.46548033 0.17320839 0.81673717 150 143 127
0.46689197 0.17320839 0.81673717 145 135 122
0.47114184 0.17425814 0.82168710 137 123 114
0.47256207 0.17425814 0.82168710 122 108 101
0.47340846 0.17404717 0.82069230 119 104 100
0.47253865 0.17320839 0.81673717 128 113 109
0.37842098 0.09759875 0.46021169 87 79 71
0.37895915 0.09753254 0.45989949 95 87 79
0.38001186 0.09759875 0.46021169 118 113 104
0.38080731 0.09759875 0.46021169 132 129 119
0.38186198 0.09766506 0.46052435 137 133 123
0.38187966 0.09746642 0.45958769 137 131 119
0.38215587 0.09733444 0.45896536 140 134 122
0.38269004 0.09726858 0.45865482 141 136 120
0.38348278 0.09726858 0.45865482 140 136 116
0.38453570 0.09733444 0.45896536 140 136 116
0.38532898 0.09733444 0.45896536 143 137 116
0.38533959 0.09713714 0.45803502 144 136 115
0.38613126 0.09713714 0.45803502 141 133 113
0.38692296 0.09713714 0.45803502 138 130 121
1.20642138 0.22747305 1.07261372 148 157 160
1.18392253 0.22288832 1.05099511 150 157 160
1.17481065 0.22083405 1.04130852 151 157 159
1.17661047 0.22083405 1.04130852 151 157 159
1.18022323 0.22117379 1.04291058 153 155 160
1.18021011 0.22083405 1.04130852 153 153 160
1.18200994 0.22083405 1.04130852 150 150 157
1.18380964 0.22083405 1.04130852 151 151 158
1.18560946 0.22083405 1.04130852 149 149 156
1.19106853 0.22151458 1.04451752 146 146 154
1.19287384 0.22151458 1.04451752 150 150 160
1.19467926 0.22151458 1.04451752 82 82 93
1.19648457 0.22151458 1.04451752 29 29 39
1.19828999 0.22151458 1.04451752 30 30 39
1.20009530 0.22151458 1.04451752 34 34 43
1.20190072 0.22151458 1.04451752 35 35 44
1.20720732 0.22083405 1.04130852 31 31 40
-0.17417358 0.13116258 0.61347675 97 92 94
-0.17233345 0.13057175 0.61071336 81 79 78
-0.16555259 0.13021980 0.60906726 84 81 83
-0.16374138 0.13045423 0.61016369 85 83 83
-0.16210313 0.12998623 0.60797477 90 88 88
-0.16105230 0.12998623 0.60797477 87 87 87
0.11414164 0.18162237 0.84948850 129 126 120
0.11575497 0.18185025 0.85055441 134 129 124
0.11737236 0.18207870 0.85162294 139 133 128
0.11884432 0.18207870 0.85162294 139 133 129
0.12001473 0.18162237 0.84948850 136 127 126
0.12163543 0.18185025 0.85055441 132 121 121
0.12295128 0.18162237 0.84948850 127 116 116
0.12457566 0.18185025 0.85055441 122 113 112
0.26446316 0.20101893 0.94021058 129 116 120
0.26352969 0.19908606 0.93117011 116 107 108
0.26297179 0.19745865 0.92355835 132 123 123
0.26313412 0.19638841 0.91855264 136 127 126
0.26472175 0.19638841 0.91855264 145 137 131
0.26776066 0.19745865 0.92355835 145 137 132
0.26972443 0.19772804 0.92481834 149 141 137
0.26948470 0.19638841 0.91855264 150 142 138
0.27217874 0.19719000 0.92230183 147 138 135
0.27265996 0.19638841 0.91855264 143 132 132
0.32032257 0.17172351 0.80318940 154 136 133
0.31981617 0.17071219 0.79845917 153 135 130
0.31819791 0.16911861 0.79100567 147 128 125
0.33196142 0.16376796 0.76597947 89 89 91
0.33290920 0.16358313 0.76511496 82 82 83
0.33347887 0.16321470 0.76339173 96 95 94
0.33292374 0.16230084 0.75911742 117 114 112
0.33423582 0.16230084 0.75911742 133 129 126
0.33630109 0.16266514 0.76082134 152 147 141
0.34122896 0.16376796 0.76597947 151 144 138
0.34255287 0.16376796 0.76597947 154 146 139
0.34310144 0.16339870 0.76425236 152 140 133
0.45848337 0.17849095 0.83484215 141 136 129
0.45879626 0.17805240 0.83279097 142 137 130
0.46023569 0.17805240 0.83279097 141 136 129
0.45885658 0.17696539 0.82770675 140 135 128
0.45916590 0.17653428 0.82569045 138 135 127
0.45947376 0.17610528 0.82368392 140 136 128
0.45978010 0.17567836 0.82168710 142 136 129
0.46064195 0.17546567 0.82069230 145 140 133
0.46374476 0.17610528 0.82368392 149 144 136
0.46404076 0.17567836 0.82168710 148 143 135
0.46602586 0.17589156 0.82268429 149 144 135
0.46688119 0.17567836 0.82168710 148 143 132
0.46716887 0.17525351 0.81969994 143 139 125
0.46915296 0.17546567 0.82069230 144 137 124
0.47171363 0.17589156 0.82268429 143 129 120
0.47313556 0.17589156 0.82268429 123 109 102
0.47398227 0.17567836 0.82168710 105 90 89
0.47253865 0.17462006 0.81673717 112 98 98
0.37921643 0.09839419 0.46021169 115 107 99
0.38001186 0.09839419 0.46021169 126 118 108
0.38080731 0.09839419 0.46021169 137 130 117
0.38186198 0.09846104 0.46052435 137 131 119
0.38187966 0.09826078 0.45958769 137 130 118
0.38215587 0.09812772 0.45896536 139 132 120
0.38269004 0.09806133 0.45865482 141 135 121
0.38374242 0.09812772 0.45896536 140 136 117
0.38479623 0.09819420 0.45927632 139 135 116
0.38559005 0.09819420 0.45927632 140 135 115
0.38560015 0.09799503 0.45834473 141 135 115
0.38613126 0.09792881 0.45803502 141 135 115
0.43027720 0.10586899 0.49517301 132 123 112
0.42987704 0.10556056 0.49373040 126 117 106
0.42792538 0.10487311 0.49051508 123 115 104
1.18026280 0.22401027 1.04774630 148 155 157
1.17300880 0.22229241 1.03971136 151 155 158
1.17480576 0.22229241 1.03971136 150 154 157
1.17841029 0.22263387 1.04130852 152 154 158
1.17839992 0.22229241 1.03971136 152 153 157
1.18019700 0.22229241 1.03971136 148 149 153
1.18380964 0.22263387 1.04130852 151 151 156
1.18560946 0.22263387 1.04130852 151 150 157
1.18923616 0.22297639 1.04291058 147 146 153
1.19287384 0.22331995 1.04451752 132 131 145
1.19467926 0.22331995 1.04451752 72 71 87
1.19648457 0.22331995 1.04451752 16 15 30
1.19828999 0.22331995 1.04451752 37 36 51
1.20194733 0.22366458 1.04612935 38 37 52
1.20561600 0.22401027 1.04774630 37 36 50
-0.17385890 0.13198404 0.61236840 134 133 132
-0.16359413 0.13139059 0.60961497 92 88 89
-0.16181289 0.13080244 0.60688615 88 84 85
0.11575497 0.18332036 0.85055441 140 139 134
0.11737236 0.18355067 0.85162294 141 137 134
0.11884432 0.18355067 0.85162294 143 137 135
0.12001473 0.18309064 0.84948850 143 134 133
0.12163543 0.18332036 0.85055441 143 135 132
0.12295128 0.18309064 0.84948850 141 133 130
0.12441955 0.18309064 0.84948850 130 122 119
0.26159102 0.20549414 0.95343435 119 109 107
0.26250055 0.20491771 0.95075995 117 107 106
0.26593852 0.20377451 0.94545585 126 110 114
0.26462016 0.20152597 0.93502325 115 106 107
0.26477543 0.20042020 0.92989278 129 120 120
0.26601776 0.20014566 0.92861897 142 133 131
0.26798993 0.20042020 0.92989278 149 141 137
0.27232510 0.20124839 0.93373531 146 138 134
0.27393898 0.20124839 0.93373531 145 136 134
0.27593294 0.20152597 0.93502325 143 134 132
0.33196142 0.16509190 0.76597947 95 94 95
0.33328536 0.16509190 0.76597947 85 84 85
0.33347887 0.16453415 0.76339173 94 89 92
0.33329698 0.16379634 0.75996846 108 103 103
0.33498609 0.16398017 0.76082134 125 120 117
0.33952138 0.16490556 0.76511496 148 139 133
0.34161496 0.16527866 0.76684600 141 135 128
0.34294039 0.16527866 0.76684600 138 132 125
0.34348869 0.16490556 0.76511496 141 133 127
0.34442240 0.16471964 0.76425236 143 134 129
0.45848337 0.17993391 0.83484215 141 136 129
0.45879626 0.17949180 0.83279097 141 136 128
0.46023569 0.17949180 0.83279097 140 132 125
0.45885658 0.17839600 0.82770675 134 126 119
0.45972586 0.17817844 0.82669735 126 120 113
0.46003273 0.17774493 0.82468593 128 122 115
0.46033809 0.17731351 0.82268429 133 125 121
0.46176001 0.17731351 0.82268429 138 130 127
0.46487448 0.17796142 0.82569045 138 129 128
0.46573433 0.17774493 0.82468593 141 132 131
0.46715972 0.17774493 0.82468593 140 135 129
0.46801576 0.17752895 0.82368392 140 135 129
0.46830142 0.17709857 0.82168710 139 137 124
0.47029167 0.17731351 0.82268429 138 135 122
0.47286135 0.17774493 0.82468593 137 129 118
0.47371045 0.17752895 0.82368392 127 118 109
0.47398227 0.17709857 0.82168710 108 98 96
0.37949660 0.09905514 0.45958769 137 129 120
0.38479623 0.09898803 0.45927632 129 124 104
0.38559005 0.09898803 0.45927632 129 124 105
0.38533959 0.09872049 0.45803502 133 127 110
0.42848238 0.10649149 0.49409026 143 135 126
0.42933637 0.10649149 0.49409026 141 132 121
0.42925176 0.10625914 0.49301225 137 127 116
0.42823523 0.10579748 0.49087027 132 122 111
0.42815357 0.10556816 0.48980623 130 121 110
1.17844141 0.22547273 1.04612935 147 154 158
1.17300880 0.22408946 1.03971136 148 153 158
1.17661047 0.22443369 1.04130852 148 153 158
1.17841029 0.22443369 1.04130852 149 152 158
1.17839992 0.22408946 1.03971136 150 150 157
1.18019700 0.22408946 1.03971136 147 147 154
1.18380964 0.22443369 1.04130852 149 149 156
1.18560946 0.22443369 1.04130852 151 150 157
1.18923616 0.22477897 1.04291058 146 145 152
1.19287384 0.22512531 1.04451752 120 118 134
1.19467926 0.22512531 1.04451752 70 68 86
1.19648457 0.22512531 1.04451752 4 3 18
1.19828999 0.22512531 1.04451752 32 30 49
1.20194733 0.22547273 1.04612935 40 37 57
1.20748234 0.22617079 1.04936814 38 36 54
-0.17444459 0.13268289 0.61071336 144 144 142
-0.17338902 0.13268289 0.61071336 146 146 142
-0.17171465 0.13220647 0.60852051 142 146 140
-0.17050982 0.13208790 0.60797477 140 144 137
-0.16961110 0.13220647 0.60852051 133 135 129
-0.16645576 0.13220647 0.60852051 107 106 104
-0.16510756 0.13196954 0.60742998 90 89 89
-0.16344714 0.13232526 0.60906726 83 82 80
-0.16123550 0.13138092 0.60472065 85 84 82
0.11309855 0.18525536 0.85269415 144 143 136
0.11428486 0.18479048 0.85055441 139 139 131
0.11590040 0.18502262 0.85162294 140 140 133
0.11737236 0.18502262 0.85162294 141 139 133
0.11884432 0.18502262 0.85162294 141 137 133
0.12016532 0.18479048 0.85055441 141 134 132
0.12178824 0.18502262 0.85162294 141 133 130
0.12310555 0.18479048 0.85055441 140 132 128
0.12457566 0.18479048 0.85055441 126 121 111
0.12620412 0.18502262 0.85162294 122 112 104
0.26456785 0.20949930 0.96428424 127 116 113
0.26398149 0.20772639 0.95612389 121 109 106
0.26488689 0.20714207 0.95343435 111 101 101
0.26691020 0.20743382 0.95477724 115 104 104
0.26668242 0.20598324 0.94810051 111 99 100
0.26571968 0.20398617 0.93890840 115 106 106
0.26550385 0.20258324 0.93245095 137 128 126
0.26711550 0.20258324 0.93245095 149 140 134
0.26909733 0.20286228 0.93373531 150 141 135
0.27535936 0.20512258 0.94413906 146 138 132
0.27776495 0.20569554 0.94677633 142 134 129
0.27940136 0.20569554 0.94677633 142 134 128
0.28064582 0.20540866 0.94545585 141 133 129
0.33423164 0.16622800 0.76511496 88 79 79
0.33404598 0.16548091 0.76167625 102 94 93
0.33649671 0.16604060 0.76425236 117 111 109
0.34128049 0.16774261 0.77208638 131 123 119
0.34183630 0.16736138 0.77033162 133 123 118
0.34355816 0.16755177 0.77120799 134 125 121
0.34410816 0.16717140 0.76945728 132 124 119
0.34426582 0.16660409 0.76684600 136 127 125
0.34481114 0.16622800 0.76511496 141 132 130
0.45936060 0.18115376 0.83381528 142 136 126
0.46080178 0.18115376 0.83381528 139 132 121
0.45941752 0.18004647 0.82871866 116 109 98
0.46028718 0.17982663 0.82770675 123 113 107
0.46059304 0.17938857 0.82569045 122 112 106
0.46089742 0.17895262 0.82368392 119 109 104
0.46288353 0.17917033 0.82468593 121 111 106
0.46715048 0.18026684 0.82973295 130 121 120
0.46858460 0.18026684 0.82973295 132 123 122
0.46887094 0.17982663 0.82770675 130 125 120
0.46858513 0.17917033 0.82468593 133 129 123
0.46886975 0.17873545 0.82268429 140 136 122
0.47143593 0.17917033 0.82468593 139 135 121
0.47401467 0.17960733 0.82669735 136 130 114
0.37844566 0.09978185 0.45927632 136 127 117
0.37923947 0.09978185 0.45927632 137 128 117
0.37977600 0.09971429 0.45896536 135 128 115
0.38056928 0.09971429 0.45896536 136 129 116
0.38110453 0.09964683 0.45865482 135 130 116
0.38163906 0.09957945 0.45834473 135 131 117
0.38243130 0.09957945 0.45834473 135 132 117
0.38559005 0.09978185 0.45927632 127 123 106
0.42460802 0.10680059 0.49158219 150 141 135
0.42514938 0.10672320 0.49122596 149 138 132
0.42661670 0.10687809 0.49193892 146 135 130
0.42777741 0.10695571 0.49229619 143 132 123
0.42831725 0.10687809 0.49193892 140 129 117
0.42823523 0.10664591 0.49087027 136 125 113
0.42846316 0.10649169 0.49016041 133 122 111
0.42900017 0.10641475 0.48980623 121 110 99
1.17662561 0.22693068 1.04451752 145 153 157
1.17481065 0.22623350 1.04130852 147 152 157
1.17661047 0.22623350 1.04130852 147 152 157
1.17841029 0.22623350 1.04130852 147 151 156
1.18021011 0.22623350 1.04130852 145 148 154
1.18200994 0.22623350 1.04130852 145 147 153
1.18380964 0.22623350 1.04130852 147 148 155
1.18743348 0.22658156 1.04291058 150 150 157
1.19106853 0.22693068 1.04451752 150 149 156
1.19287384 0.22693068 1.04451752 123 122 137
1.19652295 0.22728088 1.04612935 79 76 99
1.19833100 0.22728088 1.04612935 20 18 39
1.20199418 0.22763216 1.04774630 33 30 52
1.20566857 0.22798453 1.04936814 42 38 61
1.20935440 0.22833800 1.05099511 40 36 57
-0.17597575 0.13410090 0.61236840 147 147 143
-0.17444459 0.13373846 0.61071336 141 141 135
-0.17354536 0.13385905 0.61126405 143 144 133
