ply
format ascii 1.0
element vertex 878
property float x
property float y
property float z
property uchar red
property uchar green
property uchar blue
end_header
-1.00274746 0.35263264 1.63610474 25 25 29
-1.01155168 0.35648383 1.64737022 26 26 29
-1.00261164 0.36423442 1.63741994 25 24 31
-1.00646063 0.36454429 1.65047793 25 24 30
-0.98246735 0.31643459 1.61020809 28 27 35
-0.98322290 0.31853065 1.62563992 29 29 36
-0.98317279 0.32870768 1.61276044 27 26 33
-0.98755469 0.32989300 1.62760858 28 27 35
-0.99497007 0.33134316 1.64271581 28 27 34
-0.98417928 0.34491999 1.61513666 26 25 31
-0.98807711 0.34787020 1.62990882 26 26 31
-0.99075083 0.35719167 1.64594878 25 25 29
-0.98981870 0.36548111 1.63034432 25 24 32
-0.99152452 0.36690537 1.64817672 25 24 31
-0.96777713 0.31434498 1.60986241 31 30 36
-0.97620177 0.33077341 1.59880149 27 26 33
-0.97284301 0.33340280 1.61021981 27 27 33
-0.97089923 0.32924570 1.62304719 29 28 35
-0.96471594 0.34283739 1.61659630 26 25 31
-0.97107513 0.34781323 1.62852321 26 25 31
-0.97702299 0.35654459 1.64437741 26 25 33
-0.97357910 0.36529865 1.62956655 26 25 32
-0.95752217 0.31593422 1.60765068 32 31 38
-0.94082206 0.33550891 1.59503961 28 28 32
-0.94527042 0.33986518 1.60258114 28 27 31
-0.95063289 0.34508444 1.61403739 27 26 32
-0.95631957 0.34995577 1.62369537 27 26 33
-0.58630645 -0.62515346 1.64777832 84 86 90
-0.58374977 -0.60084593 1.63741994 88 89 89
-0.58608248 -0.61240435 1.64566420 87 89 90
-0.58308469 -0.58738507 1.61339231 86 86 87
-0.58270359 -0.58774053 1.62956654 88 89 91
-0.58694299 -0.58456800 1.64838326 89 90 91
-0.59233433 -0.58527189 1.66149962 90 90 89
-0.58748035 -0.57334110 1.59629651 90 90 90
-0.58517409 -0.57603377 1.60703585 90 90 91
-0.58798981 -0.57963479 1.63347435 90 90 90
-0.58588134 -0.57673047 1.64938658 89 89 89
-0.57353394 -0.60821499 1.63299534 87 88 90
-0.57098500 -0.58660896 1.61467837 89 89 91
-0.57316255 -0.58826891 1.62711709 89 89 91
-0.57805187 -0.58243352 1.64536858 89 90 92
-0.57149155 -0.57272903 1.61403556 89 89 90
-0.57434988 -0.57165730 1.63217179 88 89 91
-0.57948923 -0.57676774 1.64138460 90 90 89
-0.56157744 -0.55891407 1.60637879 90 90 92
-0.50046676 -0.31526786 0.66985363 41 40 40
-0.50528646 0.49907514 1.17282677 59 63 70
-0.50880611 0.49949139 1.18099630 56 61 68
-0.50485374 0.51081117 1.17182239 59 64 71
-0.51218778 0.51206017 1.18409508 61 64 70
-0.50545292 0.52839964 1.17216211 59 66 72
-0.51323662 0.52687721 1.18651981 59 66 71
-0.51353133 0.54110336 1.18720114 59 66 76
-0.48433556 -0.30251804 0.65893289 40 38 40
-0.49068687 -0.30847875 0.66322000 40 39 41
-0.48562079 -0.29140711 0.65648869 42 40 42
-0.49311535 -0.29691182 0.66141455 42 41 41
-0.48263372 -0.27590170 0.64703318 44 43 45
-0.48887902 0.49170837 1.13931406 62 63 72
-0.49248197 0.49200195 1.14771056 60 63 71
-0.49723592 0.50411940 1.15878952 59 66 73
-0.49894172 0.50785851 1.16276479 59 67 73
-0.47956929 -0.30130833 0.65708431 41 40 42
-0.47487308 -0.28683447 0.65036467 42 42 43
-0.46877887 -0.26634049 0.63621151 42 41 43
-0.47298193 -0.27536023 0.64325202 42 41 43
-0.46081263 -0.24022888 0.61964518 46 45 45
-0.46511510 -0.25259562 0.62660722 44 43 44
-0.46103396 -0.23744189 0.61907951 46 45 45
-0.46272957 -0.23959589 0.62078005 46 45 45
-0.46398977 0.46882002 1.09553728 55 59 68
-0.46710698 0.47393945 1.10574045 53 58 65
-0.46743983 0.48418661 1.11236727 53 60 67
-0.47886172 0.48551762 1.12048233 58 61 69
-0.45740302 -0.26198735 0.63076936 46 46 49
-0.45044182 -0.24538334 0.61612509 45 44 44
-0.45511359 -0.25481223 0.62362601 44 43 45
-0.44654936 -0.23082449 0.60854368 45 44 44
-0.44135869 -0.22692343 0.77318785 75 76 72
-0.44228894 -0.21135757 0.59711829 49 46 47
-0.44450854 -0.21770264 0.60178363 46 45 46
-0.44118852 0.45598762 1.07887355 35 42 46
-0.44703316 0.45722732 1.08550860 39 46 50
-0.44173357 0.46027297 1.07944560 38 43 49
-0.44988019 0.46903432 1.08911119 46 53 60
-0.45851283 0.46949778 1.10107025 46 52 58
-0.45350890 0.48343219 1.09492166 56 68 78
-0.43978852 -0.24014917 0.61126405 57 53 54
-0.43917476 -0.22769437 0.60653750 48 47 48
-0.42128444 -0.22593851 0.75838278 75 76 75
-0.43163052 -0.22514885 0.76647158 75 75 72
-0.43236644 -0.20655237 0.59075616 46 45 45
-0.43817372 -0.21764063 0.60196992 43 42 42
-0.42730789 -0.21849586 0.76474586 75 75 73
-0.42316072 -0.18456613 0.57792749 46 45 46
-0.42821354 -0.19380973 0.58461756 47 46 48
-0.42323726 -0.17361154 0.57403615 49 48 47
-0.42971960 0.45523079 1.06925096 31 36 43
-0.43532912 0.46278328 1.07564705 39 45 53
-0.41762955 -0.22640676 0.75841061 76 76 76
-0.41780116 -0.22333399 0.76162673 76 76 74
-0.41859849 -0.21842612 0.76296237 76 76 75
-0.41698078 -0.18365166 0.57487628 44 43 44
-0.41980481 -0.19642791 0.58489376 55 51 55
-0.41296803 -0.16933710 0.56812764 48 47 47
-0.40561563 -0.14849126 0.55561554 50 48 48
-0.41279947 -0.15542105 0.56236116 51 48 50
-0.40404950 -0.13118255 0.55052586 52 52 51
-0.40102256 -0.11600905 0.54610079 56 53 55
-0.41582209 0.44200680 1.04936814 23 28 33
-0.39810720 -0.14339977 0.55166071 48 45 46
-0.39550538 -0.12963422 0.54719816 50 49 49
-0.38837624 -0.10198760 0.53911800 51 50 50
-0.39226214 -0.11129365 0.54192882 53 52 52
-0.38564842 -0.09038822 0.53394348 54 53 52
-0.39537122 -0.09836354 0.54044002 57 52 52
-0.38238316 -0.07495826 0.52767163 57 56 56
-0.37677362 -0.08289262 0.52839170 54 54 54
-0.36773291 -0.06226980 0.51985568 67 66 66
-0.37383936 -0.07086112 0.52432495 56 54 55
-0.37080356 -0.05338073 0.51724412 59 58 56
-0.37180691 -0.05840063 0.52073786 54 53 53
-0.36249801 -0.02039025 0.50626856 59 59 59
-0.36249529 -0.01087557 0.50590531 59 58 56
-0.35421675 -0.26052748 0.65735008 74 73 71
-0.34672158 -0.25199600 0.65538347 75 75 74
-0.35103208 -0.24346799 0.66232858 76 75 75
-0.34826568 -0.23992878 0.66006994 77 77 77
-0.35200374 -0.00184258 0.49924574 54 54 52
-0.35439966 -0.01002609 0.50247107 57 56 56
-0.35311304 0.00089029 0.49918615 54 51 51
-0.35501873 0.00060404 0.50065869 54 51 51
-0.33804867 -0.25133706 0.65057186 76 76 76
-0.30480533 -0.26478080 0.81838368 89 90 92
-0.30519756 -0.26245417 0.82182118 89 90 90
-0.30647886 -0.24805539 0.81471335 90 89 90
-0.30404255 -0.25575559 0.82275635 89 89 89
-0.29750616 -0.26266196 0.82418615 89 91 86
-0.29633013 -0.25514418 0.82463037 90 90 91
-0.20045789 -0.30371939 0.91855264 91 94 95
-0.20423947 -0.30246863 0.92714717 92 93 94
-0.20434265 -0.29684876 0.92896321 91 92 95
-0.19834518 -0.30572128 0.91979897 94 95 97
-0.19499413 -0.30298217 0.92632695 92 93 95
-0.19125476 -0.29365393 0.92855555 92 93 96
-0.19152694 -0.06863975 0.47051288 91 90 90
-0.18229125 -0.00291153 0.75869413 93 92 93
-0.18272242 -0.00678306 0.76207300 93 90 92
-0.18163996 0.00178393 0.75643544 93 91 90
-0.17114861 -0.02104205 0.76351509 95 95 97
-0.16961137 -0.00843108 0.75701939 93 93 95
-0.17164801 -0.01500812 0.76239190 95 94 96
-0.17799873 0.00134087 0.75209916 91 90 87
-0.15906900 -0.01334772 0.74967457 94 94 97
-0.10154812 0.38803053 1.12419879 136 136 136
-0.08560823 0.12393828 1.05920601 124 123 124
-0.08384886 0.12974722 1.06301464 128 127 129
-0.08103135 0.14773806 1.05920601 130 131 131
-0.08472307 0.14465846 1.06284610 129 129 131
-0.08313547 0.37493652 1.09632328 137 137 136
-0.08907104 0.37497770 1.10535705 136 135 134
-0.08359127 0.38151369 1.09762464 137 137 135
-0.08681093 0.39175193 1.11068829 137 137 135
-0.09473315 0.39253611 1.12401726 136 136 135
-0.08641293 0.40230618 1.10923558 138 138 137
-0.09346577 0.40030444 1.12048233 138 138 136
-0.07216882 0.11465629 1.07374984 121 121 123
-0.07360266 0.10816590 1.08462691 116 115 117
-0.06406112 0.13067654 1.05560168 126 126 129
-0.07237009 0.12903185 1.06511599 127 126 127
-0.07541564 0.14567701 1.05755484 130 131 131
-0.07490838 0.14204577 1.06319727 128 129 131
-0.07690140 0.37347053 1.09522553 137 137 136
-0.07637248 0.38134681 1.09750497 138 138 137
-0.07581999 0.39226471 1.10426081 136 137 135
-0.07608030 0.40261122 1.10951004 138 139 137
-0.04727418 -0.20086166 0.53356314 93 93 97
-0.04648853 -0.19366166 0.53146927 93 94 97
-0.05497150 0.12751782 1.05099761 126 125 127
-0.05858628 0.12854117 1.06587741 126 126 128
-0.03168323 -0.18626672 0.51985568 90 94 95
-0.03590826 -0.18929048 0.52545069 91 95 96
-0.02477571 0.45490326 1.63610474 137 136 136
-0.02627416 0.45306337 1.64138460 136 136 136
-0.00826838 0.43130761 1.27186000 136 136 135
-0.00592601 0.43759136 1.28977020 136 136 136
-0.00699813 0.44449780 1.29185036 136 136 136
-0.00214435 0.45119886 1.30678884 136 137 136
-0.01381623 0.45114074 1.61344123 137 136 136
-0.00821697 0.45239312 1.62369537 137 137 137
-0.00437957 0.46489518 1.31290668 138 138 138
-0.00318811 0.47569662 1.33150132 138 138 137
-0.00524646 0.47957262 1.34236014 139 139 137
-0.01330005 0.46140404 1.61595428 138 138 138
-0.01273552 0.47079386 1.63315502 137 137 137
-0.01087330 0.47575936 1.64138460 136 136 135
-0.00637930 0.48427762 1.33772799 137 137 136
-0.00386840 0.48779508 1.34583423 136 136 136
-0.00767298 0.49807748 1.36122859 136 136 134
-0.01017319 0.48027048 1.63741994 135 136 135
-0.00528704 0.48506573 1.64698153 137 137 136
0.01447458 0.17262616 0.71574190 137 136 136
0.00835203 0.17072489 0.72153214 137 137 137
0.00963587 0.18016998 0.72039515 138 138 136
0.01931940 0.21908938 0.77591612 137 137 137
0.01906454 0.22319183 0.77464652 136 136 135
0.00163936 0.41873848 1.28388608 135 135 135
0.01536122 0.41874614 1.31885576 137 137 137
0.00560490 0.43048190 1.29663733 136 136 135
0.00997805 0.42939655 1.30745143 136 136 135
0.01508695 0.42975417 1.32820343 136 136 136
0.00648199 0.45178444 1.29693086 136 136 136
0.00434387 0.44930888 1.30328391 136 136 136
0.01439160 0.44806483 1.33488003 135 135 134
0.01331483 0.44709039 1.34236014 135 135 135
0.00772112 0.45171885 1.62937210 137 137 136
0.01629158 0.45476022 1.64238060 135 135 135
0.00281343 0.46777442 1.31248313 138 138 137
0.00283813 0.47738060 1.32660359 138 138 137
0.00606388 0.46841497 1.63209515 136 137 135
0.01396133 0.46999243 1.64604115 136 136 135
0.00170474 0.48505162 1.33509073 137 137 136
0.00420746 0.48393195 1.63544714 136 137 135
0.00280509 0.48852587 1.64138460 135 136 135
0.02270819 0.15556153 0.68904755 136 136 136
0.02077901 0.16056077 0.69742253 135 135 135
0.02209511 0.17372229 0.71397235 136 136 136
0.02609624 0.17772560 0.72108507 138 138 137
0.02447357 0.18064722 0.71734589 137 137 135
0.02582275 0.18016998 0.72039515 138 138 136
0.02690226 0.21340183 0.77411065 136 136 135
0.02461907 0.20747157 0.78098240 137 137 135
0.02620927 0.22318072 0.76921905 137 137 136
0.02015563 0.43061547 1.33443618 136 136 136
0.02812146 0.45414656 1.65079747 135 135 134
0.02753873 0.46648564 1.65403301 137 137 137
0.05336807 -0.18167631 0.45316463 89 91 95
0.05235362 -0.17304190 0.45499873 91 92 94
0.06330299 -0.18107191 0.45538194 89 90 90
0.06358019 -0.17831625 0.45467688 88 89 90
0.09155058 -0.18463815 0.53008624 89 90 92
0.09086922 -0.17644507 0.53102676 89 89 90
0.09908160 0.17029851 0.54936582 136 136 135
0.11422021 -0.04217080 0.46209068 90 90 92
0.11441099 -0.03581688 0.46490272 91 90 92
0.10380797 0.17378185 0.55040022 136 136 134
0.10490593 0.18096799 0.54808802 135 135 135
0.11333487 0.51683506 1.43598195 137 137 137
0.11900979 0.51279253 1.44232309 137 137 137
0.11232250 0.52384595 1.43167969 136 136 136
0.10654509 0.52525723 1.44232309 137 137 137
0.12033342 -0.03372639 0.46494654 90 90 94
0.12805208 0.50692604 1.39341214 135 135 134
0.12813529 0.50776910 1.40927075 136 136 134
0.12569736 0.50889366 1.42672505 137 137 136
0.12237502 0.52177483 1.40936291 135 135 134
0.15749998 -0.03646114 1.21922994 94 94 97
0.15411518 -0.02884864 1.22662467 93 92 97
0.15518192 -0.01513925 1.22970875 92 91 95
0.15304463 -0.01045998 1.24587533 90 89 91
0.15744495 0.06668485 0.57144915 114 115 116
0.15622945 0.11910008 0.57890076 133 132 132
0.15542561 0.11750569 0.58142155 133 133 133
0.15202902 0.12581021 0.57714513 133 133 132
0.14776833 0.12451290 0.58143355 135 135 135
0.14342044 0.20796410 0.45284648 0 0 0
0.14575457 0.21487980 0.46790558 0 0 0
0.14910697 0.22481250 0.48953427 0 0 0
0.15229864 0.23426896 0.51012594 0 0 0
0.15526200 0.24304899 0.52924462 0 0 0
0.15845616 0.25251283 0.54985235 0 0 0
0.17805656 -0.26506421 0.65224914 85 85 87
0.17703538 -0.24821760 0.64818618 88 88 91
0.17275836 -0.02164169 1.21540716 91 91 95
0.16227025 -0.02486225 1.22343178 91 91 94
0.17742319 -0.01363062 0.47879731 53 53 59
0.17707259 -0.00554437 0.48646704 62 61 65
0.17572884 -0.01721639 1.19980860 91 90 96
0.17260451 -0.01636220 1.21354907 93 91 97
0.16547610 -0.01446266 1.22656072 91 89 93
0.16576276 -0.00713290 1.24981010 91 90 92
0.17919289 0.00115308 0.48886436 54 52 59
0.16385720 0.06484631 0.57291896 111 111 112
0.16129050 0.12192100 0.57607195 133 132 132
0.17734802 0.19662538 0.53022082 135 135 131
0.17742673 0.20113964 0.53260063 135 135 132
0.16071714 0.25921181 0.56443948 0 0 0
0.16250520 0.26450956 0.57597551 0 0 0
0.16500047 0.27190268 0.59207419 0 0 0
0.16696064 0.27771041 0.60472065 0 0 0
0.16831784 0.28173155 0.61347675 0 0 0
0.17043427 0.28800224 0.62713134 0 0 0
0.17339984 0.29678883 0.64626431 0 0 0
0.17655208 0.30612844 0.66660157 0 0 0
0.17904274 0.31350791 0.68267053 0 0 0
0.17376199 0.35798854 0.99006607 136 136 134
0.17733028 0.36959877 0.97851347 137 137 135
0.17110668 0.36934946 0.98923307 136 136 134
0.16223328 0.37763444 1.00131738 136 136 134
0.17271483 0.38706197 0.97834107 138 138 136
0.17207742 0.38392293 0.98494848 136 136 134
0.16247328 0.38079295 1.00279856 136 136 135
0.18581838 -0.26352142 0.65185146 85 86 88
0.18589879 -0.25005712 0.64766640 86 87 89
0.18403928 -0.00352199 0.48629231 72 72 75
0.18238164 0.00125164 0.48662954 71 70 75
0.18271283 0.19626056 0.53039094 134 134 131
0.18215705 0.20306811 0.53520215 134 134 130
0.18077560 0.31864214 0.69385040 0 0 0
0.18349175 0.32668972 0.71137422 0 0 0
0.18633230 0.33510590 0.72970057 0 0 0
0.18934077 0.34401956 0.74911028 0 0 0
0.19249451 0.35336363 0.76945728 0 0 0
0.19470057 0.35989985 0.78368998 0 0 0
0.18494394 0.35766009 0.97213472 137 136 132
0.18438081 0.35896179 0.98103017 138 137 133
0.19698976 0.36668241 0.79845917 0 0 0
0.19936690 0.37372553 0.81379575 0 0 0
0.18441969 0.36886927 0.97497746 137 137 135
0.18230772 0.36667762 0.98663653 137 137 133
0.18633846 0.38613683 0.97609921 138 138 138
0.18423817 0.38822360 0.98443299 138 138 137
0.20183714 0.38104451 0.82973295 0 0 0
0.20440607 0.38865590 0.84630692 0 0 0
0.20707972 0.39657754 0.86355650 0 0 0
0.20986463 0.40482882 0.88152385 0 0 0
0.21276788 0.41343078 0.90025479 0 0 0
0.21579720 0.42240620 0.91979897 0 0 0
0.21896097 0.43177998 0.94021058 0 0 0
0.22226833 0.44157925 0.96154869 0 0 0
0.22572932 0.45183364 0.98387784 0 0 0
0.22935484 0.46257558 1.00726867 0 0 0
0.23315698 0.47384074 1.03179884 0 0 0
0.23714891 0.48566827 1.05755353 0 0 0
0.25314727 -0.38001171 0.86797929 79 83 84
0.25573866 -0.37388622 0.87304598 82 83 83
0.25552710 0.05466122 0.84920212 87 87 89
0.25764304 0.06252653 0.85084800 91 91 93
0.25734103 0.09947808 0.64405903 124 124 122
0.25612580 0.10363270 0.64270979 129 128 127
0.24134523 0.49810138 1.08462691 0 0 0
0.24576205 0.51118779 1.11312294 0 0 0
0.25041720 0.52498037 1.14315653 0 0 0
0.25533056 0.53953791 1.17485583 0 0 0
0.27275719 -0.36567237 0.85809208 84 87 87
0.26751670 -0.36941004 0.87091956 83 84 85
0.27268311 -0.35885407 0.85863471 86 87 89
0.27057154 -0.26301046 0.47704121 77 78 80
0.27395368 -0.25859908 0.47817886 76 77 79
0.26876849 0.03832274 0.84630823 81 79 81
0.26856911 0.04952467 0.85061385 83 83 85
0.26408092 0.06290965 0.85242702 92 92 94
0.26057590 0.09776534 0.64185940 123 124 123
0.26370794 0.10568862 0.63952059 128 127 126
0.26196782 0.10650216 0.64089859 128 128 127
0.26052415 0.55492580 1.20836341 0 0 0
0.26602268 0.57121718 1.24383819 0 0 0
0.27185383 0.58849406 1.28145909 0 0 0
0.27804872 0.60684866 1.32142663 0 0 0
0.28260447 -0.25887700 0.48268445 76 77 77
0.28855076 0.11296669 0.59321337 131 131 128
0.29164001 0.12272498 0.59251066 131 130 127
0.28464249 0.62638503 1.36396754 0 0 0
0.29167494 0.64722115 1.40933859 0 0 0
0.29919130 0.66949111 1.45783186 0 0 0
0.30724338 0.69334829 1.50978136 0 0 0
0.31589052 0.71896851 1.56557012 0 0 0
0.33916521 -0.13624129 0.54896465 87 88 90
0.32520124 0.74655485 1.62563992 0 0 0
0.33525494 0.77634257 1.69050336 0 0 0
0.34600509 -0.13075166 0.54973641 85 86 86
0.34614429 0.80860615 1.76075804 0 0 0
0.35797799 0.84366769 1.83710527 0 0 0
0.37778667 -0.16976573 0.45341382 73 75 75
0.37088439 0.88190758 1.92037344 0 0 0
0.38295790 -0.16650178 0.45314521 74 75 75
0.49060616 -0.32295187 0.81871111 82 82 82
0.49715063 -0.32391167 0.82085810 80 81 82
0.48888210 -0.31525823 0.81602880 81 82 83
0.49828994 -0.31791309 0.82148838 79 82 82
0.49894608 -0.06319610 0.82527870 86 87 89
0.49959491 -0.05911321 0.82806551 86 87 91
0.50086907 -0.32396701 0.81920496 80 81 83
0.51016687 -0.32418826 0.82769984 80 81 82
0.51859063 -0.32025269 0.84105688 81 82 83
0.50508394 -0.31777061 0.82531022 79 83 84
0.51662165 -0.31972536 0.84736478 84 84 80
0.50171705 -0.06427651 0.83000021 88 88 90
0.50525416 -0.05075921 0.83000330 86 87 87
0.50664693 -0.04329579 0.84053579 87 88 89
0.51291049 -0.03941998 0.83535939 83 84 84
0.51559597 -0.03828269 0.84210297 81 82 80
0.52036923 -0.32301074 0.83690351 81 82 84
0.52778524 -0.32239989 0.85377456 81 82 82
0.53935802 -0.32533774 0.86026883 80 81 82
0.52921632 -0.31887183 0.85435977 81 83 83
0.55224941 0.09830120 1.10486666 95 96 99
0.55259738 0.10291167 1.10610359 97 97 99
0.57446275 0.09434870 1.11338750 92 95 96
0.57444458 0.08995888 1.12207403 91 93 95
0.57022689 0.10168186 1.10883986 97 97 97
0.58401792 0.08854061 1.11347331 90 91 93
0.58049291 0.08947001 1.12048233 93 94 95
0.58437592 0.10138799 1.11312294 96 97 99
0.63908569 -0.34838900 1.15641792 82 83 85
0.63830923 -0.33442240 1.14962165 87 88 88
0.65491125 -0.34619468 1.13844571 84 87 85
0.64694404 -0.34641454 1.14865167 82 84 84
0.65785871 -0.33732989 1.13931406 84 85 87
0.64784384 -0.33646597 1.14709630 82 84 84
0.69496900 0.11973312 0.68567032 111 112 109
0.69012086 0.12358934 0.67871311 111 112 108
0.69126892 0.13003893 0.68523364 113 114 110
0.71205199 -0.45019066 0.71181616 43 44 45
0.71432301 -0.45366963 0.72108523 48 50 50
0.70201098 0.13261299 0.69075792 114 116 112
0.72307314 -0.44905064 0.71635929 36 36 38
0.72666683 -0.45101479 0.72494584 44 45 46
0.79046820 -0.38727990 1.11752768 81 82 81
0.79396381 -0.38490160 1.12110070 80 81 81
0.81650720 -0.48394098 0.81380662 48 49 49
0.81995112 -0.47917414 0.80990660 39 40 42
0.81774235 -0.47778097 0.82318410 56 57 57
0.81701462 -0.40727532 1.13597593 80 81 79
0.80967392 -0.39068745 1.12825187 80 81 81
0.82369037 -0.48392088 0.81728123 43 44 45
0.83013784 -0.48426791 0.82953624 50 51 52
0.83809140 -0.48101646 0.84001470 51 55 56
0.82093191 -0.47834578 0.81087542 39 40 42
0.82514358 -0.47885942 0.82976795 54 56 56
0.83778225 -0.47702680 0.84158040 52 56 58
0.82713129 -0.40836332 1.13561403 79 80 79
0.82918064 -0.40778794 1.14316033 79 80 79
0.82678015 -0.39244296 1.13675191 78 79 78
0.82784177 -0.39066152 1.14267812 79 80 79
0.84447862 -0.48761681 0.83754288 42 44 44
0.85033024 -0.48571873 0.84399689 44 47 48
0.84121901 -0.47771052 0.84315038 51 56 59
0.86360187 -0.48437387 0.85144819 37 38 42
0.89588256 -0.50103350 0.89432470 50 53 54
0.89897162 -0.50306350 0.90025479 52 56 57
0.88254303 -0.49587789 0.87923717 49 50 53
0.89211860 -0.49945865 0.88935059 50 52 54
0.90509260 -0.50145462 0.89668311 45 46 48
0.91196630 -0.50493853 0.91074213 51 54 55
0.91498302 -0.51025189 0.92335180 53 56 58
0.92766841 -0.50746640 0.91495978 43 43 46
0.93060187 -0.50660287 0.92992016 53 53 55
0.93692134 -0.51236389 0.94315558 56 57 58
0.93455144 -0.49870843 0.93588541 53 54 55
0.93557114 -0.22168123 1.15233043 75 78 78
0.93368387 -0.20351039 1.13822261 76 77 74
0.93469442 -0.21249960 1.14617834 76 77 78
0.92857263 -0.19729748 1.13804177 74 76 74
0.93117499 -0.19982089 1.14123201 73 77 74
0.94607531 -0.51182620 0.93246921 42 42 44
0.95213350 -0.51269050 0.94639995 49 50 52
0.95223208 -0.22442756 1.15415626 75 76 78
0.94962937 -0.21426083 1.15029883 76 76 78
0.97542250 -0.52051270 0.95209527 43 43 47
0.97503990 -0.52150442 0.97027342 53 54 57
0.96964566 -0.51631490 0.95215966 42 42 45
0.97406661 -0.51649041 0.96378723 48 48 51
0.96154453 -0.22821930 1.15720756 74 76 79
0.98187659 -0.52238478 0.97820026 54 54 56
0.99347426 -0.52327341 0.98901992 52 53 55
0.98341545 -0.51606557 0.95666864 44 44 48
0.99009363 -0.51765564 0.97067308 42 42 45
0.99422312 -0.51965064 0.98969907 50 53 57
1.00338300 -0.52088177 0.97119308 44 44 47
1.00795545 -0.52349195 0.99355865 45 47 49
1.01339158 -0.52844939 1.00865371 50 53 57
1.00379131 -0.51852311 0.97372429 43 44 46
1.00810540 -0.51880819 0.98316905 41 42 44
1.02903903 -0.53178168 1.01482541 43 45 47
1.03301919 -0.53340065 1.02516196 47 51 52
1.03982425 -0.53508925 1.04130852 52 57 57
1.05459088 -0.54100937 1.05019298 51 54 54
1.04083836 -0.53263384 1.01938617 41 41 45
1.04868848 -0.53603321 1.03164068 43 44 46
1.05311592 -0.53733262 1.04738859 50 52 53
1.06175983 -0.54062760 1.03811920 43 43 46
1.06959250 -0.54093413 1.04987389 44 46 48
1.07165285 -0.54450145 1.06898783 53 55 56
1.07588875 -0.54809630 1.08116722 57 58 58
1.06583863 -0.53818135 1.03772601 44 45 47
1.06851500 -0.53855162 1.04817500 42 42 44
1.06580269 -0.53737058 1.06364191 54 55 57
1.08556660 -0.54462551 1.06841467 45 46 48
1.08571932 -0.54860918 1.08681923 54 56 57
1.08299800 -0.53954951 1.05591138 42 43 47
1.12610459 -0.56879824 1.13359845 58 59 62
1.15541303 -0.57166612 1.13931406 41 42 44
1.15230317 -0.57481325 1.15208389 54 57 58
1.15470401 -0.57405859 1.16486088 55 58 60
1.17926669 -0.58087423 1.17383957 53 56 58
1.17933965 -0.58031392 1.18512559 56 58 61
1.16767373 -0.57770993 1.15534348 48 48 51
1.16898460 -0.57510697 1.16890892 54 56 57
1.17438346 -0.56833726 1.18534904 56 57 59
1.19127308 -0.58192823 1.17346220 42 44 46
1.19459044 -0.58204958 1.18843490 52 53 55
1.18456504 -0.57848558 1.17056017 45 46 48
1.18926906 -0.57481352 1.19253400 57 58 59
1.19713002 -0.57555172 1.20300335 57 58 60
1.20574808 -0.58611204 1.17758016 43 43 46
1.21083492 -0.58456335 1.19100794 43 43 47
1.21502411 -0.58145809 1.20881493 53 55 57
1.20355602 -0.57853475 1.19698840 53 54 56
1.20985024 -0.57446103 1.21227833 57 59 60
1.21968579 -0.57064456 1.22142673 57 61 59
1.22575367 -0.58728344 1.19516834 43 43 46
1.23259973 -0.58556613 1.20810634 42 43 47
1.23283601 -0.58708692 1.22490965 51 55 56
1.22326724 -0.57555733 1.22289658 55 59 58
1.24804357 -0.58857628 1.21447543 43 44 47
1.24969371 -0.58875510 1.22691240 42 43 46
1.24837428 -0.59185341 1.24156010 54 56 58
1.27802432 -0.60068178 1.26236844 45 46 48
1.26510938 -0.58989617 1.23299267 44 44 46
1.26729746 -0.59559613 1.24844262 44 45 49
1.29235178 -0.60469377 1.27543259 44 46 48
1.29537070 -0.60870159 1.28388608 49 51 53
1.28777104 -0.59562701 1.25305075 44 45 46
1.29657072 -0.59795547 1.26237062 44 44 45
1.30520177 -0.60079318 1.27184212 44 44 44
1.30784973 -0.60758120 1.28308014 45 45 47
1.30605543 -0.59857106 1.26946485 44 44 44
1.33571374 -0.62058675 1.31374383 39 39 40
1.33879220 -0.62559038 1.32919967 50 53 54
1.32509622 -0.60829276 1.29124364 44 44 45
1.33255454 -0.61528007 1.30797190 46 47 48
1.34171999 -0.62179178 1.31629479 44 44 44
1.35033717 -0.62541054 1.33153803 45 46 48
1.35356784 -0.62955073 1.34502351 52 52 53
1.34577456 -0.61488542 1.31248319 45 45 46
1.35910141 -0.61978030 1.32659853 45 45 47
1.35488391 -0.44902815 1.80450646 79 80 78
1.37462759 -0.64218062 1.36947846 55 57 57
1.36587662 -0.62729083 1.33772537 43 43 44
1.37252512 -0.62946182 1.35009339 44 44 46
1.37540275 -0.63616395 1.36672300 52 52 51
1.36102378 -0.61628133 1.32400751 45 45 47
1.37114206 -0.45004728 1.79642267 79 79 79
1.37288305 -0.44836327 1.80933479 79 80 78
1.37419919 -0.45018154 1.82393163 79 79 77
1.37909901 -0.43915346 1.79812157 79 80 80
1.39258930 -0.64434145 1.38558620 53 55 53
1.38154584 -0.62865779 1.35309911 43 43 44
1.39124732 -0.63723389 1.37157588 43 44 45
1.39058057 -0.44484653 1.79600738 77 78 79
1.39064720 -0.44332656 1.80627702 78 79 80
1.38593174 -0.44930874 1.83215348 79 79 77
1.39589551 -0.43546672 1.79574311 79 80 81
1.39156924 -0.43519470 1.80913103 78 79 81
1.38818622 -0.43875670 1.82228994 81 81 79
1.40159392 -0.64003253 1.37503421 42 42 44
1.40821705 -0.64141974 1.38885951 45 46 47
1.41314784 -0.64635035 1.40423679 52 54 54
1.40682336 -0.63521588 1.37318230 45 45 47
1.41072229 -0.63838448 1.38799682 41 42 43
1.40489757 -0.44109136 1.79336464 76 77 77
1.40071368 -0.44473431 1.84711671 79 79 77
1.40458610 -0.43570434 1.79207870 78 79 81
1.40269256 -0.43171115 1.81254506 78 78 80
1.43737745 -0.67225173 1.44694257 57 61 58
1.42721567 -0.64081332 1.39484507 43 44 46
1.42986299 -0.64385188 1.40607040 43 43 44
1.43436985 -0.65414684 1.42654359 54 55 55
1.43592435 -0.64901477 1.47368491 61 62 64
1.42911002 -0.63673222 1.39157592 46 46 48
1.43491912 -0.63740897 1.40060294 45 45 47
1.43407989 -0.28586859 1.58571410 71 72 74
1.45506936 -0.68171084 1.46730524 56 60 58
1.44887334 -0.66579103 1.45471019 56 60 60
1.45759869 -0.67537010 1.46729839 60 61 62
1.45777002 -0.66620748 1.48894896 59 61 62
1.44888449 -0.64280687 1.41424441 44 44 46
1.44989249 -0.65109384 1.42793155 48 48 49
1.45832777 -0.65779519 1.44539833 52 53 53
1.44925666 -0.65170479 1.47688854 60 63 64
1.45360497 -0.64908551 1.48504056 60 61 63
1.44956285 -0.28600844 1.59591452 69 70 70
1.45361117 -0.28441384 1.60537694 70 71 73
1.45520766 -0.27470842 1.60918783 70 74 76
1.45971143 -0.25905252 1.60637879 73 74 73
1.46457279 -0.68233699 1.47688854 57 61 60
1.47496325 -0.68466015 1.49029139 58 60 60
1.47905326 -0.68273985 1.52335250 59 63 64
1.46393782 -0.66329288 1.45471019 54 55 55
1.46724081 -0.66994357 1.46985848 56 58 59
1.46952302 -0.67249614 1.49352970 58 60 61
1.47103340 -0.67401535 1.50728253 59 61 62
1.46489835 -0.65168542 1.43470621 42 42 44
1.46759383 -0.65038643 1.49143731 60 61 63
1.46815088 -0.64904489 1.50475621 61 61 65
1.46199739 -0.63683307 1.48987222 60 61 61
1.47855186 -0.32242754 1.61788034 71 72 74
1.47016275 -0.30005655 1.61788034 70 72 72
1.47367990 -0.30077440 1.62175083 70 71 71
1.46111619 -0.28270116 1.59880149 67 68 68
1.46477604 -0.29030281 1.60802180 69 70 70
1.46415666 -0.27108390 1.60944219 70 74 74
1.47087681 -0.26994067 1.62175083 71 75 76
1.48420616 -0.68325738 1.49755843 58 61 61
1.49392909 -0.68385103 1.51176603 57 60 60
1.49061887 -0.66638763 1.46986122 43 43 44
1.49042706 -0.67134167 1.49112266 55 58 58
1.49135413 -0.67240151 1.50859385 58 61 61
1.48522794 -0.65294179 1.44848680 45 44 46
1.49550641 -0.65857059 1.46097374 44 44 45
1.48579764 -0.65470556 1.49777720 59 61 63
1.48860965 -0.65279763 1.50980922 59 60 63
1.48973385 -0.32339698 1.63217807 72 73 75
1.49601039 -0.32426703 1.64738158 72 72 74
1.49592829 -0.31159869 1.64937186 72 72 74
1.49666548 -0.31702105 1.66286039 72 73 75
1.50339037 -0.68350823 1.51823928 57 60 59
1.51064920 -0.68098454 1.52335250 58 62 62
1.50553660 -0.66472761 1.47368256 42 42 43
1.50888695 -0.67177397 1.49284880 49 50 51
1.51097155 -0.67303258 1.51249624 55 59 60
1.51479250 -0.67456111 1.52421024 56 60 61
1.50148102 -0.32093322 1.65340130 72 72 74
1.50610816 -0.32068179 1.66694939 71 72 74
1.50697889 -0.31509752 1.65466295 72 72 73
1.51364887 -0.31671568 1.66628587 71 72 74
1.52582078 -0.66862092 1.49184985 44 43 45
1.52773319 -0.67429126 1.51392296 49 51 53
1.52982028 -0.67178013 1.52990320 56 59 61
1.53563807 -0.67014589 1.54183308 57 60 63
1.52128661 -0.31388986 1.66149962 72 73 74
1.54896228 -0.68024874 1.52564498 38 39 41
1.54822317 -0.67716783 1.51824054 38 39 42
1.54960214 -0.67629933 1.53024318 46 47 50
1.55093191 -0.67229504 1.54756149 56 58 60
1.55433702 -0.67304707 1.56196272 58 60 63
1.57126512 -0.68191164 1.53111103 45 46 49
1.57871981 -0.68302574 1.54183308 44 45 49
1.56486920 -0.67715277 1.53456533 40 41 45
1.56922049 -0.67768612 1.54913758 47 47 49
1.57167610 -0.67434401 1.57066388 57 58 60
1.57981789 -0.67859262 1.58756876 59 60 62
1.58280241 -0.68096185 1.53716969 46 47 51
1.58983455 -0.68281274 1.54880541 46 46 49
1.58877675 -0.68314308 1.56966598 49 49 51
1.59503303 -0.68308549 1.58635555 55 56 58
1.58688410 -0.67966912 1.55246909 43 43 46
1.59157136 -0.67647035 1.59048667 57 58 60
1.60413766 -0.68283513 1.55658489 48 48 50
1.61047244 -0.68568527 1.56961358 47 47 48
1.61070774 -0.68689963 1.59015047 49 49 51
1.60941239 -0.68308314 1.60894676 57 58 60
1.61383319 -0.68759733 1.62175083 59 60 62
1.60103691 -0.67902911 1.59503961 57 58 60
1.60856357 -0.67513620 1.60877261 58 59 60
1.62140644 -0.68668494 1.57466376 48 48 48
1.63062399 -0.68951343 1.59417104 45 45 46
1.63076535 -0.68953954 1.60842587 46 46 50
1.63225591 -0.68858051 1.63741994 59 60 64
1.63620806 -0.68741077 1.64138460 60 61 64
1.62332284 -0.67519730 1.62563992 60 60 59
1.63904512 -0.67889977 1.64138460 59 60 61
1.64239025 -0.69005668 1.59503961 48 48 50
1.64801708 -0.68989994 1.60861817 44 45 47
1.65346801 -0.69524766 1.63124672 48 49 52
1.67349446 -0.70215681 1.65440536 52 53 55
1.67760205 -0.70330226 1.66558194 56 56 58
1.66112942 -0.69212064 1.61595428 46 46 48
1.66734843 -0.69219596 1.62995733 44 44 46
1.67325039 -0.69654511 1.64537826 42 43 45
1.67289678 0.09451374 1.89443668 68 71 72
1.67374655 0.09454077 1.90597852 68 72 72
1.67865312 0.09525479 1.92037344 68 74 73
1.67953682 0.10895660 1.89885676 70 74 75
1.67000680 0.12615410 1.89224508 75 76 78
1.67767215 0.12407323 1.90419054 75 76 78
1.68478930 -0.70386124 1.63347435 48 48 50
1.69412625 -0.70158956 1.64805039 46 47 49
1.68520504 -0.70359136 1.66456637 49 50 52
1.68116719 -0.69622770 1.63544714 46 47 49
1.68835949 -0.69462384 1.64938722 44 44 47
1.69072092 -0.69583493 1.66149962 34 35 37
1.68569839 0.08811712 1.90955448 67 69 70
1.68779733 0.09561506 1.92766837 67 72 72
1.69481725 0.09665970 1.94878084 68 72 73
1.68611697 0.10785424 1.90836922 70 73 74
1.69524914 0.10853163 1.92037344 71 73 74
1.69766963 0.10457992 1.94985783 70 74 75
1.68477422 0.12954457 1.91225159 76 78 79
1.69849002 0.43784788 1.60637879 121 125 122
1.70533550 -0.70958716 1.65339470 47 47 49
1.71046275 -0.70243651 1.67381722 42 43 45
1.70935065 -0.71002817 1.68842167 49 50 52
1.70312667 -0.69758075 1.65541601 47 48 50
1.70643222 0.08937594 1.93683386 67 70 70
1.70893530 0.09305188 1.95078485 66 71 71
1.71402047 0.08931710 1.97253644 66 69 70
1.70445740 0.11423757 1.93269530 72 74 75
1.71230977 0.10696875 1.95257576 70 74 74
1.71240847 0.10852228 1.96833436 71 74 75
1.71551502 0.10517048 1.98213995 71 75 76
1.71209466 0.12527895 1.95734290 73 77 78
1.71742336 0.12398144 1.97253092 73 76 78
1.70785463 0.43678828 1.61788034 122 126 125
1.70588863 0.44411996 1.61403739 123 125 121
1.71399313 0.44677915 1.62369537 124 125 121
1.71679956 0.47764648 1.62369537 116 125 118
1.71679956 0.48325934 1.62369537 119 125 120
1.72793698 -0.71897298 1.70969212 52 53 55
1.72818002 -0.66514242 1.65455256 49 50 52
1.73663263 -0.66628842 1.66422117 48 49 51
1.73053710 -0.65444803 1.65608978 48 50 51
1.73607576 -0.65339853 1.66313255 48 50 51
1.72277331 0.09040919 1.95922494 67 70 70
1.72627886 0.08862374 1.96966938 65 69 71
1.72565794 0.11267133 1.96948009 71 74 75
1.73172492 0.11744751 1.98699526 71 74 76
1.72770000 0.12159029 1.97063243 73 77 78
1.72810502 0.12334659 1.98795946 73 76 78
1.72982907 0.43887836 1.64138460 121 125 124
1.72365165 0.45456621 1.63151103 125 126 120
1.73263652 0.45085649 1.64366392 123 125 122
1.73954093 0.45861560 1.66149962 125 127 117
1.72881198 0.46882811 1.63505638 121 125 115
1.73584509 0.46935183 1.64595440 121 126 114
1.73808916 0.46378102 1.66286039 125 126 114
1.73266613 0.48568887 1.64138460 117 125 119
1.74484956 -0.72056001 1.72053766 44 45 46
1.75824094 -0.72982174 1.74265254 56 57 57
1.74211049 -0.70975161 1.69472957 48 48 52
1.75369334 -0.70817494 1.75619650 60 61 62
1.74874192 -0.66496384 1.66793197 49 50 51
1.75627514 -0.67083140 1.68769987 47 48 51
1.75051439 -0.65340598 1.67051291 49 50 50
1.74371737 0.11939828 1.99087608 73 76 77
1.74746436 0.45444241 1.65676355 123 125 121
1.74630272 0.45540099 1.66325205 123 125 120
1.75126665 0.47104626 1.65474601 122 126 116
1.75108235 0.47003526 1.66540552 122 125 113
1.75240111 0.47012043 1.68211377 127 129 117
1.74819839 0.48066878 1.65340459 120 125 115
1.75676787 0.48251916 1.66968429 120 125 114
1.76554418 -0.66581357 1.69472957 49 50 52
1.77741009 -0.67232060 1.70753610 47 49 51
1.76992166 -0.65121823 1.69052136 48 49 50
1.77093554 0.44999077 1.67216201 122 126 123
1.76741730 0.47166280 1.65603291 121 126 116
1.76567998 0.47205815 1.66231608 121 125 114
1.76107049 0.48041227 1.65743732 120 125 115
1.78253001 -0.73094076 1.75619650 40 41 44
1.78789282 -0.66830903 1.71618187 49 50 52
1.79094368 -0.67297909 1.72053766 46 49 50
1.78852716 -0.65285522 1.70970300 49 50 50
1.79917556 -0.65894732 1.72272664 49 50 50
1.79361039 0.47444820 1.67174566 121 126 117
1.81334800 -0.74740237 1.79574311 49 49 50
1.80157566 -0.66744566 1.72931588 48 49 51
1.81546950 -0.66958106 1.74265254 49 50 51
1.80871925 -0.65591696 1.73043290 48 50 49
1.82352984 -0.74683630 1.79812157 44 44 47
1.83087755 -0.74983668 1.81061941 50 51 53
1.83723092 -0.75179552 1.82722172 58 58 59
1.83269536 -0.73879868 1.83214009 60 61 61
1.83433151 -0.67349440 1.76075804 49 50 50
1.82822835 -0.65419290 1.74716719 48 49 50
1.84902358 -0.76191741 1.84209740 58 59 60
1.84779698 -0.74699220 1.81740439 39 40 40
1.85211940 -0.75237554 1.82819471 49 50 52
1.85194929 -0.75548826 1.84714425 59 60 61
1.85138813 -0.66916226 1.77345785 48 49 49
1.85308802 -0.65559679 1.76995254 51 51 55
1.86648494 -0.76231956 1.85470074 57 58 60
1.87539928 -0.76553985 1.86645021 58 58 59
1.86488485 -0.74409284 1.81416484 48 48 50
1.86831135 -0.75009082 1.83050881 44 45 46
1.87379104 -0.75542893 1.85116520 48 49 51
1.87749986 -0.75703706 1.86405035 56 57 58
1.87245920 -0.73628908 1.81618956 48 49 51
1.87638676 -0.73797637 1.82228994 49 49 52
1.87450878 -0.66426637 1.79337303 49 49 52
1.86281550 -0.65596300 1.77924371 52 52 56
1.86771762 -0.65460581 1.78392589 52 52 54
1.88487720 -0.76695448 1.87781680 58 59 61
1.88856037 -0.76690599 1.88408196 59 60 61
1.88529138 -0.75032673 1.83710527 46 47 50
1.89098419 -0.75214077 1.85179016 44 45 47
1.88904750 -0.75394413 1.86895675 49 51 53
1.89011300 -0.75932091 1.88303292 59 60 62
1.88246145 -0.73088243 1.82818940 46 48 49
1.88168478 -0.68676752 1.80771160 49 51 51
1.89528489 -0.69388080 1.82228994 50 51 51
1.88786260 -0.67621248 1.81014125 51 51 53
1.90599620 -0.76241970 1.89885676 57 60 61
1.90805888 -0.76785260 1.90419054 60 61 61
1.90354753 -0.74862510 1.85385501 45 46 49
1.90771208 -0.75291737 1.86805329 43 44 46
1.91257736 -0.75535010 1.89055547 47 50 52
1.90916216 -0.73768395 1.85723794 44 47 48
1.90355158 -0.67996025 1.82720172 51 52 55
1.93972731 -0.76659226 1.92582905 54 57 58
1.92205060 -0.75111981 1.87608767 44 46 48
1.93831003 -0.75538078 1.89355266 45 46 49
1.92780638 -0.75797886 1.90419054 46 49 50
1.92848527 0.07882172 1.77458596 51 59 59
1.93799060 0.07170592 1.79284724 50 56 56
1.92344999 0.08320475 1.76995254 51 56 57
1.93571124 0.08624557 1.78863783 51 55 57
1.95192242 -0.78213745 1.94796503 60 61 61
1.95303726 -0.76791452 1.92914608 46 48 50
1.94722721 0.07216141 1.79717019 49 55 55
1.94996061 0.06887088 1.80569001 49 54 55
1.94540942 0.08469325 1.79337408 51 56 57
1.94961131 0.08736797 1.80634165 50 55 57
1.97229183 -0.78214633 1.96490383 57 60 61
1.96914804 -0.76601997 1.92857242 41 44 45
1.97167104 -0.77819258 1.95922494 55 57 59
1.97220413 0.05868258 1.81578461 49 51 53
1.97071582 0.05506894 1.82912960 48 50 52
1.97638019 0.04998121 1.84209740 48 52 53
1.97154178 0.06682402 1.81211270 48 52 54
1.96766901 0.09316381 1.81497473 49 53 56
1.96987319 0.09379143 1.82720172 48 53 56
1.98720801 -0.78329092 1.97636104 57 58 60
1.98992783 -0.78673565 1.98504627 58 60 62
1.98094046 -0.77097279 1.93683386 46 47 50
1.99469018 -0.77763826 1.95357883 44 45 47
1.98995823 -0.77931255 1.97063243 52 54 56
1.98129952 0.05245246 1.81740439 50 52 54
1.98623047 0.05302565 1.83098442 49 52 53
1.98728279 0.04515302 1.84928358 48 52 50
1.98347592 0.06204250 1.82228994 48 51 53
2.00401926 -0.78445575 1.98796976 53 55 56
2.00144339 -0.77088505 1.95357883 44 48 51
2.03322339 -0.78444904 1.98795259 43 47 50
2.04176235 -0.78907704 1.99968100 43 47 48
2.05802321 -0.70538580 1.95922494 49 49 51
2.06222224 -0.70672959 1.95357883 49 50 51
2.07253580 -0.70566916 1.96948340 49 50 52
2.07602353 -0.69515867 1.97636104 48 49 51
2.07866764 -0.69650608 1.98213995 50 51 53
2.07572865 -0.66452205 1.95357883 49 50 50
2.07877970 -0.66410080 1.97492474 52 53 53
2.06793183 -0.64978707 1.95499843 51 51 53
2.07406671 -0.65433030 1.96571984 52 53 53
2.07070748 -0.62689346 1.95734290 52 54 55
2.08020663 -0.70608085 1.97061586 50 51 53
2.09069020 -0.70590506 1.98380070 49 50 51
2.09012985 -0.69462461 1.97291393 49 50 52
2.09156490 -0.69194988 1.98618950 49 50 52
2.08889439 -0.66710735 1.97531646 50 51 52
2.09134832 -0.67422234 1.98531672 51 52 52
2.08020663 -0.64817798 1.97061586 51 51 53
2.08857775 -0.65806845 1.98504627 52 52 53
2.08835804 -0.62694877 1.97348845 53 54 54
2.09408462 -0.62798673 1.98213995 52 53 55
2.08968735 -0.61590791 1.97636104 50 51 53
2.09795022 -0.54101771 1.96490383 56 57 59
2.10812585 -0.70577238 1.99379957 50 50 52
2.10681508 -0.68869884 1.99156660 49 50 50
2.10331550 -0.67517253 1.98797321 50 51 51
2.10583385 -0.63168780 1.99381105 53 54 55
2.11434460 -0.61971897 1.99968100 51 52 54
2.11912370 -0.54392797 1.98795259 54 55 57
2.13162589 -0.56269029 1.99968100 54 56 56
2.12522984 -0.54929571 1.99497585 54 55 57
2.12191033 -0.53863549 1.99379957 50 51 52
2.13373345 -0.29051805 1.98796117 54 56 58
2.13088854 -0.24446875 1.97444598 54 61 58
2.13690925 -0.24427829 1.98213995 54 61 60
2.13425091 -0.23485163 1.97492474 53 60 62
2.13278791 -0.22838985 1.98880260 52 58 59
2.14795264 -0.28647773 1.99772052 56 59 61
2.14842828 -0.27453203 1.99870076 55 58 59
2.15351566 -0.24759214 1.99968100 54 61 59
2.14587258 -0.23006793 1.99346980 53 59 60
2.15236366 -0.21878976 1.99968100 54 58 61
