ply
format ascii 1.0
element vertex 1095
property float x
property float y
property float z
property uchar red
property uchar green
property uchar blue
end_header
0.57190472 -0.02461034 0.58590478 159 158 158
0.57242268 -0.02458908 0.58539885 163 162 161
0.57244581 -0.02454669 0.58438951 165 164 164
0.57395065 -0.02456787 0.58489376 168 168 168
0.57496160 -0.02456787 0.58489376 167 167 167
0.69886190 -0.02609914 0.62134910 38 37 42
0.69674271 -0.02598007 0.61851448 36 35 41
0.69527429 -0.02588560 0.61626530 35 34 41
0.69006610 -0.02565240 0.61071336 34 33 40
0.68864012 -0.02556029 0.60852051 34 33 40
0.68845588 -0.02551448 0.60742998 33 32 39
0.70123762 -0.02590915 0.61682606 34 34 38
0.70166528 -0.02588560 0.61626530 37 37 41
0.70145506 -0.02583862 0.61514688 38 38 42
0.70188135 -0.02581519 0.61458915 39 39 43
0.70103693 -0.02574517 0.61292207 40 40 43
0.70146209 -0.02572192 0.61236840 40 40 44
0.70125353 -0.02567553 0.61126405 40 40 44
0.70104581 -0.02562931 0.61016369 40 40 44
0.56938720 -0.02357727 0.58539885 159 158 158
0.56990689 -0.02355693 0.58489376 164 163 163
0.57190472 -0.02359765 0.58590478 166 166 166
0.57242268 -0.02357727 0.58539885 168 167 167
0.57244581 -0.02353662 0.58438951 168 168 168
0.57395065 -0.02355693 0.58489376 168 170 171
0.57545811 -0.02357727 0.58539885 164 168 169
0.70294243 -0.02521005 0.62593889 41 40 48
0.69694549 -0.02495656 0.61964518 39 38 46
0.69610757 -0.02488831 0.61795062 39 38 46
0.69527429 -0.02482043 0.61626530 38 37 45
0.69006610 -0.02459683 0.61071336 36 35 44
0.68864012 -0.02450851 0.60852051 34 33 41
0.68907332 -0.02448653 0.60797477 34 33 40
0.69260883 -0.02457469 0.61016369 34 34 40
0.69806170 -0.02473051 0.61403245 36 36 40
0.70039183 -0.02477539 0.61514688 36 36 40
0.70145506 -0.02477539 0.61514688 36 37 40
0.70124561 -0.02473051 0.61403245 37 38 40
0.70103693 -0.02468579 0.61292207 38 39 41
0.70082897 -0.02464123 0.61181575 39 39 42
0.70125353 -0.02461901 0.61126405 39 40 44
0.70041537 -0.02455259 0.60961497 40 40 44
0.56840551 -0.02252655 0.58438951 147 147 148
0.56892514 -0.02250715 0.58388615 156 155 157
0.57091784 -0.02254599 0.58489376 158 160 161
0.57192880 -0.02254599 0.58489376 159 162 163
0.57345587 -0.02252655 0.58438951 162 167 168
0.57446593 -0.02252655 0.58438951 163 169 169
0.69714898 -0.02392930 0.62078005 43 42 50
0.69610757 -0.02382023 0.61795062 40 39 47
0.69464278 -0.02373369 0.61570555 40 39 47
0.68944502 -0.02352007 0.61016369 39 38 46
0.68864012 -0.02345673 0.60852051 35 35 40
0.68907332 -0.02343569 0.60797477 34 34 38
0.69554162 -0.02358375 0.61181575 34 34 38
0.69975686 -0.02369066 0.61458915 34 34 38
0.70209217 -0.02373369 0.61570555 34 34 37
0.70251828 -0.02371216 0.61514688 34 34 36
0.70230693 -0.02366920 0.61403245 37 37 39
0.70146209 -0.02360506 0.61236840 39 39 41
0.70125353 -0.02356249 0.61126405 40 40 42
0.70041537 -0.02349892 0.60961497 41 41 43
0.70020968 -0.02345673 0.60852051 41 41 46
0.56794673 -0.02146098 0.58288205 146 147 149
0.57146055 -0.02147945 0.58338368 154 158 159
0.70035571 -0.02296147 0.62363553 46 46 51
0.69630897 -0.02279371 0.61907929 43 42 48
0.69737899 -0.02279371 0.61907929 42 42 47
0.69527429 -0.02269011 0.61626530 41 41 46
0.69068837 -0.02250597 0.61126405 40 39 44
0.68864012 -0.02240495 0.60852051 35 35 38
0.68907332 -0.02238486 0.60797477 34 34 36
0.69554162 -0.02252628 0.61181575 33 33 35
0.70166528 -0.02269011 0.61626530 33 33 35
0.70209217 -0.02266950 0.61570555 33 33 35
0.70315635 -0.02266950 0.61570555 34 34 36
0.70294362 -0.02262839 0.61458915 35 35 37
0.70273167 -0.02258744 0.61347675 37 37 39
0.70125353 -0.02250597 0.61126405 39 39 42
0.70041537 -0.02244525 0.60961497 40 40 43
0.70020968 -0.02240495 0.60852051 40 40 45
0.70063251 -0.02238486 0.60797477 40 40 49
0.56697172 -0.02041840 0.58188140 160 161 161
0.57146055 -0.02047111 0.58338368 162 163 165
0.70229399 -0.02194413 0.62536150 55 55 59
0.69822192 -0.02178336 0.62078005 52 53 57
0.69801646 -0.02174354 0.61964518 47 47 51
0.69654071 -0.02166433 0.61738783 42 42 46
0.69256181 -0.02150763 0.61292207 39 39 43
0.69031155 -0.02137236 0.60906726 35 34 37
0.69198602 -0.02139158 0.60961497 34 33 37
0.69616991 -0.02148820 0.61236840 34 33 37
0.70209217 -0.02160530 0.61570555 34 33 37
0.70251828 -0.02158569 0.61514688 34 34 38
0.70294362 -0.02156612 0.61458915 34 34 38
0.70336825 -0.02154659 0.61403245 35 35 39
0.70188648 -0.02146880 0.61181575 36 37 41
0.70104581 -0.02141083 0.61016369 38 39 43
0.70083880 -0.02137236 0.60906726 39 40 45
0.70126146 -0.02135317 0.60852051 39 40 49
0.69980049 -0.02127678 0.60634333 40 42 50
0.56697172 -0.01941266 0.58188140 163 164 164
0.56944388 -0.01946278 0.58338368 166 167 167
0.57094353 -0.01947955 0.58388615 166 167 167
0.57146055 -0.01946278 0.58338368 160 161 161
0.57296193 -0.01947955 0.58388615 153 154 154
0.70229399 -0.02086324 0.62536150 67 68 72
0.69886190 -0.02072938 0.62134910 60 61 65
0.69865513 -0.02069145 0.62021214 50 51 54
0.69654071 -0.02059723 0.61738783 43 43 46
0.69507569 -0.02052246 0.61514688 38 38 41
0.69236922 -0.02041133 0.61181575 35 35 39
0.69217724 -0.02037455 0.61071336 34 34 38
0.69385791 -0.02039292 0.61126405 33 33 37
0.70336986 -0.02057848 0.61682606 33 33 37
0.70379561 -0.02055978 0.61626530 32 33 37
0.70422053 -0.02054110 0.61570555 33 33 38
0.70528477 -0.02054110 0.61570555 34 34 39
0.70379204 -0.02046674 0.61347675 35 36 40
0.70167738 -0.02037455 0.61071336 36 37 41
0.70146900 -0.02033791 0.60961497 37 38 43
0.70252270 -0.02033791 0.60961497 35 38 46
0.70105457 -0.02026501 0.60742998 35 38 46
0.69897288 -0.02017462 0.60472065 35 38 46
0.56745881 -0.01842274 0.58238131 156 160 159
0.56993431 -0.01847035 0.58388615 159 162 161
0.57143575 -0.01848627 0.58438951 160 161 161
0.57195276 -0.01847035 0.58388615 157 158 158
0.57345587 -0.01848627 0.58438951 155 155 155
0.57496160 -0.01850222 0.58489376 154 154 154
0.70035571 -0.01972776 0.62363553 76 76 82
0.69886190 -0.01965543 0.62134910 59 59 66
0.69929487 -0.01963743 0.62078005 45 45 51
0.69717568 -0.01954792 0.61795062 37 36 42
0.69697303 -0.01951235 0.61682606 34 34 39
0.69740462 -0.01949461 0.61626530 36 35 41
0.69593906 -0.01942398 0.61403245 37 36 42
0.70699108 -0.01949461 0.61626530 34 35 40
0.70421511 -0.01938885 0.61292207 34 35 40
0.70336658 -0.01933640 0.61126405 34 35 41
0.70315504 -0.01930160 0.61016369 34 36 44
0.70294422 -0.01926691 0.60906726 33 35 43
0.70147592 -0.01919792 0.60688615 33 36 44
0.56693929 -0.01743112 0.58288205 150 153 152
0.56794673 -0.01743112 0.58288205 153 156 156
0.57042569 -0.01747620 0.58438951 157 160 159
0.57242268 -0.01750638 0.58539885 163 164 164
0.57244581 -0.01747620 0.58438951 158 159 159
0.57444632 -0.01750638 0.58539885 156 157 157
0.57745278 -0.01756706 0.58742791 160 160 160
0.69651115 -0.01854748 0.62021214 72 71 80
0.69630897 -0.01851360 0.61907929 57 56 65
0.69865513 -0.01854748 0.62021214 47 46 55
0.69717568 -0.01847985 0.61795062 41 40 49
0.69697303 -0.01844622 0.61682606 41 41 49
0.69740462 -0.01842945 0.61626530 41 40 50
0.69720215 -0.01839600 0.61514688 39 39 49
0.70741314 -0.01841271 0.61570555 32 32 41
0.70527446 -0.01832947 0.61292207 33 33 42
0.70442313 -0.01827988 0.61126405 34 34 43
0.70357639 -0.01823057 0.60961497 36 36 45
0.56645226 -0.01640954 0.58238131 155 155 154
0.56794673 -0.01642365 0.58288205 149 149 149
0.56993431 -0.01645195 0.58388615 145 145 145
0.57242268 -0.01649457 0.58539885 146 147 147
0.57293969 -0.01648034 0.58489376 141 142 142
0.57444632 -0.01649457 0.58539885 139 139 139
0.57645369 -0.01652311 0.58641165 141 141 141
0.69460464 -0.01742765 0.61851448 66 66 75
0.69567364 -0.01742765 0.61851448 61 61 70
0.69865513 -0.01747549 0.62021214 55 55 64
0.69717568 -0.01741177 0.61795062 50 50 59
0.69760782 -0.01739591 0.61738783 49 49 58
0.69803917 -0.01738008 0.61682606 46 46 56
0.56254590 -0.01532396 0.57939476 159 159 157
0.56499606 -0.01536335 0.58088416 154 154 154
0.56648546 -0.01537653 0.58138239 147 147 147
0.56895423 -0.01541619 0.58288205 141 141 141
0.57094353 -0.01544275 0.58388615 139 139 139
0.57195276 -0.01544275 0.58388615 141 142 142
0.57296193 -0.01544275 0.58388615 145 145 145
0.57545811 -0.01548276 0.58539885 146 146 146
0.69567364 -0.01635860 0.61851448 74 77 85
0.69865513 -0.01640350 0.62021214 71 73 81
0.69781178 -0.01635860 0.61851448 60 62 70
0.69760782 -0.01632881 0.61738783 54 56 64
0.69867492 -0.01632881 0.61738783 50 52 61
0.56298804 -0.01435934 0.58088416 152 152 150
0.56254590 -0.01432252 0.57939476 145 145 143
0.56451231 -0.01434705 0.58038688 144 144 143
0.56600004 -0.01435934 0.58088416 145 145 145
0.56846541 -0.01439635 0.58238131 147 148 147
0.57094353 -0.01443355 0.58388615 148 148 148
0.57146055 -0.01442113 0.58338368 151 151 150
0.57246888 -0.01442113 0.58338368 153 153 152
0.57496160 -0.01445846 0.58489376 151 151 150
0.57896978 -0.01453369 0.58793741 148 148 147
0.57948339 -0.01452110 0.58742791 145 145 144
0.69523895 -0.01530351 0.61907929 83 88 95
0.69567364 -0.01528955 0.61851448 92 97 104
0.69865513 -0.01533152 0.62021214 89 92 100
0.69781178 -0.01528955 0.61851448 71 72 80
0.69824374 -0.01527561 0.61795062 56 57 65
0.69931179 -0.01527561 0.61795062 50 50 59
0.69910532 -0.01524782 0.61682606 49 49 60
0.56443906 -0.01338975 0.58238131 145 146 144
0.56350917 -0.01334389 0.58038688 144 144 143
0.56548065 -0.01336678 0.58138239 145 145 144
0.56697172 -0.01337826 0.58188140 150 150 148
0.56895423 -0.01340126 0.58288205 155 155 153
0.57094353 -0.01342435 0.58388615 154 154 151
0.57146055 -0.01341280 0.58338368 150 150 147
0.57246888 -0.01341280 0.58338368 145 145 142
0.57446593 -0.01343592 0.58438951 143 143 140
0.57947236 -0.01352923 0.58844781 141 141 137
0.58048946 -0.01352923 0.58844781 138 138 135
0.69397146 -0.01420754 0.61795062 86 89 94
0.69503951 -0.01420754 0.61795062 87 89 94
0.69801646 -0.01424650 0.61964518 83 85 90
0.69717568 -0.01420754 0.61795062 74 74 80
0.69760782 -0.01419460 0.61738783 59 59 64
0.69867492 -0.01419460 0.61738783 51 51 57
0.69846976 -0.01416879 0.61626530 51 49 58
0.56541055 -0.01240446 0.58338368 161 162 162
0.56496030 -0.01237252 0.58188140 159 160 160
0.56693929 -0.01239380 0.58288205 160 159 158
0.56794673 -0.01239380 0.58288205 160 158 158
0.56944388 -0.01240446 0.58338368 160 158 158
0.57192880 -0.01243657 0.58489376 158 157 154
0.57195276 -0.01241515 0.58388615 151 151 147
0.57296193 -0.01241515 0.58388615 139 139 135
0.57446593 -0.01242585 0.58438951 139 140 134
0.57997584 -0.01252301 0.58895904 137 138 130
0.69397146 -0.01313946 0.61795062 90 91 96
0.69503951 -0.01313946 0.61795062 93 93 99
0.69737899 -0.01316346 0.61907929 97 97 103
0.69717568 -0.01313946 0.61795062 97 97 101
0.69760782 -0.01312749 0.61738783 76 76 80
0.69867492 -0.01312749 0.61738783 59 57 63
0.69846976 -0.01310362 0.61626530 52 50 59
0.56638539 -0.01141578 0.58438951 155 155 155
0.56544566 -0.01137655 0.58238131 154 155 155
0.56742722 -0.01139613 0.58338368 156 155 155
0.56794673 -0.01138633 0.58288205 157 155 155
0.57291740 -0.01144538 0.58590478 161 159 155
0.57244581 -0.01141578 0.58438951 159 157 150
0.57296193 -0.01140595 0.58388615 150 148 141
0.57496160 -0.01142563 0.58489376 146 146 138
0.69397146 -0.01207138 0.61795062 121 121 128
0.69503951 -0.01207138 0.61795062 115 115 122
0.69737899 -0.01209343 0.61907929 106 105 112
0.69717568 -0.01207138 0.61795062 99 97 104
0.69824374 -0.01207138 0.61795062 84 82 89
0.39587158 -0.00953446 0.53545958 139 138 140
0.39827859 -0.00945974 0.53126317 157 156 156
0.56742722 -0.01038780 0.58338368 156 155 154
0.56843555 -0.01038780 0.58338368 158 155 153
0.57390946 -0.01045076 0.58691937 162 159 154
0.57293969 -0.01041469 0.58489376 163 160 152
0.57296193 -0.01039675 0.58388615 160 157 149
0.57496160 -0.01041469 0.58489376 158 156 148
0.57796723 -0.01045076 0.58691937 155 155 146
0.69503951 -0.01100330 0.61795062 128 128 133
0.69737899 -0.01102340 0.61907929 107 107 112
0.69717568 -0.01100330 0.61795062 85 84 90
0.39525828 -0.00861577 0.53588289 125 124 126
0.39555913 -0.00860217 0.53503698 140 140 142
0.39551222 -0.00852146 0.53001708 161 161 161
0.39704919 -0.00853480 0.53084719 168 167 165
0.39734441 -0.00852146 0.53001708 172 171 170
0.39609268 -0.00847507 0.52713209 171 170 169
0.39669532 -0.00846849 0.52672249 166 165 163
0.39913636 -0.00848167 0.52754229 164 163 161
0.39942649 -0.00846849 0.52672249 169 168 166
0.39971575 -0.00845535 0.52590525 173 173 171
0.40215769 -0.00846849 0.52672249 183 183 182
0.57490498 -0.00945268 0.58793741 150 147 144
0.57343447 -0.00941187 0.58539885 153 149 145
0.57296193 -0.00938755 0.58388615 155 151 147
0.57545811 -0.00941187 0.58539885 155 153 147
0.57746726 -0.00942815 0.58641165 155 155 146
0.69801646 -0.00996247 0.61964518 116 116 121
0.69781178 -0.00994429 0.61851448 85 84 92
0.39462474 -0.00765926 0.53377312 106 105 107
0.39521414 -0.00761728 0.53084719 166 166 166
0.39427915 -0.00758165 0.52836466 165 166 166
0.39550063 -0.00758757 0.52877676 157 158 155
0.39672405 -0.00759349 0.52918959 166 167 163
0.39609268 -0.00756397 0.52713209 172 172 168
0.39669532 -0.00755809 0.52672249 169 168 164
0.39791489 -0.00756397 0.52713209 166 165 161
0.39913636 -0.00756985 0.52754229 171 170 168
0.39942649 -0.00755809 0.52672249 177 176 174
0.39971575 -0.00754636 0.52590525 178 178 176
0.40093577 -0.00755222 0.52631354 175 175 174
0.40215769 -0.00755809 0.52672249 174 174 174
0.40275514 -0.00755222 0.52631354 176 182 177
0.40523797 -0.00758165 0.52836466 178 185 179
0.40646800 -0.00758757 0.52877676 177 185 179
0.40801850 -0.00759942 0.52960300 172 181 177
0.40893388 -0.00759942 0.52960300 168 177 174
0.41016969 -0.00760537 0.53001708 171 178 175
0.57393008 -0.00840731 0.58590478 138 137 135
0.69610757 -0.00886715 0.61795062 123 124 128
0.71454835 -0.02523770 1.99968100 11 11 15
0.70963144 -0.02494338 1.97636104 11 11 15
0.39462474 -0.00673668 0.53377312 94 92 95
0.39461514 -0.00672080 0.53251517 136 136 138
0.39552388 -0.00670500 0.53126317 171 172 172
0.39427915 -0.00666842 0.52836466 163 164 164
0.39519238 -0.00666842 0.52836466 152 153 152
0.39672405 -0.00667883 0.52918959 158 159 157
0.39640093 -0.00665804 0.52754229 163 164 162
0.39669532 -0.00664769 0.52672249 162 162 160
0.39760572 -0.00664769 0.52672249 163 163 161
0.39913636 -0.00665804 0.52754229 163 162 160
0.39942649 -0.00664769 0.52672249 163 162 160
0.39971575 -0.00663738 0.52590525 162 162 160
0.40093577 -0.00664253 0.52631354 159 159 158
0.40215769 -0.00664769 0.52672249 156 156 155
0.40306810 -0.00664769 0.52672249 159 163 160
0.40587065 -0.00667883 0.52918959 167 173 168
0.40742141 -0.00668927 0.53001708 175 181 177
0.40865701 -0.00669451 0.53043181 180 186 186
0.40925360 -0.00668927 0.53001708 173 179 179
0.41049063 -0.00669451 0.53043181 167 173 173
0.69547361 -0.00779197 0.61738783 125 129 132
0.70621544 -0.02152740 1.97636104 12 12 16
0.70551765 -0.02140261 1.96490383 11 11 15
0.39587158 -0.00583246 0.53545958 87 85 88
0.39554733 -0.00581409 0.53377312 121 121 123
0.39676765 -0.00580495 0.53293383 153 154 153
0.39489472 -0.00576417 0.52918959 160 161 160
0.39580938 -0.00576417 0.52918959 169 170 167
0.39703399 -0.00576867 0.52960300 172 172 169
0.39640093 -0.00574623 0.52754229 167 168 165
0.39669532 -0.00573730 0.52672249 160 160 158
0.39729699 -0.00573284 0.52631354 160 160 158
0.39882600 -0.00574176 0.52713209 158 158 156
0.39911640 -0.00573284 0.52631354 156 156 154
0.39940587 -0.00572395 0.52549756 155 155 154
0.40062472 -0.00572839 0.52590525 158 159 159
0.40215769 -0.00573730 0.52672249 150 151 151
0.40275514 -0.00573284 0.52631354 150 151 150
0.40587065 -0.00576417 0.52918959 167 169 166
0.40742141 -0.00577318 0.53001708 192 194 192
0.40984926 -0.00576867 0.52960300 182 185 184
0.69035435 -0.01832513 1.99968100 16 15 26
0.70692146 -0.01821765 1.98795259 12 12 17
0.70212144 -0.01800643 1.96490383 12 12 18
0.70551765 -0.01800643 1.96490383 12 11 17
0.70482785 -0.01790265 1.95357883 11 11 16
0.39682677 -0.00493033 0.53800941 105 104 105
0.39649796 -0.00491473 0.53630686 104 104 104
0.39585903 -0.00489536 0.53419375 117 117 117
0.39676765 -0.00488382 0.53293383 142 143 142
0.39520323 -0.00485330 0.52960300 148 149 147
0.39611861 -0.00485330 0.52960300 159 160 156
0.39703399 -0.00485330 0.52960300 164 164 159
0.39640093 -0.00483441 0.52754229 161 162 157
0.39669532 -0.00482690 0.52672249 155 157 152
0.39911640 -0.00482315 0.52631354 159 160 158
0.39940587 -0.00481567 0.52549756 165 166 164
0.40062472 -0.00481941 0.52590525 170 171 171
0.40215769 -0.00482690 0.52672249 157 158 158
0.40523797 -0.00484195 0.52836466 165 166 164
0.40678531 -0.00484951 0.52918959 192 193 191
0.40769997 -0.00484951 0.52918959 188 189 189
0.40797767 -0.00484195 0.52836466 187 187 187
0.40857247 -0.00483818 0.52795315 184 184 184
0.68032014 -0.01465272 1.97061586 17 16 27
0.70075643 -0.01465272 1.97061586 14 14 19
0.70212144 -0.01461025 1.96490383 12 12 17
0.70347857 -0.01456803 1.95922494 12 12 16
0.70280248 -0.01448430 1.94796503 12 12 16
0.70820445 -0.01452604 1.95357883 11 11 15
0.40809974 -0.00425362 0.57206064 45 44 55
0.40702760 -0.00423219 0.56917870 47 46 60
0.40596622 -0.00421098 0.56632566 52 51 65
0.39744124 -0.00399725 0.53758276 121 121 121
0.39711076 -0.00398461 0.53588289 123 124 124
0.39678234 -0.00397205 0.53419375 128 128 128
0.39739248 -0.00396893 0.53377312 141 141 139
0.39520323 -0.00393792 0.52960300 145 146 144
0.39704919 -0.00394717 0.53084719 149 151 146
0.39765531 -0.00394408 0.53043181 153 155 148
0.39670965 -0.00392565 0.52795315 154 156 149
0.39700377 -0.00391955 0.52713209 149 151 144
0.39911640 -0.00391346 0.52631354 159 160 158
0.39909652 -0.00390437 0.52509052 167 168 166
0.40031415 -0.00390739 0.52549756 171 172 170
0.67834818 -0.01121408 1.96490383 17 16 28
0.69938350 -0.01127946 1.97636104 15 14 23
0.69670582 -0.01118167 1.95922494 15 15 20
0.69807464 -0.01114944 1.95357883 15 15 19
0.69943559 -0.01111740 1.94796503 15 15 19
0.69878644 -0.01105388 1.93683386 13 12 17
0.70414597 -0.01108555 1.94238353 12 12 14
0.40672684 -0.00325387 0.57013613 45 44 54
0.40668613 -0.00324568 0.56870121 46 46 58
0.40562734 -0.00322943 0.56585294 51 50 62
0.39765531 -0.00302727 0.53043181 145 150 147
0.39817125 -0.00298984 0.52387315 150 151 149
0.39907670 -0.00298984 0.52387315 151 152 152
0.67638767 -0.00779530 1.95922494 17 16 30
0.69532907 -0.00781790 1.96490383 15 14 22
0.69469804 -0.00777284 1.95357883 15 14 21
0.69606870 -0.00775050 1.94796503 15 14 21
0.69743145 -0.00772830 1.94238353 15 15 20
0.69679564 -0.00768426 1.93131578 14 14 19
0.70013374 -0.00768426 1.93131578 12 12 16
0.40604383 -0.00226463 0.56917870 45 44 53
0.40600494 -0.00225894 0.56774861 46 46 55
0.40427750 -0.00224391 0.56396991 49 49 58
0.39849761 -0.00209083 0.52549756 158 159 159
0.39817125 -0.00208437 0.52387315 149 151 150
0.39876854 -0.00208276 0.52346861 158 160 159
0.68689811 -0.00449998 1.99968100 19 18 32
0.67638767 -0.00440894 1.95922494 17 17 29
0.68571955 -0.00444750 1.97636104 17 17 28
0.69532907 -0.00442172 1.96490383 16 15 22
0.69469804 -0.00439624 1.95357883 15 14 20
0.69606870 -0.00438360 1.94796503 15 15 19
0.69943559 -0.00438360 1.94796503 15 15 19
0.69679564 -0.00434614 1.93131578 15 15 19
0.70213413 -0.00435855 1.93683386 14 14 18
0.40532598 -0.00127550 0.56679922 46 46 55
0.40327099 -0.00126597 0.56256586 49 49 58
0.39817125 -0.00117890 0.52387315 160 164 162
0.68286937 -0.00103757 1.98795259 19 20 35
0.67638767 -0.00102258 1.95922494 18 17 31
0.68772459 -0.00103454 1.98213995 18 17 30
0.70417953 -0.00104370 1.99968100 16 15 24
0.69532907 -0.00102554 1.96490383 16 15 22
0.69469804 -0.00101963 1.95357883 16 15 21
0.69606870 -0.00101670 1.94796503 15 15 20
0.69943559 -0.00101670 1.94796503 15 15 20
0.69679564 -0.00100801 1.93131578 15 15 20
0.70213413 -0.00101089 1.93683386 15 15 20
0.40532598 -0.00029583 0.56679922 46 46 55
0.40327099 -0.00029362 0.56256586 48 48 57
0.68087268 0.00239143 1.98213995 22 21 35
0.67443842 0.00235697 1.95357883 21 21 32
0.68974137 0.00239844 1.98795259 18 18 29
0.70210838 0.00240550 1.99379957 16 15 25
0.69331950 0.00236378 1.95922494 16 15 22
0.69270176 0.00235020 1.94796503 16 15 22
0.69606870 0.00235020 1.94796503 15 14 21
0.69743145 0.00234346 1.94238353 15 14 21
0.69481611 0.00232349 1.92582905 15 14 21
0.70013374 0.00233011 1.93131578 15 15 19
0.71158105 0.00235697 1.95357883 15 15 19
0.40570319 0.00068613 0.56870121 44 43 54
0.40600494 0.00068498 0.56774861 46 45 56
0.40360594 0.00067929 0.56303310 48 47 57
0.67691410 0.00578357 1.97061586 23 22 39
0.67250037 0.00571710 1.94796503 21 20 36
0.69177002 0.00585162 1.99379957 18 17 32
0.70210838 0.00585162 1.99379957 16 14 28
0.69331950 0.00575014 1.95922494 16 15 24
0.69270176 0.00571710 1.94796503 16 15 23
0.69209117 0.00568443 1.93683386 16 15 22
0.69345748 0.00566823 1.93131578 15 14 21
0.69284779 0.00563612 1.92037344 15 14 21
0.69814473 0.00565213 1.92582905 15 14 21
0.40600494 0.00166629 0.56774861 45 45 54
0.40327099 0.00165108 0.56256586 47 46 55
0.67495203 0.00916299 1.96490383 24 23 39
0.67057341 0.00905797 1.94238353 22 20 37
0.68974137 0.00927047 1.98795259 18 17 33
0.69726694 0.00932516 1.99968100 17 16 32
0.70210838 0.00929774 1.99379957 16 14 28
0.69331950 0.00913650 1.95922494 16 15 24
0.69071698 0.00905797 1.94238353 16 15 24
0.69011939 0.00900635 1.93131578 16 15 22
0.68952858 0.00895533 1.92037344 15 14 21
0.68700916 0.00887986 1.90419054 15 14 21
0.40502360 0.00264760 0.56774861 45 45 55
0.40498737 0.00264096 0.56632566 46 45 55
0.40293661 0.00262125 0.56209940 46 45 54
1.71134675 0.00721742 1.54769826 132 131 137
1.71794403 0.00723394 1.55123997 134 133 139
1.72457159 0.00725053 1.55479777 135 134 138
1.73122966 0.00726720 1.55837202 136 135 137
1.72739708 0.00721742 1.54769826 141 140 142
0.68143165 0.01274386 1.99379957 25 24 40
0.67106181 0.01248678 1.95357883 24 23 39
0.69381064 0.01278145 1.99968100 19 17 31
0.69726694 0.01278145 1.99968100 18 16 30
0.70004946 0.01270649 1.98795259 17 16 27
0.69132143 0.01248678 1.95357883 17 16 26
0.69270176 0.01245090 1.94796503 17 16 26
0.68317109 0.01210310 1.89355266 15 14 23
0.22832786 0.00323835 0.50664562 14 12 29
0.23516074 0.00324806 0.50816482 9 8 15
0.23533341 0.00323835 0.50664562 9 8 15
0.23603271 0.00323593 0.50626725 9 9 13
0.40745482 0.00365955 0.57254380 45 45 54
0.40468469 0.00362587 0.56727350 45 45 54
0.40431184 0.00361377 0.56538099 45 45 54
0.40260279 0.00358982 0.56163365 46 46 55
0.39992878 0.00355740 0.55656147 46 46 54
1.74318576 0.01007654 1.57649267 134 134 138
1.75406897 0.01012363 1.58385944 134 134 138
1.76092088 0.01014733 1.58756876 131 130 133
1.76775682 0.01012363 1.58385944 137 136 138
1.78299201 0.01019509 1.59503961 139 138 140
1.78850579 0.01019509 1.59503961 138 138 140
1.78705788 0.01017115 1.59129536 139 139 141
0.67943335 0.01614250 1.98795259 25 24 39
0.67106181 0.01586338 1.95357883 24 23 38
0.69331950 0.01590923 1.95922494 19 17 31
0.70075643 0.01600172 1.97061586 19 17 31
0.22665982 0.00416384 0.51277751 19 22 46
0.22771835 0.00416699 0.51316565 17 19 42
0.22843239 0.00416384 0.51277751 15 16 37
0.22832786 0.00411405 0.50664562 12 10 28
0.23006327 0.00412948 0.50854599 11 9 26
0.23270021 0.00412948 0.50854599 9 8 17
0.23357920 0.00412948 0.50854599 9 8 16
0.23516074 0.00412638 0.50816482 9 8 15
0.23533341 0.00411405 0.50664562 9 8 15
0.23585656 0.00410791 0.50588942 9 8 15
0.40468469 0.00460635 0.56727350 45 45 54
0.40363854 0.00458334 0.56443948 45 45 54
0.40226951 0.00455678 0.56116873 45 45 54
0.39927316 0.00451196 0.55564904 46 46 55
0.39377818 0.00443919 0.54668695 48 48 54
0.39093977 0.00439664 0.54144716 55 56 62
0.39093888 0.00438613 0.54015285 61 62 68
1.75133145 0.01286120 1.58385944 146 147 151
1.75817692 0.01289132 1.58756876 138 139 143
1.76920760 0.01295198 1.59503961 132 133 136
1.78167045 0.01298253 1.59880149 139 139 141
1.78023517 0.01295198 1.59503961 143 143 145
1.79419219 0.01301322 1.60258114 140 140 142
1.79696214 0.01301322 1.60258114 137 137 139
1.81384802 0.01307504 1.61019444 142 141 142
0.67547160 0.01946436 1.97636104 25 24 40
0.67300129 0.01929559 1.95922494 24 23 39
0.22648849 0.00504631 0.51238990 20 23 47
0.22771835 0.00505395 0.51316565 19 21 43
0.22825973 0.00504631 0.51238990 17 18 36
0.23058221 0.00501976 0.50969309 10 9 23
0.23164746 0.00500470 0.50816482 10 9 23
0.23252578 0.00500470 0.50816482 10 9 21
0.23322926 0.00500095 0.50778413 9 8 18
0.23428242 0.00500470 0.50816482 9 8 17
0.23533715 0.00500846 0.50854599 9 8 15
0.23533341 0.00498974 0.50664562 9 9 14
0.23585656 0.00498229 0.50588942 9 9 14
0.40468469 0.00558684 0.56727350 45 45 54
0.40330273 0.00555430 0.56396991 45 45 54
0.40226951 0.00552672 0.56116873 45 45 54
0.39282778 0.00537110 0.54536754 48 50 58
0.39031628 0.00532398 0.54058361 53 55 64
0.39031684 0.00531128 0.53929341 60 61 69
0.39249799 0.00532823 0.54101503 67 67 76
0.39249334 0.00531550 0.53972280 76 76 84
1.75955367 0.01567201 1.59129536 138 139 142
1.76230407 0.01567201 1.59129536 134 135 138
1.78733790 0.01582056 1.60637879 140 141 143
1.78588235 0.01578315 1.60258114 138 139 141
1.78443384 0.01574593 1.59880149 132 132 134
1.79566729 0.01582056 1.60637879 135 136 138
1.79844379 0.01582056 1.60637879 137 137 139
1.80122030 0.01582056 1.60637879 138 138 140
1.80399680 0.01582056 1.60637879 139 139 141
1.81106496 0.01585813 1.61019444 139 139 140
1.81816673 0.01589589 1.61402822 140 139 141
1.82966912 0.01597195 1.62175083 143 142 144
1.83686662 0.01601025 1.62563992 127 130 131
0.67350805 0.02281382 1.97061586 25 24 38
0.67691410 0.02281382 1.97061586 24 23 37
0.22648849 0.00593194 0.51238990 21 23 49
0.22754610 0.00593643 0.51277751 20 22 46
0.22808732 0.00592746 0.51200289 19 20 40
0.23162715 0.00592746 0.51200289 11 10 24
0.23198645 0.00591406 0.51084542 10 10 22
0.23164746 0.00588303 0.50816482 10 10 22
0.23270021 0.00588744 0.50854599 10 9 20
0.23322926 0.00587862 0.50778413 9 8 17
0.23605193 0.00592746 0.51200289 9 8 16
0.23551384 0.00589186 0.50892782 9 9 14
0.23533341 0.00586544 0.50664562 9 9 13
0.23603271 0.00586106 0.50626725 9 9 13
0.40400851 0.00655635 0.56632566 44 44 53
0.40196508 0.00650743 0.56209940 45 45 54
0.40193677 0.00649128 0.56070459 45 45 54
0.39314407 0.00631880 0.54580665 46 48 58
0.38969475 0.00624837 0.53972280 51 54 64
0.39000657 0.00623844 0.53886473 57 59 68
0.39155811 0.00623348 0.53843671 76 76 84
1.75955367 0.01842243 1.59129536 130 133 135
1.76230407 0.01842243 1.59129536 133 136 137
1.76920760 0.01846578 1.59503961 138 141 142
1.77614367 0.01850933 1.59880149 145 146 148
1.78733790 0.01859705 1.60637879 140 141 143
1.78588235 0.01855309 1.60258114 134 135 137
1.78443384 0.01850933 1.59880149 127 128 130
1.79566729 0.01859705 1.60637879 132 133 135
1.79844379 0.01859705 1.60637879 135 136 138
1.80549872 0.01864122 1.61019444 137 138 140
1.80828190 0.01864122 1.61019444 133 134 136
1.81537700 0.01868561 1.61402822 131 132 134
1.82250607 0.01873020 1.61788034 131 131 133
1.82966912 0.01877501 1.62175083 137 137 139
1.83686662 0.01882004 1.62563992 132 135 136
-0.02055426 0.00626364 0.47075823 196 192 193
-0.01972689 0.00625929 0.47043154 193 187 189
0.67744666 0.02637321 1.98213995 26 25 40
0.22614662 0.00680727 0.51161647 22 25 47
0.22737411 0.00681756 0.51238990 21 24 45
0.22862692 0.00680214 0.51123065 16 17 34
0.22847672 0.00677150 0.50892782 15 16 29
0.22866966 0.00675122 0.50740409 14 14 27
0.23197757 0.00682272 0.51277751 13 13 26
0.23198645 0.00679701 0.51084542 12 11 20
0.23164746 0.00676135 0.50816482 11 10 19
0.23252578 0.00676135 0.50816482 10 9 18
0.23569079 0.00677659 0.50931019 9 9 13
0.23533341 0.00674113 0.50664562 9 9 11
0.23585656 0.00673107 0.50588942 9 9 13
0.23655441 0.00672605 0.50551218 9 9 13
0.40199351 0.00749762 0.56350112 44 44 53
0.40163204 0.00747277 0.56163365 45 45 54
0.40160459 0.00745424 0.56024116 45 45 54
0.39764345 0.00736297 0.55338109 45 45 54
0.39314407 0.00726219 0.54580665 45 47 56
0.38969475 0.00718124 0.53972280 49 52 60
0.38969681 0.00716413 0.53843671 55 57 65
0.38939309 0.00712452 0.53545958 73 73 80
1.75955367 0.02117286 1.59129536 135 142 142
1.76230407 0.02117286 1.59129536 138 146 145
1.76920760 0.02122267 1.59503961 142 149 149
1.77614367 0.02127273 1.59880149 148 152 152
1.78311253 0.02132302 1.60258114 141 145 145
1.78588235 0.02132302 1.60258114 134 139 138
1.78865230 0.02132302 1.60258114 130 136 136
1.79566729 0.02137355 1.60637879 129 136 136
1.80271566 0.02142431 1.61019444 130 136 136
1.80979753 0.02147532 1.61402822 134 139 139
1.81258726 0.02147532 1.61402822 133 138 138
1.82406306 0.02157808 1.62175083 129 135 135
1.83124709 0.02162982 1.62563992 121 129 129
1.83405685 0.02162982 1.62563992 127 136 135
-0.02056854 0.00708222 0.47108537 194 191 192
-0.01974059 0.00707730 0.47075823 196 192 192
-0.01892692 0.00707730 0.47075823 204 200 199
-0.01731161 0.00708222 0.47108537 215 214 214
0.68344182 0.03006288 1.99968100 27 26 42
0.22737411 0.00770319 0.51238990 22 24 49
0.22774330 0.00768576 0.51123065 20 20 44
0.22862692 0.00768576 0.51123065 16 16 38
0.22899246 0.00766841 0.51007664 14 15 35
0.22935635 0.00765114 0.50892782 14 13 32
0.23233663 0.00769156 0.51161647 11 10 26
0.23182124 0.00764540 0.50854599 10 9 25
0.23252578 0.00763967 0.50816482 10 9 21
0.23676723 0.00772069 0.51355445 10 9 18
0.23569079 0.00765689 0.50931019 9 9 16
0.23533341 0.00761683 0.50664562 9 9 15
0.23585656 0.00760546 0.50588942 9 8 15
0.23655441 0.00759979 0.50551218 9 8 15
0.40061134 0.00840174 0.55885559 45 45 52
0.39538413 0.00827217 0.55023688 46 46 53
0.39251199 0.00819238 0.54492915 47 47 55
0.39000526 0.00812057 0.54015285 49 49 57
0.38938752 0.00808835 0.53800941 52 52 60
0.38755631 0.00801204 0.53293383 68 68 74
1.75543296 0.02386725 1.58756876 139 147 147
1.75817692 0.02386725 1.58756876 139 148 147
1.76092088 0.02386725 1.58756876 141 150 149
1.77614367 0.02403613 1.59880149 146 152 151
1.78311253 0.02409295 1.60258114 143 149 148
1.78588235 0.02409295 1.60258114 138 144 143
1.78865230 0.02409295 1.60258114 134 143 142
1.79566729 0.02415004 1.60637879 129 138 137
1.79844379 0.02415004 1.60637879 127 136 135
1.80979753 0.02426504 1.61402822 130 139 138
1.81258726 0.02426504 1.61402822 132 140 139
1.81970966 0.02432295 1.61788034 129 137 137
1.82686603 0.02438114 1.62175083 121 130 130
1.82966912 0.02438114 1.62175083 126 135 136
1.83686662 0.02443961 1.62563992 128 136 137
1.86200261 0.02473621 1.64536858 126 132 132
-0.02059717 0.00790744 0.47174102 190 189 189
-0.01976804 0.00790195 0.47141296 196 195 194
-0.01894007 0.00789646 0.47108537 200 199 197
-0.01815107 0.00790744 0.47174102 193 187 187
-0.01732365 0.00790195 0.47141296 195 194 194
0.23268785 0.00858881 0.51238990 11 10 27
0.23216958 0.00853719 0.50931019 10 9 26
0.23235160 0.00851161 0.50778413 10 9 23
0.23694675 0.00861486 0.51394379 11 10 19
0.23586799 0.00854361 0.50969309 10 9 17
0.23533341 0.00849252 0.50664562 9 8 15
0.23568068 0.00847353 0.50551218 9 9 14
0.23637815 0.00846721 0.50513548 8 8 13
0.39220068 0.00914895 0.54580665 45 46 53
0.39062795 0.00909040 0.54231346 46 47 54
0.38969475 0.00904697 0.53972280 47 48 55
0.38846260 0.00899683 0.53673148 49 50 56
0.38572547 0.00891216 0.53167987 57 57 61
0.38694793 0.00891915 0.53209722 70 70 74
0.38574812 0.00887041 0.52918959 76 80 82
0.38607052 0.00883592 0.52713209 92 98 97
0.38910979 0.00882220 0.52631354 121 126 125
0.38971689 0.00881536 0.52590525 127 129 127
0.39032307 0.00880853 0.52549756 131 129 126
1.74998021 0.02648718 1.58016741 143 152 151
1.75680661 0.02654906 1.58385944 145 154 153
1.78311253 0.02686288 1.60258114 145 151 151
1.78588235 0.02686288 1.60258114 144 151 151
1.78443384 0.02679952 1.59880149 137 147 145
1.79142225 0.02686288 1.60258114 132 142 140
1.79844379 0.02692654 1.60637879 129 140 138
1.80979753 0.02705476 1.61402822 132 144 143
1.80828190 0.02699050 1.61019444 132 144 142
1.81537700 0.02705476 1.61402822 129 142 140
1.82686603 0.02718421 1.62175083 126 139 139
1.82530236 0.02711933 1.61788034 126 139 139
-0.02059717 0.00872281 0.47174102 181 175 177
-0.01978180 0.00872281 0.47174102 184 178 180
-0.01895324 0.00871675 0.47141296 184 178 180
-0.01816371 0.00872889 0.47206953 190 184 186
-0.01732365 0.00871675 0.47141296 199 195 196
0.23356767 0.00954659 0.51629233 14 12 33
0.23321669 0.00949597 0.51355445 12 10 29
0.23304503 0.00945300 0.51123065 10 8 27
0.23235160 0.00938927 0.50778413 10 9 25
0.23712651 0.00951038 0.51433372 10 9 25
0.23622322 0.00943876 0.51046073 9 8 23
0.23533341 0.00936822 0.50664562 8 7 20
0.23550506 0.00934030 0.50513548 8 7 18
0.23620214 0.00933334 0.50475937 7 7 17
0.39094251 0.01008422 0.54536754 43 44 51
0.38875759 0.01000373 0.54101503 44 46 52
0.38845259 0.00997190 0.53929341 46 47 54
0.38814956 0.00994027 0.53758276 47 48 55
0.38693082 0.00988539 0.53461504 49 51 57
0.38542318 0.00982342 0.53126317 54 57 60
0.38634142 0.00982342 0.53126317 64 67 70
0.38514680 0.00976982 0.52836466 69 76 76
0.38456133 0.00973189 0.52631354 76 85 84
0.38577053 0.00973946 0.52672249 86 95 93
0.38608098 0.00972434 0.52590525 94 100 98
0.38910639 0.00975461 0.52754229 115 119 118
0.38941213 0.00973946 0.52672249 120 124 123
0.39001948 0.00973189 0.52631354 123 125 124
0.39092916 0.00973189 0.52631354 130 130 128
1.72981918 0.02888175 1.56196272 144 151 151
1.74053979 0.02901546 1.56919408 147 153 153
1.78167045 0.02956292 1.59880149 148 154 154
1.78023517 0.02949336 1.59503961 138 146 145
1.79973209 0.02963281 1.60258114 133 143 142
1.81816673 0.02984447 1.61402822 130 139 138
1.81663108 0.02977359 1.61019444 130 139 138
1.81941426 0.02977359 1.61019444 132 139 139
-0.02062587 0.00955147 0.47239849 171 165 168
-0.01979558 0.00954482 0.47206953 176 168 172
-0.01897964 0.00954482 0.47206953 185 176 181
-0.01817637 0.00955147 0.47239849 200 191 190
-0.01734777 0.00954482 0.47206953 201 195 191
-0.01653184 0.00954482 0.47206953 195 189 185
-0.01571591 0.00954482 0.47206953 187 182 178
-0.01489997 0.00954482 0.47206953 178 172 173
0.23446050 0.01047887 0.51826596 12 13 33
0.23374793 0.01040726 0.51472425 11 10 29
0.23270021 0.01028234 0.50854599 10 9 23
0.23748690 0.01041517 0.51511538 10 9 18
0.23640123 0.01032883 0.51084542 9 8 17
0.23533341 0.01024392 0.50664562 9 8 16
0.23532970 0.01020578 0.50475937 9 8 15
0.23602639 0.01019819 0.50438380 9 8 15
0.39316291 0.01111627 0.54979062 43 43 50
0.38968849 0.01099147 0.54361814 44 44 51
0.38752046 0.01090403 0.53929341 45 45 52
0.38722038 0.01086944 0.53758276 46 46 52
0.38722831 0.01084364 0.53630686 48 49 53
0.38632149 0.01079241 0.53377312 50 52 56
0.38542318 0.01074166 0.53126317 51 59 60
0.38634142 0.01074166 0.53126317 57 65 67
0.38544720 0.01069139 0.52877676 65 73 73
0.38456133 0.01064158 0.52631354 71 80 79
0.38607052 0.01065813 0.52713209 78 86 86
0.38608098 0.01063333 0.52590525 92 97 98
0.38940945 0.01067474 0.52795315 115 117 118
0.38941213 0.01064985 0.52672249 121 122 122
0.39001948 0.01064158 0.52631354 123 124 124
1.77747822 0.03225026 1.59503961 147 153 153
1.77605617 0.03217455 1.59129536 141 149 148
1.78574896 0.03225026 1.59503961 123 132 131
1.79696214 0.03240274 1.60258114 132 139 139
1.79548740 0.03232632 1.59880149 136 142 142
1.81384802 0.03255668 1.61019444 135 141 141
1.81663108 0.03255668 1.61019444 134 140 140
1.81941426 0.03255668 1.61019444 134 139 139
-0.01980937 0.01036797 0.47239849 194 187 189
-0.01734777 0.01036075 0.47206953 203 194 193
-0.01654336 0.01036797 0.47239849 184 176 175
0.23482142 0.01143585 0.52105445 14 15 36
0.23481956 0.01139207 0.51905960 13 14 32
0.23446004 0.01133133 0.51629233 11 11 28
0.23428181 0.01127979 0.51394379 11 10 26
0.23895708 0.01141830 0.52025467 10 8 21
0.23766749 0.01131410 0.51550710 9 8 17
0.23657951 0.01122024 0.51123065 9 8 17
0.23515767 0.01111131 0.50626725 9 8 17
0.23480520 0.01105352 0.50363433 9 8 16
0.23567569 0.01105352 0.50363433 9 8 15
0.38844249 0.01189292 0.54187995 44 44 51
0.38690487 0.01181735 0.53843671 45 45 52
0.38599598 0.01176130 0.53588289 46 46 52
0.38661659 0.01175201 0.53545958 47 48 52
0.38632149 0.01171499 0.53377312 49 50 54
0.38542318 0.01165991 0.53126317 51 55 58
0.38634142 0.01165991 0.53126317 58 62 65
0.38544720 0.01160534 0.52877676 65 71 72
0.38456133 0.01155127 0.52631354 70 78 77
0.38577053 0.01156025 0.52672249 72 79 79
0.38578168 0.01153337 0.52549756 82 90 89
0.38850653 0.01153337 0.52549756 117 119 122
0.38881201 0.01151551 0.52468407 126 128 130
1.78167045 0.03508972 1.59880149 153 159 159
1.78023517 0.03500716 1.59503961 150 156 157
1.78719723 0.03508972 1.59880149 145 152 153
1.78996062 0.03508972 1.59880149 142 149 150
1.80122030 0.03525602 1.60637879 145 151 153
1.79973209 0.03517267 1.60258114 145 151 152
1.80677330 0.03525602 1.60637879 141 147 148
1.82530236 0.03550845 1.61788034 145 146 148
1.83247221 0.03559340 1.62175083 145 146 148
-0.01982318 0.01119228 0.47272792 201 195 196
-0.01735986 0.01118448 0.47239849 199 193 194
-0.01654336 0.01118448 0.47239849 185 180 182
-0.01571591 0.01117669 0.47206953 176 175 175
0.23518296 0.01235544 0.52185667 15 16 35
0.23481956 0.01228922 0.51905960 13 14 33
0.23481771 0.01224235 0.51707995 11 12 30
0.23428181 0.01216810 0.51394379 9 10 27
0.23895708 0.01231752 0.52025467 8 7 23
0.23784836 0.01221440 0.51589942 8 7 21
0.23675807 0.01211300 0.51161647 8 7 21
0.23515767 0.01198635 0.50626725 8 8 19
0.23445682 0.01190632 0.50288713 8 8 19
0.23532602 0.01190632 0.50288713 8 8 18
0.38751319 0.01279882 0.54058361 44 44 51
0.38659781 0.01273787 0.53800941 44 44 51
0.38508275 0.01265751 0.53461504 45 45 52
0.38570261 0.01264754 0.53419375 46 46 53
0.38601753 0.01262763 0.53335315 47 47 54
0.38542318 0.01257815 0.53126317 51 53 58
0.38634142 0.01257815 0.53126317 56 59 63
0.38544720 0.01251928 0.52877676 65 67 70
0.38456133 0.01246096 0.52631354 74 75 78
0.38577053 0.01247065 0.52672249 78 79 82
0.38548285 0.01243201 0.52509052 79 83 85
0.38730559 0.01240319 0.52387315 110 115 118
0.38701472 0.01236496 0.52225876 119 124 127
1.78167045 0.03785312 1.59880149 151 155 156
1.78443384 0.03785312 1.59880149 144 150 151
1.79142225 0.03794261 1.60258114 138 144 146
1.79419219 0.03794261 1.60258114 138 144 146
1.80549872 0.03812286 1.61019444 137 143 145
1.80828190 0.03812286 1.61019444 134 140 142
1.81537700 0.03821363 1.61402822 127 133 135
1.83124709 0.03848854 1.62563992 124 127 130
1.83405685 0.03848854 1.62563992 127 128 132
-0.01983702 0.01201773 0.47305781 197 193 194
-0.01820173 0.01201773 0.47305781 207 200 201
-0.01737197 0.01200935 0.47272792 206 200 200
-0.01654336 0.01200098 0.47239849 199 193 194
-0.01572686 0.01200098 0.47239849 192 191 191
-0.01489997 0.01199262 0.47206953 194 193 193
0.23499696 0.01314611 0.51747471 9 10 27
0.23428181 0.01305641 0.51394379 8 10 26
0.23914060 0.01322688 0.52065426 8 7 23
0.23802951 0.01311607 0.51629233 8 8 20
0.23675807 0.01299729 0.51161647 8 8 20
0.23515767 0.01286139 0.50626725 9 8 17
0.23410948 0.01275660 0.50214213 9 8 17
0.23515157 0.01276605 0.50251436 9 8 16
0.38999990 0.01385471 0.54536754 43 43 51
0.38720444 0.01372223 0.54015285 44 43 51
0.38629124 0.01365694 0.53758276 44 44 52
0.38447630 0.01356016 0.53377312 44 44 52
0.38539889 0.01356016 0.53377312 45 45 52
0.38571405 0.01353884 0.53293383 46 46 53
0.38542318 0.01349640 0.53126317 51 51 58
0.38634142 0.01349640 0.53126317 57 57 63
0.38544720 0.01343323 0.52877676 64 65 71
0.38456133 0.01337066 0.52631354 75 76 81
0.38577053 0.01338104 0.52672249 84 84 90
0.38548285 0.01333958 0.52509052 82 84 90
0.38549462 0.01330866 0.52387315 86 88 94
0.38759825 0.01334993 0.52549756 95 98 104
0.38730559 0.01330866 0.52387315 105 111 116
0.38641930 0.01324723 0.52145529 113 118 124
1.78588235 0.04071254 1.60258114 144 148 149
1.78443384 0.04061652 1.59880149 137 143 143
1.79142225 0.04071254 1.60258114 131 139 139
1.78996062 0.04061652 1.59880149 132 141 140
1.80979753 0.04100334 1.61402822 133 142 142
1.80828190 0.04090595 1.61019444 135 143 144
1.81537700 0.04100334 1.61402822 137 146 147
1.83564913 0.04139761 1.62954772 139 145 146
1.83846569 0.04139761 1.62954772 140 144 145
-0.02065466 0.01283537 0.47305781 201 199 199
-0.01982318 0.01282642 0.47272792 193 189 190
-0.01900611 0.01282642 0.47272792 193 186 188
-0.01818904 0.01282642 0.47272792 208 199 202
-0.01737197 0.01282642 0.47272792 211 204 205
-0.01654336 0.01281748 0.47239849 207 201 201
-0.01572686 0.01281748 0.47239849 204 203 201
-0.01491036 0.01281748 0.47239849 195 195 194
-0.01410368 0.01282642 0.47272792 192 192 192
-0.01327735 0.01281748 0.47239849 191 191 191
0.23517649 0.01405125 0.51787001 11 12 31
0.23932442 0.01413765 0.52105445 9 8 24
0.23802951 0.01400844 0.51629233 8 7 20
0.23675807 0.01388157 0.51161647 9 8 20
0.23515767 0.01373643 0.50626725 9 8 17
0.23393619 0.01361442 0.50177044 9 8 17
0.23497739 0.01362451 0.50214213 9 8 15
0.38688737 0.01467924 0.54101503 44 42 56
0.38628104 0.01462089 0.53886473 44 42 56
0.38506976 0.01453999 0.53588289 44 42 56
0.38417381 0.01447135 0.53335315 44 42 55
0.38479292 0.01445997 0.53293383 44 44 55
0.38571405 0.01445997 0.53293383 46 46 56
0.38512135 0.01440336 0.53084719 48 48 58
0.38634142 0.01441464 0.53126317 53 53 62
0.38544720 0.01434718 0.52877676 62 62 71
0.38426301 0.01426927 0.52590525 73 73 81
0.38547105 0.01428035 0.52631354 80 80 88
0.38488659 0.01422512 0.52427828 82 82 91
0.38401082 0.01415942 0.52185667 88 88 97
0.38520935 0.01417033 0.52225876 98 100 106
0.38522169 0.01413765 0.52105445 106 112 113
0.38523397 0.01410513 0.51985568 119 125 126
1.78588235 0.04348247 1.60258114 146 152 152
1.78865230 0.04348247 1.60258114 142 149 149
1.79142225 0.04348247 1.60258114 137 146 145
1.79419219 0.04348247 1.60258114 137 146 145
1.81411695 0.04389758 1.61788034 136 144 143
1.81258726 0.04379306 1.61402822 135 141 141
1.81970966 0.04389758 1.61788034 135 141 141
1.83564913 0.04421415 1.62954772 137 140 141
1.83846569 0.04421415 1.62954772 138 139 141
-0.02065466 0.01365301 0.47305781 192 188 189
-0.01982318 0.01364349 0.47272792 195 191 193
-0.01900611 0.01364349 0.47272792 189 186 188
-0.01818904 0.01364349 0.47272792 204 199 201
-0.01735986 0.01363398 0.47239849 209 205 206
-0.01654336 0.01363398 0.47239849 205 204 202
-0.01573782 0.01364349 0.47272792 202 201 199
-0.01492075 0.01364349 0.47272792 200 199 197
-0.01410368 0.01364349 0.47272792 195 194 192
-0.01327735 0.01363398 0.47239849 191 191 189
-0.01085811 0.01367209 0.47371897 202 203 203
-0.01003231 0.01366255 0.47338817 200 201 201
-0.00922054 0.01367209 0.47371897 195 196 196
0.23517971 0.01500366 0.51985568 12 12 36
0.23517649 0.01494635 0.51787001 10 10 32
0.24120481 0.01521366 0.52713209 10 9 24
0.23932442 0.01503825 0.52105445 9 8 22
0.23802951 0.01490081 0.51629233 9 8 20
0.23675807 0.01476586 0.51161647 9 8 19
0.23515767 0.01461148 0.50626725 9 8 17
0.23393619 0.01448169 0.50177044 9 8 17
0.23497739 0.01449242 0.50214213 9 8 15
0.23584530 0.01449242 0.50214213 9 8 14
0.38255551 0.01555228 0.53886473 43 42 53
0.38289642 0.01549071 0.53673148 43 41 54
0.38627082 0.01558946 0.54015285 44 41 55
0.38597423 0.01553993 0.53843671 44 41 55
0.38415870 0.01542963 0.53461504 44 41 55
0.38417381 0.01539321 0.53335315 44 42 56
0.38418886 0.01535696 0.53209722 45 44 57
0.38510853 0.01535696 0.53209722 46 45 58
0.38451913 0.01529692 0.53001708 48 47 58
0.38543522 0.01529692 0.53001708 52 52 61
0.38484684 0.01523736 0.52795315 59 59 68
0.38366771 0.01515474 0.52509052 70 70 75
0.38457528 0.01515474 0.52509052 76 77 82
0.38340399 0.01507301 0.52225876 87 88 93
0.38224524 0.01499216 0.51945734 99 100 104
0.38343692 0.01500366 0.51985568 105 107 110
0.38463041 0.01501517 0.52025467 104 108 107
0.38464403 0.01498068 0.51905960 118 121 120
0.38407075 0.01492354 0.51707995 123 126 125
1.78443384 0.04614332 1.59880149 146 154 152
1.79142225 0.04625240 1.60258114 145 154 151
1.81258726 0.04658278 1.61402822 142 143 143
1.81537700 0.04658278 1.61402822 145 145 145
1.83124709 0.04691791 1.62563992 148 148 149
1.83405685 0.04691791 1.62563992 151 151 153
-0.01980937 0.01445049 0.47239849 197 195 198
-0.01899287 0.01445049 0.47239849 182 182 185
-0.01817637 0.01445049 0.47239849 190 189 192
-0.01735986 0.01445049 0.47239849 194 194 196
-0.01653184 0.01444042 0.47206953 196 195 196
-0.01572686 0.01445049 0.47239849 194 193 191
-0.01491036 0.01445049 0.47239849 193 192 190
-0.01409385 0.01445049 0.47239849 193 192 190
-0.01327735 0.01445049 0.47239849 196 195 193
-0.01085053 0.01448076 0.47338817 207 204 203
0.23554097 0.01592661 0.52065426 14 12 31
0.24120481 0.01612477 0.52713209 10 10 21
0.23950851 0.01595111 0.52145529 9 9 20
0.23821093 0.01580522 0.51668584 8 8 19
0.23675807 0.01565015 0.51161647 8 8 19
0.23515767 0.01548652 0.50626725 9 8 17
0.23393619 0.01534896 0.50177044 9 8 17
0.23497739 0.01536033 0.50214213 9 8 15
0.23584530 0.01536033 0.50214213 8 8 14
0.37864268 0.01631507 0.53335315 42 40 53
0.38257456 0.01644445 0.53758276 42 40 53
0.38229108 0.01639245 0.53588289 43 41 53
0.38565624 0.01649678 0.53929341 43 42 54
0.38505670 0.01643142 0.53715676 43 42 54
0.38325197 0.01631507 0.53335315 44 43 54
0.38387179 0.01630224 0.53293383 44 43 54
0.38328630 0.01623841 0.53084719 44 44 54
0.38300413 0.01618770 0.52918959 45 45 54
0.38543522 0.01621302 0.53001708 51 51 59
0.38454732 0.01613731 0.52754229 53 54 61
0.38307425 0.01603747 0.52427828 62 67 70
0.38074133 0.01590218 0.51985568 70 76 78
0.38163987 0.01590218 0.51985568 77 81 83
0.38166034 0.01586568 0.51866245 86 87 89
0.38255680 0.01586568 0.51866245 95 96 98
0.38404092 0.01589000 0.51945734 101 101 101
0.38434973 0.01586568 0.51866245 105 105 105
0.38377804 0.01580522 0.51668584 110 110 109
1.81258726 0.04937250 1.61402822 144 143 139
1.81106496 0.04925522 1.61019444 145 144 140
1.82686603 0.04960873 1.62175083 149 148 147
1.82966912 0.04960873 1.62175083 156 155 159
-0.01980937 0.01526699 0.47239849 200 198 205
-0.01897964 0.01525636 0.47206953 181 180 187
-0.01816371 0.01525636 0.47206953 172 173 177
-0.01734777 0.01525636 0.47206953 175 175 179
-0.01653184 0.01525636 0.47206953 183 182 184
-0.01572686 0.01526699 0.47239849 193 192 191
-0.01491036 0.01526699 0.47239849 201 200 198
-0.01409385 0.01526699 0.47239849 196 195 193
-0.01326810 0.01525636 0.47206953 191 187 187
-0.01246085 0.01526699 0.47239849 188 182 183
-0.01165246 0.01527764 0.47272792 194 188 189
-0.01084295 0.01528830 0.47305781 202 196 198
0.24123181 0.01806111 0.55885559 34 44 84
0.24080808 0.01795748 0.55564904 35 44 81
0.24139252 0.01704913 0.52754229 9 8 24
0.23969290 0.01686538 0.52185667 8 7 21
0.23839264 0.01671101 0.51707995 9 8 19
0.23675807 0.01653444 0.51161647 9 8 18
0.23515767 0.01636156 0.50626725 9 8 17
0.23393619 0.01621623 0.50177044 9 8 17
0.23497739 0.01622824 0.50214213 9 9 14
0.23584530 0.01622824 0.50214213 9 9 13
0.37804779 0.01720984 0.53251517 41 40 49
0.38168761 0.01729134 0.53503698 43 42 51
0.38382414 0.01734610 0.53673148 43 42 51
0.38414353 0.01731868 0.53588289 43 42 51
0.38264984 0.01720984 0.53251517 43 42 51
0.38326916 0.01719633 0.53209722 44 43 52
0.38149384 0.01707570 0.52836466 44 44 53
0.38033199 0.01698305 0.52549756 44 44 53
0.38513410 0.01711573 0.52960300 48 51 57
0.38454732 0.01704913 0.52754229 51 54 60
0.38248262 0.01691747 0.52346861 57 62 66
0.38044956 0.01678784 0.51945734 64 71 73
0.38076386 0.01676215 0.51866245 71 75 79
0.38107720 0.01673654 0.51787001 78 78 84
0.38226432 0.01674934 0.51826596 87 87 92
0.38345325 0.01676215 0.51866245 91 91 94
0.38405588 0.01674934 0.51826596 94 94 96
0.38377804 0.01669827 0.51668584 98 97 98
0.38291991 0.01662225 0.51433372 105 102 101
1.82250607 0.05228671 1.61788034 143 142 140
1.82966912 0.05241179 1.62175083 151 150 154
-0.40098011 0.02702554 0.79378438 210 210 208
-0.01980937 0.01608349 0.47239849 196 191 196
-0.01897964 0.01607229 0.47206953 174 173 177
-0.01816371 0.01607229 0.47206953 175 174 178
-0.01734777 0.01607229 0.47206953 185 184 187
-0.01653184 0.01607229 0.47206953 189 188 188
-0.01325887 0.01606111 0.47174102 196 188 181
-0.01246085 0.01608349 0.47239849 196 187 186
-0.01084295 0.01610594 0.47305781 214 207 207
-0.01002531 0.01610594 0.47305781 213 212 211
-0.00921410 0.01611719 0.47338817 190 189 187
-0.00839003 0.01610594 0.47305781 187 186 184
