ply
format ascii 1.0
element vertex 1098
property float x
property float y
property float z
property uchar red
property uchar green
property uchar blue
end_header
0.63043527 -0.50997406 0.87734481 92 93 86
0.62973437 -0.48975427 0.87804232 94 93 85
0.62993710 -0.46978984 0.87876498 94 91 86
0.63024344 -0.45026363 0.87919236 94 91 85
0.63053829 -0.42997031 0.87953367 92 90 85
0.63051475 -0.40950863 0.87964595 91 89 85
0.63051576 -0.38964837 0.87957258 91 89 84
0.63055577 -0.36990794 0.87962859 91 88 83
0.62849069 -0.35186046 0.87982188 91 87 83
0.63494808 -0.34515131 0.88008039 92 87 83
0.62167184 -0.33876234 0.87996684 88 84 79
0.62983381 -0.32951581 0.88031980 89 88 83
0.62988136 -0.30950844 0.88081188 86 85 81
0.63021083 -0.28986888 0.88127254 86 85 82
0.63041003 -0.27015272 0.88155097 86 83 79
0.63057245 -0.25040911 0.88177800 82 81 76
0.63023444 -0.23016565 0.88204096 80 79 77
0.62926532 -0.20963059 0.88230460 80 77 76
0.62967219 -0.18963365 0.88265291 80 76 75
0.63001343 -0.16989261 0.88313141 79 76 75
0.63044809 -0.15015248 0.88374066 78 75 74
0.62959194 -0.13040999 0.88451894 53 48 46
0.62992554 -0.11061474 0.88515299 52 46 43
0.63046359 -0.09003722 0.88590904 55 49 46
0.62953730 -0.06943245 0.88676109 54 49 48
0.63001536 -0.04957916 0.88810038 68 59 55
0.63009859 -0.02973313 0.89139199 115 107 98
0.62982926 -0.00968331 0.89345234 138 129 113
0.63041055 0.01035742 0.89452485 124 115 108
0.62967109 0.03060992 0.89517887 112 106 101
0.62963462 0.05061749 0.89562042 135 127 120
0.62985144 0.06999142 0.89592885 128 121 113
0.63001493 0.08937133 0.89616140 121 113 103
0.63015005 0.10953099 0.89635360 92 88 85
0.63025953 0.12969403 0.89650934 86 84 82
0.63035027 0.14985963 0.89663840 112 107 101
0.63042715 0.17002730 0.89674777 132 125 114
0.63049255 0.19019643 0.89684079 128 122 113
0.63054924 0.21036684 0.89692143 133 129 122
0.63059794 0.23053796 0.89699071 113 109 103
0.63063966 0.24993416 0.89705005 121 113 105
0.63067624 0.26933076 0.89710208 124 116 111
0.62999934 0.28944460 0.89715077 128 121 113
0.62996495 0.30967698 0.89719323 106 97 91
0.62999124 0.32985017 0.89723066 101 97 89
0.63001471 0.35002348 0.89726409 105 100 89
0.63003501 0.37019643 0.89729300 111 104 98
0.63005193 0.39036858 0.89731710 109 104 102
0.63006570 0.41053977 0.89733670 52 50 47
0.63007683 0.42993452 0.89735255 0 0 0
0.62936629 0.44938427 0.89736620 0 0 0
0.62932053 0.46949938 0.89737993 0 0 0
0.62932955 0.48967003 0.89739280 0 0 0
0.62933607 0.50518595 0.89740209 0 0 0
0.65029117 -0.58535671 0.87563059 94 95 87
0.64989313 -0.57010406 0.87682144 95 94 89
0.64997859 -0.54995800 0.87728668 97 94 87
0.65026198 -0.52977993 0.87749725 96 94 88
0.65048438 -0.51030964 0.87790710 94 94 87
0.64956357 -0.49007054 0.87866145 95 94 89
0.65017436 -0.47014546 0.87943018 95 94 89
0.64816766 -0.45161668 0.87973633 96 93 85
0.65694719 -0.44653830 0.88011533 96 96 82
0.64483869 -0.43153281 0.87987918 91 91 83
0.65430790 -0.42871826 0.88017942 93 92 85
0.64306912 -0.40846434 0.87994476 91 90 84
0.65215251 -0.41006750 0.88020591 91 89 82
0.64407957 -0.38924836 0.87991289 89 88 85
0.65377491 -0.38991988 0.88018588 90 89 82
0.64363383 -0.37061050 0.87992443 91 88 84
0.65363274 -0.36989877 0.88018373 90 89 83
0.64195036 -0.35762891 0.87996573 90 84 82
0.65004587 -0.35003918 0.88030564 91 87 81
0.64958673 -0.33001724 0.88069493 89 87 83
0.64991832 -0.30962546 0.88114457 89 86 84
0.65024319 -0.28997161 0.88158506 87 85 82
0.65047224 -0.27025828 0.88189562 85 82 80
0.65063676 -0.25050594 0.88211872 84 81 78
0.64949557 -0.22981458 0.88236051 79 79 77
0.64948166 -0.20945897 0.88262095 79 78 76
0.64968276 -0.18968562 0.88289425 79 76 75
0.65000715 -0.16993178 0.88333518 79 77 75
0.65045616 -0.15018738 0.88394556 79 74 73
0.64955317 -0.13042750 0.88463678 53 48 46
0.64988292 -0.11062633 0.88524619 52 46 43
0.65045400 -0.09004884 0.88602404 55 49 46
0.64954617 -0.06944151 0.88687542 54 48 47
0.65001498 -0.04960501 0.88824000 71 62 56
0.65013851 -0.02969995 0.89149183 117 108 98
0.64981494 -0.00967463 0.89349316 140 131 114
0.65040944 0.01025570 0.89453934 129 120 111
0.64949980 0.03053417 0.89518737 110 104 99
0.64976268 0.05061779 0.89562589 137 129 120
0.64998411 0.06999159 0.89593111 136 129 119
0.65015150 0.08937137 0.89616184 126 117 107
0.65029037 0.10953095 0.89635326 92 86 83
0.65040291 0.12969389 0.89650838 91 85 82
0.65049642 0.14985944 0.89663728 113 106 100
0.65057597 0.17002714 0.89674693 128 121 109
0.65064356 0.19019628 0.89684009 141 133 124
0.65029965 0.21016556 0.89692006 129 124 114
0.64997760 0.23053794 0.89699065 123 119 111
0.65002083 0.24993423 0.89705031 134 128 121
0.65005840 0.26933078 0.89710215 103 97 94
0.64937360 0.28955920 0.89715067 117 111 105
0.64934883 0.30967689 0.89719296 102 93 85
0.64937648 0.32985035 0.89723115 120 116 109
0.64940096 0.35002383 0.89726498 126 126 118
0.64942190 0.37019680 0.89729391 109 106 98
0.64943967 0.39036918 0.89731847 114 108 98
0.64945445 0.41054077 0.89733889 59 53 50
0.64946623 0.42993577 0.89735515 0 0 0
0.64947601 0.44933011 0.89736866 0 0 0
0.64948590 0.46950064 0.89738233 0 0 0
0.64949511 0.48967127 0.89739506 0 0 0
0.64950172 0.50518714 0.89740419 0 0 0
0.67044039 -0.58611946 0.87690344 95 95 89
0.67010408 -0.57004494 0.87778054 97 96 87
0.67046098 -0.54989178 0.87812751 97 95 87
0.66987008 -0.53030194 0.87826603 96 94 89
0.66986665 -0.50979388 0.87864526 97 94 89
0.66973221 -0.49002653 0.87936866 96 96 89
0.67904509 -0.48164657 0.88007583 96 97 88
0.66478836 -0.47345630 0.87983501 96 97 87
0.67350407 -0.46865851 0.88026107 96 96 88
0.66980221 -0.44990580 0.88045035 96 94 86
0.66988389 -0.42953662 0.88060797 93 93 84
0.66935053 -0.40991889 0.88066191 92 89 85
0.66968504 -0.39029328 0.88058303 91 88 85
0.67003576 -0.37030094 0.88056251 90 89 83
0.66967123 -0.35016667 0.88071126 90 88 83
0.66951806 -0.32989260 0.88110879 88 86 83
0.67004733 -0.30977795 0.88157866 87 86 83
0.67037379 -0.29011088 0.88200829 89 85 82
0.67058929 -0.27037979 0.88229184 87 84 81
0.67030819 -0.25064613 0.88247973 82 81 79
0.66928265 -0.22996498 0.88270300 82 80 77
0.66955501 -0.20953456 0.88293943 79 79 76
0.66977155 -0.18975669 0.88322498 79 77 75
0.67008092 -0.16998919 0.88363290 80 77 73
0.67050053 -0.15022837 0.88418625 79 74 71
0.66949485 -0.13039780 0.88480488 53 47 46
0.66987846 -0.11064366 0.88538416 52 46 44
0.67042249 -0.09005698 0.88610341 54 49 46
0.66954578 -0.06944899 0.88697093 53 48 46
0.67001240 -0.04959397 0.88837210 73 65 59
0.67012253 -0.02979467 0.89157535 117 108 99
0.66986555 -0.00973024 0.89353242 137 128 114
0.67022886 0.01027399 0.89456391 129 121 112
0.66956766 0.03047931 0.89519905 114 107 102
0.66989209 0.05061818 0.89563281 138 131 121
0.67011875 0.06999195 0.89593586 138 129 116
0.67028946 0.08937159 0.89616410 113 106 99
0.67043139 0.10953102 0.89635386 96 89 86
0.67054694 0.12969388 0.89650835 86 83 80
0.67064270 0.14985929 0.89663639 110 105 98
0.67007686 0.16991897 0.89674550 138 132 123
0.67001934 0.19019609 0.89683920 137 128 116
0.66964767 0.21056645 0.89692095 126 122 113
0.66935739 0.23053798 0.89699078 129 125 119
0.66940163 0.24993416 0.89705007 125 121 114
0.66944054 0.26933080 0.89710221 117 115 110
0.66947623 0.28950362 0.89715003 103 98 94
0.66950898 0.30967722 0.89719392 120 117 109
0.66953751 0.32985072 0.89723215 127 122 113
0.66956237 0.35002402 0.89726547 115 113 105
0.66958417 0.37019712 0.89729468 111 107 100
0.66960281 0.39036969 0.89731965 91 86 80
0.66961845 0.41054156 0.89734062 60 56 51
0.66963136 0.42993709 0.89735791 0 0 0
0.66964132 0.44933140 0.89737125 0 0 0
0.66965146 0.46950195 0.89738484 0 0 0
0.66966087 0.48967257 0.89739746 0 0 0
0.66966758 0.50518841 0.89740645 0 0 0
0.68975333 -0.58659058 0.87853532 97 97 89
0.69022052 -0.57027311 0.87913084 99 96 90
0.69046257 -0.55025093 0.87922871 98 97 87
0.68947208 -0.52977089 0.87929911 98 96 89
0.68881451 -0.51040108 0.87956078 99 96 91
0.69798999 -0.50485452 0.88010610 97 95 88
0.68458581 -0.49470037 0.87978740 98 98 91
0.69256933 -0.48848884 0.88035485 99 98 89
0.68986562 -0.46994429 0.88081038 98 96 88
0.68951163 -0.44973744 0.88113831 98 95 88
0.68961118 -0.43000112 0.88126545 94 92 86
0.68960630 -0.41019703 0.88125936 92 91 85
0.68952313 -0.39034859 0.88115310 91 90 85
0.68946493 -0.37051805 0.88107875 90 88 84
0.68959196 -0.35002316 0.88124114 88 87 81
0.68989659 -0.32960597 0.88163056 88 86 82
0.69028078 -0.30996868 0.88212152 89 86 81
0.69041725 -0.29041296 0.88250742 88 86 82
0.69002653 -0.27052688 0.88277184 86 84 81
0.68960005 -0.24980449 0.88293900 84 81 78
0.68952592 -0.22941768 0.88310769 81 80 76
0.68963945 -0.20960922 0.88325327 80 79 74
0.68983314 -0.18981609 0.88350150 79 78 75
0.69014646 -0.17004120 0.88390290 78 76 75
0.69035880 -0.15044151 0.88445961 76 74 71
0.68951191 -0.13048856 0.88504935 53 47 46
0.68992703 -0.11066852 0.88558233 52 46 44
0.69043030 -0.09006985 0.88622859 55 48 46
0.68961426 -0.06951064 0.88706825 54 47 44
0.69008151 -0.04960163 0.88851100 74 68 61
0.69004816 -0.02974305 0.89167346 122 111 103
0.68997867 -0.00973080 0.89357895 129 120 109
0.68998890 0.01035815 0.89459371 130 122 110
0.68969399 0.03047981 0.89521423 113 105 101
0.69002374 0.05061870 0.89564226 136 130 120
0.69025414 0.06999238 0.89594133 138 130 115
0.69042832 0.08937192 0.89616740 118 110 105
0.69057318 0.10953121 0.89635545 94 90 86
0.69040680 0.12950478 0.89650742 94 90 86
0.69001453 0.14985925 0.89663611 117 110 103
0.68943594 0.17012917 0.89674658 139 132 117
0.68939573 0.19019608 0.89683916 127 118 106
0.68945784 0.21036650 0.89691996 132 128 116
0.68951190 0.23053785 0.89699029 123 116 109
0.68955743 0.24993401 0.89704951 108 103 97
0.68959770 0.26933071 0.89710190 105 102 98
0.68963519 0.28950383 0.89715068 122 121 111
0.68966892 0.30967744 0.89719456 130 125 117
0.68969807 0.32985083 0.89723247 100 96 90
0.68972366 0.35002414 0.89726576 92 86 81
0.68974636 0.37019738 0.89729529 91 86 80
0.68976604 0.39037023 0.89732089 92 88 83
0.68978246 0.41054231 0.89734226 78 74 69
0.68979635 0.42993824 0.89736032 0 0 0
0.68980662 0.44933262 0.89737369 0 0 0
0.68981708 0.46950323 0.89738729 0 0 0
0.68982673 0.48967388 0.89739985 0 0 0
0.68983356 0.50518969 0.89740873 0 0 0
0.70739333 -0.58742576 0.87965949 97 98 90
0.71740867 -0.58641237 0.88010559 99 98 89
0.70348175 -0.57193117 0.87982694 101 97 89
0.71294999 -0.56897374 0.88027374 101 98 91
0.70249639 -0.55003468 0.87988050 101 98 89
0.71270274 -0.54957317 0.88035730 100 98 89
0.70148763 -0.53261409 0.87992398 94 95 90
0.71140784 -0.52965760 0.88045765 98 98 91
0.71039137 -0.51033864 0.88058993 99 97 91
0.71012295 -0.49015803 0.88098639 99 98 89
0.70960514 -0.46973096 0.88150452 101 97 87
0.70983698 -0.45007143 0.88179258 97 95 90
0.70993278 -0.43031647 0.88191165 95 94 88
0.70990945 -0.41048724 0.88188263 93 91 86
0.70992348 -0.39042022 0.88173497 93 90 86
0.70964342 -0.36985567 0.88171078 89 89 84
0.70992602 -0.34952408 0.88190325 89 88 83
0.71018998 -0.32983069 0.88223130 89 88 82
0.71052704 -0.31015460 0.88265025 88 85 83
0.70991055 -0.29034687 0.88298656 86 86 81
0.70964290 -0.27018548 0.88323405 86 85 80
0.70946021 -0.24966137 0.88343980 84 82 79
0.70973987 -0.22953775 0.88356953 81 80 77
0.70981447 -0.20970647 0.88366244 80 79 74
0.70997512 -0.18989366 0.88386256 79 77 75
0.71029261 -0.17010947 0.88425777 79 76 74
0.70999749 -0.15033968 0.88484255 77 74 69
0.70967145 -0.13053897 0.88538975 52 48 45
0.71004240 -0.10993677 0.88585280 52 45 45
0.71044398 -0.08937857 0.88642217 54 48 47
0.70962948 -0.06941076 0.88718269 53 47 45
0.71008177 -0.04961726 0.88862912 77 69 63
0.70997891 -0.02978275 0.89176099 126 116 102
0.71009202 -0.00973134 0.89362315 129 121 109
0.70980938 0.01040470 0.89461935 135 129 117
0.70981899 0.03048023 0.89522688 116 109 102
0.71015414 0.05061911 0.89564959 139 130 119
0.71038827 0.06999265 0.89594489 128 122 111
0.71056731 0.08937224 0.89617070 112 105 100
0.71025222 0.10933880 0.89635587 96 92 87
0.70974923 0.12988670 0.89651059 94 89 84
0.70938671 0.14985928 0.89663629 101 94 88
0.70947352 0.17002697 0.89674601 137 132 122
0.70954716 0.19019607 0.89683910 135 129 116
0.70961085 0.21036641 0.89691960 124 118 105
0.70966648 0.23053775 0.89698991 106 99 94
0.70971383 0.24993408 0.89704976 125 122 116
0.70975538 0.26933082 0.89710227 111 109 103
0.70979420 0.28950404 0.89715133 131 128 119
0.70982836 0.30967743 0.89719452 114 110 101
0.70985851 0.32985090 0.89723263 98 95 90
0.70988513 0.35002434 0.89726627 92 87 83
0.70990887 0.37019778 0.89729627 94 92 85
0.70992937 0.39037080 0.89732219 102 100 96
0.70994654 0.41054306 0.89734389 106 106 101
0.70996097 0.42993911 0.89736212 1 1 1
0.70997196 0.44933379 0.89737602 0 0 0
0.70998276 0.46950448 0.89738967 0 0 0
0.70999274 0.48967521 0.89740229 0 0 0
0.70999977 0.50519107 0.89741117 0 0 0
0.73022443 -0.58723924 0.88064609 102 101 87
0.73041512 -0.56988347 0.88087660 100 100 90
0.73055785 -0.55019811 0.88104893 101 100 92
0.73010115 -0.53043155 0.88122615 102 101 91
0.72996783 -0.50990798 0.88136692 104 100 93
0.72965966 -0.48953027 0.88167158 103 99 91
0.72987962 -0.47003243 0.88206999 102 98 89
0.73010324 -0.45035105 0.88234037 97 97 88
0.73031371 -0.43046699 0.88247611 95 94 85
0.73024682 -0.41005490 0.88247215 94 93 85
0.72998015 -0.38954080 0.88235211 92 92 84
0.73012614 -0.36953491 0.88236774 91 89 83
0.73023761 -0.34976180 0.88250244 90 89 83
0.73042685 -0.33001772 0.88273130 90 87 84
0.73025416 -0.31049285 0.88307281 87 85 83
0.72950311 -0.29051232 0.88339459 87 86 81
0.72969371 -0.27004492 0.88369144 87 84 81
0.72986458 -0.24948376 0.88389836 83 82 79
0.72995898 -0.22965289 0.88401267 82 80 77
0.73001622 -0.20980613 0.88408205 80 78 75
0.73013665 -0.18997223 0.88422798 79 77 76
0.73046568 -0.17018038 0.88462643 79 76 72
0.72969505 -0.15028989 0.88520026 76 73 69
0.72980399 -0.13058196 0.88567930 51 47 45
0.73008378 -0.10995755 0.88601911 51 46 45
0.73043133 -0.08934014 0.88658392 53 49 46
0.72959968 -0.06947429 0.88729281 54 47 45
0.73004937 -0.04961211 0.88870269 78 69 63
0.72990053 -0.02972135 0.89184642 129 121 106
0.73019992 -0.00973177 0.89365831 125 118 108
0.72968787 0.01044195 0.89464091 140 132 119
0.72994374 0.03048060 0.89523854 110 106 97
0.73028321 0.05061940 0.89565489 132 126 117
0.73052206 0.06999288 0.89594784 118 115 104
0.73030234 0.08917148 0.89617092 116 110 103
0.72959310 0.10972083 0.89636108 92 88 86
0.72943120 0.12969417 0.89651039 88 80 77
0.72953404 0.14985936 0.89663679 106 98 94
0.72962274 0.17002693 0.89674581 141 131 121
0.72969844 0.19019602 0.89683885 130 123 114
0.72976412 0.21036640 0.89691957 122 118 103
0.72982188 0.23053792 0.89699056 131 128 119
0.72987039 0.24993420 0.89705019 130 126 117
0.72991309 0.26933094 0.89710267 99 96 89
0.72995258 0.28950399 0.89715120 101 93 88
0.72998796 0.30967749 0.89719468 103 100 94
0.73001896 0.32985095 0.89723278 101 99 95
0.73004696 0.35002470 0.89726720 103 99 94
0.73007155 0.37019826 0.89729742 93 91 86
0.73009270 0.39037133 0.89732341 77 75 71
0.73011064 0.41054378 0.89734546 115 113 108
0.73012559 0.42993993 0.89736384 15 14 13
0.73013732 0.44933491 0.89737825 0 0 0
0.73014856 0.46950573 0.89739206 0 0 0
0.73015896 0.48967661 0.89740485 0 0 0
0.73016628 0.50519257 0.89741384 0 0 0
0.75054478 -0.58765981 0.88135609 103 102 88
0.75061134 -0.57019094 0.88135128 102 103 91
0.75067427 -0.55043327 0.88142533 101 101 93
0.74967405 -0.53010247 0.88158106 103 101 93
0.74944428 -0.50949897 0.88177070 105 103 92
0.74972347 -0.48986816 0.88209911 104 101 94
0.74997134 -0.47020355 0.88239092 100 100 89
0.75018624 -0.45050588 0.88264369 98 96 89
0.75029838 -0.42997510 0.88277560 96 95 88
0.75033336 -0.40939579 0.88281667 92 92 86
0.75032188 -0.38955343 0.88280291 92 91 84
0.75037719 -0.36974424 0.88286780 92 91 83
0.75048813 -0.34995836 0.88299830 90 89 83
0.75056628 -0.33023071 0.88315457 88 89 83
0.74957803 -0.31023068 0.88339584 88 87 82
0.74962477 -0.29000416 0.88367038 88 87 82
0.74965897 -0.26948111 0.88393670 86 85 80
0.74990556 -0.24954402 0.88411164 82 82 80
0.74999352 -0.22970554 0.88421543 81 80 77
0.75006629 -0.20985810 0.88430114 79 79 74
0.75020728 -0.19002360 0.88446720 79 78 76
0.75052715 -0.17022240 0.88484442 79 76 73
0.74958786 -0.15043485 0.88540239 74 71 68
0.74981907 -0.13060209 0.88581464 52 48 46
0.75005412 -0.10996666 0.88609242 51 47 45
0.75046894 -0.08929342 0.88665718 54 49 46
0.74956667 -0.06947727 0.88732862 53 46 45
0.75003820 -0.04961321 0.88872684 81 74 67
0.74986323 -0.02975057 0.89189128 133 123 109
0.75023842 -0.00978716 0.89367463 120 114 103
0.74962158 0.01041393 0.89465027 138 134 120
0.75006423 0.03048080 0.89524449 115 109 100
0.75040956 0.05061950 0.89565667 134 126 117
0.75047061 0.06985617 0.89594701 122 116 108
0.74963741 0.08957229 0.89617555 122 112 106
0.74945000 0.10953183 0.89636054 91 88 82
0.74957599 0.12969429 0.89651123 86 82 78
0.74968127 0.14985942 0.89663714 96 91 87
0.74977222 0.17002695 0.89674593 126 117 109
0.74985012 0.19019607 0.89683909 139 134 119
0.74991785 0.21036653 0.89692010 130 125 117
0.74997749 0.23053814 0.89699143 122 116 110
0.75002679 0.24993425 0.89705039 105 102 97
0.75007084 0.26933107 0.89710308 112 110 101
0.75011185 0.28950429 0.89715212 116 114 105
0.75014840 0.30967789 0.89719584 127 123 115
0.75018036 0.32985142 0.89723406 113 110 104
0.75020884 0.35002506 0.89726813 118 114 106
0.75023416 0.37019867 0.89729841 95 91 82
0.75025604 0.39037184 0.89732458 75 72 69
0.75027484 0.41054451 0.89734706 86 83 77
0.75029040 0.42994082 0.89736568 22 21 20
0.75030283 0.44933606 0.89738054 0 0 0
0.75031450 0.46950700 0.89739450 0 0 0
0.75032538 0.48967806 0.89740751 0 0 0
0.75033312 0.50519422 0.89741677 0 0 0
0.77050628 -0.58789582 0.88163071 104 103 92
0.76997455 -0.57042855 0.88171907 104 104 92
0.77019824 -0.55026066 0.88178147 105 103 94
0.76941177 -0.52952304 0.88179351 107 103 93
0.76945448 -0.50962930 0.88199660 107 103 95
0.76973454 -0.48998964 0.88231772 103 102 94
0.76999668 -0.47032461 0.88261808 102 101 91
0.77042513 -0.45015962 0.88291155 101 99 88
0.77018258 -0.42964388 0.88303224 98 96 88
0.77044202 -0.40954024 0.88312842 93 93 86
0.77051728 -0.38973486 0.88321447 92 92 85
0.77011922 -0.37011721 0.88334874 91 91 82
0.77002944 -0.35016940 0.88353036 91 88 83
0.77003691 -0.33028883 0.88361163 88 87 82
0.76942465 -0.31052859 0.88371299 89 87 82
0.76953777 -0.28995087 0.88384326 87 84 79
0.76972641 -0.26939363 0.88406004 84 83 79
0.76985459 -0.24957105 0.88420722 82 82 78
0.76992251 -0.22972373 0.88428531 81 80 78
0.77003275 -0.20988423 0.88441184 80 79 75
0.77021727 -0.19005722 0.88462368 79 79 74
0.77053270 -0.17024960 0.88498605 79 77 74
0.76955913 -0.15040757 0.88556320 75 70 69
0.76983054 -0.13062036 0.88593840 53 48 46
0.77002919 -0.10997607 0.88616708 52 46 44
0.77045607 -0.08934773 0.88665856 55 48 46
0.76956042 -0.06953078 0.88732019 52 47 45
0.77001220 -0.04961334 0.88873225 86 77 69
0.76986817 -0.02976983 0.89191740 131 118 106
0.77020933 -0.00977810 0.89368639 122 117 104
0.76967302 0.01035878 0.89465531 143 137 125
0.77018414 0.03048096 0.89524943 120 114 105
0.77053618 0.05061960 0.89565865 130 123 115
0.76987722 0.07007683 0.89595085 126 119 110
0.76943092 0.08937261 0.89617440 121 113 104
0.76959182 0.10953198 0.89636181 92 85 82
0.76972103 0.12969445 0.89651231 85 82 80
0.76982877 0.14985953 0.89663780 106 102 98
0.76992198 0.17002703 0.89674636 135 130 121
0.77000253 0.19019630 0.89684017 142 135 124
0.77007227 0.21036684 0.89692140 120 115 109
0.77013329 0.23053841 0.89699247 111 106 100
0.77018407 0.24993460 0.89705162 121 116 110
0.77022964 0.26933155 0.89710470 120 117 109
0.77027200 0.28950491 0.89715403 123 120 111
0.77030865 0.30967819 0.89719673 119 116 108
0.77034155 0.32985178 0.89723505 118 114 108
0.77037063 0.35002536 0.89726891 114 109 101
0.77039679 0.37019906 0.89729938 79 74 73
0.77041938 0.39037232 0.89732569 86 81 74
0.77043896 0.41054517 0.89734849 67 65 62
0.77045511 0.42994159 0.89736730 34 33 31
0.77046833 0.44933714 0.89738270 0 0 0
0.77048046 0.46950822 0.89739683 0 0 0
0.77049190 0.48967950 0.89741015 0 0 0
0.77050009 0.50519586 0.89741969 0 0 0
0.79013739 -0.58810282 0.88206139 105 105 92
0.78954675 -0.57007392 0.88226378 106 106 92
0.78938513 -0.54962236 0.88227012 107 105 95
0.78955612 -0.52963725 0.88231230 106 105 96
0.78972896 -0.50992340 0.88250542 109 105 98
0.78998146 -0.49025066 0.88278776 107 102 95
0.79050081 -0.47019059 0.88316460 102 102 94
0.78965994 -0.44981580 0.88340229 100 98 89
0.78986773 -0.42957130 0.88351442 98 95 90
0.78995193 -0.40976290 0.88360864 94 94 85
0.79006201 -0.38996304 0.88373182 93 91 85
0.78967387 -0.37001125 0.88390377 90 90 84
0.78957223 -0.35037103 0.88403883 89 88 82
0.78959627 -0.33051709 0.88406573 88 88 82
0.78974114 -0.31054599 0.88411800 88 86 81
0.78952002 -0.28992017 0.88408533 84 83 81
0.78979878 -0.26946448 0.88429284 85 85 79
0.78995656 -0.24964506 0.88446943 84 83 80
0.78998947 -0.22978123 0.88450631 81 80 79
0.79012987 -0.20994375 0.88466347 79 78 76
0.79036735 -0.19012289 0.88492923 80 79 73
0.79031232 -0.17049689 0.88524607 78 77 72
0.78960521 -0.15050067 0.88579014 74 69 66
0.78997794 -0.13066009 0.88620831 53 47 46
0.79018407 -0.11001003 0.88643952 52 47 45
0.79050056 -0.08936179 0.88679483 55 49 46
0.78958596 -0.06947952 0.88735734 51 47 45
0.79010081 -0.04962080 0.88886617 91 84 73
0.78989952 -0.02975355 0.89197511 130 121 107
0.79013130 -0.00979710 0.89370692 124 117 109
0.78979076 0.01035898 0.89467264 143 138 123
0.79031065 0.03048137 0.89526159 123 119 108
0.79038157 0.05043103 0.89566278 127 122 112
0.78943632 0.07004858 0.89595750 107 100 95
0.78957372 0.08937332 0.89618149 125 116 104
0.78973686 0.10953257 0.89636666 90 86 84
0.78986763 0.12969485 0.89651510 82 79 77
0.78997596 0.14985957 0.89663807 106 99 95
0.79007239 0.17002725 0.89674750 127 121 107
0.79015553 0.19019666 0.89684187 125 118 109
0.79022756 0.21036736 0.89692362 120 117 111
0.79028981 0.23053888 0.89699428 125 121 116
0.79034232 0.24993523 0.89705388 129 126 119
0.79038787 0.26933181 0.89710558 105 103 99
0.79043115 0.28950513 0.89715471 120 114 106
0.79046881 0.30967844 0.89719745 90 86 82
0.79050231 0.32985194 0.89723548 94 89 84
0.79053249 0.35002569 0.89726973 99 97 89
0.79055944 0.37019945 0.89730032 79 76 73
0.79058275 0.39037279 0.89732677 76 73 70
0.79060302 0.41054576 0.89734979 77 76 73
0.79061963 0.42994223 0.89736864 48 47 45
0.79063378 0.44933814 0.89738469 0 0 0
0.79064646 0.46950940 0.89739908 0 0 0
0.79065840 0.48968086 0.89741263 0 0 0
0.79066690 0.50519733 0.89742229 0 0 0
0.80964021 -0.58832984 0.88342558 105 105 98
0.80967786 -0.57003229 0.88346717 107 105 95
0.80992066 -0.55006912 0.88333139 107 106 96
0.80982655 -0.53014084 0.88348808 107 108 94
0.81002608 -0.51009440 0.88379962 108 106 98
0.81005847 -0.48985802 0.88401183 107 104 92
0.81026885 -0.46969213 0.88417084 103 102 94
0.80970514 -0.44975438 0.88427179 100 99 91
0.80962703 -0.42992731 0.88424664 98 96 90
0.80964794 -0.41006995 0.88426985 93 93 87
0.80966112 -0.39020706 0.88428448 92 92 84
0.80968914 -0.37035054 0.88431530 89 89 83
0.80980664 -0.35053108 0.88444341 88 88 82
0.81007457 -0.33038829 0.88454381 89 87 80
0.80975132 -0.30978507 0.88457139 86 85 81
0.80991701 -0.28942291 0.88456345 88 84 80
0.81012120 -0.26961501 0.88478650 84 83 79
0.81024321 -0.24977241 0.88492009 81 82 80
0.81023542 -0.22988656 0.88491192 81 81 79
0.81040169 -0.21004573 0.88509330 80 79 76
0.81025052 -0.19039938 0.88529751 79 78 75
0.80970304 -0.17016339 0.88556899 79 77 74
0.80978292 -0.15055212 0.88609050 72 69 66
0.81005945 -0.13068732 0.88639351 52 47 46
0.81033810 -0.11004203 0.88669820 55 47 47
0.81056749 -0.08943840 0.88700927 56 49 47
0.80953809 -0.06943147 0.88744177 53 47 46
0.81016360 -0.04962650 0.88896582 95 87 75
0.80991539 -0.02976390 0.89201086 129 122 105
0.81006342 -0.00975113 0.89374323 125 119 103
0.80992105 0.01035931 0.89470300 145 137 124
0.81044594 0.03048207 0.89528285 120 115 103
0.80990981 0.05066809 0.89568134 120 114 106
0.80951916 0.06999459 0.89596980 121 113 104
0.80972094 0.08937447 0.89619313 133 128 116
0.80988533 0.10953359 0.89637508 96 92 87
0.81001479 0.12969532 0.89651838 82 80 77
0.81012261 0.14985951 0.89663771 93 89 84
0.81022359 0.17002763 0.89674948 124 117 106
0.81030893 0.19019710 0.89684393 130 126 115
0.81038283 0.21036785 0.89692572 127 126 117
0.81044692 0.23053948 0.89699665 118 115 108
0.81050007 0.24993567 0.89705548 114 107 97
0.81054640 0.26933217 0.89710676 100 98 91
0.81059022 0.28950531 0.89715526 98 93 85
0.81062927 0.30967880 0.89719848 110 106 100
0.81066369 0.32985235 0.89723658 106 104 99
0.81029208 0.34982487 0.89727030 115 113 106
0.80994689 0.37019994 0.89730150 113 112 101
0.80997091 0.39037338 0.89732811 102 99 92
0.80999153 0.41054629 0.89735096 91 86 83
0.81000848 0.42994276 0.89736973 64 61 59
0.81002345 0.44933895 0.89738631 0 0 0
0.81003675 0.46951043 0.89740105 0 0 0
0.81004910 0.48968200 0.89741472 0 0 0
0.81005783 0.50519851 0.89742440 0 0 0
0.82949588 -0.58891451 0.88558519 108 105 94
0.82940157 -0.57008897 0.88493871 110 110 99
0.82987742 -0.54979407 0.88442104 111 110 100
0.82900551 -0.52988223 0.88471548 109 107 95
0.82975371 -0.50992709 0.88527878 107 105 98
0.82981536 -0.49004466 0.88540156 106 104 98
0.82990386 -0.47020026 0.88549579 103 102 93
0.82978696 -0.45033904 0.88542991 100 98 93
0.82975296 -0.43036118 0.88527886 96 96 89
0.82962656 -0.41037430 0.88520120 94 93 89
0.82958104 -0.39037479 0.88510600 93 91 86
0.82961973 -0.37016770 0.88511222 89 89 83
0.82956509 -0.34974350 0.88531691 88 86 83
0.82982028 -0.32948858 0.88540803 87 85 81
0.82987063 -0.30961298 0.88546183 85 85 82
0.82986146 -0.28971375 0.88545216 86 84 82
0.82990457 -0.26983241 0.88549879 84 83 81
0.82996789 -0.24995463 0.88556596 84 83 81
0.83001199 -0.23006853 0.88561254 84 83 80
0.83021434 -0.21022010 0.88582869 81 81 80
0.83001524 -0.19015691 0.88600945 81 81 78
0.82981077 -0.17048607 0.88621500 80 79 77
0.83011872 -0.15063016 0.88654464 74 70 68
0.82941729 -0.13056897 0.88651131 56 51 50
0.82955827 -0.10994223 0.88686440 55 48 48
0.82980702 -0.08933462 0.88709979 56 51 50
0.82941364 -0.06948552 0.88743146 55 48 47
0.82999845 -0.04961616 0.88894380 101 91 81
0.82988120 -0.02974290 0.89192965 129 122 109
0.83006757 -0.00973248 0.89372517 125 120 106
0.83002730 0.01035938 0.89470608 141 133 119
0.83040039 0.03034243 0.89528909 116 113 101
0.82955886 0.05076118 0.89568893 118 112 104
0.82965805 0.06999519 0.89597730 114 108 100
0.82986605 0.08937535 0.89620193 129 126 117
0.83003335 0.10953450 0.89638259 99 96 91
0.83016393 0.12969607 0.89652361 90 88 84
0.83027370 0.14986025 0.89664214 91 90 83
0.83037795 0.17002862 0.89675472 125 115 103
0.83046285 0.19019763 0.89684644 112 102 91
0.83053747 0.21036816 0.89692704 110 106 101
0.83060325 0.23053985 0.89699807 112 107 104
0.83065750 0.24993600 0.89705666 103 101 95
0.83018103 0.26915788 0.89710726 107 106 99
0.82997367 0.28950537 0.89715548 105 101 95
0.83001383 0.30967894 0.89719889 114 112 104
0.83004940 0.32985263 0.89723734 119 117 111
0.82964792 0.35022611 0.89727131 115 112 104
0.82933365 0.37020010 0.89730188 115 109 102
0.82935835 0.39037359 0.89732860 103 96 90
0.82937966 0.41054661 0.89735166 87 83 77
0.82939701 0.42994309 0.89737043 76 74 67
0.82941270 0.44933950 0.89738741 0 0 0
0.82942657 0.46951114 0.89740241 0 0 0
0.82943942 0.48968286 0.89741631 0 0 0
0.82944840 0.50519943 0.89742602 0 0 0
0.85422603 -0.60257912 0.89629505 53 50 57
0.85395620 -0.59015228 0.89590805 138 139 137
0.85376477 -0.56986614 0.89496768 145 146 141
0.85244604 -0.55017298 0.89322155 128 128 119
0.85011345 -0.53008983 0.89146432 117 113 103
0.84982535 -0.51012302 0.89127445 120 111 102
0.84958875 -0.49007057 0.89093980 119 112 104
0.84892005 -0.46997662 0.89020482 113 109 97
0.84816180 -0.44958250 0.88925005 109 105 99
0.84842829 -0.42984795 0.88896653 106 103 91
0.84856251 -0.40953823 0.88860888 103 97 90
0.84874512 -0.38984569 0.88846027 101 95 85
0.84872266 -0.36999840 0.88836716 96 90 83
0.84789366 -0.34989937 0.88822866 95 90 84
0.84813077 -0.33002027 0.88860603 92 88 83
0.84836660 -0.31007095 0.88874487 92 89 80
0.84812676 -0.29029596 0.88883666 92 87 83
0.84832379 -0.27007753 0.88955704 93 89 85
0.84940792 -0.25016388 0.89065716 95 91 86
0.84981675 -0.23007557 0.89113817 95 89 85
0.85063087 -0.20991910 0.89199125 94 91 85
0.85140273 -0.18982232 0.89278345 97 91 86
0.85153424 -0.16981999 0.89299297 95 92 85
0.85182292 -0.14993820 0.89338842 96 87 81
0.85122016 -0.13007833 0.89333333 89 80 74
0.85179877 -0.11041331 0.89355147 87 79 72
0.85148213 -0.09005542 0.89367982 89 82 76
0.85210287 -0.07002591 0.89433278 93 85 75
0.85167493 -0.04966034 0.89440351 100 89 79
0.85068054 -0.02962117 0.89479307 107 95 86
0.85055339 -0.00954407 0.89547481 103 92 81
0.85042856 0.01037162 0.89582980 107 92 81
0.85049305 0.03065547 0.89609871 100 85 79
0.85012182 0.05065709 0.89632405 110 102 94
0.85033210 0.07003949 0.89654661 112 103 96
0.85045615 0.08942267 0.89667816 118 110 108
0.85051836 0.10957848 0.89674421 117 110 105
0.85056198 0.12973453 0.89679056 117 112 108
0.85059124 0.14989008 0.89682165 120 116 112
0.85061508 0.17004596 0.89684690 129 121 118
0.85064370 0.19020404 0.89687715 106 96 95
0.85040835 0.21017935 0.89692811 114 113 108
0.84998344 0.23053994 0.89699842 126 125 120
0.85003873 0.24993603 0.89705678 117 113 108
0.84953755 0.26950170 0.89710804 113 107 101
0.84935635 0.28950518 0.89715487 91 89 86
0.84939699 0.30967856 0.89719779 88 84 79
0.84943363 0.32985232 0.89723649 118 113 103
0.84946556 0.35002588 0.89727023 91 87 78
0.84949467 0.37019973 0.89730098 100 93 87
0.84952026 0.39037333 0.89732800 96 92 87
0.84954220 0.41054639 0.89735117 86 80 74
0.84956019 0.42994297 0.89737018 79 74 70
0.84957693 0.44933973 0.89738786 0 0 0
0.84959137 0.46951151 0.89740311 0 0 0
0.84960477 0.48968338 0.89741726 0 0 0
0.84961400 0.50519999 0.89742702 0 0 0
0.87000903 -0.60270456 0.89686479 92 95 109
0.87001622 -0.58953316 0.89687228 166 171 171
0.87001149 -0.56937783 0.89686741 166 173 174
0.87001017 -0.54999997 0.89686605 165 174 172
0.87001122 -0.53062360 0.89686713 165 171 171
0.87000648 -0.51046869 0.89686217 162 166 164
0.86998121 -0.49030237 0.89683588 159 167 165
0.86994202 -0.47012961 0.89679511 157 162 160
0.87006347 -0.45010710 0.89674760 141 145 142
0.87065886 -0.42983804 0.89667811 55 48 49
0.87091968 -0.40997729 0.89660336 55 47 49
0.87120516 -0.38955330 0.89649783 51 48 48
0.87117086 -0.36936155 0.89652974 53 49 48
0.87036893 -0.35005242 0.89654199 62 52 50
0.87059185 -0.33057837 0.89666538 56 52 50
0.87058423 -0.31042786 0.89665745 59 52 52
0.87024480 -0.29007401 0.89669383 67 57 59
0.86989018 -0.27015835 0.89674148 125 122 122
0.86993353 -0.25002170 0.89678647 125 125 124
0.86995628 -0.22987745 0.89681008 127 125 126
0.86996380 -0.20972849 0.89681789 125 126 125
0.86996758 -0.18957833 0.89682184 128 125 124
0.86996195 -0.16942615 0.89681599 131 127 127
0.86993148 -0.15004499 0.89678427 131 130 130
0.86990283 -0.13071724 0.89669727 127 129 128
0.87026143 -0.11029189 0.89671089 58 53 53
0.86993308 -0.09036918 0.89678587 49 42 43
0.86998059 -0.07022286 0.89683530 40 35 36
0.87000579 -0.05007294 0.89686147 38 33 34
0.87001843 -0.02992142 0.89687458 36 31 33
0.87002271 -0.00976920 0.89687901 34 31 31
0.87002530 0.01038321 0.89688169 33 31 34
0.87002595 0.03053566 0.89688236 44 38 42
0.87002227 0.05068789 0.89687857 158 166 168
0.87001998 0.07006498 0.89687621 161 165 166
0.87001821 0.08944203 0.89687439 162 165 168
0.87001881 0.10959438 0.89687500 160 165 168
0.87002003 0.12974685 0.89687626 160 166 167
0.87002224 0.14989955 0.89687853 161 166 168
0.87002936 0.17005332 0.89688587 160 164 168
0.87004185 0.19020859 0.89689877 133 134 138
0.86975961 0.21056152 0.89693045 101 98 93
0.86936260 0.23053976 0.89699770 120 116 112
0.86941915 0.24993583 0.89705605 111 109 99
0.86946804 0.26933208 0.89710649 111 107 98
0.86951358 0.28950473 0.89715348 99 96 90
0.86955500 0.30967801 0.89719621 93 87 77
0.86959198 0.32985154 0.89723438 92 88 80
0.86962499 0.35002518 0.89726844 99 96 85
0.86965483 0.37019900 0.89729922 99 97 90
0.86968142 0.39037274 0.89732665 118 114 103
0.86970396 0.41054581 0.89734991 89 85 82
0.86972262 0.42994248 0.89736916 100 98 92
0.86974019 0.44933944 0.89738729 5 5 5
0.86975561 0.46951156 0.89740320 0 0 0
0.86976950 0.48968353 0.89741753 0 0 0
0.86977892 0.50520012 0.89742725 0 0 0
0.88944137 -0.60274216 0.89692073 161 171 171
0.88943539 -0.58956103 0.89691469 166 173 176
0.88943348 -0.56940662 0.89691275 165 174 176
0.88943346 -0.55002859 0.89691273 166 173 175
0.88943257 -0.53065005 0.89691184 165 173 176
0.88943199 -0.51049660 0.89691125 166 174 176
0.88943034 -0.49034260 0.89690959 164 173 175
0.88942702 -0.47018779 0.89690625 163 172 175
0.88942437 -0.45003344 0.89690357 114 119 123
0.88941993 -0.42987838 0.89689909 34 33 38
0.88941460 -0.40972310 0.89689372 36 35 40
0.88940938 -0.38956810 0.89688845 34 33 35
0.88940749 -0.36941471 0.89688653 30 30 33
0.88940677 -0.35003698 0.89688580 29 27 31
0.88940665 -0.33065950 0.89688569 28 27 33
0.88940803 -0.31050746 0.89688708 31 29 33
0.88940697 -0.29035456 0.89688601 57 55 63
0.88940883 -0.27020258 0.89688788 157 165 168
0.88941312 -0.25005122 0.89689222 159 166 169
0.88941639 -0.22989939 0.89689552 160 166 170
0.88941751 -0.20974691 0.89689665 158 166 169
0.88941731 -0.18959410 0.89689644 157 164 169
0.88941805 -0.16944147 0.89689719 158 166 168
0.88942130 -0.15006433 0.89690046 158 165 168
0.88942536 -0.13068718 0.89690457 155 162 163
0.88942745 -0.11053450 0.89690667 42 41 47
0.88942828 -0.09038158 0.89690751 32 31 33
0.88942971 -0.07022868 0.89690895 28 27 30
0.88943041 -0.05007567 0.89690966 28 26 30
0.88943223 -0.02992266 0.89691150 28 26 30
0.88943187 -0.00976956 0.89691115 28 26 28
0.88943053 0.01038352 0.89690980 29 28 30
0.88942687 0.03053646 0.89690611 33 32 36
0.88942199 0.05068917 0.89690120 154 161 164
0.88941968 0.07006676 0.89689887 158 166 172
0.88941796 0.08944430 0.89689714 160 166 172
0.88941776 0.10959706 0.89689693 160 167 171
0.88941987 0.12975015 0.89689906 160 166 170
0.88942305 0.14990352 0.89690227 159 165 169
0.88942783 0.17005733 0.89690709 159 165 170
0.88943489 0.19021186 0.89691422 151 154 159
0.88945391 0.21036960 0.89693341 69 66 67
0.88951644 0.23053944 0.89699648 112 111 105
0.88957445 0.24993553 0.89705499 109 109 102
0.88962404 0.26933163 0.89710499 98 93 92
0.88967042 0.28950417 0.89715176 107 104 100
0.88971270 0.30967738 0.89719440 84 83 76
0.88975006 0.32985069 0.89723207 85 84 78
0.88978391 0.35002431 0.89726621 105 101 96
0.88981509 0.37019835 0.89729765 108 107 100
0.88984206 0.39037196 0.89732484 104 102 97
0.88986537 0.41054510 0.89734836 93 90 86
0.88988496 0.42994198 0.89736810 103 101 94
0.88990327 0.44933908 0.89738657 15 15 14
0.88991963 0.46951149 0.89740306 0 0 0
0.88993384 0.48968345 0.89741739 0 0 0
0.88994332 0.50519995 0.89742696 0 0 0
0.90962306 -0.60276096 0.89694871 161 171 174
0.90961931 -0.58958096 0.89694501 163 172 175
0.90961809 -0.56942634 0.89694382 163 173 175
0.90961810 -0.55004766 0.89694383 165 172 176
0.90961769 -0.53066873 0.89694342 164 172 175
0.90961809 -0.51051513 0.89694382 164 172 177
0.90961721 -0.49036083 0.89694295 164 172 175
0.90961369 -0.47020520 0.89693947 162 172 174
0.90961235 -0.45005079 0.89693814 75 79 86
0.90960732 -0.42989472 0.89693319 33 33 37
0.90960222 -0.40973883 0.89692816 34 34 38
0.90959832 -0.38958367 0.89692431 32 31 34
0.90959823 -0.36943024 0.89692423 31 29 33
0.90959955 -0.35005248 0.89692552 29 28 33
0.90960047 -0.33067452 0.89692643 31 30 34
0.90960107 -0.31052130 0.89692702 34 32 35
0.90959915 -0.29036722 0.89692513 82 83 90
0.90960124 -0.27021443 0.89692718 161 167 172
0.90960251 -0.25006132 0.89692844 161 167 174
0.90960370 -0.22990813 0.89692962 161 168 173
0.90960512 -0.20975495 0.89693102 160 168 172
0.90960668 -0.18960172 0.89693255 161 167 172
0.90960916 -0.16944861 0.89693500 160 166 171
0.90961163 -0.15007052 0.89693744 159 165 170
0.90961292 -0.13069216 0.89693871 155 161 165
0.90961549 -0.11053876 0.89694125 37 37 41
0.90961570 -0.09038500 0.89694145 29 29 33
0.90961547 -0.07023121 0.89694123 27 27 30
0.90961439 -0.05007738 0.89694017 27 26 30
0.90961345 -0.02992359 0.89693925 27 25 30
0.90961148 -0.00976985 0.89693731 27 27 29
0.90960803 0.01038380 0.89693391 28 27 31
0.90960291 0.03053723 0.89692885 32 31 36
0.90959857 0.05069049 0.89692457 143 147 153
0.90959685 0.07006863 0.89692287 159 167 172
0.90959579 0.08944676 0.89692182 160 165 171
0.90959490 0.10959999 0.89692095 159 166 171
0.90959545 0.12975339 0.89692150 159 165 169
0.90959726 0.14990703 0.89692329 157 164 169
0.90960027 0.17006096 0.89692625 159 163 169
0.90960406 0.19021520 0.89693000 156 162 166
0.90961393 0.21037105 0.89693974 86 82 83
0.90966979 0.23053902 0.89699485 123 122 115
0.90972931 0.24993513 0.89705354 123 122 117
0.90978008 0.26933121 0.89710360 111 108 104
0.90982745 0.28950370 0.89715031 112 110 108
0.90987080 0.30967692 0.89719306 110 107 98
0.90990864 0.32985006 0.89723037 82 80 76
0.90994291 0.35002351 0.89726416 87 83 82
0.90997531 0.37019772 0.89729610 106 103 97
0.91000312 0.39037139 0.89732353 89 86 85
0.91002728 0.41054465 0.89734735 102 98 93
0.91004778 0.42994172 0.89736756 85 83 79
0.91006681 0.44933897 0.89738633 22 22 21
0.91008389 0.46951154 0.89740317 0 0 0
0.91009810 0.48968334 0.89741718 0 0 0
0.91010763 0.50519974 0.89742659 0 0 0
0.92980271 -0.60277764 0.89697353 162 171 173
0.92980009 -0.58959803 0.89697099 162 171 174
0.92979924 -0.56944307 0.89697017 163 172 174
0.92979856 -0.55006341 0.89696951 164 173 175
0.92979801 -0.53068386 0.89696898 165 173 176
0.92979830 -0.51052962 0.89696926 165 173 176
0.92979821 -0.49037517 0.89696917 163 172 175
0.92979682 -0.47022006 0.89696783 160 168 171
0.92979453 -0.45006459 0.89696562 42 43 52
0.92978979 -0.42990807 0.89696104 32 31 36
0.92978552 -0.40975197 0.89695692 32 31 35
0.92978217 -0.38959644 0.89695370 31 30 33
0.92978088 -0.36944187 0.89695245 29 26 31
0.92978137 -0.35006318 0.89695292 29 28 32
0.92978272 -0.33068478 0.89695423 31 30 34
0.92978306 -0.31053083 0.89695456 34 33 36
0.92978330 -0.29037682 0.89695479 102 105 112
0.92978537 -0.27022334 0.89695678 161 167 173
0.92978548 -0.25006925 0.89695689 161 168 174
0.92978608 -0.22991527 0.89695747 162 169 173
0.92978711 -0.20976137 0.89695846 162 169 174
0.92978906 -0.18960760 0.89696035 162 167 172
0.92979147 -0.16945384 0.89696268 161 168 173
0.92979355 -0.15007508 0.89696468 158 166 169
0.92979404 -0.13069601 0.89696515 152 158 163
0.92979514 -0.11054183 0.89696621 32 31 36
0.92979439 -0.09038743 0.89696549 28 28 32
0.92979284 -0.07023299 0.89696400 27 26 30
0.92979081 -0.05007860 0.89696204 27 25 29
0.92978903 -0.02992430 0.89696032 26 25 30
0.92978678 -0.00977007 0.89695816 27 25 29
0.92978359 0.01038404 0.89695508 27 27 31
0.92977985 0.03053801 0.89695147 30 29 35
0.92977669 0.05069184 0.89694842 130 135 142
0.92977490 0.07007049 0.89694669 158 166 169
0.92977293 0.08944905 0.89694479 159 165 170
0.92977112 0.10960269 0.89694305 158 165 170
0.92977027 0.12975639 0.89694223 157 162 168
0.92977087 0.14991029 0.89694281 156 163 169
0.92977221 0.17006434 0.89694411 156 162 167
0.92977408 0.19021857 0.89694591 154 161 165
0.92977940 0.21037367 0.89695105 96 93 97
0.92982282 0.23053854 0.89699296 101 100 99
0.92988399 0.24993470 0.89705198 118 116 109
0.92993609 0.26933081 0.89710224 102 98 94
0.92998418 0.28950316 0.89714863 94 90 86
0.93002820 0.30967624 0.89719109 100 95 91
0.93006727 0.32984948 0.89722878 80 79 76
0.93010280 0.35002308 0.89726306 77 73 72
0.93013597 0.37019728 0.89729505 98 95 88
0.93016465 0.39037104 0.89732273 79 75 72
0.93018953 0.41054436 0.89734672 88 86 83
0.93021096 0.42994164 0.89736740 89 84 78
0.93023045 0.44933890 0.89738620 28 28 28
0.93024816 0.46951160 0.89740329 0 0 0
0.93026224 0.48968317 0.89741687 0 0 0
0.93027170 0.50519941 0.89742599 0 0 0
0.94998040 -0.60279235 0.89699542 161 171 172
0.94997939 -0.58961346 0.89699446 161 170 172
0.94997914 -0.56945834 0.89699423 162 171 173
0.95017858 -0.54964562 0.89699395 162 171 172
0.94977677 -0.53029606 0.89699291 163 171 175
0.94997808 -0.51054326 0.89699323 163 171 175
0.94997866 -0.49038862 0.89699378 162 170 175
0.94997825 -0.47023346 0.89699339 134 140 144
0.94997578 -0.45007735 0.89699105 33 33 41
0.94997234 -0.42992090 0.89698781 31 30 37
0.94996927 -0.40976475 0.89698490 29 28 33
0.94996655 -0.38960888 0.89698234 28 28 31
0.94996488 -0.36945353 0.89698076 28 26 33
0.95002377 -0.35000972 0.89698042 27 27 33
0.94990905 -0.33063903 0.89698033 28 28 32
0.94996421 -0.31053968 0.89698013 32 31 36
0.94996523 -0.29038534 0.89698110 126 131 138
0.94996672 -0.27023109 0.89698250 163 171 175
0.94996664 -0.25007637 0.89698243 162 172 176
0.94996697 -0.22992175 0.89698274 164 172 175
0.94996745 -0.20976715 0.89698319 165 172 176
0.94996896 -0.18961273 0.89698462 165 171 176
0.94997087 -0.16945832 0.89698643 162 171 174
0.94997266 -0.14930381 0.89698811 162 170 172
0.94997365 -0.12992431 0.89698904 152 157 161
0.94997398 -0.11054469 0.89698936 30 29 37
0.94997278 -0.09038972 0.89698823 27 26 31
0.94997030 -0.07023471 0.89698589 26 26 29
0.94996724 -0.05007977 0.89698299 25 26 29
0.94996481 -0.02992498 0.89698070 26 25 30
0.94996244 -0.00977029 0.89697846 26 26 29
0.94995981 0.01038429 0.89697598 27 26 30
0.94995700 0.03053875 0.89697333 29 29 33
0.94995420 0.05069310 0.89697068 119 124 129
0.94995137 0.07007216 0.89696801 158 165 169
0.94994864 0.08945111 0.89696543 158 165 170
0.94994589 0.10960511 0.89696284 158 165 169
0.94994395 0.12975911 0.89696101 157 163 169
0.94994345 0.14991325 0.89696054 156 161 167
0.94994369 0.17006750 0.89696076 154 161 166
0.94994389 0.19022175 0.89696095 153 161 164
0.94994581 0.21037640 0.89696278 110 112 115
0.94997622 0.23053816 0.89699151 105 103 101
0.95003836 0.24993420 0.89705019 127 126 119
0.95009213 0.26933042 0.89710096 103 99 97
0.95014140 0.28950279 0.89714748 108 105 100
0.95018620 0.30967579 0.89718978 111 110 105
0.95022650 0.32984913 0.89722783 93 93 87
0.95026317 0.35002285 0.89726246 91 88 82
0.95029675 0.37019692 0.89729417 75 73 71
0.95032642 0.39037080 0.89732218 95 94 89
0.95035222 0.41054428 0.89734654 92 91 87
0.95037432 0.42994165 0.89736740 98 97 89
0.95039416 0.44933887 0.89738614 48 47 43
0.95041246 0.46951167 0.89740342 0 0 0
0.95042641 0.48968302 0.89741659 0 0 0
0.95043585 0.50519914 0.89742551 0 0 0
0.97015962 -0.60280741 0.89701782 160 169 171
0.97015864 -0.58962822 0.89701691 159 169 171
0.97015770 -0.56947220 0.89701605 161 168 172
0.97015638 -0.54931599 0.89701482 161 169 172
0.97015528 -0.52993517 0.89701380 162 170 174
0.97015516 -0.51055491 0.89701370 162 169 174
0.97015543 -0.49039964 0.89701395 161 169 174
0.97015489 -0.47024397 0.89701345 102 105 111
0.97015346 -0.45008792 0.89701213 32 32 39
0.97015080 -0.42993137 0.89700967 30 30 37
0.97014842 -0.40977505 0.89700747 29 29 35
0.97014616 -0.38961888 0.89700538 28 28 34
0.97014459 -0.36946307 0.89700393 29 28 34
0.97014352 -0.34930750 0.89700293 28 27 34
0.97014316 -0.32992741 0.89700260 30 29 34
0.97014270 -0.31054731 0.89700218 32 31 38
0.97014285 -0.29039221 0.89700231 145 153 156
0.97014384 -0.27023734 0.89700323 162 170 175
0.97014371 -0.25008214 0.89700311 163 171 175
0.97014388 -0.22992701 0.89700327 164 172 174
0.97014423 -0.20977192 0.89700360 164 172 176
0.97014545 -0.18961698 0.89700472 165 171 175
0.97014668 -0.16946200 0.89700586 163 171 175
0.97014805 -0.14930698 0.89700713 162 170 174
0.97014876 -0.12992702 0.89700778 145 153 157
0.97014864 -0.11054694 0.89700767 30 29 36
0.97014718 -0.09039155 0.89700632 27 26 32
0.97014457 -0.07023612 0.89700392 26 26 29
0.97014125 -0.05008077 0.89700084 25 25 29
0.97013865 -0.02992557 0.89699844 25 25 30
0.97013609 -0.00977049 0.89699607 26 25 29
0.97013360 0.01038449 0.89699377 27 26 30
0.97013122 0.03053937 0.89699157 28 28 32
0.97012831 0.05069413 0.89698888 106 110 118
0.97012481 0.07007353 0.89698565 156 164 168
0.97012201 0.08945286 0.89698305 156 164 169
0.97011889 0.10960723 0.89698017 157 162 168
0.97011614 0.12976151 0.89697763 156 162 169
0.97011463 0.14991587 0.89697623 155 161 165
0.97011439 0.17007039 0.89697601 153 159 165
0.97011441 0.19022495 0.89697603 151 156 162
0.97011435 0.21037949 0.89697598 125 129 133
0.97013194 0.23053833 0.89699226 97 91 91
0.97019287 0.24993376 0.89704860 116 113 108
0.97024832 0.26933010 0.89709987 104 98 95
0.97029945 0.28950269 0.89714715 106 102 97
0.97034572 0.30967584 0.89718993 117 115 107
0.97038703 0.32984924 0.89722812 112 108 101
0.97042453 0.35002298 0.89726280 97 93 90
0.97045842 0.37019690 0.89729413 80 80 78
0.97048872 0.39037079 0.89732215 82 80 78
0.97051570 0.41054453 0.89734709 101 98 95
0.97053845 0.42994199 0.89736813 110 106 100
0.97055856 0.44933916 0.89738672 56 56 51
0.97057695 0.46951183 0.89740372 0 0 0
0.97059090 0.48968303 0.89741662 0 0 0
0.97060034 0.50519905 0.89742535 0 0 0
0.99033975 -0.60282240 0.89704013 94 94 110
0.99033778 -0.58964231 0.89703835 111 115 126
0.99033631 -0.56948551 0.89703702 139 144 150
0.99033443 -0.54932855 0.89703532 159 164 168
0.99033256 -0.52994688 0.89703363 159 167 170
0.99033169 -0.51056580 0.89703284 161 168 172
0.99033119 -0.49040973 0.89703239 160 166 170
0.99033047 -0.47025357 0.89703174 70 72 79
0.99032888 -0.45009704 0.89703030 33 32 37
0.99032650 -0.42994023 0.89702814 31 31 37
0.99032405 -0.40978348 0.89702592 31 31 35
0.99032160 -0.38962684 0.89702370 29 29 34
0.99032013 -0.36947067 0.89702237 29 29 34
0.99031901 -0.34931467 0.89702135 30 30 35
0.99031851 -0.32993415 0.89702091 30 29 35
0.99031806 -0.31055365 0.89702050 40 38 48
0.99031824 -0.29039815 0.89702066 158 166 170
0.99031862 -0.27024269 0.89702100 162 170 174
0.99031851 -0.25008710 0.89702091 163 169 174
0.99031852 -0.22993154 0.89702091 162 170 174
0.99031862 -0.20977599 0.89702101 163 171 175
0.99031952 -0.18962060 0.89702182 164 171 175
0.99032039 -0.16946516 0.89702261 161 170 175
0.99032122 -0.14930968 0.89702336 161 170 173
0.99032158 -0.12992933 0.89702369 140 147 150
0.99032115 -0.11054887 0.89702330 30 30 37
0.99031949 -0.09039310 0.89702180 27 27 32
0.99031691 -0.07023734 0.89701946 27 26 30
0.99031373 -0.05008164 0.89701658 27 26 30
0.99031108 -0.02992610 0.89701418 26 25 29
0.99030881 -0.00977066 0.89701212 26 25 29
0.99030620 0.01038468 0.89700975 27 27 31
0.99030338 0.03053991 0.89700720 29 28 33
0.99030036 0.05069501 0.89700447 94 97 104
0.99029706 0.07007477 0.89700148 154 160 164
0.99029425 0.08945445 0.89699893 154 160 165
0.99029096 0.10960915 0.89699595 152 161 164
0.99028786 0.12976375 0.89699315 153 160 165
0.99028579 0.14991838 0.89699127 152 159 163
0.99028515 0.17007317 0.89699069 150 157 164
0.99028487 0.19022801 0.89699044 147 155 160
0.99028426 0.21038276 0.89698989 140 144 151
0.99029041 0.23053913 0.89699547 66 65 66
0.99034841 0.24993359 0.89704801 100 99 95
0.99040592 0.26933017 0.89710010 98 96 91
0.99045843 0.28950285 0.89714767 84 82 81
0.99050518 0.30967587 0.89719002 89 87 85
0.99054739 0.32984928 0.89722825 86 82 78
0.99058597 0.35002314 0.89726320 80 77 75
0.99062105 0.37019725 0.89729497 85 82 78
0.99065206 0.39037118 0.89732305 78 73 70
0.99067933 0.41054483 0.89734775 97 91 85
0.98999665 0.42988352 0.89736887 82 76 74
0.98994799 0.44933969 0.89738779 47 46 44
0.98996628 0.46951217 0.89740437 0 0 0
0.98998034 0.48968330 0.89741711 0 0 0
0.98998977 0.50519922 0.89742566 0 0 0
1.01051850 -0.60283599 0.89706034 41 40 52
1.01051586 -0.58965523 0.89705799 40 41 51
1.01051344 -0.56949747 0.89705585 41 40 55
1.01051092 -0.54933975 0.89705362 49 48 61
1.01050826 -0.52995729 0.89705125 70 71 87
1.01050673 -0.51057552 0.89704990 92 94 104
1.01050535 -0.49041863 0.89704868 115 119 125
1.01050419 -0.47026190 0.89704764 74 77 83
1.01050251 -0.45010499 0.89704615 47 47 53
1.01050031 -0.42994792 0.89704420 34 35 41
1.01049757 -0.40979072 0.89704177 33 33 38
1.01049476 -0.38963360 0.89703927 32 31 39
1.01049299 -0.36947698 0.89703770 32 31 37
1.01049222 -0.34932077 0.89703702 32 32 38
