ply
format ascii 1.0
element vertex 1060
property float x
property float y
property float z
property uchar red
property uchar green
property uchar blue
end_header
0.01251385 0.13983592 0.49122596 146 142 141
0.01335322 0.13973467 0.49087027 141 139 139
0.01419138 0.13963355 0.49051508 139 133 134
0.01503919 0.13963355 0.49051508 139 135 135
0.01586405 0.13943177 0.48980623 141 138 137
0.11693743 0.23562098 0.82770675 115 116 118
0.11836806 0.23562098 0.82770675 125 127 129
0.12296019 0.23619777 0.82973295 106 106 115
0.48936388 0.25937307 0.91114497 170 170 158
0.48962253 0.25867772 0.90870219 168 168 156
0.49053559 0.25833142 0.90748572 143 143 136
0.49013567 0.25729811 0.90385580 138 138 131
0.48650849 0.25458255 0.89431643 139 134 135
0.48613027 0.25357893 0.89079088 139 133 135
0.48960000 0.25458255 0.89431643 126 122 127
0.49771190 0.25798607 0.90627253 125 121 126
0.49794689 0.25729811 0.90385580 122 121 126
0.49489015 0.25491884 0.89549780 133 132 137
1.14332521 0.45512635 1.59880149 147 147 137
1.14879799 0.45620230 1.60258114 146 146 136
1.14885199 0.45512635 1.59880149 148 148 137
1.15161538 0.45512635 1.59880149 147 148 139
1.14626837 0.45192873 1.58756876 145 146 137
1.14632773 0.45087284 1.58385944 145 146 137
1.15717638 0.45405546 1.59503961 152 153 144
1.15993333 0.45405546 1.59503961 160 160 152
1.15724432 0.45192873 1.58756876 165 163 154
1.15458047 0.44982186 1.58016741 166 165 156
1.15731168 0.44982186 1.58016741 166 165 156
1.15734506 0.44877574 1.57649267 167 166 157
0.60789067 0.17511214 0.61514688 129 130 126
0.60895389 0.17511214 0.61514688 133 134 130
0.60836101 0.17463672 0.61347675 135 136 130
0.60667622 0.17385006 0.61071336 135 136 129
0.60718477 0.17369358 0.61016369 133 134 127
0.60714638 0.17338146 0.60906726 131 132 123
0.60602117 0.17276059 0.60688615 131 132 123
0.60707009 0.17276059 0.60688615 135 136 127
0.60866398 0.17291538 0.60742998 136 137 128
0.61026067 0.17307048 0.60797477 138 139 130
0.61021698 0.17276059 0.60688615 140 141 133
0.60800004 0.17183755 0.60364366 142 143 136
0.60580665 0.17092434 0.60043561 145 146 139
0.60310507 0.16987111 0.59673578 148 149 142
0.60043663 0.16883077 0.59308124 150 151 143
1.12796164 0.28504220 1.00131738 157 158 149
1.12470841 0.28378466 0.99689978 158 159 150
1.11495399 0.28089312 0.98674214 159 160 151
-0.01123496 0.14037979 0.49016041 197 197 188
-0.01039528 0.14048137 0.49051508 199 200 191
-0.00956130 0.14068496 0.49122596 199 200 191
-0.00873123 0.14099146 0.49229619 199 200 191
-0.00789180 0.14119655 0.49301225 200 201 192
-0.00703967 0.14119655 0.49301225 199 200 191
-0.00618304 0.14109394 0.49265397 200 201 192
-0.00533541 0.14119655 0.49301225 186 186 177
-0.00447676 0.14099146 0.49229619 184 180 176
-0.00362061 0.14078699 0.49158219 166 160 158
-0.00277095 0.14078699 0.49158219 157 151 150
-0.00192129 0.14078699 0.49158219 165 158 155
-0.00107241 0.14088915 0.49193892 170 163 160
-0.00022181 0.14068496 0.49122596 172 169 161
0.00062678 0.14058310 0.49087027 175 172 165
0.00147521 0.14058310 0.49087027 175 173 166
0.00232532 0.14068496 0.49122596 176 174 167
0.00318128 0.14099146 0.49229619 172 172 170
0.00403511 0.14109394 0.49265397 172 171 168
0.00487953 0.14088915 0.49193892 170 169 165
0.00573396 0.14099146 0.49229619 166 163 157
0.00659444 0.14119655 0.49301225 160 153 149
0.00742497 0.14078699 0.49158219 156 148 146
0.00825667 0.14048137 0.49051508 149 141 142
0.00909133 0.14027837 0.48980623 145 138 139
0.00994510 0.14037979 0.49016041 149 142 142
0.01081576 0.14068496 0.49122596 148 142 142
0.01166481 0.14068496 0.49122596 148 143 142
0.01250479 0.14058310 0.49087027 142 139 139
0.01334356 0.14048137 0.49051508 133 133 133
0.01419138 0.14048137 0.49051508 133 129 130
0.01502832 0.14037979 0.49016041 133 129 130
0.01586405 0.14027837 0.48980623 135 131 132
0.01669857 0.14017709 0.48945260 138 134 135
0.12356517 0.23880105 0.83381528 97 96 110
0.49782583 0.26631722 0.92989278 161 162 152
0.49002251 0.26129913 0.91237128 161 161 152
0.48962253 0.26024833 0.90870219 157 157 149
0.49119315 0.26024833 0.90870219 146 145 141
0.49013567 0.25886035 0.90385580 140 139 136
0.48650849 0.25612831 0.89431643 137 135 134
0.48613027 0.25511861 0.89079088 136 133 134
0.48831159 0.25545427 0.89196295 132 132 133
0.49309734 0.25714603 0.89787000 134 134 136
0.49464923 0.25714603 0.89787000 135 136 138
1.14063501 0.45681235 1.59503961 149 149 140
1.14339185 0.45681235 1.59503961 147 147 138
1.14345837 0.45574003 1.59129536 146 146 137
1.14620876 0.45574003 1.59129536 146 146 137
1.14359021 0.45361042 1.58385944 145 145 136
1.14365566 0.45255303 1.58016741 140 141 132
1.15445995 0.45574003 1.59129536 136 137 130
1.15721047 0.45574003 1.59129536 139 140 132
1.15454054 0.45361042 1.58385944 148 146 139
1.15189540 0.45150059 1.57649267 156 153 146
1.15462017 0.45150059 1.57649267 158 156 148
1.15465975 0.45045301 1.57283485 158 157 149
0.60569215 0.17553821 0.61292207 125 125 123
0.60730064 0.17569706 0.61347675 124 124 122
0.60726190 0.17537963 0.61236840 121 121 119
0.60613012 0.17474820 0.61016369 115 115 112
0.60663873 0.17459105 0.60961497 118 118 115
0.60660136 0.17427760 0.60852051 121 122 118
0.60547906 0.17365408 0.60634333 125 126 120
0.60598511 0.17349888 0.60580146 130 131 126
0.60703218 0.17349888 0.60580146 132 133 127
0.60971385 0.17396528 0.60742998 132 133 127
0.60967118 0.17365408 0.60634333 135 136 130
0.60745907 0.17272709 0.60310662 136 137 132
0.60580665 0.17196214 0.60043561 138 139 135
0.60310507 0.17090252 0.59673578 141 142 139
0.60096240 0.17000461 0.59360057 144 145 141
1.12963021 0.28719711 1.00279856 155 157 148
1.12636483 0.28592822 0.99836797 156 158 149
1.11657929 0.28301057 0.98818052 158 160 151
1.10221994 0.27894434 0.97398251 160 162 154
-0.01038776 0.14122699 0.49016041 199 199 190
-0.00955437 0.14143153 0.49087027 197 197 188
-0.00872490 0.14173943 0.49193892 199 199 190
-0.00789180 0.14204869 0.49301225 199 199 190
-0.00703967 0.14204869 0.49301225 200 200 191
-0.00618304 0.14194545 0.49265397 192 193 184
-0.00533153 0.14194545 0.49265397 183 182 173
-0.00447352 0.14173943 0.49193892 173 169 165
-0.00361799 0.14153402 0.49122596 152 147 146
-0.00276694 0.14143153 0.49087027 151 142 143
-0.00191990 0.14153402 0.49122596 157 148 149
-0.00107086 0.14153402 0.49122596 165 157 157
-0.00022165 0.14143153 0.49087027 168 162 160
0.00062633 0.14132918 0.49051508 170 166 163
0.00147414 0.14132918 0.49051508 171 168 166
0.00232364 0.14143153 0.49087027 170 169 167
0.00317437 0.14153402 0.49122596 171 170 168
0.00402633 0.14163664 0.49158219 172 171 168
0.00486893 0.14143153 0.49087027 168 166 163
0.00572150 0.14153402 0.49122596 166 159 154
0.00657531 0.14163664 0.49158219 161 153 152
0.00741422 0.14143153 0.49087027 156 147 148
0.00825667 0.14132918 0.49051508 149 140 141
0.00908476 0.14102305 0.48945260 146 138 139
0.00993792 0.14112495 0.48980623 142 136 136
0.01080011 0.14132918 0.49051508 139 138 136
0.01165636 0.14143153 0.49087027 139 135 136
0.01249574 0.14132918 0.49051508 138 134 135
0.01333391 0.14122699 0.49016041 133 129 130
0.01419138 0.14132918 0.49051508 131 127 128
0.01502832 0.14122699 0.49016041 131 126 127
0.01586405 0.14112495 0.48980623 132 125 127
0.01671064 0.14112495 0.48980623 135 130 132
0.01751925 0.14081971 0.48874682 136 131 133
0.49734023 0.26940268 0.93502325 161 160 156
0.49895635 0.26940268 0.93502325 155 155 149
0.49200907 0.26394179 0.91607004 154 154 148
0.49159947 0.26287609 0.91237128 148 147 144
0.49185246 0.26217037 0.90992194 140 140 137
0.49079007 0.26077026 0.90506256 135 134 134
0.48715118 0.25801444 0.89549780 130 130 130
0.48676991 0.25699598 0.89196295 129 129 130
0.48831159 0.25699598 0.89196295 131 131 132
0.49114576 0.25767407 0.89431643 134 134 136
0.49334237 0.25801444 0.89549780 138 138 139
1.13795745 0.45849046 1.59129536 154 154 145
1.14070785 0.45849046 1.59129536 152 152 142
1.13811505 0.45634797 1.58385944 149 150 140
1.14085257 0.45634797 1.58385944 147 147 138
1.13300145 0.45212254 1.56919408 144 144 136
1.13571358 0.45212254 1.56919408 142 143 134
1.14906538 0.45634797 1.58385944 142 142 135
1.15180290 0.45634797 1.58385944 140 140 133
1.14650428 0.45317155 1.57283485 142 141 136
1.14391458 0.45107839 1.56557012 145 145 140
1.14662051 0.45107839 1.56557012 149 148 143
1.14667833 0.45003903 1.56196272 151 150 145
1.14937794 0.45003903 1.56196272 153 153 147
1.16009688 0.45317155 1.57283485 156 157 150
0.60569215 0.17659760 0.61292207 117 118 115
0.60675156 0.17659760 0.61292207 106 106 104
0.60671383 0.17627883 0.61181575 97 97 95
0.60613012 0.17580283 0.61016369 100 100 99
0.60663873 0.17564473 0.60961497 108 108 108
0.60660136 0.17532939 0.60852051 118 118 117
0.60547906 0.17470209 0.60634333 128 129 126
0.60544401 0.17439012 0.60526055 129 130 127
0.60594916 0.17423455 0.60472065 129 130 127
0.60807925 0.17454597 0.60580146 129 130 127
0.60912633 0.17454597 0.60580146 133 134 131
0.60691911 0.17361505 0.60257053 132 134 131
0.60580665 0.17299995 0.60043561 132 134 131
0.60363644 0.17208540 0.59726155 139 141 138
0.60096240 0.17103060 0.59360057 144 146 142
0.60198838 0.17103060 0.59360057 148 149 145
1.12963021 0.28893039 1.00279856 157 159 150
1.12636483 0.28765380 0.99836797 158 159 150
1.11820936 0.28513423 0.98962313 159 160 153
1.10539639 0.28143650 0.97678941 160 162 155
-0.01123496 0.14207420 0.49016041 196 196 187
-0.01038776 0.14207420 0.49016041 196 196 187
-0.00954056 0.14207420 0.49016041 196 196 187
-0.00870594 0.14227995 0.49087027 196 197 188
-0.00788607 0.14279696 0.49265397 196 196 187
-0.00702945 0.14269325 0.49229619 197 197 188
-0.00617407 0.14258970 0.49193892 188 189 180
-0.00532379 0.14258970 0.49193892 179 180 171
-0.00446703 0.14238305 0.49122596 157 156 152
-0.00361275 0.14217700 0.49051508 142 138 139
-0.00276494 0.14217700 0.49051508 143 136 138
-0.00191712 0.14217700 0.49051508 149 143 144
-0.00106853 0.14207420 0.49016041 158 152 152
-0.00022117 0.14197154 0.48980623 157 154 153
0.00062542 0.14197154 0.48980623 161 160 158
0.00147201 0.14197154 0.48980623 168 167 165
0.00232028 0.14207420 0.49016041 171 170 168
0.00316519 0.14197154 0.48980623 172 171 169
0.00401759 0.14217700 0.49051508 171 169 167
0.00486189 0.14207420 0.49016041 169 165 162
0.00570909 0.14207420 0.49016041 165 161 156
0.00992357 0.14176668 0.48909944 142 137 136
0.01079230 0.14207420 0.49016041 138 135 134
0.01164793 0.14217700 0.49051508 135 132 131
0.01249574 0.14217700 0.49051508 134 130 130
0.01332428 0.14197154 0.48980623 131 127 127
0.01419138 0.14217700 0.49051508 128 124 125
0.01502832 0.14207420 0.49016041 124 119 120
0.01587552 0.14207420 0.49016041 122 115 118
0.01671064 0.14197154 0.48980623 125 123 124
0.01753189 0.14176668 0.48909944 130 129 129
0.01840382 0.14197154 0.48980623 130 129 130
0.01925041 0.14197154 0.48980623 129 129 129
0.22079189 0.15706524 0.54187995 142 143 143
0.49871603 0.27176848 0.93760973 139 139 139
0.49200907 0.26552516 0.91607004 150 150 149
0.49159947 0.26445305 0.91237128 145 144 143
0.49185246 0.26374310 0.90992194 139 137 138
0.48948303 0.26163599 0.90265226 135 131 134
0.48650849 0.25921983 0.89431643 125 121 124
0.48613027 0.25819793 0.89079088 118 114 119
0.48766991 0.25819793 0.89079088 124 122 126
0.48920956 0.25819793 0.89079088 131 131 135
0.49204239 0.25887829 0.89313811 135 135 138
1.13803649 0.46016070 1.58756876 155 156 146
1.13282144 0.45695028 1.57649267 151 152 141
1.12767875 0.45378435 1.56557012 147 148 138
1.12260687 0.45066196 1.55479777 144 144 136
1.12788117 0.45169798 1.55837202 139 139 132
1.13842583 0.45483476 1.56919408 132 132 125
1.14644563 0.45695028 1.57649267 130 131 124
1.13857913 0.45273876 1.56196272 135 135 130
1.13604355 0.45066196 1.55479777 141 141 137
1.13873088 0.45066196 1.55479777 144 144 140
1.13880634 0.44963071 1.55123997 146 146 143
0.60675156 0.17765698 0.61292207 115 115 113
0.60671383 0.17733629 0.61181575 115 115 113
0.60613012 0.17685744 0.61016369 118 118 117
0.60718477 0.17685744 0.61016369 122 122 122
0.60660136 0.17638117 0.60852051 128 128 128
0.60547906 0.17575011 0.60634333 133 134 133
0.60544401 0.17543626 0.60526055 132 133 133
0.60540909 0.17512354 0.60418171 130 131 130
0.60753632 0.17543626 0.60526055 132 133 131
0.60858244 0.17543626 0.60526055 135 136 134
0.60691911 0.17465656 0.60257053 135 137 134
0.60580665 0.17403775 0.60043561 128 133 129
0.60363644 0.17311773 0.59726155 134 139 135
0.60148913 0.17220737 0.59412080 142 146 142
0.60146171 0.17190605 0.59308124 150 154 149
1.13130379 0.29109424 1.00428426 154 156 147
1.12802613 0.28980622 0.99984050 156 157 148
1.12148368 0.28768465 0.99252099 156 158 150
1.11665952 0.28600964 0.98674214 156 158 151
-0.01038776 0.14292140 0.49016041 195 196 187
-0.00953366 0.14281814 0.48980623 195 196 187
-0.00870594 0.14312838 0.49087027 194 195 186
-0.00787462 0.14343998 0.49193892 193 194 185
-0.00702435 0.14343998 0.49193892 194 195 186
-0.00616512 0.14323211 0.49122596 183 184 175
-0.00531608 0.14323211 0.49122596 172 173 164
-0.00446380 0.14312838 0.49087027 146 146 140
-0.00361014 0.14292140 0.49016041 135 134 131
-0.00276294 0.14292140 0.49016041 135 131 130
-0.00191573 0.14292140 0.49016041 142 137 137
-0.00106776 0.14281814 0.48980623 156 150 150
-0.00022101 0.14271502 0.48945260 154 154 152
0.00062452 0.14261205 0.48909944 161 161 159
0.00147095 0.14271502 0.48945260 164 164 162
0.00231693 0.14271502 0.48945260 168 168 166
0.00935926 0.18067668 0.61964518 153 152 150
0.01164793 0.14302482 0.49051508 137 134 133
0.01249574 0.14302482 0.49051508 134 132 131
0.01333391 0.14292140 0.49016041 134 132 132
0.01420165 0.14312838 0.49087027 135 133 133
0.01503919 0.14302482 0.49051508 134 132 132
0.01587552 0.14292140 0.49016041 136 132 133
0.01671064 0.14281814 0.48980623 137 136 136
0.01754455 0.14271502 0.48945260 141 140 140
0.01926433 0.14292140 0.49016041 150 150 150
0.21856926 0.15774964 0.54101503 160 161 155
0.21967968 0.15787564 0.54144716 163 165 158
0.22026367 0.15762384 0.54058361 158 160 154
0.49258426 0.27002773 0.92608178 134 134 134
0.49351072 0.26965934 0.92481834 138 138 138
0.49175480 0.26783237 0.91855264 143 143 143
0.48870701 0.26531583 0.90992194 145 145 145
0.49027973 0.26531583 0.90992194 144 144 144
0.48987979 0.26425174 0.90627253 142 142 143
0.48624572 0.26145542 0.89668232 137 136 138
0.48522821 0.26007935 0.89196295 130 128 131
0.48549229 0.25939673 0.88962185 122 120 124
0.48639163 0.25905675 0.88845587 126 124 129
0.48792726 0.25905675 0.88845587 131 131 138
0.49074924 0.25973758 0.89079088 134 135 141
0.49099851 0.25905675 0.88845587 140 141 143
0.26311311 0.13142307 0.45072597 130 129 129
1.11723220 0.45334932 1.55479777 150 151 141
1.11735678 0.45231190 1.55123997 144 144 135
1.11748087 0.45127922 1.54769826 142 140 133
1.12271917 0.45231190 1.55123997 136 135 127
1.13057458 0.45439148 1.55837202 128 129 121
1.13850260 0.45649031 1.56557012 128 129 122
1.13335621 0.45334932 1.55479777 134 134 128
1.13085616 0.45127922 1.54769826 140 140 136
1.13612509 0.45231190 1.55123997 144 144 140
1.13620627 0.45127922 1.54769826 147 147 143
0.60726190 0.17855492 0.61236840 129 129 125
0.60667622 0.17807235 0.61071336 133 133 130
0.60773176 0.17807235 0.61071336 139 139 135
0.60714638 0.17759237 0.60906726 143 143 140
0.60547906 0.17679812 0.60634333 147 147 145
0.60490394 0.17632498 0.60472065 146 146 145
0.60433185 0.17585436 0.60310662 140 140 139
0.60699433 0.17632498 0.60472065 140 140 139
0.60803956 0.17632498 0.60472065 143 143 141
0.60638011 0.17554201 0.60203540 146 147 145
0.60527056 0.17492062 0.59990430 146 149 146
0.60310507 0.17399675 0.59673578 144 149 145
0.60148913 0.17323427 0.59412080 145 149 145
0.60198838 0.17308258 0.59360057 149 150 146
1.13298225 0.29326454 1.00577426 148 149 142
1.12802613 0.29153436 0.99984050 151 153 146
1.12477732 0.29025006 0.99543589 154 156 149
1.12484610 0.28982449 0.99397629 156 158 151
-0.01037276 0.14356099 0.48945260 194 195 186
-0.00952678 0.14356099 0.48945260 194 195 186
-0.00869965 0.14387263 0.49051508 193 194 185
-0.00787462 0.14429025 0.49193892 193 194 185
-0.00702435 0.14429025 0.49193892 187 187 178
-0.00616512 0.14408115 0.49122596 177 176 168
-0.00531608 0.14408115 0.49122596 165 165 158
-0.00446057 0.14387263 0.49051508 143 143 137
-0.00361014 0.14376861 0.49016041 133 132 127
-0.00276294 0.14376861 0.49016041 142 138 136
-0.00191573 0.14376861 0.49016041 143 138 136
-0.00106776 0.14366472 0.48980623 157 151 150
-0.00022085 0.14345741 0.48909944 160 159 157
0.00062452 0.14345741 0.48909944 163 162 160
0.00147095 0.14356099 0.48945260 161 161 159
0.00513152 0.18376338 0.62651742 165 165 160
0.00622016 0.18393338 0.62709701 164 162 156
0.00729055 0.18359371 0.62593889 160 159 156
0.00834931 0.18308654 0.62420982 158 157 154
0.00937640 0.18208057 0.62078005 153 152 150
0.01043027 0.18174769 0.61964518 142 141 138
0.01148029 0.18141603 0.61851448 143 141 138
0.01166481 0.14408115 0.49122596 136 135 133
0.01251385 0.14408115 0.49122596 136 134 132
0.01336290 0.14408115 0.49122596 135 134 132
0.01423257 0.14429025 0.49193892 138 138 138
0.01507191 0.14418563 0.49158219 142 142 142
0.01591003 0.14408115 0.49122596 147 147 147
0.01673482 0.14387263 0.49051508 150 150 150
0.01756992 0.14376861 0.49016041 154 154 154
0.01927827 0.14387263 0.49051508 161 161 160
0.21756725 0.15932050 0.54318255 167 169 162
0.21798210 0.15893844 0.54187995 174 176 169
0.21909383 0.15906559 0.54231346 174 176 169
0.22003117 0.15906559 0.54231346 174 174 165
0.22043946 0.15868475 0.54101503 173 174 165
0.22067012 0.15817977 0.53929341 171 174 165
0.48871529 0.27125782 0.92481834 127 128 126
0.48306450 0.26724729 0.91114497 127 128 127
0.48660144 0.26832926 0.91483378 131 131 131
0.48686859 0.26760697 0.91237128 140 141 141
0.48674694 0.26581815 0.90627253 151 152 152
0.48831338 0.26581815 0.90627253 155 156 156
0.48727405 0.26440424 0.90145195 164 164 164
0.48496276 0.26231131 0.89431643 162 162 162
0.48459059 0.26127723 0.89079088 152 152 152
0.48485601 0.26059237 0.88845587 146 146 145
0.48448670 0.25957176 0.88497627 154 154 153
0.48412028 0.25855914 0.88152385 160 160 162
0.48501322 0.25822335 0.88037902 152 153 155
0.26434344 0.13282029 0.45283356 156 152 150
1.11467564 0.45499310 1.55123997 150 150 143
1.11226630 0.45292023 1.54417276 140 140 132
1.11493528 0.45292023 1.54417276 136 134 127
1.12015593 0.45395428 1.54769826 136 133 127
1.12798154 0.45603666 1.55479777 129 127 121
1.13326812 0.45708501 1.55837202 125 125 119
1.13076282 0.45499310 1.55123997 133 133 127
1.12828016 0.45292023 1.54417276 139 139 134
1.13353121 0.45395428 1.54769826 144 144 140
0.60781091 0.17977574 0.61292207 137 138 132
0.60722327 0.17928943 0.61126405 139 140 133
0.60773176 0.17912792 0.61071336 142 143 137
0.60769242 0.17880574 0.60961497 145 146 140
0.60602117 0.17800535 0.60688615 150 151 145
0.60436481 0.17721210 0.60418171 153 155 149
0.60433185 0.17689678 0.60310662 149 150 145
0.60699433 0.17737019 0.60472065 148 149 145
0.60803956 0.17737019 0.60472065 149 149 146
0.60638011 0.17658257 0.60203540 153 153 151
0.60580665 0.17611335 0.60043561 155 156 154
0.60416877 0.17533684 0.59778821 154 155 154
0.60201675 0.17441402 0.59464198 150 151 149
0.60251600 0.17426115 0.59412080 148 148 145
1.13298225 0.29500294 1.00577426 155 156 148
1.12969232 0.29369569 1.00131738 155 156 149
1.12643147 0.29239997 0.99689978 156 157 150
-0.00951991 0.14430279 0.48909944 194 194 185
-0.00868707 0.14451131 0.48980623 194 194 185
-0.00786321 0.14493018 0.49122596 191 191 182
-0.00701417 0.14493018 0.49122596 183 182 174
-0.00615620 0.14472045 0.49051508 170 167 161
-0.00530838 0.14472045 0.49051508 154 151 146
-0.00445734 0.14461581 0.49016041 138 135 130
-0.00360493 0.14440697 0.48945260 134 131 125
-0.00275895 0.14440697 0.48945260 139 135 132
-0.00191435 0.14451131 0.48980623 143 138 136
-0.00106699 0.14440697 0.48945260 156 150 148
-0.00022085 0.14430279 0.48909944 160 154 152
0.00297124 0.18518858 0.62767762 159 158 155
0.00405238 0.18501726 0.62709701 161 161 156
0.00513152 0.18484627 0.62651742 161 161 156
0.00622016 0.18501726 0.62709701 159 159 152
0.00729055 0.18467559 0.62593889 159 158 154
0.00834931 0.18416543 0.62420982 154 153 150
0.00938500 0.18332142 0.62134910 146 145 143
0.01043027 0.18281870 0.61964518 134 133 129
0.01148029 0.18248509 0.61851448 139 138 135
0.01253790 0.18231875 0.61795062 138 137 135
0.01167327 0.14503528 0.49158219 136 135 133
0.01252293 0.14503528 0.49158219 136 136 134
0.01339201 0.14524594 0.49229619 139 139 139
0.01425326 0.14535150 0.49265397 146 146 145
0.01509380 0.14524594 0.49229619 151 151 150
0.01592157 0.14503528 0.49158219 155 155 155
0.01674694 0.14482525 0.49087027 157 157 156
0.01758264 0.14472045 0.49051508 163 163 162
0.21739306 0.16013104 0.54274768 172 173 169
0.21798210 0.15987504 0.54187995 174 175 169
0.48540422 0.27100766 0.91855264 136 137 132
0.48518053 0.26738456 0.90627253 152 153 152
0.48351490 0.26560912 0.90025479 155 156 155
0.48507091 0.26560912 0.90025479 159 160 159
0.48469588 0.26455510 0.89668232 164 164 164
0.48432380 0.26350942 0.89313811 167 167 165
0.48395464 0.26247200 0.88962185 168 168 166
0.48295709 0.26110139 0.88497627 169 169 167
0.48134476 0.25940812 0.87923717 171 171 169
0.25965166 0.13280456 0.45012739 178 176 167
0.26077598 0.13298115 0.45072597 180 177 169
0.26277804 0.13360298 0.45283356 179 176 168
1.12283099 0.45662937 1.54769826 126 123 119
1.12808156 0.45767429 1.55123997 117 113 110
1.12818110 0.45662937 1.54769826 132 128 125
0.60840183 0.18132699 0.61458915 138 139 130
0.60726190 0.18067178 0.61236840 142 143 134
0.60667622 0.18018349 0.61071336 144 145 136
0.60773176 0.18018349 0.61071336 144 146 137
0.60769242 0.17985940 0.60961497 144 146 138
0.60602117 0.17905430 0.60688615 148 150 141
0.60436481 0.17825638 0.60418171 154 155 147
0.60433185 0.17793921 0.60310662 152 154 146
0.60753632 0.17857470 0.60526055 152 153 146
0.60967118 0.17889415 0.60634333 152 153 147
0.60745907 0.17793921 0.60310662 153 154 148
0.60634369 0.17730822 0.60096794 154 155 151
0.60470200 0.17652574 0.59831583 152 153 152
0.60201675 0.17544180 0.59464198 145 146 146
0.60304451 0.17544180 0.59464198 145 145 144
1.13298225 0.29674134 1.00577426 161 161 152
1.12969232 0.29542637 1.00131738 162 162 153
1.12643147 0.29412302 0.99689978 162 162 153
1.12815452 0.29412302 0.99689978 159 159 152
-0.00785183 0.14556827 0.49051508 186 186 177
-0.00700401 0.14556827 0.49051508 174 174 165
-0.00615175 0.14546300 0.49016041 164 161 155
-0.00530455 0.14546300 0.49016041 135 129 126
-0.00445412 0.14535791 0.48980623 128 122 120
-0.00360233 0.14514816 0.48909944 133 127 125
-0.00022069 0.14504351 0.48874682 156 152 150
0.00188461 0.18610115 0.62709701 153 152 149
0.00296850 0.18610115 0.62709701 151 151 149
0.00404864 0.18592915 0.62651742 154 155 151
0.00512678 0.18575747 0.62593889 153 153 150
0.00621441 0.18592915 0.62651742 156 155 151
0.00728383 0.18558611 0.62536150 155 154 151
0.00832631 0.18473402 0.62249023 144 143 141
0.00935926 0.18388970 0.61964518 143 142 140
0.01042074 0.18372178 0.61907929 140 140 138
0.01146982 0.18338682 0.61795062 139 139 137
0.01252648 0.18321981 0.61738783 139 138 136
0.01250479 0.14567368 0.49087027 137 138 137
0.01339201 0.14609684 0.49229619 144 145 145
0.01425326 0.14620301 0.49265397 154 155 153
0.01509380 0.14609684 0.49229619 165 166 164
0.01592157 0.14588495 0.49158219 167 167 165
0.01675908 0.14577924 0.49122596 167 167 165
0.21662840 0.16119818 0.54318255 173 174 171
0.21739306 0.16106912 0.54274768 175 176 171
0.21798210 0.16081162 0.54187995 175 176 170
0.48112449 0.26931104 0.90748572 140 140 136
0.48140410 0.26859191 0.90506256 142 142 139
0.48104170 0.26752040 0.90145195 150 150 148
0.47814894 0.26505315 0.89313811 155 156 154
0.47906148 0.26470441 0.89196295 158 159 157
0.48123637 0.26505315 0.89313811 159 160 158
0.48151127 0.26435655 0.89079088 161 161 159
0.48178476 0.26366362 0.88845587 162 162 160
0.25904566 0.13367133 0.45042646 175 172 164
0.26051658 0.13402754 0.45162681 175 171 163
0.26199538 0.13438566 0.45283356 176 172 163
1.12550604 0.45930442 1.54769826 118 114 112
1.12305307 0.45721668 1.54066324 127 123 121
1.11306739 0.45207942 1.52335250 130 128 126
0.60785073 0.18222404 0.61403245 140 141 132
0.60671383 0.18156619 0.61181575 143 144 135
0.60667622 0.18123905 0.61071336 146 147 138
0.60773176 0.18123905 0.61071336 148 150 141
0.60769242 0.18091308 0.60961497 150 152 143
0.60656416 0.18026464 0.60742998 152 154 145
0.60544401 0.17962085 0.60526055 156 157 148
0.60594916 0.17946061 0.60472065 156 157 148
0.60862315 0.17994216 0.60634333 155 157 148
0.61076373 0.18026464 0.60742998 155 157 148
0.60800004 0.17914100 0.60364366 155 157 148
0.60688174 0.17850518 0.60150117 155 156 149
0.60577136 0.17787386 0.59937388 154 154 151
0.60360515 0.17693521 0.59621096 147 148 145
0.60304451 0.17646959 0.59464198 145 145 142
1.13466573 0.29892325 1.00726867 162 162 153
1.13136351 0.29759666 1.00279856 163 163 154
1.12809038 0.29628178 0.99836797 165 165 156
1.12981606 0.29628178 0.99836797 163 163 154
-0.00785183 0.14641608 0.49051508 182 182 173
-0.00700401 0.14641608 0.49051508 165 165 156
-0.00615175 0.14631021 0.49016041 148 147 143
-0.00530071 0.14620450 0.48980623 118 114 113
-0.00445412 0.14620450 0.48980623 105 100 100
-0.00359973 0.14588827 0.48874682 110 105 105
0.00188113 0.18683936 0.62593889 144 143 143
0.00296301 0.18683936 0.62593889 136 135 133
0.00404117 0.18666700 0.62536150 147 143 142
0.00511733 0.18649495 0.62478513 150 144 144
0.00620294 0.18666700 0.62536150 153 147 147
0.00726373 0.18615182 0.62363553 147 144 143
0.00830343 0.18529947 0.62078005 138 136 134
0.00934218 0.18462320 0.61851448 141 139 138
0.01040174 0.18445490 0.61795062 141 140 138
0.01144895 0.18411922 0.61682606 141 140 138
0.01248671 0.14631021 0.49016041 144 145 146
0.01335322 0.14652210 0.49087027 153 154 154
0.01423257 0.14684109 0.49193892 158 159 159
0.01508285 0.14684109 0.49193892 162 163 162
0.01591003 0.14662828 0.49122596 169 169 167
0.01674694 0.14652210 0.49087027 169 169 167
0.21721914 0.16187762 0.54231346 173 173 168
0.21780799 0.16161902 0.54144716 173 173 168
0.21874385 0.16161902 0.54144716 176 175 170
0.47920001 0.26979604 0.90385580 138 138 134
0.47821176 0.26836476 0.89906079 143 143 140
0.47786441 0.26730123 0.89549780 149 149 147
0.47626644 0.26554728 0.88962185 154 154 152
0.25973597 0.13480814 0.45162681 170 167 159
0.26086417 0.13498801 0.45222938 168 165 157
1.12050641 0.45883679 1.53716969 122 120 118
0.43995595 0.13453925 0.45072597 155 153 149
0.44161588 0.13480814 0.45162681 150 147 144
0.44239649 0.13480814 0.45162681 145 142 139
0.44376838 0.13498801 0.45222938 141 137 134
0.44484678 0.13507812 0.45253128 138 134 131
0.44473830 0.13480814 0.45162681 133 129 125
0.60671383 0.18262367 0.61181575 141 142 133
0.60667622 0.18229462 0.61071336 149 150 141
0.60827976 0.18245900 0.61126405 152 154 145
0.60769242 0.18196675 0.60961497 154 156 147
0.60656416 0.18131454 0.60742998 158 160 151
0.60598511 0.18082844 0.60580146 160 162 152
0.60757512 0.18099017 0.60634333 161 163 153
0.60916799 0.18115221 0.60688615 161 162 152
0.61076373 0.18131454 0.60742998 159 160 151
0.60908478 0.18050581 0.60472065 158 159 150
0.60796064 0.17986402 0.60257053 156 157 149
0.60684443 0.17922677 0.60043561 151 152 145
1.13298225 0.30021814 1.00577426 160 161 154
1.12969232 0.29888776 1.00131738 161 162 155
1.12643147 0.29756916 0.99689978 162 163 156
-0.00699895 0.14715742 0.49016041 166 166 157
-0.00614730 0.14705108 0.48980623 145 146 144
-0.00530071 0.14705108 0.48980623 128 129 129
-0.00445091 0.14694491 0.48945260 129 130 130
-0.00359455 0.14652175 0.48804307 129 129 129
-0.00274114 0.14599620 0.48629257 145 145 145
-0.00190746 0.14652175 0.48804307 149 149 149
-0.00106392 0.14652175 0.48804307 153 153 153
-0.00022006 0.14631107 0.48734137 154 154 154
0.00295483 0.18740211 0.62420982 137 136 134
0.00403373 0.18740211 0.62420982 139 134 134
0.00510322 0.18705763 0.62306237 142 134 135
0.00618582 0.18722972 0.62363553 140 133 134
0.00724373 0.18671441 0.62191910 139 134 134
0.00828825 0.18603173 0.61964518 137 133 133
0.00933367 0.18552297 0.61795062 141 137 137
0.01039227 0.18535401 0.61738783 140 139 137
0.01142815 0.18484896 0.61570555 144 144 141
0.01247769 0.14705108 0.48980623 149 153 152
0.01334356 0.14726390 0.49051508 156 160 159
0.01423257 0.14769137 0.49193892 158 161 160
0.01507191 0.14758426 0.49158219 160 163 162
0.01589851 0.14737053 0.49087027 166 166 164
0.01673482 0.14726390 0.49051508 167 167 165
0.01758264 0.14726390 0.49051508 168 168 166
0.21721914 0.16281496 0.54231346 162 162 160
0.21780799 0.16255488 0.54144716 168 168 165
0.47792554 0.27063659 0.90145195 131 132 130
0.47694665 0.26920465 0.89668232 143 143 141
0.47723398 0.26849434 0.89431643 150 151 149
0.26025614 0.13586028 0.45253128 160 160 154
1.11544764 0.45941016 1.53022993 114 115 113
0.43966362 0.13522838 0.45042646 148 145 139
0.44132188 0.13549846 0.45132613 145 141 136
0.44180781 0.13540831 0.45102584 140 136 131
0.44288203 0.13549846 0.45132613 138 133 130
0.44455004 0.13576965 0.45222938 135 129 127
0.44444218 0.13549846 0.45132613 132 126 124
0.60823935 0.18318515 0.61016369 157 158 149
0.60765314 0.18269184 0.60852051 160 162 153
0.60707009 0.18220116 0.60688615 162 163 153
0.60866398 0.18236443 0.60742998 162 163 153
0.60971385 0.18236443 0.60742998 162 163 153
0.61186028 0.18269184 0.60852051 162 163 154
1.12969232 0.30061847 1.00131738 161 162 155
-0.00699389 0.14789768 0.48980623 159 159 151
-0.00613843 0.14768426 0.48909944 139 139 139
-0.00529306 0.14768426 0.48909944 146 147 147
-0.00444129 0.14747146 0.48839471 152 153 152
-0.00358422 0.14694212 0.48664168 154 155 153
-0.00273329 0.14641659 0.48490116 158 160 152
-0.00189789 0.14662635 0.48559588 159 160 151
-0.00105934 0.14673147 0.48594397 161 162 153
-0.00021927 0.14662635 0.48559588 162 161 157
0.00401892 0.18778935 0.62191910 138 136 136
0.00508453 0.18744540 0.62078005 132 130 130
0.00722385 0.18727390 0.62021214 131 127 128
0.00828069 0.18693186 0.61907929 129 125 126
0.00933367 0.18659106 0.61795062 137 136 136
0.01038281 0.18625149 0.61682606 133 133 133
0.01141778 0.18574445 0.61514688 145 145 145
0.01333391 0.14800462 0.49016041 161 162 162
0.01424291 0.14864951 0.49229619 165 165 165
0.01508285 0.14854164 0.49193892 166 166 166
0.01591003 0.14832637 0.49122596 165 165 163
0.01673482 0.14811172 0.49051508 165 165 163
0.01758264 0.14811172 0.49051508 165 165 163
0.01843045 0.14811172 0.49051508 166 166 164
0.03568384 0.13933995 0.46146482 133 130 129
0.03638237 0.13896157 0.46021169 130 127 126
0.03874239 0.13886729 0.45989949 130 125 125
0.21687214 0.16349073 0.54144716 160 160 158
0.21746062 0.16322997 0.54058361 160 160 158
0.21822095 0.16309991 0.54015285 161 161 161
0.21898007 0.16297005 0.53972280 163 162 162
0.47955596 0.27401659 0.90748572 129 129 128
0.47729084 0.27183318 0.90025479 133 136 134
0.47694665 0.27075449 0.89668232 138 142 140
0.26025614 0.13664244 0.45253128 155 155 152
0.44024867 0.13618788 0.45102584 143 138 131
0.44161588 0.13636935 0.45162681 141 136 129
0.44180781 0.13618788 0.45102584 136 131 124
0.44258738 0.13618788 0.45102584 134 129 124
0.44425365 0.13646026 0.45192790 134 129 125
0.44414648 0.13618788 0.45102584 134 129 125
1.12802613 0.30190322 0.99984050 162 163 154
-0.00528544 0.14831561 0.48839471 160 160 156
-0.00443171 0.14799574 0.48734137 167 167 163
-0.00021864 0.14704433 0.48420846 175 172 166
0.00294399 0.18886428 0.62191910 156 157 155
0.00401524 0.18869117 0.62134910 150 150 149
0.00507523 0.18817374 0.61964518 143 143 143
0.00615186 0.18834589 0.62021214 127 126 126
0.00721066 0.18800189 0.61907929 125 124 127
0.00827313 0.18783036 0.61851448 130 130 134
0.00932517 0.18748823 0.61738783 133 133 135
0.01037338 0.18714733 0.61626530 137 137 137
0.01140743 0.18663833 0.61458915 149 150 150
0.01243587 0.18613207 0.61292207 155 155 155
0.01336290 0.14917541 0.49122596 167 168 166
0.01427400 0.14982682 0.49337107 168 168 166
0.01511575 0.14971787 0.49301225 169 168 166
0.01594469 0.14950041 0.49229619 167 166 164
0.01677123 0.14928359 0.49158219 165 164 162
0.01760812 0.14917541 0.49122596 165 164 162
0.03573249 0.14032860 0.46209395 126 125 124
0.03643184 0.13994703 0.46083742 123 122 121
0.03722836 0.13994703 0.46083742 124 124 122
0.03799905 0.13985194 0.46052435 125 123 121
0.03871612 0.13956751 0.45958769 126 124 122
0.03945698 0.13937852 0.45896536 135 134 132
0.21509542 0.16521835 0.54405445 143 145 145
0.21586253 0.16508585 0.54361814 145 146 147
0.21610890 0.16455801 0.54187995 151 152 153
0.21669906 0.16429535 0.54101503 155 156 156
0.21746062 0.16416433 0.54058361 157 158 159
0.21804720 0.16390292 0.53972280 158 159 159
0.21880586 0.16377252 0.53929341 158 159 159
0.21921480 0.16338259 0.53800941 166 167 167
0.21875578 0.16235179 0.53461504 166 167 166
0.43859369 0.13669460 0.45012739 136 133 124
0.44112918 0.13724138 0.45192790 137 133 125
0.44220510 0.13733293 0.45222938 138 134 126
0.44239649 0.13714994 0.45162681 143 139 130
0.44317707 0.13714994 0.45162681 144 141 133
0.44425365 0.13724138 0.45192790 143 140 132
0.44444218 0.13705863 0.45132613 141 139 130
0.44637376 0.13669460 0.45012739 133 133 129
0.00187766 0.19081451 0.62478513 168 167 163
0.00295483 0.19063881 0.62420982 162 163 156
0.00402261 0.19011363 0.62249023 159 160 155
0.00507988 0.18941788 0.62021214 153 153 150
0.00615750 0.18959135 0.62078005 138 138 136
0.00722385 0.18941788 0.62021214 129 129 128
0.00828069 0.18907191 0.61907929 132 132 134
0.00932517 0.18855533 0.61738783 136 137 139
0.01038281 0.18838376 0.61682606 146 146 147
0.01140743 0.18770058 0.61458915 157 157 157
0.01243587 0.18719146 0.61292207 160 160 159
0.01336290 0.15002446 0.49122596 169 169 167
0.01427400 0.15067959 0.49337107 171 171 169
0.01511575 0.15057001 0.49301225 170 169 166
0.01594469 0.15035130 0.49229619 167 166 164
0.01677123 0.15013325 0.49158219 166 163 161
0.03335915 0.14122356 0.46240917 142 143 143
0.03491000 0.14103116 0.46177918 131 131 131
0.03565956 0.14083928 0.46115091 127 127 127
0.03638237 0.14055245 0.46021169 126 126 125
0.03717781 0.14055245 0.46021169 124 124 123
0.03794749 0.14045709 0.45989949 124 123 121
0.03868989 0.14026676 0.45927632 128 128 126
0.03943028 0.14007697 0.45865482 136 136 134
0.21593630 0.16536242 0.54144716 151 152 155
0.21652626 0.16509868 0.54058361 156 157 160
0.21728733 0.16496713 0.54015285 162 163 165
0.21787374 0.16470465 0.53929341 166 167 168
0.21845828 0.16444300 0.53843671 167 168 168
0.43888509 0.13756396 0.45042646 140 139 129
0.44142345 0.13811457 0.45222938 139 137 127
0.44220510 0.13811457 0.45222938 136 133 123
0.44239649 0.13793054 0.45162681 144 141 131
0.44229308 0.13765542 0.45072597 152 150 140
0.44366211 0.13783871 0.45132613 160 159 150
0.44385117 0.13765542 0.45072597 154 153 144
0.00187766 0.19189440 0.62478513 170 170 163
0.00295211 0.19154133 0.62363553 170 170 163
0.00401524 0.19083907 0.62134910 162 162 154
0.00507988 0.19048987 0.62021214 157 157 148
0.00616314 0.19083907 0.62134910 145 146 137
0.00722385 0.19048987 0.62021214 136 136 131
0.00828825 0.19031575 0.61964518 135 135 135
0.00933367 0.18979529 0.61795062 138 139 140
0.01038281 0.18944989 0.61682606 153 153 152
0.01141778 0.18893415 0.61514688 167 167 165
0.01243587 0.18825084 0.61292207 169 169 165
0.01347090 0.18791103 0.61181575 174 174 171
0.01426362 0.15142213 0.49301225 169 168 164
0.01511575 0.15142213 0.49301225 167 166 161
0.01594469 0.15120220 0.49229619 166 162 158
0.01677123 0.15098290 0.49158219 164 159 156
0.03326837 0.14163634 0.46115091 142 143 143
0.03394996 0.14115623 0.45958769 138 139 139
0.03474432 0.14115623 0.45958769 135 136 136
0.03553868 0.14115623 0.45958769 135 135 137
0.03630843 0.14106059 0.45927632 131 131 133
0.03707713 0.14096509 0.45896536 131 131 133
0.03787041 0.14096509 0.45896536 129 130 130
0.03863754 0.14086971 0.45865482 132 133 133
0.03937700 0.14067934 0.45803502 130 130 130
0.21652626 0.16603304 0.54058361 160 161 163
0.21711434 0.16576865 0.53972280 167 168 169
0.21770056 0.16550511 0.53886473 171 172 172
0.21828490 0.16524240 0.53800941 172 173 172
0.21834834 0.16458927 0.53588289 175 175 170
0.21882781 0.16152477 0.52590525 172 172 165
0.22030397 0.16127454 0.52509052 168 166 160
0.85840702 0.27797788 0.90506256 155 157 144
0.85088313 0.27504021 0.89549780 158 160 148
0.86080146 0.27723759 0.90265226 145 146 133
0.85552657 0.27504021 0.89549780 138 139 126
0.86277294 0.27686891 0.90145195 137 138 125
0.85535604 0.27252018 0.88729298 155 155 144
0.43859369 0.13825062 0.45012739 146 147 134
0.44112918 0.13880362 0.45192790 146 147 134
0.44191030 0.13880362 0.45192790 143 142 131
0.44180781 0.13852656 0.45102584 145 143 133
0.00187939 0.19315231 0.62536150 171 169 163
0.00295211 0.19261923 0.62363553 168 168 160
0.00401524 0.19191302 0.62134910 164 164 156
0.00507523 0.19138676 0.61964518 161 161 152
0.00616314 0.19191302 0.62134910 153 153 149
0.00723047 0.19173728 0.62078005 136 137 134
0.00828825 0.19138676 0.61964518 135 135 133
0.00933367 0.19086337 0.61795062 144 144 142
0.01039227 0.19068953 0.61738783 158 158 156
0.01143854 0.19034283 0.61626530 163 163 161
0.01426362 0.15227427 0.49301225 166 165 158
0.01512676 0.15238509 0.49337107 163 161 155
0.01595628 0.15216359 0.49265397 163 160 154
0.01678340 0.15194274 0.49193892 160 157 152
0.03251555 0.14262746 0.46177918 149 149 147
0.03324576 0.14233658 0.46083742 139 140 139
0.03394996 0.14195058 0.45958769 140 141 141
0.03472078 0.14185441 0.45927632 139 140 141
0.03551460 0.14185441 0.45927632 138 139 141
0.03628384 0.14175837 0.45896536 137 138 140
0.03707713 0.14175837 0.45896536 135 136 138
0.03787041 0.14175837 0.45896536 128 129 131
0.03861141 0.14156668 0.45834473 130 131 133
0.03937700 0.14147101 0.45803502 129 130 132
0.21728733 0.16683435 0.54015285 169 170 167
0.21770056 0.16643649 0.53886473 174 175 172
0.21811180 0.16604052 0.53758276 176 178 173
0.21817587 0.16538477 0.53545958 178 179 172
0.21806787 0.16460465 0.53293383 180 181 172
0.21847373 0.16421734 0.53167987 181 181 171
0.21819477 0.16332068 0.52877676 180 180 170
0.21825749 0.16268618 0.52672249 179 179 170
0.21865818 0.16230784 0.52549756 178 177 168
0.21973680 0.16243376 0.52590525 177 174 166
0.22030397 0.16218211 0.52509052 177 173 165
0.22138302 0.16230784 0.52549756 174 169 162
0.85498255 0.27842700 0.90145195 157 159 146
0.84976059 0.27622309 0.89431643 160 162 148
0.86153567 0.27954221 0.90506256 160 162 148
0.86309999 0.27954221 0.90506256 149 151 136
0.85779285 0.27732068 0.89787000 146 148 132
0.86738670 0.27991593 0.90627253 147 149 133
0.86318320 0.27805725 0.90025479 149 148 133
0.85903513 0.27622309 0.89431643 149 147 132
0.85606343 0.27477312 0.88962185 148 145 131
0.85647708 0.27441299 0.88845587 148 144 130
0.85465235 0.27333826 0.88497627 148 144 130
0.43888509 0.13912100 0.45042646 149 149 133
0.44083530 0.13949175 0.45162681 150 150 133
0.44161588 0.13949175 0.45162681 151 150 136
0.44151405 0.13921350 0.45072597 152 151 139
0.00187939 0.19423321 0.62536150 170 170 161
0.00294669 0.19334140 0.62249023 166 166 159
0.00400789 0.19263384 0.62021214 160 159 153
0.00507060 0.19228201 0.61907929 159 156 152
0.00615186 0.19263384 0.62021214 147 146 144
0.00721725 0.19245777 0.61964518 134 133 131
0.00828069 0.19228201 0.61907929 135 133 131
0.00932517 0.19175664 0.61738783 134 133 131
0.01038281 0.19158216 0.61682606 148 148 146
0.01514881 0.15346122 0.49409026 161 158 152
0.01597951 0.15323783 0.49337107 158 154 151
0.01678340 0.15279302 0.49193892 148 144 142
0.01759537 0.15246111 0.49087027 147 141 141
0.03102493 0.14391579 0.46335739 163 163 160
0.03180406 0.14381748 0.46304089 162 162 158
0.03251555 0.14342561 0.46177918 156 156 152
0.03324576 0.14313310 0.46083742 150 150 147
0.03394996 0.14274494 0.45958769 148 148 145
0.03472078 0.14264823 0.45927632 145 145 145
0.03551460 0.14264823 0.45927632 142 143 144
0.03630843 0.14264823 0.45927632 142 143 144
0.03710225 0.14264823 0.45927632 136 137 138
0.03787041 0.14255165 0.45896536 129 130 131
0.03863754 0.14245521 0.45865482 128 129 131
0.03943028 0.14245521 0.45865482 128 129 131
0.21746062 0.16790175 0.54058361 168 170 163
0.21787374 0.16750103 0.53929341 174 176 169
0.21811180 0.16696970 0.53758276 177 179 172
0.21887770 0.16474867 0.53043181 180 178 166
0.21859717 0.16385120 0.52754229 179 178 166
0.21899772 0.16346955 0.52631354 179 178 167
0.22007827 0.16359657 0.52672249 178 175 167
0.22047475 0.16321611 0.52549756 176 173 165
0.22155477 0.16334274 0.52590525 173 170 162
0.85214972 0.28110653 0.90506256 144 144 142
0.85714722 0.28223699 0.90870219 143 143 140
0.86144322 0.28261584 0.90992194 147 148 140
0.85384709 0.27961326 0.90025479 149 151 141
0.85088313 0.27813578 0.89549780 151 152 141
0.86153567 0.28110653 0.90506256 151 152 140
0.86425388 0.28148234 0.90627253 145 146 134
0.86351144 0.28073171 0.90385580 143 144 130
0.86854792 0.28185916 0.90748572 151 153 138
0.86548197 0.28035790 0.90265226 148 148 133
0.86130774 0.27850369 0.89668232 144 143 128
0.85831618 0.27703789 0.89196295 141 139 124
0.85872799 0.27667382 0.89079088 142 139 124
0.85688961 0.27558741 0.88729298 143 139 125
0.85395229 0.27415207 0.88267165 144 139 125
0.43859369 0.13980663 0.45012739 148 145 130
0.44054177 0.14017895 0.45132613 149 147 131
0.44102824 0.14008568 0.45102584 152 149 135
0.44092771 0.13980663 0.45012739 156 153 142
0.00400057 0.19335203 0.61907929 160 159 151
0.00506597 0.19317561 0.61851448 156 154 146
0.00719751 0.19299951 0.61795062 130 126 123
0.00826559 0.19299951 0.61795062 131 127 126
0.00931668 0.19264829 0.61682606 119 117 116
0.01037338 0.19247316 0.61626530 138 137 135
0.01675908 0.15342063 0.49122596 156 151 150
0.01756992 0.15308784 0.49016041 155 149 149
0.01840382 0.15297721 0.48980623 154 147 147
0.03102493 0.14471667 0.46335739 170 170 167
0.03178236 0.14451909 0.46272480 166 166 162
0.03249342 0.14412558 0.46146482 162 162 157
0.03324576 0.14392962 0.46083742 157 156 152
0.03397299 0.14363669 0.45989949 150 149 145
0.03474432 0.14353931 0.45958769 148 148 144
0.03551460 0.14344205 0.45927632 146 146 144
0.03630843 0.14344205 0.45927632 141 142 141
0.03710225 0.14344205 0.45927632 136 137 137
0.03787041 0.14334494 0.45896536 134 135 135
0.03863754 0.14324795 0.45865482 129 130 130
0.03943028 0.14324795 0.45865482 128 129 131
0.04019584 0.14315109 0.45834473 135 135 135
0.21956491 0.16618562 0.53209722 174 171 161
0.21945107 0.16540661 0.52960300 172 169 160
0.21950899 0.16476302 0.52754229 172 169 160
0.22024941 0.16463490 0.52713209 170 167 159
0.22064579 0.16425173 0.52590525 170 167 159
0.84494489 0.28079638 0.89906079 133 134 131
0.84762305 0.28116930 0.90025479 138 139 137
0.85371405 0.28267086 0.90506256 139 140 138
0.85871786 0.28380761 0.90870219 139 139 136
0.85913682 0.28342769 0.90748572 140 140 136
0.85384709 0.28116930 0.90025479 140 140 135
0.85088313 0.27968359 0.89549780 139 140 132
0.85809869 0.28154320 0.90145195 139 140 132
0.86309999 0.28267086 0.90506256 137 138 129
0.86351144 0.28229398 0.90385580 134 134 125
0.86738670 0.28304875 0.90627253 138 139 129
0.86663592 0.28229398 0.90385580 139 139 128
0.86244851 0.28042448 0.89787000 136 136 122
0.86058092 0.27931461 0.89431643 131 132 117
0.85985792 0.27857956 0.89196295 130 130 115
0.85913867 0.27784839 0.88962185 133 131 116
0.85842323 0.27712104 0.88729298 139 137 122
0.43995595 0.14077160 0.45072597 148 143 130
0.44044214 0.14067805 0.45042646 152 146 134
0.00293591 0.19477782 0.62021214 166 167 159
0.00400057 0.19442205 0.61907929 161 162 153
0.00825806 0.19389085 0.61738783 131 127 126
0.00930821 0.19353832 0.61626530 125 121 122
0.01036395 0.19336253 0.61570555 127 124 124
0.03102493 0.14551753 0.46335739 175 174 170
0.03176067 0.14521974 0.46240917 175 172 165
0.03242720 0.14462782 0.46052435 168 169 160
0.03315560 0.14433366 0.45958769 162 162 155
0.03392696 0.14423588 0.45927632 155 154 150
0.03469728 0.14413822 0.45896536 151 150 148
0.03549056 0.14413822 0.45896536 147 147 145
0.03628384 0.14413822 0.45896536 143 142 140
0.03707713 0.14413822 0.45896536 139 140 138
0.03784479 0.14404070 0.45865482 137 138 137
0.03861141 0.14394331 0.45834473 132 133 133
0.03940362 0.14394331 0.45834473 134 134 134
0.04016868 0.14384605 0.45803502 139 139 138
0.04096035 0.14384605 0.45803502 144 144 143
0.36865488 0.33368677 1.06252635 162 156 151
0.36818302 0.33160773 1.05590630 159 151 147
0.21973740 0.16723657 0.53251517 163 160 152
0.21979451 0.16658229 0.53043181 163 160 152
0.21985118 0.16593309 0.52836466 163 160 152
0.22081709 0.16528894 0.52631354 163 160 152
0.84762305 0.28272530 0.90025479 130 131 127
0.85371405 0.28423518 0.90506256 130 131 127
0.86028844 0.28537822 0.90870219 134 134 131
0.85612100 0.28347823 0.90265226 130 130 128
0.85313714 0.28197637 0.89787000 130 131 126
0.85809869 0.28310126 0.90145195 132 132 127
0.86309999 0.28423518 0.90506256 133 133 128
0.86466432 0.28423518 0.90506256 134 134 127
0.86854792 0.28499618 0.90748572 133 133 126
0.86895317 0.28461519 0.90627253 132 132 124
0.86473924 0.28272530 0.90025479 132 132 123
0.86171770 0.28123137 0.89549780 132 132 123
0.86099076 0.28049031 0.89313811 127 127 115
0.86026764 0.27975315 0.89079088 124 122 107
0.86067635 0.27938601 0.88962185 131 129 114
0.43995595 0.14155063 0.45072597 146 142 130
0.44014969 0.14136265 0.45012739 150 145 133
0.00293591 0.19584981 0.62021214 169 169 162
0.00399692 0.19531372 0.61851448 166 166 158
0.00825806 0.19495796 0.61738783 135 131 132
0.00930821 0.19460349 0.61626530 131 127 130
0.01037338 0.19460349 0.61626530 136 133 136
0.03098257 0.14611866 0.46272480 174 173 168
0.03173903 0.14591946 0.46209395 175 172 164
0.03236124 0.14512803 0.45958769 172 172 163
0.03306593 0.14473552 0.45834473 168 168 161
0.03385814 0.14473552 0.45834473 161 160 156
0.03465036 0.14473552 0.45834473 153 152 150
0.03544256 0.14473552 0.45834473 148 148 146
0.03625929 0.14483345 0.45865482 149 148 146
0.03702699 0.14473552 0.45834473 138 139 137
0.03781920 0.14473552 0.45834473 137 138 136
0.03858532 0.14463772 0.45803502 137 138 136
0.03935041 0.14454006 0.45772576 137 137 135
0.04014155 0.14454006 0.45772576 143 142 140
0.04090508 0.14444253 0.45741689 154 153 149
0.04169568 0.14444253 0.45741689 159 159 152
0.36923361 0.33604997 1.06419444 153 151 146
0.36818302 0.33343276 1.05590630 147 142 139
0.36771700 0.33136818 1.04936814 140 135 134
0.21956491 0.16802499 0.53209722 149 148 146
0.21979451 0.16749910 0.53043181 154 153 149
0.22002266 0.16697647 0.52877676 153 153 147
0.84832019 0.28503838 0.90265226 145 146 137
0.84988034 0.28503838 0.90265226 138 139 135
0.85485536 0.28618160 0.90627253 130 131 127
0.86218506 0.28810745 0.91237128 129 130 127
0.86144322 0.28733400 0.90992194 130 131 129
0.85840702 0.28579950 0.90506256 129 130 128
0.85768116 0.28503838 0.90265226 131 132 130
0.86153567 0.28579950 0.90506256 132 132 131
0.86425388 0.28618160 0.90627253 131 132 130
0.86697936 0.28656471 0.90748572 134 134 129
0.87087953 0.28733400 0.90992194 135 135 129
0.87011641 0.28656471 0.90748572 135 135 129
0.86819816 0.28541845 0.90385580 137 137 130
0.86629522 0.28428131 0.90025479 138 138 131
0.86440742 0.28315321 0.89668232 137 137 130
0.86481333 0.28277919 0.89549780 131 131 122
0.86407822 0.28203404 0.89313811 127 127 118
0.00293322 0.19674179 0.61964518 170 169 160
0.00399692 0.19638278 0.61851448 166 166 157
0.00825055 0.19584669 0.61682606 140 136 137
0.00929976 0.19549093 0.61570555 138 134 136
0.01035455 0.19531353 0.61514688 136 133 135
0.01140743 0.19513646 0.61458915 141 141 143
0.01239106 0.19390588 0.61071336 144 144 145
0.03098257 0.14691845 0.46272480 173 172 170
0.03173903 0.14671814 0.46209395 172 171 167
0.03236124 0.14592238 0.45958769 170 170 163
0.03304359 0.14542940 0.45803502 169 168 162
0.03383527 0.14542940 0.45803502 163 162 159
0.03460356 0.14533120 0.45772576 158 158 156
0.03541862 0.14542940 0.45803502 153 153 151
0.03623478 0.14552774 0.45834473 150 150 148
