ply
format ascii 1.0
element vertex 1060
property float x
property float y
property float z
property uchar red
property uchar green
property uchar blue
end_header
0.07658819 0.22457951 0.66394889 144 151 161
0.07758380 0.22414047 0.66265088 147 154 163
0.07865225 0.22392157 0.66200376 151 158 166
0.20931429 0.17450204 0.51589942 123 127 135
0.20972715 0.17410454 0.51472425 120 124 135
0.21061681 0.17410454 0.51472425 118 121 133
1.16864038 0.47180182 1.39483917 154 160 161
1.15912616 0.46699733 1.38063514 155 161 162
1.14060521 0.45859137 1.35578370 156 162 163
1.13387752 0.45495176 1.34502351 159 165 165
1.12725580 0.45136946 1.33443272 160 166 166
1.12734306 0.45048270 1.33181107 160 166 166
1.12743008 0.44959939 1.32919967 160 166 166
1.12312090 0.44697016 1.32142663 158 164 164
1.12989140 0.44784313 1.32400751 157 158 158
1.14334524 0.45225975 1.33706474 156 157 157
1.15706718 0.45676431 1.35038221 152 155 156
1.15480042 0.45495176 1.34502351 144 147 148
1.15027833 0.45225975 1.33706474 135 137 139
1.13029552 0.44351196 1.31120276 129 130 133
1.10687041 0.43345121 1.28145909 130 131 134
1.06480241 0.41614464 1.23029375 130 130 136
1.04604590 0.40799946 1.20621324 126 126 133
1.03523636 0.40298012 1.19137406 122 123 130
1.03729558 0.40298012 1.19137406 121 128 134
1.04302096 0.40440157 1.19557643 121 129 135
1.04141390 0.40298012 1.19137406 121 129 135
1.03981829 0.40156862 1.18720114 121 129 135
1.03823364 0.40016699 1.18305731 122 130 136
1.03486037 0.39808279 1.17689562 125 134 139
1.03330672 0.39670536 1.17282331 130 138 142
1.03176367 0.39533740 1.16877902 135 143 148
1.03023136 0.39397883 1.16476262 142 148 153
1.03047395 0.39330307 1.16276479 144 149 154
1.03071582 0.39262959 1.16077375 144 149 154
1.00854468 0.38343760 1.13359845 145 151 154
0.98257136 0.37283853 1.10226321 145 150 153
0.97027737 0.36746103 1.08636510 145 151 154
0.65748757 0.22348508 0.66071332 125 128 134
0.65862960 0.22348508 0.66071332 120 124 131
0.65848798 0.22305028 0.65942788 118 122 130
0.65898669 0.22283351 0.65878701 115 122 130
0.66012537 0.22283351 0.65878701 113 119 128
0.66062200 0.22261718 0.65814739 110 117 126
0.65983772 0.22197066 0.65623605 108 116 124
0.66033274 0.22175598 0.65560138 107 115 123
0.66339058 0.22240125 0.65750909 104 112 121
0.66972375 0.22414047 0.66265088 99 107 117
0.66437471 0.22197066 0.65623605 93 100 111
0.66486531 0.22175598 0.65560138 97 105 114
0.66535503 0.22154173 0.65496796 100 110 117
0.66648704 0.22154173 0.65496796 101 111 118
0.56649941 0.17802460 0.52631354 145 154 155
-0.30840391 0.25895211 0.76167625 85 105 116
-0.30571342 0.25779349 0.75826830 87 107 118
-0.30440283 0.25779349 0.75826830 87 103 115
-0.30309221 0.25779349 0.75826830 84 98 112
-0.30144441 0.25750545 0.75742108 84 94 106
-0.29913262 0.25664517 0.75489068 79 89 100
-0.29617873 0.25522411 0.75071079 77 88 93
-0.28677836 0.25494179 0.74988037 85 91 107
-0.28328863 0.25298285 0.74411839 90 96 110
-0.27924377 0.25050801 0.73683894 97 102 115
-0.27736723 0.24996461 0.73524064 101 107 121
-0.15650116 0.16616249 0.48874682 98 110 131
-0.15610661 0.16664307 0.49016041 103 115 136
-0.15525940 0.16664307 0.49016041 104 118 138
-0.15356499 0.16664307 0.49016041 100 114 131
-0.15282829 0.16676365 0.49051508 106 117 134
-0.15198047 0.16676365 0.49051508 106 118 133
-0.14421985 0.16859354 0.49589747 90 107 121
-0.14325793 0.16847029 0.49553499 91 106 121
-0.14188287 0.16785678 0.49373040 89 101 120
0.09760190 0.66802138 1.96490383 170 173 179
0.10070617 0.66609067 1.95922494 171 174 178
0.10260973 0.65660220 1.93131578 171 175 178
0.10329916 0.64018714 1.88303292 168 174 176
0.10480705 0.62969226 1.85216355 165 166 172
0.10569803 0.61622292 1.81254506 155 156 162
0.10854065 0.61457968 1.80771160 145 147 153
0.11107274 0.61131930 1.79812157 139 141 144
0.11418065 0.61131930 1.79812157 131 134 138
0.06971591 0.22954917 0.67519110 108 116 125
0.07095359 0.22977804 0.67586422 110 118 127
0.07162192 0.22818552 0.67118007 118 125 136
0.07235218 0.22683796 0.66721636 123 130 141
0.07336100 0.22639231 0.66590554 129 136 147
0.07436586 0.22594841 0.66459984 135 142 153
0.07551457 0.22594841 0.66459984 139 146 157
0.07636381 0.22506580 0.66200376 145 153 162
0.21280104 0.17459649 0.51355445 117 121 133
0.21368869 0.17459649 0.51355445 102 106 120
0.21441388 0.17446433 0.51316565 108 112 127
1.16149163 0.47034156 1.38345277 152 160 162
1.14289093 0.46185845 1.35850072 154 162 164
1.13387752 0.45727652 1.34502351 156 163 165
1.12947917 0.45457074 1.33706474 158 165 167
1.13179028 0.45457074 1.33706474 160 166 168
1.12743008 0.45189682 1.32919967 160 166 168
1.12093580 0.44838011 1.31885576 161 167 169
1.12540483 0.44925413 1.32142663 161 166 168
1.12549484 0.44838011 1.31885576 160 164 165
1.16402352 0.46185845 1.35850072 158 161 161
1.15709627 0.45818561 1.34769750 153 157 157
1.15027833 0.45457074 1.33706474 144 148 148
1.13029552 0.44577828 1.31120276 132 134 136
1.06868148 0.41979486 1.23477566 134 136 140
1.04978180 0.41154888 1.21052110 131 134 140
1.03888798 0.40646803 1.19557643 123 126 132
1.04463923 0.40790686 1.19980860 122 130 134
1.04856884 0.40863010 1.20193589 124 134 138
1.04324746 0.40575242 1.19347155 126 136 140
1.04164255 0.40432873 1.18928397 125 136 140
1.04187024 0.40362060 1.18720114 127 137 141
1.03666019 0.40081280 1.17894232 131 140 144
1.03509748 0.39942351 1.17485583 136 145 147
1.03354573 0.39804381 1.17079771 141 150 152
1.03200448 0.39667362 1.16676736 145 152 154
1.03047395 0.39531282 1.16276479 150 156 158
1.02895391 0.39396131 1.15878952 154 160 162
1.00518286 0.38411230 1.12981975 154 159 160
0.96717745 0.36815873 1.08289433 153 158 159
0.65927213 0.22484621 0.66135788 122 126 133
0.65977156 0.22462706 0.66071332 116 120 128
0.65962774 0.22419006 0.65942788 110 115 124
0.66076750 0.22419006 0.65942788 105 110 119
0.66062200 0.22375473 0.65814739 100 106 115
0.66047710 0.22332110 0.65687191 95 103 112
0.66097194 0.22310491 0.65623605 96 104 112
0.66532654 0.22419006 0.65942788 97 106 114
0.67235267 0.22617014 0.66525203 99 108 118
0.66630977 0.22375473 0.65814739 98 107 117
0.66550893 0.22310491 0.65623605 96 106 115
-0.30736783 0.25939423 0.75911742 92 103 118
-0.30435169 0.25794995 0.75489068 98 106 121
-0.30270982 0.25766301 0.75405097 88 100 114
-0.30174214 0.25794995 0.75489068 80 92 105
-0.30010319 0.25766301 0.75405097 80 88 98
-0.29813659 0.25709108 0.75237721 77 85 93
-0.29585111 0.25623789 0.74988037 70 78 84
-0.29390475 0.25567225 0.74822497 62 69 78
-0.29196700 0.25510910 0.74657691 62 69 80
-0.28971937 0.25426900 0.74411839 66 73 84
-0.28780138 0.25371200 0.74248832 70 77 88
-0.28557968 0.25288105 0.74005657 74 81 94
-0.28586093 0.25426900 0.74411839 83 90 103
-0.28614530 0.25567225 0.74822497 89 95 111
-0.28174230 0.25288105 0.74005657 94 100 116
-0.27863804 0.25123543 0.73524064 101 107 123
-0.27676687 0.25069162 0.73364919 106 113 127
-0.27490377 0.25015017 0.73206460 109 116 129
-0.27275482 0.24934235 0.72970057 112 119 132
-0.27091035 0.24880672 0.72813302 111 118 131
-0.26849824 0.24774230 0.72501802 109 116 129
-0.26639038 0.24694994 0.72269917 108 115 128
-0.26110846 0.24434499 0.71507579 95 106 115
-0.15661408 0.16712774 0.48909944 93 105 126
-0.15610661 0.16749027 0.49016041 91 104 126
-0.15525940 0.16749027 0.49016041 97 111 133
-0.15430063 0.16736926 0.48980623 102 115 136
-0.15356499 0.16749027 0.49016041 98 109 130
-0.15282829 0.16761146 0.49051508 105 115 133
-0.15187059 0.16749027 0.49016041 105 117 134
-0.15113266 0.16761146 0.49051508 112 125 141
-0.15028484 0.16761146 0.49051508 117 134 147
-0.14390403 0.16907960 0.49481156 93 112 127
-0.14294446 0.16895628 0.49445066 92 104 127
-0.14167649 0.16846476 0.49301225 86 97 119
0.09788562 0.67336935 1.97061586 169 173 176
0.10070617 0.66947705 1.95922494 170 174 177
0.10260973 0.65994030 1.93131578 169 173 176
0.10329916 0.64344180 1.88303292 167 173 175
0.10509419 0.63462752 1.85723794 165 171 173
0.10626630 0.62268561 1.82228994 162 168 170
0.10854065 0.61770415 1.80771160 148 156 157
0.06950822 0.23002885 0.67317957 110 117 130
0.07074200 0.23025751 0.67384875 112 119 132
0.07148037 0.22889234 0.66985363 117 124 137
0.07235218 0.22799119 0.66721636 121 128 140
0.07328901 0.22731997 0.66525203 129 136 147
0.20995341 0.17682371 0.51747471 146 154 156
0.21052641 0.17655416 0.51668584 145 153 158
0.21141946 0.17655416 0.51668584 139 147 153
0.21166718 0.17601752 0.51511538 133 141 147
0.21207407 0.17561717 0.51394379 133 138 146
0.21280104 0.17548414 0.51355445 127 130 140
0.21385069 0.17561717 0.51394379 115 116 127
0.21441388 0.17535129 0.51316565 119 119 131
0.21465088 0.17482193 0.51161647 123 123 134
0.21537262 0.17469008 0.51123065 123 124 134
1.15677011 0.47081107 1.37782896 152 161 162
1.13832855 0.46235341 1.35307753 154 163 164
1.13163221 0.45869118 1.34236014 156 164 166
1.12947917 0.45688176 1.33706474 158 166 167
1.13179028 0.45688176 1.33706474 160 168 169
1.12964499 0.45508656 1.33181107 161 167 169
1.12312090 0.45153812 1.32142663 161 167 169
1.12321532 0.45065963 1.31885576 161 167 168
1.12113249 0.44891289 1.31374383 162 166 167
1.16402352 0.46420652 1.35850072 153 157 157
1.15709627 0.46051502 1.34769750 147 151 151
1.14801395 0.45598239 1.33443272 142 146 146
1.12811351 0.44717965 1.30867147 135 139 142
1.11107111 0.43954280 1.28632224 130 134 137
1.08049011 0.42659125 1.24841964 127 130 135
1.05733418 0.41661701 1.21922994 127 130 136
1.04626906 0.41143703 1.20407081 126 129 135
1.06730771 0.41887712 1.22584414 126 133 138
1.05984378 0.41512376 1.21485996 126 137 140
1.04693377 0.40925628 1.19768882 127 139 142
1.04347312 0.40709850 1.19137406 128 140 143
1.04369807 0.40638429 1.18928397 128 140 143
1.03846622 0.40355235 1.18099630 131 142 145
1.03509748 0.40145415 1.17485583 138 146 150
1.03354573 0.40006745 1.17079771 148 156 160
1.03200448 0.39869028 1.16676736 153 161 164
1.03047395 0.39732257 1.16276479 152 161 162
1.03071582 0.39664221 1.16077375 151 160 161
1.00686097 0.38670960 1.13170588 152 158 159
0.96409726 0.36885199 1.07944560 153 158 159
0.66056103 0.22643113 0.66265088 124 129 134
0.66106015 0.22621001 0.66200376 116 121 127
0.66155833 0.22598931 0.66135788 108 113 121
0.66270143 0.22598931 0.66135788 101 106 115
0.66190726 0.22532982 0.65942788 94 99 108
0.66175956 0.22489229 0.65814739 89 95 106
0.66225415 0.22467415 0.65750909 88 95 106
0.66857839 0.22643113 0.66265088 90 97 108
0.67235267 0.22731997 0.66525203 91 99 110
0.66956007 0.22598931 0.66135788 91 100 110
0.66939706 0.22554922 0.66006994 93 102 112
0.67447841 0.22687468 0.66394889 96 108 115
0.67298937 0.22598931 0.66135788 102 114 121
-0.31068781 0.26129150 0.76082134 88 97 113
-0.30599719 0.25954375 0.75573224 94 102 119
-0.30333829 0.25839150 0.75237721 95 103 120
-0.30170301 0.25810504 0.75154305 94 104 114
-0.30040404 0.25810504 0.75154305 86 96 104
-0.29910505 0.25810504 0.75154305 85 93 100
-0.29747626 0.25781921 0.75071079 81 89 95
-0.29552421 0.25724941 0.74905175 72 80 86
-0.29325739 0.25639948 0.74657691 69 77 84
-0.29068643 0.25527492 0.74330246 69 77 85
-0.28813794 0.25416020 0.74005657 67 78 84
-0.28654599 0.25388303 0.73924953 71 82 88
-0.28464743 0.25333050 0.73764074 81 92 101
-0.28337249 0.25333050 0.73764074 87 98 107
-0.28457478 0.25555515 0.74411839 100 106 121
-0.28112850 0.25360647 0.73844427 115 122 137
-0.27833614 0.25223264 0.73444402 121 127 143
-0.27616909 0.25141549 0.73206460 114 121 135
-0.27460724 0.25114426 0.73127490 114 120 133
-0.27275482 0.25060359 0.72970057 109 116 129
-0.27091035 0.25006524 0.72813302 111 118 131
-0.26849824 0.24899544 0.72501802 109 116 127
-0.26639038 0.24819908 0.72269917 100 109 119
-0.26457712 0.24767099 0.72116154 98 109 120
-0.26138419 0.24584027 0.71583086 86 99 114
-0.15548424 0.16858126 0.49087027 94 104 127
-0.15452392 0.16845928 0.49051508 94 103 127
-0.15378739 0.16858126 0.49087027 91 100 123
-0.15293896 0.16858126 0.49087027 97 106 127
-0.15209053 0.16858126 0.49087027 102 122 138
-0.15135169 0.16870342 0.49122596 108 132 146
-0.15115987 0.16944012 0.49337107 104 129 141
-0.15008865 0.16919385 0.49265397 109 133 145
-0.14775641 0.17043245 0.49626049 107 126 134
-0.14689866 0.17043245 0.49626049 104 122 130
-0.14614791 0.17055732 0.49662405 98 116 125
-0.14507696 0.17030779 0.49589747 96 114 127
-0.14390403 0.16993484 0.49481156 96 113 128
-0.14294446 0.16981089 0.49445066 104 110 129
-0.14167649 0.16931690 0.49301225 116 122 135
-0.13990858 0.16821584 0.48980623 134 139 148
0.09559110 0.68473744 1.99379957 164 167 172
0.09845805 0.68073314 1.98213995 165 169 172
0.10129167 0.67677540 1.97061586 166 169 172
0.10379256 0.67092431 1.95357883 169 171 174
0.10416722 0.65213090 1.89885676 167 170 172
0.10596514 0.64312357 1.87262940 163 168 170
0.10830428 0.63783765 1.85723794 160 166 168
0.03787540 0.16821584 0.48980623 138 139 144
0.03869403 0.16809440 0.48945260 143 145 149
0.03954001 0.16809440 0.48945260 141 144 148
0.04174639 0.16676986 0.48559588 134 134 140
0.20995341 0.17771812 0.51747471 151 157 161
0.21084782 0.17771812 0.51747471 147 155 158
0.21158072 0.17758256 0.51707995 146 154 157
0.21166718 0.17690785 0.51511538 135 142 146
0.21207407 0.17650548 0.51394379 131 137 142
0.21296237 0.17650548 0.51394379 127 130 136
0.21385069 0.17650548 0.51394379 128 129 136
0.21441388 0.17623825 0.51316565 128 128 135
0.21465088 0.17570621 0.51161647 132 132 140
0.21521032 0.17544140 0.51084542 137 137 144
0.21625625 0.17557371 0.51123065 137 137 145
0.21697624 0.17544140 0.51084542 141 141 149
0.21785919 0.17544140 0.51084542 142 143 151
0.21824874 0.17504567 0.50969309 143 146 153
1.16385090 0.47707117 1.38912261 153 160 162
1.15442371 0.47223273 1.37503421 153 162 163
1.13606095 0.46376640 1.35038221 154 163 164
1.13163221 0.46101135 1.34236014 158 166 167
1.13171136 0.46010026 1.33970726 163 169 170
1.13402700 0.46010026 1.33970726 165 171 172
1.13410127 0.45919275 1.33706474 168 172 172
1.13194692 0.45738846 1.33181107 167 171 170
1.13202488 0.45649162 1.32919967 162 166 165
1.12989140 0.45470846 1.32400751 161 163 163
1.16402352 0.46655458 1.35850072 153 155 156
1.15940118 0.46376640 1.35038221 145 147 148
1.15027833 0.45919275 1.33706474 137 140 141
1.13248599 0.45118359 1.31374383 134 137 142
1.12171352 0.44599757 1.29864335 131 133 140
1.06004393 0.41647717 1.21268666 128 137 141
1.04715383 0.41060093 1.19557643 129 138 142
1.04553235 0.40915769 1.19137406 129 139 143
1.03846622 0.40559360 1.18099630 130 141 144
1.03330672 0.40278673 1.17282331 133 141 146
1.03176367 0.40139782 1.16877902 139 147 151
1.03023136 0.40001845 1.16476262 144 153 156
1.02870953 0.39864850 1.16077375 145 153 155
1.02895391 0.39796707 1.15878952 145 154 155
0.66185498 0.22802226 0.66394889 132 137 142
0.66300255 0.22802226 0.66394889 124 129 134
0.66350031 0.22779915 0.66329926 115 120 127
0.66399705 0.22757648 0.66265088 107 112 120
0.66319752 0.22691104 0.66071332 99 104 112
0.66240269 0.22624950 0.65878701 96 101 111
0.66289711 0.22602984 0.65814739 95 99 110
0.67054480 0.22824581 0.66459984 93 97 109
0.67367494 0.22891910 0.66656029 91 98 109
0.67284220 0.22824581 0.66459984 87 96 106
0.67465234 0.22846980 0.66525203 84 93 102
0.67846543 0.22937018 0.66787374 90 100 108
0.67895091 0.22914442 0.66721636 98 108 115
-0.30999199 0.26201838 0.75911742 87 95 111
-0.30730343 0.26084995 0.75573224 89 97 112
-0.30497721 0.25998047 0.75321317 90 98 114
-0.30266646 0.25911674 0.75071079 95 103 117
-0.30103552 0.25883010 0.74988037 103 111 117
-0.29973942 0.25883010 0.74988037 99 107 113
-0.29844332 0.25883010 0.74988037 95 103 107
-0.29714721 0.25883010 0.74988037 89 97 102
-0.29519802 0.25825873 0.74822497 83 91 97
-0.29261288 0.25712353 0.74493611 77 87 92
-0.28973338 0.25571850 0.74086541 73 85 90
-0.28782374 0.25516075 0.73924953 71 83 86
-0.28623384 0.25488281 0.73844427 82 93 96
-0.28433803 0.25432870 0.73683894 89 100 105
-0.28364074 0.25599825 0.74167597 112 116 127
-0.28082258 0.25460544 0.73764074 118 122 134
-0.27833614 0.25350207 0.73444402 113 117 131
-0.27616909 0.25268078 0.73206460 114 118 130
-0.27490377 0.25268078 0.73206460 117 121 133
-0.27304873 0.25213623 0.73048687 110 117 128
-0.27120167 0.25159401 0.72891593 109 116 128
-0.26878572 0.25051650 0.72579426 107 114 125
-0.26667470 0.24971442 0.72347051 100 109 122
-0.26514125 0.24944820 0.72269917 96 105 120
-0.15644597 0.16955248 0.49122596 88 94 117
-0.15548424 0.16942970 0.49087027 87 93 116
-0.15463582 0.16942970 0.49087027 79 87 111
-0.15389884 0.16955248 0.49122596 77 88 110
-0.15304978 0.16955248 0.49122596 91 110 130
-0.15209053 0.16942970 0.49087027 103 126 145
-0.15157136 0.16979855 0.49193892 105 129 148
-0.15149063 0.17066550 0.49445066 107 131 148
-0.15041658 0.17041691 0.49373040 113 136 152
-0.14934567 0.17016903 0.49301225 121 139 153
-0.14883207 0.17154136 0.49698815 112 129 139
-0.14786465 0.17141569 0.49662405 109 124 137
-0.14711405 0.17154136 0.49698815 104 117 131
-0.14625505 0.17154136 0.49698815 105 116 130
-0.14507696 0.17116490 0.49589747 107 117 134
-0.14400916 0.17091484 0.49517301 108 117 133
-0.14315328 0.17091484 0.49517301 122 128 137
-0.14198627 0.17054112 0.49409026 136 140 150
-0.14021252 0.16942970 0.49087027 149 152 162
0.10188402 0.68415910 1.98213995 161 165 168
0.10469772 0.68018144 1.97061586 165 168 171
0.10594786 0.66661656 1.93131578 163 164 166
0.10685065 0.65176159 1.88827813 158 160 162
0.10950433 0.64815074 1.87781680 163 164 166
0.03869403 0.16894037 0.48945260 141 143 150
0.03954001 0.16894037 0.48945260 146 146 154
0.04032776 0.16869676 0.48874682 142 142 149
0.04102463 0.16809082 0.48699126 142 142 149
0.04168667 0.16736940 0.48490116 140 140 147
0.04246403 0.16713029 0.48420846 139 139 148
0.21043533 0.17902251 0.51866245 155 163 164
0.21117023 0.17888564 0.51826596 150 158 159
0.21190400 0.17874898 0.51787001 147 156 157
0.21198936 0.17806880 0.51589942 142 147 151
0.21223497 0.17752838 0.51433372 135 140 144
0.21312396 0.17752838 0.51433372 130 130 137
0.21401294 0.17752838 0.51433372 131 132 139
0.21441388 0.17712522 0.51316565 135 135 142
0.21481301 0.17672388 0.51200289 136 138 144
0.21553516 0.17659050 0.51161647 136 139 145
0.21641946 0.17659050 0.51161647 142 146 149
0.21730375 0.17659050 0.51161647 147 151 154
0.21835282 0.17672388 0.51200289 147 150 153
0.21907233 0.17659050 0.51161647 146 149 153
0.21847264 0.17539911 0.50816482 144 147 152
1.13410127 0.46150377 1.33706474 168 173 173
1.13194692 0.45969039 1.33181107 169 173 172
1.13424885 0.45969039 1.33181107 165 169 168
1.13210249 0.45789123 1.32659853 160 162 162
1.17106402 0.47173873 1.36671746 154 155 155
1.16171539 0.46703076 1.35307753 149 150 151
1.15255153 0.46241584 1.33970726 141 142 143
1.13689256 0.45521870 1.31885576 135 136 139
1.09098184 0.43249983 1.25303483 129 129 138
1.07918406 0.42697522 1.23702896 127 132 139
1.05459368 0.41559932 1.20407081 130 137 142
1.04553235 0.41121688 1.19137406 129 137 142
1.03846622 0.40763485 1.18099630 131 139 144
1.03152204 0.40411469 1.17079771 134 142 148
1.02998781 0.40272361 1.16676736 136 144 150
1.02846420 0.40134203 1.16276479 138 146 152
1.02695107 0.39996994 1.15878952 138 146 150
0.66056103 0.22872181 0.66265088 141 146 148
0.66170639 0.22872181 0.66265088 134 138 141
0.66285169 0.22872181 0.66265088 126 131 135
0.66334862 0.22849844 0.66200376 120 124 131
0.66255176 0.22783098 0.66006994 111 115 122
0.66175956 0.22716740 0.65814739 104 109 116
0.66161245 0.22672714 0.65687191 100 105 114
0.66792548 0.22849844 0.66200376 96 101 110
0.67367494 0.23007120 0.66656029 92 99 107
0.67284220 0.22939453 0.66459984 90 98 106
0.67465234 0.22961964 0.66525203 87 95 103
0.67846543 0.23052454 0.66787374 92 101 109
0.67895091 0.23029765 0.66721636 99 109 116
-0.31235340 0.26421809 0.76167625 88 94 110
-0.30895406 0.26244876 0.75657570 87 93 109
-0.30627906 0.26128232 0.75321317 88 95 110
-0.30430099 0.26070300 0.75154305 88 95 105
-0.30199757 0.25983879 0.74905175 96 103 112
-0.30070290 0.25983879 0.74905175 108 116 122
-0.29940823 0.25983879 0.74905175 112 120 126
-0.29811355 0.25983879 0.74905175 108 116 120
-0.29681888 0.25983879 0.74905175 106 115 118
-0.29487255 0.25926581 0.74740005 102 111 114
-0.29229167 0.25812745 0.74411839 88 100 103
-0.28941706 0.25671846 0.74005657 83 95 98
-0.28751019 0.25615916 0.73844427 85 95 98
-0.28623384 0.25615916 0.73844427 89 99 102
-0.28433803 0.25560227 0.73683894 98 106 112
-0.28306445 0.25560227 0.73683894 106 112 120
-0.28395140 0.25756198 0.74248832 112 114 127
-0.28112850 0.25615916 0.73844427 112 116 129
-0.27833614 0.25477150 0.73444402 112 117 129
-0.27676687 0.25449577 0.73364919 113 118 128
-0.27549881 0.25449577 0.73364919 114 118 127
-0.27393430 0.25422063 0.73285604 108 116 123
-0.27207932 0.25367215 0.73127490 107 115 122
-0.26936251 0.25231126 0.72735178 105 112 123
-0.26695961 0.25123301 0.72424340 102 109 123
-0.15661408 0.16966385 0.48909944 96 104 115
-0.15633267 0.17027813 0.49087027 94 101 117
-0.15548424 0.17027813 0.49087027 91 96 114
-0.15463582 0.17027813 0.49087027 90 95 118
-0.15389884 0.17040151 0.49122596 95 105 127
-0.15304978 0.17040151 0.49122596 99 116 136
-0.15220074 0.17040151 0.49122596 105 125 145
-0.15179168 0.17089687 0.49265397 111 131 151
-0.15160121 0.17164533 0.49481156 113 135 151
-0.15052623 0.17139511 0.49409026 121 141 156
-0.14956322 0.17127028 0.49373040 122 139 153
-0.14872302 0.17227407 0.49662405 112 126 138
-0.14786465 0.17227407 0.49662405 109 119 135
-0.14700627 0.17227407 0.49662405 105 115 130
-0.14625505 0.17240037 0.49698815 106 116 131
-0.14507696 0.17202201 0.49589747 100 106 122
-0.14400916 0.17177071 0.49517301 114 118 134
-0.14315328 0.17177071 0.49517301 136 138 150
-0.14219356 0.17164533 0.49481156 147 149 159
-0.14061981 0.17077276 0.49229619 162 165 173
0.10530999 0.68758506 1.98213995 158 161 167
0.10747889 0.67963612 1.95922494 160 160 162
0.11054577 0.67767751 1.95357883 159 159 161
0.11392237 0.67767751 1.95357883 157 157 159
0.03779348 0.16954152 0.48874682 135 141 148
0.03872199 0.16990903 0.48980623 144 148 155
0.03956858 0.16990903 0.48980623 151 154 162
0.04035685 0.16966385 0.48909944 148 152 159
0.04105412 0.16905399 0.48734137 149 152 159
0.04168667 0.16820751 0.48490116 152 152 161
0.04243372 0.16784732 0.48386285 147 147 156
0.04302436 0.16689432 0.48111558 146 146 155
0.04363913 0.16606927 0.47873718 151 151 160
0.21133178 0.17991897 0.51866245 156 162 164
0.21206601 0.17978142 0.51826596 150 157 159
0.21231250 0.17923330 0.51668584 147 152 154
0.21255752 0.17868853 0.51511538 139 144 146
0.21377274 0.17896050 0.51589942 133 136 141
0.21450119 0.17882441 0.51550710 131 134 139
0.21473899 0.17828210 0.51394379 135 138 144
0.21513799 0.17787753 0.51277751 137 140 146
0.21602428 0.17787753 0.51277751 137 140 146
0.21691057 0.17787753 0.51277751 141 145 149
0.21796174 0.17801218 0.51316565 143 147 150
0.21884871 0.17801218 0.51316565 144 148 149
0.21956946 0.17787753 0.51277751 145 149 151
0.21962510 0.17720731 0.51084542 145 149 152
0.21984537 0.17667475 0.50931019 144 148 151
1.12751663 0.46018413 1.32659853 161 165 164
1.12980962 0.46018413 1.32659853 159 163 162
1.12768888 0.45839006 1.32142663 158 162 161
1.16870773 0.47314706 1.36396754 146 149 149
1.15940118 0.46843445 1.35038221 142 144 144
1.15255153 0.46473143 1.33970726 140 141 141
1.14133358 0.45928535 1.32400751 135 136 137
1.12819743 0.45309073 1.30614996 128 129 133
1.09113073 0.43386364 1.25072300 128 131 136
1.08132219 0.42911330 1.23702896 129 133 139
1.04922032 0.41473386 1.19557643 130 136 142
1.04027855 0.41039109 1.18305731 132 138 144
1.03509748 0.40754610 1.17485583 136 143 148
1.03176367 0.40543810 1.16877902 141 149 154
1.01997685 0.39924294 1.15091991 146 153 157
1.00490487 0.39257780 1.13170588 150 156 158
0.98226339 0.38298711 1.10405838 150 156 158
0.65927213 0.22941864 0.66135788 151 155 156
0.66041523 0.22941864 0.66135788 146 149 150
0.66155833 0.22941864 0.66135788 137 140 141
0.66205555 0.22919503 0.66071332 131 134 138
0.66190726 0.22874913 0.65942788 122 125 130
0.66111767 0.22808351 0.65750909 113 116 121
0.66033274 0.22742176 0.65560138 106 112 117
0.66403466 0.22830495 0.65814739 103 108 113
0.67235267 0.23076947 0.66525203 95 102 107
0.67086905 0.22986715 0.66265088 84 94 99
0.67399091 0.23054323 0.66459984 89 99 104
0.67846543 0.23167892 0.66787374 98 108 114
0.67895091 0.23145089 0.66721636 107 117 124
-0.31235340 0.26553458 0.76167625 89 96 109
-0.30860963 0.26346239 0.75573224 90 97 108
-0.30627906 0.26258421 0.75321317 89 96 107
-0.30430099 0.26200196 0.75154305 90 98 104
-0.30199757 0.26113346 0.74905175 101 109 115
-0.30070290 0.26113346 0.74905175 111 119 125
-0.29940823 0.26113346 0.74905175 116 124 130
-0.29811355 0.26113346 0.74905175 117 126 129
-0.29681888 0.26113346 0.74905175 117 127 129
-0.29519802 0.26084521 0.74822497 110 121 121
-0.29229167 0.25941357 0.74411839 101 112 113
-0.28941706 0.25799757 0.74005657 98 108 109
-0.28782374 0.25771621 0.73924953 97 105 109
-0.28654599 0.25771621 0.73924953 96 104 109
-0.28464743 0.25715536 0.73764074 99 107 113
-0.28306445 0.25687584 0.73683894 103 110 117
-0.28395140 0.25884533 0.74248832 108 113 122
-0.28112850 0.25743550 0.73844427 110 116 124
-0.27863804 0.25631863 0.73524064 109 117 124
-0.27736723 0.25631863 0.73524064 108 116 122
-0.27579731 0.25604093 0.73444402 106 115 121
-0.27482563 0.25631863 0.73524064 105 115 120
-0.27296272 0.25576383 0.73364919 103 112 120
-0.27023235 0.25438726 0.72970057 105 112 124
-0.26753125 0.25302544 0.72579426 108 115 129
-0.15621956 0.17100273 0.49051508 101 110 119
-0.15537174 0.17100273 0.49051508 95 104 114
-0.15441220 0.17087908 0.49016041 99 105 125
-0.15378739 0.17112656 0.49087027 105 113 132
-0.15293896 0.17112656 0.49087027 106 119 138
-0.15220074 0.17125057 0.49122596 111 125 144
-0.15179168 0.17174838 0.49265397 117 131 149
-0.15160121 0.17250057 0.49481156 124 144 157
-0.15063602 0.17237474 0.49445066 126 143 157
-0.14872302 0.17313243 0.49662405 112 126 135
-0.14775641 0.17300569 0.49626049 110 121 133
-0.14700627 0.17313243 0.49662405 106 116 130
-0.14614791 0.17313243 0.49662405 103 113 128
-0.14507696 0.17287913 0.49589747 104 108 125
-0.14400916 0.17262657 0.49517301 131 136 151
-0.14325793 0.17275275 0.49553499 147 153 161
-0.14229742 0.17262657 0.49517301 155 162 167
0.10530999 0.69101101 1.98213995 157 158 164
0.10779043 0.68500227 1.96490383 155 155 157
0.11150983 0.68699354 1.97061586 152 152 154
0.11491588 0.68699354 1.97061586 151 151 153
0.11832193 0.68699354 1.97061586 147 147 148
0.03700208 0.17063233 0.48945260 139 147 153
0.03776625 0.17026353 0.48839471 144 152 156
0.03869403 0.17063233 0.48945260 149 157 161
0.03956858 0.17075562 0.48980623 151 159 165
0.04035685 0.17050922 0.48909944 152 160 166
0.04102463 0.16977426 0.48699126 152 160 165
0.04168667 0.16904561 0.48490116 155 161 167
0.04243372 0.16868363 0.48386285 157 159 167
0.04299385 0.16760693 0.48077434 158 160 168
0.04363913 0.16689673 0.47873718 161 161 169
0.21165568 0.18109255 0.51945734 159 163 164
0.21239077 0.18095389 0.51905960 156 161 162
0.21279909 0.18053918 0.51787001 147 151 154
0.21320556 0.18012635 0.51668584 139 143 146
0.21458928 0.18053918 0.51787001 136 140 143
0.21515565 0.18026374 0.51707995 135 139 142
0.21490192 0.17930636 0.51433372 136 139 144
0.21546395 0.17903468 0.51355445 137 140 145
0.21740393 0.17917041 0.51394379 136 140 145
0.21829224 0.17917041 0.51394379 136 140 145
0.21918055 0.17917041 0.51394379 135 141 144
0.21990214 0.17903468 0.51355445 135 141 143
0.22062264 0.17889915 0.51316565 136 141 144
0.22117475 0.17862870 0.51238990 136 142 144
1.17342973 0.47742581 1.36947846 143 144 144
1.16403878 0.47265154 1.35578370 133 135 135
1.15483379 0.46797183 1.34236014 129 130 131
1.14806044 0.46429425 1.33181107 130 131 132
1.13696015 0.45888501 1.31629479 128 128 132
1.10115898 0.44090629 1.26472354 124 129 134
1.09314764 0.43683138 1.25303483 126 131 136
1.08727443 0.43362528 1.24383819 128 132 137
1.07952046 0.42968324 1.23253059 129 134 139
1.06614316 0.42352289 1.21485996 130 136 140
1.04597425 0.41388053 1.18720114 136 142 147
1.03892875 0.41028780 1.17689562 145 152 157
0.97590566 0.38240418 1.09691238 153 159 159
0.65912914 0.23011273 0.66006994 153 154 156
0.66027004 0.23011273 0.66006994 147 148 150
0.66076750 0.22988889 0.65942788 140 141 144
0.66062200 0.22944251 0.65814739 132 133 136
0.66047710 0.22899784 0.65687191 123 124 126
0.65969473 0.22833408 0.65496796 114 119 122
0.66210622 0.22877616 0.65623605 106 114 118
0.67103565 0.23146501 0.66394889 102 110 114
0.66760612 0.22988889 0.65942788 100 110 113
0.66939706 0.23011273 0.66006994 103 113 116
0.67580217 0.23191930 0.66525203 108 118 121
0.67628837 0.23169194 0.66459984 115 124 125
-0.30826598 0.26447380 0.75489068 93 101 107
-0.30627906 0.26388606 0.75321317 93 101 107
-0.30430099 0.26330096 0.75154305 99 105 113
-0.30233163 0.26271844 0.74988037 105 110 119
-0.30070290 0.26242813 0.74905175 110 117 126
-0.29973942 0.26271844 0.74988037 115 122 130
-0.29844332 0.26271844 0.74988037 117 125 131
-0.29714721 0.26271844 0.74988037 116 125 130
-0.29519802 0.26213849 0.74822497 115 123 128
-0.29261288 0.26098621 0.74493611 111 119 123
-0.28973338 0.25956005 0.74086541 104 112 116
-0.28782374 0.25899395 0.73924953 100 107 113
-0.28654599 0.25899395 0.73924953 94 100 107
-0.28464743 0.25843030 0.73764074 97 105 111
-0.28337249 0.25843030 0.73764074 95 103 110
-0.28426275 0.26041389 0.74330246 96 104 113
-0.28143504 0.25899395 0.73924953 98 107 114
-0.27894056 0.25786912 0.73603892 102 111 116
-0.27736723 0.25758943 0.73524064 102 112 117
-0.27609643 0.25758943 0.73524064 101 111 116
-0.27512401 0.25786912 0.73603892 103 113 119
-0.27355483 0.25758943 0.73524064 104 113 122
-0.27110785 0.25647673 0.73206460 111 119 129
-0.26839331 0.25509930 0.72813302 120 127 137
-0.15599380 0.17160220 0.48980623 100 112 119
-0.15525940 0.17172629 0.49016041 106 118 125
-0.15441220 0.17172629 0.49016041 107 114 128
-0.15367611 0.17185055 0.49051508 108 118 133
-0.15282829 0.17185055 0.49051508 112 123 142
-0.15220074 0.17209961 0.49122596 116 126 145
-0.15168144 0.17247455 0.49229619 121 131 150
-0.15149063 0.17322937 0.49445066 125 138 154
-0.14775641 0.17386344 0.49626049 110 125 135
-0.14689866 0.17386344 0.49626049 97 107 121
-0.14614791 0.17399082 0.49662405 106 114 130
-0.14507696 0.17373626 0.49589747 126 133 145
-0.14400916 0.17348243 0.49517301 142 150 159
-0.14325793 0.17360926 0.49553499 152 162 165
-0.14240144 0.17360926 0.49553499 163 173 176
0.10530999 0.69443703 1.98213995 155 157 161
0.10779043 0.68839842 1.96490383 151 152 155
0.11183493 0.69241244 1.97636104 144 144 148
0.11525091 0.69241244 1.97636104 141 141 147
0.11866689 0.69241244 1.97636104 139 139 146
0.03644555 0.17285113 0.49337107 139 147 151
0.03702881 0.17160220 0.48980623 144 154 157
0.03776625 0.17110768 0.48839471 149 159 162
0.03872199 0.17160220 0.48980623 152 162 165
0.03959719 0.17172629 0.49016041 153 161 165
0.04035685 0.17135459 0.48909944 156 163 168
0.04108365 0.17086148 0.48769197 158 165 170
0.04171651 0.17000534 0.48524827 160 168 172
0.04246403 0.16964105 0.48420846 161 169 174
0.04302436 0.16855745 0.48111558 162 169 174
0.04360833 0.16760583 0.47839934 164 167 171
0.21255352 0.18199039 0.51945734 150 151 153
0.21296178 0.18157297 0.51826596 143 146 148
0.21353106 0.18129577 0.51747471 137 141 144
0.21508221 0.18185104 0.51905960 136 140 143
0.21564913 0.18157297 0.51826596 136 140 143
0.21522853 0.18046919 0.51511538 136 140 143
0.21562731 0.18005872 0.51394379 136 140 143
0.21756887 0.18019535 0.51433372 136 140 146
0.21862374 0.18033217 0.51472425 138 142 148
0.21934685 0.18019535 0.51433372 140 144 150
0.22023582 0.18019535 0.51433372 141 146 151
0.22078978 0.17992231 0.51355445 141 148 152
0.22134204 0.17965011 0.51277751 139 147 151
0.22273380 0.18005872 0.51394379 139 148 149
0.32134745 0.17335580 0.49481156 124 128 132
0.32220268 0.17335580 0.49481156 111 115 121
1.15712523 0.47122511 1.34502351 125 127 132
1.15032041 0.46751469 1.33443272 124 126 130
1.14139271 0.46295801 1.32142663 123 125 131
1.10321712 0.44392049 1.26708758 125 130 135
1.09720385 0.44062608 1.25768435 125 131 135
1.09329247 0.43818718 1.25072300 125 132 136
1.08346021 0.43338951 1.23702896 126 133 138
1.07578278 0.42947099 1.22584414 128 136 140
1.06824303 0.42562267 1.21485996 131 140 144
1.05521429 0.41960680 1.19768882 135 144 147
1.04986477 0.41666222 1.18928397 142 151 154
0.65848798 0.23102866 0.65942788 147 148 152
0.65898669 0.23080413 0.65878701 144 144 148
0.65884477 0.23035641 0.65750909 139 140 144
0.65998125 0.23035641 0.65750909 134 135 139
0.65983772 0.22991042 0.65623605 127 128 133
0.65842241 0.22902359 0.65370476 121 122 125
0.65955228 0.22902359 0.65370476 117 118 121
0.66972375 0.23215783 0.66265088 117 118 120
0.66630977 0.23058006 0.65814739 117 124 125
0.66679996 0.23035641 0.65750909 118 127 126
0.67250240 0.23193111 0.66200376 118 127 126
0.67496490 0.23238499 0.66329926 117 126 125
-0.30396399 0.26430690 0.75071079 103 108 115
-0.30070290 0.26372281 0.74905175 107 112 120
-0.29940823 0.26372281 0.74905175 111 117 125
-0.29811355 0.26372281 0.74905175 113 121 128
-0.29649127 0.26343173 0.74822497 113 118 127
-0.29454780 0.26285148 0.74657691 117 120 130
-0.29165140 0.26141199 0.74248832 108 116 123
-0.28941706 0.26055583 0.74005657 96 104 111
-0.28782374 0.26027170 0.73924953 93 100 108
-0.28623384 0.25998816 0.73844427 90 98 106
-0.28464743 0.25970528 0.73764074 90 97 108
-0.28337249 0.25970528 0.73764074 89 96 108
-0.28395140 0.26141199 0.74248832 89 96 111
-0.28143504 0.26027170 0.73924953 90 97 109
-0.27894056 0.25914130 0.73603892 98 105 117
-0.27766839 0.25914130 0.73603892 98 105 118
-0.27639621 0.25914130 0.73603892 101 108 121
-0.27542308 0.25942299 0.73683894 108 115 126
-0.27385184 0.25914130 0.73603892 115 124 133
-0.27169466 0.25829995 0.73364919 120 131 139
-0.26955143 0.25746402 0.73127490 128 136 142
-0.15599380 0.17244880 0.48980623 108 119 126
-0.15525940 0.17257349 0.49016041 108 119 125
-0.15430063 0.17244880 0.48980623 109 118 127
-0.15367611 0.17269836 0.49051508 112 121 134
-0.15282829 0.17269836 0.49051508 116 126 142
-0.15220074 0.17294864 0.49122596 119 129 148
-0.15179168 0.17345141 0.49265397 119 129 147
-0.14775641 0.17472118 0.49626049 109 117 130
-0.14700627 0.17484918 0.49662405 95 103 116
-0.14614791 0.17484918 0.49662405 119 128 140
-0.14507696 0.17459337 0.49589747 137 145 150
-0.14411442 0.17446575 0.49553499 148 157 161
-0.14336273 0.17459337 0.49589747 160 169 172
-0.14240144 0.17446575 0.49553499 175 184 187
-0.00233457 0.37704444 1.07091916 140 149 155
0.10561882 0.69990951 1.98795259 150 153 155
0.10779043 0.69179457 1.96490383 141 142 147
0.11183493 0.69582838 1.97636104 138 138 146
0.11525091 0.69582838 1.97636104 136 136 145
0.11866689 0.69582838 1.97636104 135 134 143
0.03668585 0.17484918 0.49662405 143 152 158
0.03727118 0.17357756 0.49301225 147 157 161
0.03908916 0.17408398 0.49445066 152 161 165
0.03974087 0.17319967 0.49193892 153 161 165
0.04041517 0.17244880 0.48980623 156 163 167
0.04114285 0.17195183 0.48839471 160 167 171
0.04174639 0.17096643 0.48559588 162 170 174
0.04246403 0.17047796 0.48420846 162 170 174
0.04308552 0.16962981 0.48179945 163 171 175
0.04360833 0.16843270 0.47839934 163 171 174
0.21296178 0.18246876 0.51826596 138 139 143
0.21385756 0.18246876 0.51826596 136 140 143
0.21524704 0.18288822 0.51945734 136 140 143
0.21581413 0.18260837 0.51866245 137 141 144
0.21539220 0.18149744 0.51550710 137 140 145
0.21579091 0.18108432 0.51433372 137 140 145
0.21700920 0.18135953 0.51511538 137 140 146
0.21789953 0.18135953 0.51511538 138 141 147
0.21895625 0.18149744 0.51550710 139 143 148
0.21968020 0.18135953 0.51511538 141 146 151
0.22057053 0.18135953 0.51511538 142 147 152
0.22112481 0.18108432 0.51433372 144 151 155
0.22167742 0.18080996 0.51355445 143 150 154
0.22324154 0.18135953 0.51511538 140 148 150
0.22553635 0.18177390 0.51629233 143 149 151
0.22591254 0.18135953 0.51511538 145 150 152
0.22663067 0.18122183 0.51472425 147 151 153
0.32134745 0.17421106 0.49481156 131 134 141
0.32196766 0.17408398 0.49445066 119 122 130
0.32164925 0.17345141 0.49265397 115 117 129
0.32110059 0.17269836 0.49051508 112 114 126
0.32148317 0.17244880 0.48980623 108 110 127
0.32209703 0.17232428 0.48945260 106 109 128
0.32411310 0.17294864 0.49122596 106 109 127
0.32571614 0.17244880 0.48980623 111 115 126
0.32585639 0.17207581 0.48874682 114 118 128
0.32825589 0.17244880 0.48980623 127 132 139
0.32839066 0.17207581 0.48874682 135 140 141
1.15032041 0.46982113 1.33443272 119 121 132
1.14362204 0.46615067 1.32400751 120 123 133
1.11152768 0.44947106 1.27663243 125 135 138
1.09734178 0.44197989 1.25535524 129 139 140
1.08742893 0.43712297 1.24156010 128 139 140
1.07773173 0.43237162 1.22806489 130 140 141
1.07595599 0.43081072 1.22363150 133 143 145
1.06272471 0.42467818 1.20621324 135 146 147
0.65962774 0.23216842 0.65942788 130 131 138
0.65948445 0.23171762 0.65814739 127 127 135
0.65998125 0.23149286 0.65750909 126 126 133
0.66047710 0.23126854 0.65687191 122 122 130
0.65905792 0.23037562 0.65433574 116 116 123
0.66082674 0.23059820 0.65496796 111 110 117
0.67169350 0.23398936 0.66459984 122 121 128
0.66695732 0.23194280 0.65878701 121 126 131
0.66744733 0.23171762 0.65814739 119 128 131
0.67447841 0.23376018 0.66394889 118 126 129
0.67628837 0.23398936 0.66459984 119 126 127
0.67347544 0.23262100 0.66071332 120 128 127
-0.30037099 0.26472497 0.74822497 104 111 117
-0.29907775 0.26472497 0.74822497 106 114 120
-0.29778451 0.26472497 0.74822497 108 116 122
-0.29616436 0.26443309 0.74740005 106 114 122
-0.29422376 0.26385128 0.74575561 104 115 122
-0.29133230 0.26240790 0.74167597 96 107 116
-0.28910145 0.26154941 0.73924953 91 102 111
-0.28751019 0.26126450 0.73844427 89 98 108
-0.28623384 0.26126450 0.73844427 84 93 104
-0.28433803 0.26069653 0.73683894 80 88 104
-0.28337249 0.26098022 0.73764074 78 84 103
-0.28426275 0.26298335 0.74330246 78 81 102
-0.28205022 0.26212111 0.74086541 88 92 110
-0.27954763 0.26098022 0.73764074 103 106 125
-0.27827266 0.26098022 0.73764074 100 106 123
-0.27699772 0.26098022 0.73764074 115 122 137
-0.27602312 0.26126450 0.73844427 123 132 142
-0.27414951 0.26069653 0.73683894 130 141 148
-0.27228400 0.26013103 0.73524064 130 142 147
-0.15599380 0.17329539 0.48980623 110 119 124
-0.15525940 0.17342070 0.49016041 110 118 124
-0.15430063 0.17329539 0.48980623 109 119 124
-0.15367611 0.17354618 0.49051508 111 120 129
-0.15282829 0.17354618 0.49051508 117 126 138
-0.15231112 0.17392373 0.49158219 113 124 140
-0.14775641 0.17557894 0.49626049 106 113 127
-0.14614791 0.17570756 0.49662405 141 151 158
-0.14507696 0.17545049 0.49589747 150 158 162
-0.14400916 0.17519417 0.49517301 153 161 165
-0.14336273 0.17545049 0.49589747 169 177 181
-0.00417896 0.37829784 1.06923008 142 150 156
-0.00233826 0.37949497 1.07261372 144 152 158
-0.00048433 0.37949497 1.07261372 146 154 160
0.10561882 0.70334554 1.98795259 149 153 156
0.10810377 0.69721168 1.97061586 138 139 146
0.11183493 0.69924438 1.97636104 136 136 145
0.11491588 0.69721168 1.97061586 134 134 143
0.11832193 0.69721168 1.97061586 128 128 137
0.03920354 0.17545049 0.49589747 152 160 166
0.03988559 0.17468378 0.49373040 153 161 167
0.04047366 0.17354618 0.49051508 153 161 167
0.04117252 0.17292055 0.48874682 156 164 170
0.04180628 0.17205223 0.48629257 159 167 173
0.04249438 0.17143732 0.48455456 161 169 174
0.04314685 0.17070521 0.48248529 162 170 174
0.21312472 0.18350483 0.51866245 139 140 144
0.21555611 0.18252726 0.51589942 139 143 146
0.21595477 0.18211149 0.51472425 139 142 146
0.21717422 0.18238845 0.51550710 137 141 145
0.21823119 0.18252726 0.51589942 139 143 147
0.21912289 0.18252726 0.51589942 142 143 150
0.22001457 0.18252726 0.51589942 145 147 153
0.22090626 0.18252726 0.51589942 145 147 153
0.22129272 0.18211149 0.51472425 145 149 155
0.22201380 0.18197331 0.51433372 147 151 157
0.22341131 0.18238845 0.51550710 147 152 157
0.22515844 0.18308459 0.51747471 148 153 158
0.22605285 0.18308459 0.51747471 150 154 156
0.22642872 0.18266627 0.51629233 152 156 157
0.22680289 0.18224986 0.51511538 152 156 157
0.22717534 0.18183534 0.51394379 151 156 157
0.31932676 0.17442968 0.49301225 142 146 148
0.32134745 0.17506629 0.49481156 136 137 146
0.32196766 0.17493860 0.49445066 128 129 138
0.32164925 0.17430292 0.49265397 119 122 131
0.32133311 0.17367184 0.49087027 116 119 128
0.32148317 0.17329539 0.48980623 112 115 126
0.32209703 0.17317027 0.48945260 111 114 126
0.32387841 0.17367184 0.49087027 111 115 126
0.32472685 0.17367184 0.49087027 109 117 125
0.32533967 0.17354618 0.49051508 107 114 123
0.32548097 0.17317027 0.48945260 109 116 125
0.32562160 0.17279598 0.48839471 110 117 126
0.32693687 0.17304532 0.48909944 115 120 128
0.32801890 0.17317027 0.48945260 123 128 135
0.32815406 0.17279598 0.48839471 133 136 141
0.32852483 0.17254736 0.48769197 138 139 143
0.32818726 0.17192890 0.48594397 138 139 141
0.32879147 0.17180574 0.48559588 137 138 138
0.32939482 0.17168276 0.48524827 137 138 138
0.32999733 0.17155996 0.48490116 137 138 138
0.33059895 0.17143732 0.48455456 144 146 145
1.15032041 0.47212759 1.33443272 101 103 116
1.14362204 0.46843910 1.32400751 114 117 129
1.13709438 0.46390873 1.31120276 120 126 134
1.11996424 0.45510593 1.28632224 120 132 135
1.09734178 0.44414967 1.25535524 127 138 139
1.08742893 0.43926889 1.24156010 130 141 141
1.07773173 0.43449423 1.22806489 131 142 142
1.07595599 0.43292567 1.22363150 134 144 144
0.66012537 0.23308146 0.65878701 113 116 125
0.66126400 0.23308146 0.65878701 114 115 125
0.66047710 0.23240389 0.65687191 113 114 123
0.66033274 0.23195437 0.65560138 109 109 118
0.67301315 0.23560002 0.66590554 106 106 115
0.66890746 0.23376298 0.66071332 113 113 121
0.66874588 0.23330820 0.65942788 115 116 123
0.67713118 0.23583168 0.66656029 120 122 128
0.67761701 0.23560002 0.66590554 123 126 129
0.67545044 0.23444851 0.66265088 125 128 130
-0.29616436 0.26572493 0.74740005 95 112 117
-0.29422376 0.26514027 0.74575561 92 111 115
-0.29101390 0.26340163 0.74086541 88 105 113
-0.28910145 0.26282716 0.73924953 87 104 112
-0.28520092 0.26514027 0.74575561 75 76 98
-0.28328863 0.26455817 0.74411839 85 88 107
-0.28076968 0.26340163 0.74086541 101 104 122
-0.27918404 0.26311409 0.74005657 102 109 121
-0.27820864 0.26340163 0.74086541 127 136 145
-0.27662578 0.26311409 0.74005657 133 145 150
-0.27474678 0.26254085 0.73844427 139 150 154
-0.15599380 0.17414197 0.48980623 109 119 125
-0.15525940 0.17426790 0.49016041 109 119 125
-0.15430063 0.17414197 0.48980623 108 118 125
-0.15356499 0.17426790 0.49016041 110 119 129
-0.15282829 0.17439400 0.49051508 115 122 134
-0.15242164 0.17490022 0.49193892 106 116 129
-0.14775641 0.17643668 0.49626049 118 126 141
-0.14614791 0.17656593 0.49662405 148 158 163
-0.14507696 0.17630760 0.49589747 160 168 172
-0.14400916 0.17605004 0.49517301 167 175 179
-0.14336273 0.17630760 0.49589747 176 184 188
-0.14250560 0.17630760 0.49589747 181 189 193
-0.00603656 0.38074645 1.07091916 145 152 158
-0.00417896 0.38014591 1.06923008 145 153 159
-0.00233826 0.38134891 1.07261372 146 154 160
-0.00048433 0.38134891 1.07261372 146 154 160
0.10561882 0.70678151 1.98795259 143 149 152
0.10810377 0.70061773 1.97061586 137 141 146
0.11183493 0.70266032 1.97636104 131 134 140
0.11491588 0.70061773 1.97061586 130 133 140
0.11832193 0.70061773 1.97061586 128 132 139
0.03926098 0.17656593 0.49662405 152 160 166
0.03994378 0.17579322 0.49445066 153 161 167
0.04050297 0.17452027 0.49087027 154 162 168
0.04120222 0.17389069 0.48909944 155 163 169
0.04180628 0.17289275 0.48629257 158 166 172
0.04249438 0.17227484 0.48455456 160 168 174
0.04311616 0.17141715 0.48214212 161 168 174
0.45780256 0.45994753 1.29368675 141 149 153
0.45916232 0.45907143 1.29122257 139 147 153
0.21856385 0.18369855 0.51668584 137 141 144
0.21962431 0.18383868 0.51707995 141 142 148
0.22034995 0.18369855 0.51668584 145 145 152
0.22090626 0.18341894 0.51589942 146 146 153
0.22129272 0.18300115 0.51472425 146 147 154
0.22201380 0.18286230 0.51433372 146 149 155
0.22358133 0.18341894 0.51589942 149 152 158
0.22515844 0.18397900 0.51747471 152 155 161
0.22605285 0.18397900 0.51747471 154 158 162
0.22660130 0.18369855 0.51668584 155 159 162
0.22697535 0.18327947 0.51550710 154 158 161
0.22717534 0.18272366 0.51394379 154 158 161
0.31755087 0.17477338 0.49158219 154 155 157
0.31955919 0.17540939 0.49337107 146 147 149
0.32158217 0.17605004 0.49517301 138 138 144
0.32220268 0.17592153 0.49481156 130 130 138
0.32188317 0.17528182 0.49301225 119 121 129
0.32133311 0.17452027 0.49087027 116 119 127
0.32171562 0.17426790 0.49016041 116 120 128
0.32209703 0.17401625 0.48945260 113 118 127
0.32411310 0.17464674 0.49122596 112 118 126
0.32496214 0.17464674 0.49122596 110 118 126
0.32557526 0.17452027 0.49087027 110 118 126
0.32571614 0.17414197 0.48980623 108 116 124
0.32585639 0.17376532 0.48874682 109 117 125
0.32717291 0.17401625 0.48945260 113 120 127
0.32815406 0.17364013 0.48839471 123 127 132
0.32852483 0.17339028 0.48769197 127 128 132
0.32865843 0.17301688 0.48664168 125 126 130
0.32902718 0.17276882 0.48594397 118 119 121
0.32986706 0.17276882 0.48594397 124 125 127
0.33023354 0.17252147 0.48524827 128 129 131
0.33107224 0.17252147 0.48524827 132 133 134
0.33143646 0.17227484 0.48455456 141 143 144
0.33179966 0.17202891 0.48386285 145 148 148
1.15262687 0.47443405 1.33443272 106 111 121
1.14815295 0.47164872 1.32659853 111 118 126
1.14596069 0.46980995 1.32142663 117 125 131
1.14156878 0.46707848 1.31374383 121 129 135
1.13286209 0.46259597 1.30113602 122 134 137
1.09937763 0.44714749 1.25768435 122 133 136
1.08942425 0.44222477 1.24383819 126 135 138
1.07773173 0.43661684 1.22806489 131 140 143
1.07595599 0.43504062 1.22363150 135 141 143
0.66255176 0.23467624 0.66006994 112 115 125
0.66175956 0.23399273 0.65814739 110 113 123
0.67284220 0.23628676 0.66459984 108 108 116
0.67980498 0.23791954 0.66919231 111 111 118
0.67895091 0.23721702 0.66721636 114 114 121
0.67743707 0.23628676 0.66459984 119 119 124
-0.29649127 0.26731145 0.74822497 91 113 117
-0.29422376 0.26642925 0.74575561 87 110 113
-0.29101390 0.26468217 0.74086541 87 108 112
-0.28453797 0.26701674 0.74740005 79 82 98
-0.28231239 0.26613647 0.74493611 108 112 124
-0.28040853 0.26555282 0.74330246 116 126 131
-0.27943018 0.26584432 0.74411839 134 146 149
-0.27723110 0.26497176 0.74167597 142 155 155
-0.27474678 0.26381719 0.73844427 147 159 159
-0.15610661 0.17511509 0.49016041 107 118 125
-0.15525940 0.17511509 0.49016041 104 116 123
-0.15430063 0.17498857 0.48980623 102 114 122
-0.15367611 0.17524181 0.49051508 104 115 125
-0.15304978 0.17549579 0.49122596 103 114 125
-0.15264319 0.17600594 0.49265397 105 112 125
-0.14883207 0.17755438 0.49698815 119 128 145
-0.14786465 0.17742431 0.49662405 138 146 161
-0.14711405 0.17755438 0.49698815 150 158 165
-0.14625505 0.17755438 0.49698815 153 161 167
-0.14518318 0.17729442 0.49626049 166 175 177
-0.14411442 0.17703523 0.49553499 177 186 189
-0.14336273 0.17716473 0.49589747 180 188 192
-0.14250560 0.17716473 0.49589747 180 188 192
-0.00788756 0.38259745 1.07091916 144 149 156
-0.00602704 0.38199398 1.06923008 145 153 159
-0.00417238 0.38139242 1.06754625 146 154 160
-0.00233457 0.38259745 1.07091916 147 155 161
-0.00048433 0.38320282 1.07261372 146 154 160
0.10624193 0.71440762 1.99968100 137 142 147
0.10873596 0.70814091 1.98213995 136 140 146
0.11216193 0.70814091 1.98213995 129 133 139
0.11525091 0.70607632 1.97636104 129 132 139
0.03952156 0.17860191 0.49992025 153 161 167
0.03997293 0.17677678 0.49481156 153 161 167
0.04053232 0.17549579 0.49122596 153 161 167
0.04120222 0.17473607 0.48909944 153 161 167
0.04180628 0.17373328 0.48629257 158 163 170
0.04246403 0.17298870 0.48420846 159 164 170
0.04314685 0.17237309 0.48248529 160 165 171
0.45780256 0.46218356 1.29368675 142 150 156
0.45916232 0.46130320 1.29122257 142 150 157
0.45790529 0.45781508 1.28145909 144 152 160
