ply
format ascii 1.0
element vertex 719
property float x
property float y
property float z
property uchar red
property uchar green
property uchar blue
end_header
-0.28687201 -0.36031362 0.73844427 78 79 80
-0.28764464 -0.36016454 0.74208394 75 77 79
-0.28306762 -0.34875339 0.73684217 70 71 72
-0.28907510 -0.34836859 0.74402777 77 77 78
-0.28207667 -0.33720524 0.73615693 72 72 74
-0.27470392 -0.36003482 0.71507579 66 66 67
-0.27334312 -0.35297272 0.71598554 64 65 66
-0.27109887 -0.34377241 0.73116145 72 72 75
-0.27454417 -0.33647806 0.73112819 62 63 65
-0.25944202 -0.34397160 0.72950737 93 94 95
-0.24336137 0.13061254 0.71656011 118 112 112
-0.23446309 0.13063017 0.71630297 118 113 112
-0.23117511 0.12936808 0.72039515 117 112 113
-0.22091647 0.23575901 0.53554519 82 91 107
-0.20218513 0.21858804 0.51472445 66 75 89
-0.20350464 0.22302195 0.51716866 61 66 83
-0.21446614 0.23194994 0.53245463 73 85 97
-0.21670643 0.24072450 0.53577773 87 93 106
-0.14930208 -0.62365689 1.85385501 79 75 77
-0.14411817 -0.60963253 1.83413153 77 73 74
-0.14956514 -0.61506447 1.85049045 80 75 77
-0.14217627 -0.58521849 1.81740439 80 74 76
-0.14255846 -0.59519082 1.82228994 80 74 76
-0.12559104 -0.60515749 1.79732875 76 71 73
-0.12936383 -0.60536744 1.80880577 77 71 73
-0.13940878 -0.60568976 1.82228994 77 73 74
-0.12862463 -0.59027545 1.79812157 77 71 73
-0.12895852 -0.59086715 1.80661105 78 71 73
-0.12842457 -0.57026603 1.79210952 78 71 74
-0.12411804 -0.57238618 1.81061685 78 71 74
-0.12366038 -0.57419294 1.82228994 76 71 75
-0.12755942 -0.55740482 1.78863287 79 73 75
-0.12134096 -0.47016497 0.91855487 77 74 74
-0.12325602 -0.47054413 0.92522917 77 75 76
-0.12099391 -0.45343997 0.91793215 81 79 79
-0.12311744 -0.45369158 0.92327951 80 79 79
-0.12897140 -0.32753970 0.75387059 88 86 87
-0.12508167 -0.31915894 0.75418103 90 87 85
-0.11891241 -0.60853440 1.79812157 78 71 73
-0.11420866 -0.60542617 1.80806053 76 69 72
-0.11407048 -0.59160066 1.80810446 77 69 72
-0.11373257 -0.57590139 1.79812157 78 69 73
-0.11965345 -0.57166652 1.80932705 77 71 74
-0.11874271 -0.46880755 0.91484882 76 75 74
-0.11981275 -0.47488424 0.92104870 76 75 72
-0.11063297 -0.44290858 0.87607043 75 75 75
-0.11387961 -0.44478409 0.89199685 79 77 76
-0.11767496 -0.45153444 0.90911229 79 77 77
-0.10904504 -0.43309163 0.87391506 77 76 76
-0.11276996 -0.43162272 0.88731998 79 77 77
-0.11555179 -0.43926680 0.90025479 80 79 81
-0.11950815 -0.32556065 0.75078137 87 84 85
0.03746762 0.43215796 1.63741994 157 148 150
0.03758027 0.43772617 1.64238060 156 149 150
0.03775791 0.45538641 1.59005316 64 58 66
0.03649569 0.45703447 1.61531226 110 103 105
0.03883585 0.45141764 1.63544714 148 142 145
0.03623240 0.44715832 1.64577665 153 148 150
0.03792992 0.46850329 1.59729674 37 37 46
0.03594645 0.47117633 1.61458635 44 42 52
0.03605255 0.46045944 1.63741994 126 117 116
0.03332305 0.47462610 1.64238060 49 46 56
0.03832723 0.48596321 1.61402822 60 61 74
0.03590832 0.48681235 1.63086919 46 47 56
0.03346510 0.48520784 1.64938164 35 34 43
0.04896158 0.43388818 1.59692055 156 150 152
0.04758526 0.43215518 1.61276245 156 149 152
0.04324129 0.43275747 1.63113344 154 147 149
0.04181385 0.43887836 1.64138460 157 150 152
0.04113084 0.45536888 1.58758172 54 49 59
0.04669638 0.44272259 1.61402822 156 150 154
0.04311248 0.44689235 1.63205508 152 147 149
0.04191533 0.44278750 1.64536858 157 152 154
0.04339028 0.46968481 1.59504549 42 42 52
0.04364364 0.47892854 1.60447997 51 54 65
0.04435457 0.48620264 1.61020168 69 75 84
0.11742608 -0.04906691 0.47879111 69 59 62
0.11851775 -0.05284884 0.48017842 70 60 63
0.12316722 -0.05224665 0.47845318 69 60 63
0.14217162 0.20607506 0.45385719 0 0 0
0.14446953 0.21294381 0.46898482 0 0 0
0.14648552 0.21896986 0.48225651 0 0 0
0.14819881 0.22409111 0.49353548 0 0 0
0.15091381 0.23220660 0.51140893 0 0 0
0.15306682 0.23842724 0.52561410 0 0 0
0.15444571 0.24293591 0.53463506 0 0 0
0.15697990 0.25033893 0.55134330 0 0 0
0.15920787 0.25699863 0.56601051 0 0 0
0.17424047 -0.00492600 0.82604679 65 57 62
0.17956156 0.01799038 0.81969994 67 56 58
0.17420300 0.00982003 0.82880887 64 57 61
0.17927747 0.02507931 0.82954399 64 54 58
0.16032678 0.25941339 0.57351255 0 0 0
0.16039465 0.26101097 0.57375535 0 0 0
0.16280912 0.26776324 0.58971833 0 0 0
0.16587701 0.27674730 0.60997331 0 0 0
0.16680095 0.28062671 0.61570555 0 0 0
0.16878691 0.28563165 0.62907146 0 0 0
0.17171153 0.29437372 0.64832482 0 0 0
0.17482083 0.30366782 0.66879403 0 0 0
0.17813288 0.31356798 0.69059799 0 0 0
0.18065485 -0.00352577 0.82687711 64 56 60
0.18264833 0.01725509 0.81846456 66 56 58
0.18277491 0.01919379 0.82268478 66 56 58
0.18522869 0.02790787 0.81969994 62 55 56
0.18294992 0.02525178 0.82569994 64 55 58
0.18145963 0.32329413 0.71256696 0 0 0
0.18403159 0.33147243 0.72934510 0 0 0
0.18642841 0.33836442 0.74520928 0 0 0
0.18845509 0.34442243 0.75855134 0 0 0
0.19055566 0.35070133 0.77237984 0 0 0
0.19273425 0.35721339 0.78672189 0 0 0
0.19616938 0.36748146 0.80933613 0 0 0
0.19970219 0.37741092 0.83279097 0 0 0
0.19994782 0.38003692 0.83381528 0 0 0
0.19436359 0.45988598 1.23929036 76 86 99
0.19715497 0.46954580 1.25362989 86 95 104
0.19846364 0.47658762 1.26080418 101 110 122
0.19714178 0.48998296 1.26788293 116 128 136
0.19764137 0.50148398 1.27423275 134 142 148
0.19655055 0.50573686 1.28731163 128 136 144
0.21839881 -0.28847015 1.55539622 62 54 57
0.20232255 0.38587411 0.84984380 0 0 0
0.20496497 0.39377263 0.86723936 0 0 0
0.20771781 0.40200124 0.88536189 0 0 0
0.21058815 0.41058110 0.90425805 0 0 0
0.21348661 0.41854562 0.92355835 0 0 0
0.21377787 0.42151433 0.92481834 0 0 0
0.21671282 0.42888853 0.94457799 0 0 0
0.21988007 0.43762462 0.96565789 0 0 0
0.20315731 0.47482434 1.25613594 107 115 127
0.20462994 0.47794625 1.26296163 108 115 129
0.20268291 0.48709117 1.25768435 124 137 145
0.20227892 0.49054635 1.26388746 127 138 145
0.20344542 0.50431606 1.27095565 137 145 152
0.20481397 0.51156507 1.28773168 135 143 149
0.20489064 0.52515372 1.27823826 67 70 85
0.20434205 0.53030111 1.29295880 61 69 80
0.20390222 0.53142485 1.30801755 97 107 119
0.20566432 0.53673160 1.32595837 102 109 121
0.20460458 0.54658797 1.30895983 12 15 17
0.20576440 0.55763754 1.32660359 0 0 0
0.20616707 0.56217265 1.32919967 0 0 0
0.23035111 -0.42147884 0.86687787 60 59 59
0.23093633 -0.41411800 0.85871357 62 57 58
0.23407733 -0.40981884 0.86622958 62 58 59
0.23497932 -0.30248758 1.55837202 64 55 58
0.23957033 -0.30048484 1.56196272 65 56 59
0.23085400 -0.29027366 1.55397759 63 55 58
0.23470740 -0.27767766 1.54769826 65 56 59
0.23401071 -0.20107627 0.46890242 75 71 74
0.23586348 -0.19426116 0.46916492 76 74 76
0.22019374 0.44075608 0.96703541 0 0 0
0.22340915 0.44890478 0.98866139 0 0 0
0.22688426 0.45852609 1.01177883 0 0 0
0.22722340 0.46183857 1.01329124 0 0 0
0.23076111 0.47088081 1.03706102 0 0 0
0.23471381 0.48269594 1.06308238 0 0 0
0.23886997 0.49511924 1.09044329 0 0 0
0.24211378 -0.40676977 0.86949934 61 59 56
0.25188732 -0.30284378 1.58852229 65 58 60
0.25615961 -0.30854239 1.60384703 65 57 59
0.24412841 -0.28375661 1.55658489 63 55 58
0.24619083 -0.29022627 1.56630156 63 56 59
0.25210183 -0.29589663 1.58493658 65 57 60
0.24653341 -0.27760774 1.55479777 66 57 60
0.24311176 0.50695127 1.11863339 0 0 0
0.24351360 0.51069421 1.12048233 0 0 0
0.24771872 0.51970619 1.14896917 0 0 0
0.24792901 0.52312958 1.14994454 0 0 0
0.25272946 0.53654714 1.18168330 0 0 0
0.25787948 0.55194126 1.21558698 0 0 0
0.26676502 -0.32545598 1.61212045 65 56 59
0.26663684 -0.32777586 1.63054587 64 56 59
0.26779531 -0.32703367 1.64894003 64 57 59
0.26460798 -0.30689370 1.60607287 65 57 59
0.26120251 -0.31630313 1.62954772 66 57 60
0.26333374 0.56824481 1.25149361 0 0 0
0.26912004 0.58554089 1.28958607 0 0 0
0.27526965 0.60392286 1.33007014 0 0 0
0.28181786 0.62349641 1.37317852 0 0 0
0.28860310 0.64270395 1.41818380 0 0 0
0.28920814 0.64773583 1.42115688 0 0 0
0.29627597 0.66671369 1.46835935 0 0 0
0.31539822 -0.12016791 0.45649281 137 137 137
0.31666916 -0.11556289 0.45458896 137 137 138
0.31132197 -0.02135081 0.53937943 88 85 88
0.30810643 -0.02080408 0.54439633 88 81 84
0.31203355 -0.01660687 0.53972280 91 91 92
0.30932115 -0.01583484 0.54446084 87 84 87
0.31824128 0.01518608 0.98936429 72 63 68
0.31791992 0.02072965 0.99136270 69 64 68
0.31711900 0.23904182 0.77829146 144 155 159
0.31471172 0.23761811 0.78822027 122 134 142
0.31915667 0.24146857 0.77888783 130 140 144
0.31295720 0.24978696 0.78981873 117 126 136
0.30950469 0.25549847 0.80034459 150 158 164
0.31882100 0.26456706 0.78810523 110 115 123
0.30405587 0.68881723 1.51993692 0 0 0
0.30473915 0.69431460 1.52335250 0 0 0
0.31264472 0.71444765 1.57649267 0 0 0
0.31337351 0.72020978 1.58016741 0 0 0
0.33325620 -0.14801547 0.53901247 96 97 100
0.33359602 -0.15012263 0.54135143 100 100 104
0.32213463 -0.11551393 0.45500080 137 137 139
0.33035610 0.01531764 0.99301589 73 64 68
0.32927112 0.00712273 1.00565151 73 63 69
0.32879914 0.02268541 0.99245780 75 65 69
0.32128171 0.23699504 0.78772066 137 149 155
0.32252596 0.23724332 0.80176473 139 150 154
0.32809036 0.25219010 0.77840479 124 135 140
0.32807786 0.25566874 0.78354942 127 137 142
0.33089206 0.26506590 0.77904839 112 122 132
0.32889639 0.26524066 0.78438062 111 119 127
0.32189748 0.74205917 1.63741994 0 0 0
0.32267690 0.74811137 1.64138460 0 0 0
0.33217282 0.77401443 1.70467595 0 0 0
0.34696642 -0.27049561 0.47875252 140 143 141
0.34762074 -0.26867553 0.48377018 141 143 142
0.35275986 -0.15296801 0.51899039 137 137 138
0.35634444 -0.14558854 0.52378572 136 137 138
0.34040094 -0.15042691 0.54293733 115 115 117
0.35845864 -0.13956568 0.52672249 136 137 138
0.34115180 0.01827213 0.98818052 78 68 72
0.35320132 0.15895206 0.46385503 132 141 147
0.35309850 0.16511079 0.45893013 109 121 129
0.35216075 0.16353812 0.46319025 114 125 133
0.35929590 0.19287567 1.43621159 131 121 123
0.34002995 0.25996408 0.78459704 132 144 149
0.35573882 0.49385467 1.39312539 67 73 94
0.34302811 0.80646241 1.77613854 0 0 0
0.35450959 0.83777773 1.85216355 0 0 0
0.35499522 0.84373611 1.85470074 0 0 0
0.37904494 -0.18497744 0.47596186 138 139 140
0.37667882 -0.17608741 0.47647838 140 141 142
0.36272603 -0.16165356 0.52259699 140 140 140
0.36175589 -0.14662469 0.51923088 138 139 141
0.36182882 -0.15031223 0.52326286 137 138 139
0.36306825 -0.13969222 0.51708117 139 140 142
0.36073911 0.15982406 0.46304089 151 159 162
0.36123959 0.16675103 0.45906159 114 124 131
0.36175644 0.16510681 0.46192199 129 139 146
0.37003184 0.17346544 1.41367443 116 108 111
0.36652785 0.17616285 1.42435935 117 110 113
0.37379938 0.18841940 1.41592406 132 122 124
0.36961045 0.19062296 1.42963016 132 122 124
0.36312691 0.19785351 1.44355319 135 126 125
0.37206054 0.20144640 1.40933859 135 126 128
0.36713186 0.20137509 1.43362354 135 126 127
0.36370243 0.20138970 1.44386071 133 123 124
0.37742397 0.47359875 1.35850072 76 84 90
0.37551112 0.47664715 1.37043091 80 88 96
0.36881265 0.47751711 1.38345850 86 95 107
0.37666914 0.48436835 1.35578370 125 136 139
0.37453865 0.48807569 1.37341440 104 113 119
0.37098511 0.49029757 1.38638802 89 97 108
0.36569865 0.49524647 1.40205487 73 79 97
0.37076341 0.50085733 1.38629735 116 124 131
0.37026579 0.50106927 1.40254017 97 101 116
0.36736807 0.87774995 1.93683386 0 0 0
0.36842072 0.88530087 1.94238353 0 0 0
0.38156242 -0.18307982 0.47541809 140 141 142
0.38238896 -0.17705341 0.47566194 141 142 144
0.38201642 0.18935497 1.42834759 134 125 127
0.39074126 0.19744967 1.45158851 135 127 127
0.38365935 0.47668763 1.36397302 81 87 91
0.39829735 0.47702643 1.38204396 100 102 108
0.38751494 0.48538629 1.37048055 83 91 97
0.39770088 0.48992190 1.38831654 88 91 96
0.39957401 0.50073224 1.39483917 120 128 134
0.40725830 0.23909604 0.56225590 123 132 136
0.41306238 0.24872212 0.57243364 110 115 121
0.41422854 0.25748617 0.58360734 126 133 139
0.41436086 0.26220907 0.57803746 135 145 150
0.41625133 0.26142094 0.58367277 134 144 148
0.40039787 0.48485380 1.39771509 111 117 119
0.40164049 0.48272227 1.40205288 104 105 111
0.42991526 -0.14790692 0.45186802 140 142 142
0.43054701 0.19451160 0.45896621 113 123 133
0.43481427 0.19522302 0.46657438 107 120 126
0.43477201 0.20007542 0.47305781 100 114 121
0.42426118 0.25341278 0.57791293 90 96 104
0.42309948 0.25762623 0.58330643 79 82 89
0.43095385 0.26533763 0.59097322 66 74 83
0.45558200 0.01875279 0.52233434 134 134 135
0.44986181 0.02750523 0.51839974 130 130 131
0.45437259 0.02345541 0.52306706 134 134 134
0.45881325 0.26878800 0.69055285 100 109 120
0.46032533 0.01955629 0.52145529 135 135 135
0.46048671 0.02050490 0.52266139 135 135 135
0.47188642 0.25773916 0.67874278 111 118 123
0.47458521 0.25791993 0.68968731 108 119 125
0.46835878 0.26681700 0.68935464 105 111 119
0.49337860 -0.14076678 0.53312924 140 141 143
0.49438089 -0.13650409 0.53369672 137 139 140
0.48271105 0.25833759 0.69778314 120 129 135
0.48382360 0.25879476 0.70131656 116 125 130
0.48187837 0.26194373 0.69844755 110 122 125
0.50209751 0.16448210 0.45908095 107 118 129
0.50270365 0.16509595 0.46338417 128 139 145
0.51642730 0.24333110 0.60761189 93 104 109
0.53662596 -0.26892515 0.45421079 73 106 126
0.53772517 -0.25331927 0.45336213 71 104 125
0.53659075 -0.23487479 0.45121517 74 101 125
0.52582073 -0.14201204 0.71508198 136 136 136
0.52643027 -0.12944004 0.71587377 137 138 137
0.52629964 -0.12503869 0.72125825 136 137 137
0.52495893 -0.11283016 0.71664871 136 137 137
0.52636998 -0.11351403 0.72141830 136 137 137
0.53689256 0.19672479 0.59022657 137 150 152
0.53785751 0.20459228 0.59000341 121 139 141
0.52329549 0.24434894 0.61494118 99 105 114
0.53589120 0.24710176 0.62885274 117 122 129
0.54085416 -0.27235795 0.45922512 76 106 126
0.54531129 -0.27477899 0.46371575 73 107 124
0.54063165 -0.24365173 0.45283356 76 103 121
0.54003257 -0.23254478 0.45102584 71 100 124
0.55533807 -0.22784957 0.47134793 109 121 131
0.55509076 0.03364915 0.52992513 129 129 130
0.54235874 0.19742455 0.58804761 125 138 141
0.54208229 0.20425772 0.58922526 138 153 155
0.54709368 0.23870334 0.62943226 106 117 125
0.54733335 0.24851742 0.63399198 107 117 124
0.55342394 0.25846431 0.64097315 79 89 103
0.55489241 0.26074745 0.64209573 74 88 99
0.56509005 -0.22495371 0.47518363 76 101 126
0.56963966 -0.21853685 0.47613796 74 99 123
0.57810338 -0.21157015 0.48939888 113 126 131
0.57096396 -0.14394582 0.61590179 137 140 139
0.57458293 -0.15021837 0.62580194 137 139 139
0.56586737 -0.13566191 0.60876884 138 140 140
0.56667956 0.01260842 0.53903205 129 131 129
0.56587194 0.01640268 0.54221263 130 131 130
0.56389675 0.02299413 0.53870720 130 131 132
0.56528526 0.02173555 0.54181317 130 131 130
0.58709743 -0.20728430 0.49322340 88 106 124
0.59990317 -0.20160361 0.50102872 72 97 123
0.59143563 -0.19139480 0.49899852 107 118 128
0.59423231 -0.18726868 0.50055782 94 110 125
0.59162149 -0.17979462 0.49981982 111 119 128
0.59219161 -0.17878453 0.50064551 112 118 128
0.60134499 -0.18572845 0.49897560 67 94 120
0.60382800 -0.18526447 0.50278261 68 95 121
0.60331577 -0.17942325 0.49955212 60 93 121
0.61084831 -0.17655693 0.50720302 64 97 115
0.63186650 -0.18266547 0.53581302 118 124 126
0.63482885 -0.17441226 0.53521763 102 110 118
0.63912661 -0.16722361 0.54049759 127 130 135
0.63576190 -0.15512258 0.52762587 65 92 117
0.63289320 0.17962874 0.63876998 86 95 103
0.63250471 0.18489149 0.63851804 112 123 131
0.63433444 0.18465757 0.64239952 103 113 124
0.63911152 0.20617394 0.63891786 128 138 143
0.64421631 -0.16379046 0.53692922 68 94 118
0.64440119 -0.16370118 0.54132921 91 103 117
0.64560705 -0.15247065 0.53643538 67 91 119
0.65316584 -0.15234557 0.54868954 91 105 119
0.65829895 -0.13834120 0.55595420 117 123 130
0.64383050 0.19106155 0.64544281 121 131 138
0.64671763 0.21134586 0.63160079 107 117 123
0.64470226 0.20978611 0.64820986 115 125 130
0.65420387 0.22089832 0.63891822 86 96 103
0.65506539 0.22604331 0.64704815 86 97 109
0.67224517 -0.30614822 0.65894754 141 146 146
0.67471852 -0.30290754 0.66332184 140 144 143
0.67218023 -0.29197106 0.66260601 140 144 144
0.66294722 -0.14670755 0.55526706 70 93 115
0.66245877 -0.13790887 0.55835134 103 112 118
0.67473662 -0.12886865 0.57131834 108 117 122
0.67916250 -0.12223799 0.58063552 133 136 137
0.67885494 -0.09647616 0.56209940 45 65 75
0.67983317 -0.07673962 1.25768435 83 79 82
0.67884170 -0.06668879 1.28742054 82 78 79
0.67819337 -0.04915175 1.27503566 81 79 80
0.67846435 -0.05615036 1.28388913 81 80 80
0.66552566 0.23195535 0.65252033 74 82 100
0.67666157 0.23810450 0.66384318 72 79 95
0.67933165 0.24539036 0.66787631 80 89 100
0.68525052 -0.12380224 0.57712643 95 106 119
0.68779208 -0.12166905 0.58144244 96 109 121
0.68751876 -0.11927394 0.57964267 94 107 116
0.68734687 -0.11474316 0.58265259 114 122 126
0.69200417 -0.08802777 0.57435935 44 53 62
0.69968703 -0.08281215 0.58038688 42 50 58
0.69653574 -0.07944988 0.57964256 44 51 64
0.69875970 -0.07754304 0.58163303 43 49 62
0.68723277 -0.06662142 1.27468775 81 78 79
0.68639153 -0.06918597 1.29030489 82 78 78
0.68638815 -0.05662430 1.27472169 82 78 78
0.68554805 -0.05654274 1.29019880 81 78 78
0.68136388 0.23949808 0.66394889 88 94 109
0.68422269 0.24944541 0.66882363 90 99 107
0.70756310 -0.10705378 0.59441456 79 97 117
0.71346651 -0.10448109 0.60454523 109 115 123
0.70083797 -0.08116066 0.58113328 41 49 60
0.70887531 -0.07128798 0.58894417 44 50 63
0.70851481 0.41388220 1.83214009 127 138 143
0.71097401 0.41652666 1.85092250 124 139 142
0.71446252 0.41817375 1.87262940 118 131 135
0.71837886 0.42877387 1.87651995 126 137 145
0.71359982 0.43207883 1.88864151 108 120 131
0.71290872 0.43385361 1.90597852 107 117 127
0.71608222 0.43713343 1.92037344 107 118 127
0.71376470 0.44544676 1.89223403 107 115 132
0.71611564 0.44932068 1.90866554 113 124 138
0.71543980 0.44274024 1.92310125 111 121 129
0.71319598 0.46963975 1.87781680 129 140 149
0.71086564 0.47276213 1.88888379 139 147 156
0.71758556 0.46807095 1.90848775 141 147 160
0.71940142 0.47032553 1.92037344 132 139 154
0.71757495 0.46564430 1.94238353 140 150 157
0.71134090 0.48310688 1.89885676 123 131 137
0.71405941 0.48223624 1.91494870 131 140 148
0.71692184 0.48455327 1.92859324 125 134 142
0.71757495 0.48914507 1.94238353 117 125 136
0.72313349 -0.10172033 0.60985849 76 81 90
0.72953507 -0.09479830 0.61658806 82 87 93
0.73514773 -0.08717997 0.62432697 105 108 111
0.72047230 -0.06276085 0.59884471 47 54 65
0.72143060 0.42918208 1.85723794 139 147 153
0.72467461 0.43304017 1.87393340 136 145 151
0.72178701 0.43691382 1.89357626 117 128 138
0.72942424 0.44042885 1.87781680 144 154 157
0.72894365 0.44672205 1.89532398 138 147 154
0.73140492 0.45492984 1.91038902 140 147 154
0.72534035 0.45512781 1.92913358 116 126 139
0.72428948 0.45892981 1.94238353 82 93 115
0.72676197 0.47073912 1.89532726 109 119 132
0.73076506 0.46875048 1.90906960 131 138 149
0.72861477 0.47017303 1.92996363 141 147 159
0.72352004 0.47014495 1.94573243 129 138 151
0.72690025 0.48252809 1.90955448 128 136 143
0.73143113 0.48830485 1.92582905 129 134 141
0.74018013 -0.09020551 0.61907929 46 54 60
0.74200999 -0.08344143 0.62624128 68 72 80
0.74114531 0.46337859 1.91225159 131 139 145
0.77172422 -0.06368481 0.65554813 108 112 118
0.77758879 -0.06122113 0.66039163 67 70 84
0.76701368 -0.05895161 0.65841547 131 132 133
0.77568108 -0.05649475 0.66303712 122 124 126
0.78427518 -0.06501367 0.65757721 47 54 65
0.78751580 -0.06173352 0.66240797 49 56 73
0.78916180 -0.05362308 0.66707283 62 68 78
0.79646020 -0.02668847 0.75646372 133 134 134
0.79624133 -0.03362971 0.76146252 134 135 134
0.79136594 -0.01730360 0.74989033 130 131 133
0.80324859 -0.04891226 0.67464110 59 65 75
0.80396584 -0.02716459 0.75759315 133 134 134
0.80029395 -0.03394949 0.76124880 134 134 135
0.83110207 0.42361303 1.21813548 111 125 134
0.83752631 0.42706848 1.22807835 108 122 129
0.85697848 0.13246038 1.16926529 110 113 111
0.85828966 0.13229574 1.18305731 130 131 132
0.84687519 0.42926739 1.23749104 98 107 120
0.85280611 0.42773315 1.25074285 95 104 114
0.85856553 0.42672928 1.26158631 95 106 111
0.85524313 0.44170857 1.25458467 140 149 151
0.85750234 0.44362295 1.26002204 141 153 153
0.87853263 -0.30645771 0.85706937 139 140 141
0.87787680 -0.30427326 0.86026883 141 142 142
0.87595594 -0.29807178 0.85553206 141 143 144
0.87800115 -0.29895237 0.86136332 140 141 142
0.87572360 0.11997779 1.16276479 132 130 128
0.87072289 0.13181672 1.17095772 121 122 123
0.86450241 0.13688543 1.18738199 114 115 116
0.87823150 0.14300085 1.17690122 85 91 109
0.87252690 0.14745072 1.19416719 58 61 78
0.87374415 0.15358746 1.20407231 64 70 82
0.87481818 0.16373278 1.20987612 59 65 78
0.86895424 0.41888803 1.25768435 131 140 143
0.86839157 0.41966662 1.26002204 131 139 144
0.86305772 0.42874362 1.25289618 96 103 115
0.87033544 0.42620267 1.26339546 114 121 129
0.86678046 0.44062608 1.25768435 72 84 104
0.87328224 0.44613666 1.26711957 102 113 123
0.89053332 -0.30772492 0.85461320 139 141 141
0.88125753 -0.31394037 0.86163589 139 140 140
0.88996457 -0.29773741 0.85294347 138 140 141
0.88936983 0.07370120 0.85376227 124 126 125
0.89039547 0.08236705 0.85427270 127 139 143
0.89621532 0.08579148 0.86026883 125 142 145
0.88175285 0.11997779 1.16276479 133 131 129
0.88669546 0.13151044 1.17330179 121 121 124
0.89310718 0.13504821 1.18158516 133 134 136
0.88352787 0.14555342 1.17625295 70 77 92
0.88244954 0.14905657 1.19070227 66 76 89
0.88186282 0.15817682 1.20579391 63 71 80
0.88435321 0.16547562 1.21209005 58 65 79
0.88457772 0.43415257 1.26963302 113 120 124
0.88580946 0.45053437 1.27254813 90 103 111
0.89654764 0.45494273 1.28795568 76 90 108
0.88655141 0.46400962 1.27079746 115 125 128
0.89357641 0.46655163 1.29031369 119 129 133
0.91065347 -0.50898522 1.44848680 96 96 106
0.91850394 -0.51589823 1.46097374 95 95 104
0.90011460 -0.30331357 0.85269415 138 142 143
0.91809618 0.36626887 0.93890840 116 128 129
0.90461808 0.39131378 0.91648436 131 139 144
0.91735767 0.38778969 0.93275188 125 137 141
0.91916296 0.38436462 0.94250496 120 136 140
0.90105349 0.45907143 1.29122257 85 98 107
0.90205375 0.46476783 1.29715543 92 101 110
0.90167439 0.46844313 1.30113602 113 122 128
0.93465225 -0.72264446 1.25304104 140 142 141
0.93520759 -0.71185067 1.25241108 140 142 143
0.93590480 -0.70882055 1.26002204 140 143 143
0.93650275 -0.69568211 1.25230607 141 143 143
0.93590480 -0.69321269 1.26002204 144 145 145
0.92930269 -0.56299007 1.51993692 94 96 100
0.93718357 -0.56233208 1.53066854 94 95 98
0.93827101 -0.54334562 1.49243747 99 98 103
0.93812406 -0.54573278 1.50710030 99 100 104
0.93857346 -0.55667736 1.53240348 95 96 100
0.92978576 -0.52534702 1.47688854 95 96 102
0.93529940 -0.53291321 1.49004904 96 97 102
0.93528006 -0.53636374 1.50419950 97 98 102
0.92554087 0.37791502 0.93761200 107 120 131
0.92887603 0.37484588 0.94557462 109 120 128
0.92428638 0.38638281 0.93631907 120 134 140
0.92615070 0.38562353 0.94482439 113 127 136
0.94026047 -0.71281326 1.26002204 142 143 143
0.94111758 -0.69064522 1.25535524 137 141 140
0.94171236 -0.69176080 1.26002204 141 142 142
0.94548118 -0.56070119 1.49976075 97 97 102
0.94429908 -0.54945000 1.49618137 99 100 106
0.94270087 -0.54947472 1.50812133 98 98 103
0.94445538 -0.55334801 1.52959345 96 97 102
0.94207439 -0.53838742 1.48823857 100 102 104
0.94121540 0.39999014 0.95747435 136 147 147
0.96704835 0.30618444 0.99689978 135 143 142
0.97505748 0.31104209 1.00534319 113 123 125
0.98581199 0.31639593 1.01443630 92 103 107
0.99829131 0.31885612 1.02092147 86 95 101
0.98887153 0.32719161 1.01865610 99 111 114
0.99508189 0.33224472 1.02282402 94 108 110
0.99750441 0.34157434 1.02555501 87 95 99
1.00005591 0.31885612 1.02092147 82 90 96
1.00157348 0.32760984 1.01887600 110 121 125
1.00196832 0.32606791 1.02287503 92 103 107
1.00104952 0.34157434 1.02555501 71 80 86
1.03307974 0.41263880 1.15780079 110 121 126
1.03360035 0.41206647 1.17041533 95 106 117
1.03735948 0.41748222 1.19079370 104 114 124
1.03579336 0.42093454 1.19558018 129 138 139
1.04231644 0.41638879 1.17689792 105 116 125
1.04414936 0.41613700 1.18780976 93 102 115
1.04730964 0.41976160 1.20407081 100 109 119
1.04601047 0.42505174 1.17161634 120 136 140
1.05408120 0.42629545 1.19052260 107 120 125
1.05172771 0.42543929 1.21036122 113 122 129
1.05596825 0.43253469 1.22252911 139 149 151
1.07271952 -0.52425010 1.05445521 139 144 145
1.06998127 -0.51400388 1.05195687 139 143 142
1.06203957 0.43268118 1.19663541 108 122 125
1.06676385 0.43478925 1.21271660 102 112 117
1.06726021 0.43494727 1.22336487 107 115 122
1.06556487 0.44030789 1.19768882 113 125 130
1.07490485 0.44340094 1.21425896 103 116 121
1.07460720 0.44571870 1.22571693 97 108 115
1.08512788 -0.52450788 1.05658437 139 144 145
1.09235660 -0.52619050 1.06086361 138 144 145
1.08538779 -0.51852814 1.05645708 139 144 142
1.09052296 -0.51946723 1.06086361 140 144 143
1.08067870 0.44952595 1.21704102 102 114 120
1.08471580 0.45219265 1.23073445 99 111 117
1.08850193 0.45858231 1.24156010 88 98 111
1.10980229 -0.62217273 1.43621584 139 140 142
1.11428495 -0.62554410 1.44850006 139 140 141
1.11787677 -0.63595200 1.46412921 141 142 144
1.10500062 -0.60981552 1.41522717 139 140 140
1.11056194 -0.61487122 1.43000139 139 139 140
1.11694066 -0.61655229 1.44437766 139 140 139
1.11454678 0.73474205 1.71618187 102 108 126
1.11737561 0.73958069 1.72053766 95 101 119
1.13668682 -0.64199450 1.49506014 141 142 143
1.13430317 -0.64561538 1.51654164 140 140 141
1.13802487 -0.64367330 1.52592573 141 142 143
1.12314773 -0.62313777 1.45783186 140 140 141
1.13031538 -0.63050071 1.47208877 139 140 140
1.13099578 -0.63362888 1.49532933 142 144 145
1.13319945 -0.63282504 1.50832941 141 142 144
1.13753144 -0.63771056 1.52832214 141 141 143
1.12883592 0.73514891 1.73818421 97 105 111
1.13466221 0.73440960 1.74715555 83 97 103
1.12583160 0.74566400 1.73818421 93 106 124
1.12969546 0.74570660 1.74414965 96 105 119
1.14189649 -0.65276122 1.53022993 140 141 141
1.14451162 -0.63069197 1.49416900 140 141 140
1.14778415 -0.63151067 1.50981439 141 142 142
1.14923030 -0.63324274 1.53100707 141 142 144
1.15242600 0.71561128 1.77924371 94 103 113
1.14061415 0.73176491 1.75165856 82 97 101
1.15255153 0.73538935 1.76764792 86 100 105
1.14719447 0.74399690 1.76998276 81 93 100
1.15666265 0.75176474 1.78769643 85 97 108
1.15359156 0.76764261 1.78580868 87 100 117
1.16184407 -0.62455305 1.51315141 142 142 142
1.16781459 -0.63203382 1.53127791 141 142 142
1.16565961 -0.63457710 1.54066324 140 141 142
1.16463470 0.71889502 1.80290389 94 110 116
1.16775703 0.72707979 1.80773739 95 104 113
1.16362627 0.74844350 1.79653593 81 93 102
1.16671141 0.75072070 1.80450646 81 93 103
1.17715764 0.75497222 1.82228994 86 95 107
1.16929513 0.77233227 1.81497473 90 102 119
1.17400789 0.76757091 1.82228994 78 91 106
1.17400789 0.78331935 1.82228994 85 101 117
1.19307852 0.75793493 1.83710527 83 93 99
1.19218202 0.77304761 1.85049963 79 92 105
1.18035388 0.79072016 1.83214009 83 95 110
1.18676889 0.79820150 1.84209740 75 83 97
1.19659138 0.79087842 1.86234021 86 97 119
1.20561284 0.75104126 1.87134686 96 104 116
1.20804286 0.77287476 1.87136111 88 95 107
1.21652079 0.76599234 1.88827813 81 93 98
1.20431336 0.79381845 1.87435853 80 92 111
1.21438670 0.78956993 1.89003630 77 90 103
1.20653534 0.80394214 1.87781680 83 100 118
1.21495152 0.81445473 1.89091539 83 96 112
1.21664596 0.82049763 1.89355266 77 84 98
1.22005403 0.75551453 1.89885676 94 108 115
1.22348106 0.75269991 1.90419054 95 117 118
1.22797902 0.76950653 1.90776650 93 101 112
1.23571998 0.77290356 1.92582905 94 102 113
1.22990000 0.78012967 1.89885676 80 90 97
1.22348106 0.78890353 1.90419054 88 95 112
1.23609173 0.78786329 1.92037344 86 95 104
1.23405564 0.81451154 1.92582905 77 89 110
1.23757148 0.82350832 1.93131578 79 95 116
1.24572068 0.78954840 1.92584461 78 88 94
1.25049170 0.78796774 1.94797579 89 99 109
1.25909448 0.79028374 1.96490383 99 106 119
1.24110734 0.81247056 1.93683386 75 90 107
1.25354373 0.80767222 1.95360306 83 94 107
1.25909448 0.81405699 1.96490383 89 96 113
1.24704802 0.83093331 1.94610453 79 93 111
1.25934851 0.82493854 1.97061586 79 94 111
1.25183737 0.84313107 1.95357883 83 93 108
1.26119339 0.79573226 1.93683386 72 81 87
1.26506579 0.79694515 1.94798118 77 87 94
1.26730770 0.80154514 1.95922494 77 88 95
1.26830688 0.80714422 1.97292056 83 91 104
1.27223492 0.80874991 1.98944011 87 96 110
1.27131293 0.82849882 1.99148829 85 97 113
1.27446675 0.84229022 1.99968100 82 96 117
1.39893651 -0.53087327 1.44901260 142 143 142
1.40636826 -0.54318374 1.45626771 140 144 145
1.40794709 -0.52746357 1.45232812 144 145 145
1.41372070 -0.52507269 1.46595290 143 144 145
1.41678786 -0.51460129 1.43621159 138 142 140
1.41333777 -0.51661000 1.45194129 142 144 143
1.41510657 -0.51420820 1.46232608 139 140 141
1.42361530 -0.52388651 1.45136219 140 142 142
1.42727661 -0.52095112 1.47528321 141 142 140
1.42844931 -0.52161525 1.48444577 140 143 143
1.42476366 -0.51571130 1.44822291 141 143 141
1.42941311 -0.51447657 1.46741148 141 144 143
1.43605561 -0.51266998 1.48303659 138 142 142
1.44000065 -0.52066606 1.49644995 139 140 142
1.44192628 -0.51464665 1.46942031 144 145 143
1.44693553 -0.51296183 1.49193400 138 143 142
1.52683172 0.61472355 1.58989789 114 123 124
1.53607035 0.61693203 1.60638779 123 131 130
1.53073859 0.62498480 1.59504402 110 120 131
1.53808836 0.62614922 1.60511291 101 113 121
1.53935850 0.64871258 1.60258114 126 138 142
1.54407334 0.63400633 1.61097212 99 115 125
1.55588794 0.63978297 1.62563992 92 106 115
1.54944684 0.65570508 1.59504969 130 139 144
1.55097162 0.64972381 1.60984227 118 133 139
1.55807622 0.65216964 1.62499173 112 130 134
1.55602217 0.66339713 1.59129536 131 142 143
1.55606611 0.66397902 1.61021937 128 137 142
1.56056285 0.62874961 1.63347435 116 125 127
1.56812012 0.63463140 1.64138460 101 108 116
1.56338620 0.64568955 1.63347435 94 117 123
1.57260362 0.64853051 1.64480495 93 109 118
1.56059849 0.66698694 1.59880149 129 140 143
1.56514290 0.66778647 1.61125490 127 137 140
1.56902245 0.67260730 1.62858172 122 139 141
1.57704315 0.67004603 1.64737752 115 132 136
1.56644818 0.68316540 1.62858960 137 153 154
1.57804960 0.68498813 1.64138460 133 152 153
1.58986288 0.64806835 1.66866881 91 100 118
1.58374321 0.67793012 1.65474884 121 138 141
1.58651923 0.68879033 1.65391481 131 151 151
1.59454075 0.69131364 1.66723096 130 148 149
1.59659958 0.70184863 1.66968429 141 153 156
1.60160333 0.69807261 1.67795014 141 154 156
1.60137836 0.70464118 1.67519486 139 152 155
1.61366901 0.71404939 1.68967488 135 148 151
1.62020528 0.71856660 1.69897699 136 149 152
1.62484616 0.72275126 1.70539099 137 149 153
1.77415633 -1.01705086 1.83710527 143 146 146
1.79680920 -1.02819669 1.85723794 142 146 146
1.78803170 -1.00032115 1.81254506 138 142 141
1.79215184 -1.00648342 1.82862028 141 146 146
1.78549731 -0.99017292 1.85216355 140 146 144
1.79530764 -0.99883235 1.86234021 140 146 145
1.81962001 -1.04031718 1.86747062 143 147 147
1.80884343 -1.02632503 1.85386419 140 146 147
1.81316058 -1.03116592 1.86748958 141 145 146
1.81803277 -1.02457288 1.89355266 144 147 148
1.80505210 -1.01250553 1.83462268 142 147 146
1.80896899 -1.01820463 1.84713048 141 146 146
1.80836043 -1.00930350 1.87303724 140 146 145
1.81329445 -1.01586548 1.89003630 142 148 147
1.82521999 -1.04656930 1.87056589 144 149 149
1.83461972 -1.05086598 1.88770510 140 145 145
1.82071173 -1.02538741 1.85216355 141 147 147
1.82485728 -1.03564653 1.86955121 141 147 148
1.83114173 -1.03070234 1.89130897 142 146 147
1.83020186 -1.02725396 1.91225159 143 147 147
1.83797526 -1.03991508 1.92037344 144 145 147
1.83532517 -1.01666014 1.88827813 139 145 144
1.84363782 -1.06600654 1.89885676 143 146 146
1.85568368 -1.05183387 1.94238353 144 145 147
1.84238652 -1.02962748 1.89532069 141 146 146
1.86300266 -1.05789626 1.95357883 143 146 147
