ply
format ascii 1.0
element vertex 1068
property float x
property float y
property float z
property uchar red
property uchar green
property uchar blue
end_header
1.84363782 -1.06764758 1.89885676 144 146 148
0.53802806 -0.25597730 0.45526651 76 104 125
0.53845334 -0.25580549 0.45496097 74 105 129
0.53779596 -0.25512061 0.45374286 74 105 129
0.53750092 -0.25460935 0.45283356 66 98 122
0.53720701 -0.25410011 0.45192790 67 100 124
0.34635893 -0.27083287 0.48317310 142 143 141
0.34596109 -0.26987109 0.48145726 142 144 142
0.34581086 -0.26910660 0.48009336 142 145 142
0.34615037 -0.26872596 0.47941431 142 146 143
0.34697899 -0.26872596 0.47941431 142 146 143
0.34707126 -0.26815704 0.47839934 141 145 143
0.34789813 -0.26815704 0.47839934 140 144 142
0.34847906 -0.26796791 0.47806194 141 145 144
0.93199462 -0.70496941 1.25768435 140 144 145
0.93243849 -0.70366389 1.25535524 139 143 144
0.93460828 -0.70366389 1.25535524 140 144 145
0.93504649 -0.70236319 1.25303483 142 146 147
0.93376029 -0.69977623 1.24841964 144 146 147
0.93419760 -0.69848990 1.24612474 143 145 147
0.93463337 -0.69720829 1.24383819 143 144 146
1.84363782 -1.06436551 1.89885676 142 146 144
1.83663070 -1.05843592 1.88827813 142 146 145
1.82464659 -1.04966438 1.87262940 143 147 146
1.82788336 -1.04966438 1.87262940 143 148 149
0.53809220 -0.25484809 0.45465583 74 105 126
0.53779596 -0.25433636 0.45374286 74 105 126
0.53750092 -0.25382665 0.45283356 66 98 122
0.53756541 -0.25348800 0.45222938 66 100 125
0.34635893 -0.26999775 0.48317310 141 145 142
0.34645322 -0.26942164 0.48214212 141 145 142
0.34605592 -0.26846692 0.48043361 141 145 142
0.34639534 -0.26808691 0.47975361 141 145 142
0.34697899 -0.26789734 0.47941431 142 146 143
0.34707126 -0.26733014 0.47839934 141 145 144
0.34789813 -0.26733014 0.47839934 141 145 145
0.34847906 -0.26714161 0.47806194 141 145 146
0.93372697 -0.70410192 1.26002204 140 144 144
0.93416840 -0.70279557 1.25768435 140 144 144
0.93288070 -0.70019746 1.25303483 144 148 147
0.93504649 -0.70019746 1.25303483 146 147 149
0.93548304 -0.69890559 1.25072300 144 145 147
0.93591803 -0.69761848 1.24841964 143 144 146
0.93635142 -0.69633609 1.24612474 143 144 146
0.93678325 -0.69505841 1.24383819 143 144 146
1.83848810 -1.05811965 1.89355266 142 146 145
1.83152890 -1.05224121 1.88303292 142 146 145
1.82464659 -1.04642773 1.87262940 142 147 146
1.82284784 -1.04354501 1.86747062 144 150 151
1.82607555 -1.04354501 1.86747062 148 154 156
0.53773159 -0.25389197 0.45435110 70 104 122
0.53779596 -0.25355208 0.45374286 71 106 124
0.53750092 -0.25304398 0.45283356 66 101 123
0.34601703 -0.26954687 0.48386285 142 146 143
0.34660596 -0.26935458 0.48351771 141 145 142
0.34694675 -0.26897091 0.48282894 141 145 142
0.34654713 -0.26801643 0.48111558 141 145 143
0.34664065 -0.26744699 0.48009336 141 145 143
0.34722453 -0.26725772 0.47975361 142 146 146
0.34814382 -0.26669148 0.47873718 139 143 144
0.34847906 -0.26631534 0.47806194 139 143 144
0.93372697 -0.70192403 1.26002204 140 144 143
0.93416840 -0.70062178 1.25768435 140 145 144
0.93288070 -0.69803166 1.25303483 140 146 144
0.93677801 -0.69932431 1.25535524 142 144 145
0.93721223 -0.69803166 1.25303483 142 143 145
0.93764484 -0.69674379 1.25072300 142 143 145
0.93635142 -0.69418222 1.24612474 142 143 145
1.83848810 -1.05484676 1.89355266 142 146 145
1.83152890 -1.04898655 1.88303292 142 146 145
1.81962001 -1.04031718 1.86747062 143 147 147
1.81783998 -1.03745914 1.86234021 143 149 151
1.82105887 -1.03745914 1.86234021 145 151 153
0.53815621 -0.25293714 0.45404679 70 106 125
0.53786021 -0.25242990 0.45313627 69 104 126
0.34626418 -0.26890248 0.48420846 138 142 140
0.34685338 -0.26871052 0.48386285 139 143 142
0.34719405 -0.26832747 0.48317310 140 144 143
0.34703976 -0.26756465 0.48179945 141 144 144
0.34762543 -0.26737460 0.48145726 142 144 145
0.34771672 -0.26680613 0.48043361 142 144 145
0.93416840 -0.69844800 1.25768435 140 143 141
0.93288070 -0.69586593 1.25303483 138 139 138
0.93677801 -0.69715458 1.25535524 138 139 141
0.93894780 -0.69715458 1.25535524 142 143 144
0.93937802 -0.69586593 1.25303483 141 142 144
0.93807584 -0.69330287 1.24841964 141 142 144
1.81493652 -1.03995430 1.87262940 142 146 145
1.83848810 -1.05157387 1.89355266 142 146 146
1.83152890 -1.04573178 1.88303292 142 146 147
1.82464659 -1.03995430 1.87262940 141 146 147
1.81285965 -1.03140676 1.85723794 139 145 147
1.81606972 -1.03140676 1.85723794 141 147 149
1.80444872 -1.02299857 1.84209740 141 147 149
1.81751037 -1.02858865 1.85216355 141 147 149
1.83071566 -1.03424025 1.86234021 141 147 149
0.53815621 -0.25215235 0.45404679 73 108 130
0.53821999 -0.25181502 0.45343935 74 106 128
0.34626418 -0.26806554 0.48420846 141 143 145
0.34744167 -0.26768315 0.48351771 142 143 144
0.34728658 -0.26692161 0.48214212 142 143 144
0.93288070 -0.69370013 1.25303483 141 142 140
0.93851602 -0.69627416 1.25768435 140 141 141
0.93894780 -0.69498479 1.25535524 144 145 145
0.93937802 -0.69370013 1.25303483 139 141 142
0.93980658 -0.69242024 1.25072300 139 143 144
1.77415633 -1.01705086 1.83710527 143 146 146
1.79680920 -1.02819669 1.85723794 142 146 146
1.80496442 -1.03102136 1.86234021 142 146 146
1.83336687 -1.04538095 1.88827813 139 145 146
1.83152890 -1.04247713 1.88303292 136 142 144
1.81962001 -1.03386164 1.86747062 136 142 144
1.80790651 -1.02538741 1.85216355 138 144 144
1.81110775 -1.02538741 1.85216355 141 147 147
1.79469490 -1.01430213 1.83214009 141 147 147
1.80763268 -1.01981461 1.84209740 141 147 147
1.82071173 -1.02538741 1.85216355 141 147 147
1.81400049 -1.01981461 1.84209740 142 147 147
0.53815621 -0.25136757 0.45404679 80 111 134
0.34641704 -0.26799434 0.48559588 142 143 146
0.34700778 -0.26780251 0.48524827 141 142 143
0.34784651 -0.26780251 0.48524827 140 141 140
0.34793803 -0.26722863 0.48420846 142 143 141
0.34802917 -0.26665723 0.48317310 142 143 142
0.34961185 -0.26722863 0.48420846 141 142 141
0.34945035 -0.26646730 0.48282894 141 142 141
0.93460828 -0.69281501 1.25535524 142 143 143
0.93851602 -0.69410038 1.25768435 142 143 143
1.80001926 -1.02498662 1.85723794 142 147 147
1.82140994 -1.03348088 1.87262940 141 147 147
1.80964959 -1.02498662 1.85723794 141 147 146
1.80298030 -1.01940084 1.84711671 141 147 146
1.80617285 -1.01940084 1.84711671 141 147 146
1.78504610 -1.00569916 1.82228994 141 147 147
1.79786170 -1.01113546 1.83214009 141 147 147
1.80590916 -1.01387560 1.83710527 142 147 147
1.80419505 -1.01113546 1.83214009 143 147 146
1.78803170 -1.00032115 1.81254506 138 142 141
0.34741250 -0.26792270 0.48699126 140 141 141
0.34750530 -0.26734653 0.48594397 141 142 141
0.34884533 -0.26773039 0.48664168 142 143 141
0.34868520 -0.26696378 0.48524827 142 143 141
0.35111666 -0.26753831 0.48629257 140 141 140
0.35019863 -0.26620159 0.48386285 141 142 141
0.93590480 -0.69321269 1.26002204 144 145 145
0.93634224 -0.69192654 1.25768435 143 144 144
0.93851602 -0.69192654 1.25768435 142 143 143
0.94243830 -0.69321269 1.26002204 140 142 142
0.94111758 -0.69064522 1.25535524 137 141 140
1.80001926 -1.02177644 1.85723794 142 147 146
1.82645535 -1.03309810 1.87781680 141 147 147
1.81462109 -1.02458358 1.86234021 141 147 147
1.80790651 -1.01898479 1.85216355 142 147 147
1.80617285 -1.01620817 1.84711671 142 147 147
1.78504610 -1.00254953 1.82228994 142 147 148
1.79786170 -1.00796866 1.83214009 142 147 147
1.81081653 -1.01344681 1.84209740 142 146 147
0.34841368 -0.26785067 0.48839471 142 143 143
0.34850457 -0.26727301 0.48734137 143 144 143
0.35010198 -0.26785067 0.48839471 143 143 142
0.34993768 -0.26708099 0.48699126 141 141 141
0.35052758 -0.26688924 0.48664168 139 140 140
0.35288867 -0.26804379 0.48874682 140 140 140
0.35145292 -0.26631570 0.48559588 140 140 140
0.93634224 -0.68975276 1.25768435 144 145 145
0.94026047 -0.69103485 1.26002204 143 144 144
0.94243830 -0.69103485 1.26002204 140 142 142
1.83848810 -1.03848255 1.89355266 142 146 147
1.83152890 -1.03271317 1.88303292 142 146 147
1.81606972 -1.01856637 1.85723794 143 147 147
1.78985751 -1.00209367 1.82720172 142 146 145
0.34850457 -0.26643068 0.48734137 143 143 143
0.35060719 -0.26739180 0.48909944 141 141 141
0.35044119 -0.26662233 0.48769197 140 140 140
0.35220984 -0.26604813 0.48664168 139 140 140
1.83152890 -1.02945852 1.88303292 142 146 147
1.79469490 -1.00163531 1.83214009 141 145 143
1.84363782 -1.03482735 1.89885676 142 146 147
1.83663070 -1.02906227 1.88827813 142 146 147
1.82066369 -1.03154540 1.89885676 143 147 148
1.81885099 -1.02866399 1.89355266 143 146 147
1.80698144 -1.02011549 1.87781680 143 146 147
1.84176087 -1.02866399 1.89355266 141 147 147
1.86300266 -1.05789626 1.95357883 143 146 147
1.85568368 -1.05183387 1.94238353 144 145 147
1.83797526 -1.03991508 1.92037344 144 145 147
1.82066369 -1.02826333 1.89885676 144 145 147
1.81885099 -1.02539110 1.89355266 145 147 148
1.80698144 -1.01686978 1.87781680 144 146 148
1.80025339 -1.01126730 1.86747062 142 146 147
1.83848810 -1.02539110 1.89355266 141 147 146
1.84176087 -1.02539110 1.89355266 140 146 145
0.53457564 -0.24423820 0.45102584 67 103 129
0.53642589 -0.24472667 0.45192790 71 102 125
1.83278322 -1.03366756 1.91494870 143 147 148
1.81557810 -1.02211821 1.89355266 145 149 150
1.81885099 -1.02211821 1.89355266 144 149 149
1.80698144 -1.01362419 1.87781680 141 147 147
1.80025339 -1.00803947 1.86747062 141 147 146
1.81347275 -1.01362419 1.87781680 141 147 145
1.81671846 -1.01362419 1.87781680 141 147 145
1.81996405 -1.01362419 1.87781680 141 147 145
1.83336687 -1.01927114 1.88827813 140 146 145
1.83663070 -1.01927114 1.88827813 140 146 145
0.53308672 -0.24313511 0.45042646 73 102 125
0.53528792 -0.24378303 0.45162681 74 102 124
0.53642589 -0.24394555 0.45192790 74 102 121
0.53984898 -0.24443442 0.45283356 79 105 123
1.82762051 -1.02745533 1.90955448 143 147 148
1.81557810 -1.01884544 1.89355266 144 149 149
1.81378448 -1.01600742 1.88827813 139 147 145
1.80025339 -1.00481176 1.86747062 140 147 145
1.80846322 -1.00758743 1.87262940 141 147 147
1.81493652 -1.00758743 1.87262940 140 146 146
1.83336687 -1.01600742 1.88827813 140 146 145
1.83663070 -1.01600742 1.88827813 139 145 145
0.53535521 -0.24267907 0.45102584 74 103 120
0.53912866 -0.24332665 0.45222938 79 106 124
0.54063165 -0.24365173 0.45283356 76 103 121
1.82762051 -1.02415478 1.90955448 144 148 149
1.81052077 -1.01274359 1.88827813 143 148 148
1.80198979 -1.00435078 1.87262940 139 147 144
1.79530764 -0.99883235 1.86234021 140 146 145
1.80348122 -1.00158393 1.86747062 140 146 145
1.81493652 -1.00435078 1.87262940 140 146 144
1.83663070 -1.01274359 1.88827813 140 144 144
0.53769386 -0.24189951 0.45102584 72 102 119
0.53919095 -0.24222183 0.45162681 72 101 119
1.83278322 -1.02373815 1.91494870 143 147 146
1.78549731 -0.99017292 1.85216355 140 146 144
0.53817880 -0.24063963 0.45012739 70 99 118
0.53506678 -0.23830561 0.45012739 74 99 124
0.53691435 -0.23878127 0.45102584 70 95 120
0.53613478 -0.23800170 0.45102584 76 101 126
0.53727180 -0.23816016 0.45132613 77 102 127
0.53649169 -0.23738009 0.45132613 73 96 128
0.53727180 -0.23738009 0.45132613 76 99 132
0.53697932 -0.23690690 0.45042646 77 100 133
0.53811544 -0.23706442 0.45072597 76 99 132
0.53853637 -0.23690690 0.45042646 77 99 131
0.53464377 -0.23612837 0.45042646 75 103 128
0.53649169 -0.23660000 0.45132613 69 96 129
0.53727180 -0.23660000 0.45132613 69 96 129
0.53769386 -0.23644258 0.45102584 74 98 132
0.53847343 -0.23644258 0.45102584 73 97 132
0.53889447 -0.23628537 0.45072597 75 98 132
0.53535521 -0.23566303 0.45102584 74 104 126
0.53684914 -0.23597702 0.45162681 70 98 131
0.53762972 -0.23597702 0.45162681 70 98 131
0.53841031 -0.23597702 0.45162681 71 99 132
0.53919095 -0.23597702 0.45162681 72 100 132
0.53961205 -0.23581992 0.45132613 72 101 131
0.52962071 -0.23441556 0.45012739 89 103 108
0.53571165 -0.23503985 0.45132613 74 104 124
0.53756541 -0.23551023 0.45222938 73 102 130
0.53798813 -0.23535323 0.45192790 72 101 129
0.53876925 -0.23535323 0.45192790 70 99 127
-0.12282977 -0.47741947 0.91979897 77 74 74
-0.12123998 -0.47741947 0.91979897 75 74 73
-0.11965018 -0.47741947 0.91979897 75 74 73
0.53032500 -0.23394825 0.45072597 87 107 109
0.53351074 -0.23363756 0.45012739 74 104 122
0.53642589 -0.23457210 0.45192790 69 99 118
0.53792429 -0.23488529 0.45253128 63 91 113
0.53798813 -0.23457210 0.45192790 71 100 121
0.53876925 -0.23457210 0.45192790 73 101 125
0.53955036 -0.23457210 0.45192790 74 102 126
0.53997153 -0.23441583 0.45162681 70 100 124
-0.12299667 -0.47647619 0.92104870 77 75 73
-0.12107570 -0.47518492 0.91855264 76 75 73
-0.11965018 -0.47582969 0.91979897 76 75 72
-0.11742308 -0.47326109 0.91483378 76 75 72
0.53067786 -0.23332433 0.45102584 81 106 110
0.53152966 -0.23301427 0.45042646 79 111 122
0.53351074 -0.23285955 0.45012739 72 103 122
0.53642589 -0.23379098 0.45192790 68 98 118
0.53834707 -0.23394695 0.45222938 79 105 127
0.53912866 -0.23394695 0.45222938 78 103 128
0.53955036 -0.23379098 0.45192790 77 102 127
0.53961205 -0.23347968 0.45132613 73 101 125
-0.12350006 -0.47682783 0.92481834 78 76 75
-0.12140471 -0.47488424 0.92104870 76 75 72
-0.11981275 -0.47488424 0.92104870 76 75 72
0.52997261 -0.23223574 0.45042646 89 114 123
0.53117675 -0.23208153 0.45012739 76 109 124
0.53386521 -0.23223574 0.45042646 72 104 122
0.53876925 -0.23300986 0.45192790 76 103 127
0.53919095 -0.23285462 0.45162681 74 102 126
0.53925300 -0.23254478 0.45102584 73 101 125
0.54003257 -0.23254478 0.45102584 71 100 124
-0.12156988 -0.47393620 0.92230183 75 75 74
0.53883195 -0.23191951 0.45132613 73 102 126
0.53889447 -0.23161112 0.45072597 71 101 124
-0.12469083 -0.47819757 0.93373531 75 76 77
-0.12223510 -0.47492671 0.92734861 75 76 78
-0.12469083 -0.47658369 0.93373531 76 76 78
-0.12206812 -0.47267726 0.92608178 75 76 78
-0.12140471 -0.46851641 0.92104870 75 76 78
-0.11868396 -0.46410239 0.91237128 75 76 78
-0.11104634 -0.44609064 0.87696230 75 75 76
-0.12400760 -0.47076216 0.92861897 77 75 76
-0.12123998 -0.46629089 0.91979897 77 76 77
-0.11852444 -0.46190375 0.91114497 76 76 77
-0.11555179 -0.45638299 0.90025479 77 76 77
-0.11119018 -0.44515076 0.87809825 75 75 75
-0.10854761 -0.44058511 0.86909211 75 75 75
0.52997261 -0.22834311 0.45042646 97 115 121
-0.12350006 -0.46723700 0.92481834 79 75 76
-0.12074846 -0.46281716 0.91607004 79 75 76
-0.11852444 -0.46032891 0.91114497 79 75 76
-0.11601400 -0.45664626 0.90385580 77 76 76
-0.11235448 -0.44827843 0.88729298 76 75 75
0.55187851 -0.23490034 0.46494639 76 104 124
-0.27470392 -0.36003482 0.71507579 66 66 67
-0.27289224 -0.35927686 0.71357036 65 65 65
-0.12526943 -0.46627462 0.92608178 79 75 76
-0.12333181 -0.46500412 0.92355835 79 75 76
-0.12091186 -0.46185794 0.91730964 79 75 76
-0.11868396 -0.45937151 0.91237128 79 75 76
-0.11585952 -0.45447806 0.90265226 78 76 76
-0.11133440 -0.44268876 0.87923717 76 75 75
-0.10882666 -0.43870568 0.87132627 76 75 77
-0.10636364 -0.43479365 0.86355650 76 76 77
0.55145311 -0.23425740 0.46526551 76 104 124
0.55301642 -0.23457940 0.46590504 76 105 123
-0.27528468 -0.35955745 0.71658754 64 67 68
-0.27317980 -0.35842082 0.71432227 64 64 66
-0.12316401 -0.46277735 0.92230183 80 76 77
-0.12074846 -0.45965046 0.91607004 80 76 77
-0.11868396 -0.45779455 0.91237128 79 75 76
-0.11104634 -0.44002762 0.87696230 76 75 77
-0.10910714 -0.43832648 0.87357193 77 76 78
-0.10663532 -0.43440786 0.86576223 77 76 77
1.07280576 -0.52899122 1.05426419 139 148 145
1.07995200 -0.52981520 1.05590630 137 146 143
0.55183184 -0.23361357 0.46558505 78 104 122
0.55339676 -0.23393489 0.46622548 77 104 122
-0.27586791 -0.35907802 0.71810579 67 69 71
-0.27346796 -0.35756293 0.71507579 64 65 67
-0.12509854 -0.46244156 0.92481834 80 78 79
-0.12316401 -0.46118322 0.92230183 81 78 79
-0.12074846 -0.45806712 0.91607004 82 78 79
-0.11868396 -0.45621759 0.91237128 80 76 77
-0.11133440 -0.43964937 0.87923717 79 75 78
-0.10938907 -0.43794531 0.87582928 79 75 78
1.07280576 -0.52716899 1.05426419 138 147 144
1.07295930 -0.52635044 1.05262709 139 146 144
1.07645023 -0.52716899 1.05426419 138 145 144
1.07995200 -0.52799010 1.05590630 139 146 145
1.08009458 -0.52716899 1.05426419 140 146 146
1.08360207 -0.52799010 1.05590630 140 146 146
1.08205616 -0.52635044 1.05262709 140 146 146
1.08219516 -0.52553439 1.05099511 140 146 146
0.55107486 -0.23248948 0.46494639 75 103 123
0.55263656 -0.23280883 0.46558505 75 103 123
-0.27616045 -0.35821632 0.71886730 69 70 72
-0.27346796 -0.35632700 0.71507579 66 67 69
-0.12316401 -0.45958909 0.92230183 81 80 80
-0.12091186 -0.45710146 0.91730964 81 80 80
-0.11868396 -0.45464063 0.91237128 80 79 79
-0.11478958 -0.44564378 0.89431643 80 78 78
-0.11191502 -0.44041458 0.88382250 81 77 78
-0.10938907 -0.43643150 0.87582928 80 76 77
1.06750119 -0.52453101 1.05262709 140 145 145
1.07098353 -0.52534676 1.05426419 141 145 146
1.07280576 -0.52534676 1.05426419 140 144 145
1.07462800 -0.52534676 1.05426419 139 143 145
1.07812691 -0.52616507 1.05590630 139 144 146
1.08163679 -0.52698594 1.05755353 140 145 147
1.08177698 -0.52616507 1.05590630 140 146 147
1.08698833 -0.52780932 1.05920601 140 146 146
1.08712041 -0.52698594 1.05755353 140 146 147
1.08556128 -0.52534676 1.05426419 140 146 147
0.55107486 -0.23168586 0.46494639 79 103 122
0.55225730 -0.23184487 0.46526551 78 102 122
-0.27645361 -0.35735276 0.71963042 70 70 72
-0.27375674 -0.35546601 0.71583086 66 67 69
-0.12316401 -0.45799497 0.92230183 81 81 79
-0.12091186 -0.45551598 0.91730964 81 80 78
-0.11884391 -0.45367426 0.91360086 80 79 77
-0.11509325 -0.44527289 0.89668232 80 78 76
-0.11191502 -0.43888697 0.88382250 84 80 78
-0.10924792 -0.43435651 0.87469918 80 76 75
1.06733918 -0.52352458 1.05426419 140 144 146
1.06750119 -0.52271163 1.05262709 139 143 146
1.07098353 -0.52352458 1.05426419 137 141 144
1.07280576 -0.52352458 1.05426419 137 141 144
1.07462800 -0.52352458 1.05426419 138 142 145
1.07812691 -0.52434003 1.05590630 140 144 147
1.08163679 -0.52515805 1.05755353 140 144 147
1.08177698 -0.52434003 1.05590630 140 145 147
1.08868933 -0.52680171 1.06086361 140 146 148
1.08881903 -0.52597862 1.05920601 140 146 148
1.08894837 -0.52515805 1.05755353 138 144 145
1.09419024 -0.52680171 1.06086361 138 144 145
0.54946762 -0.23088224 0.46494639 81 105 122
0.55069721 -0.23072399 0.46462771 79 102 124
0.55263656 -0.23119938 0.46558505 77 101 124
-0.27645361 -0.35610893 0.71963042 70 70 73
-0.27375674 -0.35422873 0.71583086 66 66 69
-0.12333181 -0.45702264 0.92355835 82 81 79
-0.12107570 -0.45454556 0.91855264 82 81 79
-0.11884391 -0.45209518 0.91360086 81 80 77
-0.11524570 -0.44431075 0.89787000 80 79 75
-0.11191502 -0.43735936 0.88382250 83 79 76
1.06701362 -0.52333015 1.05755353 139 143 146
1.06733918 -0.52170235 1.05426419 139 143 145
1.06750119 -0.52089226 1.05262709 139 143 145
1.07098353 -0.52170235 1.05426419 140 144 147
1.07113993 -0.52089226 1.05262709 141 145 148
1.07295930 -0.52089226 1.05262709 140 144 147
1.07645023 -0.52170235 1.05426419 140 144 147
1.07995200 -0.52251500 1.05590630 139 143 146
1.08009458 -0.52170235 1.05426419 139 144 146
1.08698833 -0.52414787 1.05920601 138 144 144
1.08881903 -0.52414787 1.05920601 136 142 142
1.08894837 -0.52333015 1.05755353 135 141 139
1.09419024 -0.52496809 1.06086361 138 144 142
0.55131090 -0.23118858 0.46718940 88 111 126
0.55022240 -0.23039466 0.46558505 81 105 122
0.55064893 -0.23023653 0.46526551 79 102 123
0.55183184 -0.23039466 0.46558505 78 101 126
0.55377764 -0.23087035 0.46654636 76 100 127
-0.27645361 -0.35486510 0.71963042 71 71 74
-0.27375674 -0.35299149 0.71583086 66 66 69
-0.12333181 -0.45542634 0.92355835 81 80 78
-0.12107570 -0.45295790 0.91855264 82 81 78
-0.11884391 -0.45051610 0.91360086 82 81 77
-0.11555179 -0.44393486 0.90025479 81 80 76
-0.11220761 -0.43697116 0.88613313 83 79 76
-0.10938907 -0.43189010 0.87582928 81 79 75
1.06701362 -0.52150226 1.05755353 139 143 144
1.06221306 -0.51826811 1.05099511 139 143 144
1.06733918 -0.51988018 1.05426419 139 143 144
1.06750119 -0.51907289 1.05262709 140 144 145
1.06932056 -0.51907289 1.05262709 140 144 145
1.06947923 -0.51826811 1.05099511 139 143 144
1.07129586 -0.51826811 1.05099511 138 143 144
1.07311237 -0.51826811 1.05099511 139 143 145
1.07827246 -0.51988018 1.05426419 138 144 145
1.07841742 -0.51907289 1.05262709 138 144 144
1.08360207 -0.52068996 1.05590630 138 144 144
1.08542705 -0.52068996 1.05590630 139 145 145
1.08725214 -0.52068996 1.05590630 138 144 143
1.09248054 -0.52231711 1.05920601 140 146 144
0.55045462 -0.23069906 0.46783426 111 124 129
0.55169111 -0.23053996 0.46751162 85 106 125
0.55097926 -0.22990574 0.46622548 80 103 125
0.55178505 -0.22990574 0.46622548 78 101 127
-0.27616045 -0.35324630 0.71886730 74 74 76
-0.27375674 -0.35175422 0.71583086 68 68 70
-0.27108818 -0.34990677 0.71207124 63 63 65
-0.12333181 -0.45383006 0.92355835 80 79 79
-0.12107570 -0.45137027 0.91855264 81 80 80
-0.11884391 -0.44893700 0.91360086 79 78 76
-0.11601400 -0.44414833 0.90385580 79 79 76
-0.11250173 -0.43658093 0.88845587 80 80 76
-0.10953058 -0.43093306 0.87696230 78 78 74
1.06701362 -0.51967436 1.05755353 139 143 144
1.06386244 -0.51725352 1.05262709 139 143 144
1.06900167 -0.51886487 1.05590630 140 144 145
1.06750119 -0.51725352 1.05262709 140 144 145
1.06932056 -0.51725352 1.05262709 137 143 143
1.06947923 -0.51645154 1.05099511 135 141 141
1.07129586 -0.51645154 1.05099511 137 143 142
1.07311237 -0.51645154 1.05099511 138 144 143
1.07827246 -0.51805794 1.05426419 139 144 143
1.07841742 -0.51725352 1.05262709 139 143 143
1.08698833 -0.52048635 1.05920601 139 144 143
1.08712041 -0.51967436 1.05755353 140 144 143
1.08894837 -0.51967436 1.05755353 139 145 143
0.55121547 -0.23020819 0.46848089 118 121 128
0.55202520 -0.23020819 0.46848089 105 109 117
0.55207187 -0.22989045 0.46783426 79 101 123
0.55211842 -0.22957358 0.46718940 78 102 127
0.56314182 -0.23245727 0.47305781 76 100 130
0.56356621 -0.23229516 0.47272792 77 100 130
-0.27733687 -0.35350329 0.72192955 75 75 76
-0.27404612 -0.35088751 0.71658754 70 70 70
-0.27137324 -0.34904265 0.71281999 64 65 65
-0.26985744 -0.34867603 0.71207124 60 61 62
-0.26806352 -0.34794503 0.71057844 58 58 60
-0.12333181 -0.45223376 0.92355835 78 77 77
-0.12107570 -0.44978261 0.91855264 79 78 78
-0.11884391 -0.44735792 0.91360086 79 79 79
-0.11616889 -0.44317701 0.90506256 79 80 80
-0.11279739 -0.43618867 0.89079088 79 79 77
-0.10967246 -0.42997354 0.87809825 77 77 75
1.07066941 -0.51784647 1.05755353 140 144 145
1.06916130 -0.51623571 1.05426419 141 145 146
1.07098353 -0.51623571 1.05426419 141 146 145
1.07113993 -0.51543415 1.05262709 142 146 145
1.07129586 -0.51463503 1.05099511 140 144 143
1.07311237 -0.51463503 1.05099511 139 143 141
1.07827246 -0.51623571 1.05426419 139 143 140
1.08009458 -0.51623571 1.05426419 139 143 142
1.08868933 -0.51946723 1.06086361 140 144 143
1.09052300 -0.51946723 1.06086361 140 144 143
1.09235656 -0.51946723 1.06086361 140 146 144
0.55197841 -0.22971597 0.46912929 120 123 129
0.55278927 -0.22971597 0.46912929 110 114 121
0.55245316 -0.22924004 0.46815735 75 97 119
0.56392890 -0.23196337 0.47371897 75 99 129
-0.28751019 -0.36031362 0.73844427 81 82 82
-0.28623384 -0.36031362 0.73844427 76 77 79
-0.28402930 -0.35913995 0.73603892 75 76 76
-0.27912039 -0.35452080 0.72657216 74 75 75
-0.27550226 -0.35150680 0.72039515 69 69 69
-0.27251947 -0.34927973 0.71583086 64 64 64
-0.27042556 -0.34817672 0.71357036 60 61 61
-0.12333181 -0.45063746 0.92355835 78 77 79
-0.12107570 -0.44819498 0.91855264 80 79 81
-0.11868396 -0.44517887 0.91237128 80 79 81
-0.11555179 -0.43926680 0.90025479 80 79 81
-0.11250173 -0.43350971 0.88845587 77 77 78
-0.10953058 -0.42790154 0.87696230 76 76 77
0.22946854 -0.42136037 0.86355650 60 59 59
0.22979021 -0.41922420 0.85917848 61 60 60
0.23335798 -0.41763625 0.85592407 62 57 57
1.06916130 -0.51441354 1.05426419 141 145 144
1.07098353 -0.51441354 1.05426419 138 142 138
1.07113993 -0.51361477 1.05262709 139 143 139
1.07129586 -0.51281846 1.05099511 139 143 138
1.07311237 -0.51281846 1.05099511 139 143 138
0.55389500 -0.22969992 0.47075823 127 130 136
0.55393928 -0.22938134 0.47010529 118 122 129
0.55321723 -0.22874682 0.46880487 75 97 117
0.56432325 -0.23130623 0.47405025 75 99 127
0.56474769 -0.23114458 0.47371897 75 98 127
-0.28813794 -0.35982120 0.74005657 77 79 79
-0.28717232 -0.36021444 0.74086541 75 76 78
-0.28183907 -0.35670587 0.73364919 72 73 73
-0.27638340 -0.35138190 0.72269917 67 67 67
-0.27396598 -0.34988981 0.71963042 62 62 62
-0.27071050 -0.34730896 0.71432227 60 60 60
-0.12350006 -0.44965377 0.92481834 81 80 82
-0.12123998 -0.44721332 0.91979897 83 81 83
-0.11494122 -0.43539789 0.89549780 79 78 80
-0.11220761 -0.43084472 0.88613313 77 77 79
-0.10924792 -0.42528543 0.87469918 77 77 79
0.23034884 -0.42147854 0.86686939 61 60 60
0.23066728 -0.41933361 0.86245781 61 60 58
0.23156874 -0.41826931 0.86026883 62 59 58
0.23305564 -0.41826931 0.86026883 64 58 58
0.23424527 -0.41773918 0.85917848 65 58 58
1.06750119 -0.51179534 1.05262709 141 144 141
1.06766272 -0.51100188 1.05099511 136 140 135
1.06947923 -0.51100188 1.05099511 139 143 138
1.07129586 -0.51100188 1.05099511 140 144 139
0.55470866 -0.22888626 0.47075823 115 121 126
0.55321723 -0.22793652 0.46880487 83 103 120
0.56432325 -0.23048687 0.47405025 78 100 131
-0.28811696 -0.36011463 0.74330246 75 78 80
-0.28557968 -0.35854205 0.74005657 71 73 75
-0.27454889 -0.34938779 0.72116154 62 62 63
-0.12156988 -0.44683611 0.92230183 85 81 83
-0.11162395 -0.42708001 0.88152385 77 76 78
-0.10896672 -0.42268279 0.87244767 77 76 78
0.23123594 -0.42159760 0.87020773 61 60 60
0.23155107 -0.41944385 0.86576223 63 59 58
0.23394629 -0.41837519 0.86355650 65 58 58
0.23513934 -0.41784292 0.86245781 66 57 58
1.06584609 -0.50918531 1.05099511 144 145 142
1.06601000 -0.50839710 1.04936814 141 143 140
1.06782365 -0.50839710 1.04936814 143 145 142
1.06963742 -0.50839710 1.04936814 144 145 143
0.55505133 -0.22854874 0.47174102 118 124 129
0.55548012 -0.22838980 0.47141296 109 115 121
0.55398345 -0.22744082 0.46945420 95 110 127
0.55402756 -0.22712624 0.46880487 88 102 122
0.56392890 -0.22950701 0.47371897 70 92 121
0.56474769 -0.22950701 0.47371897 71 98 125
-0.28875020 -0.35961851 0.74493611 54 55 59
-0.28589180 -0.35765338 0.74086541 54 56 59
-0.27727020 -0.35000306 0.72501802 60 61 64
-0.27484128 -0.34851208 0.72192955 60 61 63
-0.27156898 -0.34593326 0.71658754 58 59 61
-0.11463834 -0.43116319 0.89313811 78 75 78
-0.11162395 -0.42555636 0.88152385 78 76 78
0.23093949 -0.41955495 0.86909211 61 60 60
0.23155107 -0.41794744 0.86576223 64 58 58
0.23304746 -0.41794744 0.86576223 65 58 58
0.23454386 -0.41794744 0.86576223 66 57 58
0.23573919 -0.41741437 0.86465794 66 57 58
0.23663004 -0.41635224 0.86245781 66 57 58
1.06584609 -0.50736874 1.05099511 143 144 140
1.06436229 -0.50580037 1.04774630 141 142 140
1.06782365 -0.50658333 1.04936814 143 144 142
1.06963742 -0.50658333 1.04936814 143 144 142
0.55265141 -0.22741686 0.47108537 136 140 139
0.55664146 -0.22805077 0.47239849 111 119 126
0.55706972 -0.22789195 0.47206953 102 110 131
0.55710977 -0.22757500 0.47141296 94 102 126
0.56392890 -0.22868823 0.47371897 69 101 126
0.56474769 -0.22868823 0.47371897 69 101 126
-0.28651807 -0.35715353 0.74248832 41 42 46
-0.28337249 -0.35482174 0.73764074 47 47 51
-0.27876088 -0.35062492 0.72891593 51 51 55
-0.27513427 -0.34763452 0.72269917 52 52 55
-0.27243295 -0.34579128 0.71886730 53 53 56
-0.11463834 -0.42961946 0.89313811 79 75 76
-0.11162395 -0.42403272 0.88152385 78 75 77
0.22797595 -0.41539001 0.86355650 62 59 60
0.22917660 -0.41486153 0.86245781 63 59 60
0.23037419 -0.41433439 0.86136192 63 59 60
0.23186298 -0.41433439 0.86136192 64 58 59
0.23364866 -0.41486153 0.86245781 65 58 59
0.23513934 -0.41486153 0.86245781 65 58 58
0.23632936 -0.41433439 0.86136192 64 58 58
0.23781815 -0.41433439 0.86136192 64 58 58
1.06584609 -0.50555223 1.05099511 140 141 139
1.06617332 -0.50398946 1.04774630 142 143 141
1.06963742 -0.50476962 1.04936814 142 143 141
0.55643654 -0.22882889 0.47571358 138 145 144
0.55569893 -0.22818837 0.47438198 137 142 142
0.55457836 -0.22739273 0.47272792 136 140 141
0.55780756 -0.22771032 0.47338817 118 126 133
0.56186515 -0.22802879 0.47405025 76 101 130
0.56268454 -0.22802879 0.47405025 74 101 130
0.56350386 -0.22802879 0.47405025 69 104 129
0.56471813 -0.22818837 0.47438198 67 102 128
0.56553805 -0.22818837 0.47438198 66 101 126
0.56596196 -0.22802879 0.47405025 66 101 126
-0.28337249 -0.35354677 0.73764074 54 54 57
-0.27996504 -0.35087419 0.73206460 52 52 55
-0.11478958 -0.42864048 0.89431643 79 75 76
-0.11162395 -0.42250910 0.88152385 79 76 77
0.22710802 -0.41232169 0.86026883 62 58 59
0.22830519 -0.41179910 0.85917848 62 58 59
0.23008183 -0.41232169 0.86026883 62 58 59
0.23127523 -0.41179910 0.85917848 62 57 59
0.23335177 -0.41284561 0.86136192 63 58 60
0.23513934 -0.41337085 0.86245781 63 59 60
0.23602945 -0.41232169 0.86026883 63 59 60
0.23781815 -0.41284561 0.86136192 63 59 58
0.23900326 -0.41232169 0.86026883 62 57 57
0.55717832 -0.22864848 0.47705266 135 143 144
0.55761045 -0.22848769 0.47671717 139 147 148
0.55647773 -0.22768711 0.47504684 137 142 144
0.55815870 -0.22736843 0.47438198 124 132 138
0.55819738 -0.22705066 0.47371897 119 127 134
0.55940711 -0.22720943 0.47405025 85 103 129
0.56265211 -0.22752765 0.47471419 73 101 130
0.56307828 -0.22736843 0.47438198 73 102 130
0.56468856 -0.22768711 0.47504684 68 102 131
0.56550962 -0.22768711 0.47504684 67 101 130
0.56633067 -0.22768711 0.47504684 68 101 128
0.56675464 -0.22752765 0.47471419 68 102 127
0.56638521 -0.22705066 0.47371897 69 102 128
-0.28337249 -0.35227183 0.73764074 65 65 66
-0.28087500 -0.35074520 0.73444402 59 59 61
-0.27660874 -0.34698585 0.72657216 55 55 59
0.22739659 -0.41135681 0.86136192 61 57 58
0.22830519 -0.41031408 0.85917848 61 57 58
0.23008183 -0.41083479 0.86026883 61 57 59
0.23127523 -0.41031408 0.85917848 62 58 59
0.23364866 -0.41188017 0.86245781 63 59 60
0.23543888 -0.41240487 0.86355650 63 59 60
0.23632936 -0.41135681 0.86136192 63 59 60
0.23842406 -0.41240487 0.86355650 63 58 60
0.23961140 -0.41188017 0.86245781 62 56 58
0.55757070 -0.22798437 0.47738862 136 141 143
0.55800283 -0.22782393 0.47705266 138 143 144
0.55686796 -0.22702511 0.47537997 135 140 144
0.55612963 -0.22639008 0.47405025 133 138 142
0.55854958 -0.22670715 0.47471419 123 131 137
0.55858773 -0.22639008 0.47405025 123 131 137
0.56019056 -0.22670715 0.47471419 84 104 129
0.56061846 -0.22654851 0.47438198 78 100 127
0.56222528 -0.22686602 0.47504684 77 100 128
0.56304640 -0.22686602 0.47504684 76 100 129
0.56347257 -0.22670715 0.47471419 75 100 129
0.56468856 -0.22686602 0.47504684 69 101 131
0.56590617 -0.22702511 0.47537997 68 101 131
0.56752384 -0.22734396 0.47604764 69 102 130
0.56715178 -0.22686602 0.47504684 69 103 130
0.56678128 -0.22639008 0.47405025 70 103 130
-0.28495750 -0.35137922 0.73844427 75 76 78
-0.28337249 -0.35099688 0.73764074 72 73 75
-0.28087500 -0.34947577 0.73444402 66 67 69
-0.27690554 -0.34610099 0.72735178 61 61 65
-0.27417743 -0.34425414 0.72347051 59 59 63
-0.27321857 -0.34462193 0.72424340 55 55 59
-0.27275482 -0.34721866 0.72970057 51 51 55
-0.27120167 -0.34684530 0.72891593 48 48 51
-0.26878572 -0.34535989 0.72579426 61 61 63
0.22739659 -0.40986800 0.86136192 59 58 60
0.22859493 -0.40934789 0.86026883 59 58 60
0.23037419 -0.40986800 0.86136192 61 58 60
0.23156874 -0.40934789 0.86026883 61 59 61
0.23394629 -0.41091228 0.86355650 61 60 61
0.23604026 -0.41196185 0.86576223 63 59 60
0.23693147 -0.41091228 0.86355650 62 58 59
0.23872817 -0.41143638 0.86465794 62 58 59
0.55800283 -0.22699939 0.47705266 136 140 142
0.55725878 -0.22636220 0.47571358 135 140 143
0.55651885 -0.22572857 0.47438198 135 139 143
0.55772907 -0.22588664 0.47471419 133 138 142
0.55894101 -0.22604494 0.47504684 129 135 140
0.55897862 -0.22572857 0.47438198 122 127 132
0.56019056 -0.22588664 0.47471419 87 107 126
0.56061846 -0.22572857 0.47438198 79 102 124
0.56222528 -0.22604494 0.47504684 79 101 126
0.56265211 -0.22588664 0.47471419 78 101 128
0.56347257 -0.22588664 0.47471419 77 100 128
0.56508452 -0.22620346 0.47537997 69 101 131
0.56670099 -0.22652116 0.47604764 68 101 131
0.56792265 -0.22668034 0.47638217 69 103 131
0.56754953 -0.22620346 0.47537997 70 104 131
0.56678128 -0.22557072 0.47405025 71 104 131
-0.28592238 -0.34972191 0.73764074 78 79 77
-0.28495750 -0.35010287 0.73844427 75 76 76
-0.28337249 -0.34972191 0.73764074 73 74 74
-0.28087500 -0.34820634 0.73444402 70 71 73
-0.27750102 -0.34558544 0.72891593 66 67 70
-0.27447036 -0.34337014 0.72424340 62 62 66
-0.27351078 -0.34373736 0.72501802 59 59 63
-0.27284127 -0.34447423 0.72657216 58 58 62
-0.27304873 -0.34633023 0.73048687 57 56 60
-0.27149358 -0.34595743 0.72970057 53 52 56
-0.26907381 -0.34447423 0.72657216 60 59 61
-0.26238257 -0.34558544 0.72891593 94 95 95
-0.25930515 -0.34484383 0.72735178 95 95 95
0.22768590 -0.40889880 0.86245781 59 58 60
0.22888538 -0.40837923 0.86136192 59 58 60
0.23066728 -0.40889880 0.86245781 60 59 61
0.23156874 -0.40786096 0.86026883 61 60 62
0.23424469 -0.40994188 0.86465794 61 60 62
0.23634210 -0.41099033 0.86686939 62 58 61
0.23723368 -0.40994188 0.86465794 62 58 61
0.23903306 -0.41046545 0.86576223 62 58 60
0.55686796 -0.22538181 0.47537997 136 140 143
0.55651885 -0.22490864 0.47438198 136 140 143
0.55772907 -0.22506614 0.47471419 134 139 142
0.55854958 -0.22506614 0.47471419 128 135 139
0.55897862 -0.22490864 0.47438198 119 127 131
0.56058311 -0.22522385 0.47504684 90 110 129
0.56101108 -0.22506614 0.47471419 81 104 126
0.56261957 -0.22538181 0.47537997 80 102 126
0.56265211 -0.22506614 0.47471419 78 102 126
0.56347257 -0.22506614 0.47471419 77 102 125
0.56508452 -0.22538181 0.47537997 72 102 129
0.56709927 -0.22585696 0.47638217 71 101 128
0.56832200 -0.22601579 0.47671717 72 101 128
0.56754953 -0.22538181 0.47537997 73 102 128
0.56678128 -0.22475137 0.47405025 75 103 129
-0.29325593 -0.35112146 0.74330246 90 89 90
-0.28654599 -0.34920695 0.73924953 79 80 80
-0.28557968 -0.34958819 0.74005657 75 76 78
-0.28337249 -0.34844697 0.73764074 72 73 75
-0.28117964 -0.34731320 0.73524064 71 72 74
-0.27809909 -0.34506762 0.73048687 67 68 71
-0.27505809 -0.34285092 0.72579426 61 61 65
-0.27409708 -0.34321839 0.72657216 60 60 64
-0.27342740 -0.34395570 0.72813302 59 58 62
-0.27334329 -0.34543988 0.73127490 58 58 62
-0.27207932 -0.34543988 0.73127490 58 57 61
-0.26936251 -0.34358665 0.72735178 62 58 62
-0.26781797 -0.34321839 0.72657216 81 78 81
-0.26506752 -0.34618679 0.73285604 92 93 93
-0.26294804 -0.34506762 0.73048687 92 93 93
-0.26112267 -0.34432554 0.72891593 93 94 95
-0.25986281 -0.34432554 0.72891593 93 94 95
0.22855826 -0.40896904 0.86576223 60 59 61
0.23005466 -0.40896904 0.86576223 61 59 61
0.23184717 -0.40949202 0.86686939 62 59 62
0.23275021 -0.40844741 0.86465794 62 59 62
0.23514448 -0.41001636 0.86797929 64 61 64
0.23694810 -0.41054201 0.86909211 63 59 62
0.23784041 -0.40949202 0.86686939 62 59 62
0.23964518 -0.41001636 0.86797929 62 58 60
0.24114542 -0.41001636 0.86797929 62 58 59
0.55690855 -0.22424564 0.47471419 135 141 143
0.55772907 -0.22424564 0.47471419 133 140 142
0.55894101 -0.22440279 0.47504684 127 136 137
0.55976206 -0.22440279 0.47504684 118 127 128
0.56058311 -0.22440279 0.47504684 92 110 129
0.56140423 -0.22440279 0.47504684 84 104 127
0.56301439 -0.22471774 0.47571358 80 103 125
0.56265211 -0.22424564 0.47471419 77 102 123
0.56347257 -0.22424564 0.47471419 77 102 123
0.56627584 -0.22503357 0.47638217 74 101 127
0.56749803 -0.22519182 0.47671717 73 101 127
0.56912249 -0.22550899 0.47738862 74 99 125
0.56794780 -0.22471774 0.47571358 75 98 122
0.56678128 -0.22393200 0.47405025 75 98 123
-0.29357782 -0.35022074 0.74411839 89 88 89
-0.28782374 -0.34792921 0.73924953 82 83 83
-0.28685883 -0.34830904 0.74005657 80 81 81
-0.28589180 -0.34868971 0.74086541 77 77 79
-0.28337249 -0.34717202 0.73764074 73 74 76
-0.28117964 -0.34604239 0.73524064 72 72 74
-0.27839908 -0.34417593 0.73127490 68 68 71
-0.27535293 -0.34196258 0.72657216 64 64 68
-0.27439117 -0.34232950 0.72735178 60 60 64
-0.27401605 -0.34343496 0.72970057 59 58 62
-0.27363846 -0.34454760 0.73206460 59 58 62
-0.27237317 -0.34454760 0.73206460 59 58 62
-0.26994178 -0.34306568 0.72891593 60 57 63
-0.26868191 -0.34306568 0.72891593 82 78 84
-0.26828748 -0.34417593 0.73127490 89 88 90
-0.26633421 -0.34492010 0.73285604 91 91 93
-0.26535439 -0.34529337 0.73364919 93 93 95
-0.26323169 -0.34417593 0.73127490 93 93 95
-0.26140377 -0.34343496 0.72970057 92 92 94
-0.26042286 -0.34380504 0.73048687 91 92 94
-0.25916028 -0.34380504 0.73048687 93 94 96
0.22943734 -0.40903986 0.86909211 61 57 60
0.23093949 -0.40903986 0.86909211 62 58 61
0.23244163 -0.40903986 0.86909211 62 58 61
0.23394379 -0.40903986 0.86909211 63 59 62
0.23544595 -0.40903986 0.86909211 64 60 63
0.23694810 -0.40903986 0.86909211 62 61 63
0.23845026 -0.40903986 0.86909211 62 59 60
0.23995242 -0.40903986 0.86909211 61 59 58
0.24145457 -0.40903986 0.86909211 61 59 57
0.24264565 -0.40851611 0.86797929 60 59 55
0.55729884 -0.22358170 0.47504684 135 141 143
0.55772907 -0.22342514 0.47471419 133 140 142
0.55894101 -0.22358170 0.47504684 128 136 139
0.55976206 -0.22358170 0.47504684 119 127 131
0.56058311 -0.22358170 0.47504684 93 111 130
0.56140423 -0.22358170 0.47504684 84 104 126
0.56261957 -0.22373849 0.47537997 81 102 124
0.56265211 -0.22342514 0.47471419 77 102 123
0.56347257 -0.22342514 0.47471419 77 102 123
0.56667405 -0.22436786 0.47671717 75 101 126
0.56789744 -0.22452575 0.47705266 75 100 126
0.56912249 -0.22468387 0.47738862 75 100 125
0.56834662 -0.22405273 0.47604764 75 100 125
0.56717795 -0.22326878 0.47438198 75 100 125
-0.29422376 -0.34970233 0.74575561 88 87 88
-0.29197118 -0.34855199 0.74330246 87 86 86
-0.28973338 -0.34740919 0.74086541 84 84 84
-0.28845283 -0.34740919 0.74086541 83 82 83
-0.28748652 -0.34778929 0.74167597 81 80 80
-0.28620458 -0.34778929 0.74167597 79 78 78
-0.28337249 -0.34589708 0.73764074 75 74 74
-0.28117964 -0.34477159 0.73524064 74 71 72
-0.27869973 -0.34328228 0.73206460 71 68 69
-0.27594444 -0.34143868 0.72813302 67 66 68
-0.27498126 -0.34180582 0.72891593 60 59 62
-0.27431130 -0.34254247 0.73048687 57 56 60
-0.27393430 -0.34365341 0.73285604 59 58 62
-0.27266762 -0.34365341 0.73285604 59 58 63
-0.27081537 -0.34291199 0.73127490 61 59 67
-0.26984254 -0.34328228 0.73206460 80 78 87
-0.26886755 -0.34365341 0.73285604 90 89 92
-0.26789048 -0.34402531 0.73364919 90 90 92
-0.26691130 -0.34439805 0.73444402 90 90 92
-0.26535439 -0.34402531 0.73364919 92 92 94
-0.26351595 -0.34328228 0.73206460 92 92 94
-0.26196775 -0.34291199 0.73127490 91 91 93
-0.26070380 -0.34291199 0.73127490 91 91 93
-0.25943983 -0.34291199 0.73127490 93 93 95
0.22973186 -0.40806085 0.87020773 61 57 60
0.23123594 -0.40806085 0.87020773 62 58 61
0.23274003 -0.40806085 0.87020773 62 58 61
0.23424411 -0.40806085 0.87020773 63 57 61
0.23574819 -0.40806085 0.87020773 65 59 63
0.23725228 -0.40806085 0.87020773 63 60 60
0.23845026 -0.40753770 0.86909211 61 59 58
0.23995242 -0.40753770 0.86909211 60 59 56
0.24176453 -0.40806085 0.87020773 61 60 56
0.24264565 -0.40701589 0.86797929 61 60 56
0.55694902 -0.22229329 0.47405025 135 142 145
0.55854958 -0.22260462 0.47471419 133 141 145
0.55937004 -0.22260462 0.47471419 120 128 132
0.55979854 -0.22244884 0.47438198 98 111 128
0.56061846 -0.22244884 0.47438198 92 106 126
0.56183159 -0.22260462 0.47471419 86 104 125
0.56186515 -0.22229329 0.47405025 79 104 124
0.56268454 -0.22229329 0.47405025 77 103 123
0.56548107 -0.22307326 0.47571358 75 102 126
0.56789744 -0.22370119 0.47705266 74 101 126
0.56912249 -0.22385873 0.47738862 74 102 126
0.56794780 -0.22307326 0.47571358 74 102 126
0.56638521 -0.22213794 0.47371897 74 102 126
-0.29487255 -0.34918162 0.74740005 88 87 87
-0.29261288 -0.34803048 0.74493611 85 85 85
-0.29036805 -0.34688687 0.74248832 83 83 83
-0.28940171 -0.34726724 0.74330246 83 83 83
-0.28906783 -0.34841335 0.74575561 77 76 78
-0.28777885 -0.34841335 0.74575561 79 78 80
-0.28368115 -0.34499753 0.73844427 78 74 77
-0.28148493 -0.34387374 0.73603892 76 72 75
-0.27930298 -0.34275728 0.73364919 72 68 71
-0.27683648 -0.34127986 0.73048687 67 65 69
-0.27557391 -0.34127986 0.73048687 62 61 64
-0.27490377 -0.34201697 0.73206460 56 55 59
-0.27452788 -0.34312862 0.73444402 59 58 62
-0.27325845 -0.34312862 0.73444402 59 58 63
-0.27169466 -0.34275728 0.73364919 64 62 69
-0.27071959 -0.34312862 0.73444402 80 79 88
-0.26945016 -0.34312862 0.73444402 90 90 95
-0.26818073 -0.34312862 0.73444402 90 90 94
-0.26720080 -0.34350079 0.73524064 90 90 94
-0.26593000 -0.34350079 0.73524064 91 91 95
-0.26408634 -0.34275728 0.73364919 90 90 94
-0.26225063 -0.34201697 0.73206460 90 90 93
-0.26098531 -0.34201697 0.73206460 90 90 92
-0.26000080 -0.34238672 0.73285604 91 91 93
0.22943734 -0.40603554 0.86909211 62 58 61
0.23093949 -0.40603554 0.86909211 62 58 61
0.23274003 -0.40655676 0.87020773 63 57 61
0.23424411 -0.40655676 0.87020773 62 58 60
0.23574819 -0.40655676 0.87020773 63 59 60
0.23725228 -0.40655676 0.87020773 62 61 59
0.23845026 -0.40603554 0.86909211 61 60 57
0.23995242 -0.40603554 0.86909211 61 60 56
0.24176453 -0.40655676 0.87020773 61 60 56
0.24264565 -0.40551564 0.86797929 61 60 56
0.55897862 -0.22162892 0.47438198 123 129 134
0.55940711 -0.22147393 0.47405025 105 111 128
0.55983496 -0.22131917 0.47371897 98 104 124
0.56147254 -0.22131917 0.47371897 80 106 125
0.56229132 -0.22131917 0.47371897 78 103 123
0.56311011 -0.22131917 0.47371897 75 102 126
0.56670099 -0.22240710 0.47604764 75 101 126
0.56872195 -0.22287665 0.47705266 75 101 125
0.56715178 -0.22193953 0.47504684 75 101 125
-0.29325739 -0.34750664 0.74657691 83 83 83
-0.29132530 -0.34674290 0.74493611 81 81 81
-0.29067659 -0.34750664 0.74657691 81 81 81
-0.29034549 -0.34865862 0.74905175 74 74 76
-0.28873178 -0.34827378 0.74822497 76 76 78
-0.28430057 -0.34447166 0.74005657 74 74 76
-0.28179091 -0.34297395 0.73683894 70 70 72
-0.27960557 -0.34185919 0.73444402 68 67 69
-0.27743441 -0.34075168 0.73206460 64 63 67
-0.27616909 -0.34075168 0.73206460 60 59 65
-0.27549881 -0.34148923 0.73364919 58 57 63
-0.27512401 -0.34260157 0.73603892 58 57 63
-0.27355483 -0.34222999 0.73524064 57 56 62
-0.27198902 -0.34185919 0.73444402 64 63 68
-0.27130747 -0.34260157 0.73603892 81 81 87
-0.27003530 -0.34260157 0.73603892 90 90 95
-0.26847160 -0.34222999 0.73524064 90 90 94
-0.26749092 -0.34260157 0.73603892 92 92 96
-0.26593000 -0.34222999 0.73524064 93 93 97
-0.26437244 -0.34185919 0.73444402 93 93 97
-0.26253414 -0.34112003 0.73285604 91 91 95
0.22943734 -0.40453339 0.86909211 62 58 61
0.23123594 -0.40505269 0.87020773 62 57 60
0.23274003 -0.40505269 0.87020773 63 57 61
0.23574819 -0.40505269 0.87020773 63 59 60
0.23755723 -0.40557331 0.87132627 61 60 59
0.23875636 -0.40505269 0.87020773 61 60 57
0.24026044 -0.40505269 0.87020773 61 60 56
0.24207528 -0.40557331 0.87132627 64 59 54
0.24326861 -0.40505269 0.87020773 64 59 55
0.67085999 -0.30634567 0.65814739 141 147 146
0.67265064 -0.30664340 0.65878701 141 147 147
0.56133550 -0.22174001 0.47638217 125 131 133
0.56097627 -0.22127353 0.47537997 111 117 133
0.56225836 -0.22080898 0.47438198 79 102 124
0.56548107 -0.22142880 0.47571358 77 101 126
0.56709927 -0.22174001 0.47638217 76 100 125
0.56872195 -0.22205210 0.47705266 73 98 124
0.56754953 -0.22127353 0.47537997 71 98 124
0.56598973 -0.22034639 0.47338817 73 99 126
-0.29100552 -0.34507614 0.74411839 79 80 80
-0.29067659 -0.34621626 0.74657691 79 80 80
-0.29034549 -0.34736392 0.74905175 77 78 79
-0.28873178 -0.34698054 0.74822497 75 76 77
-0.28430057 -0.34319252 0.74005657 73 74 76
-0.28179091 -0.34170040 0.73683894 70 71 73
-0.27960557 -0.34058976 0.73444402 66 67 69
-0.27743441 -0.33948636 0.73206460 63 63 66
-0.27587119 -0.33912012 0.73127490 59 59 66
-0.27549881 -0.34022117 0.73364919 58 57 64
-0.27512401 -0.34132937 0.73603892 57 57 64
-0.27355483 -0.34095916 0.73524064 53 53 59
-0.27228400 -0.34095916 0.73524064 61 61 66
-0.27160236 -0.34170040 0.73683894 81 81 84
-0.27003530 -0.34132937 0.73603892 90 90 94
-0.26847160 -0.34095916 0.73524064 92 92 96
-0.26749092 -0.34132937 0.73603892 93 93 97
-0.26621872 -0.34132937 0.73603892 93 93 97
-0.26437244 -0.34058976 0.73444402 91 91 94
-0.26281828 -0.34022117 0.73364919 91 91 93
0.22943734 -0.40303123 0.86909211 61 57 60
0.23123594 -0.40354860 0.87020773 61 57 60
0.23574819 -0.40354860 0.87020773 60 57 58
0.23755723 -0.40406731 0.87132627 60 59 59
0.23875636 -0.40354860 0.87020773 61 60 59
0.24358130 -0.40406731 0.87132627 65 59 58
0.67216516 -0.30580190 0.65942788 142 147 147
0.67330492 -0.30580190 0.65942788 142 146 147
0.56462908 -0.22091663 0.47638217 78 101 125
0.56787211 -0.22153936 0.47772506 78 101 126
0.56749803 -0.22107199 0.47671717 77 100 126
0.56912249 -0.22138335 0.47738862 75 98 124
0.56754953 -0.22045186 0.47537997 74 98 124
0.56638521 -0.21968159 0.47371897 74 97 124
0.57242298 -0.22138335 0.47738862 77 99 128
0.57043612 -0.22029738 0.47504684 76 99 127
-0.29003775 -0.34416777 0.74493611 78 79 79
-0.29002503 -0.34568727 0.74822497 76 77 77
-0.28873178 -0.34568727 0.74822497 75 76 76
-0.28430057 -0.34191340 0.74005657 74 75 76
-0.28179091 -0.34042683 0.73683894 71 72 74
-0.27930298 -0.33895311 0.73364919 65 66 70
-0.27713513 -0.33785617 0.73127490 63 64 68
-0.27557391 -0.33749211 0.73048687 59 60 64
-0.27490377 -0.33822104 0.73206460 57 58 62
-0.27512401 -0.34005719 0.73603892 56 57 62
-0.27355483 -0.33968836 0.73524064 53 53 58
-0.27228400 -0.33968836 0.73524064 60 60 64
-0.27160236 -0.34042683 0.73683894 77 79 80
-0.27003530 -0.34005719 0.73603892 89 92 92
-0.26621872 -0.34005719 0.73603892 92 92 94
-0.26437244 -0.33932033 0.73444402 91 91 93
-0.26253414 -0.33858669 0.73285604 91 91 93
0.22973186 -0.40204450 0.87020773 61 59 61
0.23153315 -0.40256128 0.87132627 60 58 60
0.23786296 -0.40307939 0.87244767 62 59 60
0.23906325 -0.40256128 0.87132627 63 60 59
0.67593503 -0.30585223 0.66200376 143 145 147
0.56789744 -0.22040302 0.47705266 77 100 125
0.56872195 -0.22040302 0.47705266 76 99 123
0.56715178 -0.21947630 0.47504684 75 98 122
0.57282639 -0.22071366 0.47772506 76 98 126
0.57083613 -0.21963021 0.47537997 76 99 125
-0.28906783 -0.34325743 0.74575561 76 76 77
-0.28809580 -0.34363547 0.74657691 75 76 77
-0.28368115 -0.33989215 0.73844427 74 75 76
-0.28148493 -0.33878502 0.73603892 72 73 75
-0.27900103 -0.33732000 0.73285604 67 68 70
-0.27624115 -0.33550644 0.72891593 63 64 66
-0.27468592 -0.33514607 0.72813302 59 59 61
-0.27372140 -0.33550644 0.72891593 55 55 57
-0.27452788 -0.33805093 0.73444402 56 56 58
-0.27355483 -0.33841756 0.73524064 55 56 58
-0.27198902 -0.33805093 0.73444402 59 60 62
0.23212990 -0.40208891 0.87357193 59 58 60
0.23816949 -0.40208891 0.87357193 63 59 60
0.23937091 -0.40157142 0.87244767 64 60 60
0.67399091 -0.30590293 0.66459984 139 145 145
0.67447841 -0.30560333 0.66394889 139 145 145
0.67545044 -0.30500585 0.66265088 143 145 146
0.67725778 -0.30530429 0.66329926 142 145 145
0.56709927 -0.21926986 0.47638217 75 98 122
0.56792265 -0.21926986 0.47638217 77 100 124
0.56675464 -0.21850210 0.47471419 76 99 124
0.57323033 -0.22004302 0.47806194 75 98 122
0.57083613 -0.21880855 0.47537997 74 99 124
-0.28683221 -0.34084356 0.74330246 76 76 78
-0.28337249 -0.33824736 0.73764074 74 74 76
-0.28117964 -0.33714676 0.73524064 72 72 74
-0.27839908 -0.33532828 0.73127490 69 69 71
-0.27594444 -0.33388755 0.72813302 62 62 64
-0.27439117 -0.33352932 0.72735178 53 53 55
-0.27342740 -0.33388755 0.72813302 56 56 58
0.23786296 -0.40006348 0.87244767 63 59 62
0.67284220 -0.30475423 0.66459984 139 143 144
0.67399091 -0.30475423 0.66459984 139 143 144
0.67447841 -0.30445576 0.66394889 140 144 145
0.67430508 -0.30386052 0.66265088 140 144 143
0.67611134 -0.30415785 0.66329926 140 144 143
0.67725778 -0.30415785 0.66329926 140 144 143
0.56550962 -0.21783414 0.47504684 75 98 122
0.56712556 -0.21813987 0.47571358 77 101 125
0.56596196 -0.21737714 0.47405025 76 100 124
0.57363486 -0.21937142 0.47839934 75 98 122
0.57043612 -0.21783414 0.47504684 75 99 124
-0.28337249 -0.33697239 0.73764074 74 74 76
-0.28087500 -0.33551207 0.73444402 71 71 73
