ply
format ascii 1.0
element vertex 1126
property float x
property float y
property float z
property uchar red
property uchar green
property uchar blue
end_header
-0.87209962 0.62011952 1.09151385 0 0 0
-0.85081325 -0.60075323 0.89052542 0 0 0
-0.85023963 -0.59000823 0.88858645 0 0 0
-0.84995879 -0.57005146 0.88468816 0 0 0
-0.84707852 -0.54465673 0.87898454 0 0 0
-0.85160774 -0.55334308 0.88129389 0 0 0
-0.85045781 -0.53119384 0.87590462 0 0 0
-0.84994652 -0.50950345 0.86743378 0 0 0
-0.84776677 -0.49020558 0.86423936 0 0 0
-0.84714317 -0.46998857 0.86329511 0 0 0
-0.84680671 -0.44941680 0.86339047 0 0 0
-0.84790394 -0.42962206 0.86528702 0 0 0
-0.84944566 -0.40977785 0.86813521 0 0 0
-0.85002292 -0.39021071 0.87073463 0 0 0
-0.84989299 -0.37002578 0.87264263 0 0 0
-0.85017154 -0.34989373 0.87407111 0 0 0
-0.84989065 -0.33001148 0.87525237 0 0 0
-0.84985832 -0.31003742 0.87667925 0 0 0
-0.84880062 -0.29067266 0.87787403 0 0 0
-0.85784957 -0.28568841 0.88049643 0 0 0
-0.84545620 -0.27100595 0.87863712 0 0 0
-0.85506025 -0.26894664 0.88116862 0 0 0
-0.84235804 -0.25183572 0.87934837 0 0 0
-0.85222021 -0.24956818 0.88198286 0 0 0
-0.84148165 -0.23924813 0.87996489 0 0 0
-0.85003172 -0.22986650 0.88276877 0 0 0
-0.85017513 -0.20984610 0.88392184 0 0 0
-0.85006497 -0.19012214 0.88493521 0 0 0
-0.85012706 -0.17030385 0.88608554 0 0 0
-0.85006680 -0.14995158 0.88741436 0 0 0
-0.84997433 -0.12973665 0.88882698 0 0 0
-0.85011403 -0.10970058 0.89034869 0 0 0
-0.85020421 -0.08991243 0.89180340 0 0 0
-0.85017972 -0.07000283 0.89314562 0 0 0
-0.84994710 -0.04979767 0.89435427 0 0 0
-0.84999740 -0.02980360 0.89559292 0 0 0
-0.85015337 -0.00980403 0.89694210 0 0 0
-0.84828059 0.00967426 0.89800637 0 0 0
-0.85747627 0.01322813 0.90053214 0 0 0
-0.84452950 0.02905053 0.89884553 0 0 0
-0.85402511 0.03096567 0.90139376 0 0 0
-0.84141928 0.04462673 0.89968449 0 0 0
-0.85079313 0.04999313 0.90262455 0 0 0
-0.84990790 0.06993452 0.90468711 0 0 0
-0.84993445 0.09004734 0.90715635 0 0 0
-0.85012333 0.11001285 0.90978435 0 0 0
-0.84978933 0.12990338 0.91261220 0 0 0
-0.84989948 0.14992784 0.91627408 0 0 0
-0.85925233 0.15856359 0.92016953 0 0 0
-0.84583310 0.16515543 0.91874029 0 0 0
-0.85179428 0.17237966 0.92195090 0 0 0
-0.85018795 0.18988793 0.92663066 0 0 0
-0.85005983 0.20992102 0.93303158 0 0 0
-0.84787950 0.22640677 0.93798712 0 0 0
-0.85282191 0.23473601 0.94181784 0 0 0
-0.84983204 0.24992129 0.94618278 0 0 0
-0.84988654 0.26981751 0.95279122 0 0 0
-0.84781503 0.28644350 0.95785799 0 0 0
-0.85320240 0.29479978 0.96188711 0 0 0
-0.85039533 0.30975273 0.96594073 0 0 0
-0.84981386 0.33017114 0.97150552 5 5 9
-0.84837575 0.34707378 0.97703740 10 9 16
-0.85186451 0.35641528 0.98151301 10 10 17
-0.84972916 0.37022822 0.98709003 11 10 18
-0.84992700 0.38963917 0.99564580 10 9 17
-0.85631080 0.39887868 1.00034058 10 10 19
-0.84197587 0.40036861 0.99974358 10 10 19
-0.85011345 0.41027144 1.00481786 10 10 17
-0.85018523 0.43051739 1.01399117 11 10 19
-0.84817307 0.44231031 1.01918638 10 10 18
-0.85039019 0.45204560 1.02346954 11 10 19
-0.84994680 0.47008343 1.03151938 11 10 19
-0.84974476 0.48469982 1.03813690 11 10 18
-0.85032361 0.49472729 1.04252864 11 10 19
-0.85000039 0.50990440 1.04910701 10 9 18
-0.84999541 0.52728486 1.05654399 10 9 18
-0.84988929 0.53766241 1.06087442 10 9 18
-0.85001253 0.55029061 1.06601355 10 9 18
-0.84994590 0.57016062 1.07392161 11 10 19
-0.84992439 0.58313476 1.07893167 11 10 19
-0.85003783 0.59356252 1.08263996 11 10 19
-0.85017488 0.61033529 1.08802213 6 5 10
-0.84287525 0.62013330 1.09153810 0 0 0
-0.83990520 -0.60010967 0.88957143 0 0 0
-0.83015658 -0.59008812 0.88680820 0 0 0
-0.82165433 -0.56089122 0.87990609 0 0 0
-0.82998427 -0.57022023 0.88289924 0 0 0
-0.82923945 -0.54886193 0.87777152 0 0 0
-0.83509140 -0.55796815 0.88054299 0 0 0
-0.82989654 -0.53188989 0.87352816 0 0 0
-0.82816817 -0.50806817 0.85484742 30 31 33
-0.82959146 -0.51333327 0.86214775 28 28 28
-0.83256825 -0.48742708 0.85701984 1 1 1
-0.83871614 -0.48986486 0.86084656 0 0 0
-0.83166020 -0.46970836 0.85720220 0 0 0
-0.83930207 -0.46973481 0.86057557 0 0 0
-0.82990476 -0.45041507 0.85763906 0 0 0
-0.83779892 -0.44844320 0.86075019 0 0 0
-0.82558202 -0.43077824 0.85811367 0 0 0
-0.83493615 -0.42930334 0.86169676 0 0 0
-0.82274213 -0.41470816 0.85905426 0 0 0
-0.83178477 -0.40932319 0.86328419 0 0 0
-0.83050155 -0.38999879 0.86544207 0 0 0
-0.83025861 -0.36996686 0.86730414 0 0 0
-0.83029301 -0.34981167 0.86886583 0 0 0
-0.83004141 -0.32963846 0.87005448 0 0 0
-0.82999953 -0.30980371 0.87134567 0 0 0
-0.83018249 -0.29009796 0.87273720 0 0 0
-0.83001197 -0.27010875 0.87422025 0 0 0
-0.83006180 -0.25008390 0.87589328 0 0 0
-0.82971095 -0.23034053 0.87723805 0 0 0
-0.83869760 -0.22334658 0.88023551 0 0 0
-0.82756689 -0.21072923 0.87792173 0 0 0
-0.83745596 -0.20905173 0.88071749 0 0 0
-0.82546777 -0.19094003 0.87843569 0 0 0
-0.83533461 -0.18880021 0.88129410 0 0 0
-0.82337850 -0.17112465 0.87906495 0 0 0
-0.83290873 -0.16911868 0.88184221 0 0 0
-0.82151033 -0.15342988 0.87962651 0 0 0
-0.83099401 -0.14965235 0.88254311 0 0 0
-0.83020430 -0.13042709 0.88357628 0 0 0
-0.83006065 -0.11032205 0.88493281 0 0 0
-0.82994740 -0.08974857 0.88629859 0 0 0
-0.82990612 -0.06934391 0.88766490 0 0 0
-0.82996695 -0.04954073 0.88893367 0 0 0
-0.83007190 -0.02988351 0.89022784 0 0 0
-0.83007475 -0.00992922 0.89162651 0 0 0
-0.83009276 0.01019638 0.89324678 0 0 0
-0.82999122 0.03035702 0.89512477 0 0 0
-0.82954264 0.04974790 0.89710876 0 0 0
-0.83863933 0.05684762 0.90031696 0 0 0
-0.82640993 0.06827722 0.89839430 0 0 0
-0.83538407 0.07152081 0.90121508 0 0 0
-0.82233273 0.08510957 0.89931267 0 0 0
-0.83135365 0.09081843 0.90253810 0 0 0
-0.82982695 0.11007071 0.90464317 0 0 0
-0.83018416 0.12991243 0.90775233 0 0 0
-0.82995872 0.14994735 0.91142189 0 0 0
-0.82969657 0.16945435 0.91600149 0 0 0
-0.83768326 0.17890559 0.92049815 0 0 0
-0.82462379 0.18373768 0.91879900 0 0 0
-0.83161449 0.19156077 0.92291499 0 0 0
-0.82984221 0.21002408 0.92838054 0 0 0
-0.83016269 0.23002752 0.93484316 0 0 0
-0.82527838 0.24553943 0.93839057 0 0 0
-0.83274240 0.25204352 0.94261063 0 0 0
-0.83169898 0.26958286 0.94773886 0 0 0
-0.83029644 0.29025493 0.95197965 5 5 9
-0.82731744 0.30858938 0.95634765 10 10 16
-0.83331988 0.31591383 0.96109775 10 10 17
-0.82959720 0.32983175 0.96624854 11 10 19
-0.83005094 0.34929860 0.97539352 11 10 19
-0.83682332 0.35878418 0.98054475 12 11 18
-0.82343764 0.36018399 0.97974237 12 10 19
-0.83002055 0.37008458 0.98492443 11 10 18
-0.82971303 0.38985574 0.99402834 10 10 18
-0.82966365 0.40120248 0.99930957 10 9 18
-0.83035111 0.41128664 1.00399709 10 10 17
-0.82988398 0.43003242 1.01272796 11 10 19
-0.82929619 0.44302880 1.01864104 10 9 19
-0.83025844 0.45264193 1.02287825 11 10 19
-0.83008589 0.46984716 1.03067685 10 9 18
-0.82951035 0.48513778 1.03766155 10 9 18
-0.83061100 0.49536690 1.04221923 11 10 19
-0.82964044 0.51015914 1.04873590 10 9 18
-0.82995731 0.52800080 1.05651157 10 9 18
-0.83138379 0.53778306 1.06066676 11 10 19
-0.83003388 0.55026410 1.06577651 10 10 19
-0.82995215 0.57004041 1.07371719 11 10 18
-0.82989396 0.58296522 1.07872589 11 10 19
-0.82995682 0.59340367 1.08245684 11 10 19
-0.82991844 0.60971003 1.08801641 3 3 6
-0.83006498 0.62042949 1.09205945 0 0 0
-0.81024643 -0.58939623 0.88474425 0 0 0
-0.80711736 -0.56383109 0.87905655 0 0 0
-0.81102984 -0.57300756 0.88150511 0 0 0
-0.81000306 -0.55010160 0.87580177 0 0 0
-0.80977059 -0.53102978 0.87079951 0 0 0
-0.81010368 -0.50073158 0.83656746 65 63 64
-0.80963399 -0.51854446 0.86383282 21 21 23
-0.80652850 -0.49209758 0.83375105 63 64 69
-0.81657456 -0.48811314 0.84224776 49 48 53
-0.80370702 -0.46676638 0.83144587 62 62 66
-0.81756611 -0.47404000 0.84517820 32 31 33
-0.80454187 -0.45228143 0.83479881 54 53 54
-0.81482063 -0.44769258 0.84634953 16 16 16
-0.80232557 -0.42958693 0.83599603 37 37 38
-0.81500909 -0.42877244 0.84978525 6 6 6
-0.80136076 -0.41792916 0.83725372 42 39 40
-0.81269075 -0.41023908 0.85076540 8 9 9
-0.80034253 -0.39679044 0.83998084 25 23 23
-0.81090562 -0.38963596 0.85312888 12 12 11
-0.81885128 -0.38799492 0.86096809 0 0 0
-0.80857000 -0.37130211 0.85429867 6 6 7
-0.81729992 -0.36920003 0.86241072 0 0 0
-0.80623196 -0.35371069 0.85599844 16 15 14
-0.81530540 -0.34948796 0.86351494 0 0 0
-0.80380751 -0.33148047 0.85742217 0 0 0
-0.81376257 -0.32948034 0.86445580 0 0 0
-0.80096561 -0.31296396 0.85828016 0 0 0
-0.81193020 -0.30977876 0.86518644 0 0 0
-0.81034948 -0.28969351 0.86579691 0 0 0
-0.81033986 -0.26982639 0.86750999 0 0 0
-0.81004565 -0.24982121 0.86955604 0 0 0
-0.81021947 -0.22994415 0.87118041 0 0 0
-0.81001707 -0.20977300 0.87250977 0 0 0
-0.81005556 -0.19011901 0.87381581 0 0 0
-0.80965909 -0.17031912 0.87487792 0 0 0
-0.81027732 -0.15005215 0.87636461 0 0 0
-0.80910496 -0.13030406 0.87722632 0 0 0
-0.81863361 -0.12568893 0.88051261 0 0 0
-0.80692727 -0.11048037 0.87779069 0 0 0
-0.81663668 -0.10893469 0.88101180 0 0 0
-0.80482809 -0.09113604 0.87836315 0 0 0
-0.81468482 -0.08975287 0.88165236 0 0 0
-0.80286207 -0.07124775 0.87911581 0 0 0
-0.81287623 -0.07002172 0.88246705 0 0 0
-0.80104422 -0.05389290 0.87970036 0 0 0
-0.81040685 -0.04952768 0.88302614 0 0 0
-0.81005434 -0.02931142 0.88429896 0 0 0
-0.80998116 -0.00939404 0.88576731 0 0 0
-0.81008982 0.01045263 0.88749271 0 0 0
-0.81002983 0.03041061 0.88936633 0 0 0
-0.81010086 0.05036328 0.89151369 0 0 0
-0.80988105 0.07024511 0.89377308 0 0 0
-0.81013822 0.08967460 0.89633256 0 0 0
-0.81878348 0.09910457 0.90015775 0 0 0
-0.80687606 0.10860862 0.89792480 0 0 0
-0.81620119 0.11236727 0.90120259 0 0 0
-0.80298834 0.12476103 0.89915866 0 0 0
-0.81115497 0.13117553 0.90272947 0 0 0
-0.80994452 0.15000590 0.90613316 0 0 0
-0.81019747 0.17007800 0.91113355 0 0 0
-0.80942008 0.18911397 0.91623066 0 0 0
-0.81660713 0.19716488 0.92082935 0 0 0
-0.80350187 0.20444991 0.91868087 0 0 0
-0.81220584 0.21063073 0.92354193 0 0 0
-0.81184445 0.22918652 0.92825952 0 0 0
-0.81038997 0.25008606 0.93109100 6 5 9
-0.80778276 0.27060854 0.93483946 13 13 19
-0.81922989 0.27488752 0.94134267 10 10 13
-0.80575860 0.28130254 0.93923075 14 13 20
-0.81018040 0.29116293 0.94485935 12 12 20
-0.81014682 0.31017934 0.95437932 12 11 18
-0.81850330 0.31975748 0.96005118 11 11 20
-0.80489295 0.32142517 0.95936813 11 11 20
-0.81029442 0.33089411 0.96449383 11 10 19
-0.81006983 0.35040949 0.97391102 12 10 19
-0.80744605 0.36206610 0.97927076 11 10 18
-0.81020817 0.37113191 0.98379058 11 10 18
-0.81016618 0.38995474 0.99278643 11 10 19
-0.80920644 0.40295875 0.99896628 11 10 18
-0.81017047 0.41251145 1.00353440 11 10 18
-0.80995474 0.42961596 1.01166228 11 10 19
-0.80980170 0.44375732 1.01815278 11 10 19
-0.81025859 0.45361330 1.02252101 11 10 19
-0.80989727 0.46935561 1.02975715 11 10 19
-0.81004239 0.48548118 1.03726353 11 10 19
-0.81007238 0.49561361 1.04181810 10 9 18
-0.80996348 0.51067719 1.04859590 11 10 18
-0.81000495 0.52923223 1.05678572 10 9 18
-0.80990953 0.53845547 1.06071744 11 9 18
-0.80992873 0.55014010 1.06557267 10 10 19
-0.81001683 0.57017504 1.07366421 11 10 18
-0.80989940 0.58303285 1.07863546 11 10 19
-0.80989530 0.59347243 1.08236869 10 10 18
-0.80993315 0.60970203 1.08813982 0 0 1
-0.81020121 0.62039427 1.09199745 0 0 0
-0.78056531 -0.58140305 0.87987649 0 0 0
-0.79029224 -0.58856061 0.88240893 0 0 0
-0.78888684 -0.56878555 0.87821192 0 0 0
-0.79542514 -0.57681662 0.88061303 0 0 0
-0.78993170 -0.55010158 0.87370079 0 0 0
-0.78970094 -0.53018263 0.86864101 0 0 0
-0.79172458 -0.51928814 0.86507169 1 1 1
-0.78269097 -0.48452792 0.81927480 66 65 67
-0.79217305 -0.48869749 0.82479694 65 64 69
-0.78480236 -0.46962470 0.81799905 69 67 71
-0.79320460 -0.47202444 0.82213529 68 67 72
-0.78325196 -0.45153887 0.81521698 70 69 72
-0.79547861 -0.45220634 0.82558985 67 68 65
-0.78315879 -0.43238228 0.81556620 74 70 77
-0.79216511 -0.42451335 0.82615489 64 64 67
-0.78043699 -0.40950346 0.81612849 75 76 76
-0.79364548 -0.41055903 0.83023949 54 52 54
-0.78040794 -0.39540141 0.81905895 73 76 80
-0.78928220 -0.39085352 0.82950620 60 59 66
-0.78728885 -0.36687002 0.83188594 46 43 45
-0.78704398 -0.35391690 0.83472915 56 54 58
-0.79603507 -0.35576621 0.84426652 36 35 37
-0.78385557 -0.33533181 0.83517703 56 56 54
-0.79376557 -0.33043199 0.84706257 22 23 24
-0.78154099 -0.30434390 0.83927912 37 38 43
-0.79211396 -0.30627711 0.85031887 10 9 10
-0.79422000 -0.29156909 0.85543417 1 1 1
-0.79840605 -0.28490292 0.86074493 0 0 0
-0.78797231 -0.27130976 0.85319271 3 3 3
-0.79748654 -0.26861146 0.86228972 0 0 0
-0.78555545 -0.24863317 0.85585709 4 4 5
-0.79568181 -0.24927533 0.86404868 0 0 0
-0.78303969 -0.22664039 0.85760345 0 0 0
-0.79427067 -0.22935254 0.86515918 0 0 0
-0.78160734 -0.21184260 0.85928688 0 0 0
-0.79199179 -0.20955925 0.86588741 0 0 0
-0.79079195 -0.18949421 0.86705235 0 0 0
-0.79001648 -0.16973475 0.86814806 0 0 0
-0.79034855 -0.15027586 0.86935047 0 0 0
-0.79003805 -0.13006637 0.87032661 0 0 0
-0.79037521 -0.10983217 0.87192328 0 0 0
-0.78965827 -0.08970080 0.87307732 0 0 0
-0.78982628 -0.07004513 0.87463674 0 0 0
-0.79012207 -0.05035558 0.87620719 0 0 0
-0.78844355 -0.03027604 0.87711020 0 0 0
-0.79818572 -0.02823600 0.88060849 0 0 0
-0.78600936 -0.01006006 0.87794600 0 0 0
-0.79578779 -0.00885272 0.88133484 0 0 0
-0.78354447 0.00895372 0.87889023 0 0 0
-0.79325723 0.01080564 0.88221169 0 0 0
-0.78102212 0.02451947 0.87965691 0 0 0
-0.79049397 0.03026998 0.88315980 0 0 0
-0.78992732 0.04994037 0.88510668 0 0 0
-0.78998633 0.07010880 0.88755789 0 0 0
-0.79005002 0.09027823 0.89028722 0 0 0
-0.79008404 0.11010441 0.89307695 0 0 0
-0.79038127 0.12951533 0.89623666 0 0 0
-0.79847134 0.13844260 0.90049927 0 0 0
-0.78572300 0.14741511 0.89774139 0 0 0
-0.79449776 0.15156026 0.90195807 0 0 0
-0.78190459 0.16439754 0.89864427 0 0 0
-0.79244585 0.16954474 0.90502613 0 0 0
-0.78084179 0.18220251 0.89946511 0 0 0
-0.79274239 0.18912237 0.90922239 0 0 0
-0.79144125 0.20993685 0.91100623 4 4 6
-0.78756799 0.23160254 0.91201524 13 14 18
-0.78763446 0.24513571 0.91777408 14 14 22
-0.79093030 0.25397065 0.92292451 14 13 21
-0.78986499 0.26994945 0.93127275 14 14 20
-0.78854750 0.28348328 0.93834496 12 12 20
-0.79068913 0.29298886 0.94350112 13 12 19
-0.79029516 0.30970544 0.95206054 12 11 19
-0.78905835 0.32274684 0.95848943 12 11 19
-0.79068535 0.33258640 0.96348334 12 11 19
-0.79001981 0.34978062 0.97196828 12 10 18
-0.78895763 0.36309530 0.97845782 12 11 17
-0.78997621 0.37330990 0.98353834 11 10 18
-0.79016445 0.39022556 0.99187928 11 10 19
-0.78950276 0.40354485 0.99833534 11 10 18
-0.79029941 0.41314467 1.00298133 11 10 18
-0.78996940 0.42925185 1.01072182 11 10 19
-0.78981784 0.44446587 1.01776618 11 10 19
-0.78971162 0.45480179 1.02240072 11 10 19
-0.79006703 0.46954082 1.02933468 10 10 19
-0.79014004 0.48617557 1.03717689 10 10 18
-0.78980909 0.49647068 1.04186113 11 10 17
-0.79007906 0.51030067 1.04816621 10 10 18
-0.78998935 0.52895440 1.05647051 11 10 19
-0.79048989 0.53833994 1.06048984 11 10 19
-0.78990020 0.54996816 1.06531393 10 10 19
-0.79006744 0.56978503 1.07325904 11 10 19
-0.78926957 0.58343151 1.07845436 11 10 19
-0.79045388 0.59371725 1.08213085 7 7 13
-0.78970766 0.60997499 1.08794804 0 0 0
-0.79285886 0.62011687 1.09150917 0 0 0
-0.76736905 -0.58449260 0.87913963 0 0 0
-0.77275899 -0.59085568 0.88091981 0 0 0
-0.77010411 -0.56994443 0.87646826 0 0 0
-0.76990287 -0.55000465 0.87167794 0 0 0
-0.76983509 -0.53018353 0.86670355 0 0 0
-0.76796112 -0.51896351 0.86386808 0 0 0
-0.77078310 -0.48372274 0.81540823 68 67 70
-0.76972379 -0.49660007 0.82966499 66 66 69
-0.76977648 -0.46986965 0.81327469 71 69 71
-0.76981233 -0.45002470 0.81083885 71 71 73
-0.76956800 -0.43031711 0.80932683 73 72 73
-0.76756630 -0.41020623 0.80799116 75 74 75
-0.76581475 -0.39110809 0.80752734 75 74 78
-0.77946820 -0.38075297 0.82105148 73 77 76
-0.76558994 -0.37334333 0.80868430 75 74 76
-0.77770425 -0.36564539 0.82218723 77 73 83
-0.76541927 -0.34847840 0.81203552 80 72 78
-0.77574717 -0.34899917 0.82312491 73 69 78
-0.76533715 -0.33309869 0.81557089 75 82 78
-0.77735937 -0.33612904 0.82825567 77 78 70
-0.76394026 -0.31367225 0.81759636 70 73 82
-0.77325637 -0.31024170 0.82858919 49 49 52
-0.76715171 -0.28573282 0.82689587 38 40 40
-0.77988004 -0.28257165 0.84139967 0 0 0
-0.77026975 -0.27177607 0.83362516 34 32 35
-0.77692982 -0.27502917 0.84056759 31 31 31
-0.76469979 -0.25258301 0.83167447 34 33 36
-0.77638524 -0.25033620 0.84551416 21 23 24
-0.76483576 -0.22857082 0.83713567 22 23 24
-0.77374709 -0.22522331 0.84765510 7 7 7
-0.77204852 -0.20782439 0.84974589 8 8 8
-0.77040211 -0.19293053 0.85128353 15 15 17
-0.77906750 -0.18981561 0.86099407 0 0 0
-0.77020525 -0.16913771 0.85536412 2 2 2
-0.77760491 -0.16837041 0.86249568 0 0 0
-0.76776264 -0.15065661 0.85626993 2 1 2
-0.77633559 -0.14895033 0.86337476 0 0 0
-0.76543292 -0.13100102 0.85725062 0 0 1
-0.77444093 -0.12917253 0.86365433 0 0 0
-0.76387504 -0.11322831 0.85855338 0 0 0
-0.77306059 -0.10975827 0.86476219 0 0 0
-0.76179793 -0.09553076 0.85955906 0 0 0
-0.77222218 -0.08977564 0.86643902 0 0 0
-0.77122732 -0.06975932 0.86781872 0 0 0
-0.77062232 -0.05008713 0.86897778 0 0 0
-0.77070748 -0.03007004 0.87058420 0 0 0
-0.77048218 -0.00974215 0.87235795 0 0 0
-0.77021380 0.01016440 0.87429278 0 0 0
-0.77041700 0.02940420 0.87619347 0 0 0
-0.77951858 0.03682316 0.88041192 0 0 0
-0.76789166 0.04858714 0.87690945 0 0 0
-0.77698958 0.05176364 0.88110601 0 0 0
-0.76555966 0.06893504 0.87769158 0 0 0
-0.77505165 0.07014897 0.88247436 0 0 0
-0.76457159 0.08638428 0.87865529 0 0 0
-0.77351195 0.08978762 0.88405587 0 0 0
-0.76143539 0.11324846 0.87711055 0 0 0
-0.77367024 0.10929048 0.88626421 0 0 0
-0.76366844 0.12193813 0.87968284 0 0 0
-0.77364274 0.12949399 0.88834332 0 0 0
-0.77447713 0.14896052 0.89090644 0 0 0
-0.76084090 0.17257796 0.87817419 13 12 15
-0.77435965 0.17195415 0.89234909 2 2 3
-0.76010601 0.18339077 0.87907970 26 22 32
-0.76547558 0.19294717 0.88634160 21 18 27
-0.76780675 0.20974351 0.89530687 17 17 23
-0.77490003 0.21816066 0.90103682 16 16 19
-0.76990490 0.22998942 0.90698543 15 15 20
-0.76954644 0.24660867 0.91635454 15 14 22
-0.77060872 0.25671220 0.92206867 15 14 21
-0.77001149 0.27013899 0.92942861 14 14 20
-0.76925132 0.28491595 0.93730965 13 13 21
-0.77028135 0.29479151 0.94259983 13 12 19
-0.77006585 0.30993352 0.95044501 12 11 19
-0.76985583 0.32453046 0.95787049 12 11 18
-0.77007916 0.33435827 0.96287035 12 11 19
-0.77012500 0.34969289 0.97066749 11 10 19
-0.76966279 0.36396640 0.97779732 11 10 17
-0.77039000 0.37435187 0.98305324 11 10 18
-0.76989568 0.39006191 0.99091193 11 10 19
-0.77002916 0.40393472 0.99778312 11 10 19
-0.76996704 0.41357038 1.00249034 11 10 18
-0.76984706 0.42998615 1.01050373 11 10 19
-0.76988370 0.44548263 1.01772656 11 10 19
-0.77053724 0.45556235 1.02232759 11 10 19
-0.76980858 0.46997567 1.02917107 11 10 19
-0.77010410 0.48597577 1.03675061 11 10 18
-0.77000049 0.49627710 1.04145483 10 10 19
-0.77004265 0.51014329 1.04776677 11 10 19
-0.76973033 0.52944939 1.05631233 11 10 19
-0.77557334 0.53816481 1.06014485 11 11 19
-0.76998413 0.54971947 1.06479618 11 10 19
-0.76992574 0.57016334 1.07285099 11 10 19
-0.77022067 0.58475000 1.07830589 10 9 18
-0.77061234 0.59460215 1.08186956 1 1 3
-0.77000167 0.61030715 1.08749613 0 0 0
-0.75009800 -0.58682360 0.87770719 0 0 0
-0.75016653 -0.56991557 0.87440611 0 0 0
-0.74990282 -0.54994484 0.86979613 0 0 0
-0.75001940 -0.53002904 0.86483879 0 0 0
-0.75449623 -0.50221602 0.83904749 33 32 34
-0.75346691 -0.51239225 0.85604883 6 6 6
-0.75018131 -0.51824519 0.86194464 0 0 0
-0.75101753 -0.48204493 0.80978360 67 67 70
-0.75497166 -0.49728009 0.83080109 46 46 48
-0.74994354 -0.47004285 0.80780589 73 70 73
-0.75005535 -0.44998101 0.80547937 73 72 75
-0.75006937 -0.42991670 0.80375307 75 72 74
-0.74075784 -0.40760125 0.79993723 76 75 78
-0.75025604 -0.41038354 0.80282968 75 74 77
-0.74153506 -0.38849941 0.79955533 75 75 77
-0.75124850 -0.39036669 0.80262348 76 75 77
-0.74307004 -0.36885798 0.79910473 76 75 78
-0.75255556 -0.37062201 0.80207114 74 74 77
-0.74471681 -0.34987063 0.79848366 76 76 77
-0.75385915 -0.35176527 0.80167473 78 74 80
-0.74424583 -0.33030581 0.79715939 77 77 79
-0.75333354 -0.33192933 0.80287876 81 76 78
-0.74258042 -0.31193673 0.79699529 77 79 82
-0.75185708 -0.31136204 0.80494831 74 77 80
-0.74157960 -0.29338136 0.79766179 78 77 80
-0.75075547 -0.28761121 0.80859639 74 73 77
-0.74009236 -0.27142183 0.79996514 75 80 89
-0.74697932 -0.26587245 0.80891896 70 69 68
-0.74956211 -0.25554991 0.81400174 61 61 63
-0.75472468 -0.24760793 0.82192585 65 63 65
-0.74537224 -0.23326494 0.81480602 71 75 76
-0.75525940 -0.22977514 0.82623929 41 43 44
-0.74130043 -0.20936106 0.81497653 54 56 57
-0.75345747 -0.20646528 0.82946564 44 43 46
-0.74967355 -0.19323033 0.82837884 61 59 61
-0.74939225 -0.17294191 0.83177352 34 33 33
-0.75941177 -0.16886777 0.84370425 15 14 13
-0.74617755 -0.14593890 0.83353566 31 30 32
-0.75808975 -0.15241572 0.84548217 10 10 12
-0.74452651 -0.12747028 0.83518416 31 31 29
-0.75575482 -0.13284222 0.84655218 10 10 10
-0.74060399 -0.11132503 0.83320755 14 13 10
-0.75252491 -0.10592784 0.84771797 10 10 11
-0.75299974 -0.08943857 0.85112403 13 13 14
-0.74890870 -0.06726162 0.84999190 16 16 16
-0.75950377 -0.07085376 0.86060699 0 0 0
-0.75122475 -0.04773847 0.85513333 4 4 4
-0.75800157 -0.05035687 0.86199984 0 0 0
-0.74432286 -0.02730660 0.84990344 9 9 10
-0.75801170 -0.02942094 0.86404880 0 0 0
-0.74745615 -0.01448298 0.85504913 13 13 14
-0.75668645 -0.00878893 0.86502181 1 1 1
-0.74511266 0.00990157 0.85490390 14 14 14
-0.75593932 0.00989104 0.86632082 0 0 0
-0.74065574 0.03929182 0.85147882 0 0 0
-0.75731292 0.02959387 0.86890184 0 0 0
-0.74446809 0.04990475 0.85671304 6 6 7
-0.75518582 0.05221402 0.86800981 0 0 0
-0.75253513 0.06834750 0.86644920 1 1 1
-0.75620683 0.08989486 0.87108767 0 0 0
-0.74217538 0.11726477 0.85663016 6 6 7
-0.75947750 0.10312403 0.87485522 0 0 0
-0.74453045 0.12134724 0.85934842 6 6 8
-0.74697989 0.13143574 0.86217560 6 6 8
-0.74147149 0.15218245 0.85851006 27 26 34
-0.74998366 0.15244396 0.86631110 15 13 18
-0.74751783 0.17131175 0.86963557 24 23 29
-0.74859167 0.18466415 0.87735770 23 22 27
-0.75065363 0.19413255 0.88351260 20 19 26
-0.74989870 0.20937224 0.89280419 17 16 23
-0.74700722 0.22076478 0.89928241 17 16 23
-0.75030846 0.23052759 0.90533212 16 15 21
-0.74957580 0.24792320 0.91528673 15 14 22
-0.75152392 0.25804871 0.92117220 15 14 21
-0.74980705 0.26984335 0.92760558 15 14 21
-0.74956114 0.28617278 0.93645750 14 13 21
-0.75057345 0.29665295 0.94211586 14 13 21
-0.74988541 0.31050479 0.94936262 13 12 19
-0.74926857 0.32584850 0.95725393 12 11 19
-0.75026723 0.33585718 0.96248446 13 12 21
-0.74965368 0.34984550 0.96973497 12 11 19
-0.75030508 0.36448426 0.97724301 11 10 18
-0.75036569 0.37486945 0.98256030 11 10 19
-0.74995630 0.38965362 0.99004903 12 11 20
-0.74994811 0.40458897 0.99751079 11 11 20
-0.74983407 0.41551123 1.00291799 11 11 20
-0.75008939 0.43069821 1.01038085 12 11 20
-0.74989946 0.44617803 1.01758178 12 11 20
-0.75022568 0.45615066 1.02216945 11 11 20
-0.74962436 0.47018136 1.02885709 11 11 19
-0.75002265 0.48697661 1.03680836 11 11 19
-0.75106412 0.49678204 1.04130682 11 10 19
-0.75002482 0.50982395 1.04718854 12 11 20
-0.74992061 0.52976427 1.05595745 11 10 19
-0.74531000 0.53997617 1.06010360 11 10 19
-0.75018274 0.54974748 1.06419506 11 10 19
-0.75018726 0.57002212 1.07197698 11 10 19
-0.74958034 0.58643961 1.07795299 4 4 7
-0.75076556 0.59569551 1.08142180 0 0 0
-0.75003464 0.60974512 1.08642134 0 0 0
-0.73009014 -0.58591957 0.87523408 0 0 0
-0.73015703 -0.56998984 0.87230083 0 0 0
-0.72988402 -0.55009665 0.86795367 0 0 0
-0.72518910 -0.52097548 0.85952978 0 0 0
-0.73033983 -0.53070467 0.86290992 0 0 0
-0.72883374 -0.51580365 0.85800199 0 0 0
-0.73838440 -0.51909103 0.86040770 0 0 0
-0.73417661 -0.48310655 0.80945892 68 68 71
-0.73285068 -0.49742359 0.83344753 51 51 54
-0.72081826 -0.46106772 0.79954628 71 71 74
-0.73041656 -0.46978236 0.80304460 71 71 73
-0.72451712 -0.44809945 0.79891740 74 73 75
-0.73378985 -0.45117418 0.80141071 73 72 74
-0.72817201 -0.42936793 0.79786719 74 73 75
-0.73773986 -0.43260618 0.80057964 74 73 76
-0.72977539 -0.40995309 0.79703702 76 75 78
-0.72974220 -0.38999467 0.79619672 76 76 78
-0.72970304 -0.37006066 0.79531352 76 76 78
-0.72949234 -0.34986427 0.79424728 76 77 77
-0.72997212 -0.32990481 0.79352176 77 77 80
-0.72980176 -0.30999617 0.79332681 78 78 81
-0.72924832 -0.29024885 0.79297400 80 79 81
-0.72724195 -0.27032466 0.79233734 81 79 82
-0.72436454 -0.25047072 0.79134632 81 80 83
-0.73627877 -0.24688101 0.80108055 82 76 89
-0.72304533 -0.23366440 0.79183992 82 82 85
-0.73532234 -0.23506755 0.80331409 77 79 84
-0.72380065 -0.21125782 0.79508831 73 75 79
-0.73361545 -0.20792718 0.80683103 70 70 72
-0.72170551 -0.19056522 0.79721990 85 86 82
-0.73056215 -0.18491260 0.80865673 80 79 87
-0.73202745 -0.17380028 0.81210272 57 58 56
-0.73944781 -0.17491301 0.82073516 69 68 65
-0.72674004 -0.15178980 0.81090824 67 66 70
-0.73617597 -0.14680930 0.82222930 47 45 46
-0.72520089 -0.12492910 0.81389858 52 49 54
-0.73222156 -0.12121995 0.82217824 30 30 29
-0.72462010 -0.11737669 0.81522506 78 81 73
-0.73437118 -0.11247968 0.82665535 45 46 42
-0.72292674 -0.08844824 0.81809236 62 62 64
-0.73006906 -0.08471925 0.82657854 47 50 56
-0.73513423 -0.07513066 0.83380932 45 45 47
-0.72403806 -0.04550460 0.82515887 37 37 36
-0.73974341 -0.04992444 0.84206390 16 16 16
-0.72826921 -0.03429128 0.83134080 31 34 33
-0.73862867 -0.02743080 0.84411657 34 35 36
-0.72731867 -0.01554536 0.83283639 48 47 45
-0.73900580 -0.01360526 0.84621906 40 38 38
-0.72456558 0.01333144 0.83250703 45 46 47
-0.73694550 0.00686587 0.84553331 25 23 26
-0.72774490 0.02487408 0.83663616 27 29 26
-0.73356521 0.03382054 0.84332734 6 5 6
-0.72439907 0.04499845 0.83444777 34 34 34
-0.73590121 0.05011290 0.84769729 22 22 23
-0.72480956 0.08777063 0.83658626 14 14 16
-0.73008391 0.09496490 0.84267400 10 10 13
-0.72295585 0.11229115 0.83611470 31 31 34
-0.73336957 0.10865369 0.84677133 11 12 14
-0.72175158 0.12811995 0.83756936 30 30 40
-0.72705265 0.13426873 0.84439225 30 30 39
-0.72880237 0.15104663 0.85341281 27 27 35
-0.72725269 0.16102135 0.85969992 26 25 31
-0.73023254 0.17030793 0.86612441 25 23 30
-0.72956739 0.18561546 0.87607679 21 20 27
-0.72989286 0.19581843 0.88265212 18 18 25
-0.73020084 0.21032827 0.89161013 17 17 23
-0.72814572 0.22268158 0.89881952 16 16 21
-0.72998058 0.23225658 0.90465723 16 15 22
-0.73000391 0.24941281 0.91464299 16 15 22
-0.73536219 0.25881880 0.92037426 16 15 22
-0.72996056 0.26999772 0.92629888 15 14 21
-0.72966544 0.28789942 0.93611335 15 14 22
-0.73090071 0.29755739 0.94140574 15 14 21
-0.73002457 0.30999843 0.94803114 14 13 21
-0.72950134 0.32634238 0.95661423 14 13 22
-0.73044276 0.33637865 0.96193152 13 12 21
-0.72986682 0.35060767 0.96942815 12 11 18
-0.73011083 0.36603252 0.97741798 12 11 19
-0.73012921 0.37553495 0.98233591 12 11 20
-0.72990505 0.38932233 0.98937556 12 11 20
-0.72988335 0.40460926 0.99704241 12 11 20
-0.72998477 0.41535779 1.00239845 13 13 22
-0.73009591 0.43063856 1.00991780 14 13 22
-0.72965987 0.44633117 1.01723585 12 12 21
-0.73047671 0.45627559 1.02184031 13 12 21
-0.73004003 0.47065060 1.02869628 12 12 20
-0.72992577 0.48770889 1.03671372 13 12 21
-0.72998379 0.49689344 1.04086222 12 12 21
-0.73004927 0.50959170 1.04655860 12 11 20
-0.73003572 0.53038893 1.05554953 11 10 19
-0.72223778 0.54168208 1.05985630 12 10 20
-0.72993074 0.55044896 1.06361513 11 10 19
-0.73016739 0.56966995 1.07074820 11 10 18
-0.72963166 0.58721004 1.07713762 0 0 0
-0.73073803 0.59761290 1.08110392 0 0 0
-0.72996418 0.61006406 1.08545867 0 0 0
-0.71004407 -0.58491525 0.87263573 0 0 0
-0.71014549 -0.56990185 0.87004290 0 0 0
-0.70980263 -0.55002706 0.86595809 0 0 0
-0.70788999 -0.52418581 0.85863655 0 0 0
-0.71141424 -0.53357804 0.86170199 0 0 0
-0.71301683 -0.50066250 0.83887443 0 0 0
-0.70974905 -0.51221843 0.85356664 1 1 1
-0.71443709 -0.49887987 0.83629053 7 7 7
-0.70838108 -0.46745533 0.79841921 71 71 74
-0.71693637 -0.47265308 0.80059253 69 70 72
-0.70996553 -0.44996614 0.79619857 74 74 76
-0.70993579 -0.43000258 0.79406505 73 74 77
-0.70992757 -0.41002499 0.79257821 77 77 79
-0.70992531 -0.39001868 0.79173475 77 77 79
-0.70991021 -0.36997112 0.79103085 78 77 79
-0.70990970 -0.35001526 0.79023031 77 78 80
-0.70998457 -0.33008908 0.78946716 79 79 82
-0.71029708 -0.30998553 0.78916076 79 79 80
-0.71017136 -0.28999973 0.78892469 79 79 79
-0.70960869 -0.27002782 0.78846789 80 80 82
-0.71011078 -0.25026788 0.78825421 80 81 83
-0.71002204 -0.22982150 0.78775734 82 82 84
-0.70877703 -0.21072108 0.78664574 79 81 83
-0.70636937 -0.19077781 0.78543498 82 82 84
-0.70500447 -0.17057586 0.78582287 82 81 83
-0.70488726 -0.15191995 0.78763200 84 82 82
-0.71925066 -0.15693934 0.80139256 88 78 74
-0.70455265 -0.13171966 0.79008871 80 79 81
-0.71698244 -0.12565214 0.80506692 84 83 87
-0.70285934 -0.11206368 0.79166740 82 80 79
-0.71725052 -0.11209846 0.80772066 73 76 65
-0.70352097 -0.09412527 0.79535318 75 73 80
-0.71432948 -0.08893685 0.80862731 74 72 83
-0.70137729 -0.06339318 0.79786760 77 77 77
-0.71834965 -0.06672283 0.81610531 55 59 59
-0.70251555 -0.05985172 0.79968673 83 83 79
-0.70932349 -0.05221617 0.80807459 66 65 62
-0.71980773 -0.04441774 0.82098603 59 60 58
-0.71187945 -0.03276607 0.81354713 58 61 70
-0.70639488 -0.00817263 0.81018920 65 66 68
-0.70955669 0.00464097 0.81507553 63 62 65
-0.71781003 0.01098274 0.82521474 66 67 69
-0.70902211 0.03839669 0.81673479 50 48 50
-0.70097925 0.05971025 0.80908096 44 44 44
-0.71634700 0.04164516 0.82517245 41 41 41
-0.70587635 0.06577033 0.81473327 32 32 36
-0.71312389 0.07568848 0.82309848 21 20 25
-0.70297076 0.09361738 0.81491811 34 35 43
-0.71382763 0.09125212 0.82506067 28 28 36
-0.70309619 0.10296407 0.81855902 31 33 41
-0.70763753 0.11254916 0.82579704 32 32 38
-0.70940934 0.12718336 0.83509472 31 31 39
-0.71071916 0.13735875 0.84208870 30 29 39
-0.71004334 0.15033875 0.85096361 28 26 35
-0.70834767 0.16206841 0.85885455 26 25 31
-0.71022076 0.17142326 0.86521945 24 23 30
-0.70970537 0.18674955 0.87525277 23 22 28
-0.71053097 0.19723996 0.88206299 20 19 27
-0.71005650 0.21027428 0.89008127 18 17 25
-0.70915065 0.22353355 0.89795833 17 17 23
-0.71023880 0.23357322 0.90405372 17 16 23
-0.71010214 0.24974361 0.91352719 16 15 22
-0.70839175 0.26014393 0.91943535 16 15 22
-0.71003523 0.27051790 0.92545898 15 14 22
-0.70976020 0.28850113 0.93548428 15 14 23
-0.71176613 0.29813388 0.94086891 15 14 22
-0.71008900 0.30974480 0.94714566 15 14 22
-0.70980878 0.32675084 0.95621498 14 13 22
-0.70988207 0.33690944 0.96164095 13 12 20
-0.70999590 0.35036111 0.96882395 13 12 19
-0.70997255 0.36598004 0.97696952 13 12 21
-0.71003970 0.37537534 0.98186897 12 11 20
-0.70987401 0.39024320 0.98948126 12 11 20
-0.71012145 0.40629223 0.99752312 14 13 22
-0.70998543 0.41618907 1.00246612 14 13 22
-0.71001865 0.43039580 1.00946716 14 13 22
-0.71009847 0.44681879 1.01708110 14 13 22
-0.70975108 0.45682727 1.02166545 14 13 22
-0.71010362 0.47039998 1.02814864 14 13 22
-0.70987656 0.48852336 1.03659957 13 13 22
-0.70889709 0.49828046 1.04094108 13 12 21
-0.71032490 0.50961254 1.04595614 13 12 21
-0.70999441 0.52990184 1.05454284 12 12 21
-0.70839606 0.54192660 1.05931078 11 10 19
-0.71031261 0.55203588 1.06321533 11 10 19
-0.70960348 0.57025102 1.06967905 8 7 13
-0.70985295 0.58903643 1.07663318 0 0 0
-0.71490888 0.59848709 1.08046418 0 0 0
-0.70993243 0.60934320 1.08407530 0 0 0
-0.69024139 -0.58415971 0.87031089 0 0 0
-0.69016170 -0.56995822 0.86788160 0 0 0
-0.68978372 -0.55012273 0.86396760 0 0 0
-0.68908728 -0.52791193 0.85781745 0 0 0
-0.69307221 -0.53717040 0.86081623 0 0 0
-0.68969915 -0.51141407 0.85193844 0 0 0
-0.68744533 -0.48179819 0.80961138 48 43 45
-0.69116748 -0.49354861 0.83097204 35 36 36
-0.69094687 -0.49910112 0.84113014 22 23 24
-0.69013011 -0.46762143 0.79609570 72 73 76
-0.68384066 -0.47733002 0.80210308 57 58 54
-0.69006074 -0.44991584 0.79311479 75 74 76
-0.68984453 -0.42989279 0.79068069 74 74 77
-0.68999801 -0.40991592 0.78911515 78 78 79
-0.68968853 -0.39005129 0.78813063 79 78 80
-0.69004546 -0.36975281 0.78744804 79 78 80
-0.68981325 -0.35000291 0.78667717 79 79 81
-0.68985693 -0.32985675 0.78598267 80 81 82
-0.69009282 -0.30997515 0.78553851 81 81 82
-0.68985241 -0.29018763 0.78509004 82 82 83
-0.68979525 -0.27005133 0.78456881 82 82 84
-0.69004708 -0.24978185 0.78409378 83 83 86
-0.68985215 -0.23022303 0.78342495 82 83 84
-0.68944709 -0.20983439 0.78246847 82 83 84
-0.68114991 -0.18105441 0.77996957 87 87 89
-0.69031846 -0.19006657 0.78191820 83 83 84
-0.68151556 -0.16922385 0.77980940 83 83 83
-0.69146704 -0.17016219 0.78203471 82 82 82
-0.68099980 -0.15271041 0.77979768 83 83 84
-0.69063510 -0.15000885 0.78189562 83 83 84
-0.68124721 -0.12756428 0.77987517 86 86 88
-0.68982671 -0.13063438 0.78159276 84 84 85
-0.68206667 -0.10932672 0.77980945 85 85 83
-0.68913712 -0.11019517 0.78123248 83 83 80
-0.68172571 -0.08916962 0.77956791 82 82 85
-0.68768750 -0.09123293 0.78150566 82 81 86
-0.68227097 -0.07072821 0.77901495 83 83 85
-0.68860346 -0.07202424 0.78320738 83 82 85
-0.68177851 -0.05219503 0.77887561 84 84 80
-0.68756174 -0.05096211 0.78442712 86 84 82
-0.68046683 -0.03744197 0.77918740 80 82 83
-0.68692943 -0.02972133 0.78625884 78 81 82
-0.68797391 -0.01323307 0.78953610 81 80 77
-0.69961144 -0.01290554 0.80269814 85 81 80
-0.68682953 0.00232432 0.78959868 77 82 80
-0.68522637 0.03167751 0.78984719 72 72 72
-0.69727367 0.03567578 0.80320156 55 52 53
-0.68607481 0.05068423 0.79272568 60 61 63
-0.69665315 0.05448448 0.80408771 52 53 60
-0.68416348 0.07056299 0.79579221 42 41 48
-0.69034187 0.07728405 0.80207792 38 37 44
-0.68920598 0.09087846 0.80876827 36 36 43
-0.68927004 0.10399092 0.81742326 35 34 41
-0.69016995 0.11414815 0.82452990 34 33 39
-0.68973634 0.12849870 0.83454962 32 31 39
-0.69051572 0.13820032 0.84127535 32 31 40
-0.68998998 0.15003176 0.84941305 28 27 36
-0.68939277 0.16290486 0.85819809 27 25 33
-0.68998738 0.17295061 0.86493629 25 24 31
-0.68988389 0.18824442 0.87492119 23 22 29
-0.69087779 0.19804040 0.88124132 21 21 28
-0.68995286 0.20995482 0.88853811 19 19 26
-0.68949278 0.22440682 0.89725745 18 17 24
-0.69029407 0.23437121 0.90334469 18 17 24
-0.69009320 0.25048847 0.91287552 17 16 24
-0.68932674 0.26173495 0.91944184 17 16 24
-0.68997862 0.27134145 0.92505947 16 15 24
-0.69003156 0.28880192 0.93500129 15 14 23
-0.69051021 0.29862711 0.94053655 15 14 21
-0.69005524 0.30957103 0.94661327 15 14 22
-0.68970699 0.32662393 0.95584326 14 14 23
-0.68998577 0.33679852 0.96132423 14 13 22
-0.69010825 0.35020830 0.96850188 13 12 20
-0.68973645 0.36664047 0.97706443 13 12 21
-0.69030240 0.37610925 0.98199124 12 11 20
-0.69004844 0.39013770 0.98915506 12 11 20
-0.68989926 0.40625880 0.99722670 11 10 19
-0.69023923 0.41608539 1.00212573 13 12 21
-0.68995857 0.43026116 1.00907300 12 12 21
-0.68963788 0.44696124 1.01677257 13 13 21
-0.69052550 0.45675921 1.02125869 13 12 21
-0.69010262 0.47009016 1.02758799 13 12 21
-0.68957274 0.48885375 1.03622134 13 12 21
-0.69162064 0.49888040 1.04070258 13 13 22
-0.69004191 0.50999759 1.04545106 13 12 21
-0.69014837 0.52926131 1.05342275 11 11 20
-0.68914322 0.54298037 1.05870223 11 10 19
-0.69046853 0.55302213 1.06239192 12 11 20
-0.69009231 0.57000801 1.06836978 4 4 7
-0.68978662 0.58999860 1.07583251 0 0 0
-0.68811888 0.60076386 1.07961504 0 0 0
-0.69057459 0.60956441 1.08299404 0 0 0
-0.67009087 -0.58337510 0.86803209 0 0 0
-0.67007014 -0.56999623 0.86579085 0 0 0
-0.66475042 -0.54199142 0.85957957 0 0 0
-0.67050782 -0.55091718 0.86221624 0 0 0
-0.66996877 -0.53003226 0.85649842 0 0 0
-0.66957502 -0.51061709 0.85027795 0 0 0
-0.67090903 -0.48287595 0.81521364 63 66 67
-0.66457895 -0.48844020 0.82556819 32 32 33
-0.66816813 -0.49855185 0.84265903 0 0 0
-0.67004016 -0.46574524 0.79381282 74 74 77
-0.67495290 -0.47778966 0.80564068 71 72 75
-0.67009135 -0.44988168 0.79076061 75 75 77
-0.66988308 -0.42998463 0.78820553 75 76 76
-0.67009275 -0.41003855 0.78653289 78 79 79
-0.66962241 -0.38994292 0.78535878 79 78 79
-0.67022739 -0.37007515 0.78462952 80 80 81
-0.66964810 -0.34995620 0.78374194 80 81 83
-0.67035100 -0.32999185 0.78309690 81 81 82
-0.66965258 -0.30994354 0.78240439 82 82 84
-0.66993773 -0.28999846 0.78189324 81 82 83
-0.66121512 -0.26489770 0.77981871 84 83 85
-0.67077296 -0.27041769 0.78144146 83 83 83
-0.66287498 -0.24876061 0.77952506 84 84 86
-0.67262827 -0.25062202 0.78113571 84 84 85
-0.66554372 -0.22892350 0.77912528 86 85 86
-0.67514670 -0.23051521 0.78085661 86 86 86
-0.66750977 -0.20983796 0.77859210 83 84 86
-0.67739884 -0.21187621 0.78049650 83 83 85
-0.66971159 -0.18971707 0.77817278 86 86 87
-0.67933506 -0.19514535 0.78009708 83 84 85
-0.66990762 -0.16990463 0.77771851 86 86 86
-0.67050332 -0.14976266 0.77765773 85 85 86
-0.67030945 -0.12997450 0.77751574 85 85 87
-0.67009686 -0.11013220 0.77733913 85 84 85
-0.66986148 -0.09024420 0.77714993 85 84 85
-0.67019881 -0.07016527 0.77669200 84 85 86
-0.67000303 -0.05005843 0.77641626 85 83 82
-0.66900470 -0.03001610 0.77613440 83 84 85
-0.66806695 -0.00994117 0.77587451 82 82 82
-0.67900357 -0.00310583 0.78060174 78 82 79
-0.66771161 0.01021158 0.77619050 78 78 80
-0.67744760 0.01915048 0.78036356 75 82 77
-0.66714780 0.02999105 0.77733729 78 78 77
-0.67680192 0.03076263 0.78153386 77 77 76
-0.66477006 0.04425333 0.77880192 66 66 68
-0.67054073 0.05237934 0.78344123 60 60 63
-0.66971629 0.07032856 0.79325189 46 45 51
-0.67941464 0.07979641 0.80015355 37 36 44
-0.67001654 0.09023609 0.80678132 38 37 44
-0.66976290 0.10473774 0.81686696 36 35 41
-0.67017865 0.11479852 0.82395568 35 34 41
-0.66984615 0.12916322 0.83397284 33 31 39
-0.67134771 0.13886984 0.84073848 31 30 39
-0.66991796 0.14980080 0.84815689 27 26 35
-0.66948866 0.16364853 0.85750616 26 24 33
-0.67021097 0.17391229 0.86433311 25 24 31
-0.66976244 0.18941326 0.87438384 24 23 31
-0.67240413 0.19893478 0.88062826 22 22 29
-0.66996546 0.20968705 0.88716384 20 20 27
-0.66995122 0.22496327 0.89650425 19 18 25
-0.66983264 0.23515803 0.90280872 18 17 25
-0.67010664 0.25006080 0.91182805 17 17 25
-0.66862394 0.26238476 0.91918607 17 17 24
-0.67014505 0.27191036 0.92488829 17 16 24
-0.67000070 0.28868220 0.93461318 16 15 23
-0.66998275 0.29853508 0.94024671 16 15 22
-0.67010925 0.30942174 0.94636141 15 14 23
-0.66952024 0.32684958 0.95583459 15 14 23
-0.67090693 0.33692660 0.96125909 14 13 22
-0.67004926 0.35001229 0.96823482 14 13 22
-0.67008869 0.36671120 0.97691095 14 13 22
-0.66990195 0.37621843 0.98181076 13 13 20
-0.67010668 0.38999813 0.98885699 12 11 19
-0.66988008 0.40616922 0.99693321 13 12 19
-0.67030393 0.41592000 1.00177190 12 11 19
-0.66992389 0.43011001 1.00867783 11 11 18
-0.66989514 0.44763817 1.01677310 12 11 19
-0.66993163 0.45749762 1.02127827 11 10 19
-0.67005405 0.46991582 1.02713002 11 10 19
-0.66978486 0.48946808 1.03597231 12 11 20
-0.67205094 0.49932149 1.04029953 11 11 19
-0.67014771 0.51048864 1.04492296 11 11 19
-0.66985033 0.53041334 1.05285401 11 11 20
-0.66969374 0.54519354 1.05831965 12 11 20
-0.67028782 0.55488920 1.06165372 11 10 18
-0.67044737 0.56976946 1.06698346 1 0 1
-0.66997665 0.59005330 1.07460925 0 0 0
-0.66820789 0.60294265 1.07910064 0 0 0
-0.67074102 0.61104236 1.08224505 0 0 0
-0.65003915 -0.58262181 0.86603754 0 0 0
-0.64991805 -0.56996809 0.86386151 0 0 0
-0.64855796 -0.54514635 0.85883347 0 0 0
-0.65173739 -0.55443651 0.86113811 0 0 0
-0.65006032 -0.52988515 0.85465616 0 0 0
-0.64993545 -0.50999527 0.84811926 0 0 0
-0.65249614 -0.48228142 0.81754690 73 73 76
-0.64927613 -0.49106512 0.83341784 23 24 24
-0.64738736 -0.49808129 0.84309367 0 0 0
-0.64995103 -0.46457192 0.79206868 74 74 77
-0.64639717 -0.47571412 0.80641425 74 73 77
-0.65004878 -0.44998847 0.78889199 76 77 76
-0.64983969 -0.43001933 0.78607727 75 75 76
-0.65004806 -0.40994221 0.78419801 80 80 81
-0.64978959 -0.38995720 0.78286434 81 81 82
-0.65017930 -0.37012140 0.78204640 81 81 82
-0.64143498 -0.34381347 0.77980154 82 79 83
-0.65032403 -0.35042250 0.78122181 82 82 84
-0.64355779 -0.32932854 0.77953820 82 81 84
-0.65371745 -0.33053660 0.78089182 81 82 84
-0.64600768 -0.30938049 0.77919289 83 83 85
-0.65565804 -0.31115136 0.78052625 83 84 86
-0.64821668 -0.28949160 0.77884075 84 85 86
-0.65805146 -0.29174209 0.78023980 83 84 86
-0.65030245 -0.26984368 0.77851446 84 85 86
-0.65965231 -0.27882325 0.78005499 86 86 88
-0.64959009 -0.25005458 0.77774621 85 85 87
-0.65016634 -0.23016204 0.77693985 86 85 85
-0.65013728 -0.20983701 0.77584214 85 86 87
-0.64981956 -0.19006668 0.77483108 87 87 88
-0.64954497 -0.17032364 0.77415071 86 87 89
-0.65048316 -0.15022851 0.77395093 87 87 87
-0.65029497 -0.13012456 0.77372666 88 88 87
-0.65014467 -0.11003915 0.77354797 88 88 88
-0.64999821 -0.08996405 0.77337387 87 87 87
-0.64975901 -0.06988795 0.77308989 86 86 86
-0.64949872 -0.04982421 0.77278081 86 84 84
-0.64952481 -0.02978921 0.77281211 87 86 87
-0.64968552 -0.00975574 0.77300328 83 83 83
-0.64963926 0.01028432 0.77294848 81 81 82
-0.64986401 0.03039312 0.77374916 79 78 79
-0.64959214 0.04633975 0.77697699 67 66 67
-0.65083450 0.05600283 0.78242159 64 62 65
-0.64988902 0.07009845 0.79170915 52 51 55
-0.64929490 0.08128236 0.79946476 43 42 48
-0.65001179 0.09100211 0.80633223 39 39 44
-0.64971220 0.10520103 0.81630982 37 36 42
-0.65048336 0.11533587 0.82349262 34 33 41
-0.64983073 0.12982495 0.83348130 31 30 39
-0.65817664 0.13896224 0.84012663 27 26 35
-0.64991762 0.14957210 0.84692170 27 26 35
-0.64957430 0.16444187 0.85688432 26 25 33
-0.65027443 0.17462814 0.86363504 25 24 34
-0.64998944 0.18976671 0.87346955 24 23 31
-0.64219906 0.20029387 0.87991216 24 23 29
-0.65011609 0.20947977 0.88605170 22 21 28
-0.65008244 0.22562542 0.89613330 20 19 26
-0.64979659 0.23584884 0.90259171 18 18 25
-0.65014054 0.24998913 0.91130866 18 17 24
-0.64999093 0.26236891 0.91887750 18 17 24
-0.64981765 0.27206679 0.92473373 17 17 25
-0.64974399 0.28897911 0.93460524 17 16 23
-0.65361878 0.29848377 0.94008510 17 17 22
-0.65007126 0.30943260 0.94616939 16 15 22
-0.64989235 0.32744332 0.95594396 15 14 22
-0.65016780 0.33765924 0.96141190 14 14 21
-0.65000952 0.35001463 0.96798534 14 13 21
-0.65004900 0.36673253 0.97668021 14 14 21
-0.65019127 0.37610543 0.98151565 14 13 20
-0.65000979 0.38996838 0.98861414 14 13 20
-0.65008202 0.40711996 0.99719041 13 12 19
-0.64991554 0.41686661 1.00201496 12 11 18
-0.64987461 0.43000240 1.00838611 12 11 18
-0.65008680 0.44739726 1.01637937 11 10 19
-0.64980098 0.45735764 1.02088015 11 11 20
-0.64997847 0.46959491 1.02654502 11 11 20
-0.65007683 0.48979274 1.03549230 11 11 19
-0.64209388 0.50089471 1.03983275 11 10 18
-0.65025984 0.51036687 1.04401348 11 10 19
-0.65001249 0.53028857 1.05169697 11 11 19
-0.64939828 0.54727288 1.05767213 11 10 18
-0.65136180 0.55718642 1.06109853 3 3 4
-0.64979786 0.57008105 1.06580333 0 0 0
-0.65036138 0.58969155 1.07317924 0 0 0
-0.64904054 0.60444290 1.07831935 0 0 0
-0.65141302 0.61252232 1.08154317 0 0 0
-0.63092191 -0.58200196 0.86431113 0 0 0
-0.62214613 -0.56127910 0.85976653 0 0 0
-0.63007541 -0.57055867 0.86224902 0 0 0
-0.62941349 -0.54921331 0.85792908 0 0 0
-0.63579201 -0.55832309 0.86040173 0 0 0
-0.63006172 -0.52992748 0.85283193 0 0 0
-0.63006892 -0.51000265 0.84616940 0 0 0
-0.62690001 -0.49093553 0.83573357 6 5 6
-0.62969121 -0.49701995 0.84126546 0 0 0
-0.63027712 -0.46351251 0.79092946 74 73 76
-0.62336285 -0.47245007 0.80500451 73 72 72
-0.62996572 -0.44975354 0.78726134 77 77 77
-0.63000029 -0.42991112 0.78418130 77 77 77
-0.62996220 -0.41013172 0.78205719 80 80 82
-0.62348109 -0.38663957 0.77961723 82 81 81
-0.63211186 -0.39132818 0.78085654 82 82 83
-0.62710410 -0.36885656 0.77918172 81 82 83
-0.63643712 -0.37180715 0.78041305 81 82 82
-0.62962072 -0.34999459 0.77861688 84 83 84
-0.63920109 -0.35745065 0.78010665 82 82 81
-0.63002350 -0.32980252 0.77786192 84 83 85
-0.63001713 -0.31021180 0.77720285 85 85 87
-0.62968002 -0.29003576 0.77643678 86 86 88
-0.63003058 -0.27004222 0.77579092 86 86 87
-0.63013306 -0.24987624 0.77506515 86 86 87
-0.62979540 -0.23013835 0.77415551 88 87 88
-0.62989740 -0.20997405 0.77307479 86 86 87
-0.62997750 -0.19006268 0.77206055 87 87 88
-0.62986959 -0.16955667 0.77135639 89 89 90
-0.63002789 -0.14965944 0.77101917 87 88 89
-0.62977359 -0.12961712 0.77070791 89 88 89
-0.63021567 -0.10970064 0.77055027 87 88 88
-0.63016044 -0.08961407 0.77036704 89 89 89
-0.63003282 -0.06962738 0.77021101 87 86 87
-0.62987911 -0.04964640 0.77002316 88 88 88
-0.62986840 -0.02968128 0.77000994 85 85 85
-0.63001762 -0.00971999 0.77019215 84 84 84
-0.63004019 0.01039902 0.77044920 83 83 83
-0.62996760 0.03008401 0.77125769 80 80 82
-0.62967695 0.04784196 0.77532202 73 69 72
-0.63115287 0.05743858 0.78160781 69 65 68
-0.62999985 0.06994038 0.79039180 60 58 61
-0.62939970 0.08187821 0.79886950 50 49 55
-0.63017457 0.09158056 0.80583799 42 42 49
-0.62971865 0.10569684 0.81580755 37 36 42
-0.63056175 0.11582322 0.82301462 34 33 40
-0.62995317 0.12975238 0.83253909 32 30 39
-0.62800398 0.14032364 0.83958404 30 29 38
-0.63015381 0.15002686 0.84620437 28 27 36
-0.62957086 0.16506153 0.85627111 26 25 34
-0.63039900 0.17527697 0.86306634 26 25 34
-0.63000782 0.18953719 0.87240840 25 24 32
-0.62963959 0.20016865 0.87936207 25 23 32
-0.62983022 0.21047125 0.88596275 24 23 31
-0.63036819 0.22598969 0.89583396 21 21 28
-0.62992991 0.23578604 0.90211257 21 21 26
-0.63016527 0.24987558 0.91089491 18 18 25
-0.63030792 0.26223574 0.91852228 19 18 25
-0.63005450 0.27188568 0.92439518 18 18 25
-0.62999786 0.28955156 0.93471819 18 18 23
-0.63009942 0.30937557 0.94591228 17 16 23
-0.62997202 0.32739419 0.95567365 16 15 22
-0.63000374 0.33753953 0.96107107 15 14 21
-0.62993912 0.34985300 0.96759761 15 14 21
-0.62968880 0.36690349 0.97645637 14 13 21
-0.63122233 0.37624963 0.98130235 14 13 20
-0.62987952 0.38980347 0.98825113 14 13 20
-0.63005667 0.40695502 0.99684713 14 13 20
-0.62976749 0.41671348 1.00164707 13 13 20
-0.62996810 0.42978941 1.00796709 13 12 20
-0.62975234 0.44812088 1.01630279 11 11 20
-0.63150719 0.45789193 1.02071024 11 11 20
-0.62993955 0.46936876 1.02589648 12 11 20
-0.63001502 0.48939575 1.03457604 11 11 19
-0.62802330 0.50126106 1.03934974 12 12 19
-0.63028750 0.51106381 1.04332019 12 11 18
-0.63005047 0.52945384 1.05019446 11 11 18
-0.62967117 0.54880337 1.05690164 6 5 9
-0.63462878 0.55818949 1.06039229 0 0 0
-0.63007820 0.56982341 1.06442497 0 0 0
-0.62975923 0.59033277 1.07189628 0 0 0
-0.62976632 0.60647534 1.07757471 0 0 0
-0.63387761 0.61358574 1.08067062 0 0 0
-0.61140739 -0.58130775 0.86260453 0 0 0
-0.60852077 -0.56411170 0.85920092 0 0 0
-0.61078556 -0.57359984 0.86125653 0 0 0
-0.60977039 -0.55011965 0.85641207 0 0 0
-0.60998980 -0.52999565 0.85107073 0 0 0
-0.61012362 -0.50985494 0.84431523 0 0 0
-0.60826349 -0.49228377 0.83701268 2 2 2
-0.61324725 -0.49845136 0.84038472 0 0 0
-0.61152940 -0.46176319 0.78912199 76 76 77
-0.61130101 -0.47477390 0.81095434 60 61 62
-0.60413944 -0.47932894 0.82096136 42 42 41
-0.60988016 -0.44978740 0.78553345 77 78 79
-0.61012716 -0.42992843 0.78244538 78 78 80
-0.60646148 -0.40673484 0.77934371 83 82 84
-0.61334342 -0.41291442 0.78060180 81 80 82
-0.60988545 -0.38979887 0.77831962 83 83 84
-0.61916637 -0.39946809 0.78000700 82 83 86
-0.61001018 -0.37020538 0.77730584 84 84 84
-0.60993492 -0.34989025 0.77626823 84 85 86
-0.60988053 -0.33014978 0.77539116 85 85 87
-0.61007873 -0.30972794 0.77472969 86 86 88
-0.60988670 -0.29010711 0.77402589 88 88 89
-0.60981926 -0.27007183 0.77333067 88 88 89
-0.60997270 -0.25012840 0.77262474 88 89 91
-0.60999547 -0.22980367 0.77175035 88 89 90
-0.61005058 -0.20985611 0.77074145 88 88 88
-0.61017337 -0.18979554 0.76976198 88 89 89
-0.60977622 -0.17016964 0.76905750 89 89 87
-0.60985625 -0.15046271 0.76865786 89 89 90
-0.60993433 -0.13028887 0.76833713 88 88 90
-0.61032969 -0.11009199 0.76811631 88 88 89
-0.61022875 -0.09003629 0.76789355 89 89 89
