ply
format ascii 1.0
element vertex 1104
property float x
property float y
property float z
property uchar red
property uchar green
property uchar blue
end_header
0.03018228 0.43016945 0.90766570 0 0 0
0.03018746 0.44985708 0.90782156 0 0 0
0.03019347 0.47034903 0.90800241 0 0 0
0.03019945 0.49006372 0.90818237 0 0 0
0.02976166 0.50838581 0.90836057 0 0 0
0.05049348 -0.60119739 0.89232692 0 0 0
0.05047768 -0.58944646 0.89204764 0 0 0
0.05044720 -0.56982927 0.89150893 0 0 0
0.05040417 -0.55009942 0.89074910 0 0 0
0.05034680 -0.53025124 0.88973634 0 0 0
0.05027369 -0.51028730 0.88844452 0 0 0
0.05017105 -0.49009148 0.88663274 0 0 0
0.05045118 -0.46784307 0.87418252 89 84 69
0.04949961 -0.47709021 0.88490728 4 4 3
0.05150408 -0.44335271 0.83323219 96 87 73
0.05336125 -0.44924607 0.84033519 96 88 73
0.05043077 -0.42995087 0.82999952 98 87 76
0.05036507 -0.40991752 0.82691056 94 81 73
0.05041263 -0.38306238 0.81875142 63 48 44
0.04987627 -0.39348470 0.82289900 69 56 51
0.04982726 -0.36972421 0.81266746 62 46 42
0.04999158 -0.34253754 0.79813677 56 42 38
0.05008308 -0.35277386 0.80395062 59 43 40
0.05002007 -0.33002087 0.78977537 54 40 38
0.05040977 -0.30762747 0.77430835 47 35 35
0.04896734 -0.31836225 0.78101332 51 38 38
0.05039687 -0.29017559 0.77259083 50 39 39
0.05042866 -0.27031228 0.77307018 55 43 43
0.05049502 -0.25034301 0.77344088 63 50 49
0.05043278 -0.23039093 0.77375849 73 58 56
0.05047622 -0.21038206 0.77379228 89 71 69
0.05045820 -0.19025493 0.77352725 97 77 74
0.05043160 -0.17011298 0.77312548 103 83 78
0.05036843 -0.14988328 0.77216445 110 88 82
0.05031889 -0.12973465 0.77140142 114 92 86
0.05028173 -0.10965364 0.77083376 121 96 90
0.05028934 -0.08968063 0.77095203 125 100 92
0.05032708 -0.06974211 0.77152073 127 103 95
0.05012913 -0.05247619 0.77477243 131 106 100
0.05030859 -0.04239457 0.78669612 129 108 100
0.04997652 -0.03902807 0.79783192 141 121 117
0.04999191 -0.03476540 0.81119593 146 130 125
0.05016703 -0.02555635 0.82945054 158 142 137
0.04956333 -0.01708122 0.83748781 77 73 77
0.05002452 -0.00710028 0.84763592 167 166 167
0.04998666 0.00400109 0.85717531 177 177 177
0.05016690 0.01382328 0.86366020 180 179 181
0.04985060 0.02953667 0.87155286 184 184 186
0.04967856 0.04658748 0.87792481 184 185 187
0.04984631 0.05663661 0.88088925 172 173 175
0.05003082 0.06984351 0.88414933 156 159 163
0.05026440 0.09012680 0.88827762 134 136 143
0.05044972 0.11049048 0.89155320 130 132 141
0.05059472 0.13012407 0.89411565 143 146 151
0.05025209 0.14960186 0.89622602 160 161 164
0.05004478 0.17028932 0.89811396 155 156 162
0.04950488 0.18773940 0.89946494 156 158 161
0.04937877 0.19711538 0.90012188 147 148 154
0.04942326 0.20975275 0.90093300 149 152 156
0.04948779 0.23029620 0.90210926 153 156 161
0.04954276 0.25006342 0.90311127 154 157 163
0.04959141 0.26984017 0.90399818 161 163 167
0.04963609 0.29041373 0.90481263 146 149 153
0.04967429 0.31020069 0.90550921 162 163 164
0.04970743 0.32998442 0.90611323 146 148 151
0.04973613 0.34976277 0.90663646 150 153 154
0.04975943 0.36952378 0.90706116 143 146 148
0.04977494 0.39002603 0.90734358 0 0 0
0.04978438 0.41049126 0.90751554 0 0 0
0.04979310 0.43017355 0.90767437 0 0 0
0.04980157 0.44986069 0.90782886 0 0 0
0.04981139 0.47035187 0.90800790 0 0 0
0.04982110 0.49006516 0.90818505 0 0 0
0.04983074 0.50821532 0.90836085 0 0 0
0.07054574 -0.60121549 0.89235377 0 0 0
0.07052329 -0.58946122 0.89206995 0 0 0
0.07047998 -0.56983770 0.89152209 0 0 0
0.07041889 -0.55009969 0.89074949 0 0 0
0.07033700 -0.53023803 0.88971408 0 0 0
0.07023159 -0.51025157 0.88838223 0 0 0
0.07008551 -0.49003745 0.88653487 0 0 0
0.07371934 -0.46104116 0.85754769 94 87 72
0.06709904 -0.46592716 0.86779710 96 87 74
0.06896396 -0.47781782 0.88467789 14 13 11
0.07032417 -0.44344882 0.83276236 95 88 75
0.07447689 -0.45608095 0.84899417 96 85 77
0.07029692 -0.42940475 0.83038160 97 86 76
0.07039457 -0.41003027 0.82713896 89 80 71
0.06968145 -0.38323360 0.81876810 62 48 44
0.07005248 -0.39381302 0.82312387 66 53 48
0.07005124 -0.36991869 0.81268693 62 45 42
0.06997903 -0.34246262 0.79796214 57 42 39
0.06997340 -0.35251754 0.80373937 58 43 40
0.07005404 -0.32993042 0.78946937 55 40 37
0.07036231 -0.30830582 0.77490280 47 35 36
0.06984781 -0.31901564 0.78108010 52 38 37
0.07050754 -0.29016561 0.77377942 51 39 39
0.06982245 -0.26980800 0.77447846 56 44 44
0.06993392 -0.24959536 0.77496797 65 51 50
0.07001913 -0.22959708 0.77545266 75 59 58
0.07016115 -0.20981377 0.77526281 89 72 70
0.06978811 -0.19025460 0.77464397 96 78 74
0.07039027 -0.17018158 0.77404175 104 82 76
0.07046797 -0.15005190 0.77303389 109 89 81
0.07040404 -0.12989089 0.77233012 115 93 87
0.07034891 -0.10978094 0.77172699 120 97 92
0.07036698 -0.08979340 0.77192257 123 101 94
0.07042810 -0.06983850 0.77259370 127 103 98
0.06978962 -0.05277121 0.77595149 130 106 101
0.07023612 -0.04277998 0.78764522 129 108 105
0.06803599 -0.03910510 0.79940643 141 124 121
0.07009712 -0.03547834 0.81075136 145 128 124
0.07013521 -0.02612515 0.82914077 162 145 140
0.06920188 -0.01729804 0.83766823 108 103 103
0.07028958 -0.00732878 0.84785433 173 173 173
0.07001060 0.00400234 0.85746056 174 174 175
0.06987681 0.01369040 0.86375232 169 169 171
0.07018046 0.02985328 0.87176645 148 149 155
0.06975868 0.04646402 0.87796069 128 130 139
0.06964585 0.05664176 0.88096944 126 128 139
0.06990219 0.06984845 0.88421228 123 127 137
0.07022687 0.09013105 0.88831994 127 130 140
0.07048425 0.11049334 0.89157636 135 137 146
0.07044003 0.12995995 0.89410626 143 146 153
0.06958909 0.14998997 0.89626694 161 163 168
0.06944852 0.17028881 0.89811130 164 167 172
0.06955286 0.18764387 0.89946049 154 156 161
0.06960448 0.19711672 0.90012802 156 158 164
0.06966679 0.20975295 0.90093388 162 164 169
0.06975761 0.23029597 0.90210837 147 149 155
0.06983479 0.25006209 0.90310645 141 143 146
0.06990359 0.26983954 0.90399611 143 145 148
0.06996670 0.29041357 0.90481207 150 153 157
0.07002058 0.31020055 0.90550884 151 153 155
0.07006747 0.32998517 0.90611530 154 158 160
0.07010752 0.34976157 0.90663337 146 148 149
0.07014008 0.36952111 0.90705461 139 143 144
0.07016240 0.39002582 0.90734309 0 0 0
0.07017604 0.41049301 0.90751940 0 0 0
0.07018858 0.43017695 0.90768152 0 0 0
0.07020055 0.44986438 0.90783631 0 0 0
0.07021423 0.47035459 0.90801317 0 0 0
0.07022775 0.49006678 0.90818806 0 0 0
0.07024125 0.50821637 0.90836273 0 0 0
0.09059970 -0.60123696 0.89238565 0 0 0
0.09057091 -0.58948245 0.89210210 0 0 0
0.09051572 -0.56986102 0.89155858 0 0 0
0.09043755 -0.55012374 0.89078844 0 0 0
0.09033082 -0.53025197 0.88973737 0 0 0
0.09018907 -0.51022868 0.88834219 0 0 0
0.08989144 -0.49012109 0.88648812 0 0 0
0.09874090 -0.46353455 0.85599244 106 81 82
0.09234683 -0.47298248 0.87366867 72 62 59
0.08598673 -0.47804239 0.88306499 27 21 21
0.09032171 -0.44605224 0.83460911 99 85 78
0.08570717 -0.45671923 0.84719725 98 85 83
0.08971546 -0.43007602 0.83101369 97 85 77
0.09045696 -0.41024456 0.82757059 88 77 68
0.08966547 -0.38313580 0.81863873 61 48 44
0.08996588 -0.39379659 0.82308860 65 52 46
0.09009494 -0.36993312 0.81265716 61 45 42
0.08998678 -0.34249517 0.79803800 57 42 38
0.09003161 -0.35267613 0.80386743 57 43 40
0.09005084 -0.32999116 0.78953703 54 40 37
0.08991244 -0.30821798 0.77565767 46 35 36
0.09008552 -0.31896469 0.78095537 50 38 36
0.09002431 -0.28981106 0.77540984 51 40 40
0.08953801 -0.27005775 0.77617956 56 45 44
0.08957980 -0.25005232 0.77654449 65 52 50
0.08962949 -0.23004843 0.77697700 75 60 58
0.08959853 -0.20983376 0.77671029 89 72 71
0.08968026 -0.18980775 0.77593069 96 78 74
0.08973151 -0.17032896 0.77511139 102 83 77
0.08996619 -0.15025991 0.77410602 108 89 83
0.09025953 -0.12990930 0.77346187 114 93 87
0.09049721 -0.10995099 0.77292336 119 99 94
0.09053716 -0.08994899 0.77326173 123 102 98
0.09016701 -0.07010563 0.77382404 125 103 100
0.08965568 -0.05338443 0.77667149 129 108 104
0.08991726 -0.04329198 0.78732193 131 108 105
0.09001891 -0.03611614 0.80968748 146 128 124
0.08993155 -0.02621363 0.82936379 156 140 135
0.09005455 -0.01779874 0.83714297 73 69 72
0.08998374 -0.00770458 0.84766459 131 131 137
0.09003975 0.00400327 0.85766386 120 121 130
0.08995139 0.01374275 0.86394051 127 129 137
0.09001912 0.02969825 0.87182244 128 129 137
0.08997714 0.04618362 0.87798826 125 125 136
0.09004735 0.05602404 0.88090354 124 126 135
0.08977727 0.06985409 0.88428477 125 127 138
0.09019089 0.09013497 0.88835894 125 129 138
0.09052000 0.11049636 0.89160071 122 125 137
0.08993888 0.13015432 0.89414740 135 137 145
0.08944364 0.14979948 0.89625747 154 155 159
0.08962828 0.17028817 0.89810804 154 154 156
0.08976334 0.18764408 0.89946143 153 156 161
0.08982978 0.19711656 0.90012728 139 143 151
0.08991029 0.20975296 0.90093393 157 159 163
0.09002704 0.23029483 0.90210380 143 145 151
0.09012705 0.25006195 0.90310593 127 130 138
0.09021586 0.26983946 0.90399586 132 135 141
0.09029697 0.29041253 0.90480887 143 146 149
0.09036658 0.31019968 0.90550626 146 148 152
0.09042735 0.32998513 0.90611519 143 144 144
0.09047897 0.34976118 0.90663237 135 139 143
0.09052035 0.36951802 0.90704705 115 121 124
0.09054925 0.39002310 0.90733673 0 0 0
0.09056726 0.41049199 0.90751712 0 0 0
0.09033610 0.43001254 0.90768306 0 0 0
0.08981508 0.44986693 0.90784146 0 0 0
0.08983252 0.47035697 0.90801776 0 0 0
0.08984967 0.49006842 0.90819109 0 0 0
0.08986682 0.50821733 0.90836444 0 0 0
0.11065730 -0.60127055 0.89243551 0 0 0
0.11062196 -0.58951442 0.89215048 0 0 0
0.11055543 -0.56989622 0.89161367 0 0 0
0.11046149 -0.55016531 0.89085580 0 0 0
0.11033002 -0.53028682 0.88979574 0 0 0
0.11015385 -0.51024765 0.88837531 0 0 0
0.10986833 -0.49089077 0.88659531 1 1 1
0.11715589 -0.46270164 0.85011817 92 86 70
0.10900966 -0.47125934 0.86706114 78 76 63
0.11042602 -0.44724398 0.83502565 95 86 75
0.10948758 -0.43011432 0.83160181 93 85 75
0.11035847 -0.41029859 0.82791515 86 74 67
0.11000491 -0.38320325 0.81870341 63 47 44
0.10988003 -0.39378630 0.82306703 65 50 45
0.11003049 -0.36977318 0.81266224 60 45 41
0.11000650 -0.34255277 0.79817221 56 41 38
0.11002590 -0.35276038 0.80402821 58 42 39
0.10999417 -0.33007000 0.78970406 52 39 37
0.10966192 -0.30825073 0.77694512 47 35 36
0.11208072 -0.31861714 0.78104780 47 35 35
0.10988516 -0.29019128 0.77718129 50 40 40
0.10987880 -0.27013171 0.77780550 57 44 44
0.10984848 -0.25021965 0.77802291 64 52 50
0.10988498 -0.23036291 0.77832453 75 61 59
0.10992048 -0.21018795 0.77802094 89 73 71
0.10980246 -0.18981308 0.77718515 96 77 73
0.10984355 -0.16985879 0.77628764 102 82 77
0.10936856 -0.15023068 0.77528178 108 88 83
0.10980740 -0.13047402 0.77477268 114 92 88
0.11005891 -0.11014151 0.77426253 118 99 95
0.11009399 -0.09009469 0.77451270 122 101 100
0.10969190 -0.06989629 0.77489957 125 104 103
0.10995981 -0.05331657 0.77719437 130 108 106
0.10967838 -0.04317317 0.78744872 128 109 108
0.10997062 -0.03606789 0.80988694 146 129 125
0.10991683 -0.02621280 0.82933325 154 136 133
0.11031478 -0.01779889 0.83715561 38 32 40
0.10993396 -0.00779492 0.84791025 123 123 129
0.10954727 0.00350799 0.85758970 119 120 128
0.11024507 0.01325898 0.86387350 118 119 130
0.10986389 0.02954484 0.87192035 126 128 137
0.11038202 0.04583027 0.87797614 126 127 136
0.10999251 0.05587879 0.88093584 131 133 142
0.10965385 0.06985863 0.88434268 128 131 141
0.11015682 0.09013907 0.88839940 127 129 141
0.11055880 0.11050138 0.89164130 122 125 136
0.10951260 0.13027311 0.89420346 138 141 148
0.10958651 0.14980549 0.89629363 147 149 154
0.10980996 0.17029070 0.89812148 144 146 152
0.10997493 0.18764607 0.89947101 161 165 169
0.11005577 0.19711763 0.90013219 163 166 173
0.11015457 0.20975443 0.90094027 160 163 167
0.11029767 0.23029657 0.90211070 147 151 156
0.11041960 0.25006254 0.90310807 150 153 157
0.11052878 0.26984099 0.90400090 151 156 160
0.11016044 0.29021616 0.90480240 150 154 158
0.10993048 0.31020026 0.90550795 162 167 170
0.11000324 0.32998229 0.90610741 130 132 135
0.11006629 0.34975902 0.90662679 161 166 167
0.11011616 0.36951416 0.90703760 131 134 135
0.11015123 0.39001871 0.90732650 0 0 0
0.11017354 0.41048886 0.90751020 0 0 0
0.10991903 0.43034778 0.90768407 0 0 0
0.10942954 0.44986829 0.90784418 0 0 0
0.10945091 0.47035890 0.90802148 0 0 0
0.10947189 0.49007080 0.90819551 0 0 0
0.10949287 0.50822018 0.90836954 0 0 0
0.13071965 -0.60131547 0.89250218 0 0 0
0.13067796 -0.58955877 0.89221761 0 0 0
0.13059991 -0.56994153 0.89168457 0 0 0
0.13049102 -0.55021784 0.89094090 0 0 0
0.13033494 -0.53033428 0.88987530 0 0 0
0.13012153 -0.51027255 0.88841855 0 0 0
0.13467854 -0.48080954 0.87808421 80 72 54
0.12947210 -0.49181976 0.88642559 4 4 3
0.12541779 -0.46230825 0.84785818 96 88 66
0.13721502 -0.47812410 0.87249036 87 81 67
0.13058260 -0.44860974 0.83528491 96 86 75
0.12966201 -0.45947808 0.84223050 96 87 69
0.12985511 -0.43029158 0.83194382 95 84 75
0.13017984 -0.41050333 0.82813483 83 72 63
0.13035612 -0.38329594 0.81882170 61 47 44
0.12979276 -0.39377402 0.82304168 63 50 45
0.13003386 -0.36986567 0.81280626 59 45 41
0.13001601 -0.34256965 0.79821154 56 42 38
0.12992579 -0.35260428 0.80398900 58 42 38
0.13000874 -0.33010667 0.78980288 50 39 36
0.12986110 -0.30752311 0.77856459 46 36 36
0.13158874 -0.31778460 0.78110102 44 34 35
0.13001775 -0.29010838 0.77904433 50 40 40
0.13941365 -0.28285998 0.78003283 53 41 41
0.12881971 -0.27032198 0.77931872 56 44 43
0.13852873 -0.26726635 0.78011089 56 45 43
0.12941405 -0.24956698 0.77933996 65 51 51
0.13916359 -0.25022594 0.78007066 64 52 49
0.12933346 -0.22973172 0.77942745 78 62 60
0.13908808 -0.23064699 0.78004877 76 60 58
0.13011483 -0.21023520 0.77915327 91 72 70
0.13014980 -0.19010176 0.77836717 95 75 73
0.13002155 -0.16975273 0.77759517 100 81 76
0.13003751 -0.14986877 0.77675719 106 87 81
0.12961877 -0.13031071 0.77609947 111 92 87
0.12968728 -0.11033112 0.77559574 117 97 95
0.12970211 -0.09023178 0.77568710 120 101 100
0.12972708 -0.07013468 0.77584157 124 104 103
0.12997695 -0.05280136 0.77735274 129 107 107
0.12986800 -0.04262749 0.78812498 124 109 106
0.13001447 -0.03612110 0.80962399 144 129 125
0.13000253 -0.02621579 0.82944417 150 135 131
0.13016027 -0.01784312 0.83753009 35 31 37
0.12996842 -0.00778727 0.84821799 120 121 130
0.13006775 0.00326076 0.85768454 120 122 129
0.12993748 0.01287470 0.86385253 118 119 129
0.12993912 0.02969077 0.87213166 124 126 134
0.13012340 0.04583508 0.87806896 127 129 138
0.13039943 0.05593050 0.88102271 135 135 143
0.12965393 0.06976281 0.88437353 126 129 138
0.13012478 0.09014330 0.88844097 122 125 135
0.13048713 0.11040361 0.89167215 115 119 131
0.12942723 0.13014085 0.89423126 144 147 154
0.12973093 0.14981150 0.89632967 163 165 169
0.12999335 0.17029474 0.89814288 143 144 151
0.13018692 0.18764802 0.89948041 155 157 161
0.13028238 0.19711934 0.90014001 172 173 174
0.13039805 0.20975421 0.90093936 149 150 153
0.13051089 0.23023917 0.90210403 142 145 149
0.12993026 0.25006020 0.90309970 123 125 133
0.13005859 0.26983830 0.90399188 145 149 152
0.12968023 0.29060330 0.90480908 150 153 157
0.12949298 0.31019743 0.90549969 153 156 158
0.12957824 0.32997810 0.90609589 128 131 135
0.12965239 0.34975423 0.90661439 159 161 162
0.12971079 0.36950813 0.90702281 116 117 118
0.12975220 0.39001262 0.90731234 0 0 0
0.12977882 0.41048356 0.90749846 0 0 0
0.12980450 0.43017529 0.90767795 0 0 0
0.12982840 0.44986869 0.90784498 0 0 0
0.12985411 0.47036056 0.90802468 0 0 0
0.12987940 0.49007404 0.90820150 0 0 0
0.12990470 0.50822510 0.90837833 0 0 0
0.15001481 -0.60136535 0.89257621 0 0 0
0.15039738 -0.58940866 0.89229119 0 0 0
0.15065064 -0.56999848 0.89177370 0 0 0
0.15052852 -0.55028556 0.89105061 0 0 0
0.15040584 -0.53033101 0.88997654 0 0 0
0.15004189 -0.51026160 0.88849498 0 0 0
0.14950771 -0.49354354 0.88684365 6 5 5
0.15488100 -0.46041701 0.83951709 97 86 79
0.15411890 -0.46735674 0.85010476 96 87 80
0.14669732 -0.47679776 0.86847781 91 85 78
0.15004298 -0.44942889 0.83575254 98 87 75
0.15005137 -0.43032475 0.83210385 96 86 77
0.15001918 -0.41062057 0.82835373 81 69 62
0.15036166 -0.38327245 0.81885107 61 46 43
0.14980722 -0.39374169 0.82306621 61 49 44
0.15002034 -0.36994138 0.81283483 58 44 40
0.14998895 -0.34249965 0.79804844 55 41 38
0.14997494 -0.35276869 0.80402127 56 42 38
0.15009891 -0.32992550 0.78951515 49 37 35
0.14631600 -0.30619435 0.77967557 45 34 34
0.15233447 -0.31257962 0.78077999 42 33 34
0.14430822 -0.29646558 0.77976710 48 37 39
0.15122019 -0.28912951 0.78045514 48 39 39
0.15006759 -0.27021595 0.78050771 53 42 42
0.15004433 -0.24994211 0.78038763 61 49 48
0.15003241 -0.22969196 0.78032650 75 60 58
0.14798381 -0.20779982 0.77975052 85 70 66
0.15356643 -0.21410643 0.78016068 87 69 67
0.15000657 -0.19016851 0.77920993 87 73 71
0.15038763 -0.16998698 0.77867018 95 77 74
0.15025017 -0.14966177 0.77795293 100 82 79
0.15030867 -0.12984358 0.77744469 105 87 84
0.14996051 -0.11034981 0.77723678 110 93 90
0.15012992 -0.09042243 0.77731882 114 96 95
0.15014744 -0.07027620 0.77740668 118 101 100
0.15021915 -0.05289400 0.77807752 121 102 101
0.14994145 -0.04264162 0.78840935 116 101 100
0.15005636 -0.03613831 0.81017586 144 128 125
0.15003561 -0.02626770 0.82962366 149 134 130
0.14977780 -0.01778337 0.83808619 39 35 42
0.15000863 -0.00779066 0.84849554 130 130 135
0.14993665 0.00322096 0.85786461 126 127 133
0.15004000 0.01307608 0.86414527 125 125 133
0.15002238 0.02983705 0.87232533 134 135 141
0.14987159 0.04584066 0.87817683 136 139 144
0.15036944 0.05588887 0.88109428 137 139 148
0.14977044 0.06980449 0.88445083 126 129 139
0.15009684 0.09014885 0.88849582 120 124 136
0.15029109 0.11044705 0.89172431 121 124 135
0.14952653 0.13014643 0.89426972 141 143 151
0.14987641 0.14981693 0.89636220 156 159 164
0.15017857 0.17029974 0.89816935 138 141 148
0.15040013 0.18765096 0.89949459 148 151 158
0.15050906 0.19712069 0.90014614 141 142 148
0.15029622 0.20955159 0.90093089 133 136 144
0.14999370 0.23035676 0.90211297 144 147 151
0.14944253 0.25006118 0.90310323 139 140 143
0.14958803 0.26983549 0.90398256 128 133 139
0.14972174 0.29040668 0.90479068 151 154 156
0.14983564 0.31019034 0.90547907 139 141 144
0.14993499 0.32997209 0.90607941 131 135 139
0.15002025 0.34974663 0.90659468 148 150 150
0.15008727 0.36949874 0.90699978 104 107 110
0.15013545 0.39000341 0.90729089 0 0 0
0.15016706 0.41047606 0.90748185 0 0 0
0.15019816 0.43017140 0.90766972 0 0 0
0.15022697 0.44986807 0.90784371 0 0 0
0.15025728 0.47036170 0.90802687 0 0 0
0.15028719 0.49007731 0.90820755 0 0 0
0.15031733 0.50823143 0.90838963 0 0 0
0.16931599 -0.60142515 0.89266497 0 0 0
0.16966344 -0.58987183 0.89238884 0 0 0
0.17058556 -0.56995639 0.89186451 0 0 0
0.17057282 -0.55035921 0.89116997 0 0 0
0.17036347 -0.52968496 0.89007586 0 0 0
0.17008766 -0.50962807 0.88863437 0 0 0
0.17194854 -0.48474954 0.87477005 88 83 69
0.16884220 -0.49530875 0.88715730 7 6 6
0.17072386 -0.46189153 0.83922975 100 87 76
0.16936726 -0.46545749 0.84221741 99 88 76
0.17017785 -0.45034337 0.83611981 100 88 75
0.17006076 -0.43041030 0.83217469 98 87 76
0.16985026 -0.41071299 0.82848791 80 67 60
0.17017578 -0.38327191 0.81884987 60 46 42
0.16991370 -0.39378686 0.82313442 63 47 44
0.16997839 -0.36986291 0.81268070 57 45 40
0.17030545 -0.34305942 0.79791541 52 40 37
0.16980971 -0.35326938 0.80401336 55 42 38
0.17010036 -0.32976523 0.78898877 45 35 34
0.16986796 -0.30974162 0.78141287 44 34 35
0.16992448 -0.28983560 0.78129507 50 40 40
0.16964639 -0.27025042 0.78135491 56 45 44
0.16978719 -0.25021426 0.78123652 65 52 52
0.16975935 -0.22992215 0.78110851 80 65 62
0.16983508 -0.20981856 0.78069168 89 73 69
0.16488455 -0.18671294 0.77981994 95 77 74
0.17215286 -0.19224860 0.78026193 93 76 73
0.16816536 -0.16987319 0.77964083 100 81 77
0.17757411 -0.17153036 0.78012946 100 80 77
0.16972635 -0.14967042 0.77938995 105 86 82
0.17863017 -0.15680614 0.78005771 102 85 81
0.16999859 -0.12968247 0.77910620 110 92 87
0.16973389 -0.10978565 0.77925888 115 96 93
0.17880104 -0.10371939 0.78006789 115 94 92
0.16810538 -0.09021952 0.77933849 118 100 98
0.17763687 -0.08940162 0.78013590 117 99 98
0.16740144 -0.07104581 0.77941124 123 103 101
0.17674357 -0.06909199 0.78019283 124 105 102
0.16883920 -0.05297116 0.77945740 126 105 103
0.17149532 -0.04602170 0.78673906 107 93 91
0.17003381 -0.03617085 0.81144230 145 129 125
0.16994112 -0.02625701 0.82998764 151 136 131
0.16987946 -0.01782408 0.83833896 32 28 36
0.17004913 -0.00772454 0.84876624 133 133 136
0.16998726 0.00330449 0.85813878 129 131 138
0.16999508 0.01296648 0.86428638 131 131 136
0.17005782 0.02967424 0.87240629 136 136 142
0.16972446 0.04579541 0.87827901 135 135 141
0.17018489 0.05589469 0.88118623 144 145 150
0.16989207 0.06984685 0.88453554 128 130 140
0.17007382 0.09015569 0.88856344 123 126 137
0.17015673 0.11050018 0.89177988 123 126 138
0.16962652 0.13015118 0.89430261 129 131 139
0.17002235 0.14982150 0.89638957 161 162 166
0.17036588 0.17030568 0.89820070 150 152 158
0.17045142 0.18755897 0.89950747 151 153 157
0.16996009 0.19712436 0.90016290 153 155 159
0.16973714 0.20996282 0.90096843 151 152 157
0.16954925 0.23029795 0.90211613 153 155 159
0.16973579 0.25006268 0.90310863 147 150 155
0.16990042 0.26983609 0.90398461 146 149 152
0.17005087 0.29040486 0.90478513 144 148 153
0.17018025 0.31018843 0.90547346 139 144 150
0.17029298 0.32996987 0.90607333 125 130 135
0.17038854 0.34974165 0.90658180 125 131 136
0.17046416 0.36949239 0.90698420 96 101 106
0.17051769 0.38999405 0.90726913 0 0 0
0.17055444 0.41046830 0.90746466 0 0 0
0.17014861 0.42998174 0.90765829 0 0 0
0.16984055 0.44986650 0.90784052 0 0 0
0.16987565 0.47036236 0.90802813 0 0 0
0.16991036 0.49008060 0.90821363 0 0 0
0.16994555 0.50823816 0.90840163 0 0 0
0.18939574 -0.60149501 0.89276866 0 0 0
0.18933514 -0.58973420 0.89248312 0 0 0
0.19006256 -0.57008257 0.89196193 0 0 0
0.19062004 -0.55042612 0.89127833 0 0 0
0.19039236 -0.52976675 0.89021348 0 0 0
0.19008092 -0.50969900 0.88875766 0 0 0
0.19056990 -0.48656709 0.87206329 85 79 62
0.18872809 -0.49672351 0.88684890 17 15 14
0.19160477 -0.46217873 0.83922802 100 89 76
0.19089741 -0.46854706 0.84291681 99 90 73
0.18306943 -0.47923389 0.86294889 101 88 77
0.18966909 -0.44973979 0.83602388 101 87 79
0.19021245 -0.42980304 0.83220577 98 86 76
0.18986378 -0.41075385 0.82859628 77 63 57
0.18997037 -0.38323302 0.81876665 58 45 41
0.19001602 -0.39381754 0.82317218 62 47 43
0.19000771 -0.36965237 0.81231435 56 44 40
0.19019677 -0.34404344 0.79783502 51 40 37
0.18953301 -0.35357538 0.80369977 53 42 39
0.19017613 -0.33021796 0.78868167 43 33 33
0.19024587 -0.30996307 0.78207977 44 35 35
0.19024280 -0.28967888 0.78206425 50 40 40
0.19045611 -0.26972731 0.78225381 55 44 44
0.19010852 -0.25012947 0.78220360 65 52 50
0.19025559 -0.23021787 0.78211317 79 64 62
0.19015742 -0.20983354 0.78170986 88 72 68
0.19013554 -0.18996264 0.78115028 93 76 73
0.18983866 -0.17033390 0.78084896 99 81 78
0.18077760 -0.14391386 0.77993604 106 89 85
0.19035795 -0.15049289 0.78064178 103 86 82
0.18092998 -0.13013993 0.77990060 109 90 88
0.19115610 -0.12986146 0.78047021 108 91 87
0.18029156 -0.11634258 0.77995416 113 91 89
0.19009855 -0.10953738 0.78058704 114 94 92
0.19002678 -0.08959683 0.78072564 118 98 97
0.18981953 -0.07005036 0.78079213 122 104 101
0.18129121 -0.05196816 0.77990474 126 104 102
0.18999743 -0.05039039 0.78343332 116 99 97
0.19271258 -0.04055478 0.80074867 137 122 120
0.18961002 -0.03671246 0.81164689 143 128 123
0.19017964 -0.02683069 0.82997422 147 132 127
0.18922113 -0.01806807 0.83844058 36 33 42
0.19027760 -0.00813083 0.84856660 124 125 128
0.18956812 0.00312005 0.85822029 136 136 140
0.19009329 0.01284678 0.86443050 140 140 145
0.19004240 0.02964355 0.87255271 139 139 143
0.18964325 0.04522437 0.87822795 134 134 140
0.19027470 0.05528187 0.88112031 136 139 146
0.19001985 0.06989006 0.88463014 133 136 145
0.19005517 0.09016318 0.88863737 127 130 138
0.19002896 0.11051687 0.89184095 116 120 131
0.18972989 0.13015725 0.89434442 132 137 147
0.19017059 0.14982688 0.89642186 154 156 162
0.19044085 0.17020742 0.89822212 147 150 156
0.18987203 0.18776055 0.89954564 154 157 161
0.18941259 0.19712877 0.90018307 145 146 152
0.18957714 0.20976018 0.90096524 158 160 163
0.18982022 0.23029907 0.90212045 150 152 158
0.19002917 0.25006401 0.90311348 148 151 155
0.19021288 0.26983671 0.90398670 147 151 155
0.19037895 0.29040194 0.90477605 141 144 146
0.19052480 0.31018698 0.90546924 154 157 157
0.18999611 0.32985810 0.90606571 148 150 153
0.18997409 0.34973914 0.90657532 140 146 150
0.19005765 0.36948828 0.90697412 130 134 137
0.19011589 0.38998672 0.90725207 0 0 0
0.19015740 0.41046175 0.90745014 0 0 0
0.18972725 0.43034547 0.90765333 0 0 0
0.18945401 0.44986497 0.90783741 0 0 0
0.18949415 0.47036318 0.90802970 0 0 0
0.18953398 0.49008432 0.90822051 0 0 0
0.18957417 0.50824456 0.90841307 0 0 0
0.20948305 -0.60157338 0.89288499 0 0 0
0.20941502 -0.58980811 0.89259497 0 0 0
0.20947470 -0.57032798 0.89207643 0 0 0
0.21055993 -0.55038761 0.89138032 0 0 0
0.21042993 -0.52985468 0.89036150 0 0 0
0.21007891 -0.50976773 0.88887690 1 1 0
0.21409018 -0.48117007 0.85578144 97 91 75
0.20927864 -0.48857168 0.86971605 93 90 74
0.20737208 -0.49879166 0.88681987 31 30 25
0.21058767 -0.46362076 0.83938228 100 89 73
0.20997349 -0.47059019 0.84127027 97 90 76
0.21014854 -0.44971677 0.83634553 99 88 77
0.21018446 -0.42979088 0.83245251 97 86 75
0.20991723 -0.41076086 0.82860899 71 59 54
0.20985774 -0.38299430 0.81833596 56 45 42
0.21004615 -0.39370942 0.82291956 59 47 43
0.21002143 -0.36942752 0.81174131 56 43 40
0.21034866 -0.34443876 0.79738283 49 38 37
0.20967297 -0.35391823 0.80333015 52 40 39
0.20994587 -0.32995288 0.78778651 42 33 32
0.21001615 -0.31005941 0.78218165 44 34 35
0.20997282 -0.28985856 0.78255050 48 39 39
0.21004299 -0.26966001 0.78281148 54 43 44
0.21023590 -0.24983784 0.78296375 63 52 50
0.20990815 -0.23020667 0.78285982 78 64 61
0.20993925 -0.21002489 0.78242290 88 71 69
0.21006713 -0.18943154 0.78185122 93 76 72
0.21039754 -0.16995253 0.78161305 98 80 77
0.21018912 -0.15046674 0.78163470 104 84 81
0.21033654 -0.13006196 0.78138282 108 90 87
0.21032401 -0.10979662 0.78133795 112 95 91
0.21030548 -0.08953220 0.78127184 117 98 96
0.21030341 -0.06995032 0.78126784 122 103 101
0.21024137 -0.05062618 0.78415703 116 100 97
0.20971665 -0.04063131 0.80225959 138 123 120
0.21005240 -0.03697041 0.81261323 142 127 122
0.21007923 -0.02697975 0.83084986 143 129 125
0.21042356 -0.01854720 0.83822815 32 27 36
0.20998066 -0.00849231 0.84840795 124 124 127
0.20995598 0.00255672 0.85807826 134 133 135
0.20994741 0.01221447 0.86427192 142 142 145
0.20998501 0.02972083 0.87277133 145 145 149
0.21018192 0.04513760 0.87833228 150 150 154
0.20978478 0.05513388 0.88118756 137 138 144
0.21009363 0.06990604 0.88471784 130 132 140
0.21003959 0.09017056 0.88871033 126 131 139
0.20990498 0.11054373 0.89190950 123 126 136
0.20983777 0.13016493 0.89439745 143 147 156
0.21032155 0.14983317 0.89645961 163 166 171
0.21009076 0.17024889 0.89825480 162 164 167
0.20919153 0.18726369 0.89953595 165 166 170
0.21034788 0.19665391 0.90017666 154 157 162
0.20982539 0.20976417 0.90098253 150 152 156
0.21009349 0.23030246 0.90213376 147 150 156
0.21032443 0.25006732 0.90312548 145 146 150
0.21052464 0.26983627 0.90398532 136 139 144
0.20992495 0.29039931 0.90476778 134 137 141
0.21008342 0.31018065 0.90545080 144 146 149
0.20955457 0.33006870 0.90606141 155 158 160
0.20955901 0.34973606 0.90656731 133 137 142
0.20965097 0.36948458 0.90696508 117 119 120
0.20971412 0.38998083 0.90723837 0 0 0
0.20976039 0.41045650 0.90743851 0 0 0
0.20980811 0.43015966 0.90764490 0 0 0
0.20985202 0.44986369 0.90783481 0 0 0
0.20989776 0.47036472 0.90803265 0 0 0
0.20994304 0.49008864 0.90822850 0 0 0
0.20998829 0.50825082 0.90842426 0 0 0
0.22957902 -0.60166072 0.89301461 0 0 0
0.22950563 -0.58989670 0.89272906 0 0 0
0.22941956 -0.56954244 0.89218008 0 0 0
0.23027913 -0.54971756 0.89146848 0 0 0
0.23045911 -0.52990842 0.89045164 0 0 0
0.22977752 -0.51141258 0.88901479 1 1 1
0.23838915 -0.48689956 0.85805839 102 92 77
0.23523602 -0.49392712 0.87110577 100 92 80
0.22748066 -0.49867861 0.88116540 80 73 62
0.22937426 -0.46486652 0.83908667 102 88 75
0.23107393 -0.47316863 0.84092038 101 90 78
0.23012576 -0.44988975 0.83612093 99 89 77
0.23002196 -0.43003527 0.83268734 96 86 75
0.22995702 -0.41074309 0.82857098 69 56 51
0.22991613 -0.38369225 0.81818779 56 44 41
0.22976604 -0.39414777 0.82279995 59 46 42
0.23004939 -0.37013842 0.81153112 54 42 41
0.23016007 -0.34481810 0.79685372 50 37 36
0.23008156 -0.35507615 0.80323565 52 38 39
0.22994292 -0.32950775 0.78674563 42 31 32
0.22956771 -0.30989946 0.78206075 43 34 34
0.22961404 -0.28989596 0.78265280 47 38 39
0.22972435 -0.26973480 0.78302787 53 43 42
0.22980658 -0.24952260 0.78330793 62 51 49
0.22985970 -0.22994501 0.78348658 78 63 59
0.22973902 -0.21019991 0.78307417 86 70 67
0.22977084 -0.18987663 0.78230083 90 74 71
0.23012196 -0.17005333 0.78207819 94 78 73
0.22995496 -0.15039750 0.78231143 100 83 79
0.23017206 -0.13020517 0.78224581 105 88 83
0.23011787 -0.10989939 0.78206274 110 92 89
0.23011616 -0.08945383 0.78157489 113 95 93
0.23047391 -0.06992634 0.78098576 120 101 98
0.23018323 -0.05066287 0.78400963 116 99 96
0.23007812 -0.04067667 0.80315537 136 121 113
0.22966429 -0.03735795 0.81284381 140 125 120
0.23011937 -0.02751519 0.83137422 141 127 123
0.23009960 -0.01855661 0.83865102 29 25 33
0.22998811 -0.00852215 0.84870656 121 121 125
0.23004967 0.00248395 0.85825424 139 139 140
0.23001836 0.01230738 0.86454122 143 143 145
0.22993189 0.02970887 0.87293179 146 146 149
0.23027592 0.04514462 0.87845733 150 150 153
0.22961485 0.05514114 0.88130368 140 141 145
0.23011350 0.06992220 0.88480893 138 140 148
0.23002610 0.09017744 0.88877863 124 128 138
0.22990151 0.11054141 0.89196531 128 130 140
0.22994798 0.13017263 0.89445033 148 151 158
0.23041926 0.14978437 0.89649902 158 159 163
0.22961289 0.17049542 0.89830861 161 162 166
0.22970021 0.18688160 0.89953448 150 152 156
0.22986489 0.19635012 0.90017936 159 163 165
0.23007538 0.20976911 0.90100369 151 153 158
0.23036920 0.23030770 0.90215443 164 167 168
0.23024539 0.24988321 0.90313705 163 167 171
0.23005757 0.26983868 0.90399350 136 137 140
0.22947283 0.29039944 0.90476829 118 123 128
0.22964468 0.31017900 0.90544591 127 132 136
0.22979744 0.32996075 0.90604828 140 145 148
0.22992602 0.34973142 0.90655530 146 148 150
0.23002763 0.36948086 0.90695592 109 110 112
0.23009600 0.38997528 0.90722545 0 0 0
0.23014788 0.41045266 0.90743000 0 0 0
0.23020144 0.43015789 0.90764114 0 0 0
0.23025080 0.44986415 0.90783573 0 0 0
0.23030221 0.47036769 0.90803838 0 0 0
0.23035294 0.49009398 0.90823839 0 0 0
0.23040292 0.50825708 0.90843545 0 0 0
0.24968324 -0.60175378 0.89315274 0 0 0
0.24960578 -0.58999356 0.89287569 0 0 0
0.24945199 -0.56958029 0.89232559 0 0 0
0.24988571 -0.54989043 0.89159310 0 0 0
0.25048450 -0.52994558 0.89051374 0 0 0
0.25661923 -0.50260971 0.87816621 94 86 77
0.24932978 -0.51288398 0.88892642 7 6 6
0.25007539 -0.48361260 0.84732508 98 90 79
0.25083669 -0.49698504 0.87054300 96 89 80
0.25010273 -0.46556738 0.83884670 99 90 79
0.25009476 -0.47526499 0.84103877 100 91 80
0.25019779 -0.44969892 0.83593214 99 89 78
0.24999284 -0.43017988 0.83290123 96 84 74
0.25002402 -0.41077275 0.82862871 66 54 49
0.25050177 -0.38459582 0.81813593 55 43 40
0.24974200 -0.39446319 0.82259252 57 45 40
0.24990553 -0.37059705 0.81121005 54 41 40
0.25002322 -0.34517323 0.79630327 47 35 36
0.24997756 -0.35570151 0.80289083 51 38 38
0.24999049 -0.32912787 0.78584143 39 30 30
0.24959282 -0.30980197 0.78167583 41 32 33
0.24982766 -0.28980517 0.78240952 46 37 37
0.25002911 -0.26973853 0.78303882 51 42 41
0.25013720 -0.24954456 0.78337804 59 49 47
0.25022912 -0.22999765 0.78366674 72 61 57
0.25010212 -0.21025231 0.78326905 82 68 66
0.24982513 -0.18973412 0.78240043 85 72 69
0.24972906 -0.17005823 0.78209934 90 76 72
0.24978407 -0.15049066 0.78227342 96 81 75
0.24981350 -0.13022504 0.78236707 101 86 81
0.24974666 -0.10991344 0.78215861 105 90 85
0.25936994 -0.08173876 0.77992590 108 91 88
0.24952616 -0.08988574 0.78125705 109 92 89
0.25573422 -0.06914517 0.77963192 112 95 92
0.24650033 -0.07097713 0.78033321 115 98 95
0.25322944 -0.05482873 0.77976021 117 98 96
0.24843608 -0.04814037 0.78577028 113 95 92
0.25027976 -0.04068882 0.80339522 137 119 114
0.25003662 -0.03764420 0.81277490 140 124 118
0.24992472 -0.02775196 0.83227596 138 125 119
0.24921020 -0.01862821 0.83936186 33 30 37
0.25016033 -0.00863258 0.84907717 118 119 124
0.25013189 0.00255805 0.85853041 140 140 142
0.25002363 0.01221393 0.86467290 139 139 142
0.24999172 0.02972268 0.87307695 148 149 152
0.24982996 0.04488805 0.87850852 152 152 155
0.25008048 0.05481746 0.88134317 144 145 148
0.25008117 0.06990226 0.88489919 146 147 153
0.25001527 0.09018418 0.88884547 122 125 136
0.24989904 0.11056698 0.89202332 120 126 135
0.25005839 0.13017919 0.89449550 138 141 148
0.25028048 0.14971408 0.89653386 165 167 170
0.24957793 0.17033034 0.89833106 168 170 174
0.24992090 0.18688805 0.89956557 149 152 158
0.25009826 0.19635550 0.90020401 153 154 158
0.25032868 0.20977602 0.90103337 160 163 166
0.25023693 0.23010665 0.90215871 155 158 161
0.24973192 0.25026318 0.90315633 162 164 166
0.24958999 0.26984025 0.90399873 141 143 145
0.24980423 0.29040147 0.90477465 139 141 141
0.24998931 0.31017872 0.90544507 140 142 142
0.25015501 0.32995961 0.90604523 152 159 161
0.25029315 0.34972766 0.90654555 131 136 137
0.25040395 0.36947717 0.90694686 124 127 131
0.25047898 0.38997233 0.90721860 0 0 0
0.25053629 0.41045094 0.90742618 0 0 0
0.25008636 0.42998748 0.90763941 0 0 0
0.24986606 0.44986640 0.90784025 0 0 0
0.24992311 0.47037243 0.90804750 0 0 0
0.24997897 0.49010049 0.90825044 0 0 0
0.25003302 0.50826344 0.90844682 0 0 0
0.26979930 -0.60185953 0.89330970 0 0 0
0.26971660 -0.59009938 0.89303586 0 0 0
0.26954879 -0.56967908 0.89248030 0 0 0
0.26956454 -0.54999880 0.89170464 0 0 0
0.27051687 -0.52999077 0.89058952 0 0 0
0.27434942 -0.50388672 0.87336084 97 93 84
0.26929365 -0.51498037 0.88879505 10 10 9
0.27071693 -0.48394297 0.84328535 100 91 80
0.26550536 -0.49785219 0.86593489 94 91 83
0.27016027 -0.46625945 0.83870271 102 90 81
0.26965304 -0.47607116 0.84079692 101 91 80
0.27015170 -0.44972284 0.83594740 100 90 79
0.26992209 -0.43038128 0.83314849 93 84 73
0.27008952 -0.41079591 0.82867319 63 50 46
0.26991746 -0.38496659 0.81789470 54 43 39
0.26996803 -0.39492764 0.82248634 55 44 40
0.26999555 -0.37022249 0.81046437 50 39 38
0.26997353 -0.34611847 0.79613219 45 34 35
0.26966997 -0.35601146 0.80240475 47 36 36
0.27020210 -0.32928574 0.78531693 38 29 30
0.26977163 -0.30969945 0.78141907 40 31 32
0.27013397 -0.28982665 0.78246853 44 35 36
0.27039094 -0.26979839 0.78321323 49 40 40
0.27008124 -0.24977087 0.78359295 55 46 45
0.26992638 -0.23004513 0.78382868 70 58 55
0.27023290 -0.21012815 0.78337923 77 64 62
0.27019603 -0.18979375 0.78264825 82 70 67
0.27009972 -0.17011753 0.78237023 85 73 69
0.27001966 -0.15046652 0.78214135 89 75 72
0.26983245 -0.13009949 0.78160431 95 79 77
0.27800294 -0.10513228 0.77957026 93 80 78
0.26862607 -0.11040189 0.78102369 99 84 81
0.27280395 -0.08831157 0.77920786 100 86 83
0.26466328 -0.09377810 0.78046085 103 87 85
0.27011848 -0.07037987 0.77853655 105 89 88
0.27046515 -0.05438548 0.77900339 107 92 89
0.26977896 -0.04483818 0.78849111 108 91 90
0.27032122 -0.04067485 0.80311928 133 118 110
0.26976899 -0.03765286 0.81297238 139 122 117
0.26965405 -0.02900438 0.83194052 150 136 131
0.27219454 -0.02164258 0.84026562 74 60 61
0.27029908 -0.01930585 0.83969946 30 24 33
0.27002859 -0.00921326 0.84888116 114 115 120
0.26998652 0.00248425 0.85867254 137 137 141
0.27002115 0.01224448 0.86483756 134 135 140
0.27011133 0.02979779 0.87323342 144 146 149
0.26986931 0.04433516 0.87845999 149 149 152
0.26998928 0.05438196 0.88133179 148 149 152
0.27005171 0.06994628 0.88500147 142 144 150
0.27000679 0.09019071 0.88891025 135 137 146
0.26983914 0.11058272 0.89207649 121 125 134
0.27016876 0.13018474 0.89453379 129 133 142
0.27001174 0.14985345 0.89658075 161 163 167
0.26977163 0.17033584 0.89836007 156 157 162
0.27014177 0.18689368 0.89959270 170 172 174
0.27033369 0.19636156 0.90023180 175 176 178
0.27035229 0.20960958 0.90104848 165 167 170
0.26970934 0.23051995 0.90219908 159 161 165
0.26964771 0.25007289 0.90314574 131 134 141
0.26990457 0.26984251 0.90400617 148 153 155
0.27013970 0.29040758 0.90479362 150 154 156
0.27033698 0.31018184 0.90545437 139 144 145
0.27051209 0.32995809 0.90604102 153 157 158
0.26987924 0.34972760 0.90654539 134 140 143
0.26999868 0.36947704 0.90694655 133 135 137
0.27007999 0.38997280 0.90721969 0 0 0
0.27014223 0.41045211 0.90742876 0 0 0
0.26967078 0.43032627 0.90764797 0 0 0
0.26948280 0.44987080 0.90784910 0 0 0
0.26954553 0.47037912 0.90806040 0 0 0
0.26960627 0.49010835 0.90826502 0 0 0
0.26966423 0.50827097 0.90846027 0 0 0
0.28993114 -0.60198329 0.89349339 0 0 0
0.28983920 -0.59021457 0.89321014 0 0 0
0.28965337 -0.56977951 0.89263756 0 0 0
0.28944644 -0.55004236 0.89181634 0 0 0
0.29049758 -0.52998088 0.89066506 0 0 0
0.28777836 -0.50586053 0.87142117 100 91 81
0.28746719 -0.51677572 0.88835635 23 21 19
0.29069826 -0.48637303 0.84378761 100 92 81
0.29013221 -0.46578545 0.83886453 99 90 80
0.28979306 -0.47567003 0.84071490 101 91 81
0.29004161 -0.45001483 0.83627834 101 90 82
0.28994090 -0.43047746 0.83342064 92 81 73
0.29010744 -0.41065170 0.82840557 60 48 44
0.29033113 -0.38520910 0.81730592 51 40 39
0.28945459 -0.39528796 0.82219250 54 43 39
0.28981705 -0.36981977 0.80923404 49 37 37
0.29040174 -0.34723405 0.79555246 45 34 34
0.28988109 -0.35702204 0.80177416 47 36 36
0.28996994 -0.32958725 0.78518747 39 30 30
0.28978568 -0.31004893 0.78266248 38 29 30
0.29004637 -0.29002958 0.78327469 41 32 33
0.29018898 -0.26994609 0.78377380 46 37 38
0.28984764 -0.24958558 0.78398710 51 42 42
0.28961532 -0.22991900 0.78372200 63 51 50
0.28954930 -0.21019492 0.78279198 69 56 54
0.29084721 -0.18240673 0.77998757 66 55 52
0.28947467 -0.18985601 0.78181256 72 60 58
0.28954557 -0.17004490 0.78158557 76 64 61
0.28935933 -0.15017120 0.78159005 81 68 65
0.28590958 -0.12546553 0.77964244 82 71 69
0.29029053 -0.13143544 0.78163455 86 74 72
0.28535700 -0.10974810 0.77893670 87 73 72
0.29506378 -0.11059229 0.78236493 93 82 82
0.28527219 -0.09032432 0.77783391 90 76 76
0.29596115 -0.08970561 0.78280583 100 88 87
0.28454477 -0.07103228 0.77789999 92 79 79
0.29472248 -0.06923031 0.78353940 103 91 90
0.28319914 -0.05517664 0.77886742 95 79 80
0.29114904 -0.04893605 0.78752060 102 90 89
0.29034331 -0.04066003 0.80282677 129 111 108
0.29005009 -0.03769562 0.81313113 136 119 114
0.29007339 -0.02989840 0.83163341 150 136 130
0.28992309 -0.02223030 0.84052718 90 78 78
0.28991188 -0.00991104 0.84846724 108 108 115
0.29005729 0.00255804 0.85884814 141 141 143
0.29000926 0.01234211 0.86498875 130 131 137
0.29005601 0.02973893 0.87330699 143 143 148
0.28976863 0.04429119 0.87854035 144 144 145
0.29003780 0.05440420 0.88142361 146 145 148
0.29002161 0.06991575 0.88507094 143 144 150
0.29000008 0.09019690 0.88897147 129 132 140
0.28983980 0.11056023 0.89211751 123 126 134
0.29027995 0.13018989 0.89456922 142 144 149
0.28980564 0.14994372 0.89661853 163 164 168
0.28996638 0.17034119 0.89838826 161 163 167
0.29007802 0.18667781 0.89960169 154 156 162
0.29106346 0.19608515 0.90023818 170 171 172
0.28986869 0.20990373 0.90108324 157 159 160
0.28963725 0.23031928 0.90219998 157 159 162
0.28994958 0.25008041 0.90317278 163 167 169
0.29022065 0.26984576 0.90401720 148 151 154
0.29047245 0.29041017 0.90480160 149 152 156
0.28997333 0.31012644 0.90546594 155 159 159
0.29008800 0.32995886 0.90604312 149 150 150
0.28946691 0.34972945 0.90655018 142 146 148
0.28959660 0.36948104 0.90695631 113 121 125
0.28968321 0.38997617 0.90722756 0 0 0
0.28975039 0.41045626 0.90743794 0 0 0
0.28982024 0.43016527 0.90765669 0 0 0
0.28988560 0.44987688 0.90786137 0 0 0
0.28995399 0.47038698 0.90807557 0 0 0
0.29001997 0.49011762 0.90828220 0 0 0
0.29008204 0.50828009 0.90847657 0 0 0
0.31007410 -0.60211271 0.89368548 0 0 0
0.30997345 -0.59033703 0.89339544 0 0 0
0.30976611 -0.56988197 0.89279799 0 0 0
0.30946461 -0.55005733 0.89192917 0 0 0
0.31008431 -0.53101147 0.89078708 2 1 1
0.31302781 -0.50110315 0.85132578 99 93 80
0.31031611 -0.50985710 0.86938740 100 93 80
0.30387805 -0.51625572 0.88319190 76 73 61
0.31056463 -0.48859807 0.84362118 100 93 79
0.30990948 -0.46607797 0.83909143 100 91 80
0.30980400 -0.47564401 0.84070780 103 92 79
0.30990950 -0.45021614 0.83650282 99 90 77
0.31008676 -0.43047998 0.83351693 90 78 70
0.31007521 -0.41026781 0.82770450 56 44 42
0.31002718 -0.38618393 0.81681945 52 40 39
0.30932367 -0.39606092 0.82178716 53 42 40
0.31015876 -0.37002965 0.80804998 49 37 36
0.31001526 -0.34819551 0.79538036 41 32 32
0.30875625 -0.35833507 0.80127913 45 35 34
0.30965675 -0.32987588 0.79014903 39 30 31
0.30953042 -0.30995821 0.78988555 42 33 34
0.30980416 -0.29004551 0.79058332 47 38 39
0.31005479 -0.27004815 0.79115811 53 44 44
0.31017227 -0.25005071 0.79141625 60 50 49
0.31006712 -0.23008498 0.79116687 68 57 54
0.30975398 -0.20999698 0.79041041 74 64 61
0.30964228 -0.18994455 0.78996987 83 70 69
0.30967469 -0.16997036 0.79024776 89 78 75
0.30990829 -0.14996300 0.79082220 94 84 82
0.31009947 -0.12995804 0.79124276 100 90 87
0.31022661 -0.11004714 0.79154306 107 93 93
0.31000870 -0.09028579 0.79210779 110 96 95
0.30917366 -0.07016296 0.79314713 113 99 97
0.31923688 -0.06544336 0.80046705 115 103 101
0.30772339 -0.05123595 0.79498540 111 97 96
0.31488087 -0.04616863 0.80220064 115 100 98
0.31005173 -0.03763879 0.81268159 129 113 107
0.31027506 -0.02977399 0.83188685 150 137 129
0.30929946 -0.02215386 0.84038139 69 62 64
0.30992951 -0.01001518 0.84854547 106 107 113
0.30925430 0.00204211 0.85862641 122 124 131
0.31021690 0.01166588 0.86470834 135 136 140
0.30994149 0.02970634 0.87337665 143 144 146
0.30991653 0.04430549 0.87862528 145 146 148
0.31019328 0.05447539 0.88151735 146 146 149
0.30998964 0.06996652 0.88514373 141 143 149
0.30999275 0.09020212 0.88902304 124 129 137
0.30983962 0.11060282 0.89216506 134 137 143
0.31032990 0.13013893 0.89459634 133 137 145
0.30966323 0.14996668 0.89664832 161 164 168
0.31016054 0.17034551 0.89841109 162 164 167
0.31046099 0.18606190 0.89958174 170 173 174
0.31000678 0.19558097 0.90021922 148 150 152
0.30958541 0.20984606 0.90109554 157 160 163
0.30991459 0.23032331 0.90221566 160 162 164
0.31024459 0.25008140 0.90317647 158 160 161
0.31036479 0.26970534 0.90401975 150 153 155
0.31002597 0.29041486 0.90481636 159 161 162
0.30952685 0.31024157 0.90546661 139 142 142
0.30966639 0.32996213 0.90605210 142 146 149
0.30983973 0.34973299 0.90655933 136 140 142
0.30998015 0.36948669 0.90697016 140 142 140
0.31007367 0.38998312 0.90724376 1 1 1
0.31014556 0.41046357 0.90745410 0 0 0
0.31022005 0.43017256 0.90767208 0 0 0
0.31028992 0.44988438 0.90787651 0 0 0
0.31036360 0.47039554 0.90809208 0 0 0
0.31043453 0.49012703 0.90829963 0 0 0
0.31050080 0.50828956 0.90849351 0 0 0
0.33022821 -0.60224675 0.89388443 0 0 0
0.33011425 -0.59045642 0.89357608 0 0 0
0.32988366 -0.56998039 0.89295209 0 0 0
0.32955907 -0.55014625 0.89207335 0 0 0
0.32937134 -0.53318666 0.89076084 4 4 3
0.33368751 -0.50248075 0.84757573 100 92 79
0.33048543 -0.51532673 0.87023764 97 91 76
0.33005353 -0.48984465 0.84390206 100 93 79
0.32957858 -0.46538488 0.83912783 101 91 82
0.33024642 -0.47494237 0.84082570 102 91 81
0.32995623 -0.44979976 0.83611317 100 90 78
0.33011294 -0.43004579 0.83283990 85 74 67
0.32980653 -0.41007292 0.82674231 51 42 40
0.33002916 -0.38713789 0.81663451 51 39 38
0.33059804 -0.39681712 0.82132857 52 42 39
0.32990342 -0.37038533 0.80790445 44 35 35
0.32316014 -0.34776493 0.79819277 40 32 33
0.33218764 -0.35065355 0.80315408 45 36 37
0.32370932 -0.32999776 0.79784155 45 35 36
0.33369366 -0.32988145 0.80369392 52 42 42
0.32310961 -0.31047266 0.79768076 50 41 41
0.33312417 -0.30977790 0.80364285 59 49 47
0.32271590 -0.29065922 0.79811752 56 46 46
0.33266385 -0.28979581 0.80394688 65 55 54
0.32261740 -0.26998563 0.79847829 63 53 51
0.33255240 -0.27007736 0.80420565 74 65 62
0.32265625 -0.25007457 0.79873158 70 60 58
0.33272188 -0.25004948 0.80461540 84 76 73
0.32272854 -0.23004289 0.79875319 80 70 66
0.33276348 -0.23003973 0.80481740 93 84 80
0.32253875 -0.20996340 0.79844031 86 77 76
0.33291214 -0.20999205 0.80501534 99 90 86
0.32261667 -0.18993931 0.79847589 98 86 82
0.33289359 -0.18992816 0.80507221 104 94 90
0.32225806 -0.17093828 0.79840708 101 91 88
0.33250891 -0.16977018 0.80502594 108 96 94
0.32190864 -0.15016344 0.79851331 105 93 90
0.33223705 -0.15001173 0.80511545 109 97 93
0.32203475 -0.13141486 0.79908979 110 97 93
0.33194670 -0.12991791 0.80535440 113 99 95
0.32152561 -0.11024378 0.79927792 113 99 96
0.33079346 -0.10999530 0.80524961 114 101 97
0.32066755 -0.09176503 0.79954925 117 102 98
0.33067450 -0.08967306 0.80626952 118 102 98
0.33000683 -0.07006122 0.80721744 119 103 99
0.33000469 -0.04990786 0.80966640 121 104 102
0.32955116 -0.03766975 0.81542021 123 103 104
0.33033847 -0.02828471 0.83310188 135 123 119
0.32409154 -0.02129543 0.84011309 33 30 33
0.33006113 -0.00996792 0.84876831 106 106 111
0.33021305 0.00180611 0.85872654 112 115 124
0.33000475 0.01155203 0.86479993 121 123 130
0.32994901 0.02969171 0.87346303 139 140 144
0.33006533 0.04435777 0.87871827 148 148 150
0.33024943 0.05439662 0.88156896 139 140 143
0.32996072 0.06992571 0.88519735 143 144 149
0.32998631 0.09020695 0.88907083 123 128 136
0.32983984 0.11056950 0.89219269 121 125 133
0.33024874 0.13011704 0.89462097 136 140 145
0.32970280 0.14986632 0.89665823 166 169 170
0.33035460 0.17034926 0.89843085 149 152 158
0.33000872 0.18611853 0.89960475 162 164 166
0.32946371 0.19558539 0.90023960 155 158 162
0.32978374 0.20979478 0.90111410 161 164 167
0.33019412 0.23032836 0.90223543 160 163 166
0.33035394 0.24994298 0.90317420 141 143 147
0.32988448 0.27000244 0.90404800 164 168 169
0.32957604 0.29041599 0.90481993 153 154 154
0.32981751 0.31019161 0.90548284 148 150 150
0.33003228 0.32996955 0.90607248 162 165 165
0.33021620 0.34973995 0.90657738 148 153 154
0.33036669 0.36949500 0.90699051 143 147 147
0.33046834 0.38999420 0.90726955 8 8 8
0.33054402 0.41047408 0.90747734 0 0 0
0.32983729 0.43018138 0.90769069 0 0 0
0.32991081 0.44989257 0.90789303 0 0 0
0.32998919 0.47040417 0.90810874 0 0 0
0.33006446 0.49013580 0.90831588 0 0 0
0.33013498 0.50829875 0.90850993 0 0 0
0.35136157 -0.60186691 0.89405042 0 0 0
0.35004567 -0.59014637 0.89371298 0 0 0
0.34999588 -0.57005878 0.89307490 0 0 0
0.34966525 -0.55024344 0.89223098 0 0 0
0.35420885 -0.52255771 0.87303216 98 91 73
0.34857938 -0.53517278 0.89047437 12 11 9
0.35115611 -0.50411987 0.84680225 101 93 77
0.34986544 -0.51762589 0.86604859 102 92 75
0.34997937 -0.48954657 0.84344236 101 93 79
0.35077067 -0.46623366 0.83878851 100 91 80
0.34887317 -0.47570938 0.84070031 102 92 80
0.34991553 -0.45002799 0.83536294 102 90 81
0.35010645 -0.43012724 0.83173043 79 69 65
0.35003189 -0.41014816 0.82581947 53 43 43
0.34951830 -0.38730601 0.81759339 47 37 37
0.35120049 -0.39699065 0.82127314 50 39 39
0.34984613 -0.36993242 0.81380827 52 43 43
0.34944605 -0.35000438 0.81284806 62 54 52
0.34950306 -0.33001347 0.81287601 74 66 63
0.34963679 -0.30996237 0.81320881 85 76 72
0.34978042 -0.29000612 0.81364895 92 85 80
0.34986777 -0.26999407 0.81383215 100 91 88
0.35000235 -0.24994689 0.81414631 104 95 91
0.35011787 -0.22994766 0.81443739 106 98 93
0.35031574 -0.21003919 0.81470884 109 98 95
0.35042436 -0.19001231 0.81500369 111 100 97
0.34994298 -0.17015506 0.81507900 113 100 98
0.35971489 -0.16629362 0.82020529 116 105 102
0.34987462 -0.14994667 0.81536434 114 101 96
0.35989821 -0.15006667 0.82062328 118 105 100
0.34906708 -0.12996748 0.81531922 116 103 99
0.35848645 -0.12898765 0.82036780 118 105 100
0.34799556 -0.11020412 0.81536128 116 104 99
0.35808127 -0.10871990 0.82079279 119 106 102
0.34728928 -0.09040804 0.81612197 120 103 100
0.35732034 -0.08914686 0.82156996 121 106 102
