ply
format ascii 1.0
element vertex 1055
property float x
property float y
property float z
property uchar red
property uchar green
property uchar blue
end_header
-0.41124541 0.22467890 1.09514034 123 131 140
-0.40803418 0.22395530 1.09161329 121 129 137
-0.40549445 0.22359525 1.08985829 119 128 135
-0.40296286 0.22323634 1.08810890 122 130 138
-0.40043938 0.22287859 1.08636510 121 129 137
-0.40048712 0.22395530 1.09161329 119 127 135
-0.39924327 0.22431652 1.09337389 117 125 133
-0.39607579 0.22359525 1.08985829 113 118 125
-0.18006919 0.18227555 0.88845587 146 150 154
-0.17737123 0.18108885 0.88267165 148 152 155
-0.09673247 0.10048861 0.48980623 157 160 163
-0.09581666 0.10041606 0.48945260 165 169 171
-0.09490215 0.10034361 0.48909944 165 167 170
-0.09392126 0.10019902 0.48839471 161 166 167
-0.09314422 0.10027126 0.48874682 155 161 161
-0.09236605 0.10034361 0.48909944 148 151 156
-0.09138881 0.10019902 0.48839471 141 146 152
-0.09054466 0.10019902 0.48839471 133 138 145
-0.08963592 0.10012688 0.48804307 135 140 147
-0.08866471 0.09998292 0.48734137 133 138 145
-0.08775929 0.09991109 0.48699126 128 133 140
-0.08716805 0.10019902 0.48839471 119 124 131
-0.08626175 0.10012688 0.48804307 112 116 128
-0.08511183 0.09976775 0.48629257 108 112 126
-0.08427131 0.09976775 0.48629257 108 112 126
-0.08349069 0.09983937 0.48664168 108 115 124
-0.08300710 0.10027126 0.48874682 108 115 123
-0.08234044 0.10048861 0.48980623 109 116 123
-0.08149385 0.10048861 0.48980623 110 118 130
0.24761760 0.19369949 0.94413906 142 142 146
0.24650292 0.19156507 0.93373531 135 134 138
0.24709575 0.19077674 0.92989278 124 123 132
0.24836230 0.19051540 0.92861897 124 124 135
0.24894428 0.18973567 0.92481834 121 123 137
0.24952152 0.18896228 0.92104870 136 138 150
0.24941906 0.18768723 0.91483378 149 152 163
0.25574392 0.18768723 0.91483378 159 161 167
0.25767288 0.18794087 0.91607004 159 162 168
0.25960705 0.18819518 0.91730964 161 164 170
0.26190135 0.18870589 0.91979897 159 163 169
0.26349115 0.18870589 0.91979897 168 173 177
0.27119011 0.18743429 0.91360086 174 177 178
0.27058122 0.18593080 0.90627253 178 178 179
0.41561764 0.10114636 0.49301225 155 156 158
0.41646978 0.10114636 0.49301225 158 159 161
0.41762564 0.10121997 0.49337107 158 159 161
0.41817406 0.10114636 0.49301225 159 160 161
0.41933116 0.10121997 0.49337107 158 159 160
0.42018390 0.10121997 0.49337107 155 156 157
0.41981450 0.10092615 0.49193892 150 151 151
0.53259397 0.11979005 0.58388615 129 133 134
0.53700918 0.12010038 0.58539885 139 145 145
0.53848600 0.12020419 0.58590478 143 149 148
0.85599226 0.15216219 0.74167597 154 160 158
0.85260999 0.15133432 0.73764074 159 165 163
0.86327863 0.15299916 0.74575561 162 168 166
0.86456764 0.15299916 0.74575561 164 168 167
0.86585659 0.15299916 0.74575561 164 168 167
0.86714560 0.15299916 0.74575561 163 167 166
0.86748022 0.15283103 0.74493611 159 161 161
0.86781412 0.15266328 0.74411839 155 156 156
0.86910027 0.15266328 0.74411839 150 151 151
0.87038642 0.15266328 0.74411839 148 149 149
-0.47134250 0.19238397 0.92989278 98 98 98
-0.46845007 0.19185762 0.92734861 102 102 103
-0.45992631 0.18901338 0.91360086 93 93 96
-0.45588961 0.18799989 0.90870219 92 93 95
-0.45249927 0.18724689 0.90506256 104 105 107
-0.45153782 0.18749723 0.90627253 112 113 115
-0.45057377 0.18774822 0.90748572 115 116 118
-0.44900525 0.18774822 0.90748572 116 117 119
-0.61198944 0.26612508 1.28632224 103 113 119
-0.61092538 0.26663104 1.28876781 109 117 125
-0.60869783 0.26663104 1.28876781 125 133 141
-0.60417306 0.26562107 1.28388608 131 139 145
-0.60424280 0.26663104 1.28876781 135 142 147
-0.60201526 0.26663104 1.28876781 138 142 146
-0.60093015 0.26713890 1.29122257 129 132 137
-0.59756017 0.26663104 1.28876781 107 107 114
-0.59420300 0.26612508 1.28632224 106 108 115
-0.59423482 0.26713890 1.29122257 104 107 116
-0.59313285 0.26764870 1.29368675 103 108 117
-0.58977133 0.26713890 1.29122257 100 106 116
-0.58642477 0.26764870 1.29368675 90 97 110
-0.41380677 0.22693838 1.09691238 125 133 140
-0.41124541 0.22657177 1.09514034 127 135 141
-0.40869230 0.22620633 1.09337389 120 128 135
-0.40614742 0.22584206 1.09161329 120 128 134
-0.40296286 0.22511706 1.08810890 122 130 136
-0.40108216 0.22511706 1.08810890 122 130 136
-0.40113306 0.22620633 1.09337389 122 130 137
-0.39924327 0.22620633 1.09337389 121 129 135
-0.17806681 0.18333061 0.88613313 126 129 135
-0.09687246 0.10148185 0.49051508 140 142 149
-0.09595522 0.10140847 0.49016041 150 153 160
-0.09497067 0.10126204 0.48945260 153 156 161
-0.09249952 0.10133521 0.48980623 143 146 152
-0.09152067 0.10118898 0.48909944 137 142 149
-0.09074078 0.10126204 0.48945260 134 139 146
-0.08982994 0.10118898 0.48909944 133 138 145
-0.08892041 0.10111602 0.48874682 129 133 141
-0.08807565 0.10111602 0.48874682 122 125 133
-0.08741998 0.10133521 0.48980623 114 117 127
-0.08644847 0.10118898 0.48909944 107 110 122
-0.08541821 0.10097042 0.48804307 106 108 121
-0.08463560 0.10104317 0.48839471 105 108 121
-0.08379145 0.10104317 0.48839471 107 113 122
-0.08318703 0.10133521 0.48980623 115 122 129
-0.08245960 0.10148185 0.49051508 118 123 132
-0.08161178 0.10148185 0.49051508 120 124 136
0.24727321 0.19505970 0.94282591 130 130 137
0.24650292 0.19317895 0.93373531 125 124 133
0.24709575 0.19238397 0.92989278 122 121 132
0.24870299 0.19238397 0.92989278 117 117 129
0.24928437 0.19159552 0.92608178 112 114 129
0.24986102 0.19081350 0.92230183 122 125 139
0.25643605 0.18978068 0.91730964 144 147 157
0.25802156 0.18978068 0.91730964 146 149 158
0.25960705 0.18978068 0.91730964 153 156 163
0.26225719 0.19055425 0.92104870 157 160 168
0.26544112 0.19055425 0.92104870 163 168 173
0.26594904 0.18978068 0.91730964 165 168 174
0.26717299 0.18952422 0.91607004 169 173 178
0.27155608 0.18926845 0.91483378 168 170 175
0.27058122 0.18749723 0.90627253 171 172 174
0.41592014 0.10207272 0.49337107 149 152 153
0.41677290 0.10207272 0.49337107 146 150 151
0.41762564 0.10207272 0.49337107 143 147 148
0.41878319 0.10214707 0.49373040 143 148 148
0.41933116 0.10207272 0.49337107 142 147 148
0.41987830 0.10199849 0.49301225 141 146 147
0.41981450 0.10177643 0.49193892 138 143 143
0.53434622 0.12142678 0.58691937 136 136 138
0.53213561 0.12069529 0.58338368 138 138 140
0.53177100 0.12038448 0.58188140 138 138 140
0.53755677 0.12100770 0.58489376 143 145 147
0.85599226 0.15344411 0.74167597 157 163 161
0.85353881 0.15277551 0.73844427 166 172 170
0.86232996 0.15411860 0.74493611 168 174 172
0.86361754 0.15411860 0.74493611 169 174 172
0.86585659 0.15428814 0.74575561 169 173 171
0.86714560 0.15428814 0.74575561 169 173 170
0.86748022 0.15411860 0.74493611 166 168 167
0.86876780 0.15411860 0.74493611 160 161 161
0.86910027 0.15394942 0.74411839 154 155 155
0.87038642 0.15394942 0.74411839 149 150 150
0.87167257 0.15394942 0.74411839 143 144 144
-0.46781012 0.19319618 0.92608178 93 94 94
-0.45992631 0.19059245 0.91360086 94 95 97
-0.45588961 0.18957052 0.90870219 97 98 100
-0.45310423 0.18906364 0.90627253 112 113 115
-0.45214227 0.18931673 0.90748572 122 123 125
-0.45178336 0.18982497 0.90992194 124 125 126
-0.61198944 0.26834840 1.28632224 114 121 132
-0.61092538 0.26885855 1.28876781 121 127 136
-0.60869783 0.26885855 1.28876781 136 141 149
-0.60417306 0.26784015 1.28388608 142 151 153
-0.60539371 0.26937068 1.29122257 148 155 156
-0.60316193 0.26937068 1.29122257 159 163 163
-0.60093015 0.26937068 1.29122257 151 156 155
-0.59756017 0.26885855 1.28876781 127 136 135
-0.59420300 0.26834840 1.28632224 114 121 124
-0.59423482 0.26937068 1.29122257 111 117 122
-0.59313285 0.26988474 1.29368675 106 115 122
-0.58977133 0.26937068 1.29122257 99 110 118
-0.58753955 0.26937068 1.29122257 95 105 114
-0.58642477 0.26988474 1.29368675 92 101 111
-0.41257846 0.22920519 1.09869015 112 120 126
-0.41067946 0.22920519 1.09869015 110 118 124
-0.40811899 0.22883432 1.09691238 113 121 129
-0.40491268 0.22809613 1.09337389 112 120 128
-0.40302286 0.22809613 1.09337389 110 118 126
-0.18160482 0.18534680 0.88845587 117 125 133
-0.17983350 0.18510419 0.88729298 126 132 140
-0.17668107 0.18342361 0.87923717 128 135 143
-0.09595522 0.10225568 0.49016041 148 156 162
-0.09256641 0.10225568 0.49016041 140 145 152
-0.09165293 0.10218179 0.48980623 133 139 145
-0.09087200 0.10225568 0.49016041 126 133 138
-0.09002480 0.10225568 0.49016041 121 128 134
-0.08911316 0.10218179 0.48980623 118 126 133
-0.08826657 0.10218179 0.48980623 116 124 132
-0.08748319 0.10225568 0.49016041 109 112 122
-0.08657339 0.10218179 0.48980623 106 109 120
-0.08566491 0.10210802 0.48945260 107 109 120
-0.08481892 0.10210802 0.48945260 107 110 120
-0.08403362 0.10218179 0.48980623 113 117 125
-0.08342815 0.10247798 0.49122596 123 129 136
-0.08251931 0.10240377 0.49087027 124 132 140
-0.08161178 0.10232967 0.49051508 132 138 146
0.24727321 0.19668929 0.94282591 135 137 146
0.24650292 0.19479284 0.93373531 128 128 137
0.24709575 0.19399123 0.92989278 125 127 135
0.24870299 0.19399123 0.92989278 128 131 139
0.24928437 0.19319618 0.92608178 120 125 132
0.25020143 0.19266976 0.92355835 106 111 120
0.25077274 0.19188549 0.91979897 113 118 127
0.25395235 0.19188549 0.91979897 105 108 120
0.25519589 0.19162548 0.91855264 111 114 124
0.25748131 0.19214620 0.92104870 126 129 139
0.25837117 0.19162548 0.91855264 136 140 149
0.26031154 0.19188549 0.91979897 147 152 159
0.26261401 0.19240762 0.92230183 157 162 169
0.26456809 0.19266976 0.92355835 164 169 175
0.26580226 0.19240762 0.92230183 165 170 176
0.26630941 0.19162548 0.91855264 169 172 178
0.26803192 0.19059245 0.91360086 168 171 176
0.27192307 0.19110757 0.91607004 170 172 178
0.27094343 0.18931673 0.90748572 172 173 177
0.41501400 0.10270124 0.49229619 144 146 147
0.41556311 0.10262671 0.49193892 142 146 147
0.41671580 0.10270124 0.49229619 147 151 152
0.41756669 0.10270124 0.49229619 143 148 149
0.41841757 0.10270124 0.49229619 140 146 146
0.41896421 0.10262671 0.49193892 139 145 145
0.41920605 0.10247798 0.49122596 135 141 141
0.53296191 0.12212401 0.58539885 140 140 142
0.53167802 0.12159897 0.58288205 142 143 145
0.52995145 0.12097485 0.57989037 143 144 146
0.52914315 0.12056232 0.57791293 144 145 147
0.53378248 0.12139022 0.58188140 146 147 149
0.53663075 0.12180845 0.58388615 150 151 153
0.53671539 0.12159897 0.58288205 148 152 152
0.85505676 0.15455694 0.74086541 164 169 168
0.85260999 0.15388423 0.73764074 166 170 169
0.86138338 0.15523557 0.74411839 166 171 170
0.86266953 0.15523557 0.74411839 166 169 168
0.86585659 0.15557712 0.74575561 163 165 163
0.86619264 0.15540616 0.74493611 166 167 165
0.86652797 0.15523557 0.74411839 165 166 164
0.86686260 0.15506536 0.74330246 159 160 159
0.86814731 0.15506536 0.74330246 155 156 154
0.86943209 0.15506536 0.74330246 150 151 149
0.87071681 0.15506536 0.74330246 146 147 145
0.88745654 0.15574846 0.74657691 159 168 160
-0.45310423 0.19063006 0.90627253 101 101 103
-0.45274836 0.19114113 0.90870219 115 115 116
-0.45178336 0.19139770 0.90992194 119 119 120
-0.61315292 0.27108610 1.28876781 126 130 140
-0.61092538 0.27108610 1.28876781 130 133 139
-0.60985726 0.27160245 1.29122257 139 142 148
-0.60531950 0.27057171 1.28632224 150 154 155
-0.60539371 0.27160245 1.29122257 151 155 156
-0.60316193 0.27160245 1.29122257 156 161 160
-0.60207701 0.27212077 1.29368675 158 164 162
-0.59869838 0.27160245 1.29122257 149 158 156
-0.59533268 0.27108610 1.28876781 134 143 142
-0.59423482 0.27160245 1.29122257 121 130 129
-0.59313285 0.27212077 1.29368675 111 122 126
-0.58977133 0.27160245 1.29122257 105 116 121
-0.58753955 0.27160245 1.29122257 99 109 117
-0.58642477 0.27212077 1.29368675 94 104 112
-0.41257846 0.23110420 1.09869015 103 112 117
-0.40491268 0.22998594 1.09337389 97 104 113
-0.40172699 0.22924644 1.08985829 98 105 115
-0.19235417 0.18688242 0.88845587 134 139 142
-0.19056879 0.18663780 0.88729298 132 141 140
-0.18756218 0.18518348 0.88037902 123 136 138
-0.18531850 0.18446480 0.87696230 115 130 132
-0.18356526 0.18422647 0.87582928 115 128 136
-0.18228698 0.18446480 0.87696230 126 135 144
-0.18053767 0.18422647 0.87582928 131 139 148
-0.17948766 0.18470374 0.87809825 133 141 148
-0.17773971 0.18446480 0.87696230 136 143 149
-0.17554267 0.18375166 0.87357193 135 140 147
-0.17358539 0.18327929 0.87132627 134 142 148
-0.09341361 0.10310288 0.49016041 141 145 149
-0.09256641 0.10310288 0.49016041 138 143 148
-0.09165293 0.10302839 0.48980623 135 140 145
-0.09093776 0.10317749 0.49051508 130 135 140
-0.09008994 0.10317749 0.49051508 117 127 134
-0.08917759 0.10310288 0.49016041 114 121 129
-0.08833040 0.10310288 0.49016041 110 116 125
-0.08754649 0.10317749 0.49051508 105 105 119
-0.08663599 0.10310288 0.49016041 103 103 116
-0.08572680 0.10302839 0.48980623 103 103 116
-0.08488021 0.10302839 0.48980623 108 111 121
-0.08409438 0.10310288 0.49016041 105 110 118
-0.08336774 0.10325219 0.49087027 115 121 128
-0.08251931 0.10325219 0.49087027 124 132 138
-0.08161178 0.10317749 0.49051508 133 140 147
0.07931466 0.36099058 1.71618187 158 157 164
0.08186643 0.35917202 1.70753610 161 160 166
0.08589963 0.36375329 1.72931588 161 160 167
0.08911595 0.36468360 1.73373878 160 159 166
0.09141121 0.36190683 1.72053766 157 156 162
0.09367178 0.35917202 1.70753610 154 154 159
0.24761760 0.19859511 0.94413906 164 169 171
0.24684292 0.19667764 0.93502325 165 169 173
0.24709575 0.19559847 0.92989278 165 168 173
0.24870299 0.19559847 0.92989278 164 167 172
0.24962538 0.19506332 0.92734861 162 167 172
0.25054276 0.19453108 0.92481834 159 163 168
0.25145513 0.19400175 0.92230183 147 151 156
0.25339401 0.19426605 0.92355835 134 137 144
0.25464338 0.19400175 0.92230183 126 129 137
0.25588936 0.19373816 0.92104870 119 122 132
0.25818291 0.19426605 0.92355835 114 119 128
0.25907329 0.19373816 0.92104870 133 137 146
0.26066524 0.19373816 0.92104870 148 153 160
0.26297179 0.19426605 0.92355835 164 169 173
0.26492903 0.19453108 0.92481834 167 172 175
0.26616439 0.19426605 0.92355835 171 176 177
0.26703307 0.19373816 0.92104870 174 176 180
0.26753452 0.19295166 0.91730964 176 178 182
0.26803192 0.19217154 0.91360086 176 177 180
0.27217874 0.19400175 0.92230183 175 176 179
0.27229100 0.19295166 0.91730964 174 175 179
0.27130663 0.19114113 0.90870219 172 173 177
0.41411179 0.10332702 0.49122596 135 136 138
0.41466036 0.10325219 0.49087027 124 128 129
0.41580990 0.10332702 0.49122596 135 139 140
0.41665894 0.10332702 0.49122596 140 144 145
0.41781074 0.10340194 0.49158219 141 145 146
0.41835701 0.10332702 0.49122596 141 145 146
0.41920605 0.10332702 0.49122596 141 145 146
0.41395405 0.10141627 0.48214212 139 144 144
0.53158474 0.12281764 0.58388615 146 148 149
0.53076530 0.12239596 0.58188140 145 146 148
0.52859491 0.12166492 0.57840604 149 151 152
0.52869242 0.12145765 0.57742065 150 154 155
0.53014201 0.12156120 0.57791293 149 158 157
0.53524768 0.12250111 0.58238131 151 160 159
0.53533447 0.12229098 0.58138239 152 160 158
0.53450567 0.12187289 0.57939476 154 160 158
0.85599226 0.15600798 0.74167597 158 162 164
0.85353881 0.15532820 0.73844427 160 162 162
0.86043888 0.15635009 0.74330246 162 164 163
0.86172366 0.15635009 0.74330246 164 165 165
0.86490512 0.15669373 0.74493611 159 160 158
0.86524183 0.15652172 0.74411839 159 160 158
0.86557788 0.15635009 0.74330246 159 160 158
0.86591315 0.15617885 0.74248832 155 156 153
0.86624765 0.15600798 0.74167597 154 155 152
0.86847979 0.15617885 0.74248832 152 153 151
0.86976314 0.15617885 0.74248832 150 151 149
0.87391806 0.15669373 0.74493611 150 151 149
0.87520558 0.15669373 0.74493611 143 149 145
0.87553102 0.15652172 0.74411839 142 151 146
0.88648027 0.15686610 0.74575561 160 165 159
-0.45249927 0.19193988 0.90506256 95 94 96
-0.45117775 0.19271176 0.90870219 97 97 99
-0.61538041 0.27331361 1.28876781 121 124 131
-0.61198944 0.27279499 1.28632224 129 132 139
-0.61092538 0.27331361 1.28876781 132 135 141
-0.60985726 0.27383423 1.29122257 136 140 145
-0.60531950 0.27279499 1.28632224 138 142 141
-0.60424280 0.27331361 1.28876781 138 142 142
-0.60201526 0.27331361 1.28876781 139 147 144
-0.59978771 0.27331361 1.28876781 144 153 150
-0.59756017 0.27331361 1.28876781 145 154 152
-0.59533268 0.27331361 1.28876781 134 143 142
-0.59310514 0.27331361 1.28876781 126 135 134
-0.59087759 0.27331361 1.28876781 120 129 132
-0.58865005 0.27331361 1.28876781 112 121 125
-0.58530980 0.27279499 1.28632224 104 113 118
-0.58419502 0.27331361 1.28876781 95 104 110
-0.58307600 0.27383423 1.29122257 113 122 128
-0.40426064 0.23150235 1.09161329 93 98 106
-0.33471081 0.27699992 1.30614996 123 126 135
-0.33245322 0.27699992 1.30614996 136 140 147
-0.19185129 0.18792544 0.88613313 131 135 138
-0.18982342 0.18743542 0.88382250 135 140 139
-0.18683425 0.18598056 0.87696230 133 139 139
-0.18484025 0.18550061 0.87469918 132 138 138
-0.18309216 0.18526155 0.87357193 126 131 135
-0.18158226 0.18526155 0.87357193 134 139 142
-0.17984061 0.18502313 0.87244767 136 142 144
-0.17879286 0.18550061 0.87469918 142 150 155
-0.17705256 0.18526155 0.87357193 142 148 154
-0.17531674 0.18502313 0.87244767 139 144 149
-0.17358539 0.18478531 0.87132627 135 140 146
-0.09341361 0.10395008 0.49016041 141 141 148
-0.09249952 0.10387497 0.48980623 140 143 149
-0.09165293 0.10387497 0.48980623 134 141 145
-0.09093776 0.10402530 0.49051508 125 133 137
-0.09008994 0.10402530 0.49051508 116 124 131
-0.08917759 0.10395008 0.49016041 108 116 123
-0.08833040 0.10395008 0.49016041 92 99 108
-0.08754649 0.10402530 0.49051508 87 89 102
-0.08663599 0.10395008 0.49016041 81 83 98
-0.08572680 0.10387497 0.48980623 92 95 110
-0.08488021 0.10387497 0.48980623 99 103 118
-0.08403362 0.10387497 0.48980623 110 117 127
-0.08330742 0.10402530 0.49051508 111 119 126
-0.08245960 0.10402530 0.49051508 114 122 128
0.02820670 0.39604121 1.86747062 169 177 183
0.07131859 0.36862299 1.73818421 166 165 167
0.07394370 0.36674225 1.72931588 168 168 169
0.07712944 0.36768022 1.73373878 168 168 169
0.07951597 0.36488062 1.72053766 166 167 168
0.08228094 0.36395687 1.71618187 165 166 167
0.08634014 0.36862299 1.73818421 169 169 171
0.08934445 0.36862299 1.73818421 171 170 174
0.09164381 0.36580908 1.72491562 158 158 161
0.09367178 0.36212334 1.70753610 149 149 154
0.24650292 0.19802061 0.93373531 173 179 179
0.24709575 0.19720571 0.92989278 176 181 181
0.24870299 0.19720571 0.92989278 179 183 184
0.24962538 0.19666617 0.92734861 176 180 181
0.25054276 0.19612956 0.92481834 173 176 177
0.25145513 0.19559588 0.92230183 165 167 167
0.25373971 0.19612956 0.92481834 150 154 156
0.25464338 0.19559588 0.92230183 131 134 139
0.25554216 0.19506508 0.91979897 118 121 129
0.25783163 0.19559588 0.92230183 113 116 124
0.25872174 0.19506508 0.91979897 131 134 142
0.26066524 0.19533011 0.92104870 150 154 161
0.26333055 0.19612956 0.92481834 161 163 167
0.26492903 0.19612956 0.92481834 171 174 176
0.26616439 0.19586235 0.92355835 175 176 178
0.26703307 0.19533011 0.92104870 177 178 180
0.26717299 0.19427428 0.91607004 177 178 180
0.26767120 0.19348986 0.91237128 178 179 181
0.27180895 0.19533011 0.92104870 177 178 180
0.27229100 0.19453716 0.91730964 177 178 180
0.27130663 0.19271176 0.90870219 171 172 176
0.41381192 0.10410063 0.49087027 140 142 142
0.41436031 0.10402530 0.49051508 132 136 138
0.41520813 0.10402530 0.49051508 132 136 138
0.41635722 0.10410063 0.49087027 135 139 141
0.41720566 0.10410063 0.49087027 140 144 145
0.41805407 0.10410063 0.49087027 141 145 146
0.41859940 0.10402530 0.49051508 144 148 150
0.41853866 0.10379998 0.48945260 149 153 156
0.41518781 0.10276123 0.48455456 154 158 161
0.41483921 0.10246826 0.48317310 157 161 162
0.53112727 0.12372028 0.58338368 152 158 155
0.53031009 0.12329585 0.58138239 152 158 156
0.52814430 0.12256008 0.57791293 154 160 158
0.52824247 0.12235146 0.57692921 156 162 160
0.52923965 0.12235146 0.57692921 155 163 160
0.53250283 0.12287433 0.57939476 154 163 160
0.53350425 0.12287433 0.57939476 158 163 161
0.53313863 0.12256008 0.57791293 163 164 162
0.85599226 0.15728989 0.74167597 159 160 161
0.85353881 0.15660454 0.73844427 160 161 161
0.85949647 0.15746218 0.74248832 160 161 161
0.85983801 0.15728989 0.74167597 160 161 161
0.86300838 0.15763482 0.74330246 155 156 155
0.86334646 0.15746218 0.74248832 154 155 153
0.86368382 0.15728989 0.74167597 154 155 153
0.86496574 0.15728989 0.74167597 151 152 150
0.86530095 0.15711799 0.74086541 151 152 150
0.86658150 0.15711799 0.74086541 150 153 150
0.86881155 0.15728989 0.74167597 147 153 149
0.87295872 0.15780787 0.74411839 143 150 145
0.87424487 0.15780787 0.74411839 141 149 144
0.87457103 0.15763482 0.74330246 142 151 146
0.87778074 0.15798128 0.74493611 147 156 151
0.88453406 0.15780787 0.74411839 148 151 147
-0.61315292 0.27554116 1.28876781 128 133 140
-0.61325717 0.27659285 1.29368675 129 133 139
-0.61102110 0.27659285 1.29368675 134 138 143
-0.60647029 0.27554116 1.28876781 125 130 132
-0.60539371 0.27606601 1.29122257 121 128 129
-0.60316193 0.27606601 1.29122257 122 131 131
-0.59978771 0.27554116 1.28876781 129 138 138
-0.59756017 0.27554116 1.28876781 135 144 143
-0.59646660 0.27606601 1.29122257 132 141 140
-0.59197968 0.27501830 1.28632224 128 136 136
-0.59087759 0.27554116 1.28876781 123 132 133
-0.58865005 0.27554116 1.28876781 114 123 124
-0.58530980 0.27501830 1.28632224 103 112 114
-0.58198214 0.27449745 1.28388608 98 107 108
-0.58196747 0.27554116 1.28876781 125 134 133
-0.58306539 0.27712169 1.29616034 139 146 145
-0.58082509 0.27712169 1.29616034 155 159 158
-0.34892857 0.27979663 1.30867147 84 93 100
-0.34533328 0.27872047 1.30363810 84 89 102
-0.34308004 0.27872047 1.30363810 91 92 103
-0.34148353 0.27925751 1.30614996 94 94 106
-0.33857360 0.27872047 1.30363810 101 101 112
-0.33632037 0.27872047 1.30363810 111 112 120
-0.33535695 0.27979663 1.30867147 137 138 144
-0.33309501 0.27979663 1.30867147 144 146 151
-0.32956067 0.27872047 1.30363810 143 148 152
-0.19414425 0.19020295 0.88962185 124 130 132
-0.19210240 0.18970503 0.88729298 118 125 126
-0.18982342 0.18896304 0.88382250 116 118 121
-0.18683425 0.18749630 0.87696230 123 125 128
-0.18484025 0.18701245 0.87469918 128 129 133
-0.18309216 0.18677145 0.87357193 125 129 132
-0.18181656 0.18701245 0.87469918 136 140 143
-0.17984061 0.18653108 0.87244767 143 148 150
-0.17879286 0.18701245 0.87469918 141 148 150
-0.17682470 0.18653108 0.87244767 133 141 142
-0.17509140 0.18629132 0.87132627 131 139 140
-0.17358539 0.18629132 0.87132627 128 133 138
-0.09334611 0.10472157 0.48980623 131 132 142
-0.09243274 0.10464595 0.48945260 137 142 147
-0.09158676 0.10464595 0.48945260 139 146 148
-0.09093776 0.10487311 0.49051508 137 146 146
-0.09008994 0.10487311 0.49051508 138 146 150
-0.08917759 0.10479729 0.49016041 131 139 144
-0.08833040 0.10479729 0.49016041 113 122 126
-0.08748319 0.10479729 0.49016041 96 100 110
-0.08663599 0.10479729 0.49016041 80 84 97
-0.08572680 0.10472157 0.48980623 92 96 111
-0.08481892 0.10464595 0.48945260 106 111 126
-0.08330742 0.10487311 0.49051508 112 119 130
-0.08245960 0.10487311 0.49051508 134 142 148
0.02828462 0.40037194 1.87262940 178 183 189
0.03134811 0.39817211 1.86234021 178 184 187
0.07187144 0.37450814 1.75165856 172 172 172
0.07432289 0.37162730 1.73818421 175 175 174
0.07712944 0.37067685 1.73373878 174 175 173
0.07971830 0.36879045 1.72491562 171 172 170
0.08269968 0.36879045 1.72491562 171 172 170
0.08723485 0.37547836 1.75619650 168 168 168
0.08980498 0.37354290 1.74714386 164 164 164
0.09164381 0.36879045 1.72491562 156 155 156
0.09367178 0.36507466 1.70753610 147 147 149
0.09686712 0.36599657 1.71184814 146 146 151
0.24709575 0.19881296 0.92989278 171 176 177
0.24870299 0.19881296 0.92989278 173 177 178
0.24928437 0.19799815 0.92608178 173 177 176
0.25020143 0.19745865 0.92355835 172 175 174
0.25111347 0.19692208 0.92104870 169 170 170
0.25373971 0.19772804 0.92481834 159 160 162
0.25464338 0.19719000 0.92230183 134 135 139
0.25588936 0.19692208 0.92104870 120 120 129
0.25748131 0.19692208 0.92104870 122 122 131
0.25837117 0.19638841 0.91855264 140 140 149
0.26066524 0.19692208 0.92104870 156 156 165
0.26369029 0.19799815 0.92608178 152 153 159
0.26529095 0.19799815 0.92608178 158 159 163
0.26616439 0.19745865 0.92355835 167 168 171
0.26703307 0.19692208 0.92104870 168 169 170
0.26753452 0.19612266 0.91730964 173 173 174
0.26731142 0.19480464 0.91114497 175 176 176
0.27265996 0.19638841 0.91855264 171 172 176
0.41356245 0.10510127 0.49158219 160 165 162
0.41381192 0.10494906 0.49087027 152 157 154
0.41406071 0.10479729 0.49016041 145 149 148
0.41520813 0.10487311 0.49051508 138 142 143
0.41605595 0.10487311 0.49051508 134 138 139
0.41690376 0.10487311 0.49051508 136 140 142
0.41775158 0.10487311 0.49051508 140 144 147
0.41829672 0.10479729 0.49016041 143 148 150
0.41763404 0.10441978 0.48839471 144 150 152
0.41489124 0.10352474 0.48420846 147 153 155
0.41454375 0.10322981 0.48282894 149 155 156
0.53112727 0.12472861 0.58338368 155 161 158
0.52985567 0.12419421 0.58088416 158 164 162
0.52724534 0.12334864 0.57692921 159 165 163
0.52779329 0.12324375 0.57643867 160 166 164
0.52878964 0.12324375 0.57643867 160 166 164
0.53114092 0.12355895 0.57791293 160 166 164
0.85692984 0.15874551 0.74248832 160 161 161
0.85353881 0.15788087 0.73844427 159 160 160
0.85855609 0.15857182 0.74167597 158 159 159
0.85983801 0.15857182 0.74167597 155 156 156
0.86206317 0.15874551 0.74248832 148 149 149
0.86240190 0.15857182 0.74167597 145 146 146
0.86368382 0.15857182 0.74167597 149 150 149
0.86402041 0.15839852 0.74086541 149 151 149
0.86435628 0.15822560 0.74005657 149 152 149
0.86658150 0.15839852 0.74086541 147 152 148
0.86786199 0.15839852 0.74086541 140 150 146
0.87424487 0.15909402 0.74411839 134 144 140
0.87457103 0.15891957 0.74330246 136 145 141
0.87778074 0.15926884 0.74493611 140 149 145
0.88003534 0.15944405 0.74575561 133 142 138
0.88229495 0.15961966 0.74657691 130 139 135
0.88259643 0.15874551 0.74248832 139 143 141
-0.61315292 0.27776867 1.28876781 128 133 137
-0.61442971 0.27936199 1.29616034 129 134 138
-0.61218941 0.27936199 1.29616034 131 137 140
-0.60647029 0.27776867 1.28876781 127 135 138
-0.60654902 0.27882886 1.29368675 125 133 137
-0.60316193 0.27829778 1.29122257 125 133 137
-0.60093015 0.27829778 1.29122257 130 138 141
-0.58308649 0.27724162 1.28632224 120 124 125
-0.58196747 0.27776867 1.28876781 126 131 133
-0.35051382 0.28151509 1.30614996 83 93 104
-0.34825626 0.28151509 1.30614996 82 89 102
-0.34533328 0.28097370 1.30363810 81 85 99
-0.34242156 0.28043440 1.30113602 91 92 106
-0.34082684 0.28097370 1.30363810 100 101 113
-0.33857360 0.28097370 1.30363810 105 105 115
-0.33632037 0.28097370 1.30363810 117 117 126
-0.33471081 0.28151509 1.30614996 137 137 146
-0.33245322 0.28151509 1.30614996 143 143 150
-0.32892811 0.28043440 1.30113602 144 146 152
-0.32542995 0.27936199 1.29616034 144 147 153
-0.19852217 0.19300704 0.89549780 128 134 139
-0.19671452 0.19275241 0.89431643 120 128 131
-0.19439937 0.19199255 0.89079088 113 121 125
-0.19235417 0.19148929 0.88845587 110 118 124
-0.19031969 0.19098866 0.88613313 108 107 116
-0.18707627 0.18925691 0.87809825 109 108 119
-0.18484025 0.18852429 0.87469918 113 112 125
-0.18285652 0.18803903 0.87244767 116 115 130
-0.18158226 0.18828136 0.87357193 120 121 133
-0.17984061 0.18803903 0.87244767 118 120 130
-0.17856246 0.18828136 0.87357193 126 131 139
-0.17682470 0.18803903 0.87244767 127 131 140
-0.17509140 0.18779734 0.87132627 125 130 139
-0.17336255 0.18755627 0.87020773 121 129 137
-0.09419271 0.10556816 0.48980623 109 111 121
-0.09334611 0.10556816 0.48980623 122 125 135
-0.09243274 0.10549194 0.48945260 132 137 142
-0.09158676 0.10549194 0.48945260 140 145 146
-0.09093776 0.10572093 0.49051508 149 155 153
-0.09002480 0.10564449 0.49016041 149 156 153
-0.08924212 0.10572093 0.49051508 155 161 158
-0.08839431 0.10572093 0.49051508 157 162 159
-0.08748319 0.10564449 0.49016041 147 149 154
-0.08663599 0.10564449 0.49016041 116 119 128
-0.08572680 0.10556816 0.48980623 98 102 114
0.02812921 0.40139100 1.86234021 180 183 189
0.03092334 0.39595211 1.83710527 183 184 189
0.07262206 0.38147867 1.76995254 173 173 173
0.07489904 0.37753573 1.75165856 171 172 172
0.07772580 0.37656271 1.74714386 165 166 164
0.08012607 0.37367347 1.73373878 163 164 162
0.08355006 0.37559468 1.74265254 155 155 154
0.08768921 0.38048524 1.76534331 151 151 149
0.09003704 0.37753573 1.75165856 147 146 145
0.09164381 0.37177184 1.72491562 145 144 145
0.09414607 0.36988944 1.71618187 139 139 142
0.24650292 0.20124839 0.93373531 165 171 173
0.24709575 0.20042020 0.92989278 167 173 175
0.24904461 0.20069550 0.93117011 168 174 174
0.24962538 0.19987185 0.92734861 171 172 173
0.25054276 0.19932650 0.92481834 169 170 171
0.25145513 0.19878411 0.92230183 165 166 166
0.25408635 0.19959880 0.92608178 160 161 161
0.25499031 0.19905494 0.92355835 144 145 146
0.25623751 0.19878411 0.92230183 137 137 145
0.25783163 0.19878411 0.92230183 137 137 145
0.25907329 0.19851403 0.92104870 138 138 147
0.26137549 0.19905494 0.92355835 141 141 150
0.26405102 0.19987185 0.92734861 142 143 150
0.26565385 0.19987185 0.92734861 150 151 156
0.26689160 0.19959880 0.92608178 158 158 164
0.26812598 0.19932650 0.92481834 166 166 171
0.26826054 0.19824468 0.91979897 171 171 174
0.26948470 0.19797605 0.91855264 174 174 177
0.27329424 0.19959880 0.92608178 177 177 180
0.27377287 0.19878411 0.92230183 177 177 181
0.41356245 0.10595093 0.49158219 162 165 161
0.41381192 0.10579748 0.49087027 156 159 155
0.41406071 0.10564449 0.49016041 145 148 147
0.41550881 0.10579748 0.49087027 135 138 138
0.41635722 0.10579748 0.49087027 127 130 130
0.41690376 0.10572093 0.49051508 131 135 136
0.41775158 0.10572093 0.49051508 135 138 141
0.41799450 0.10556816 0.48980623 136 141 143
0.41673332 0.10503690 0.48734137 137 145 147
0.52849704 0.12487721 0.57939476 156 162 160
0.52634943 0.12413452 0.57594889 157 162 161
0.52689719 0.12402914 0.57545996 158 163 162
0.52789187 0.12402914 0.57545996 158 163 162
0.53023684 0.12434581 0.57692921 158 164 162
0.85599226 0.15985376 0.74167597 160 163 161
0.85353881 0.15915722 0.73844427 158 161 158
0.85761780 0.15967904 0.74086541 157 158 156
0.85889834 0.15967904 0.74086541 153 154 152
0.86111999 0.15985376 0.74167597 145 147 146
0.86145937 0.15967904 0.74086541 141 144 144
0.86273992 0.15967904 0.74086541 150 153 153
0.86307716 0.15950473 0.74005657 152 157 155
0.86435628 0.15950473 0.74005657 151 156 154
0.86563545 0.15950473 0.74005657 146 152 149
0.86691457 0.15950473 0.74005657 137 146 142
0.87104648 0.16002883 0.74248832 131 140 137
0.87328631 0.16020431 0.74330246 129 138 135
0.87361312 0.16002883 0.74248832 130 139 138
0.87681717 0.16038017 0.74411839 129 138 136
0.88003534 0.16073303 0.74575561 124 133 132
0.88229495 0.16091006 0.74657691 120 129 128
0.88358533 0.16091006 0.74657691 122 131 130
0.88293099 0.16055641 0.74493611 119 127 127
0.88227946 0.16020431 0.74330246 123 130 130
0.88259643 0.16002883 0.74248832 129 135 136
-0.61218941 0.28160232 1.29616034 131 137 139
-0.60762548 0.28052953 1.29122257 132 138 140
-0.60654902 0.28106490 1.29368675 133 140 142
-0.60316193 0.28052953 1.29122257 135 143 144
-0.35119048 0.28432047 1.30867147 85 92 105
-0.34892857 0.28432047 1.30867147 85 92 104
-0.34599867 0.28377265 1.30614996 88 96 106
-0.34308004 0.28322694 1.30363810 98 103 111
-0.34082684 0.28322694 1.30363810 106 110 118
-0.33857360 0.28322694 1.30363810 112 115 123
-0.33632037 0.28322694 1.30363810 122 123 132
-0.33406714 0.28322694 1.30363810 134 136 145
-0.33245322 0.28377265 1.30614996 138 140 148
-0.32892811 0.28268331 1.30113602 138 142 148
-0.32480890 0.28106490 1.29368675 137 141 145
-0.20161776 0.19455484 0.89549780 133 141 145
-0.20006996 0.19455484 0.89549780 126 134 138
-0.19904806 0.19507021 0.89787000 123 131 135
-0.19723493 0.19481218 0.89668232 118 121 127
-0.19491161 0.19404218 0.89313811 99 101 109
-0.19311348 0.19378686 0.89196295 95 95 105
-0.19081856 0.19302492 0.88845587 91 88 107
-0.18731891 0.19102207 0.87923717 95 93 112
-0.18507907 0.19028166 0.87582928 97 94 113
-0.18309216 0.18979125 0.87357193 107 106 123
-0.18158226 0.18979125 0.87357193 114 113 129
-0.17984061 0.18954699 0.87244767 121 120 136
-0.17833266 0.18954699 0.87244767 120 123 136
-0.17659742 0.18930335 0.87132627 115 120 132
-0.17486663 0.18906035 0.87020773 113 120 131
-0.17269748 0.18833505 0.86686939 114 121 131
-0.09595522 0.10649169 0.49016041 104 107 120
-0.09419271 0.10641475 0.48980623 98 102 114
-0.09341361 0.10649169 0.49016041 108 112 124
-0.09249952 0.10641475 0.48980623 120 125 130
-0.09165293 0.10641475 0.48980623 126 130 134
-0.09093776 0.10656875 0.49051508 141 146 149
-0.09002480 0.10649169 0.49016041 153 154 154
-0.08924212 0.10656875 0.49051508 163 164 163
-0.08839431 0.10656875 0.49051508 162 163 161
-0.08754649 0.10656875 0.49051508 157 158 156
-0.08663599 0.10649169 0.49016041 144 147 151
-0.08578879 0.10649169 0.49016041 123 127 135
0.03109186 0.40130249 1.84711671 182 183 185
0.07281217 0.38554454 1.77458596 152 153 155
0.07509308 0.38154924 1.75619650 151 152 152
0.07792664 0.38056332 1.75165856 155 155 155
0.08053803 0.37860671 1.74265254 156 156 156
0.08376539 0.37958249 1.74714386 154 154 154
0.08768921 0.38353649 1.76534331 143 143 143
0.08980498 0.37958249 1.74714386 139 139 139
0.09164381 0.37475321 1.72491562 136 136 137
0.09438502 0.37380207 1.72053766 135 134 141
0.09760657 0.37475321 1.72491562 147 149 155
0.09957446 0.37097734 1.70753610 149 152 158
0.24727321 0.20483729 0.94282591 159 164 166
0.24650292 0.20286228 0.93373531 157 162 164
0.24709575 0.20202745 0.92989278 160 164 167
0.24904461 0.20230496 0.93117011 163 165 168
0.24962538 0.20147471 0.92734861 165 166 168
0.25054276 0.20092498 0.92481834 163 164 166
0.25179771 0.20065124 0.92355835 158 159 159
0.25443393 0.20147471 0.92734861 159 160 161
0.25533819 0.20092498 0.92481834 151 152 154
0.25693664 0.20092498 0.92481834 151 152 154
0.25853512 0.20092498 0.92481834 144 145 151
0.25977919 0.20065124 0.92355835 140 140 149
0.26208964 0.20119947 0.92608178 134 134 143
0.26441273 0.20175070 0.92861897 142 142 151
0.26565385 0.20147471 0.92734861 153 153 162
0.26725671 0.20147471 0.92734861 161 161 170
0.26849225 0.20119947 0.92608178 171 171 179
0.26899049 0.20037824 0.92230183 176 177 181
0.27058461 0.20037824 0.92230183 178 179 183
0.27329424 0.20119947 0.92608178 181 181 185
0.27414587 0.20065124 0.92355835 182 182 186
0.27313730 0.19875574 0.91483378 184 184 187
0.41326275 0.10672320 0.49122596 157 158 156
0.41351250 0.10656875 0.49051508 154 155 153
0.41406071 0.10649169 0.49016041 146 147 146
0.41550881 0.10664591 0.49087027 136 137 139
0.52804571 0.12577115 0.57889998 156 160 159
0.52634943 0.12513000 0.57594889 156 160 159
0.52689719 0.12502378 0.57545996 157 161 160
0.52789187 0.12502378 0.57545996 157 161 160
0.53023684 0.12534298 0.57692921 158 162 161
0.85692984 0.16131216 0.74248832 165 166 164
0.85446960 0.16060852 0.73924953 161 162 160
0.85761780 0.16095957 0.74086541 158 159 157
0.85796064 0.16078386 0.74005657 154 155 153
0.86206317 0.16131216 0.74248832 150 152 150
0.86240190 0.16113567 0.74167597 148 150 148
0.86273992 0.16095957 0.74086541 155 157 155
0.86307716 0.16078386 0.74005657 159 163 161
0.86435628 0.16078386 0.74005657 159 163 161
0.86658150 0.16095957 0.74086541 150 155 152
0.86596918 0.16060852 0.73924953 138 145 142
0.87104648 0.16131216 0.74248832 129 136 134
0.87424487 0.16166630 0.74411839 122 130 128
0.87361312 0.16131216 0.74248832 121 129 131
-0.60647029 0.28222376 1.28876781 135 140 142
-0.34892857 0.28658241 1.30867147 87 94 110
-0.34533328 0.28548017 1.30363810 94 102 110
-0.34242156 0.28493223 1.30113602 97 105 111
-0.34017265 0.28493223 1.30113602 104 112 118
-0.33792374 0.28493223 1.30113602 111 119 125
-0.33632037 0.28548017 1.30363810 117 128 133
-0.33406714 0.28548017 1.30363810 121 133 138
-0.33245322 0.28603023 1.30614996 130 138 140
-0.32829797 0.28438637 1.29864335 131 139 140
-0.32480890 0.28330094 1.29368675 128 134 136
-0.20161776 0.19610263 0.89549780 125 133 138
-0.20006996 0.19610263 0.89549780 120 128 133
-0.19904806 0.19662210 0.89787000 112 119 123
-0.19723493 0.19636202 0.89668232 106 109 116
-0.19491161 0.19558589 0.89313811 99 101 111
-0.19311348 0.19532853 0.89196295 91 92 105
-0.19056879 0.19430588 0.88729298 86 84 101
-0.18731891 0.19254175 0.87923717 93 91 108
-0.18555854 0.19229235 0.87809825 100 97 114
-0.18356526 0.19179547 0.87582928 106 108 123
-0.18181656 0.19154799 0.87469918 111 114 128
-0.18007237 0.19130115 0.87357193 117 120 133
-0.17833266 0.19105494 0.87244767 115 122 133
-0.17659742 0.19080937 0.87132627 114 120 133
-0.17464244 0.19032012 0.86909211 113 120 134
-0.17247692 0.18959092 0.86576223 115 121 138
-0.09609418 0.10749435 0.49087027 101 105 119
-0.09426081 0.10733889 0.49016041 95 97 110
-0.09348121 0.10741656 0.49051508 97 100 113
-0.09256641 0.10733889 0.49016041 102 106 114
-0.09171920 0.10733889 0.49016041 107 110 117
-0.09106955 0.10757224 0.49122596 121 124 130
-0.09015518 0.10749435 0.49087027 133 134 138
-0.08937146 0.10757224 0.49122596 151 151 153
-0.08852242 0.10757224 0.49122596 157 157 158
-0.08767337 0.10757224 0.49122596 154 155 158
-0.08676146 0.10749435 0.49087027 145 151 156
-0.08585086 0.10741656 0.49051508 136 145 151
-0.08500305 0.10741656 0.49051508 138 147 154
0.03075664 0.40013394 1.82720172 174 175 177
0.07243294 0.38658774 1.76534331 140 140 146
0.07489904 0.38359094 1.75165856 139 139 144
0.07772580 0.38260230 1.74714386 143 143 149
0.08012607 0.37966672 1.73373878 147 146 151
0.08355006 0.38161874 1.74265254 152 152 154
0.08723485 0.38458470 1.75619650 142 142 145
0.08957413 0.38161874 1.74265254 138 138 140
0.09141121 0.37677586 1.72053766 138 138 141
0.09414607 0.37582201 1.71618187 143 144 151
0.09735884 0.37677586 1.72053766 147 150 156
0.09907535 0.37205437 1.69897699 152 155 161
0.24692978 0.20618013 0.94151646 163 167 170
0.24616385 0.20419490 0.93245095 159 161 165
0.24709575 0.20363469 0.92989278 158 159 163
0.24904461 0.20391440 0.93117011 159 160 164
0.24962538 0.20307755 0.92734861 160 161 165
0.25054276 0.20252346 0.92481834 158 159 163
0.25179771 0.20224753 0.92355835 159 160 161
0.25478247 0.20335574 0.92861897 162 163 165
0.25603679 0.20307755 0.92734861 157 157 159
0.25728765 0.20280012 0.92608178 151 151 153
0.25888830 0.20280012 0.92608178 147 147 150
0.26013359 0.20252346 0.92481834 140 140 144
0.26244816 0.20307755 0.92734861 129 128 135
0.26441273 0.20335574 0.92861897 146 146 153
0.26565385 0.20307755 0.92734861 160 160 169
0.26689160 0.20280012 0.92608178 170 170 177
0.26812598 0.20252346 0.92481834 177 177 184
0.26826054 0.20142427 0.91979897 179 180 184
0.26948470 0.20115134 0.91855264 182 182 186
0.27292138 0.20252346 0.92481834 185 185 189
0.27377287 0.20197237 0.92230183 186 186 188
0.40956980 0.10749435 0.49087027 170 176 172
0.41041821 0.10749435 0.49087027 169 172 169
0.41156468 0.10757224 0.49122596 164 166 164
0.41241372 0.10757224 0.49122596 152 154 151
0.41386256 0.10772837 0.49193892 150 151 149
0.41381192 0.10749435 0.49087027 152 153 151
0.41406071 0.10733889 0.49016041 153 154 153
0.52759516 0.12666357 0.57840604 155 159 157
0.52590257 0.12601842 0.57545996 153 157 155
0.52645034 0.12591153 0.57497185 155 159 157
0.52744412 0.12591153 0.57497185 156 160 159
0.52888650 0.12601842 0.57545996 158 162 161
0.53033131 0.12612548 0.57594889 159 163 162
0.85786945 0.16277379 0.74330246 162 163 161
0.85446960 0.16188625 0.73924953 157 158 156
0.85761780 0.16224010 0.74086541 155 156 153
0.85889834 0.16224010 0.74086541 154 155 151
0.86395568 0.16295245 0.74411839 152 153 150
0.86334646 0.16259550 0.74248832 151 152 149
0.86273992 0.16224010 0.74086541 148 149 146
0.86307716 0.16206299 0.74005657 147 148 146
0.86435628 0.16206299 0.74005657 146 148 145
0.86658150 0.16224010 0.74086541 137 139 136
0.87616843 0.16331099 0.74575561 103 106 107
0.87553102 0.16295245 0.74411839 105 110 114
-0.34242156 0.28718114 1.30113602 119 128 131
-0.34082684 0.28773341 1.30363810 120 128 131
-0.33857360 0.28773341 1.30363810 112 121 127
-0.33632037 0.28773341 1.30363810 114 124 129
-0.33406714 0.28773341 1.30363810 117 128 133
-0.33245322 0.28828782 1.30614996 123 132 133
-0.32892811 0.28718114 1.30113602 117 125 127
-0.19031969 0.19558349 0.88613313 73 71 90
-0.18731891 0.19406144 0.87923717 79 77 96
-0.18628244 0.19456615 0.88152385 93 91 110
-0.18404081 0.19381006 0.87809825 105 107 122
-0.18205146 0.19330926 0.87582928 106 114 126
-0.18007237 0.19281104 0.87357193 107 120 129
-0.17833266 0.19256289 0.87244767 114 126 135
-0.17659742 0.19231538 0.87132627 111 121 131
-0.17486663 0.19206852 0.87020773 109 116 127
-0.17291860 0.19157666 0.86797929 120 123 139
-0.09630339 0.10857864 0.49193892 117 121 133
-0.09531477 0.10842128 0.49122596 110 109 121
-0.09439732 0.10834277 0.49087027 101 103 113
-0.09361668 0.10842128 0.49122596 100 105 113
-0.09263339 0.10826438 0.49051508 101 104 112
-0.09185203 0.10834277 0.49087027 95 98 106
-0.09120172 0.10857864 0.49193892 114 117 125
-0.09028593 0.10849991 0.49158219 134 134 141
-0.08963126 0.10873646 0.49265397 139 139 146
-0.08871528 0.10865749 0.49229619 140 140 147
-0.08792824 0.10873646 0.49265397 145 145 152
-0.08695035 0.10857864 0.49193892 134 140 147
-0.08610006 0.10857864 0.49193892 142 152 159
-0.08518797 0.10849991 0.49158219 153 163 170
-0.08439951 0.10857864 0.49193892 166 173 177
0.02782346 0.40657982 1.84209740 169 173 177
0.03067396 0.40220800 1.82228994 170 174 177
0.03364277 0.40005714 1.81254506 170 172 176
0.07262206 0.39065632 1.76995254 138 141 149
0.07528813 0.38862693 1.76075804 140 143 151
0.07812852 0.38762012 1.75619650 145 145 154
0.08053803 0.38463077 1.74265254 149 149 157
0.08398184 0.38661852 1.75165856 147 147 151
0.08768921 0.38963899 1.76534331 144 144 148
0.08980498 0.38562208 1.74714386 140 142 145
0.09187759 0.38168716 1.72931588 140 142 146
0.09462518 0.38071597 1.72491562 143 144 150
0.09785556 0.38168716 1.72931588 147 148 152
0.24904461 0.20552386 0.93117011 160 161 165
0.24962538 0.20468040 0.92734861 158 159 164
0.25054276 0.20412193 0.92481834 156 156 163
0.25179771 0.20384383 0.92355835 156 156 163
0.25443393 0.20468040 0.92734861 157 157 162
0.25603679 0.20468040 0.92734861 154 154 156
0.25728765 0.20440078 0.92608178 146 146 149
0.25888830 0.20440078 0.92608178 146 146 149
0.26048899 0.20440078 0.92608178 146 146 149
0.26208964 0.20440078 0.92608178 143 144 148
0.26405102 0.20468040 0.92734861 159 160 164
0.26529095 0.20440078 0.92608178 173 174 176
0.26580226 0.20356649 0.92230183 175 176 179
0.26630941 0.20273899 0.91855264 178 179 183
0.26681244 0.20191818 0.91483378 181 182 184
0.26695260 0.20083405 0.90992194 181 182 184
0.26997486 0.20191818 0.91483378 182 183 185
0.27119011 0.20164606 0.91360086 182 183 185
0.27021995 0.19976151 0.90506256 181 182 183
0.40647039 0.10842128 0.49122596 166 171 169
0.40614223 0.10810792 0.48980623 167 173 171
0.40961117 0.10857864 0.49193892 172 177 174
0.41016379 0.10849991 0.49158219 166 170 167
0.41131172 0.10857864 0.49193892 162 165 163
0.41246131 0.10865749 0.49229619 163 164 164
0.41331223 0.10865749 0.49229619 161 162 162
0.41446409 0.10873646 0.49265397 159 160 159
0.41411179 0.10842128 0.49122596 159 160 158
0.41436031 0.10826438 0.49051508 161 162 160
0.52545655 0.12690532 0.57497185 151 155 153
0.52555877 0.12669040 0.57399815 154 158 156
0.52655089 0.12669040 0.57399815 157 161 159
0.52754301 0.12669040 0.57399815 159 163 162
0.52853513 0.12669040 0.57399815 159 163 162
0.85786945 0.16405852 0.74330246 149 150 148
0.85540241 0.16334210 0.74005657 147 148 146
0.85761780 0.16352062 0.74086541 147 148 145
0.85889834 0.16352062 0.74086541 149 150 146
0.86300838 0.16405852 0.74330246 151 152 148
0.86334646 0.16387883 0.74248832 153 154 150
0.86273992 0.16352062 0.74086541 144 145 141
0.86307716 0.16334210 0.74005657 138 139 135
0.86435628 0.16334210 0.74005657 134 135 132
0.86658150 0.16352062 0.74086541 120 121 118
0.87616843 0.16459997 0.74575561 93 94 97
0.87553102 0.16423860 0.74411839 101 103 108
-0.34242156 0.28943005 1.30113602 132 142 139
-0.34082684 0.28998664 1.30363810 128 138 135
-0.33857360 0.28998664 1.30363810 115 123 129
-0.33632037 0.28998664 1.30363810 117 125 131
-0.33471081 0.29054537 1.30614996 116 124 130
-0.33245322 0.29054537 1.30614996 112 120 126
-0.32829797 0.28887558 1.29864335 103 111 117
-0.18799369 0.19789115 0.88962185 110 111 129
-0.18621169 0.19763179 0.88845587 119 126 135
-0.18347374 0.19634512 0.88267165 119 131 138
-0.18077122 0.19507509 0.87696230 119 136 141
-0.17856246 0.19432095 0.87357193 121 137 142
-0.17682470 0.19407085 0.87244767 127 139 145
-0.17509140 0.19382140 0.87132627 129 137 144
-0.09764971 0.10998764 0.49445066 133 140 147
-0.09651350 0.10966767 0.49301225 130 137 144
-0.09538389 0.10934956 0.49158219 123 130 137
-0.09446573 0.10927033 0.49122596 117 125 131
-0.09361668 0.10927033 0.49122596 106 114 120
-0.09270047 0.10919120 0.49087027 99 103 111
-0.09198525 0.10934956 0.49158219 104 108 116
-0.09126796 0.10950839 0.49229619 118 121 129
-0.09035145 0.10942892 0.49193892 128 128 137
-0.08969644 0.10966767 0.49301225 131 131 140
-0.08890898 0.10974749 0.49337107 134 134 143
-0.08812036 0.10982742 0.49373040 123 128 137
-0.08720347 0.10974749 0.49337107 123 131 139
-0.08635072 0.10974749 0.49337107 146 156 163
-0.08543579 0.10966767 0.49301225 169 179 183
-0.08452219 0.10958797 0.49265397 183 188 191
0.01857455 0.41655540 1.87262940 159 165 171
0.02169140 0.41426662 1.86234021 160 168 172
0.02457277 0.40865326 1.83710527 164 170 175
0.02774805 0.40865326 1.83710527 165 171 176
0.03059172 0.40427092 1.81740439 165 171 176
0.03364277 0.40318999 1.81254506 166 169 175
0.04225049 0.39578229 1.77924371 162 163 166
0.04462304 0.38964614 1.75165856 154 155 155
0.04728410 0.38664886 1.73818421 143 144 148
0.04965185 0.38175458 1.71618187 136 136 145
0.07528813 0.39167026 1.76075804 169 173 177
0.07833146 0.39167026 1.76075804 167 171 175
0.08095424 0.38964614 1.75165856 165 169 172
0.08485894 0.39371553 1.76995254 161 167 168
0.08814831 0.39474621 1.77458596 157 162 163
0.09027030 0.39065558 1.75619650 150 155 155
0.09211257 0.38565999 1.73373878 141 145 146
0.09510920 0.38565999 1.73373878 139 140 142
0.24870299 0.20684919 0.92989278 159 160 162
0.24928437 0.20600145 0.92608178 158 158 162
0.24952152 0.20488186 0.92104870 152 152 158
0.25077274 0.20460387 0.91979897 150 150 157
0.25339401 0.20544013 0.92355835 150 150 157
0.25499031 0.20544013 0.92355835 149 149 155
0.25658661 0.20544013 0.92355835 145 146 151
0.25818291 0.20544013 0.92355835 145 146 152
0.25942576 0.20516062 0.92230183 147 149 154
0.26101989 0.20516062 0.92230183 153 156 159
0.26225719 0.20488186 0.92104870 166 170 173
0.26384914 0.20488186 0.92104870 171 174 177
0.26400629 0.20377439 0.91607004 172 175 177
0.26487377 0.20322514 0.91360086 174 177 180
0.26609424 0.20295162 0.91237128 179 180 182
0.26623788 0.20186487 0.90748572 179 180 182
0.27009806 0.20240678 0.90992194 181 182 184
0.26842803 0.19999078 0.89906079 177 178 180
0.40798649 0.10990747 0.49409026 159 163 162
0.40676516 0.10934956 0.49158219 162 165 164
0.40672997 0.10911220 0.49051508 164 168 167
0.40728310 0.10903330 0.49016041 164 168 167
0.41020653 0.10958797 0.49265397 168 169 168
0.41046146 0.10942892 0.49193892 167 168 166
0.41131172 0.10942892 0.49193892 163 164 162
0.41276106 0.10958797 0.49265397 161 162 162
0.41391340 0.10966767 0.49301225 160 161 161
0.41506740 0.10974749 0.49337107 159 160 160
0.41471282 0.10942892 0.49193892 158 159 160
0.41496083 0.10927033 0.49122596 159 160 161
0.41611141 0.10934956 0.49158219 156 157 158
0.52566069 0.12746665 0.57302779 162 166 165
0.52665114 0.12746665 0.57302779 160 164 163
0.86070067 0.16588895 0.74575561 152 153 151
0.85633725 0.16480115 0.74086541 153 154 152
0.85855609 0.16498145 0.74167597 153 154 150
0.85983801 0.16498145 0.74167597 153 154 148
0.86490512 0.16570665 0.74493611 153 154 148
0.86429310 0.16534325 0.74330246 153 154 148
0.86368382 0.16498145 0.74167597 146 148 142
0.86402041 0.16480115 0.74086541 138 140 134
