ply
format ascii 1.0
element vertex 973
property float x
property float y
property float z
property uchar red
property uchar green
property uchar blue
end_header
-0.74444324 -0.78831321 1.80771160 147 139 128
-0.74291805 -0.74931701 1.81416484 146 138 125
-0.73738599 -0.78413117 1.79812157 146 139 127
-0.72737330 -0.76573853 1.76997063 145 137 129
-0.72642538 -0.76759827 1.79220048 145 138 127
-0.72863068 -0.76542473 1.80530775 146 140 124
-0.72149398 -0.74633478 1.75619650 145 138 127
-0.72583585 -0.74737389 1.76997268 144 137 124
-0.72677067 -0.75104231 1.79495867 146 139 122
-0.73160893 -0.74993147 1.80914686 145 138 124
-0.73679821 -0.75267486 1.82228994 146 139 125
-0.72322851 -0.73852938 1.75619650 146 138 128
-0.72441465 -0.73827958 1.76649562 146 138 126
-0.72184646 -0.73440468 1.79812157 145 138 127
-0.72376627 -0.73947406 1.80290389 145 138 127
-0.71188541 -0.76351984 1.75317121 145 137 126
-0.71546543 -0.76159877 1.77458596 146 138 128
-0.71803725 -0.76453578 1.78863287 145 140 128
-0.70364137 -0.75012296 1.73042160 145 137 128
-0.71141853 -0.75161428 1.74805458 145 138 128
-0.71600793 -0.74667624 1.76652578 146 139 125
-0.71619602 -0.74648476 1.78982201 148 139 127
-0.71026185 -0.72420558 1.77691483 145 138 126
-0.71400502 -0.73420116 1.78627938 145 138 128
-0.69962227 -0.75327194 1.72053766 146 139 126
-0.66262305 0.61806670 1.97348845 130 137 142
-0.66225380 0.62363926 1.97492474 122 130 136
-0.67087407 0.63107166 1.99163274 116 126 131
-0.64366852 0.61308387 1.95218346 140 147 152
-0.65315884 0.61716980 1.97063243 137 144 149
-0.64090705 0.62206799 1.95922494 143 146 154
-0.65523741 0.62332277 1.97177153 130 137 143
-0.65717649 0.63462520 1.98795259 132 137 142
-0.62973309 0.59477061 1.91494870 148 154 156
-0.62642324 0.60139024 1.91494870 149 154 159
-0.63177729 0.60986847 1.93131578 148 151 159
-0.63630590 0.61257088 1.94517428 148 151 156
-0.60351038 0.25572909 1.27603590 121 130 134
-0.60278455 0.25741334 1.29097580 110 120 125
-0.60631462 0.26093418 1.27904117 124 136 137
-0.60666502 0.26997245 1.28962582 127 134 138
-0.60554385 0.26131870 1.30113602 105 117 122
-0.60719923 0.28119001 1.29221201 133 139 141
-0.61805767 0.60629725 1.90955448 153 154 160
-0.58718291 -0.18986986 1.51937020 144 130 113
-0.58916782 -0.18828884 1.52781039 144 130 114
-0.58121043 -0.18454503 1.54066324 143 129 120
-0.58477927 -0.17776303 1.51315645 144 132 112
-0.59790319 0.24826420 1.27142127 118 126 132
-0.59707042 0.25554947 1.29657731 107 120 125
-0.59859759 0.25664091 1.30364006 101 116 121
-0.59150131 0.27115279 1.29062867 114 122 126
-0.59788121 0.26211226 1.30322272 94 110 119
-0.57151356 -0.19802677 1.51149648 144 129 111
-0.57519826 -0.18742896 1.53204641 143 129 115
-0.57173566 -0.17736769 1.51350504 142 129 116
-0.57204700 -0.17720550 1.52335250 141 131 117
-0.55071692 -0.18268260 1.50700043 145 129 116
-0.54438818 -0.17180054 1.47688854 143 130 115
-0.54746769 -0.17553878 1.49287128 143 129 115
-0.53438166 -0.16652856 1.45315933 143 129 116
-0.53694320 -0.16851360 1.47048128 144 129 116
-0.53769264 -0.17358231 1.48662278 142 127 114
-0.46141505 0.18403951 0.91238560 105 107 111
-0.46920090 0.19247926 0.92777439 97 98 98
-0.44661660 0.17688042 0.89668621 106 111 122
-0.45700634 0.17822320 0.90530970 96 103 108
-0.44648833 0.18188477 0.89754837 111 110 119
-0.45336156 0.18677551 0.90667695 104 104 108
-0.44548245 0.20997074 1.11524369 127 137 140
-0.44791578 0.21315265 1.12127738 127 137 139
-0.42556640 0.15528573 0.86729612 123 131 137
-0.42672380 0.16398878 0.87229523 111 117 126
-0.43834559 0.17446649 0.88905263 114 124 136
-0.43939784 0.18038638 0.89431643 120 122 131
-0.42312829 0.19942735 1.09161329 131 137 144
-0.42528931 0.20292088 1.09620697 130 135 142
-0.42968293 0.21156164 1.10622621 114 123 130
-0.42017445 0.22350819 1.09869015 100 113 119
-0.42506478 0.22194546 1.10717719 125 134 139
-0.40208724 -0.34501838 0.79643030 143 141 138
-0.40482215 -0.35061405 0.80230555 141 141 136
-0.40098011 -0.33929631 0.79378438 144 143 141
-0.41764296 0.14934951 0.85809185 137 146 152
-0.41549564 0.15633065 0.86815024 143 150 154
-0.41738879 0.16296564 0.87222453 141 147 150
-0.40507475 0.19781858 1.09448861 114 120 129
-0.40754452 0.20790611 1.09547946 113 122 130
-0.41134351 0.21289976 1.10168019 107 117 125
-0.40794141 0.22456889 1.09351134 112 121 130
-0.41293121 0.22006688 1.10047376 106 118 128
-0.39333960 -0.34338692 0.79519862 146 141 133
-0.39125234 -0.35056498 0.80431674 144 140 129
-0.39204742 -0.33839752 0.79354131 147 140 132
-0.39504326 0.19628140 1.09162460 117 122 130
-0.39750946 0.20657224 1.09495604 112 122 130
-0.39850321 0.21572720 1.10329987 118 130 136
-0.39829990 0.22337067 1.09337678 115 121 130
-0.34130254 0.21224174 0.73884690 56 56 64
-0.34143174 0.21418434 0.74331674 58 58 65
-0.34165995 0.22300826 0.74971721 60 60 66
-0.34470636 0.27912377 1.30552441 88 92 102
-0.34429242 0.28488303 1.30417101 100 107 115
-0.34221327 0.30398491 1.31265622 99 105 115
-0.32972101 0.21357971 0.73591173 80 82 89
-0.33501269 0.21799136 0.74103035 70 70 79
-0.32610568 0.22282529 0.73644807 108 108 112
-0.33379590 0.22304393 0.74238946 88 88 92
-0.32542995 0.27936199 1.29616034 144 147 153
-0.33429581 0.27853636 1.30579388 127 130 137
-0.32113183 0.29999024 1.27904117 119 129 135
-0.32549218 0.29183894 1.29194668 97 104 115
-0.33444953 0.28817318 1.30403180 113 119 127
-0.32142564 0.30589893 1.27145859 117 125 132
-0.32821020 0.30418614 1.29124691 111 119 127
-0.33516548 0.30431619 1.30615383 92 98 109
-0.31501213 0.21045238 0.71963042 89 95 98
-0.31800989 0.21264017 0.72472561 92 96 101
-0.30867559 0.29660463 1.25535524 133 141 146
-0.31589231 0.29804567 1.26813492 121 131 136
-0.31142208 0.30367634 1.25768435 111 122 130
-0.31577459 0.30541424 1.26322963 113 123 130
-0.26425757 0.05663149 0.47400861 136 142 146
-0.26441879 0.06412447 0.47233967 148 154 154
-0.25846106 0.05635147 0.47402395 134 139 142
-0.25878259 0.06347897 0.47295803 137 143 145
-0.20382965 0.15448545 0.61570154 120 125 129
-0.20610145 0.14761041 0.62021214 139 148 150
-0.20479489 0.16378064 0.61609784 121 126 131
-0.20501094 0.17871894 0.94691244 119 126 136
-0.20084386 0.19532873 0.89549780 126 134 138
-0.19724520 0.15522755 0.61314769 130 137 139
-0.18154044 0.15980068 0.92734861 131 140 141
-0.19212880 0.17044745 0.60853357 116 122 129
-0.18405772 0.17039822 0.93415483 124 128 137
-0.19289024 0.17647470 0.94500976 114 118 132
-0.18359438 0.18928399 0.87572405 115 119 129
-0.19086708 0.19268795 0.88904560 114 119 126
-0.18376928 0.18315282 0.93572995 118 122 134
-0.19014231 0.18415807 0.94366008 112 116 132
-0.18577002 0.20307733 0.89288386 133 140 145
-0.19048313 0.20574653 0.90386331 139 147 152
-0.18329921 0.34840705 0.83092304 183 188 189
-0.18142693 0.35375779 0.84181061 180 185 188
-0.18019128 0.36063713 0.83897507 187 195 194
-0.18319826 0.36117183 0.84447271 182 188 190
-0.16983241 0.15944052 0.91607004 112 121 129
-0.17924112 0.15912106 0.92650519 130 137 142
-0.17069060 0.17366957 0.88793841 130 133 143
-0.16893130 0.16698393 0.91484458 119 126 136
-0.17602559 0.17087021 0.92703840 118 124 135
-0.17659186 0.18904384 0.87240006 126 133 141
-0.17842385 0.18317455 0.88536592 133 137 143
-0.17923385 0.18316008 0.93202400 103 105 121
-0.17545963 0.35021644 0.83348799 182 189 191
-0.17891462 0.36097158 0.83639008 189 195 193
-0.14579779 0.15697178 0.50714294 118 126 133
-0.14614834 0.15862020 0.67830332 125 133 138
-0.14756224 0.15765736 0.68224286 136 143 147
-0.14335359 0.17238170 0.49472987 148 156 160
-0.14687628 0.16308058 0.50646412 111 122 128
-0.14861333 0.17206368 0.65315410 141 146 151
-0.14537147 0.16706132 0.67298707 122 128 135
-0.14450325 0.18215146 0.49808690 193 201 198
-0.14634430 0.18436914 0.50072063 195 202 200
-0.12401465 -0.11652265 1.25303483 113 88 83
-0.13921792 0.17066982 0.49091686 171 176 178
-0.13705304 0.17147401 0.65765808 160 166 170
-0.13838188 0.17039228 0.66297928 137 144 148
-0.11057998 -0.14354797 1.18882762 113 87 80
-0.11138339 -0.12874011 1.18636672 115 90 81
-0.11797137 -0.11737625 1.17826009 114 90 82
-0.10971529 -0.11530158 1.18674007 114 92 79
-0.11652397 -0.11307139 1.22732735 115 91 81
-0.08675033 0.09756728 0.48486436 123 130 139
-0.08975336 0.10702220 0.49143488 130 135 142
-0.06318614 0.33742735 0.83536045 193 197 196
-0.06210565 0.34348071 0.83638906 181 186 184
-0.06292788 0.34648368 0.84157929 188 190 189
-0.04367360 0.33527677 0.79614361 101 104 107
-0.04699300 0.33282896 0.81056483 135 136 137
-0.05069560 0.33032175 0.82670307 158 159 161
-0.05497069 0.32894522 0.84778557 186 189 189
-0.04986692 0.34338787 0.79564768 0 0 0
-0.05292492 0.34367587 0.81069607 81 83 84
-0.05818282 0.34690718 0.82782810 123 128 128
-0.02734753 -0.38442232 0.91334176 56 41 39
-0.02861132 -0.37757266 0.91321068 53 40 37
-0.02019211 -0.06300424 0.48152580 115 92 83
-0.02026119 -0.03783283 0.48317310 127 103 86
-0.03921051 0.33464421 0.80271637 143 146 147
-0.01546276 -0.38403240 0.91294428 56 41 38
-0.01854702 -0.37776382 0.91237128 54 40 36
-0.00803201 -0.14429377 0.46841183 62 51 48
-0.00204972 -0.12883563 0.45378503 76 62 60
-0.00921376 -0.13102143 0.46956347 72 59 57
-0.00894551 -0.11187951 0.47110196 89 70 68
-0.00050889 -0.10285553 1.12700301 126 101 89
-0.00811409 -0.08398690 0.47632294 108 86 82
-0.00965522 -0.07023503 0.47797227 108 86 81
-0.01591032 -0.06396344 0.48034974 114 90 82
-0.00456369 -0.05248104 0.47640662 121 98 89
-0.01129175 -0.05041959 0.48100521 114 91 84
-0.01176508 -0.03430598 0.48256289 121 96 87
-0.00306799 -0.03226118 0.50911237 126 102 94
-0.00765506 0.12765928 0.47122262 174 175 176
-0.00194650 0.17318411 0.59371654 160 161 162
-0.00334308 0.18010679 0.59308124 172 172 172
-0.00562294 0.41726544 1.84711671 185 186 184
-0.00084093 0.42070442 1.86234021 166 166 164
0.01466088 -0.12244011 1.09603584 124 101 93
0.01281764 -0.12135644 1.10047376 124 101 94
0.01281918 -0.11124225 1.09478110 125 100 92
0.01222169 -0.10684580 1.10467614 126 102 93
0.00220887 -0.10304360 1.12271342 125 100 88
0.01226645 -0.09733535 1.10905982 127 102 93
0.00466327 -0.09752549 1.12171908 127 102 91
0.00188042 -0.03523625 0.50961443 127 104 93
0.00814578 0.13257905 0.46898727 160 164 166
0.01107994 0.14078271 0.47096547 159 162 163
0.01920502 0.17908714 0.47814666 163 168 170
0.01740490 0.17873452 0.48229436 157 165 166
0.00672545 0.17385451 0.57742107 141 145 148
0.00319832 0.17038881 0.59029354 142 145 149
0.01948977 0.18357376 0.47867614 160 165 168
0.01845213 0.18887438 0.48484691 158 163 166
0.01857455 0.41817375 1.87262940 162 168 173
0.00558154 0.42276192 1.85723794 137 137 144
0.01293723 0.42483421 1.87523380 147 148 154
0.01327589 0.42508095 1.88652972 155 156 163
0.02201019 -0.11072846 1.09646937 125 101 90
0.02309818 -0.11034506 1.10367553 126 101 91
0.02155357 -0.09837924 1.10948223 128 102 92
0.02221773 0.17921097 0.47482538 164 165 166
0.03716842 0.17160623 0.49379460 146 151 151
0.03610364 0.17861903 0.50288863 152 158 159
0.02506814 0.18590758 0.47700218 155 158 159
0.02911814 0.19069416 0.48614862 154 157 158
0.03787367 0.18232777 0.50245952 155 160 163
0.03569885 0.19626710 0.71599883 157 161 169
0.03174493 0.19786161 0.72556892 140 143 153
0.03822005 0.20892620 0.71937605 165 171 171
0.03477159 0.20759037 0.72578999 146 149 156
0.03092334 0.39595211 1.83710527 183 184 189
0.02977741 0.39710666 1.86490542 173 180 185
0.03369688 0.40446846 1.81546066 164 168 173
0.03233658 0.41035035 1.82770890 164 167 172
0.02789826 0.41271310 1.84713244 165 167 173
0.02494916 0.40837877 1.86491251 171 176 182
0.03797902 0.42543662 1.72491562 132 135 143
0.03695490 0.43092969 1.74715555 135 136 143
0.03572487 0.43427685 1.76075804 136 135 143
0.03784053 0.43651365 1.78864527 129 129 136
0.03744924 0.43216228 1.81147957 158 160 162
0.03427439 0.42733561 1.82536313 173 175 177
0.02728573 0.43129908 1.84914646 169 170 175
0.02358209 0.42768905 1.86674581 156 158 166
0.03355317 0.44429066 1.80771804 147 147 150
0.03233170 0.44436005 1.82721502 158 158 159
0.02874517 0.44555936 1.85027787 167 171 172
0.05871301 0.09864926 0.68849541 137 140 149
0.05854068 0.10129371 0.68786609 169 171 174
0.04363144 0.16831582 0.47865284 173 174 173
0.04181873 0.17272132 0.48895167 166 169 169
0.04044529 0.17973107 0.50065869 159 164 165
0.04087324 0.18368340 0.49653372 153 157 158
0.04044529 0.18059641 0.50065869 158 160 162
0.04059194 0.19800547 0.71734589 163 163 170
0.05819776 0.20977210 0.67425611 155 156 156
0.04091678 0.20365470 0.72308649 154 155 158
0.05955685 0.22853494 0.67911437 170 170 170
0.05769301 0.23241673 0.68969481 162 163 164
0.05899396 0.27309527 0.70652011 146 148 148
0.05875483 0.28024104 0.71207124 128 129 134
0.05993653 0.38390505 1.05920601 143 144 146
0.05599495 0.39271391 1.07147592 146 147 149
0.05488978 0.38723240 1.69473487 151 155 160
0.05285095 0.38892533 1.71186444 143 144 151
0.04942557 0.39131430 1.72566773 144 145 151
0.04680211 0.39343244 1.74829003 142 142 148
0.04361108 0.39576189 1.77229351 155 156 161
0.04236168 0.39990720 1.78392589 158 158 165
0.05560600 0.40219635 1.07079255 147 149 149
0.05227582 0.40366656 1.61402822 165 170 174
0.05277969 0.40332569 1.62958539 156 161 168
0.05160033 0.40747367 1.65206687 152 155 162
0.05039473 0.41027793 1.67519486 146 149 155
0.04762804 0.41704699 1.69685328 144 147 154
0.05241543 0.40839338 1.70969212 156 158 160
0.05100496 0.40741772 1.72860130 165 167 168
0.04909589 0.40878594 1.74942452 171 173 172
0.04755911 0.41045501 1.77090340 168 169 171
0.04413383 0.41132637 1.79337408 165 168 170
0.04094773 0.41675763 1.81257089 172 175 177
0.04012300 0.41638155 1.82228994 169 173 175
0.04514723 0.42126492 1.71401501 141 144 151
0.04206193 0.42453155 1.72934592 135 138 145
0.04439362 0.42378721 1.74265254 132 135 143
0.04202986 0.43042618 1.76995254 129 131 140
0.04568550 0.42062122 1.79336464 181 182 183
0.04141388 0.42768151 1.81015414 175 177 178
0.07009512 0.09314532 0.69032996 119 122 136
0.06614730 0.10227206 0.68870310 154 156 158
0.07184608 0.21088489 0.67280277 138 142 147
0.07089938 0.20443873 0.68095630 109 113 124
0.07111329 0.22430117 0.67420771 142 145 150
0.06439395 0.22139366 0.68061429 159 160 160
0.06962973 0.27265267 0.69893071 139 142 147
0.06489054 0.27357422 0.70528654 136 138 141
0.07302161 0.28438473 0.71298257 140 144 150
0.07886632 0.29394746 0.72154716 151 158 163
0.06128847 0.37911248 1.05099511 141 142 146
0.07931466 0.36099058 1.71618187 158 157 164
0.07615405 0.36843153 1.73123074 169 170 170
0.07483209 0.37620220 1.75015366 169 170 169
0.06195983 0.38409240 1.05468363 144 146 148
0.06586956 0.39477499 1.07083162 146 148 150
0.07539070 0.38782602 1.74895906 160 162 164
0.07419956 0.38803353 1.76601550 154 156 160
0.06602963 0.40265086 1.07443257 138 140 142
0.07157091 0.40372313 1.08289615 141 146 149
0.07701015 0.41115393 1.79067504 168 171 173
0.07397407 0.41662621 1.80290389 175 176 178
0.07440026 0.42374578 1.81335926 146 146 152
0.07812919 0.43171564 1.82720172 116 118 129
0.07558220 0.43523505 1.84209740 110 108 122
0.07919653 0.44081470 1.85216355 129 130 141
0.08107071 0.08939967 0.69243294 90 96 117
0.09791128 0.17890133 0.76615356 157 158 165
0.09712122 0.18912231 0.77161137 167 172 177
0.08484266 0.21040597 0.66670410 155 159 163
0.09712324 0.20377603 0.77423496 159 159 160
0.09603388 0.20492269 0.78881678 148 150 155
0.08653668 0.22299604 0.65814865 173 174 173
0.08477447 0.22197803 0.66564020 151 158 160
0.08450009 0.27952898 0.70102566 170 174 175
0.08386408 0.28533605 0.70711956 164 169 169
0.08776911 0.35917202 1.70753610 157 157 162
0.09907535 0.37205437 1.69897699 152 155 161
0.09347975 0.36769146 1.71185744 148 148 153
0.08952500 0.37080949 1.72740906 153 153 157
0.08639076 0.37713191 1.74779882 154 154 154
0.09380556 0.38529827 1.73042443 142 145 147
0.08645923 0.38880228 1.74993468 156 158 160
0.08721497 0.38842449 1.76811368 151 153 154
0.09282479 0.40676066 1.74714386 145 145 149
0.09207242 0.40987868 1.77152121 150 152 155
0.08818108 0.41619461 1.79101124 147 149 152
0.08565972 0.41740527 1.80290389 157 159 162
0.09074908 0.42272891 1.79574311 122 127 138
0.08546963 0.42546849 1.80868862 121 125 135
0.08275719 0.43113537 1.82474583 120 125 134
0.08831786 0.43841898 1.84209740 133 138 147
0.08411576 0.44141856 1.85470074 136 140 147
0.08330832 0.44892228 1.87262940 145 154 155
0.10076391 0.17935123 0.76468366 166 168 175
0.10872813 0.18924122 0.76971041 157 159 161
0.10578351 0.20372100 0.77731488 131 133 141
0.10560110 0.20777952 0.78238511 125 128 137
0.13797172 0.03875918 0.63891808 129 130 138
0.13783484 0.02914526 0.64554694 131 133 139
0.14342540 0.01937132 0.64540710 132 132 137
0.14340797 0.03945916 0.63952059 125 128 137
0.14492362 0.03046606 0.64479854 142 142 146
0.14610275 0.04109756 0.63921922 127 129 138
0.14544440 0.04118333 0.64199489 128 131 139
0.15952918 0.17800093 0.46559339 144 148 148
0.17212418 0.15984563 0.66774511 135 136 147
0.16460709 0.17837224 0.45738891 144 150 153
0.16210100 0.17755960 0.46490526 137 141 141
0.17721154 0.16697922 0.65729405 136 137 139
0.17085686 0.16481915 0.66729032 158 160 163
0.16590415 0.16549311 0.68426603 155 158 160
0.16408354 0.18082184 0.45887826 136 144 148
0.16213859 0.18429539 0.46470389 122 128 131
0.16640227 0.25152310 0.65052654 143 144 146
0.16448549 0.25807253 0.66265308 175 176 176
0.16824128 0.26162476 0.65719142 141 141 140
0.16621858 0.26235316 0.66247014 158 158 157
0.19466397 0.01149700 0.55418929 136 137 141
0.19822750 0.02214711 0.54942980 149 148 150
0.18183369 0.16919086 0.65420628 163 169 171
0.19916125 0.37449828 0.90205529 47 48 49
0.20417403 0.01474935 0.55018331 140 142 146
0.20344677 0.02210133 0.54912343 146 146 148
0.21014878 0.15709488 0.51352178 154 156 158
0.20880080 0.16411939 0.51279305 148 151 152
0.21915557 0.35806286 0.89668546 154 155 155
0.21519314 0.35758853 0.90391431 145 146 149
0.21204512 0.37182444 0.89680885 61 61 62
0.21074715 0.36756287 0.90474157 126 128 129
0.23707919 -0.30569880 1.02945861 79 64 63
0.23236395 -0.28565492 1.01725424 87 71 67
0.23521863 -0.29455047 1.02279262 86 69 66
0.23664735 -0.26236601 0.99885881 89 73 69
0.23082915 -0.26910407 1.00814783 88 73 69
0.23457602 -0.25974333 0.99984050 86 74 69
0.23171689 -0.25825060 1.00242940 90 75 71
0.23825510 0.29194411 1.65273738 163 163 168
0.23819170 0.29422246 1.66559196 158 158 165
0.23125841 0.30074510 1.67795014 134 133 145
0.23006661 0.30299509 1.69050336 126 128 142
0.22853103 0.30682272 1.71185899 121 121 138
0.23164507 0.31535977 1.73214274 138 140 150
0.22389974 0.31877629 1.74489820 185 188 185
0.23775741 0.32776437 1.73818421 120 123 130
0.23317976 0.32677008 1.74896140 155 157 160
0.22675060 0.32969460 1.76951818 163 165 166
0.22692899 0.33501176 1.78864113 153 156 160
0.22183760 0.35873744 0.89707822 153 154 153
0.22314098 0.36434784 0.89816770 140 140 139
0.22303760 0.36457182 0.90025479 141 142 140
0.24396066 -0.30760849 1.03379908 77 63 61
0.24056189 -0.28905332 1.01785564 86 71 68
0.24151314 -0.29671855 1.02815344 86 68 66
0.24492121 0.17520739 0.89549780 156 158 165
0.24542963 0.17824527 0.90791582 146 148 156
0.25230382 0.18711628 0.91586556 145 147 153
0.24997498 0.19290024 0.92673573 144 146 151
0.24741096 0.19516882 0.94335117 145 147 151
0.25465931 0.20647585 0.91501453 149 151 157
0.25233710 0.20346448 0.92669592 154 156 159
0.24710149 0.20550871 0.94217119 161 165 168
0.25114378 0.29065058 1.63741994 164 165 167
0.25061474 0.29531918 1.64996052 161 161 165
0.24743468 0.29926360 1.66968429 167 168 172
0.25359395 0.30205947 1.65339470 132 131 134
0.24967695 0.30526302 1.67089123 152 152 155
0.24717035 0.30624747 1.69558330 153 152 157
0.25119457 0.31495323 1.71099877 142 141 148
0.24604016 0.31525419 1.72888714 134 133 143
0.25266611 0.32833194 1.73080146 132 136 146
0.24017583 0.32890816 1.74265254 122 126 131
0.26842803 0.19999078 0.89906079 177 178 180
0.26832582 0.19202084 0.91464920 171 173 176
0.26567466 0.19588457 0.92338943 163 165 169
0.26721118 0.20378273 0.89412675 173 177 180
0.26588256 0.20423237 0.91087501 173 176 179
0.26616518 0.20271734 0.92512693 162 162 168
0.29277283 0.25738162 0.70787309 144 145 145
0.29186093 0.26716808 0.69564523 168 173 174
0.29377314 0.27289716 0.71013881 158 164 164
0.29489907 0.27086569 0.72188924 150 158 159
0.29335998 0.28424639 0.69921815 160 161 159
0.28875810 0.28630231 0.70892743 150 152 153
0.28713814 0.28201592 0.72274824 151 156 157
0.30257771 0.27474017 0.70589359 163 164 162
0.30416154 0.28372735 0.70702619 161 162 160
0.32819528 0.01795470 0.70673245 124 127 132
0.33269755 0.02608461 0.70820881 125 127 133
0.34073344 0.02774761 0.70724258 123 125 127
0.35929382 0.16235710 0.45117599 127 131 134
0.35865464 0.19754879 0.47356816 155 160 157
0.36341312 0.19297804 0.47615050 143 148 146
0.36799775 0.19248380 0.48181281 138 142 143
0.41620523 -0.10634030 0.64589193 143 134 125
0.41654163 -0.09280962 0.63884336 143 134 128
0.41625334 -0.09661716 0.64174444 143 133 128
0.41062159 0.06813242 0.45092646 140 147 149
0.41701862 0.09936982 0.49265397 171 172 171
0.41273426 0.10811465 0.49120101 151 154 153
0.40964630 0.11388052 0.50028920 161 162 158
0.42769394 -0.12158506 0.64860593 143 135 128
0.42616096 -0.11167194 0.65050050 143 136 124
0.42114404 0.09910989 0.49378510 163 164 159
0.42016239 0.10057858 0.49301278 155 156 155
0.42725748 0.13540651 0.75285737 170 173 173
0.42440727 0.13899483 0.76082134 172 175 174
0.42918566 0.14015254 0.75996846 135 136 143
0.43177714 0.14900082 0.76763362 153 154 158
0.45790371 0.23907880 0.85809231 170 178 177
0.45646777 0.24098332 0.85485394 168 171 173
0.45828698 0.24414716 0.87298095 162 165 167
0.45800256 0.24636514 0.88701630 141 141 144
0.47739188 -0.60243022 1.31376362 53 38 37
0.47963680 -0.60399537 1.32466033 50 37 37
0.47852519 -0.59469727 1.31374581 49 37 37
0.46412948 0.23329407 0.85863471 151 156 162
0.46701005 0.23622397 0.87140586 139 145 149
0.46934676 0.23632890 0.88789160 144 145 147
0.46273330 0.24250641 0.87409857 166 170 171
0.46470053 0.24357691 0.88843082 147 148 151
0.46901611 0.24422785 0.90289938 152 154 154
0.48561223 -0.60076097 1.31757528 50 37 36
0.48538509 -0.60490648 1.32791948 49 37 37
0.48593906 -0.59746133 1.31783338 48 37 37
0.48946394 -0.58923892 1.33343046 46 35 35
0.48986747 -0.57493307 1.33581882 43 33 33
0.49358809 -0.57378030 1.34236014 42 33 32
0.49717495 0.09556135 1.35850072 159 160 162
0.49633979 0.09659443 1.36358254 159 159 162
0.49613054 0.10897880 1.35511437 139 139 145
0.49620261 0.10187181 1.36443504 155 155 156
0.51096846 -0.58904774 1.33926684 45 34 34
0.50965226 -0.59228751 1.34697612 44 34 34
0.51991957 0.07303933 0.46083742 156 161 159
0.51115702 0.09464442 1.37101919 144 145 147
0.51653932 0.08885683 1.38204396 123 125 131
0.51512230 0.11537351 0.77185702 119 122 127
0.50832613 0.11510200 1.35559660 123 124 133
0.51168467 0.10731771 1.36739180 151 152 155
0.51702242 0.12187742 0.77068536 125 129 132
0.50574413 0.23709384 0.59752460 109 113 115
0.51088860 0.23610466 0.60915755 128 130 130
0.50527575 0.24022688 0.59814121 125 128 127
0.50931893 0.24148482 0.61058052 133 135 134
0.52012879 -0.59247291 1.36947846 43 32 34
0.52778084 0.07150868 0.45940997 110 116 121
0.52785168 0.07388058 0.46180011 147 154 153
0.52554521 0.09604531 1.37590897 147 147 151
0.52972281 0.08554517 1.39118337 143 143 145
0.53620585 0.11582762 0.58513206 152 156 154
0.52462547 0.11434258 0.77752581 127 132 137
0.53441406 0.11525699 0.78409918 122 129 136
0.52130657 0.11657718 1.35714221 107 112 120
0.52487107 0.10713820 1.37156747 144 145 150
0.52831344 0.12456490 0.57629111 156 160 159
0.53360136 0.12201495 0.58336197 145 149 149
0.52727034 0.12283740 0.77482328 151 156 154
0.53539859 0.12110706 0.78116360 162 169 167
0.52418834 0.23609610 0.61635760 115 114 119
0.52923802 0.23616293 0.62192291 118 118 119
0.54051644 0.08382480 1.39771509 139 139 142
0.54969218 0.08551843 1.40570939 155 156 159
0.54105830 0.11510725 0.58705179 159 164 162
0.54104567 0.11810819 0.77918601 133 141 146
0.54220406 0.11493582 0.78647555 128 136 140
0.54031992 0.12094072 0.78008264 168 174 173
0.57941751 -0.34914595 0.87207482 149 144 133
0.57950538 -0.11767601 0.58539885 85 95 95
0.57943565 0.11528216 0.77829146 140 148 150
0.59637147 -0.42505996 0.88707943 151 145 134
0.59127490 -0.40878220 0.87760330 152 145 133
0.59452989 -0.41582606 0.88229193 152 145 133
0.58593533 -0.34697138 0.87229773 149 143 133
0.58582538 -0.34067458 0.88267465 150 143 135
0.58793749 -0.33874076 0.87414632 150 145 132
0.58791780 -0.33919887 0.88181454 150 144 134
0.58832859 -0.12606084 0.58736030 77 94 98
0.59096270 -0.11761416 0.58657882 80 93 95
0.58248650 0.11669968 0.77877314 148 155 157
0.58630834 0.11785015 0.78344121 146 151 153
0.58936260 0.12423179 0.78659248 171 175 174
0.59657887 0.27301608 0.66595303 148 151 148
0.58781852 0.28328673 0.65814906 128 132 131
0.59637711 0.28403005 0.66602822 139 143 143
0.60974964 -0.42833987 0.88949964 152 144 136
0.60774460 -0.41814185 0.88599003 152 145 134
0.60075349 -0.11919374 0.58539885 76 92 93
0.60390828 0.11867947 0.78949939 126 131 135
0.60711885 0.12917560 0.79375860 156 160 160
0.60553747 0.12684870 0.80034459 170 171 169
0.60177291 0.27534546 0.66629906 157 159 155
0.60132109 0.28171827 0.66865800 165 169 163
0.62120625 0.12791710 0.80271637 154 160 161
0.63046012 0.31408138 0.81507509 125 131 132
0.63357674 0.31233089 0.82680713 121 129 129
0.63642195 0.32049289 0.83638754 128 133 131
0.65877799 0.21337406 0.64849363 141 147 143
0.65899986 0.22578333 0.65635134 122 128 131
0.65936124 0.22411124 0.66087475 125 132 131
0.64415083 0.30907290 0.83212243 151 158 152
0.67659539 -0.15042505 1.51880348 139 131 126
0.67731766 -0.15388500 1.53231342 124 114 112
0.67911941 -0.15676432 1.54241800 126 113 110
0.66310018 0.21666778 0.65462647 132 137 134
0.66610468 0.21786869 0.66306338 145 147 143
0.66394867 0.22563824 0.65570537 114 122 126
0.66543519 0.22667488 0.66234463 125 128 130
0.68963631 -0.16469084 1.55008364 134 129 128
0.69684714 -0.16976289 1.57649267 127 119 120
0.69899905 -0.17095561 1.58756876 120 114 113
0.68151893 -0.15711414 1.53282648 135 126 121
0.69749469 -0.15863699 1.54769826 143 135 130
0.70606974 -0.18372363 1.59291259 131 119 114
0.71444618 -0.18708921 1.60604506 135 123 119
0.71576160 -0.19472377 1.62563992 125 111 109
0.70910889 -0.16567563 1.57649267 142 134 130
0.70850119 -0.17435899 1.58998318 135 127 124
0.71668863 -0.17811207 1.60258114 144 136 131
0.72486051 -0.20225302 1.63348067 130 121 121
0.72912940 -0.20594030 1.65020187 126 117 115
0.73408082 -0.21062386 1.67381722 114 106 102
0.72052515 -0.18321879 1.59880149 141 132 126
0.72405371 -0.18528078 1.60596283 142 133 126
0.72385997 -0.19706099 1.62175083 142 133 130
0.72214904 -0.19826683 1.64337659 123 110 108
0.72259769 -0.17423775 1.59880149 143 136 132
0.72776838 -0.17672711 1.60258114 143 136 128
0.74792802 -0.22343803 1.70539099 120 110 104
0.74178866 -0.21471036 1.69474018 119 109 104
0.81563044 0.13399242 1.21704102 119 130 135
0.81481388 0.31802422 0.89668390 156 160 158
0.81630610 0.32452534 0.89112742 148 150 148
0.81891370 0.32148787 0.90205529 154 157 153
0.83435696 -0.38703850 1.17463868 147 142 132
0.83696662 -0.38512966 1.18254387 146 141 131
0.82677639 -0.37147787 1.17894232 145 139 131
0.83520786 -0.37150237 1.18775038 147 139 132
0.83988625 -0.35846075 1.18305731 145 137 130
0.83424419 0.13275602 1.23328918 116 123 128
0.83850038 0.13454597 1.24156010 104 112 118
0.83697188 0.14412428 1.22946095 106 110 119
0.82133090 0.31822550 0.90385580 158 162 161
0.82839366 0.33060114 0.91060664 158 161 157
0.83793521 0.33512938 0.92590374 155 159 154
0.83488456 0.34287308 0.91459917 168 170 167
0.83433773 0.34527255 0.92862360 173 177 171
0.84677372 -0.36966630 1.18844067 145 138 131
0.84778443 -0.35877410 1.18409145 143 138 131
0.84905016 0.13457384 1.23473435 122 129 135
0.84824437 0.13258246 1.24327078 119 127 132
0.85327343 0.15528070 0.73821469 161 164 163
0.85739943 0.15717801 0.74161390 158 160 159
0.84683664 0.14321116 1.23048142 118 124 131
0.85476176 0.16890398 0.73839823 153 157 156
0.85757104 0.16535891 0.74153110 153 155 153
0.84306903 0.33254844 0.93310259 150 155 152
0.85648464 0.33684808 0.94976778 152 156 153
0.84461335 0.34701246 0.93242272 171 176 170
0.85561408 0.34762978 0.94789886 156 161 156
0.85825849 0.36002243 0.94810051 174 174 170
0.86138570 -0.37253797 1.19874871 144 138 130
0.86235426 0.13743143 1.23445611 118 126 132
0.86317864 0.13240004 1.24156010 130 133 139
0.86708333 0.15594320 0.74334033 152 156 154
0.86596918 0.16060852 0.73924953 138 145 142
0.86703794 0.16501339 0.74226828 142 145 143
0.86343431 0.33544838 0.95747435 155 161 161
0.87438792 0.33521711 0.96924975 159 165 164
0.87288180 0.34395700 0.96980963 149 154 151
0.88389960 0.15803861 0.74521196 144 151 146
0.88228709 0.16055711 0.74493939 122 130 130
0.88298088 0.33861420 0.98103017 160 167 165
0.88043261 0.34101844 0.97819889 150 158 157
0.88857110 0.34718551 0.98977949 151 157 155
0.89691371 0.34994331 1.00131738 153 159 158
0.90315666 0.34948382 1.00848484 149 158 156
0.93455690 0.39326987 1.51993692 108 113 120
0.93759432 0.39236283 1.53063019 133 133 135
0.93878281 0.39286822 1.54417276 164 166 164
0.93770456 0.40101054 1.49976075 114 119 121
0.93857419 0.40509885 1.50531292 107 116 120
0.93851057 0.40038556 1.53716969 135 136 133
0.95932532 -0.40216415 0.97639418 92 104 109
0.95827415 -0.41264002 0.98483584 90 106 110
0.95705989 -0.39679393 0.97150979 90 106 110
0.94854813 0.37552477 1.49462362 160 162 161
0.95322970 0.37759731 1.50980727 157 159 157
0.95963892 0.37699391 1.52850670 151 152 150
0.95137312 0.37948601 1.54946911 135 136 138
0.95769745 0.37984616 1.56196272 140 142 143
0.94726856 0.38607404 1.49800883 160 163 163
0.94828912 0.39039366 1.51077284 144 149 151
0.94937408 0.39007893 1.53087027 139 143 144
0.94907630 0.38491704 1.54460610 143 145 145
0.95094812 0.38659546 1.56196272 144 147 147
0.94549980 0.40371442 1.51181849 115 121 125
0.94957978 0.40612605 1.53067536 112 117 122
0.94197500 0.40395844 1.54066324 138 139 139
0.94372646 0.47222250 1.31545111 158 160 161
0.95354900 0.47464797 1.33181620 155 158 159
0.95994037 0.47725248 1.34236014 157 158 159
0.95610806 0.48457670 1.33377731 160 162 162
0.97252311 -0.42863282 0.98996431 89 108 110
0.96303700 -0.40612650 0.97658344 89 107 112
0.96668504 -0.41477834 0.98493771 88 108 110
0.96476838 0.37619379 1.51993692 148 152 151
0.96640778 0.37780215 1.53716969 151 152 150
0.96890152 0.37663385 1.54721074 161 162 161
0.97660036 0.37777578 1.56739044 166 167 167
0.96309009 0.38365242 1.51318163 165 168 168
0.96592644 0.38198947 1.55421297 150 149 149
0.97085687 0.38309969 1.57163254 147 148 148
0.96017283 0.39749017 1.58385944 164 167 166
0.96760916 0.49042651 1.35308404 162 165 165
0.97795486 0.49331151 1.37086457 166 170 168
0.97933310 0.50346315 1.36947846 156 160 161
0.98342232 -0.42738415 0.99234015 88 108 110
0.99587446 0.17878462 1.19769128 125 129 135
0.99601313 0.18320093 1.19769177 146 154 154
0.99653027 0.18333537 1.20264753 142 149 149
0.99282705 0.37187796 1.11180987 156 163 162
0.98195657 0.37857911 1.55123997 142 144 144
0.99698573 0.37977156 1.57283485 148 148 150
0.98971006 0.38204520 1.57103127 151 152 152
0.98207343 0.38517109 1.58385944 151 150 150
0.98292315 0.49938866 1.37782896 168 171 170
0.99371801 0.49482388 1.40544808 155 160 160
0.98318112 0.50664010 1.37596953 162 167 167
0.98895542 0.51084341 1.38628477 159 164 165
0.99742141 0.50799304 1.40497077 164 170 167
0.99759096 0.52849960 1.39388839 164 168 165
1.00139141 0.17947428 1.19768882 119 122 131
1.00539154 0.17866684 1.20621324 138 141 148
1.00354847 0.18559206 1.19708846 164 171 171
1.01026562 0.19274663 1.21138462 160 165 165
1.01414224 0.19506986 1.22630009 159 162 164
1.01108229 0.20269951 1.21530395 166 170 169
1.01403129 0.20448969 1.22713106 159 164 164
1.00537886 0.36837249 1.12951006 155 163 161
1.01183044 0.37242208 1.14627898 149 158 157
1.01193476 0.38734221 1.13740885 156 162 162
1.01573047 0.38450577 1.14560816 144 153 152
1.01667166 0.38259810 1.16077375 133 141 142
1.00387692 0.38334127 1.58479109 150 151 153
1.00269687 0.50613260 1.41670340 165 170 167
1.00677799 0.51241127 1.43041025 168 173 170
1.00959980 0.52760677 1.41523230 161 165 165
1.01269579 0.52628287 1.43415119 166 169 168
1.01310115 0.53309661 1.44810583 152 156 157
1.01623120 0.53615348 1.46413378 149 151 152
1.01416290 0.54097849 1.41818380 156 160 158
1.01596260 0.54079002 1.42414248 160 164 162
1.01440790 0.54381341 1.45276995 145 146 148
1.01682160 0.54601635 1.46730387 131 131 132
1.02264658 0.19718382 1.21432829 168 172 172
1.02454457 0.19692063 1.22499619 166 170 170
1.02277815 0.19821411 1.24383819 156 157 158
1.02361679 0.20166831 1.21922994 167 172 172
1.02461538 0.20704697 1.22853663 163 168 167
1.02097303 0.38133715 1.15093321 149 158 156
1.03348938 0.39247128 1.16979451 142 150 151
1.03645253 0.39562639 1.18375158 126 133 134
1.02177250 0.39975977 1.43926084 123 125 127
1.03054315 0.39942236 1.45161510 132 133 135
1.03942728 0.39907518 1.46412921 133 134 137
1.03493526 0.40221431 1.16939994 149 159 158
1.02980295 0.40184197 1.44805884 129 131 133
1.03451401 0.40370093 1.46255147 131 132 132
1.02253243 0.53631849 1.44694918 160 168 167
1.02375241 0.54786024 1.43622442 155 161 159
1.02895594 0.55027508 1.45057674 155 160 159
1.02967099 0.55164563 1.46777419 151 154 154
1.02819816 0.55535451 1.48735648 133 133 132
1.03776431 0.56245226 1.45470357 133 142 139
1.03242307 0.56419489 1.47442310 142 146 145
1.03234670 0.56895233 1.48870325 139 142 141
1.04302418 0.39717202 1.19558018 121 127 127
1.04073560 0.40183167 1.17894232 154 163 162
1.04396706 0.40437813 1.18944772 139 146 147
1.05501803 0.40893494 1.20694276 133 139 140
1.04415467 0.40594260 1.47528672 136 136 137
1.04925976 0.40511632 1.48630539 140 141 139
1.05669200 0.41099256 1.50308609 149 149 147
1.04312813 0.55532826 1.47248262 159 163 163
1.04488644 0.56702329 1.47421999 143 147 146
1.04562822 0.57014129 1.48047302 142 147 145
1.04752171 0.56928474 1.51993692 132 131 128
1.05270606 0.57150361 1.52937609 133 133 130
1.05914319 0.57438481 1.54066324 139 139 132
1.04546058 0.58243543 1.51315141 148 156 153
1.05470852 0.58503656 1.52909148 141 146 144
1.06930596 0.37905475 1.48990095 163 164 167
1.07432061 0.37801269 1.51151150 164 168 168
1.07610391 0.38768544 1.49551029 165 166 166
1.07479982 0.38846737 1.51293441 173 176 175
1.07658102 0.39270465 1.52794396 174 176 176
1.06586051 0.41624491 1.21813548 138 145 145
1.07283419 0.41755524 1.22975478 133 140 140
1.07054210 0.41400699 1.49054301 149 153 152
1.06928653 0.40994334 1.51358967 152 154 150
1.07668184 0.40586346 1.52777038 164 166 161
1.07778347 0.40573372 1.54066324 160 163 159
1.07756126 0.42465049 1.23029375 141 145 146
1.06507605 0.57966852 1.55124801 140 139 134
1.06641412 0.58905274 1.55123997 136 136 136
1.07854128 0.58909744 1.57283485 138 137 133
1.08328801 0.37755094 1.51485914 164 166 168
1.08862394 0.37913057 1.53716969 170 172 172
1.09109807 0.37999225 1.54066324 170 171 171
1.08047771 0.39107449 1.49645728 160 161 161
1.08373014 0.39017791 1.51475429 174 175 176
1.08671607 0.38995976 1.53117462 173 176 175
1.08887899 0.38886862 1.54066324 166 169 169
1.08027637 0.41915604 1.49976075 149 155 150
1.08943526 0.40792574 1.51430241 167 169 168
1.08623387 0.40679872 1.53231498 166 168 163
1.08356524 0.40871758 1.54300292 160 162 157
1.08440057 0.43297116 1.23670822 140 144 145
1.09276673 0.43224780 1.25074317 138 143 143
1.09678650 0.42851531 1.26473240 136 142 141
1.08560199 0.44515058 1.23703301 142 148 147
1.09454856 0.44655362 1.24996466 141 147 146
1.08104956 0.59864193 1.57649267 137 138 135
1.08083832 0.58911264 1.58016741 151 152 142
1.10472079 0.41361708 1.53369721 159 161 161
1.10703376 0.41559392 1.54162038 160 161 161
1.10390408 0.43238619 1.27185484 133 137 137
1.11265349 0.43457138 1.28668623 131 135 135
1.11341286 0.43926233 1.30867636 161 161 159
1.10753566 0.42106205 1.53026110 171 174 173
1.10582419 0.44901563 1.26652532 136 139 141
1.11790157 0.44910735 1.29143883 134 135 137
1.11612000 0.44479629 1.31164100 166 167 165
1.11844909 0.44784313 1.32400751 167 168 166
1.11875683 0.46153593 1.28880972 131 135 138
1.12155211 0.41736342 1.54593551 164 168 167
1.12171352 0.43252999 1.29864335 125 130 130
1.13039775 0.43360530 1.30869520 123 127 128
1.13710918 0.43621092 1.34369315 156 157 156
1.12027323 0.42089251 1.54417276 165 169 169
1.12408762 0.45241332 1.29518095 136 137 139
1.12757657 0.44981532 1.30781822 142 144 144
1.12802764 0.45032246 1.33001012 166 168 166
1.13618656 0.44694048 1.34564714 159 162 162
1.12637627 0.46330157 1.29368675 130 135 137
1.13270385 0.46500916 1.30667570 131 133 137
1.13651752 0.46306288 1.33273288 154 160 158
1.13779744 0.46208964 1.34324793 167 174 172
1.15084884 0.43420624 1.33131142 122 127 128
1.14698519 0.43179960 1.34966441 152 155 153
1.15319672 0.43350861 1.36950583 160 161 160
1.15912616 0.43597522 1.38063514 152 152 154
1.14571662 0.45038384 1.33444606 143 145 144
1.15403011 0.44495153 1.34934515 144 148 148
1.15525007 0.45314338 1.37365933 168 172 170
1.14919488 0.46880481 1.33270210 141 144 141
1.15453553 0.46559612 1.34591721 151 152 147
1.14668496 0.46388287 1.36676204 164 169 167
1.15673983 0.47176996 1.38063514 160 168 166
1.16333293 0.43440553 1.35208022 129 132 131
1.16629376 0.44915691 1.38746712 169 171 171
1.17589033 0.45680563 1.40060294 168 171 171
1.16403878 0.47499493 1.35578370 136 138 136
1.16686377 0.46674144 1.39056638 168 174 171
1.18076956 0.45262389 1.40641463 173 174 173
1.18076956 0.46356282 1.40641463 167 174 173
1.19608176 0.76352713 1.87263513 115 122 127
1.19693855 0.77071228 1.88829445 108 113 119
1.20500664 0.46824784 1.43824442 171 173 172
1.20973736 0.46990960 1.44463944 168 172 171
1.21759015 0.48376893 1.45626771 173 178 175
1.20456937 0.75595232 1.89396977 118 121 123
1.20747367 0.75349271 1.90620202 123 123 124
1.21754277 0.75674587 1.93131578 127 127 129
1.20112594 0.76499426 1.87781680 115 123 127
1.20526879 0.76707422 1.88855948 117 122 125
1.20378355 0.77078846 1.90687756 118 119 123
1.21294063 0.76551376 1.92401570 125 126 126
1.20562480 0.78463460 1.89488238 128 133 139
1.20970384 0.79137587 1.91016057 124 126 132
1.21590900 0.79068282 1.93270314 118 121 126
1.21741247 0.80119699 1.92582905 127 126 133
1.22416317 0.47246340 1.46412921 165 168 167
1.23219077 0.48523692 1.47474809 168 172 172
1.22244528 0.75429966 1.92720851 122 122 122
1.22941118 0.75464477 1.94557296 132 133 133
1.22005403 0.76371956 1.89885676 112 116 117
1.22527748 0.76307215 1.90956205 124 124 126
1.22906268 0.76458198 1.92582905 119 120 121
1.22853858 0.77097921 1.95234568 129 130 130
1.23192501 0.77330285 1.96490383 134 137 137
1.22032654 0.79772681 1.90955448 129 134 141
1.22562054 0.79031986 1.95402806 125 127 128
1.22942168 0.78830354 1.96633184 135 136 135
1.23587942 0.79721606 1.98213995 138 139 139
1.22556494 0.80836904 1.92820280 118 120 127
1.22898249 0.81017088 1.95148981 124 125 128
1.23297393 0.81032688 1.97134230 133 134 134
1.23789108 0.81235100 1.99089327 144 145 143
1.23673415 0.82236737 1.95640188 114 115 119
1.23891222 0.82323551 1.97061586 120 120 123
1.25449800 0.74886501 1.93683386 133 134 136
1.25139721 0.75811804 1.95640727 131 132 134
1.24100846 0.76952469 1.93407482 121 122 124
1.24961342 0.76606374 1.95397031 121 122 123
1.25909448 0.77330285 1.96490383 115 116 116
1.24314940 0.79845947 1.99379957 140 141 141
1.24339586 0.82624805 1.95357883 103 105 113
1.24381167 0.82933977 1.96490383 112 113 117
1.24648884 0.82739128 1.99089327 134 135 133
1.25655955 0.84126988 1.98504627 114 115 119
1.26196796 0.75702909 1.95359498 131 132 134
1.26694122 0.75881998 1.96918786 134 135 137
1.26652330 0.76690020 1.96919614 122 124 125
1.26699185 0.84765816 1.98795259 114 119 126
1.28372192 0.76456164 1.99526992 140 141 143
1.34409918 0.26877190 1.67449754 171 175 173
1.35491724 0.27091558 1.69353712 170 177 173
1.35084587 0.31361715 1.69263756 158 164 162
1.35723138 0.31578235 1.70431843 153 160 157
1.36131406 0.27738973 1.69472957 169 175 172
1.36504122 0.27404627 1.71041079 173 179 175
1.37004048 0.28581516 1.71185900 158 163 161
1.37617067 0.29144205 1.72394522 158 162 159
1.36178935 0.31332347 1.69897699 166 170 169
1.36629577 0.31230583 1.71272793 160 165 163
1.37508321 0.30710714 1.72455637 159 161 161
1.38651036 0.29543026 1.72982236 153 158 155
1.38737535 0.30676227 1.73347645 160 161 161
1.38776064 0.30631790 1.74265254 156 157 157
1.39560521 0.73570776 1.64536858 87 91 94
1.40404081 0.29799566 1.72931588 153 154 150
1.40583289 0.29728180 1.74265254 142 147 142
1.40613878 0.30175640 1.73375005 162 163 159
1.41156749 0.30602823 1.75043998 163 165 163
1.40982461 0.71864444 1.64536858 118 126 125
1.41346898 0.72959538 1.65407832 103 112 114
1.41850781 0.73898828 1.66558194 94 94 101
1.41355193 0.74623887 1.67107213 89 92 95
1.41661696 0.75276353 1.69005476 99 103 103
1.41777596 0.75443736 1.70539099 90 90 96
1.41742714 0.77204935 1.70467595 118 125 125
1.42737845 0.73449761 1.67176604 100 110 112
1.43323636 0.73943579 1.68629813 96 104 108
1.42593408 0.74386311 1.67656910 90 92 98
1.42873257 0.74854751 1.69263226 81 85 90
1.42986568 0.75367927 1.71152313 83 83 89
1.43028200 0.75786015 1.72491562 85 84 88
1.42639327 0.76261473 1.69897699 133 135 131
1.42636204 0.76840958 1.71000841 127 129 128
1.43266308 0.76842361 1.73079958 99 102 104
1.43896520 0.77318311 1.74265254 97 100 105
1.43045574 0.78220254 1.71618187 115 119 120
1.43552093 0.78583941 1.73485577 115 122 121
1.43745917 0.78824332 1.74265254 121 128 128
1.44626693 0.74606772 1.69473664 91 101 102
1.44469678 0.74981123 1.70324588 81 88 92
1.44418383 0.77215609 1.74714386 102 104 105
1.44554955 0.78876860 1.74940898 115 122 123
1.45419433 0.79220743 1.76627479 120 127 128
1.44711339 0.80044043 1.75619650 123 127 127
1.45919919 0.80575478 1.77458596 133 134 134
1.46252203 0.79418906 1.77614665 115 121 124
1.46687925 0.81307894 1.78392589 126 130 131
1.47936821 0.81861258 1.80290389 137 139 139
1.47464049 0.82048064 1.79336464 112 113 117
1.47706413 0.82392001 1.80771160 122 127 127
1.48727918 0.82612300 1.81254506 126 131 130
1.49585962 0.83205702 1.82556446 124 128 129
1.53282579 -0.60148698 1.60637879 94 104 107
1.53317781 -0.59204772 1.59838351 86 106 108
1.53417925 -0.58835680 1.60418015 85 104 106
1.53502406 -0.56917531 1.60790685 88 102 107
1.52467430 -0.55627763 1.59880149 95 103 112
1.55864596 -0.62233651 1.64937186 90 104 108
1.55006529 -0.60621704 1.63283565 91 103 107
1.55471594 -0.61215003 1.64371020 93 104 108
1.54199739 -0.58616041 1.61260653 85 103 106
1.54727355 -0.59001841 1.62813867 86 103 106
1.55582502 -0.59006473 1.64188260 86 102 106
1.54203427 -0.56580553 1.61020048 89 100 106
1.54969049 -0.57206182 1.62798460 88 101 107
1.55847425 -0.57563294 1.64138460 88 101 108
1.56340122 -0.62328925 1.64937838 90 104 108
1.56102377 -0.61161552 1.64737022 92 105 108
1.56244793 -0.58556346 1.64857121 86 102 106
1.56055069 -0.57674575 1.64536858 87 100 109
1.86864889 0.15643413 1.87781680 157 161 160
1.87709427 0.15849601 1.88303292 156 160 159
1.86348689 0.16409372 1.87262940 167 175 170
1.87492450 0.16500534 1.88303292 166 173 169
1.89361560 0.13839162 1.87522310 114 123 122
1.88348150 0.15311474 1.85723794 157 162 162
1.89241803 0.15042673 1.87287559 152 156 156
1.89622063 0.15194501 1.88973536 153 157 156
1.89153890 0.16247619 1.87263894 152 156 155
1.89171933 0.16602159 1.89116854 161 167 164
1.89337889 0.16481876 1.90597852 162 170 166
1.90110540 0.14507434 1.87781680 145 151 149
1.90067220 0.15938146 1.89355266 152 157 157
1.90110540 0.16779391 1.87781680 153 159 158
1.90779626 0.17010543 1.89391808 148 151 151
1.90954926 0.16901890 1.90634217 153 158 156
1.91536725 0.16852587 1.92310125 161 167 166
1.92003477 0.17393038 1.90955448 142 145 145
1.93347514 0.17647753 1.93023093 150 155 154
1.92895347 0.16540511 1.94517428 158 166 162
1.92122388 0.18002430 1.90419054 141 145 146
1.94518852 0.17742899 1.94796503 163 169 167
1.95361829 0.18157893 1.95640188 159 166 164
1.96895349 0.18517320 1.97062691 162 171 167
