ply
format ascii 1.0
element vertex 1060
property float x
property float y
property float z
property uchar red
property uchar green
property uchar blue
end_header
0.61251712 0.13685517 0.80223888 152 152 149
0.61245412 0.13653202 0.80034459 149 149 147
0.61239141 0.13621038 0.79845917 143 143 141
0.61449528 0.13637102 0.79940075 142 141 140
0.61806351 0.13685517 0.80223888 142 141 140
0.61945015 0.13685517 0.80223888 143 142 141
0.62083673 0.13685517 0.80223888 140 140 140
0.62296057 0.13701732 0.80318940 135 134 134
0.62360996 0.13685517 0.80223888 130 130 130
0.62712532 0.13701732 0.80318940 133 133 132
0.62776977 0.13685517 0.80223888 126 126 124
0.63139802 0.13734278 0.80509722 118 119 117
0.64153570 0.13832849 0.81087542 113 112 110
0.64140278 0.13799836 0.80894017 98 97 95
0.63974726 0.13734278 0.80509722 99 96 95
0.63961953 0.13701732 0.80318940 106 102 101
0.64253038 0.13734278 0.80509722 112 108 108
0.64315808 0.13717985 0.80414218 111 110 112
0.48378786 0.09478903 0.55564904 136 137 139
0.48355916 0.09455652 0.55428606 132 133 135
0.48412135 0.09447926 0.55383319 128 129 129
0.48389259 0.09424827 0.55247909 131 131 131
0.48445269 0.09417152 0.55202919 135 135 135
0.48540682 0.09417152 0.55202919 135 135 135
0.48596522 0.09409489 0.55158001 138 138 138
-0.16885900 0.17672360 1.02555501 97 92 99
-0.16407274 0.17539684 1.01785564 105 103 110
-0.16255754 0.17566060 1.01938617 116 116 120
-0.16079561 0.17566060 1.01938617 119 119 122
-0.15879489 0.17539684 1.01785564 123 124 126
-0.15703562 0.17539684 1.01785564 122 122 124
-0.15305743 0.17487171 1.01480818 116 114 116
0.60835731 0.13824177 0.80223888 137 137 135
0.61046636 0.13840556 0.80318940 135 135 133
0.61258042 0.13856976 0.80414218 139 139 137
0.61324281 0.13840556 0.80318940 147 147 145
0.61317807 0.13807836 0.80129057 154 154 152
0.61311358 0.13775271 0.79940075 153 153 151
0.61594796 0.13807836 0.80129057 148 148 146
0.61952984 0.13856976 0.80414218 148 147 145
0.61945015 0.13824177 0.80223888 148 147 145
0.62083673 0.13824177 0.80223888 147 146 144
0.62369955 0.13856976 0.80414218 144 143 141
0.62360996 0.13824177 0.80223888 133 133 132
0.62573707 0.13840556 0.80318940 132 132 131
0.62712532 0.13840556 0.80318940 133 133 131
0.62776977 0.13824177 0.80223888 132 132 130
0.63064903 0.13856976 0.80414218 128 128 126
0.63278955 0.13873433 0.80509722 114 114 112
0.63632840 0.13889928 0.80605453 122 122 119
0.63848078 0.13906464 0.80701411 131 129 127
0.63987565 0.13906464 0.80701411 132 129 127
0.63898838 0.13856976 0.80414218 132 129 127
0.63810742 0.13807836 0.80129057 132 129 127
0.64024919 0.13824177 0.80223888 132 129 128
0.64163578 0.13824177 0.80223888 131 128 129
0.48243201 0.09567101 0.55519396 148 147 147
0.48260114 0.09551455 0.55428606 140 140 141
0.48237592 0.09528083 0.55292970 134 134 135
0.48254442 0.09512565 0.55202919 125 124 124
0.48232025 0.09489383 0.55068386 128 126 125
0.48248816 0.09473990 0.54979062 141 139 139
0.48343843 0.09473990 0.54979062 147 144 143
0.48399615 0.09466313 0.54934508 147 144 143
-0.17167045 0.17958292 1.03179884 155 153 150
-0.16860394 0.17822656 1.02400577 143 142 142
-0.16633151 0.17768973 1.02092147 123 123 123
-0.16407274 0.17715612 1.01785564 123 122 123
-0.16255754 0.17742252 1.01938617 127 127 130
-0.16079561 0.17742252 1.01938617 129 128 131
-0.15855682 0.17689052 1.01632965 126 123 126
-0.15680018 0.17689052 1.01632965 124 120 123
-0.15481143 0.17662571 1.01480818 120 116 119
-0.15282863 0.17636171 1.01329124 118 114 117
0.61390370 0.13962838 0.80223888 151 151 149
0.61383742 0.13929868 0.80034459 151 151 149
0.61594796 0.13946334 0.80129057 147 147 145
0.61952984 0.13995965 0.80414218 144 143 141
0.62018406 0.13979381 0.80318940 145 144 142
0.62083673 0.13962838 0.80223888 151 150 148
0.62444025 0.14012587 0.80509722 147 146 144
0.62434882 0.13979381 0.80318940 143 143 141
0.62786925 0.13995965 0.80414218 142 142 140
0.62925911 0.13995965 0.80414218 138 138 136
0.63214880 0.14029248 0.80605453 132 132 130
0.63278955 0.14012587 0.80509722 117 117 114
0.63493520 0.14029248 0.80605453 112 112 108
0.63708591 0.14045951 0.80701411 124 124 120
0.63848078 0.14045951 0.80701411 140 140 136
0.63987565 0.14045951 0.80701411 141 141 137
0.63898838 0.13995965 0.80414218 143 143 138
0.63810742 0.13946334 0.80129057 147 147 142
0.64100778 0.13979381 0.80318940 152 152 147
0.64163578 0.13962838 0.80223888 156 155 152
0.48203725 0.09655154 0.55473965 163 162 159
0.48220685 0.09639378 0.55383319 157 157 155
0.48159027 0.09607979 0.55202919 153 153 151
0.48136842 0.09584564 0.55068386 146 144 142
0.48114768 0.09561262 0.54934508 144 140 138
0.48131707 0.09545791 0.54845619 158 154 152
0.48226503 0.09545791 0.54845619 161 158 153
-0.17140955 0.18109067 1.03023076 154 150 145
-0.16860394 0.17999648 1.02400577 140 139 137
-0.16633151 0.17945431 1.02092147 131 131 129
-0.16407274 0.17891541 1.01785564 128 129 128
-0.16280235 0.17945431 1.02092147 141 142 144
-0.16079561 0.17918445 1.01938617 116 114 118
-0.15879489 0.17891541 1.01785564 117 111 117
-0.15703562 0.17891541 1.01785564 116 110 114
-0.15481143 0.17837973 1.01480818 113 107 112
-0.15282863 0.17811310 1.01329124 110 104 108
0.61522079 0.14068201 0.80034459 160 160 153
0.61879581 0.14118207 0.80318940 157 156 145
0.61945015 0.14101498 0.80223888 153 153 143
0.62083673 0.14101498 0.80223888 157 156 152
0.62851357 0.14118207 0.80318940 152 152 148
0.63139802 0.14151742 0.80509722 144 144 141
0.63278955 0.14151742 0.80509722 137 138 134
0.63418108 0.14151742 0.80509722 130 131 127
0.63632840 0.14168568 0.80605453 131 132 128
0.63848078 0.14185436 0.80701411 139 139 135
0.63911480 0.14168568 0.80605453 140 141 137
0.63898838 0.14134954 0.80414218 140 141 136
0.63735408 0.14068201 0.80034459 145 146 138
0.64024919 0.14101498 0.80223888 150 152 144
0.64163578 0.14101498 0.80223888 153 152 147
0.48164308 0.09743063 0.55428606 159 159 153
0.48181322 0.09727156 0.55338109 159 160 154
0.48080721 0.09687614 0.55113161 159 160 154
0.48019817 0.09656212 0.54934508 159 159 153
0.48036912 0.09640588 0.54845619 160 159 151
0.48053950 0.09625013 0.54757017 167 166 159
0.48148593 0.09625013 0.54757017 167 165 158
-0.17424949 0.18398982 1.03653193 142 141 137
-0.17167045 0.18314968 1.03179884 139 138 136
-0.16885900 0.18204136 1.02555501 131 132 132
-0.16658239 0.18149222 1.02246130 131 131 131
-0.16431946 0.18094638 1.01938617 126 127 127
-0.16304791 0.18149222 1.02246130 124 125 129
-0.16103777 0.18121889 1.02092147 105 106 110
-0.15879489 0.18067469 1.01785564 104 103 107
-0.15703562 0.18067469 1.01785564 99 96 100
-0.15481143 0.18013375 1.01480818 98 95 98
-0.15282863 0.17986450 1.01329124 84 81 84
0.61449528 0.14189781 0.79940075 173 170 160
0.61806351 0.14240159 0.80223888 170 165 156
0.61945015 0.14240159 0.80223888 168 163 154
0.62083673 0.14240159 0.80223888 170 165 158
0.62776977 0.14240159 0.80223888 158 154 150
0.63139802 0.14290896 0.80509722 149 146 143
0.63278955 0.14290896 0.80509722 142 140 136
0.63418108 0.14290896 0.80509722 139 139 135
0.63557267 0.14290896 0.80509722 136 136 132
0.63696420 0.14290896 0.80509722 137 138 134
0.63911480 0.14307889 0.80605453 139 140 136
0.63823128 0.14257032 0.80318940 143 144 140
0.63660246 0.14189781 0.79940075 148 150 143
0.64024919 0.14240159 0.80223888 150 152 144
0.48102784 0.09806792 0.55247909 160 160 153
0.47924867 0.09751163 0.54934508 160 160 153
0.47942114 0.09735384 0.54845619 162 162 155
0.47959307 0.09719656 0.54757017 166 166 157
0.48015165 0.09711812 0.54712820 170 170 161
0.48109731 0.09711812 0.54712820 171 171 162
-0.17319022 0.18465202 1.03023076 121 121 120
-0.17089014 0.18409246 1.02710891 126 126 128
-0.16860394 0.18353629 1.02400577 132 132 134
-0.16658239 0.18325946 1.02246130 131 131 134
-0.16407274 0.18243398 1.01785564 114 114 118
-0.16280235 0.18298347 1.02092147 105 106 110
-0.16103777 0.18298347 1.02092147 93 93 97
-0.15879489 0.18243398 1.01785564 95 95 99
-0.15703562 0.18243398 1.01785564 92 92 94
-0.15481143 0.18188776 1.01480818 82 82 85
-0.15237311 0.18107454 1.01027095 85 86 90
0.61667693 0.14378819 0.80223888 175 171 163
0.61879581 0.14395855 0.80318940 171 166 158
0.62018406 0.14395855 0.80318940 169 164 155
0.62157232 0.14395855 0.80318940 168 161 154
0.62444025 0.14430051 0.80509722 163 155 149
0.62861490 0.14430051 0.80509722 157 149 145
0.62925911 0.14412934 0.80414218 158 149 147
0.63214880 0.14447209 0.80605453 161 150 150
0.63278955 0.14430051 0.80509722 159 149 149
0.63418108 0.14430051 0.80509722 147 143 140
0.63557267 0.14430051 0.80509722 137 133 130
0.63696420 0.14430051 0.80509722 138 136 132
0.63911480 0.14447209 0.80605453 147 147 143
0.63823128 0.14395855 0.80318940 157 157 153
0.63660246 0.14327951 0.79940075 159 160 155
0.48063615 0.09894221 0.55202919 162 160 151
0.47886062 0.09838139 0.54890031 165 162 154
0.47864664 0.09814299 0.54757017 171 169 160
0.47920600 0.09806378 0.54712820 170 169 159
-0.17240418 0.18558654 1.02555501 116 115 114
-0.17063160 0.18558654 1.02555501 122 121 121
-0.16834962 0.18502671 1.02246130 116 115 115
-0.16633151 0.18474805 1.02092147 107 107 108
-0.16407274 0.18419325 1.01785564 99 98 102
-0.16280235 0.18474805 1.02092147 88 88 95
-0.16079561 0.18447024 1.01938617 78 77 86
-0.15879489 0.18419325 1.01785564 86 85 94
-0.15703562 0.18419325 1.01785564 82 81 88
-0.15481143 0.18364178 1.01480818 89 88 95
-0.15260053 0.18309359 1.01177883 92 93 100
0.61463106 0.14534681 0.80318940 172 170 161
0.61529028 0.14517480 0.80223888 172 169 161
0.61667693 0.14517480 0.80223888 173 170 162
0.61879581 0.14534681 0.80318940 174 169 162
0.62018406 0.14534681 0.80318940 171 166 159
0.62157232 0.14534681 0.80318940 169 162 155
0.62444025 0.14569205 0.80509722 164 154 149
0.62861490 0.14569205 0.80509722 149 138 136
0.62925911 0.14551923 0.80414218 151 140 139
0.63290131 0.14603893 0.80701411 152 141 143
0.63354200 0.14586529 0.80605453 152 140 142
0.63418108 0.14569205 0.80509722 146 135 135
0.63696420 0.14569205 0.80509722 143 135 134
0.63911480 0.14586529 0.80605453 147 146 142
0.63823128 0.14534681 0.80318940 155 154 150
0.63660246 0.14466120 0.79940075 158 158 152
0.47808638 0.09916953 0.54801279 168 165 155
0.47826034 0.09900945 0.54712820 172 169 159
0.47881955 0.09892960 0.54668695 171 168 158
-0.17063160 0.18735914 1.02555501 122 117 114
-0.16860394 0.18707611 1.02400577 113 110 109
-0.16658239 0.18679395 1.02246130 109 108 109
-0.16456693 0.18651263 1.02092147 102 101 110
-0.16329420 0.18707611 1.02400577 92 91 100
-0.16128066 0.18679395 1.02246130 86 85 94
-0.15951343 0.18679395 1.02246130 90 89 98
0.61390370 0.14656140 0.80223888 165 163 156
0.61456299 0.14638816 0.80129057 167 167 160
0.61594796 0.14638816 0.80129057 171 170 163
0.61806351 0.14656140 0.80223888 173 170 162
0.61871791 0.14638816 0.80129057 171 167 160
0.62083673 0.14656140 0.80223888 170 163 157
0.62369955 0.14690912 0.80414218 170 156 154
0.62508947 0.14690912 0.80414218 160 146 144
0.62712532 0.14673506 0.80318940 153 137 139
0.62776977 0.14656140 0.80223888 150 134 136
0.63139802 0.14708360 0.80509722 146 133 135
0.63278955 0.14708360 0.80509722 146 133 135
0.63342881 0.14690912 0.80414218 146 135 136
0.63481867 0.14690912 0.80414218 147 138 139
0.63620859 0.14690912 0.80414218 149 142 142
0.63835573 0.14708360 0.80509722 145 145 141
0.63747597 0.14656140 0.80223888 147 146 142
0.63585263 0.14587089 0.79845917 150 150 144
0.47766390 0.09963346 0.54536754 155 155 145
-0.17011687 0.18856119 1.02246130 126 120 123
-0.16834962 0.18856119 1.02246130 106 104 108
-0.16633151 0.18827721 1.02092147 99 99 103
-0.16431946 0.18799409 1.01938617 98 98 107
-0.16329420 0.18884602 1.02400577 95 94 103
-0.16128066 0.18856119 1.02246130 96 96 104
-0.15951343 0.18856119 1.02246130 104 104 109
0.61594796 0.14777313 0.80129057 151 152 147
0.61806351 0.14794801 0.80223888 156 155 150
0.61871791 0.14777313 0.80129057 161 160 155
0.62010288 0.14777313 0.80129057 166 164 159
0.62369955 0.14829901 0.80414218 175 166 165
0.62508947 0.14829901 0.80414218 169 159 158
0.62712532 0.14812331 0.80318940 153 139 143
0.62702769 0.14777313 0.80129057 150 136 139
0.63203889 0.14829901 0.80414218 148 136 138
0.63342881 0.14829901 0.80414218 148 137 139
0.63406652 0.14812331 0.80318940 149 140 141
0.63545477 0.14812331 0.80318940 149 140 142
0.63835573 0.14847514 0.80509722 147 145 140
0.63672245 0.14777313 0.80129057 147 147 140
0.63510460 0.14707772 0.79751980 151 151 144
-0.17011687 0.19032843 1.02246130 109 106 112
-0.16809610 0.19004180 1.02092147 93 92 100
-0.16304791 0.19032843 1.02246130 100 99 105
-0.16103777 0.19004180 1.02092147 104 103 107
-0.15903369 0.18975601 1.01938617 106 105 109
-0.15703562 0.18947110 1.01785564 105 104 108
0.61733294 0.14915809 0.80129057 152 152 148
0.61871791 0.14915809 0.80129057 154 154 150
0.61937076 0.14898199 0.80034459 157 157 153
0.63129008 0.14951155 0.80318940 139 131 134
0.63342881 0.14968891 0.80414218 140 133 136
0.63406652 0.14951155 0.80318940 140 134 136
0.63545477 0.14951155 0.80318940 141 134 136
0.63835573 0.14986669 0.80509722 143 139 138
0.63747597 0.14933461 0.80223888 147 146 143
-0.17037384 0.19238585 1.02400577 86 85 92
-0.16834962 0.19209567 1.02246130 88 87 95
-0.15927319 0.19180638 1.02092147 113 111 115
0.61945015 0.15072122 0.80223888 157 157 156
0.63406652 0.15089980 0.80318940 138 136 136
0.63747597 0.15072122 0.80223888 149 148 146
-0.17063160 0.19444948 1.02555501 83 82 90
-0.16860394 0.19415575 1.02400577 87 86 95
-0.16683403 0.19415575 1.02400577 92 92 101
-0.15951343 0.19386292 1.02246130 116 114 123
-0.15727176 0.19327986 1.01938617 121 119 126
-0.15504353 0.19270031 1.01632965 130 128 135
-0.15282863 0.19212423 1.01329124 115 113 118
-0.11488079 0.17439771 0.91979897 112 111 117
-0.11252757 0.17322253 0.91360086 122 123 123
-0.11050171 0.17252499 0.90992194 118 119 120
-0.10505690 0.17392573 0.91730964 110 105 109
-0.09660652 0.17298938 0.91237128 188 184 183
-0.09477445 0.17252499 0.90992194 186 182 179
-0.09307679 0.17229371 0.90870219 187 183 180
0.61945015 0.15210782 0.80223888 154 154 154
-0.17089014 0.19651937 1.02710891 86 85 94
-0.16885900 0.19622208 1.02555501 87 87 96
-0.16708642 0.19622208 1.02555501 90 90 99
-0.16225961 0.19681759 1.02866745 112 111 120
-0.16023849 0.19651937 1.02710891 122 117 127
-0.15750861 0.19533554 1.02092147 131 125 135
-0.15527633 0.19474894 1.01785564 140 133 143
-0.15282863 0.19387563 1.01329124 135 126 133
-0.11726615 0.17718960 0.92608178 101 98 103
-0.11488079 0.17598751 0.91979897 99 95 100
-0.11252757 0.17480160 0.91360086 88 86 91
-0.11050171 0.17409770 0.90992194 83 81 87
-0.10863734 0.17363158 0.90748572 88 87 92
-0.10707708 0.17622662 0.92104870 121 121 121
-0.10534200 0.17598751 0.91979897 125 125 125
-0.10403452 0.17646639 0.92230183 140 141 141
-0.10230121 0.17622662 0.92104870 150 150 150
-0.09989489 0.17480160 0.91360086 167 167 167
-0.09831581 0.17480160 0.91360086 177 177 176
-0.09660652 0.17456634 0.91237128 177 174 174
-0.09452070 0.17363158 0.90748572 181 175 175
-0.09282792 0.17339945 0.90627253 182 175 175
-0.09138367 0.17363158 0.90748572 184 180 177
0.61945015 0.15349443 0.80223888 149 149 146
-0.17266540 0.19829465 1.02710891 89 88 97
-0.17089014 0.19829465 1.02710891 93 93 102
-0.16885900 0.19799466 1.02555501 99 99 108
-0.16733958 0.19829465 1.02710891 109 109 118
-0.16506411 0.19769558 1.02400577 111 114 122
-0.16378903 0.19829465 1.02710891 111 112 119
-0.16225961 0.19859555 1.02866745 115 114 121
-0.15999606 0.19799466 1.02555501 116 114 121
-0.15750861 0.19710012 1.02092147 125 119 125
-0.15504353 0.19621360 1.01632965 118 112 117
-0.15282863 0.19562702 1.01329124 110 101 104
-0.15085176 0.19533503 1.01177883 108 99 102
-0.12112937 0.17977263 0.93117011 94 94 96
-0.11951992 0.17977263 0.93117011 88 89 91
-0.11726615 0.17879027 0.92608178 94 93 96
-0.11488079 0.17757730 0.91979897 95 93 97
-0.11267943 0.17661873 0.91483378 96 93 99
-0.11094849 0.17638069 0.91360086 67 66 71
-0.10907540 0.17590655 0.91114497 121 121 124
-0.10852160 0.17757730 0.91979897 140 141 141
-0.10751533 0.17854635 0.92481834 173 174 174
-0.10562864 0.17806050 0.92230183 178 178 178
-0.10417625 0.17830309 0.92355835 174 174 172
-0.10244039 0.17806050 0.92230183 179 179 176
-0.10002970 0.17661873 0.91483378 181 181 178
-0.09831581 0.17638069 0.91360086 181 181 177
-0.09660652 0.17614330 0.91237128 181 180 178
-0.09464741 0.17543495 0.90870219 188 181 181
-0.09295218 0.17520010 0.90748572 188 179 180
-0.09138367 0.17520010 0.90748572 188 179 178
-0.19485047 0.20283587 1.04130852 136 136 137
-0.19305065 0.20283587 1.04130852 121 121 122
-0.19066508 0.20221463 1.03811920 117 117 117
-0.18044814 0.19886468 1.02092147 100 100 100
-0.17841488 0.19856565 1.01938617 90 89 92
-0.17638770 0.19826750 1.01785564 86 85 91
-0.17240418 0.19976725 1.02555501 99 99 107
-0.17063160 0.19976725 1.02555501 106 110 116
-0.16860394 0.19946548 1.02400577 109 112 117
-0.16683403 0.19946548 1.02400577 112 116 118
-0.16456693 0.19886468 1.02092147 113 115 119
-0.16329420 0.19946548 1.02400577 119 120 124
-0.16176866 0.19976725 1.02555501 122 122 125
-0.15951343 0.19916464 1.02246130 111 111 111
-0.15727176 0.19856565 1.01938617 138 138 138
-0.15504353 0.19797024 1.01632965 145 145 144
-0.15282863 0.19737841 1.01329124 141 142 139
-0.15085176 0.19708382 1.01177883 133 130 130
-0.12223510 0.18063769 0.92734861 91 89 92
-0.12079751 0.18088514 0.92861897 89 90 93
-0.11919247 0.18088514 0.92861897 84 84 87
-0.11694662 0.17989939 0.92355835 95 95 98
-0.11441505 0.17844075 0.91607004 104 104 106
-0.11252757 0.17795977 0.91360086 111 111 115
-0.11079916 0.17772026 0.91237128 100 101 102
-0.10892899 0.17724316 0.90992194 148 149 150
-0.10764524 0.17772026 0.91237128 176 177 176
-0.10664240 0.17868221 0.91730964 190 190 189
-0.10491493 0.17844075 0.91607004 190 190 188
-0.10347141 0.17868221 0.91730964 189 189 185
-0.10188591 0.17868221 0.91730964 191 191 187
-0.09962635 0.17748138 0.91114497 192 190 187
-0.09791990 0.17724316 0.90992194 191 187 184
-0.09647667 0.17748138 0.91114497 187 187 183
-0.09439434 0.17653230 0.90627253 190 186 183
-0.09245710 0.17582710 0.90265226 191 185 183
-0.09113966 0.17629661 0.90506256 192 184 182
-0.08886347 0.17489557 0.89787000 190 186 181
-0.08708090 0.17443350 0.89549780 189 184 180
-0.08553310 0.17443350 0.89549780 188 184 181
-0.19725630 0.20526631 1.04451752 134 133 135
-0.19515024 0.20495051 1.04291058 123 123 125
-0.19334766 0.20495051 1.04291058 118 118 120
-0.19095752 0.20432183 1.03971136 115 116 118
-0.18072031 0.20093188 1.02246130 96 96 99
-0.17868358 0.20062926 1.02092147 99 99 103
-0.17638770 0.20002678 1.01785564 105 105 109
-0.17214376 0.20123540 1.02400577 118 118 121
-0.17037384 0.20123540 1.02400577 121 123 126
-0.16834962 0.20093188 1.02246130 121 123 124
-0.16658239 0.20093188 1.02246130 122 123 124
-0.16431946 0.20032758 1.01938617 114 114 114
-0.16304791 0.20093188 1.02246130 116 116 117
-0.16152430 0.20123540 1.02400577 118 118 119
-0.15927319 0.20062926 1.02092147 116 116 116
-0.15703562 0.20002678 1.01785564 146 146 143
-0.15504353 0.19972689 1.01632965 163 164 157
-0.15282863 0.19912980 1.01329124 162 163 154
-0.15085176 0.19883259 1.01177883 149 149 143
-0.14932585 0.19912980 1.01329124 136 136 131
-0.12123998 0.18075690 0.91979897 67 64 69
-0.11981275 0.18100250 0.92104870 77 76 83
-0.11806038 0.18075690 0.91979897 76 75 75
-0.11584187 0.17978115 0.91483378 100 99 101
-0.11395308 0.17929722 0.91237128 115 115 118
-0.11192421 0.17857619 0.90870219 129 130 130
-0.11035359 0.17857619 0.90870219 131 132 132
-0.10849211 0.17809871 0.90627253 167 167 167
-0.10706883 0.17833713 0.90748572 192 191 189
-0.10578354 0.17881589 0.90992194 195 191 190
-0.10421081 0.17881589 0.90992194 195 192 191
-0.10291436 0.17929722 0.91237128 198 194 193
-0.10147397 0.17953886 0.91360086 196 192 191
-0.09935926 0.17857619 0.90870219 196 192 191
-0.09739696 0.17786093 0.90506256 193 188 188
-0.09608922 0.17833713 0.90748572 192 189 187
-0.09401727 0.17738727 0.90265226 194 189 187
-0.09196726 0.17644747 0.89787000 193 188 186
-0.09077607 0.17715138 0.90145195 194 189 184
-0.20305717 0.20932947 1.05590630 129 128 130
-0.20029616 0.20835584 1.05099511 128 127 130
-0.19817236 0.20803331 1.04936814 123 123 127
-0.19605511 0.20771177 1.04774630 110 110 113
-0.19424418 0.20771177 1.04774630 107 107 110
-0.19184022 0.20707168 1.04451752 105 105 107
-0.18072031 0.20269912 1.02246130 95 95 98
-0.17841488 0.20208950 1.01938617 110 110 112
-0.17638770 0.20178606 1.01785564 122 123 124
-0.17462842 0.20178606 1.01785564 125 126 128
-0.17312910 0.20208950 1.01938617 129 130 132
-0.17188412 0.20269912 1.02246130 124 124 126
-0.16986068 0.20239384 1.02092147 122 123 125
-0.16809610 0.20239384 1.02092147 120 120 122
-0.16658239 0.20269912 1.02246130 117 117 119
-0.16431946 0.20208950 1.01938617 112 112 114
-0.16304791 0.20269912 1.02246130 108 108 110
-0.16128066 0.20269912 1.02246130 117 117 119
-0.15903369 0.20208950 1.01938617 126 126 126
-0.15727176 0.20208950 1.01938617 139 139 136
-0.15504353 0.20148353 1.01632965 153 153 149
-0.15282863 0.20088120 1.01329124 149 150 141
-0.15107724 0.20088120 1.01329124 140 141 134
-0.14954939 0.20118192 1.01480818 139 140 133
-0.11916511 0.18160746 0.91607004 99 98 99
-0.11726483 0.18111795 0.91360086 109 108 110
-0.11364716 0.18038861 0.90992194 119 119 125
-0.11147591 0.17942525 0.90506256 130 131 135
-0.10991158 0.17942525 0.90506256 146 146 148
-0.10805871 0.17894742 0.90265226 172 171 173
-0.10664055 0.17918602 0.90385580 194 192 192
-0.10535927 0.17966513 0.90627253 193 189 189
-0.10365427 0.17942525 0.90506256 195 191 190
-0.10263808 0.18038861 0.90992194 195 191 190
-0.10133740 0.18087418 0.91237128 197 193 192
-0.09922625 0.17990564 0.90748572 198 193 192
-0.09713759 0.17894742 0.90265226 196 190 188
-0.09596076 0.17966513 0.90627253 196 190 188
-0.09376755 0.17847213 0.90025479 197 191 189
-0.09184562 0.17776391 0.89668232 196 190 188
-0.20497280 0.21314654 1.06586766 122 121 124
-0.20217687 0.21214585 1.06086361 118 118 120
-0.19940707 0.21115452 1.05590630 107 107 109
-0.19696842 0.21049875 1.05262709 92 92 94
-0.19514903 0.21049875 1.05262709 90 90 92
-0.19243322 0.20952272 1.04774630 87 86 88
-0.19003485 0.20887704 1.04451752 88 87 89
-0.18793990 0.20855568 1.04291058 95 95 97
-0.18443483 0.20664817 1.03337169 107 107 110
-0.18154177 0.20539576 1.02710891 111 112 113
-0.17895308 0.20446636 1.02246130 121 122 124
-0.17665295 0.20385143 1.01938617 128 129 131
-0.17515442 0.20415843 1.02092147 120 121 123
-0.17338984 0.20415843 1.02092147 114 115 117
-0.17214376 0.20477523 1.02400577 109 110 112
-0.17011687 0.20446636 1.02246130 110 110 112
-0.16809610 0.20415843 1.02092147 103 103 107
-0.16683403 0.20477523 1.02400577 104 104 110
-0.16481514 0.20446636 1.02246130 107 107 111
-0.16354124 0.20508502 1.02555501 105 105 108
-0.16176866 0.20508502 1.02555501 113 113 115
-0.15927319 0.20415843 1.02092147 107 106 106
-0.15727176 0.20385143 1.01938617 125 124 123
-0.15527633 0.20354535 1.01785564 129 128 126
-0.15305743 0.20293592 1.01480818 133 131 126
-0.15130341 0.20293592 1.01480818 133 132 127
-0.14954939 0.20293592 1.01480818 133 134 127
-0.11521989 0.18196134 0.90992194 109 109 113
-0.11334289 0.18147416 0.90748572 119 119 126
-0.11132728 0.18074827 0.90385580 125 125 132
-0.10961888 0.18050759 0.90265226 158 156 160
-0.10777171 0.18002816 0.90025479 182 180 182
-0.10635693 0.18026756 0.90145195 195 190 190
-0.10521860 0.18098958 0.90506256 195 189 189
-0.10351607 0.18074827 0.90385580 196 190 190
-0.10250050 0.18171743 0.90870219 195 191 190
-0.09922625 0.18147416 0.90748572 198 192 189
-0.09726711 0.18074827 0.90385580 196 191 186
-0.09596076 0.18123154 0.90627253 196 191 187
-0.09389224 0.18026756 0.90145195 197 192 187
-0.09196726 0.17955126 0.89787000 197 192 186
-0.22234666 0.21397947 1.06086361 92 91 93
-0.20931555 0.21566699 1.06923008 123 125 126
-0.20746748 0.21566699 1.06923008 112 112 112
-0.20497280 0.21498880 1.06586766 113 113 114
-0.20217687 0.21397947 1.06086361 112 112 114
-0.19909695 0.21264833 1.05426419 103 104 106
-0.19666304 0.21198896 1.05099511 91 94 95
-0.19484648 0.21198896 1.05099511 104 107 109
-0.19213626 0.21100754 1.04612935 96 96 100
-0.18974249 0.21035828 1.04291058 98 98 103
-0.18765120 0.21003515 1.04130852 100 100 106
-0.18471642 0.20875248 1.03494942 112 113 115
-0.18181726 0.20748541 1.02866745 114 115 117
-0.17922340 0.20654513 1.02400577 119 120 122
-0.17691900 0.20592301 1.02092147 116 117 119
-0.17515442 0.20592301 1.02092147 107 108 108
-0.17338984 0.20592301 1.02092147 108 109 110
-0.17214376 0.20654513 1.02400577 106 107 107
-0.17037384 0.20654513 1.02400577 104 104 106
-0.16834962 0.20623361 1.02246130 90 90 93
-0.16683403 0.20654513 1.02400577 89 89 93
-0.16506411 0.20654513 1.02400577 99 98 102
-0.16378903 0.20717102 1.02710891 104 103 106
-0.16176866 0.20685761 1.02555501 111 111 113
-0.15927319 0.20592301 1.02092147 108 107 109
-0.15727176 0.20561334 1.01938617 115 114 115
-0.15527633 0.20530462 1.01785564 112 112 113
-0.15305743 0.20468993 1.01480818 125 120 121
-0.15130341 0.20468993 1.01480818 123 121 119
-0.11460456 0.18255392 0.90506256 112 113 116
-0.11288952 0.18231051 0.90385580 126 127 133
-0.11044373 0.18086360 0.89668232 144 144 149
-0.10889389 0.18086360 0.89668232 168 166 169
-0.10734404 0.18086360 0.89668232 189 185 187
-0.10452086 0.18134335 0.89906079 193 187 187
-0.10283053 0.18110316 0.89787000 193 187 187
-0.10208995 0.18255392 0.90506256 194 188 187
-0.09896129 0.18255392 0.90506256 197 190 186
-0.09662295 0.18110316 0.89787000 197 191 186
-0.09351916 0.18110316 0.89787000 197 191 185
-0.09172428 0.18062468 0.89549780 199 194 187
-0.22234666 0.21581309 1.06086361 80 74 76
-0.20931555 0.21751508 1.06923008 118 114 117
-0.20746748 0.21751508 1.06923008 111 107 108
-0.20529559 0.21717253 1.06754625 109 107 108
-0.20249377 0.21615134 1.06252635 104 104 104
-0.19940707 0.21480460 1.05590630 97 98 100
-0.19666304 0.21380553 1.05099511 93 95 98
-0.19484648 0.21380553 1.05099511 107 108 112
-0.19213626 0.21281567 1.04612935 106 106 113
-0.18974249 0.21216086 1.04291058 102 103 106
-0.18765120 0.21183497 1.04130852 108 109 111
-0.18471642 0.21054131 1.03494942 113 113 115
-0.18209358 0.20958140 1.03023076 118 118 120
-0.17949454 0.20863020 1.02555501 115 115 116
-0.17745349 0.20831504 1.02400577 106 107 109
-0.17568357 0.20831504 1.02400577 97 98 98
-0.17391367 0.20831504 1.02400577 94 94 95
-0.17240418 0.20863020 1.02555501 98 92 96
-0.17063160 0.20863020 1.02555501 101 91 103
-0.16860394 0.20831504 1.02400577 94 87 97
-0.16708642 0.20863020 1.02555501 87 87 91
-0.16531383 0.20863020 1.02555501 88 87 90
-0.16403757 0.20926337 1.02866745 114 113 115
-0.16225961 0.20926337 1.02866745 115 115 116
-0.15975438 0.20831504 1.02400577 107 110 113
-0.15750861 0.20768759 1.02092147 108 111 114
-0.11229064 0.18289730 0.89906079 148 148 151
-0.11000719 0.18169244 0.89313811 164 164 167
-0.22453165 0.21798784 1.06252635 83 82 81
-0.22165291 0.21696761 1.05755353 79 73 75
-0.20898592 0.21901770 1.06754625 100 98 106
-0.20746748 0.21936315 1.06923008 96 96 100
-0.20529559 0.21901770 1.06754625 96 95 100
-0.20281166 0.21833006 1.06419444 96 95 101
-0.19940707 0.21662965 1.05590630 96 95 101
-0.19696842 0.21595690 1.05262709 101 99 106
-0.19484648 0.21562208 1.05099511 109 106 114
-0.19213626 0.21462382 1.04612935 108 107 114
-0.18974249 0.21396345 1.04291058 109 109 114
-0.18765120 0.21363477 1.04130852 110 110 114
-0.18499885 0.21265480 1.03653193 111 111 113
-0.18209358 0.21136206 1.03023076 109 109 111
-0.17949454 0.21040279 1.02555501 105 105 106
-0.17745349 0.21008496 1.02400577 101 98 101
-0.17568357 0.21008496 1.02400577 89 81 87
-0.17391367 0.21008496 1.02400577 86 77 85
-0.17240418 0.21040279 1.02555501 86 76 88
-0.17037384 0.21008496 1.02400577 105 98 108
-0.16834962 0.20976809 1.02246130 120 115 122
-0.16683403 0.21008496 1.02400577 116 116 119
-0.16531383 0.21040279 1.02555501 112 111 110
-0.16403757 0.21104133 1.02866745 129 128 127
-0.16225961 0.21104133 1.02866745 120 120 120
-0.15975438 0.21008496 1.02400577 108 108 108
-0.15750861 0.20945217 1.02092147 114 114 115
-0.11169807 0.18347789 0.89431643 167 161 165
-0.10971808 0.18275459 0.89079088 178 173 174
-0.22313270 0.21845470 1.05590630 82 80 82
-0.22062036 0.21777628 1.05262709 82 77 85
-0.21534920 0.21982433 1.06252635 97 96 105
-0.20898592 0.22086287 1.06754625 84 84 95
-0.20746748 0.22121124 1.06923008 92 92 103
-0.20529559 0.22086287 1.06754625 95 91 104
-0.20249377 0.21982433 1.06252635 91 85 100
-0.19940707 0.21845470 1.05590630 103 96 109
-0.19696842 0.21777628 1.05262709 108 101 113
-0.19484648 0.21743864 1.05099511 108 101 113
-0.19213626 0.21643198 1.04612935 105 104 111
-0.18945102 0.21543460 1.04130852 106 106 112
-0.18736340 0.21510418 1.03971136 105 106 110
-0.18471642 0.21411897 1.03494942 108 108 112
-0.18181726 0.21281931 1.02866745 103 100 103
-0.17922340 0.21185488 1.02400577 101 97 100
-0.17718583 0.21153533 1.02246130 101 95 99
-0.17541860 0.21153533 1.02246130 88 81 87
-0.17338984 0.21121675 1.02092147 98 90 97
-0.17188412 0.21153533 1.02246130 114 107 115
-0.17011687 0.21153533 1.02246130 132 125 130
-0.16809610 0.21121675 1.02092147 150 146 147
-0.16683403 0.21185488 1.02400577 157 157 148
-0.16531383 0.21217537 1.02555501 149 144 141
-0.16403757 0.21281931 1.02866745 140 135 133
-0.16201375 0.21249685 1.02710891 132 130 129
-0.15951343 0.21153533 1.02246130 117 114 115
-0.11169807 0.18502365 0.89431643 180 174 176
-0.10971808 0.18429425 0.89079088 184 178 176
-0.22027832 0.21925519 1.05099511 73 73 82
-0.21367463 0.21993718 1.05426419 99 98 105
-0.20865734 0.22235787 1.06586766 98 97 106
-0.20714076 0.22270803 1.06754625 99 98 107
-0.20497280 0.22235787 1.06586766 101 97 108
-0.20249377 0.22166082 1.06252635 105 99 110
-0.19909695 0.21993718 1.05426419 106 100 108
-0.19727474 0.21993718 1.05426419 108 102 109
-0.19514903 0.21959566 1.05262709 108 103 109
-0.19213626 0.21824013 1.04612935 107 106 110
-0.18974249 0.21756862 1.04291058 98 99 103
-0.18736340 0.21690123 1.03971136 104 105 109
-0.18471642 0.21590780 1.03494942 103 104 108
-0.18181726 0.21459727 1.02866745 100 100 103
-0.17922340 0.21362478 1.02400577 97 97 100
-0.17718583 0.21330257 1.02246130 89 86 89
-0.17541860 0.21330257 1.02246130 94 90 93
-0.17188412 0.21330257 1.02246130 117 113 114
-0.17011687 0.21330257 1.02246130 145 141 140
-0.21993732 0.22072954 1.04936814 92 95 103
-0.21812358 0.22072954 1.04936814 102 103 112
-0.21630983 0.22072954 1.04936814 111 110 119
-0.21449609 0.22072954 1.04936814 112 111 118
-0.21367463 0.22175938 1.05426419 108 107 112
-0.21152346 0.22141504 1.05262709 104 104 108
-0.21003021 0.22175938 1.05426419 87 88 91
-0.20951134 0.22314756 1.06086361 90 91 94
-0.20865734 0.22420013 1.06586766 94 94 97
-0.20714076 0.22455320 1.06754625 101 101 101
-0.20497280 0.22420013 1.06586766 108 104 106
-0.20217687 0.22314756 1.06086361 113 105 108
-0.19909695 0.22175938 1.05426419 113 104 109
-0.19758202 0.22210480 1.05590630 109 105 107
-0.19575697 0.22210480 1.05590630 106 105 105
-0.19243322 0.22038838 1.04774630 107 107 109
-0.18974249 0.21937121 1.04291058 102 102 106
-0.18736340 0.21869829 1.03971136 105 106 110
-0.18443483 0.21736476 1.03337169 99 100 103
-0.18154177 0.21604741 1.02710891 101 101 105
-0.17895308 0.21506982 1.02246130 98 98 102
-0.17718583 0.21506982 1.02246130 84 83 85
-0.17541860 0.21506982 1.02246130 92 91 93
-0.16986068 0.21474591 1.02092147 133 130 129
-0.21993732 0.22254328 1.04936814 104 105 114
-0.21812358 0.22254328 1.04936814 113 113 121
-0.21630983 0.22254328 1.04936814 122 121 128
-0.21449609 0.22254328 1.04936814 124 124 126
-0.21367463 0.22358160 1.05426419 121 120 122
-0.21185243 0.22358160 1.05426419 113 113 115
-0.21035737 0.22392985 1.05590630 90 91 92
-0.21016915 0.22568755 1.06419444 88 89 91
-0.20865734 0.22604240 1.06586766 94 94 96
-0.20714076 0.22639838 1.06754625 97 97 99
-0.20497280 0.22604240 1.06586766 97 98 99
-0.20249377 0.22533381 1.06252635 94 95 96
-0.19971816 0.22427920 1.05755353 102 101 106
-0.19850963 0.22498117 1.06086361 101 101 105
-0.19636871 0.22462964 1.05920601 101 101 105
-0.19273111 0.22254328 1.04936814 97 97 101
-0.19003485 0.22151458 1.04451752 97 97 101
-0.18736340 0.22049534 1.03971136 98 98 102
-0.18471642 0.21948545 1.03494942 96 97 97
-0.18126713 0.21749315 1.02555501 102 103 104
-0.17895308 0.21683705 1.02246130 103 103 105
-0.17718583 0.21683705 1.02246130 100 100 101
-0.17011687 0.21683705 1.02246130 124 124 125
-0.16809610 0.21651049 1.02092147 136 136 137
-0.16683403 0.21716461 1.02400577 138 137 137
-0.21745037 0.22366458 1.04612935 120 119 127
-0.21564221 0.22366458 1.04612935 128 126 135
-0.21383406 0.22366458 1.04612935 129 128 130
-0.21268234 0.22435704 1.04936814 123 123 125
-0.20983973 0.22717029 1.06252635 91 92 95
-0.20865734 0.22788467 1.06586766 93 94 98
-0.20681506 0.22788467 1.06586766 96 97 102
-0.20465103 0.22752692 1.06419444 99 99 106
-0.20154606 0.22610709 1.05755353 98 97 106
-0.19909695 0.22540380 1.05426419 98 96 106
-0.19819947 0.22646038 1.05920601 89 87 97
-0.19606237 0.22610709 1.05755353 95 94 104
-0.19243322 0.22401027 1.04774630 95 94 101
-0.18974249 0.22297639 1.04291058 95 94 100
-0.18707646 0.22195199 1.03811920 95 95 99
-0.18387425 0.22026542 1.03023076 95 95 97
-0.18072031 0.21860430 1.02246130 100 100 101
-0.17841488 0.21794684 1.01938617 108 108 108
-0.16784331 0.21794684 1.01938617 126 126 128
-0.21711531 0.22512531 1.04451752 116 115 123
-0.21530995 0.22512531 1.04451752 119 117 124
-0.21383406 0.22547273 1.04612935 115 115 117
-0.21301208 0.22652143 1.05099511 116 116 118
-0.20865734 0.22972693 1.06586766 93 95 99
-0.20681506 0.22972693 1.06586766 97 97 105
-0.20433025 0.22900678 1.06252635 97 97 106
-0.20091917 0.22722602 1.05426419 97 97 106
-0.19878779 0.22687317 1.05262709 97 96 105
-0.19819947 0.22829114 1.05920601 94 92 102
-0.19575697 0.22757995 1.05590630 93 91 102
-0.19243322 0.22582121 1.04774630 94 93 100
-0.18974249 0.22477897 1.04291058 94 93 99
-0.18736340 0.22408946 1.03971136 93 94 98
-0.18387425 0.22204609 1.03023076 94 94 98
-0.18072031 0.22037153 1.02246130 96 94 96
-0.21892066 0.22693068 1.04451752 110 110 117
-0.21416456 0.22763216 1.04774630 96 100 101
-0.21367463 0.22904822 1.05426419 101 105 106
-0.20931555 0.23229970 1.06923008 98 102 104
-0.20779523 0.23266669 1.07091916 104 105 107
-0.20529559 0.23193388 1.06754625 106 107 112
-0.20281166 0.23120567 1.06419444 103 103 112
-0.20065728 0.23084328 1.06252635 97 96 105
-0.19976009 0.23193388 1.06754625 89 89 99
-0.19729353 0.23120567 1.06419444 89 89 99
-0.19332965 0.22869256 1.05262709 90 91 94
-0.19032811 0.22728088 1.04612935 95 96 98
-0.18793990 0.22658156 1.04291058 92 93 95
-0.18528217 0.22554059 1.03811920 92 93 95
-0.18126713 0.22281091 1.02555501 92 92 92
0.42221275 0.10270433 0.47272792 139 138 139
-0.21757965 0.22733490 1.03811920 96 99 107
-0.21447159 0.22595082 1.03179884 93 95 103
-0.21431926 0.22768357 1.03971136 92 91 101
-0.21350458 0.22873604 1.04451752 87 93 96
-0.21268234 0.22979829 1.04936814 89 93 96
-0.21086860 0.22979829 1.04936814 97 98 100
-0.21083109 0.23377904 1.06754625 95 100 101
-0.20964624 0.23451768 1.07091916 99 99 101
-0.20779523 0.23451768 1.07091916 103 104 107
-0.20529559 0.23377904 1.06754625 108 108 113
-0.20313054 0.23341146 1.06586766 106 106 111
-0.20128827 0.23341146 1.06586766 95 95 103
-0.20039125 0.23451768 1.07091916 101 101 108
-0.19760375 0.23341146 1.06586766 89 89 96
-0.19393192 0.23123005 1.05590630 74 75 79
-0.19091736 0.22979829 1.04936814 79 80 83
-0.18851995 0.22908902 1.04612935 80 81 83
-0.18642412 0.22873604 1.04451752 88 88 88
-0.18320730 0.22698729 1.03653193 88 88 89
0.27497637 0.20646688 0.94282591 165 161 160
0.27854300 0.20791273 0.94942838 166 163 159
0.41912371 0.10417522 0.47571358 107 105 101
0.41906369 0.10395636 0.47471419 100 98 95
0.41988420 0.10395636 0.47471419 102 101 102
0.42070472 0.10395636 0.47471419 116 115 117
0.42093569 0.10381097 0.47405025 128 127 129
0.42116600 0.10366599 0.47338817 133 132 136
0.42139566 0.10352140 0.47272792 136 135 139
0.42221275 0.10352140 0.47272792 133 132 135
0.42244065 0.10337722 0.47206953 130 130 132
0.42436802 0.10344926 0.47239849 146 146 146
-0.21658462 0.22808136 1.03337169 92 93 102
-0.21317373 0.22635609 1.02555501 86 86 97
-0.21252219 0.22948062 1.03971136 83 84 94
-0.20865734 0.23525374 1.06586766 105 105 107
-0.20681506 0.23525374 1.06586766 112 109 115
-0.20433025 0.23451626 1.06252635 115 112 117
-0.20123212 0.23305510 1.05590630 122 118 121
-0.20003022 0.23378339 1.05920601 123 124 124
-0.19976009 0.23562421 1.06754625 123 124 124
-0.19729353 0.23488441 1.06419444 125 126 126
-0.19332965 0.23233132 1.05262709 113 114 116
-0.19062229 0.23125406 1.04774630 98 99 102
-0.18851995 0.23089717 1.04612935 86 86 90
-0.18642412 0.23054141 1.04451752 83 83 86
-0.18376929 0.22948062 1.03971136 83 82 88
0.02484765 0.21528254 0.97538394 138 131 133
0.02649540 0.21497324 0.97398251 146 140 143
0.27651471 0.20926066 0.94810051 163 159 156
0.42409730 0.10687241 0.48420846 150 143 136
0.42372358 0.10656793 0.48282894 147 141 133
0.42125764 0.10573948 0.47907552 115 113 105
0.42000791 0.10521897 0.47671717 97 96 90
0.41994593 0.10499746 0.47571358 101 100 95
0.42106363 0.10507119 0.47604764 116 116 114
0.42129478 0.10492382 0.47537997 127 127 127
0.42093569 0.10463033 0.47405025 135 134 134
0.42116600 0.10448420 0.47338817 137 137 138
0.42139566 0.10433847 0.47272792 141 141 142
0.42221275 0.10433847 0.47272792 146 146 147
0.42214665 0.10412065 0.47174102 152 152 152
0.42414266 0.10441128 0.47305781 157 157 157
0.42407250 0.10419316 0.47206953 158 157 156
0.42341414 0.10383163 0.47043154 157 157 155
0.42452186 0.10390373 0.47075823 155 154 152
-0.37136394 0.33361295 1.49976075 110 113 113
-0.36958939 0.33435267 1.50308609 116 120 119
-0.36322442 0.33810103 1.51993692 91 91 97
-0.36140767 0.33886078 1.52335250 86 86 93
-0.34774986 0.33584198 1.50978136 107 110 117
-0.20552248 0.23561415 1.05920601 120 112 117
-0.20274137 0.23451486 1.05426419 122 113 117
-0.19967701 0.23306499 1.04774630 140 131 134
-0.19847959 0.23378769 1.05099511 143 143 143
-0.19882078 0.23635274 1.06252635 153 152 151
-0.19606237 0.23524657 1.05755353 159 157 156
-0.19273111 0.23342578 1.04936814 148 149 145
-0.19003485 0.23234677 1.04451752 143 143 142
-0.18822949 0.23234677 1.04451752 119 118 118
-0.18613732 0.23198931 1.04291058 92 90 97
-0.18320730 0.23057042 1.03653193 83 80 88
0.01481770 0.21822439 0.98103017 194 189 180
0.01644195 0.21728106 0.97678941 187 182 173
0.02316178 0.21696842 0.97538394 133 129 130
0.02481195 0.21665668 0.97398251 129 124 125
0.02645739 0.21634585 0.97258514 140 135 136
0.02789827 0.21449937 0.96428424 150 145 146
0.04025824 0.20943479 0.94151646 169 163 162
0.27400371 0.21149096 0.95075995 162 157 151
0.27603418 0.21178800 0.95209527 165 160 153
0.27729034 0.21149096 0.95075995 162 158 155
0.27971828 0.21208587 0.95343435 160 156 153
0.83307642 0.25007141 1.12419879 151 143 144
0.84059560 0.25174132 1.13170588 152 144 143
0.84537429 0.25258467 1.13549721 153 145 141
0.84450775 0.25174132 1.13170588 152 144 140
0.42447317 0.10801794 0.48559588 147 142 137
0.42379460 0.10763244 0.48386285 148 141 138
0.42342201 0.10732602 0.48248529 144 138 134
0.42125764 0.10656753 0.47907552 127 123 119
0.42030349 0.10611756 0.47705266 107 107 102
0.41994593 0.10581969 0.47571358 119 118 112
0.42106363 0.10589400 0.47604764 130 130 128
0.42129478 0.10574548 0.47537997 141 141 141
0.42064154 0.10537600 0.47371897 150 150 150
0.42087209 0.10522893 0.47305781 156 156 156
0.42139566 0.10515554 0.47272792 158 158 158
0.42221275 0.10515554 0.47272792 158 158 158
0.42185310 0.10486304 0.47141296 158 158 156
0.42355153 0.10508227 0.47239849 158 158 156
0.42348269 0.10486304 0.47141296 157 156 153
0.42282730 0.10449969 0.46977952 157 153 150
0.42393306 0.10457216 0.47010529 157 153 150
0.42445126 0.10449969 0.46977952 157 153 149
-0.37406564 0.33398843 1.48987222 128 128 128
-0.36986473 0.33252677 1.48335195 127 127 125
-0.36810637 0.33325601 1.48660493 119 120 118
-0.36795765 0.33546299 1.49644995 120 121 119
-0.36456639 0.33472407 1.49315381 126 125 125
-0.36241186 0.33996585 1.51653659 105 104 108
-0.35979062 0.33996585 1.51653659 94 94 98
-0.34544179 0.33620515 1.49976075 98 98 105
-0.20179985 0.23523952 1.04936814 135 129 131
-0.19906166 0.23415214 1.04451752 145 140 140
-0.19756071 0.23451348 1.04612935 155 153 150
-0.19696842 0.23597008 1.05262709 160 159 154
-0.19484648 0.23560424 1.05099511 162 162 154
-0.19184022 0.23415214 1.04451752 166 166 157
-0.18679042 0.23236197 1.03653193 151 151 143
-0.18471642 0.23200722 1.03494942 133 129 133
0.01477494 0.21928532 0.97819889 191 187 179
0.01641829 0.21865429 0.97538394 178 175 167
0.01815641 0.21928532 0.97819889 156 155 149
0.01987583 0.21960221 0.97961247 112 111 111
0.02150685 0.21896936 0.97678941 115 114 115
0.02312850 0.21834013 0.97398251 124 123 125
0.02477635 0.21802688 0.97258514 127 126 128
0.02641948 0.21771452 0.97119176 139 137 139
0.02774042 0.21494305 0.95882863 148 145 147
0.02910947 0.21283576 0.94942838 160 157 159
0.03057917 0.21165004 0.94413906 165 161 162
0.03820638 0.20874277 0.93117011 171 165 165
0.03998059 0.20960653 0.93502325 170 165 162
0.04136847 0.20845643 0.92989278 165 160 156
0.04285813 0.20788610 0.92734861 158 152 148
0.27681175 0.21403484 0.95477724 162 158 150
0.27767980 0.21343361 0.95209527 157 155 151
0.28261665 0.21343361 0.95209527 157 156 154
0.28546509 0.21433672 0.95612389 159 158 156
0.83389920 0.25285313 1.12793982 146 141 141
0.83032244 0.25118136 1.12048233 142 136 137
0.83919466 0.25327456 1.12981975 142 136 136
0.84255171 0.25369740 1.13170588 143 135 133
0.84450775 0.25369740 1.13170588 145 137 134
0.84505302 0.25327456 1.12981975 145 137 132
0.84841985 0.25369740 1.13170588 144 136 130
0.42319047 0.10831413 0.48317310 141 136 133
0.42162147 0.10770003 0.48043361 135 129 127
0.42096016 0.10731973 0.47873718 132 127 126
0.41941804 0.10671680 0.47604764 133 129 131
0.41877043 0.10634341 0.47438198 142 138 139
0.42017844 0.10649245 0.47504684 144 142 143
0.42099953 0.10649245 0.47504684 141 142 143
0.42034778 0.10612062 0.47338817 142 143 144
0.42087209 0.10604657 0.47305781 145 145 144
0.42110202 0.10589877 0.47239849 147 148 146
0.42191851 0.10589877 0.47239849 148 149 147
0.42185310 0.10567784 0.47141296 148 148 146
0.42325658 0.10582502 0.47206953 150 149 147
0.42348269 0.10567784 0.47141296 154 152 150
0.42282730 0.10531167 0.46977952 157 153 152
0.42393306 0.10538470 0.47010529 158 154 152
0.42445126 0.10531167 0.46977952 158 154 152
-0.37838426 0.33582547 1.48660493 122 122 122
-0.37581480 0.33582547 1.48660493 119 119 119
-0.37324530 0.33582547 1.48660493 113 113 113
-0.36905715 0.33435899 1.48011315 115 115 116
-0.36649892 0.33435899 1.48011315 104 103 103
-0.36634025 0.33656356 1.48987222 113 108 109
-0.36296740 0.33582547 1.48660493 115 110 109
-0.36160290 0.34182236 1.51315141 113 109 110
-0.35818800 0.34106106 1.50978136 105 101 103
-0.35557845 0.34106106 1.50978136 95 94 98
-0.34467924 0.33804947 1.49644995 92 91 96
-0.19784230 0.23451212 1.03811920 136 135 133
-0.19634868 0.23487180 1.03971136 142 142 135
-0.19575256 0.23632163 1.04612935 152 152 144
-0.18537320 0.23237696 1.02866745 156 156 146
0.01475365 0.22065766 0.97678941 185 183 176
0.01641829 0.22034016 0.97538394 167 167 158
0.01813025 0.22065766 0.97678941 151 151 142
0.01981855 0.22065766 0.97678941 119 119 119
0.02147591 0.22034016 0.97538394 120 120 123
0.02312850 0.22002359 0.97398251 126 126 130
0.02474086 0.21939315 0.97119176 130 129 137
0.02638169 0.21907927 0.96980232 138 137 144
0.02774042 0.21660030 0.95882863 145 144 150
0.02910947 0.21447678 0.94942838 157 157 161
0.03053664 0.21298528 0.94282591 158 156 157
0.03190003 0.21122265 0.93502325 162 158 159
0.03649667 0.20977591 0.92861897 168 165 160
0.03810171 0.20977591 0.92861897 162 162 153
0.03981584 0.21035221 0.93117011 165 160 153
0.04131180 0.20977591 0.92861897 159 153 147
0.04268296 0.20863272 0.92355835 159 153 149
0.27798632 0.21660030 0.95882863 151 151 148
0.27924860 0.21629438 0.95747435 149 149 146
0.28421336 0.21629438 0.95747435 154 152 152
0.28708473 0.21721478 0.96154869 160 158 158
0.28792986 0.21660030 0.95882863 160 158 158
0.82415146 0.25480267 1.12793982 169 160 154
0.81928498 0.25270036 1.11863339 167 158 153
0.81851703 0.25186911 1.11495364 164 156 150
0.83251399 0.25437942 1.12606621 147 140 139
0.83032244 0.25311804 1.12048233 142 136 137
0.83640659 0.25437942 1.12606621 139 133 134
0.84255171 0.25565344 1.13170588 134 127 129
0.84310025 0.25522736 1.12981975 137 130 132
0.84364694 0.25480267 1.12793982 144 136 136
0.84700584 0.25522736 1.12981975 148 141 135
0.42319047 0.10914926 0.48317310 133 127 127
0.42162147 0.10853042 0.48043361 126 120 121
0.42096016 0.10814719 0.47873718 125 120 121
0.41971275 0.10761519 0.47638217 137 133 136
0.41906369 0.10723839 0.47471419 141 138 141
0.42047310 0.10738879 0.47537997 142 139 142
0.42159042 0.10746415 0.47571358 138 138 140
0.42064154 0.10701357 0.47371897 140 140 142
0.42116600 0.10693884 0.47338817 139 139 139
0.42139566 0.10678969 0.47272792 137 137 135
0.42221275 0.10678969 0.47272792 141 141 139
0.42244065 0.10664096 0.47206953 148 147 145
0.42414266 0.10686421 0.47305781 152 151 149
0.42436802 0.10671527 0.47239849 153 152 150
0.42488843 0.10664096 0.47206953 155 152 151
0.42540812 0.10656675 0.47174102 157 153 152
0.42592710 0.10649264 0.47141296 157 153 152
-0.38179100 0.33913869 1.48987222 116 118 119
-0.38005117 0.33988568 1.49315381 111 111 111
-0.37747037 0.33988568 1.49315381 108 108 108
-0.37488955 0.33988568 1.49315381 100 100 100
-0.37067583 0.33839494 1.48660493 100 99 101
-0.36730087 0.33765447 1.48335195 92 89 91
-0.36634025 0.33913869 1.48987222 95 86 89
-0.36296740 0.33839494 1.48660493 93 87 89
-0.36601660 0.34367061 1.50978136 97 91 93
-0.36749950 0.34754077 1.52678347 103 95 98
-0.36241186 0.34520826 1.51653659 103 98 101
-0.35979062 0.34520826 1.51653659 101 97 100
-0.35797024 0.34598228 1.51993692 96 95 99
-0.35534316 0.34598228 1.51993692 97 96 100
-0.35114145 0.34443772 1.51315141 99 98 102
-0.34697708 0.34290689 1.50642633 103 99 104
0.01473242 0.22202604 0.97538394 182 180 172
0.01639470 0.22170703 0.97398251 166 166 157
0.01810416 0.22202604 0.97538394 151 151 146
0.01979003 0.22202604 0.97538394 130 130 131
0.02144505 0.22170703 0.97398251 140 140 143
0.02306223 0.22107176 0.97119176 144 145 147
0.02463498 0.22012568 0.96703541 143 143 146
0.02623158 0.21949942 0.96428424 151 151 155
0.02762321 0.21733534 0.95477724 152 151 158
0.02902816 0.21551409 0.94677633 155 155 159
0.03040976 0.21372312 0.93890840 157 156 159
0.03185609 0.21254559 0.93373531 158 157 159
0.03333224 0.21167092 0.92989278 159 158 159
0.03489162 0.21138096 0.92861897 161 158 154
0.03644674 0.21109179 0.92734861 159 156 151
0.03799761 0.21080340 0.92608178 159 155 148
0.03970675 0.21138096 0.92861897 160 152 148
0.04119892 0.21080340 0.92608178 155 146 144
0.04262489 0.20994298 0.92230183 154 145 145
0.27838007 0.21856672 0.96018672 138 133 135
0.28003967 0.21856672 0.96018672 138 136 136
0.28290141 0.21949942 0.96428424 143 142 141
0.28335890 0.21856672 0.96018672 146 143 144
0.28501850 0.21856672 0.96018672 148 144 146
0.28708473 0.21887673 0.96154869 155 150 152
0.28792986 0.21825756 0.95882863 161 156 158
0.82552499 0.25718015 1.12981975 168 159 158
0.82199782 0.25547698 1.12233746 165 155 152
0.82257581 0.25505471 1.12048233 163 153 150
0.83251399 0.25632575 1.12606621 152 144 140
0.82895231 0.25463381 1.11863339 144 139 136
0.83363706 0.25547698 1.12233746 140 135 132
0.84114742 0.25718015 1.12981975 131 127 125
0.84029925 0.25632575 1.12606621 130 126 124
0.84224552 0.25632575 1.12606621 140 136 133
0.84419185 0.25632575 1.12606621 148 145 137
0.84333640 0.25547698 1.12233746 150 147 139
0.84808451 0.25632575 1.12606621 154 149 142
0.84721613 0.25547698 1.12233746 159 151 145
