ply
format ascii 1.0
element vertex 1060
property float x
property float y
property float z
property uchar red
property uchar green
property uchar blue
end_header
-0.63991725 0.56609750 1.81254506 73 72 81
-0.64020801 0.56914103 1.82228994 81 76 86
-0.63196182 0.56458795 1.80771160 94 91 101
-0.63051873 0.56609750 1.81254506 107 107 115
-0.62738591 0.56609750 1.81254506 120 121 125
-0.62258840 0.56458795 1.80771160 129 130 132
-0.61470020 0.56308639 1.80290389 134 138 139
-0.60834813 0.56010705 1.79336464 136 140 141
-0.60524845 0.56010705 1.79336464 135 139 140
-0.59740746 0.55569679 1.77924371 136 140 141
-0.58360970 0.54567134 1.74714386 138 139 138
-0.57466549 0.54010326 1.72931588 140 142 140
-0.56024301 0.52930117 1.69472957 149 151 144
-0.54505014 0.51765394 1.65743732 154 156 148
-0.53823745 0.51388466 1.64536858 162 164 155
-0.15090807 0.15648223 0.50102872 106 110 113
-0.14993127 0.15636668 0.50065869 108 112 115
-0.14906591 0.15636668 0.50065869 112 116 118
-0.14831011 0.15648223 0.50102872 113 117 118
-0.14722648 0.15625127 0.50028920 119 123 123
-0.14625384 0.15613604 0.49992025 114 118 117
-0.14549707 0.15625127 0.50028920 109 112 112
0.05716344 0.21193241 0.67857039 155 141 136
0.05839475 0.21214476 0.67925036 146 136 131
0.05974839 0.21278439 0.68129832 141 133 127
0.06688102 0.21299846 0.68198377 122 116 118
0.06792310 0.21257076 0.68061429 122 120 122
0.06889198 0.21193241 0.67857039 122 122 124
0.07013504 0.21214476 0.67925036 122 125 128
0.07138059 0.21235755 0.67993164 127 128 131
0.07255580 0.21235755 0.67993164 134 135 137
0.07358340 0.21193241 0.67857039 145 145 143
0.07468150 0.21172047 0.67789185 149 149 147
0.07555097 0.21087697 0.67519110 153 153 151
0.07648943 0.21024872 0.67317957 156 156 154
0.07773016 0.21045773 0.67384875 159 159 157
0.07905202 0.21087697 0.67519110 158 159 155
0.08021902 0.21087697 0.67519110 162 163 156
0.08130506 0.21066713 0.67451924 162 162 153
0.08206264 0.20962423 0.67118007 167 166 158
0.08289442 0.20879731 0.66853237 162 157 150
0.20912240 0.16236232 0.51985568 162 159 145
0.21018212 0.16248693 0.52025467 161 157 143
0.21214336 0.16261172 0.52065426 164 157 144
0.21255352 0.16223791 0.51945734 163 156 145
0.21328792 0.16211368 0.51905960 163 156 145
0.21336819 0.16149540 0.51707995 165 159 148
0.21508221 0.16211368 0.51905960 152 149 139
0.21614487 0.16223791 0.51945734 156 153 143
1.24374533 0.46944672 1.50308609 152 150 141
1.22985268 0.46227178 1.48011315 148 145 137
1.23510766 0.46328330 1.48335195 146 142 135
1.24038565 0.46429929 1.48660493 144 140 133
1.24568689 0.46531972 1.48987222 141 133 129
1.24008572 0.46227178 1.48011315 133 125 121
1.23455727 0.45926350 1.47048128 129 121 118
1.22382534 0.45433578 1.45470357 128 122 120
1.22633970 0.45433578 1.45470357 131 125 123
-0.73837018 0.62615341 1.99379957 100 101 103
-0.73492408 0.62615341 1.99379957 99 100 102
-0.72508019 0.62067682 1.97636104 103 103 107
-0.72377431 0.62249166 1.98213995 103 104 109
-0.71408445 0.61707872 1.96490383 94 95 97
-0.69066888 0.59969622 1.90955448 85 86 88
-0.67221975 0.58647978 1.86747062 77 78 80
-0.66899198 0.58647978 1.86747062 74 75 77
-0.65493876 0.57694352 1.83710527 73 74 76
-0.64858818 0.57694352 1.83710527 80 79 88
-0.64193362 0.57383329 1.82720172 87 86 94
-0.63365155 0.56923038 1.81254506 99 99 105
-0.63220912 0.57075644 1.81740439 119 120 123
-0.62906790 0.57075644 1.81740439 131 132 134
-0.60834813 0.56320673 1.79336464 131 134 136
-0.60365152 0.56172073 1.78863287 133 137 138
-0.59584355 0.55730933 1.77458596 135 139 140
-0.58511770 0.55010891 1.75165856 138 139 138
-0.57613522 0.54448122 1.73373878 145 146 143
-0.56733465 0.53896749 1.71618187 152 154 148
-0.15384716 0.15769789 0.50214213 103 107 106
-0.15297924 0.15769789 0.50214213 95 99 98
-0.15199874 0.15758117 0.50177044 101 102 104
-0.15101969 0.15746461 0.50139928 106 108 110
-0.15004209 0.15734823 0.50102872 109 113 116
-0.14917609 0.15734823 0.50102872 112 116 118
-0.14831011 0.15734823 0.50102872 116 120 122
-0.14733522 0.15723202 0.50065869 122 126 125
-0.14636178 0.15711598 0.50028920 111 115 114
-0.14560452 0.15723202 0.50065869 106 110 109
0.05487266 0.21331879 0.67925036 151 144 138
0.05604669 0.21331879 0.67925036 153 145 140
0.05710628 0.21289216 0.67789185 151 143 138
0.05839475 0.21331879 0.67925036 151 142 138
0.05974839 0.21396196 0.68129832 141 133 130
0.06379401 0.21569620 0.68682051 128 121 121
0.06471884 0.21482559 0.68404830 124 116 116
0.06576843 0.21439290 0.68267053 127 117 118
0.06681380 0.21396196 0.68129832 129 120 123
0.06785497 0.21353275 0.67993164 130 124 127
0.06889198 0.21310526 0.67857039 130 129 131
0.07006484 0.21310526 0.67857039 135 135 137
0.07123769 0.21310526 0.67857039 136 136 137
0.07248310 0.21331879 0.67925036 136 137 138
0.07350981 0.21289216 0.67789185 154 153 151
0.07460689 0.21267948 0.67721462 156 156 154
0.07532590 0.21141227 0.67317957 158 158 156
0.07618681 0.21057582 0.67051619 160 160 158
0.07734574 0.21057582 0.67051619 161 161 158
0.07858240 0.21078432 0.67118007 162 162 158
0.07974248 0.21078432 0.67118007 162 162 156
0.08074267 0.21036774 0.66985363 160 161 154
0.08173892 0.20995282 0.66853237 160 160 153
0.20595300 0.16288611 0.51866245 155 156 146
0.20637576 0.16251309 0.51747471 156 156 145
0.20806432 0.16313575 0.51945734 155 154 142
0.20896216 0.16313575 0.51945734 156 152 140
0.21198055 0.16338615 0.52025467 161 154 142
0.21239077 0.16301084 0.51905960 160 154 144
0.21296178 0.16276158 0.51826596 159 153 143
0.21320556 0.16226536 0.51668584 162 154 146
0.21458928 0.16263725 0.51787001 158 152 144
0.21581413 0.16288611 0.51866245 158 153 144
0.21687652 0.16301084 0.51905960 151 148 138
0.21794055 0.16313575 0.51945734 149 146 136
1.25487506 0.47626880 1.51653659 154 151 143
1.24084067 0.46996060 1.49644995 150 147 139
1.23524678 0.46686876 1.48660493 147 143 136
1.24053669 0.46789485 1.48987222 146 141 134
1.24584997 0.46892545 1.49315381 143 138 131
1.24843073 0.46892545 1.49315381 139 132 127
1.24279916 0.46584716 1.48335195 133 125 121
1.23455727 0.46180511 1.47048128 127 119 116
1.22645724 0.45783257 1.45783186 127 121 119
1.22897696 0.45783257 1.45783186 131 125 123
-0.72246081 0.62775320 1.98795259 101 102 101
-0.70659208 0.61689866 1.95357883 86 87 87
-0.66030711 0.58487386 1.85216355 74 75 77
-0.65749741 0.58808744 1.86234021 84 84 90
-0.64541292 0.58011878 1.83710527 93 92 98
-0.63705832 0.57544041 1.82228994 103 103 107
-0.63390863 0.57544041 1.82228994 118 118 120
-0.63245910 0.57699144 1.82720172 126 126 129
-0.60834813 0.56630641 1.79336464 128 129 131
-0.60365152 0.56481224 1.78863287 130 131 133
-0.59428781 0.55891341 1.76995254 136 137 139
-0.58511770 0.55313653 1.75165856 137 137 137
-0.57761252 0.54888165 1.73818421 145 145 145
-0.15482976 0.15868334 0.50251436 121 123 120
-0.15396120 0.15868334 0.50251436 107 109 107
-0.15320621 0.15880106 0.50288713 99 103 102
-0.15222409 0.15868334 0.50251436 99 103 104
-0.15124342 0.15856580 0.50214213 105 110 111
-0.15015306 0.15833125 0.50139928 113 117 118
-0.14928643 0.15833125 0.50139928 118 121 122
-0.14841980 0.15833125 0.50139928 123 125 125
-0.14733522 0.15809737 0.50065869 117 118 118
-0.14646988 0.15809737 0.50065869 112 112 112
-0.14560452 0.15809737 0.50065869 105 104 104
0.05498285 0.21492353 0.68061429 153 150 141
0.05610291 0.21470796 0.67993164 157 154 147
0.05716344 0.21427812 0.67857039 155 152 146
0.05839475 0.21449281 0.67925036 159 150 148
0.05986872 0.21557285 0.68267053 151 144 142
0.06267039 0.21710329 0.68751711 138 132 132
0.06385871 0.21710329 0.68751711 127 125 124
0.06478421 0.21622610 0.68473923 113 111 110
0.06570226 0.21535598 0.68198377 121 119 119
0.06674671 0.21492353 0.68061429 114 108 110
0.06785497 0.21470796 0.67993164 128 122 124
0.06889198 0.21427812 0.67857039 127 123 124
0.06999477 0.21406384 0.67789185 130 130 130
0.07116646 0.21406384 0.67789185 140 140 140
0.07233813 0.21406384 0.67789185 143 144 144
0.07343638 0.21384999 0.67721462 148 147 145
0.07445812 0.21342357 0.67586422 155 155 153
0.07525117 0.21236491 0.67251176 160 160 158
0.07618681 0.21173476 0.67051619 164 164 160
0.07726931 0.21152553 0.66985363 163 163 160
0.07842710 0.21152553 0.66985363 162 162 158
0.07958488 0.21152553 0.66985363 162 162 158
0.08066297 0.21131672 0.66919231 160 160 155
0.08173892 0.21110831 0.66853237 159 159 154
0.08168605 0.20803094 0.65878701 160 160 153
0.20552829 0.16415939 0.51985568 153 154 147
0.20563832 0.16353235 0.51787001 153 151 143
0.20574753 0.16291007 0.51589942 149 147 139
0.20727018 0.16340750 0.51747471 152 149 140
0.20880215 0.16390799 0.51905960 154 150 142
0.20986000 0.16403359 0.51945734 154 150 141
0.21181798 0.16415939 0.51985568 160 154 146
0.21239077 0.16390799 0.51905960 157 155 149
0.21296178 0.16365737 0.51826596 155 153 147
0.21320556 0.16315842 0.51668584 152 152 144
0.21458928 0.16353235 0.51787001 152 152 142
0.21581413 0.16378258 0.51866245 152 152 141
0.21671058 0.16378258 0.51866245 150 150 139
0.21760705 0.16378258 0.51866245 148 148 137
0.21883839 0.16403359 0.51945734 154 154 143
1.26641965 0.48430732 1.53369200 155 152 144
1.26051497 0.48104233 1.52335250 155 151 143
1.24634326 0.47464263 1.50308609 152 147 140
1.23796153 0.47046995 1.48987222 148 143 136
1.24326921 0.47150624 1.49315381 145 140 133
1.25136256 0.47359255 1.49976075 143 138 131
1.25118661 0.47254708 1.49644995 143 136 130
1.24279916 0.46841103 1.48335195 141 133 129
1.23455727 0.46434671 1.47048128 139 131 127
1.22382534 0.45936444 1.45470357 135 129 129
1.22897696 0.46035233 1.45783186 132 126 128
1.22099352 0.45642608 1.44539833 131 125 126
-0.71275425 0.62568462 1.97061586 89 90 89
-0.70321548 0.62027526 1.95357883 75 76 78
-0.68406785 0.60629725 1.90955448 72 72 75
-0.63877541 0.58014965 1.82720172 107 107 110
-0.63906235 0.58329409 1.83710527 113 113 115
-0.63416845 0.58171761 1.83214009 124 124 125
-0.60996181 0.57091647 1.79812157 124 125 127
-0.60524845 0.56940615 1.79336464 127 130 130
-0.59584355 0.56344378 1.77458596 132 136 135
-0.58663356 0.55760497 1.75619650 136 136 136
-0.57761252 0.55188596 1.73818421 142 143 143
-0.15482976 0.15955190 0.50251436 127 128 124
-0.15396120 0.15955190 0.50251436 110 113 110
-0.15331995 0.15978880 0.50326043 99 105 103
-0.15233701 0.15967026 0.50288713 106 113 114
-0.15124342 0.15943372 0.50214213 110 118 118
-0.15026420 0.15931571 0.50177044 115 121 123
-0.14928643 0.15919787 0.50139928 123 126 127
-0.14841980 0.15919787 0.50139928 122 123 123
-0.14744411 0.15908021 0.50102872 118 118 118
-0.14646988 0.15896271 0.50065869 107 107 107
0.05413256 0.21740961 0.68473923 152 151 143
0.05520455 0.21697129 0.68335873 160 157 147
0.05621568 0.21631710 0.68129832 163 158 150
0.05727812 0.21588317 0.67993164 165 158 152
0.05851201 0.21609992 0.68061429 164 156 152
0.06005014 0.21740961 0.68473923 159 154 149
0.06273402 0.21851322 0.68821508 150 144 142
0.06392354 0.21851322 0.68821508 140 139 137
0.06484971 0.21762943 0.68543160 122 122 121
0.06583472 0.21697129 0.68335873 107 107 107
0.06681380 0.21631710 0.68129832 107 107 110
0.06785497 0.21588317 0.67993164 119 118 123
0.06896101 0.21566685 0.67925036 123 122 127
0.07006484 0.21545097 0.67857039 127 127 128
0.07123769 0.21545097 0.67857039 138 138 139
0.07241055 0.21545097 0.67857039 144 144 144
0.07343638 0.21502049 0.67721462 152 152 150
0.07453243 0.21480590 0.67653877 155 155 153
0.07532590 0.21373934 0.67317957 159 159 157
0.07633782 0.21331568 0.67184526 161 161 159
0.07742231 0.21310447 0.67118007 161 161 158
0.07866028 0.21331568 0.67184526 162 162 158
0.08181961 0.21247336 0.66919231 158 159 152
0.08355552 0.21101521 0.66459984 157 157 148
0.20193417 0.16505791 0.51985568 123 122 120
0.20283270 0.16505791 0.51985568 135 135 133
0.20341924 0.16480514 0.51905960 139 139 137
0.20462976 0.16505791 0.51985568 144 145 141
0.20552829 0.16505791 0.51985568 145 146 139
0.20548135 0.16430192 0.51747471 146 144 138
0.20559107 0.16367720 0.51550710 147 144 138
0.20695421 0.16405146 0.51668584 143 140 132
0.20848288 0.16455315 0.51826596 151 148 140
0.20986000 0.16493143 0.51945734 154 151 143
0.21181798 0.16505791 0.51985568 158 155 147
0.21222825 0.16467905 0.51866245 157 155 148
0.21296178 0.16455315 0.51826596 156 155 147
0.21320556 0.16405146 0.51668584 153 153 146
0.21442547 0.16430192 0.51747471 151 151 144
0.21581413 0.16467905 0.51866245 153 153 144
0.21671058 0.16467905 0.51866245 155 155 146
0.21760705 0.16467905 0.51866245 152 152 142
0.21883839 0.16493143 0.51945734 159 159 149
1.26620579 0.48585895 1.53022993 153 150 142
1.24911296 0.47830114 1.50642633 151 148 140
1.23796153 0.47304508 1.48987222 150 146 138
1.25153923 0.47724062 1.50308609 147 143 136
1.26253545 0.48043641 1.51315141 145 141 134
1.25673521 0.47724062 1.50308609 144 140 133
1.24552464 0.47200772 1.48660493 145 139 132
1.23724115 0.46790329 1.47367787 144 138 131
1.21859527 0.45990494 1.44848680 139 134 132
1.22633970 0.46187878 1.45470357 134 130 131
-0.71902478 0.63462520 1.98795259 93 94 94
-0.64254498 0.58966541 1.84711671 105 109 109
-0.63588709 0.58646935 1.83710527 119 120 120
-0.62760925 0.58173978 1.82228994 119 120 120
-0.61946392 0.57708585 1.80771160 124 125 126
-0.61470020 0.57555103 1.80290389 123 124 126
-0.60996181 0.57402438 1.79812157 124 125 127
-0.60685390 0.57402438 1.79812157 128 129 130
-0.59897959 0.56949264 1.78392589 130 130 131
-0.59122860 0.56503183 1.76995254 136 136 136
-0.58058989 0.55775052 1.74714386 141 141 140
-0.57313859 0.55347109 1.73373878 148 148 146
-0.15471506 0.16030163 0.50214213 122 123 122
-0.15384716 0.16030163 0.50214213 112 115 114
-0.15320621 0.16053946 0.50288713 106 110 110
-0.15222409 0.16042046 0.50251436 109 116 117
-0.15124342 0.16030163 0.50214213 112 118 120
-0.15015306 0.16006449 0.50139928 115 121 121
-0.14928643 0.16006449 0.50139928 122 124 124
-0.14831011 0.15994619 0.50102872 120 120 120
-0.14733522 0.15982807 0.50065869 117 117 116
-0.14646988 0.15982807 0.50065869 102 102 102
-0.14571214 0.15994619 0.50102872 91 91 93
0.05542805 0.21903563 0.68612534 163 158 151
0.05638568 0.21815242 0.68335873 165 160 153
0.05745098 0.21771348 0.68198377 164 159 152
0.05880722 0.21837255 0.68404830 168 161 154
0.06017170 0.21903563 0.68612534 164 161 153
0.06279777 0.21992601 0.68891448 156 153 147
0.06398850 0.21992601 0.68891448 147 146 144
0.06491535 0.21903563 0.68612534 141 140 140
0.06596772 0.21859312 0.68473923 120 118 119
0.06688102 0.21771348 0.68198377 105 104 109
0.06799137 0.21749467 0.68129832 107 106 112
0.06903018 0.21705838 0.67993164 120 118 127
0.07020539 0.21705838 0.67993164 127 127 132
0.07130907 0.21684088 0.67925036 132 132 135
0.07248310 0.21684088 0.67925036 142 142 143
0.07350981 0.21640719 0.67789185 147 147 148
0.07460689 0.21619101 0.67721462 153 153 154
0.07547580 0.21533054 0.67451924 159 159 158
0.07648943 0.21490288 0.67317957 158 159 157
0.07765297 0.21490288 0.67317957 162 162 159
0.07889485 0.21511650 0.67384875 162 162 158
0.08198147 0.21405262 0.67051619 158 159 152
0.08281276 0.21320906 0.66787374 158 158 149
0.08371967 0.21258074 0.66590554 155 155 145
0.37302497 0.39204201 1.22806489 158 158 149
0.37311977 0.38992289 1.22142673 157 157 148
0.37321353 0.38782653 1.21485996 154 154 145
0.37330627 0.38575259 1.20836341 146 147 140
0.20208915 0.16608380 0.52025467 115 114 111
0.20283270 0.16595644 0.51985568 124 124 121
0.20357512 0.16582927 0.51945734 131 131 128
0.20462976 0.16595644 0.51985568 137 137 134
0.20552829 0.16595644 0.51985568 137 137 133
0.20579554 0.16544893 0.51826596 137 135 132
0.20637576 0.16519633 0.51747471 140 136 133
0.20774592 0.16557552 0.51866245 144 140 137
0.20896216 0.16582927 0.51945734 148 144 141
0.21002093 0.16595644 0.51985568 154 151 143
0.21108133 0.16608380 0.52025467 156 153 145
0.21181798 0.16595644 0.51985568 157 154 146
0.21239077 0.16570230 0.51905960 156 155 146
0.21312472 0.16557552 0.51866245 156 155 146
0.21336819 0.16507033 0.51707995 154 155 148
0.21442547 0.16519633 0.51747471 152 153 146
0.21581413 0.16557552 0.51866245 152 151 146
0.21760705 0.16557552 0.51866245 152 152 144
0.21883839 0.16582927 0.51945734 154 152 144
0.21889755 0.16519633 0.51747471 148 145 137
1.27194822 0.49071926 1.53716969 150 149 140
1.26031578 0.48521793 1.51993692 151 148 140
1.24894130 0.47983858 1.50308609 150 147 139
1.26556993 0.48521793 1.51993692 149 146 137
1.27390969 0.48740360 1.52678347 149 146 137
1.26233304 0.48197594 1.50978136 150 148 139
1.24826205 0.47562021 1.48987222 148 148 138
1.23993659 0.47147536 1.47688854 148 148 138
1.22382534 0.46439314 1.45470357 147 147 138
1.22633970 0.46439314 1.45470357 144 144 137
1.05086052 0.38302159 1.19980860 124 115 109
1.05855501 0.38506618 1.20621324 121 112 105
1.05192041 0.37966174 1.18928397 139 139 128
1.03759301 0.37376028 1.17079771 143 143 132
-0.72326684 0.64182562 1.99968100 99 100 100
-0.64573759 0.59285796 1.84711671 96 103 101
-0.64606577 0.59610653 1.85723794 100 107 105
-0.64285570 0.59610653 1.85723794 110 111 111
-0.63271177 0.58964467 1.83710527 109 110 110
-0.62278545 0.58332139 1.81740439 112 112 112
-0.61798739 0.58176172 1.81254506 119 119 120
-0.61321491 0.58021033 1.80771160 126 126 128
-0.61009043 0.58021033 1.80771160 129 129 129
-0.60374600 0.57713228 1.79812157 133 133 132
-0.59746850 0.57408673 1.78863287 135 135 135
-0.58970910 0.56957823 1.77458596 137 137 136
-0.57906252 0.56221932 1.75165856 142 142 140
-0.15460055 0.16105025 0.50177044 118 119 119
-0.15384716 0.16116954 0.50214213 112 112 114
-0.15309264 0.16128901 0.50251436 109 109 111
-0.15211134 0.16116954 0.50214213 113 114 116
-0.15113147 0.16105025 0.50177044 115 116 118
-0.15004209 0.16081218 0.50102872 119 120 120
-0.14906591 0.16069341 0.50065869 121 121 120
-0.14820057 0.16069341 0.50065869 115 115 113
-0.14722648 0.16057482 0.50028920 109 112 111
-0.14636178 0.16057482 0.50028920 94 97 97
-0.14560452 0.16069341 0.50065869 89 93 94
0.05649959 0.21977665 0.68473923 163 162 152
0.05768311 0.21977665 0.68473923 162 160 150
0.05892615 0.21999887 0.68543160 161 161 150
0.06023267 0.22044466 0.68682051 160 160 150
0.06154449 0.22089227 0.68821508 162 162 152
0.06279777 0.22111675 0.68891448 159 156 149
0.06398850 0.22111675 0.68891448 151 150 145
0.06491535 0.22022153 0.68612534 146 145 142
0.06596772 0.21977665 0.68473923 133 129 130
0.06694837 0.21911266 0.68267053 115 112 117
0.06805976 0.21889223 0.68198377 106 104 112
0.06909949 0.21845269 0.68061429 117 115 124
0.07020539 0.21823359 0.67993164 122 120 128
0.07138059 0.21823359 0.67993164 128 127 134
0.07248310 0.21801491 0.67925036 138 138 142
0.07350981 0.21757887 0.67789185 145 145 146
0.07468150 0.21757887 0.67789185 155 155 155
0.07555097 0.21671203 0.67519110 156 156 156
0.07664165 0.21649639 0.67451924 155 155 151
0.07765297 0.21606642 0.67317957 161 162 157
0.07897335 0.21649639 0.67451924 159 160 153
0.08181961 0.21478665 0.66919231 157 158 149
0.08273125 0.21415244 0.66721636 156 156 145
0.08363751 0.21352196 0.66525203 152 152 140
0.37311977 0.39203402 1.22142673 158 158 150
0.37254587 0.38922876 1.21268666 156 156 148
0.37330627 0.38784114 1.20836341 156 153 147
0.38523635 0.38104883 1.18720114 147 147 143
0.38392645 0.37774110 1.17689562 156 155 151
0.20224436 0.16711128 0.52065426 118 116 113
0.20283270 0.16685496 0.51985568 121 120 116
0.20373122 0.16685496 0.51985568 126 126 121
0.20462976 0.16685496 0.51985568 127 128 122
0.20552829 0.16685496 0.51985568 130 130 125
0.20595300 0.16647197 0.51866245 132 132 128
0.20684946 0.16647197 0.51866245 136 136 132
0.20806432 0.16672711 0.51945734 140 138 134
0.20912240 0.16685496 0.51985568 145 141 138
0.21108133 0.16698302 0.52025467 156 152 149
0.21181798 0.16685496 0.51985568 157 154 148
0.21239077 0.16659945 0.51905960 156 154 148
0.21312472 0.16647197 0.51866245 154 154 147
0.21320556 0.16583756 0.51668584 155 155 148
0.21426192 0.16596405 0.51707995 157 157 150
0.21548438 0.16621763 0.51787001 155 154 150
0.21654491 0.16634470 0.51826596 155 154 150
0.21727458 0.16621763 0.51787001 155 154 149
0.21816967 0.16621763 0.51787001 159 158 151
0.21823119 0.16558515 0.51589942 159 157 148
1.27194822 0.49337614 1.53716969 152 151 141
1.26314795 0.48894131 1.52335250 151 148 139
1.25450444 0.48458546 1.50978136 150 147 138
1.27127075 0.49004251 1.52678347 150 147 137
1.27678525 0.49114871 1.53022993 151 149 137
1.26515079 0.48566714 1.51315141 160 158 147
1.24826205 0.47819534 1.48987222 157 156 143
1.24264395 0.47506306 1.48011315 156 156 143
1.22382534 0.46690747 1.45470357 159 158 146
1.03818166 0.38577816 1.20193589 129 124 117
1.03841794 0.38509536 1.19980860 132 125 120
1.04233658 0.38577816 1.20193589 133 125 121
1.05794787 0.38922876 1.21268666 125 117 111
1.05626476 0.38784114 1.20836341 119 111 107
1.05459368 0.38646337 1.20407081 114 106 107
1.06044185 0.38784114 1.20836341 119 111 111
1.06861246 0.38853371 1.21052110 139 139 139
1.05562437 0.38306141 1.19347155 143 144 139
1.03938818 0.37643406 1.17282331 148 150 142
-0.64927584 0.59931660 1.85723794 98 107 104
-0.64962536 0.60261863 1.86747062 100 107 105
-0.64639759 0.60261863 1.86747062 102 106 105
-0.63615978 0.59605056 1.84711671 102 105 104
-0.62614274 0.58962417 1.82720172 110 110 110
-0.62130988 0.58803916 1.82228994 121 122 122
-0.61650294 0.58646262 1.81740439 128 128 127
-0.61336172 0.58646262 1.81740439 124 124 122
-0.60696596 0.58333480 1.80771160 130 130 128
-0.60063809 0.58024019 1.79812157 133 133 131
-0.59594941 0.57870519 1.79336464 136 135 133
-0.15482976 0.16215757 0.50251436 111 111 113
-0.15396120 0.16215757 0.50251436 105 104 106
-0.15320621 0.16227786 0.50288713 107 106 108
-0.15211134 0.16203745 0.50214213 113 112 114
-0.15113147 0.16191751 0.50177044 115 115 116
-0.14993127 0.16155876 0.50065869 116 119 119
-0.14917609 0.16167817 0.50102872 111 114 114
-0.14820057 0.16155876 0.50065869 109 114 113
-0.14722648 0.16143952 0.50028920 97 103 103
-0.14625384 0.16132048 0.49992025 90 97 96
-0.14549707 0.16143952 0.50028920 86 93 93
0.05774143 0.22118358 0.68543160 162 162 151
0.05898579 0.22140744 0.68612534 160 160 149
0.06023267 0.22163177 0.68682051 160 160 149
0.06154449 0.22208178 0.68821508 159 159 148
0.06273402 0.22208178 0.68821508 157 154 146
0.06392354 0.22208178 0.68821508 153 152 144
0.06491535 0.22140744 0.68612534 146 146 140
0.06596772 0.22096016 0.68473923 123 122 120
0.06694837 0.22029261 0.68267053 126 125 127
0.06805976 0.22007099 0.68198377 107 106 110
0.06909949 0.21962908 0.68061429 114 112 119
0.07020539 0.21940878 0.67993164 119 119 124
0.07138059 0.21940878 0.67993164 128 128 132
0.07248310 0.21918894 0.67925036 136 135 137
0.07358340 0.21896952 0.67857039 140 140 141
0.07468150 0.21875057 0.67789185 146 146 146
0.07562630 0.21809627 0.67586422 151 149 148
0.07664165 0.21766225 0.67451924 152 151 148
0.07765297 0.21722995 0.67317957 153 152 149
0.07897335 0.21766225 0.67451924 155 151 149
0.08190046 0.21615668 0.66985363 157 155 148
0.08281276 0.21551779 0.66787374 151 151 140
0.08371967 0.21488267 0.66590554 151 150 139
0.37100860 0.39414516 1.22142673 159 160 153
0.37178001 0.39272991 1.21704102 159 159 152
0.37121773 0.38992968 1.20836341 157 157 150
0.37132061 0.38785559 1.20193589 155 152 145
0.37207863 0.38648510 1.19768882 150 147 140
0.38453123 0.38444737 1.19137406 136 137 135
0.38456285 0.38243106 1.18512559 143 143 140
0.38326108 0.37911707 1.17485583 147 147 143
0.38198164 0.37586007 1.16476262 153 153 149
0.37750846 0.36951107 1.14508760 158 157 153
0.20283270 0.16775350 0.51985568 122 121 117
0.20357512 0.16762495 0.51945734 124 124 118
0.20462976 0.16775350 0.51985568 125 125 118
0.20552829 0.16775350 0.51985568 129 130 123
0.20595300 0.16736844 0.51866245 130 131 125
0.20669132 0.16724049 0.51826596 131 131 125
0.20806432 0.16762495 0.51945734 136 135 130
0.20912240 0.16775350 0.51985568 141 139 135
0.21165568 0.16762495 0.51945734 157 154 148
0.21222825 0.16736844 0.51866245 156 154 148
0.21279909 0.16711272 0.51787001 154 154 147
0.21288104 0.16647683 0.51589942 155 155 148
0.21344785 0.16622382 0.51511538 158 158 151
0.21482792 0.16660362 0.51629233 158 159 152
0.21588472 0.16673061 0.51668584 158 158 152
0.21661265 0.16660362 0.51629233 157 157 151
0.21733950 0.16647683 0.51589942 158 158 151
0.21773408 0.16609761 0.51472425 161 161 152
0.21796174 0.16559467 0.51316565 158 158 149
0.86865425 0.41826111 1.29616034 141 137 130
1.26314795 0.49157429 1.52335250 154 152 139
1.25171673 0.48611236 1.50642633 155 152 140
1.26841390 0.49157429 1.52335250 155 153 140
1.27104688 0.49157429 1.52335250 154 153 137
1.25952792 0.48611236 1.50642633 162 161 145
1.24552464 0.47971615 1.48660493 166 164 148
1.23188508 0.47348607 1.46729839 165 163 145
1.04469013 0.39343625 1.21922994 112 111 106
1.04117966 0.39132479 1.21268666 113 113 109
1.03770661 0.38923588 1.20621324 114 114 110
1.04164493 0.38992968 1.20836341 115 115 111
1.04373348 0.38992968 1.20836341 119 119 115
1.04582202 0.38992968 1.20836341 121 119 115
1.05165982 0.39132479 1.21268666 120 114 111
1.04626906 0.38854450 1.20407081 112 106 103
1.05585182 0.39132479 1.21268666 106 100 96
1.06365621 0.39343625 1.21922994 113 106 102
1.06004393 0.39132479 1.21268666 126 120 116
1.06024325 0.39062598 1.21052110 133 130 128
1.06614316 0.39202610 1.21485996 140 137 135
1.05687869 0.38785559 1.20193589 142 140 139
1.07807088 0.39485660 1.22363150 140 141 141
1.07436800 0.39272991 1.21704102 143 144 144
1.05748618 0.38580346 1.19557643 147 149 145
1.04845786 0.38176364 1.18305731 152 154 147
1.03248370 0.37521538 1.16276479 158 160 153
-0.64962536 0.60584641 1.86747062 97 106 103
-0.64818323 0.60751998 1.87262940 98 104 102
-0.63964558 0.60252666 1.85723794 98 103 102
-0.62783504 0.59438443 1.83214009 106 107 106
-0.62298459 0.59278232 1.82720172 121 121 119
-0.61816019 0.59118879 1.82228994 125 124 122
-0.61501056 0.59118879 1.82228994 127 123 122
-0.60858887 0.58802736 1.81254506 131 127 126
-0.59911937 0.58489960 1.80290389 126 124 123
-0.15396120 0.16302612 0.50251436 104 102 108
-0.15320621 0.16314706 0.50288713 110 108 113
-0.15211134 0.16290537 0.50214213 101 100 102
-0.15113147 0.16278479 0.50177044 110 111 113
-0.14993127 0.16242410 0.50065869 108 114 114
-0.14917609 0.16254416 0.50102872 102 108 108
-0.14831011 0.16254416 0.50102872 98 104 104
-0.14722648 0.16230424 0.50028920 94 103 102
-0.14614606 0.16206503 0.49955183 86 95 94
-0.14549707 0.16230424 0.50028920 80 89 88
0.06273402 0.22327131 0.68821508 157 154 146
0.06392354 0.22327131 0.68821508 151 149 142
0.06484971 0.22236829 0.68543160 144 145 138
0.06590116 0.22191952 0.68404830 130 129 125
0.06694837 0.22147255 0.68267053 130 129 127
0.06805976 0.22124974 0.68198377 102 101 101
0.06909949 0.22080547 0.68061429 108 107 110
0.07020539 0.22058399 0.67993164 113 113 117
0.07138059 0.22058399 0.67993164 118 118 122
0.07248310 0.22036296 0.67925036 129 126 129
0.07358340 0.22014238 0.67857039 137 136 136
0.07475625 0.22014238 0.67857039 140 139 139
0.07570177 0.21948327 0.67653877 155 151 149
0.07671799 0.21904606 0.67519110 150 147 146
0.07773016 0.21861057 0.67384875 150 147 145
0.07897335 0.21882810 0.67451924 149 143 143
0.08190046 0.21731447 0.66985363 147 144 141
0.08281276 0.21667215 0.66787374 139 139 130
0.37023166 0.39768940 1.22584414 160 161 154
0.37034133 0.39554361 1.21922994 161 161 154
0.36978832 0.39271829 1.21052110 160 160 153
0.36924317 0.38993305 1.20193589 159 159 152
0.37066340 0.38924292 1.19980860 158 156 149
0.37142241 0.38786992 1.19557643 154 151 143
0.37348887 0.38786992 1.19557643 146 145 138
0.37621886 0.38855520 1.19768882 138 138 133
0.37762177 0.38786992 1.19557643 131 131 130
0.37901977 0.38718703 1.19347155 124 124 125
0.37775728 0.38380843 1.18305731 124 124 125
0.38046607 0.38447943 1.18512559 125 126 127
0.38453123 0.38650659 1.19137406 131 132 132
0.38523635 0.38515279 1.18720114 137 137 137
0.38259798 0.38048831 1.17282331 142 142 138
0.38198164 0.37787327 1.16476262 144 143 139
0.38072401 0.37465459 1.15484130 148 146 142
0.20758711 0.16813627 0.51826596 130 129 120
0.21133178 0.16826491 0.51866245 152 150 145
0.21190400 0.16800782 0.51787001 156 154 148
0.21231250 0.16762365 0.51668584 156 156 147
0.21239613 0.16698727 0.51472425 157 158 150
0.21312396 0.16686058 0.51433372 158 159 152
0.21417545 0.16698727 0.51472425 158 159 152
0.21522853 0.16711417 0.51511538 159 160 153
0.21595477 0.16698727 0.51472425 163 162 157
0.21684442 0.16698727 0.51472425 164 163 158
0.21740393 0.16673407 0.51394379 164 164 155
0.21779688 0.16635570 0.51277751 163 163 154
0.86042833 0.41651940 1.28388608 134 134 125
0.85777372 0.41416618 1.27663243 139 138 129
0.85037154 0.40953863 1.26236844 143 140 132
1.27414036 0.49643847 1.53022993 159 157 146
1.27104688 0.49420729 1.52335250 160 158 142
1.25395477 0.48655364 1.49976075 163 161 144
1.24008572 0.48017958 1.48011315 167 164 147
1.21349871 0.46891737 1.44539833 172 166 150
1.04657245 0.39625630 1.22142673 119 116 108
1.04304552 0.39412588 1.21485996 113 113 108
1.03955626 0.39201826 1.20836341 111 111 106
1.04164493 0.39201826 1.20836341 111 111 106
1.04559720 0.39271829 1.21052110 111 111 107
1.04768956 0.39271829 1.21052110 110 108 105
1.05354452 0.39412588 1.21485996 103 98 96
1.05375576 0.39342082 1.21268666 106 100 98
1.05964303 0.39483348 1.21704102 110 104 100
1.06365621 0.39554361 1.21922994 117 112 106
1.06194365 0.39412588 1.21485996 135 130 124
1.06213999 0.39342082 1.21268666 139 137 132
1.06805730 0.39483348 1.21704102 144 144 138
1.06442785 0.39271829 1.21052110 148 149 143
1.08002043 0.39768940 1.22584414 151 152 144
1.07823956 0.39625630 1.22142673 153 154 145
1.06311107 0.38993305 1.20193589 155 156 147
1.05213022 0.38515279 1.18720114 157 158 150
1.03782415 0.37917629 1.16877902 158 159 150
-0.65686351 0.61586052 1.88827813 96 105 102
-0.65178424 0.61414981 1.88303292 94 102 100
-0.64140284 0.60740089 1.86234021 96 102 101
-0.63124716 0.60079873 1.84209740 109 110 111
-0.62466830 0.59755117 1.83214009 122 120 119
-0.62150162 0.59755117 1.83214009 128 124 123
-0.61666822 0.59594047 1.82720172 122 118 117
-0.60858887 0.59116024 1.81254506 124 120 119
-0.59911937 0.58801574 1.80290389 113 114 113
-0.15384716 0.16377327 0.50214213 110 108 116
-0.15309264 0.16389468 0.50251436 113 112 119
-0.15199874 0.16365205 0.50177044 111 111 113
-0.15090807 0.16341014 0.50102872 110 111 113
-0.14982061 0.16316895 0.50028920 107 109 111
-0.14906591 0.16328946 0.50065869 106 109 110
-0.14820057 0.16328946 0.50065869 102 105 106
-0.14711791 0.16304861 0.49992025 96 103 102
-0.14593099 0.16268869 0.49881667 92 100 99
-0.14528263 0.16292846 0.49955183 90 99 100
0.06267039 0.22423318 0.68751711 156 153 144
0.06385871 0.22423318 0.68751711 148 146 137
0.06484971 0.22355300 0.68543160 142 142 133
0.06590116 0.22310184 0.68404830 134 134 125
0.06694837 0.22265249 0.68267053 128 126 122
0.06812831 0.22265249 0.68267053 110 108 109
0.06909949 0.22198185 0.68061429 99 97 99
0.07027587 0.22198185 0.68061429 110 107 111
0.07145226 0.22198185 0.68061429 112 109 114
0.07255580 0.22175920 0.67993164 120 120 123
0.07365713 0.22153699 0.67925036 133 133 135
0.07483116 0.22153699 0.67925036 136 136 136
0.07577740 0.22087304 0.67721462 140 139 136
0.07687112 0.22065261 0.67653877 140 137 134
0.07788500 0.22021307 0.67519110 141 137 134
0.07905202 0.22021307 0.67519110 141 135 134
0.08021902 0.22021307 0.67519110 140 134 134
0.08122424 0.21977527 0.67384875 139 133 133
0.08190046 0.21847226 0.66985363 135 131 130
0.08289442 0.21804135 0.66853237 132 131 129
0.08404993 0.21804135 0.66853237 129 129 127
0.36956337 0.39908651 1.22363150 156 156 149
0.36967644 0.39693701 1.21704102 159 159 152
0.36847237 0.39340556 1.20621324 160 160 153
0.36858964 0.39131668 1.19980860 160 160 153
0.37000853 0.39062530 1.19768882 161 159 152
0.37076849 0.38924986 1.19347155 161 158 150
0.37283131 0.38924986 1.19347155 155 155 147
0.37489414 0.38924986 1.19347155 143 144 136
0.37695697 0.38924986 1.19347155 142 142 138
0.37702844 0.38720477 1.18720114 140 140 139
0.37513849 0.38317838 1.17485583 133 133 133
0.37914041 0.38518104 1.18099630 129 130 130
0.38318437 0.38720477 1.18720114 131 131 131
0.38322291 0.38518104 1.18099630 133 133 133
0.38127869 0.38119641 1.16877902 133 133 131
0.38132644 0.37923485 1.16276479 138 137 134
0.38202563 0.37793833 1.15878952 140 138 136
0.37954345 0.37158641 1.13931406 141 140 137
0.37645116 0.36665657 1.12419879 151 151 147
0.37282962 0.36126459 1.10766637 152 152 148
0.21117023 0.16903205 0.51826596 147 145 141
0.21158072 0.16864525 0.51707995 152 151 147
0.21215081 0.16838837 0.51629233 155 154 149
0.21239613 0.16787693 0.51472425 155 155 149
0.21296237 0.16762239 0.51394379 158 159 152
0.21401294 0.16774955 0.51433372 159 159 153
0.21506511 0.16787693 0.51472425 160 160 155
0.21579091 0.16774955 0.51433372 161 160 156
0.21651562 0.16762239 0.51394379 161 160 156
0.21746787 0.16698937 0.51200289 172 165 159
0.85295475 0.41403356 1.26946032 133 132 128
0.84721619 0.41019282 1.25768435 137 137 130
0.83850038 0.40493393 1.24156010 141 140 133
0.83605266 0.40272117 1.23477566 147 143 136
0.84433866 0.40567693 1.24383819 147 141 134
1.27678525 0.49908334 1.53022993 161 158 145
1.25673521 0.49023041 1.50308609 163 160 143
1.23738396 0.48168612 1.47688854 166 163 146
1.05101216 0.39765093 1.21922994 105 106 100
1.05501699 0.39836743 1.22142673 106 105 102
1.05522692 0.39765093 1.21922994 106 106 102
1.05923927 0.39836743 1.22142673 85 84 80
1.06135046 0.39836743 1.22142673 96 94 90
1.06346154 0.39836743 1.22142673 115 113 108
1.06557274 0.39836743 1.22142673 132 130 122
1.06385016 0.39693701 1.21704102 140 137 129
1.06595373 0.39693701 1.21704102 143 142 133
1.06997824 0.39765093 1.21922994 146 147 137
1.06824303 0.39622566 1.21485996 152 153 143
1.08002043 0.39980817 1.22584414 156 157 148
1.07823956 0.39836743 1.22142673 158 159 150
1.06311107 0.39201051 1.20193589 159 160 151
1.04845786 0.38585326 1.18305731 161 161 151
1.02744412 0.37665063 1.15484130 161 160 150
-0.67183477 0.63323534 1.93131578 93 101 98
-0.65542549 0.62085366 1.89355266 93 99 100
-0.64494652 0.61399341 1.87262940 97 101 101
-0.63643551 0.60894686 1.85723794 108 109 108
-0.62806326 0.60398263 1.84209740 121 119 116
-0.62658203 0.60562837 1.84711671 131 127 124
-0.62001061 0.60234582 1.83710527 123 119 116
-0.61022049 0.59588635 1.81740439 120 118 115
-0.60707927 0.59588635 1.81740439 109 112 111
-0.60232317 0.59429306 1.81254506 102 105 106
-0.59919035 0.59429306 1.81254506 111 115 116
-0.59926212 0.59748816 1.82228994 120 121 124
-0.59771925 0.59909868 1.82720172 123 123 126
-0.58979183 0.59429306 1.81254506 125 126 128
-0.58509457 0.59270829 1.80771160 125 125 125
-0.58197010 0.59270829 1.80771160 123 123 122
-0.58194935 0.59588635 1.81740439 123 124 122
-0.58350116 0.60071784 1.83214009 124 124 123
-0.57877022 0.59909868 1.82720172 122 122 120
-0.15373328 0.16451932 0.50177044 109 110 113
-0.15286601 0.16451932 0.50177044 114 115 118
-0.15177405 0.16427612 0.50102872 115 116 118
-0.15079661 0.16415480 0.50065869 114 115 117
-0.14948964 0.16367128 0.49918398 114 115 117
-0.14851747 0.16355085 0.49881667 116 117 117
-0.14787294 0.16379189 0.49955183 111 112 112
-0.14679316 0.16355085 0.49881667 103 108 106
-0.14560956 0.16319060 0.49771795 102 107 106
0.06273402 0.22565036 0.68821508 152 149 139
0.06392354 0.22565036 0.68821508 147 145 134
0.06491535 0.22496518 0.68612534 139 138 127
0.06603443 0.22473772 0.68543160 131 128 119
0.06708348 0.22428416 0.68404830 126 123 117
0.06826580 0.22428416 0.68404830 117 113 116
0.06923852 0.22360724 0.68198377 104 102 105
0.07034650 0.22338252 0.68129832 103 101 104
0.07159603 0.22360724 0.68198377 110 106 111
0.07262865 0.22315824 0.68061429 116 115 118
0.07373101 0.22293441 0.67993164 121 121 121
0.07483116 0.22271103 0.67925036 124 124 122
0.07585318 0.22226560 0.67789185 129 128 126
0.07702486 0.22226560 0.67789185 131 128 127
0.07804046 0.22182196 0.67653877 132 128 127
0.07920980 0.22182196 0.67653877 131 128 124
0.08029900 0.22160080 0.67586422 130 128 126
0.08130506 0.22115980 0.67451924 127 127 125
0.08206264 0.22006495 0.67118007 122 121 119
0.08322272 0.22006495 0.67118007 120 119 119
0.08463418 0.22072056 0.67317957 120 119 120
0.08588301 0.22093996 0.67384875 120 116 118
0.08661720 0.21984728 0.67051619 115 114 115
0.36956337 0.40120146 1.22363150 156 156 149
0.36967644 0.39904058 1.21704102 159 159 152
0.36912918 0.39619538 1.20836341 160 160 153
0.36858964 0.39339045 1.19980860 163 159 153
0.36935595 0.39200282 1.19557643 164 161 154
0.37076849 0.39131269 1.19347155 160 160 151
0.37283131 0.39131269 1.19347155 159 160 151
0.37489414 0.39131269 1.19347155 152 153 144
0.37636930 0.38857624 1.18512559 145 145 140
0.37448946 0.38454255 1.17282331 143 143 139
0.37980208 0.38789809 1.18305731 139 139 139
0.38385662 0.38993967 1.18928397 135 135 135
0.38456285 0.38857624 1.18512559 133 133 133
0.38193721 0.38387841 1.17079771 131 131 131
0.38132644 0.38124460 1.16276479 132 132 131
0.38202563 0.37994120 1.15878952 137 136 134
0.38468611 0.38059178 1.16077375 140 139 137
0.38146684 0.37544864 1.14508760 137 136 134
0.37770391 0.36982629 1.12793982 141 140 138
0.37466621 0.36496815 1.11312294 145 145 143
0.21239613 0.16876659 0.51472425 153 152 148
0.21296237 0.16851069 0.51394379 156 157 150
0.21401294 0.16863854 0.51433372 156 156 148
0.21506511 0.16876659 0.51472425 155 155 146
0.21579091 0.16863854 0.51433372 159 155 147
0.21651562 0.16851069 0.51394379 164 157 150
0.21723923 0.16838303 0.51355445 168 161 154
0.21763225 0.16800120 0.51238990 167 159 153
0.84443527 0.41313308 1.26002204 126 126 117
0.84977210 0.41467464 1.26472354 129 129 120
0.84564728 0.41160297 1.25535524 134 134 125
0.83850038 0.40707985 1.24156010 135 135 126
0.83757830 0.40559417 1.23702896 131 131 120
0.86994302 0.41700864 1.27184212 135 130 115
0.87378061 0.41779250 1.27423275 137 131 114
1.29757285 0.51095539 1.55837202 157 158 149
1.28549063 0.50514907 1.54066324 159 160 149
1.26233304 0.49502361 1.50978136 161 161 147
1.24008572 0.48529607 1.48011315 162 161 147
1.21869576 0.47594348 1.45158851 153 150 136
1.05671382 0.40192693 1.22584414 104 103 97
1.06075084 0.40265507 1.22806489 100 99 97
1.06095147 0.40192693 1.22584414 97 96 94
1.06307018 0.40192693 1.22584414 92 91 89
1.06326628 0.40120146 1.22363150 98 97 95
1.06538117 0.40120146 1.22363150 120 119 116
1.06749618 0.40120146 1.22363150 133 133 125
1.06385016 0.39904058 1.21704102 138 138 129
1.06404340 0.39832544 1.21485996 141 142 132
1.06997824 0.39975828 1.21922994 145 146 136
1.06633198 0.39761287 1.21268666 148 149 139
1.08002043 0.40192693 1.22584414 151 152 142
1.07630026 0.39975828 1.21922994 153 154 145
1.05748618 0.39200282 1.19557643 154 155 146
1.04118955 0.38520902 1.17485583 156 156 146
1.03071582 0.38059178 1.16077375 157 157 146
1.02744412 0.37864667 1.15484130 158 157 147
1.01902425 0.37481552 1.14315653 159 157 147
-0.65726143 0.62587476 1.89885676 92 98 97
-0.64494652 0.61723006 1.87262940 96 102 99
-0.60707927 0.59902757 1.81740439 110 114 113
-0.60556149 0.60063785 1.82228994 106 109 113
-0.60079676 0.59902757 1.81740439 110 112 118
-0.60250139 0.60388458 1.83214009 118 118 125
-0.59933466 0.60388458 1.83214009 121 121 128
-0.59296274 0.60063785 1.82228994 125 125 129
-0.58823180 0.59902757 1.81740439 129 129 131
-0.58352619 0.59742588 1.81254506 129 129 130
-0.58351374 0.60063785 1.82228994 128 129 129
-0.58508247 0.60552108 1.83710527 126 127 127
-0.57877022 0.60225683 1.82720172 121 122 124
-0.58030450 0.60716653 1.84209740 123 124 126
-0.58027428 0.61048436 1.85216355 123 124 126
-0.15373328 0.16538659 0.50177044 119 120 122
-0.15286601 0.16538659 0.50177044 121 122 124
-0.15166196 0.16502015 0.50065869 121 122 126
-0.15068533 0.16489837 0.50028920 121 122 125
-0.14926980 0.16429213 0.49844989 121 122 124
-0.14808163 0.16393051 0.49735278 122 123 123
-0.14765531 0.16441301 0.49881667 115 116 116
-0.14668521 0.16429213 0.49844989 109 110 109
-0.14539605 0.16381033 0.49698815 108 111 107
0.06267039 0.22660983 0.68751711 144 143 134
0.06379401 0.22638023 0.68682051 142 141 131
0.06484971 0.22592244 0.68543160 141 137 126
0.06596772 0.22569422 0.68473923 140 136 124
0.06708348 0.22546647 0.68404830 130 127 118
0.06826580 0.22546647 0.68404830 116 116 116
0.06923852 0.22478600 0.68198377 111 111 111
0.07041728 0.22478600 0.68198377 111 111 112
0.07159603 0.22478600 0.68198377 114 113 115
0.07270164 0.22456008 0.68129832 117 116 116
0.07380503 0.22433463 0.68061429 119 118 118
0.07490622 0.22410960 0.67993164 123 122 120
0.07592911 0.22366095 0.67857039 125 121 120
0.07710196 0.22366095 0.67857039 120 117 116
0.07819654 0.22343728 0.67789185 120 117 116
0.07936822 0.22343728 0.67789185 119 118 114
0.08045945 0.22321407 0.67721462 119 118 116
0.08146718 0.22276898 0.67586422 115 115 114
0.08222546 0.22166397 0.67251176 110 110 109
0.08355363 0.22210465 0.67384875 108 108 108
0.08488708 0.22254710 0.67519110 112 112 114
0.08613989 0.22276898 0.67586422 113 111 113
0.10929046 0.20688638 0.62767762 130 126 118
0.11027325 0.20669499 0.62709701 123 121 117
0.11064068 0.20536515 0.62306237 110 109 107
0.11110488 0.20423883 0.61964518 108 108 108
0.11207344 0.20405231 0.61907929 98 98 99
0.11304024 0.20386614 0.61851448 95 94 95
0.37023166 0.40404573 1.22584414 153 152 147
0.37100860 0.40258971 1.22142673 158 157 152
0.37111375 0.40042523 1.21485996 159 158 153
0.36989900 0.39686906 1.20407081 162 158 152
0.37000853 0.39476553 1.19768882 165 161 155
0.37142241 0.39406928 1.19557643 162 160 152
0.37283131 0.39337549 1.19347155 160 160 151
0.37555534 0.39406928 1.19557643 160 160 151
0.37695697 0.39337549 1.19347155 162 163 152
0.37835366 0.39268416 1.19137406 156 157 147
0.37841767 0.39062461 1.18512559 150 150 141
0.38520822 0.39337549 1.19347155 139 138 134
0.38659042 0.39268416 1.19137406 134 134 133
0.38593653 0.38994291 1.18305731 133 133 131
0.38329881 0.38523671 1.16877902 129 129 127
0.38333619 0.38325435 1.16276479 129 129 125
0.38534594 0.38325435 1.16276479 135 135 131
0.38406184 0.37999538 1.15287733 137 137 133
0.37833342 0.37239549 1.12981975 137 137 133
0.20616852 0.16965625 0.51472425 131 130 112
0.21068700 0.17043272 0.51707995 134 134 129
0.21125844 0.17017311 0.51629233 137 136 135
0.21198936 0.17004359 0.51589942 144 143 140
0.21239613 0.16965625 0.51472425 150 149 145
0.21296237 0.16939901 0.51394379 152 153 146
0.21401294 0.16952753 0.51433372 149 150 142
0.21522853 0.16978517 0.51511538 151 151 142
0.21595477 0.16965625 0.51472425 154 153 144
0.21667990 0.16952753 0.51433372 156 154 146
0.21723923 0.16927066 0.51355445 159 156 148
0.21779688 0.16901459 0.51277751 161 157 150
0.21818803 0.16863191 0.51161647 162 157 148
0.80391490 0.40477768 1.22806489 138 137 128
0.80750042 0.40551230 1.23029375 134 134 125
0.81028277 0.40477768 1.22806489 130 129 120
0.81093627 0.40404573 1.22584414 129 128 119
0.81158745 0.40331641 1.22363150 123 123 113
0.85136044 0.41763979 1.26708758 125 125 117
0.84721619 0.41454041 1.25768435 129 129 120
0.84313297 0.41148672 1.24841964 131 131 122
0.85215664 0.41377276 1.25535524 125 126 110
0.87486720 0.42157978 1.27904117 134 131 114
0.88207078 0.42397967 1.28632224 137 133 115
0.88935685 0.42640704 1.29368675 138 133 115
1.31879485 0.52204973 1.58385944 156 157 148
1.28841889 0.50896877 1.54417276 154 155 146
1.26798105 0.49985969 1.51653659 151 152 142
1.24279916 0.48892185 1.48335195 150 151 141
1.22922444 0.48258594 1.46412921 146 147 137
1.21599698 0.47641212 1.44539833 139 140 129
1.21849525 0.47641212 1.44539833 130 131 121
1.06460810 0.40624961 1.23253059 99 99 96
1.06287348 0.40477768 1.22806489 93 92 90
1.06692886 0.40551230 1.23029375 93 92 90
1.06711864 0.40477768 1.22806489 100 99 97
1.06730771 0.40404573 1.22584414 121 120 118
1.06942654 0.40404573 1.22584414 130 130 124
1.06576359 0.40186563 1.21922994 136 136 128
1.06404340 0.40042523 1.21485996 141 141 133
1.07384098 0.40331641 1.22363150 149 150 141
1.07208562 0.40186563 1.21922994 153 154 145
1.08018577 0.40331641 1.22363150 157 158 149
1.05562437 0.39337549 1.19347155 159 160 151
1.03402126 0.38457364 1.16676736 159 160 150
1.02719796 0.38129228 1.15681207 158 159 148
1.02049017 0.37806648 1.14702511 155 156 145
1.01050401 0.37364095 1.13359845 154 153 140
-0.60556149 0.60378754 1.82228994 113 113 119
-0.60250139 0.60705125 1.83214009 119 118 127
-0.59933466 0.60705125 1.83214009 119 118 125
-0.59296274 0.60378754 1.82228994 127 127 131
-0.58823180 0.60216880 1.81740439 133 134 136
-0.58352619 0.60055876 1.81254506 129 131 132
-0.58194935 0.60216880 1.81740439 127 130 129
-0.58350116 0.60705125 1.83214009 123 126 126
-0.57877022 0.60541499 1.82720172 122 123 125
-0.57873189 0.60869640 1.83710527 124 125 127
-0.57712060 0.61035043 1.84209740 123 125 127
-0.57238132 0.60869640 1.83710527 123 126 127
-0.15384716 0.16637701 0.50214213 121 125 126
-0.15286601 0.16625386 0.50177044 122 126 127
-0.15166196 0.16588549 0.50065869 125 126 128
-0.15057419 0.16564083 0.49992025 126 127 129
-0.14916013 0.16503230 0.49808365 123 124 126
-0.14797306 0.16466933 0.49698815 123 124 123
-0.14765531 0.16527517 0.49881667 114 115 113
-0.14668521 0.16515365 0.49844989 114 115 114
-0.14539605 0.16466933 0.49698815 114 116 113
0.05548421 0.22756734 0.68682051 155 153 146
0.05644258 0.22664881 0.68404830 152 152 145
0.05762490 0.22664881 0.68404830 154 153 145
0.05886663 0.22687775 0.68473923 153 153 144
0.06011086 0.22710714 0.68543160 153 152 143
0.06129557 0.22710714 0.68543160 146 146 137
0.06248029 0.22710714 0.68543160 142 142 133
0.06366500 0.22710714 0.68543160 139 139 130
0.06465360 0.22642033 0.68335873 139 136 128
0.06576843 0.22619231 0.68267053 136 133 126
0.06694837 0.22619231 0.68267053 132 129 123
0.06805976 0.22596475 0.68198377 124 124 121
0.06909949 0.22551101 0.68061429 120 120 117
0.07027587 0.22551101 0.68061429 116 115 114
0.07145226 0.22551101 0.68061429 118 117 117
0.07262865 0.22551101 0.68061429 120 119 119
0.07380503 0.22551101 0.68061429 124 123 122
0.07490622 0.22528481 0.67993164 124 124 122
0.07592911 0.22483380 0.67857039 126 126 124
0.07710196 0.22483380 0.67857039 128 128 126
0.07819654 0.22460896 0.67789185 127 127 126
0.07928893 0.22438458 0.67721462 126 127 126
0.08053990 0.22460896 0.67789185 124 125 124
0.08154849 0.22416064 0.67653877 116 116 116
0.08206264 0.22238511 0.67118007 114 114 114
0.08338784 0.22282635 0.67251176 113 113 114
0.08471832 0.22326934 0.67384875 112 111 113
0.08596846 0.22349150 0.67451924 112 112 114
0.08678889 0.22260551 0.67184526 116 116 118
0.10830586 0.20816401 0.62825936 127 124 115
0.10929046 0.20797126 0.62767762 125 120 112
0.11037535 0.20797126 0.62767762 115 109 107
0.11074246 0.20663199 0.62363553 113 108 108
0.11120653 0.20549768 0.62021214 104 104 106
0.37079495 0.40912381 1.23477566 156 155 151
0.37090236 0.40690029 1.22806489 156 155 151
0.37100860 0.40470085 1.22142673 157 156 151
0.37178001 0.40324768 1.21704102 159 159 152
0.36924317 0.39824283 1.20193589 159 158 152
0.36935595 0.39613575 1.19557643 161 160 153
0.37076849 0.39543831 1.19347155 161 161 153
0.37217608 0.39474335 1.19137406 159 159 151
0.37489414 0.39543831 1.19347155 160 160 151
0.37695697 0.39543831 1.19347155 158 159 147
0.37901977 0.39543831 1.19347155 153 154 142
0.37908041 0.39336070 1.18720114 146 147 137
0.38314542 0.39543831 1.19347155 141 141 132
0.38520822 0.39543831 1.19347155 136 136 127
0.38727105 0.39543831 1.19347155 121 122 114
0.38728833 0.39336070 1.18720114 128 128 122
0.38529173 0.38927031 1.17485583 126 126 122
0.38531896 0.38725683 1.16877902 127 127 123
0.20465727 0.17002949 0.51316565 136 135 117
0.20569995 0.17015831 0.51355445 128 126 109
0.21068700 0.17132644 0.51707995 131 130 126
0.21125844 0.17106546 0.51629233 137 137 135
0.21198936 0.17093529 0.51589942 140 140 136
0.21255752 0.17067550 0.51511538 142 142 135
0.21296237 0.17028731 0.51394379 144 145 138
0.21417545 0.17054591 0.51472425 144 145 138
0.21555611 0.17093529 0.51589942 146 146 138
0.21628320 0.17080529 0.51550710 148 148 140
0.21684442 0.17054591 0.51472425 152 150 143
