ply
format ascii 1.0
element vertex 1040
property float x
property float y
property float z
property uchar red
property uchar green
property uchar blue
end_header
-0.94231039 -0.12046189 1.72931588 158 149 137
-0.94289404 -0.10226711 1.72491562 158 151 138
-0.94408773 -0.11053028 1.76865288 159 148 134
-0.94228202 -0.10829554 1.79178739 152 136 127
-0.94360167 -0.10964989 1.81416484 152 140 131
-0.94655719 -0.08253984 1.67546427 159 152 140
-0.94735809 -0.08905804 1.68954583 158 149 140
-0.94375998 -0.08618485 1.77228542 161 155 137
-0.94283823 -0.09067472 1.79033703 156 149 133
-0.94336764 -0.09468121 1.80772018 155 144 132
-0.94038516 -0.06961897 1.65743732 166 159 145
-0.94538970 -0.07703910 1.67072262 160 152 137
-0.94218689 -0.07957513 1.68629813 160 154 138
-0.94481593 -0.07680269 1.75619650 171 158 144
-0.94406330 -0.06770484 1.76998880 166 158 146
-0.94001454 -0.06602941 1.79336464 161 154 144
-0.94460118 -0.06350252 1.80979046 160 154 140
-0.94606777 -0.05363078 1.81448879 159 151 138
-0.95266791 -0.05295331 1.82351789 157 149 137
-0.92328846 -0.12251327 1.71618187 160 149 137
-0.93068227 -0.12273518 1.72693210 156 145 134
-0.93119973 -0.12154733 1.74489820 159 148 136
-0.92455961 -0.12605354 1.78745613 146 137 124
-0.93691364 -0.12419314 1.80530775 151 140 128
-0.93130457 -0.11091508 1.71455672 160 152 137
-0.92986444 -0.10823042 1.72866405 159 150 135
-0.93092883 -0.10971383 1.74854735 157 147 133
-0.93524019 -0.10615596 1.77114113 153 138 127
-0.92715350 -0.10862324 1.79298078 147 136 128
-0.93700314 -0.11022016 1.80633797 151 139 131
-0.93307889 -0.08668710 1.69126279 159 152 140
-0.93033634 -0.09122765 1.70834028 160 153 139
-0.92552272 -0.09212170 1.72713325 160 153 135
-0.92960577 -0.09261383 1.74916335 158 150 133
-0.93637501 -0.08665751 1.77151583 158 150 135
-0.92782175 -0.08905214 1.79449572 154 144 132
-0.93828541 -0.09150813 1.80675006 153 144 132
-0.93033436 -0.06822553 1.65339753 161 154 138
-0.93324537 -0.07331046 1.66849204 161 153 139
-0.93319831 -0.07848758 1.68798859 161 152 135
-0.92790512 -0.07651466 1.70467595 162 152 136
-0.92973727 -0.07881719 1.73373878 166 157 142
-0.93488203 -0.07336329 1.75110732 165 157 143
-0.93563853 -0.07244882 1.77122501 163 156 141
-0.93577435 -0.07528707 1.79220048 159 151 137
-0.90625033 -0.12807611 1.71128190 150 142 126
-0.91266593 -0.12372299 1.72272664 152 143 130
-0.91035711 -0.13352317 1.77460462 140 129 118
-0.91398262 -0.12572832 1.78523339 142 131 120
-0.91434731 -0.11093852 1.69051035 160 152 137
-0.91927296 -0.10981411 1.70324588 162 152 137
-0.91056490 -0.11663354 1.72580466 153 143 130
-0.91548112 -0.11094366 1.78883726 146 136 125
-0.91663752 -0.08632502 1.69474014 161 154 138
-0.91927296 -0.08920665 1.70324588 161 154 136
-0.91645457 -0.09143725 1.79336967 152 141 128
-0.91570782 -0.07688101 1.69122877 163 153 137
-0.91424555 -0.07649627 1.79653593 147 135 122
-0.91385287 -0.07572915 1.80290389 147 133 125
-0.89641321 -0.13303125 1.69897699 148 142 118
-0.89802730 -0.12959568 1.71185356 146 139 120
-0.64677372 -0.06157350 1.56921089 147 123 99
-0.64938322 -0.05584068 1.57192892 145 121 101
-0.62819991 -0.06894842 1.55302824 144 121 95
-0.63197092 -0.06150725 1.56557485 144 120 97
-0.62761697 -0.05409274 1.55545361 145 119 98
-0.63115010 -0.05517936 1.56396683 144 119 96
-0.60228944 -0.08486012 1.51993692 149 124 99
-0.60899360 -0.08268066 1.52827385 149 125 98
-0.60766503 -0.07257751 1.53439171 147 123 100
-0.61224217 -0.06637059 1.54667654 145 122 96
-0.61024707 -0.05504242 1.54770708 146 122 96
-0.58389980 -0.08354657 1.51993692 146 123 99
-0.59314300 -0.08203438 1.52851447 147 125 100
-0.58969322 -0.07389340 1.52944717 147 124 100
-0.59770527 -0.06580185 1.54286069 145 125 98
-0.59860641 -0.05979588 1.55123997 146 126 99
-0.57776994 -0.07697884 1.51993692 146 121 98
-0.57927957 -0.07328330 1.52506799 145 121 98
-0.38018823 0.34309378 1.47367787 86 87 106
-0.38184845 0.34715027 1.48011315 88 90 108
-0.36540063 0.31902308 1.44540274 124 126 132
-0.36535184 0.32436286 1.45393808 106 107 112
-0.36970190 0.33385032 1.46847920 92 93 102
-0.36266153 0.33819637 1.48011315 132 133 137
-0.36985588 0.34735741 1.47310175 115 119 129
-0.36633252 0.35242371 1.48124092 115 121 128
-0.36924379 0.36480647 1.47424775 104 108 115
-0.36967578 0.36514712 1.48465742 97 100 108
-0.35677835 0.31572194 1.43418725 122 122 125
-0.35114786 0.31845076 1.44849342 114 115 118
-0.35304868 0.32268102 1.45626771 105 106 110
-0.35072766 0.33171384 1.47058347 123 125 130
-0.35711863 0.33862274 1.48011315 141 142 142
-0.34512106 0.35879096 1.45470357 115 119 131
-0.35124106 0.34972798 1.47093749 111 114 123
-0.35626587 0.35354590 1.48011315 92 97 109
-0.34404375 0.36333210 1.43621159 125 126 133
-0.34958899 0.36319120 1.44765413 117 119 127
-0.35516247 0.36361195 1.46604168 92 96 105
-0.32901913 0.31766745 1.43926084 121 130 135
-0.33453078 0.31686214 1.44694918 110 117 127
-0.33150676 0.33756861 1.43926084 105 109 119
-0.33435714 0.33013573 1.44905368 119 125 131
-0.33903313 0.33003537 1.46097374 121 127 136
-0.33685517 0.34296894 1.45158851 96 101 111
-0.33903313 0.34771159 1.46097374 100 103 117
-0.33858192 0.36185962 1.42714071 128 128 136
-0.30425677 -0.16900902 0.49159560 98 129 148
-0.30085590 -0.15991542 0.49134488 89 127 149
-0.29835933 -0.16617475 0.49035253 99 129 150
-0.28519729 0.07630084 0.76574807 145 146 147
-0.28525178 0.08576364 0.76979287 146 147 146
-0.27919132 0.07908092 0.76641273 155 153 145
-0.27906565 0.08623335 0.77110195 135 133 133
-0.18059988 0.11977798 0.75573224 107 109 115
-0.18370878 0.12772838 0.75791869 122 127 132
-0.18518059 0.12440383 0.76167775 115 120 126
-0.18069743 0.14298666 0.75071079 125 126 130
-0.18017837 0.19360624 0.99984050 116 118 131
-0.18578046 0.19452348 1.00716229 121 124 132
-0.18104244 0.20599128 0.99984050 108 113 124
-0.18492262 0.20344807 1.01156087 117 121 131
-0.19106368 0.21027785 1.02609020 116 121 130
-0.17519780 0.11906390 0.75497214 130 131 135
-0.17394929 0.13551895 0.59990430 140 142 151
-0.16849901 0.13093845 0.60694613 128 131 136
-0.16516136 0.12994292 0.73924953 131 139 145
-0.17331205 0.12634489 0.75066390 117 121 126
-0.17129590 0.12058457 0.76082134 132 133 134
-0.17891864 0.14243242 0.75024150 117 121 124
-0.16094466 0.17987131 0.74141051 95 99 107
-0.16365954 0.17987201 0.99397629 109 110 122
-0.16130831 0.18751334 0.73778622 121 127 132
-0.16334453 0.18583506 0.74305691 126 131 135
-0.17110018 0.19342042 0.99532609 118 121 129
-0.16467511 0.19140872 1.01001035 117 119 130
-0.16160673 0.18893974 1.02452846 132 135 143
-0.17518909 0.20262839 0.99410886 111 117 126
-0.16140686 0.20023811 1.00131738 150 151 152
-0.14520085 -0.42428952 1.22876960 98 110 127
-0.15894151 0.12475523 0.60553401 107 111 123
-0.15353142 0.17912290 0.73657576 140 144 145
-0.15847896 0.17952671 0.74086627 119 121 129
-0.15384569 0.18690837 0.73241785 127 132 136
-0.15598437 0.19994277 0.99984050 124 127 133
-0.15637915 0.19320258 1.01053078 140 140 145
-0.15880667 0.18714863 1.02246222 127 130 136
-0.15552558 0.20107776 0.99689978 125 128 136
-0.15959564 0.20058137 1.01177883 131 130 144
-0.12137137 -0.44423147 1.21922994 98 110 127
-0.12448499 -0.44852046 1.22282976 99 111 127
-0.12066893 -0.43896312 1.21922994 98 109 124
-0.12875652 -0.43103748 1.22908391 98 109 124
-0.12223751 -0.42723558 1.24231946 94 112 127
-0.11299915 -0.44499545 1.21269579 98 110 127
-0.11303118 -0.43676455 1.21351717 97 111 124
-0.11526924 -0.43133045 1.22696406 98 109 126
-0.11909723 -0.42952512 1.24690092 93 112 127
-0.08936693 0.11799124 0.51530656 118 120 124
-0.09011006 0.12296793 0.51816458 130 132 137
-0.09484730 0.12750351 0.52303216 124 125 132
-0.08601849 0.19549900 0.47622845 199 200 193
-0.08535864 0.20468143 0.47699472 180 181 181
-0.08261314 0.20782029 0.48152668 191 192 191
-0.06628694 -0.44251134 0.94583366 102 114 122
-0.06046856 -0.43216205 0.93890840 102 111 123
-0.06361357 -0.43652976 0.94337580 101 112 122
-0.06143390 -0.20730633 0.64404508 95 108 125
-0.06108355 -0.19708779 0.63952059 96 105 127
-0.06119902 -0.19635291 0.64072955 97 105 126
-0.06425171 0.03899471 0.62204254 129 128 135
-0.06668220 0.04037483 0.61964518 116 116 133
-0.06515462 0.04268373 0.62142972 118 118 130
-0.07817656 0.20375563 0.47203167 138 138 137
-0.05222807 -0.44325281 0.94621817 100 112 122
-0.04582775 -0.43115427 0.93812920 103 111 121
-0.05252253 -0.43284111 0.94523842 102 112 121
-0.05653106 -0.41834360 0.94361453 98 113 122
-0.05390407 -0.20450123 0.63923514 95 107 125
-0.05466531 -0.20736560 0.64127770 95 106 125
-0.05600151 -0.19766108 0.63797374 94 105 122
-0.05892842 -0.19948670 0.64012450 96 108 122
-0.05650764 0.03930383 0.61964518 125 128 133
-0.05480296 0.03877437 0.62081616 134 135 140
-0.05650764 0.04037483 0.61964518 137 138 142
-0.05509800 0.04253027 0.62187569 134 135 142
-0.02108091 0.24633061 0.61838528 158 157 154
-0.02574935 0.25273936 0.62878921 163 163 160
-0.02505739 0.26259190 0.62936414 169 166 160
-0.02409973 0.46909469 1.23815966 139 133 132
-0.02211461 0.47277254 1.24689531 139 136 136
-0.02118184 0.48320736 1.25535959 128 127 129
-0.02018835 0.48872441 1.26119524 123 126 127
-0.02072840 0.51075301 1.29493296 120 123 131
-0.02199661 0.51643631 1.30364299 121 124 130
-0.02212427 0.52169934 1.31120765 126 128 131
-0.02313828 0.53181102 1.33026674 131 131 133
-0.02612790 0.53525651 1.34236014 122 123 125
-0.00134123 -0.22807095 0.45489409 100 112 119
-0.00437792 0.13841040 0.49209530 185 185 182
-0.00462735 0.14330790 0.48996117 165 164 163
-0.01947202 0.24546541 0.61692377 154 154 150
-0.00055054 0.45244178 1.21922994 150 152 152
-0.00582950 0.45758249 1.22170232 147 147 147
-0.00997146 0.46763896 1.22839606 145 146 147
-0.01129030 0.47682278 1.24156010 146 148 148
-0.01074178 0.48558788 1.25128794 154 155 154
-0.01182537 0.49516049 1.26327966 147 147 147
-0.01268272 0.50372665 1.27364069 141 141 143
-0.01136624 0.51089207 1.28961094 147 147 148
-0.00791669 0.51679946 1.30742288 152 152 153
-0.01180940 0.52231395 1.29864335 160 160 157
-0.01063160 0.52500884 1.31027552 155 154 152
-0.00155947 0.53079405 1.33116505 154 153 152
0.00210551 -0.22550978 0.45522626 100 111 119
0.00334416 -0.21958338 0.45649303 99 113 117
0.00479249 0.13846954 0.49559588 172 172 171
0.01038499 0.14367987 0.49253084 154 154 153
0.00855041 0.19299547 0.61781827 148 148 148
0.00615453 0.18896494 0.62374222 151 150 149
0.01089194 0.26849799 0.73528044 145 145 143
0.01035096 0.26603382 0.74334882 143 144 138
0.00980976 0.44341627 1.19769251 153 158 159
0.00572447 0.45218794 1.21119437 154 156 157
0.00155961 0.45959041 1.22142673 153 154 154
0.00681290 0.46109551 1.21704102 156 157 159
0.00451292 0.46913404 1.22734349 161 162 162
0.00429112 0.48346365 1.24901024 163 164 164
0.00566604 0.49396380 1.26304761 159 160 159
0.00163626 0.49989817 1.28145909 162 162 162
0.00895281 0.50526653 1.27266882 154 154 154
0.00612285 0.51298660 1.29371221 153 153 153
0.00279461 0.51614326 1.30574266 152 152 152
0.00393086 0.52653603 1.31044198 152 152 150
0.03035230 0.01383863 0.56596716 177 177 179
0.03790430 0.13950455 0.45938039 125 125 127
0.03649720 0.14437685 0.45766443 145 145 145
0.03189929 0.14662536 0.46298185 165 165 164
0.04079961 0.14450097 0.45698222 151 147 146
0.07819573 0.19700316 0.51065784 136 136 138
0.07923207 0.20041713 0.50969645 147 148 152
0.07493164 0.23500199 0.71378236 145 144 143
0.07429889 0.24922094 0.71368134 152 152 150
0.06954510 0.25220786 0.72303144 162 160 157
0.07948902 0.26565123 0.69957876 141 136 131
0.07556371 0.26942824 0.70709222 135 134 130
0.06926148 0.26845789 0.72974520 139 138 136
0.07181395 0.29227072 0.73394593 142 141 139
0.06180411 0.29722015 0.74281898 164 165 164
0.07102435 0.30371990 0.73777028 100 101 101
0.06882112 0.30634023 0.74223537 83 83 85
0.08676071 0.19800298 0.49600181 164 164 162
0.08404065 0.19638261 0.50954858 149 149 149
0.08600939 0.20044292 0.49794328 164 164 159
0.08396434 0.20188247 0.50677105 166 166 163
0.09448983 0.23096310 0.69414879 160 160 160
0.08601596 0.23199837 0.70533938 139 140 144
0.09376793 0.24428241 0.69582910 145 147 149
0.08536046 0.24534777 0.70678450 132 133 136
0.08212521 0.26455641 0.69801998 141 137 135
0.08121287 0.26278831 0.70054287 154 152 151
0.11381473 0.17477867 0.83779169 140 139 144
0.11300384 0.17759108 0.84180782 150 150 155
0.11340110 0.19051235 0.84558617 166 167 169
0.10976272 0.20848239 0.83436015 142 143 149
0.11146311 0.20301237 0.84628788 174 174 175
0.10001541 0.23911137 0.69102126 119 121 127
0.11405466 0.23082000 0.83166038 150 150 151
0.11066156 0.23247778 0.84375204 147 148 151
0.10016881 0.24247045 0.69208109 125 125 130
0.11946244 0.24141038 0.83535939 153 152 152
0.13868879 0.05082322 0.65056812 136 134 138
0.13644564 0.09736439 0.75272451 113 114 121
0.13513827 0.10412759 0.75501238 123 124 132
0.12127951 0.17625622 0.83793801 148 151 155
0.12092865 0.17825545 0.84053579 165 168 169
0.13028388 0.19891378 0.77918601 140 140 144
0.12998296 0.19916955 0.78550619 151 150 153
0.12266953 0.18953956 0.84672417 159 159 159
0.12862535 0.20590677 0.79348290 150 148 148
0.12582305 0.21242203 0.80493011 142 140 141
0.12303894 0.21943918 0.82069230 163 164 158
0.12843949 0.22634576 0.81597088 135 136 139
0.12446006 0.23143993 0.82557226 117 117 124
0.12192790 0.24128105 0.83742076 122 121 127
0.12124733 0.24475289 0.84105949 151 149 147
0.15452778 0.03555022 0.66478890 145 145 146
0.14997893 0.05134903 0.65593437 138 138 142
0.15439467 0.04504968 0.66350986 136 135 140
0.14329434 0.09789247 0.75079937 115 119 127
0.14313152 0.10300935 0.75336668 113 114 124
0.16223646 0.03629636 0.66889495 149 148 150
0.16082252 0.05715799 0.65878764 130 130 136
0.16421295 0.04968634 0.66215888 148 148 150
0.17879096 0.17419544 0.70936714 170 169 169
0.17966433 0.18686265 0.69885755 178 178 180
0.17844417 0.18340244 0.70884643 138 139 145
0.16729715 0.20423267 0.45499595 0 0 0
0.17036982 0.21055293 0.46998096 0 0 0
0.17346988 0.21719890 0.48500534 0 0 0
0.17568829 0.22220331 0.49566988 0 0 0
0.17854845 0.22828034 0.50955076 0 0 0
0.16621636 0.39103999 1.89533055 167 167 173
0.17393756 0.39352820 1.91171823 171 172 176
0.17442260 0.39163255 1.92721243 172 173 176
0.17705731 0.38507023 1.94238353 175 175 179
0.17621142 0.40280023 1.91494870 169 170 173
0.17295705 0.40515427 1.93407482 168 169 172
0.18663467 0.17896805 0.69657807 134 134 139
0.18118093 0.17489082 0.70401266 161 159 157
0.18369002 0.16923973 0.72694749 165 165 165
0.19157504 0.18515456 0.67517185 139 140 143
0.18646919 0.18354824 0.69077425 157 157 157
0.18033401 0.18402881 0.70385149 165 166 168
0.18220272 0.23612106 0.52725877 0 0 0
0.18393242 0.24035014 0.53545958 0 0 0
0.18674024 0.24603624 0.54918419 0 0 0
0.19099693 0.25517622 0.56980921 0 0 0
0.19301569 0.26007119 0.57939476 0 0 0
0.19544502 0.26490410 0.59129959 0 0 0
0.19895446 0.27251092 0.60827896 0 0 0
0.19700666 0.37352905 1.91033590 147 147 147
0.19185746 0.37509768 1.92913358 161 162 160
0.18793721 0.37830141 1.95077193 167 168 168
0.18949975 0.38792829 1.89885676 164 163 163
0.19082169 0.38872052 1.90956613 162 161 160
0.18900979 0.39114488 1.92741006 165 164 165
0.18401175 0.38560839 1.94938059 171 171 172
0.18437318 0.40426317 1.93462663 175 175 177
0.21511259 0.17344418 0.51985568 159 160 155
0.21803656 0.16955383 0.52480707 158 159 156
0.21904850 0.18924258 0.52461991 153 153 153
0.20171481 0.27849406 0.62163410 0 0 0
0.20362803 0.28264102 0.63089064 0 0 0
0.20661488 0.28911509 0.64534158 0 0 0
0.21041102 0.29717626 0.66376648 0 0 0
0.21199164 0.30127057 0.67118007 0 0 0
0.21526944 0.30787410 0.68721399 0 0 0
0.21880163 0.31553021 0.70430341 0 0 0
0.20822162 0.37375428 1.91148531 143 142 142
0.21716278 0.37513416 1.92584461 133 132 134
0.20084641 0.38588840 1.91315063 132 132 135
0.20908339 0.39041604 1.93048371 147 147 148
0.21713049 0.39459325 1.94797310 154 154 149
0.21526814 0.40430518 1.94958282 167 168 166
0.22131951 0.16624169 0.52554903 156 156 154
0.22991874 0.19491317 0.52903773 148 148 147
0.23442751 0.20080009 0.53097243 149 148 149
0.23440991 0.27843814 1.10949117 168 167 166
0.22614138 0.27813522 1.13247299 161 161 162
0.22264024 0.27844731 1.14664285 158 159 163
0.22490831 0.29561764 1.07772946 155 155 155
0.22948165 0.29153986 1.09475013 143 145 150
0.23167684 0.28700407 1.10742230 137 136 143
0.22918030 0.28683285 1.13173317 144 144 147
0.22376875 0.28698004 1.14431713 152 153 155
0.22126243 0.32086407 0.71620920 0 0 0
0.22380785 0.32638134 0.72852448 0 0 0
0.22780651 0.33504855 0.74787076 0 0 0
0.23199792 0.34413356 0.76814964 0 0 0
0.23645057 0.35378481 0.78969242 0 0 0
0.22215046 0.37513945 1.92583942 132 131 132
0.22142659 0.38174926 1.93407482 128 128 130
0.22415860 0.39347792 1.94909425 151 151 146
0.22412793 0.40373099 1.95470805 161 161 158
0.25090152 0.07498249 0.45042684 147 149 151
0.25891345 0.13053038 0.45114736 167 168 167
0.25749807 0.17703400 0.89455580 173 174 176
0.25856216 0.17657516 0.90890963 172 173 175
0.25559518 0.17555370 0.92548555 160 160 164
0.24034040 0.19806373 0.53126317 157 159 152
0.25881465 0.18224078 0.91135115 170 172 174
0.25702072 0.18354201 0.92744025 160 160 164
0.24113018 0.36392798 0.81233323 0 0 0
0.24441228 0.37104204 0.82821271 0 0 0
0.24782526 0.37843978 0.84472537 0 0 0
0.25255505 0.38847263 0.86768564 0 0 0
0.25524199 0.39517310 0.88037902 0 0 0
0.25893272 0.40251553 0.89846539 0 0 0
0.26498005 0.13351430 0.45294732 147 147 146
0.26343698 0.17826543 0.89530663 173 173 174
0.26077071 0.17384362 0.91363642 173 174 176
0.26288841 0.17413871 0.92446302 171 171 171
0.26623920 0.18434188 0.89757464 174 174 171
0.26547598 0.18836040 0.90791496 174 174 174
0.26366954 0.19518817 0.92656495 161 162 165
0.26354129 0.20152603 0.93503392 145 145 152
0.26437758 0.20572455 0.95161675 139 138 140
0.26790530 0.21459221 0.96653998 136 137 142
0.27437817 0.22712967 0.95781578 151 150 152
0.27280686 0.22627221 0.97114681 159 159 160
0.26978927 0.22889526 0.98765702 161 163 165
0.27811429 0.38300526 1.89885676 116 116 121
0.27889550 0.38737237 1.90419054 123 122 126
0.26295608 0.41123626 0.91793114 0 0 0
0.26697275 0.41924149 0.93760973 0 0 0
0.26734251 0.42144498 0.93890840 0 0 0
0.27135730 0.42872927 0.95882863 0 0 0
0.27174166 0.43099615 0.96018672 0 0 0
0.27594492 0.43865645 0.98103017 0 0 0
0.27634484 0.44099027 0.98245192 0 0 0
0.28130084 0.22820111 0.95882863 142 142 146
0.28126071 0.22568190 0.96223842 135 136 139
0.29126096 0.35928750 1.87781680 171 171 171
0.29085867 0.36365527 1.87522310 156 156 158
0.29365901 0.37009359 1.88852454 151 150 152
0.28876922 0.37585303 1.90419054 132 132 141
0.28987871 0.38483732 1.89709201 120 121 128
0.29051420 0.38833273 1.90486103 120 121 130
0.28095828 0.45025654 1.00502926 0 0 0
0.28578842 0.45995691 1.02866745 0 0 0
0.28622276 0.46243659 1.03023076 0 0 0
0.29130428 0.47268184 1.05508524 0 0 0
0.29687363 0.48475355 1.08203077 0 0 0
0.31833993 0.15263300 0.76772034 153 154 155
0.30619961 0.35776384 1.81254506 141 142 143
0.30296899 0.35505895 1.83091220 161 159 155
0.30205120 0.35612601 1.84460706 171 167 165
0.30176710 0.35871358 1.86920921 173 169 169
0.30687091 0.36268669 1.79812157 120 118 133
0.30669543 0.36286471 1.80933134 126 126 135
0.30744228 0.36870530 1.83116846 123 123 134
0.30634700 0.36829572 1.84856653 138 137 140
0.30374799 0.37088229 1.86936466 151 149 150
0.30143736 0.37464380 1.88566285 152 151 150
0.31053966 0.38103080 1.85723794 97 98 114
0.30771729 0.38311157 1.87263894 107 107 113
0.30412376 0.38657946 1.89224878 138 139 141
0.30243278 0.39428412 1.91033374 138 138 144
0.30314464 0.40398151 1.92583942 158 160 164
0.30273490 0.49745803 1.11038870 0 0 0
0.30865183 0.50943124 1.13931406 0 0 0
0.30917144 0.51226139 1.14123201 0 0 0
0.31543007 0.52497524 1.17181051 0 0 0
0.32460110 0.15312621 0.76932413 132 132 137
0.32926998 0.14732503 0.78378790 154 155 159
0.32609389 0.16082424 0.76963253 148 149 152
0.32203281 0.53838652 1.20407081 0 0 0
0.32260585 0.54142934 1.20621324 0 0 0
0.32931042 0.55413455 1.23929036 0 0 0
0.32991356 0.55729538 1.24156010 0 0 0
0.33734454 0.57247552 1.27783680 0 0 0
0.34988263 0.05901233 0.77317363 152 152 151
0.35039800 0.06807889 0.77001828 145 145 145
0.35813374 0.08083133 0.76626899 112 113 124
0.35822638 0.16524374 0.45426222 150 149 145
0.35872062 0.19748667 0.45943221 151 153 150
0.35797386 0.19567472 0.46167709 132 134 132
0.35527994 0.20241409 0.45760816 148 149 147
0.35724387 0.20112754 0.46059811 164 168 159
0.34555803 0.59027854 1.31757528 0 0 0
0.35394341 0.60743809 1.35850072 0 0 0
0.35465413 0.61101061 1.36122859 0 0 0
0.37435364 0.01381664 0.66455066 139 140 141
0.37495891 0.02164285 0.66627987 143 142 144
0.36119747 0.05985353 0.77473354 156 156 156
0.36419364 0.07340221 0.77409891 131 132 135
0.36504162 0.08160983 0.77153838 145 149 152
0.36659499 0.16519332 0.45555182 123 124 125
0.36071315 0.19887742 0.45933893 153 154 152
0.36147337 0.19414673 0.46178499 137 138 136
0.36035098 0.20036405 0.45813826 156 157 155
0.36361919 0.62942669 1.40495872 0 0 0
0.37357898 0.65101483 1.45314604 0 0 0
0.38379170 0.01483235 0.66419039 136 137 138
0.38058210 0.02121275 0.66525236 131 129 131
0.39500956 0.10389433 0.65910745 131 132 136
0.39928052 0.10488284 0.66265198 125 126 130
0.39806402 0.13537340 0.46462168 158 161 156
0.39966357 0.14023301 0.46177918 150 150 149
0.39621602 0.36846285 1.10436833 173 174 168
0.39887890 0.38113539 1.13550043 172 172 170
0.39735202 0.38331026 1.15386599 165 169 167
0.39404677 0.39300317 1.16779405 149 152 153
0.39326527 0.40855228 1.19233956 156 156 156
0.38424623 0.67413643 1.50475621 0 0 0
0.39524376 0.69680828 1.55837202 0 0 0
0.39615446 0.70111358 1.56196272 0 0 0
0.41984101 -0.32527019 0.57939517 101 110 113
0.40833267 0.09829999 0.66658120 113 119 124
0.40517837 0.10481820 0.65814976 120 125 131
0.40619650 0.10376450 0.66453453 116 121 125
0.40237829 0.13378778 0.46450925 150 152 150
0.40236192 0.37767232 1.12420698 170 171 168
0.40442915 0.38376065 1.13455099 167 167 165
0.40727525 0.39236309 1.15231468 158 159 157
0.40483884 0.39529825 1.16830739 160 162 161
0.40575618 0.39746466 1.18720114 160 164 164
0.41161259 0.40367392 1.17082800 144 144 144
0.40742236 0.40841072 1.19211318 141 142 144
0.40888130 0.41713906 1.20551697 142 142 143
0.41069581 0.42217970 1.21704102 151 151 149
0.41621656 0.43296456 1.23276571 138 137 134
0.41575101 0.43283108 1.24156010 159 158 156
0.40754020 0.72341669 1.61788034 0 0 0
0.40851519 0.72795045 1.62175083 0 0 0
0.42500065 -0.32737808 0.57966532 101 110 113
0.42662355 -0.32555641 0.58156508 100 110 113
0.42852724 -0.31800529 0.58206725 101 111 111
0.43937168 0.13863962 0.45012739 148 147 140
0.43930680 0.14350151 0.45032677 130 132 130
0.42839905 0.19264695 0.45563791 135 136 134
0.42969158 0.19351763 0.46149367 146 146 143
0.43594499 0.20884091 0.45381166 141 142 138
0.43189925 0.20221336 0.46115144 143 143 138
0.42016181 0.42428327 1.21704102 128 127 129
0.42551014 0.43289709 1.23256916 126 125 126
0.42863977 0.43826009 1.24785435 120 119 121
0.42570099 0.44060788 1.23929036 112 109 115
0.42814520 0.44061438 1.24537237 112 111 114
0.42133647 0.75453079 1.68420595 0 0 0
0.43574715 0.78576639 1.75392753 0 0 0
0.45979804 -0.28744751 0.47272792 104 119 118
0.44317588 0.13725206 0.45053771 140 141 134
0.44081962 0.14385954 0.45098363 141 143 140
0.44472772 0.15376376 0.77561998 166 166 167
0.44732099 0.15796704 0.79050177 172 172 170
0.45070086 0.16598920 0.79441171 168 168 168
0.45200311 0.16990534 0.80731482 164 165 165
0.45496795 0.17546567 0.82069230 148 148 146
0.45715556 0.18153515 0.81136590 163 163 161
0.44160025 0.21168218 0.45474516 147 149 145
0.45214780 0.23253828 0.47759295 88 88 87
0.45538978 0.23500586 0.48782645 116 115 107
0.45377114 0.23923975 0.66006994 155 156 156
0.45985745 0.24073935 0.48751819 0 0 0
0.45703780 0.25882822 0.65853168 154 156 140
0.45779361 0.25155060 0.66435389 146 147 141
0.45743357 0.26132138 0.65842198 148 150 136
0.45558133 0.26120644 0.66080646 144 146 135
0.45079327 0.81701243 1.82720172 0 0 0
0.45201164 0.82238728 1.83214009 0 0 0
0.46367777 -0.30118010 0.47538123 108 117 117
0.46690613 -0.28654224 0.47130522 106 117 116
0.47217994 -0.27672111 0.47385230 104 114 113
0.47839334 0.06799959 0.46813796 123 129 132
0.47044504 0.09195121 0.53790763 158 160 158
0.46972166 0.08705376 0.54154224 125 127 132
0.46144014 0.18247972 0.81088296 172 173 171
0.46021569 0.23468257 0.48825678 109 105 100
0.46564023 0.24437728 0.49070830 0 0 0
0.46041238 0.25788137 0.65814739 154 155 136
0.46427580 0.25276277 0.66802071 141 142 137
0.46847096 0.85669640 1.91225159 0 0 0
0.48177811 -0.27619938 0.47779267 103 116 115
0.48583182 0.05839841 0.46724090 127 130 129
0.48382769 0.06584110 0.46752805 117 121 123
0.49597324 0.15905883 0.45289029 154 155 150
0.49608113 0.16103392 0.45275020 146 147 144
0.48643348 0.89413452 1.99968100 0 0 0
0.51648560 -0.34247556 0.60589569 107 117 117
0.51657002 -0.33782687 0.60688663 105 115 115
0.50892156 0.09718239 0.47975361 164 166 162
0.50826184 0.09767436 0.48157994 152 157 155
0.50621645 0.10164975 0.47931301 147 154 153
0.50904965 0.10636133 0.48297513 149 153 149
0.50319517 0.15878893 0.45406374 136 136 136
0.50121028 0.16054185 0.45210547 130 131 131
0.50080311 0.16065654 0.46083742 162 163 158
0.50148219 0.22979067 0.55931669 153 156 151
0.50745943 0.23167074 0.56965520 138 139 134
0.51630664 0.23696549 0.58866092 124 124 123
0.51903147 0.23897782 0.60150245 145 144 139
0.51678747 0.24241593 0.59315707 106 106 106
0.51828137 0.24025726 0.60123551 132 131 130
0.52226423 -0.34476042 0.60663749 107 116 117
0.52170914 -0.33705062 0.60566697 107 117 116
0.52285067 0.23699209 0.59635875 127 126 122
0.52717297 0.23418065 0.60340511 145 147 143
0.52151289 0.24321571 0.59700989 107 107 107
0.52122557 0.24460844 0.60043561 109 108 107
0.57813252 -0.08393171 0.69269775 56 56 57
0.57717633 -0.07910878 0.69031805 58 58 58
0.58227466 -0.10225356 0.69680065 57 58 59
0.58605541 -0.09156685 0.69759600 55 56 56
0.58581432 -0.09309504 0.70071093 55 56 56
0.59699477 0.17059714 0.58990274 149 152 150
0.59804522 0.16654981 0.60150237 155 159 154
0.59916669 0.19897513 0.60526106 139 143 142
0.61848132 -0.19492240 0.66875235 88 97 101
0.60799003 0.15969767 0.60311854 148 152 148
0.60250027 0.17240830 0.59781941 156 157 152
0.60410876 0.17068781 0.60353631 148 150 147
0.60423362 0.18010505 0.59990430 163 164 155
0.60886073 0.19210658 0.60769962 147 149 144
0.61514316 0.20480995 0.61285745 142 146 143
0.63932949 -0.72284159 1.30363810 101 110 115
0.63932949 -0.71946174 1.30363810 100 111 116
0.62815834 -0.18626233 0.67349459 85 96 100
0.62903862 -0.17854929 0.67385244 84 96 100
0.62335008 0.21210051 0.60983953 136 137 135
0.62571876 0.21591635 0.62552968 123 126 127
0.62649027 0.22140734 0.61306327 114 117 118
0.63322382 0.22323341 0.63519796 153 153 145
0.65034874 -0.72788296 1.30899088 99 108 111
0.65861490 -0.72181514 1.32659853 100 108 112
0.64271161 -0.71833536 1.30364054 95 109 112
0.65760887 -0.71863562 1.32919967 98 107 110
0.65207720 0.26998174 0.77829146 171 172 164
0.65783218 0.27400464 0.78597338 164 165 162
0.65200339 0.28176494 0.77740146 148 150 147
0.65787016 0.28571799 0.78642431 148 150 147
0.66404110 -0.74069881 1.32142663 97 105 111
0.66446870 -0.72918646 1.31661928 98 107 110
0.67304523 -0.72416863 1.32872219 98 107 110
0.66373710 -0.71776824 1.32689546 100 109 112
0.67422713 -0.28333198 0.95693493 90 98 102
0.67551736 -0.28663625 0.96246443 92 99 105
0.67434351 -0.27548032 0.95639608 89 99 104
0.67678296 -0.27049428 0.96560862 87 98 104
0.67245515 0.10724684 0.64809611 132 136 133
0.67839254 0.17046286 0.57168553 151 152 150
0.67991143 0.18041708 0.57448459 144 145 147
0.66252401 0.27829930 0.79239503 155 156 153
0.66857666 0.27934489 0.80129057 172 173 166
0.66339282 0.28718874 0.79425619 149 152 149
0.67359942 0.29167643 0.81222065 150 153 150
0.67657456 0.29059602 0.82252264 141 145 143
0.69238798 -0.74301952 1.33794908 103 108 112
0.68705089 -0.72831931 1.33154402 99 108 110
0.69044912 -0.71819171 1.33050537 98 107 110
0.68729252 -0.27444881 0.95545288 90 96 104
0.68883119 -0.26750999 0.96955458 88 97 103
0.68095860 0.10696362 0.64667345 123 129 128
0.68466175 0.17178496 0.57231804 145 146 145
0.68284997 0.18144168 0.57668784 145 146 148
0.71767287 0.15901155 0.76858634 159 161 155
0.71882428 0.16612201 0.77291005 149 151 146
0.71957445 0.17147354 0.78098206 137 138 138
0.71641910 0.27883211 0.74791724 152 152 143
0.71707660 0.28479569 0.75166299 142 142 134
0.71863693 0.28726523 0.76548848 147 147 141
0.72190515 0.16826352 0.77182923 144 145 143
0.72402492 0.17659410 0.78455158 138 139 139
0.72782619 0.18129342 0.78806876 156 156 155
0.72133374 0.28774498 0.75827195 140 139 135
0.72185885 0.28634226 0.76508147 150 150 143
0.81859809 0.42034948 1.19980860 154 154 151
0.81797206 0.42109478 1.20193589 157 157 155
0.82728233 0.15688865 1.21518043 127 130 134
0.83055602 0.15512812 1.22197792 123 129 132
0.83424891 0.16871980 1.23302884 126 130 133
0.83592461 0.17620234 1.24476123 120 121 122
0.83268344 0.18999234 1.23929036 112 117 122
0.83711159 0.18621548 1.24530015 113 117 120
0.83345094 0.41493393 1.19526177 132 131 131
0.83711886 0.41438001 1.20658118 145 145 143
0.83023266 0.42148052 1.19537117 126 127 127
0.83067023 0.42493072 1.20852875 143 144 142
0.83618349 0.42619685 1.22496552 141 141 141
0.85747918 -0.99165362 1.87677932 101 109 113
0.84384714 0.16994730 1.23759633 119 122 130
0.84757334 0.17652109 1.24678824 116 116 123
0.84719944 0.18679551 1.25497426 115 118 121
0.85774658 0.18895806 1.26405445 107 111 116
0.85837185 0.20080337 1.26236844 114 119 122
0.84254887 0.41622482 1.19501387 145 144 141
0.84809544 0.41479461 1.21035681 147 145 143
0.84858138 0.41710352 1.22776263 143 143 141
0.85938776 0.41857615 1.24383819 145 145 145
0.84287699 0.42211906 1.19698469 129 129 129
0.84292603 0.42266290 1.20948845 121 121 123
0.84463429 0.42445961 1.23063122 132 131 130
0.85253854 0.42865269 1.24928037 140 139 136
0.85851598 0.43434837 1.26472354 142 142 138
0.87955105 -1.02042830 1.91494870 101 110 113
0.87053950 -1.00615174 1.89532562 101 109 113
0.87047275 -0.98853007 1.89121825 99 108 112
0.87215984 -0.97903305 1.89885676 99 107 111
0.86083573 0.17943652 1.25535524 108 108 115
0.86025906 0.18194324 1.25768435 109 111 118
0.86940579 0.19220872 1.26833191 117 121 123
0.86317751 0.20026271 1.26354599 116 120 121
0.87864442 0.27951008 0.91391242 144 145 140
0.87993693 0.27970389 0.92104870 136 136 133
0.87585138 0.28856585 0.91656175 136 136 133
0.87381149 0.28720203 0.92531775 144 144 141
0.87517442 0.30143042 0.91772397 133 134 132
0.87834501 0.30199131 0.92104870 132 133 132
0.86364597 0.42537072 1.25628688 141 140 138
0.86897258 0.42737008 1.26670390 143 143 141
0.87650934 0.43621151 1.28632694 132 131 129
0.87427217 0.44344902 1.29122257 146 146 142
0.89808261 -1.06159019 1.94796503 101 109 113
0.89295071 -1.04882860 1.93683386 103 112 113
0.89736496 -1.04975445 1.94349983 102 111 112
0.88286090 -1.02373815 1.91494870 102 110 113
0.89206637 -1.03060947 1.92858022 101 110 113
0.89044805 -1.00954941 1.91241381 100 109 112
0.89531952 -1.01668056 1.92037344 100 109 113
0.88821152 -0.99453632 1.90866049 96 107 110
0.89010150 0.19375757 1.27316144 125 129 131
0.89645511 0.19645710 1.28145909 136 138 140
0.88092178 0.27798487 0.91669153 141 141 139
0.88073981 0.27885365 0.92457254 136 137 133
0.88430452 0.28910020 0.91462270 134 134 129
0.88313598 0.28334779 0.92693555 144 145 142
0.88040018 0.43205306 1.28388608 141 141 137
0.88876645 0.44664184 1.31374713 144 144 142
0.89523147 0.45123365 1.32725897 148 148 145
0.90978756 -1.06969239 1.95226174 101 109 114
0.91311296 -1.04514360 1.93072353 101 108 110
0.90727415 -1.05024607 1.94339835 102 110 111
0.91091560 -1.03198347 1.92773911 100 108 111
0.90408093 -1.00853119 1.91033157 100 109 110
0.90527714 -1.00229734 1.92037344 100 109 112
0.90628070 -0.99576829 1.91315063 101 110 112
0.90957328 -0.99815748 1.92948687 101 109 114
0.90615294 0.19486170 1.27743736 128 130 132
0.90695108 0.19656693 1.28423938 139 140 142
0.90689011 0.20246178 1.27743836 128 129 133
0.93580969 -1.03019521 1.92858803 99 108 109
0.93390188 -1.00736631 1.93336028 100 108 111
0.93579632 -1.01826131 1.94238353 100 110 113
0.93685124 0.17408948 0.97679613 152 158 157
0.93390705 0.17615629 0.98716198 144 150 146
0.93241437 0.18420718 0.97820094 151 155 155
0.93318988 0.18415657 0.98772440 154 157 155
0.94765028 -1.02767027 1.92709761 99 110 112
0.94976200 -1.01204904 1.93054425 100 108 112
0.95809066 -0.98448044 1.89355266 94 104 108
0.94987752 -0.99326425 1.93031015 98 108 110
0.95158346 -0.99211551 1.94377890 97 107 110
0.95391225 -0.97574656 1.92474415 94 107 107
0.94623666 0.17165674 0.99021844 153 158 155
0.94301640 0.18174219 0.98763020 157 163 159
0.94402093 0.37385551 1.05154248 126 131 133
0.95494241 0.37731561 1.06644301 126 130 132
0.95866942 0.38199398 1.06923008 134 136 138
0.96921805 -1.02530483 1.93315862 97 106 113
0.97071178 -1.03101888 1.94238353 96 107 112
0.96572280 -1.00860178 1.91386986 96 107 112
0.96695502 -1.01111549 1.93086898 96 107 110
0.97019727 -1.01411927 1.94517428 97 108 110
0.96077442 -0.98231506 1.89885676 96 105 110
0.96371183 -0.98949948 1.90955448 96 106 109
0.96764682 -0.99104805 1.93133197 97 107 109
0.96601164 -0.99811780 1.94238353 98 108 111
0.96985432 -0.97707358 1.93132205 96 108 109
0.97646373 -0.58945399 1.61075251 94 102 108
0.96646768 -0.56456786 1.59880149 90 100 105
0.96971598 -0.57266959 1.60600804 90 100 106
0.96103662 0.37883991 1.07601881 120 124 127
0.96442971 0.38410157 1.07773221 132 135 137
0.97441082 0.38769155 1.09135089 128 131 132
0.97907418 0.38935199 1.10047376 128 129 131
0.97993463 0.43924975 1.45470357 136 138 138
0.97867378 0.44249032 1.45159296 141 141 140
0.97450721 0.46692619 1.43926084 179 180 173
0.97866291 0.46641910 1.44539833 175 177 169
0.99477893 -0.62163967 1.61788034 98 106 110
0.99112070 -0.62181139 1.62563992 95 104 104
0.99088679 -0.61207613 1.61322976 94 104 105
0.99760109 -0.60686686 1.62418385 93 102 105
0.98458478 -0.59065217 1.61492140 93 101 107
0.99408858 -0.59038907 1.62422740 93 101 108
0.98560917 -0.57830185 1.61659630 92 99 109
0.99786544 0.19947052 1.19347155 128 128 128
0.99872637 0.20129931 1.19822061 143 146 144
0.98946869 0.39553745 1.11072369 128 130 131
0.99629575 0.39774597 1.12419879 129 130 130
0.99513778 0.40248503 1.11312294 138 144 144
0.99714024 0.41453746 1.55035655 154 155 149
0.99779266 0.40778300 1.56557012 156 156 149
0.98542821 0.42466292 1.53369200 142 142 144
0.99425280 0.42521467 1.54932136 148 148 149
0.99729341 0.43204085 1.56196272 135 137 140
0.98703518 0.44625735 1.45159296 143 143 142
0.99295479 0.45169172 1.46651638 135 135 133
0.99833050 0.45843439 1.48011315 121 121 119
0.98496330 0.46690747 1.45470357 162 163 160
0.99737612 0.47330842 1.47305241 162 164 162
1.00396299 -0.62631726 1.63741994 97 105 108
1.00985602 -0.60561062 1.61282620 96 101 107
1.00668839 -0.60755601 1.62759797 94 102 106
1.01102608 -0.59615503 1.61198476 94 101 107
1.00869367 -0.59384101 1.63203402 94 101 108
1.01539761 -0.59067223 1.64218140 94 100 107
1.01164250 -0.57868143 1.63610474 93 99 105
1.01289606 0.19938319 1.19294903 140 147 146
1.01210170 0.20502409 1.19682514 152 156 152
1.01146120 0.21105012 1.20641475 152 153 148
1.00678178 0.39630094 1.13677164 115 114 114
1.01627374 0.39956044 1.14898247 116 116 115
1.00883965 0.41098229 1.13160055 134 137 137
1.01588886 0.41345231 1.14845275 131 132 132
1.00397921 0.41129518 1.55837202 150 152 145
1.00663990 0.41368530 1.57060476 152 154 147
1.01334708 0.41092947 1.58610761 162 162 156
1.01302888 0.42285993 1.13423347 137 138 139
1.01582539 0.42295893 1.14736389 134 134 134
1.00709538 0.42656450 1.57163531 153 153 151
1.01255672 0.42882842 1.58712463 154 154 150
1.00041687 0.45587185 1.45158851 142 146 147
1.00690816 0.45658614 1.47208995 142 143 144
1.00472617 0.45971352 1.48011315 128 128 128
1.00256360 0.46439314 1.45470357 152 153 154
1.00910880 0.46532768 1.47187789 141 144 146
1.00946110 0.46802724 1.48605495 132 136 137
1.01467311 0.47605068 1.50756959 132 133 135
1.00805640 0.48159982 1.49644995 161 164 160
1.02214143 -0.60341173 1.61307433 96 103 106
1.02170485 -0.59504884 1.61403739 92 104 109
1.03022500 -0.59051022 1.62972781 91 102 108
1.03008319 -0.58988587 1.64505235 92 100 106
1.02553904 -0.57969403 1.61788034 90 99 109
1.03116395 -0.57817646 1.64377885 93 99 105
1.02288127 0.19911996 1.19137406 157 164 162
1.02815294 0.19927942 1.20478745 118 127 126
1.02452879 0.20297272 1.19892536 154 162 159
1.02649560 0.21384209 1.21038538 156 158 154
1.02821833 0.22109080 1.21595049 153 154 153
1.03179455 0.22314304 1.22142673 159 160 158
1.02145588 0.39860716 1.15484130 115 115 115
1.02119958 0.40928468 1.15681207 133 133 131
1.02671036 0.40454847 1.16476607 135 135 133
1.02975163 0.41483169 1.59166948 151 152 147
1.03661573 0.41188338 1.60258114 152 151 150
1.02518225 0.43038126 1.15271450 137 137 138
1.03172996 0.43576222 1.16236930 127 127 129
1.03026041 0.42969889 1.58792175 159 160 159
1.02944016 0.44052422 1.15484130 150 151 151
1.03556619 0.44242062 1.16510711 142 145 145
1.03307799 0.45443842 1.47130802 169 170 163
1.03769088 0.45815560 1.48335195 161 162 159
1.03831601 0.44130936 1.59880149 160 160 158
1.02551138 0.46764636 1.47688854 152 155 155
1.03925043 0.46969616 1.48742175 159 162 156
1.02883887 0.48703788 1.53254839 139 141 141
1.03471285 0.49218313 1.54593551 142 144 145
1.04107046 -0.59375143 1.63347435 90 102 107
1.04011941 -0.58101159 1.64536858 93 99 108
1.04122740 -0.57672703 1.64938164 91 99 105
1.04574382 0.21852702 1.21922994 164 168 167
1.04285963 0.40950428 1.18444101 130 130 130
1.04107940 0.41367537 1.59880149 141 142 141
1.04976287 0.41536921 1.60892708 152 152 152
1.04476392 0.42749237 1.59880149 163 163 163
1.05243628 0.43043907 1.60622308 159 160 159
1.04141521 0.44332933 1.17282331 140 141 142
1.04107940 0.44130936 1.59880149 161 162 159
1.05309912 0.44556288 1.61084251 168 169 165
1.05882621 0.45325008 1.62175083 169 169 165
1.04311676 0.46697436 1.49185560 162 164 160
1.05289261 0.71643162 1.89532069 166 166 163
1.05404766 0.71744938 1.90848775 170 170 165
1.05595303 0.72433537 1.89885676 168 168 165
1.05397856 0.72709264 1.90956054 169 169 165
1.05613965 0.72527620 1.92310125 179 179 171
1.05595303 0.74402744 1.89885676 175 174 171
1.05891919 0.74940866 1.90419054 172 171 168
1.05168862 0.75184654 1.92974814 159 162 163
1.07638195 0.25358760 0.94767825 152 154 150
1.07813152 0.26133920 0.95076120 162 161 158
1.06042325 0.41920218 1.59880149 167 168 168
1.06305125 0.41826412 1.61117104 168 170 170
1.06536671 0.41681021 1.62175083 148 149 151
1.06690893 0.43071264 1.61317263 157 160 159
1.06995944 0.43304089 1.62304719 150 154 155
1.06384333 0.44435912 1.61659630 169 170 168
1.06944475 0.45118299 1.62564693 171 172 168
1.06390182 0.73088495 1.91315063 167 168 164
1.06516467 0.73427354 1.92741006 170 171 166
1.06290193 0.74561387 1.91135255 169 170 166
1.06999421 0.74806591 1.93132830 168 168 165
1.07312517 0.75299203 1.94884360 163 163 161
1.07372439 0.76560332 1.93683386 170 171 167
1.07585471 0.76676220 1.95199335 169 170 167
1.07909703 0.76990670 1.96490383 172 173 171
1.09088664 0.24687038 0.93539476 146 150 146
1.08878030 0.25501338 0.95017044 151 152 146
1.08660769 0.25673762 0.96018672 145 150 146
1.09054389 0.26521803 0.95449532 155 154 149
1.09279299 0.27257115 0.96265800 159 159 156
1.09759605 0.28069841 0.96841822 157 157 156
1.08638283 0.43794103 1.63085659 156 162 162
1.09599710 0.44150919 1.49644995 133 134 134
1.08059704 0.45087993 1.63347435 173 174 170
1.09449836 0.71190550 1.66710291 121 122 122
1.08499026 0.72964519 1.65743732 119 119 121
1.09062176 0.72863158 1.66875787 128 128 129
1.08999586 0.73801783 1.94796503 163 163 161
1.09532917 0.74050838 1.68211377 116 116 117
1.08579125 0.75552177 1.92927779 168 167 161
1.09321980 0.75348931 1.95172371 168 168 164
1.09381032 0.76225567 1.93683386 167 164 156
1.08275104 0.77106786 1.95922494 174 174 172
1.08406174 0.77612492 1.96775985 174 175 171
1.08588946 0.78009522 1.96490383 168 169 164
1.10394059 0.25207225 0.95152700 146 148 144
1.10211992 0.25911522 0.97538394 142 145 143
1.10252380 0.26711699 0.95623991 138 137 136
1.10250521 0.27308247 0.97000653 156 157 154
1.11163044 0.27878183 0.98530793 160 160 156
1.10611856 0.28138418 0.97225082 157 157 157
1.11442910 0.28672678 0.98627867 158 160 157
1.11823213 0.38583371 1.38912261 169 173 168
1.10619855 0.43730155 1.49976075 158 162 160
1.11351248 0.43913588 1.51203811 153 157 155
1.10117006 0.44150919 1.49644995 155 156 154
1.10576099 0.44544244 1.50978136 134 134 134
1.11660566 0.44802524 1.52747586 140 140 137
1.11667216 0.44836905 1.54535596 142 140 135
1.10293883 0.70502812 1.67380702 119 119 119
1.10808255 0.71382221 1.69122523 115 115 113
1.11778593 0.71628386 1.70753610 117 117 114
1.10501552 0.73143215 1.69474542 123 124 126
1.11346535 0.72824906 1.70946466 111 112 112
1.11737561 0.73561561 1.72053766 109 111 115
1.10354424 0.74166840 1.69472957 127 128 128
1.11267285 0.74682377 1.71329633 123 123 123
1.11723745 0.75935084 1.72491562 115 113 114
1.10664356 0.76209259 1.95357883 158 159 151
1.11109972 0.76132932 1.97348845 162 163 159
1.11939657 0.76638234 1.98213995 161 161 158
1.12391161 0.29290319 0.99568668 159 161 157
1.12998068 0.37855697 1.39771509 159 158 157
1.12524480 0.38259977 1.39483917 162 163 162
1.13375739 0.38483178 1.40740748 163 163 163
1.13347886 0.40957394 1.54982328 162 163 158
1.13857913 0.41224286 1.56196272 164 163 158
1.12108016 0.43793035 1.51993692 154 156 154
1.12349683 0.43858281 1.52679121 156 158 154
1.13710800 0.43100560 1.55235887 171 171 165
1.12452063 0.44530041 1.53630027 144 145 143
1.12716742 0.44664582 1.54754729 144 144 141
1.13576934 0.44716502 1.56703646 150 150 144
1.13815415 0.45308173 1.58201343 147 145 139
1.12937820 0.69321412 1.71618187 135 136 134
1.13224471 0.69794732 1.72053766 133 132 130
1.12542315 0.71793310 1.71618187 117 117 114
1.13501231 0.70856959 1.73080520 128 128 126
1.12713516 0.72608805 1.73181927 118 119 115
1.13365420 0.72888140 1.74715942 121 121 119
1.12049675 0.74960253 1.72994772 115 116 118
1.12778822 0.74744195 1.74586397 114 115 117
1.13732016 0.75273812 1.76534331 119 120 122
1.12861502 0.76309669 1.74714386 117 116 115
1.15736562 0.35833231 1.43773621 149 150 145
1.15894449 0.37933910 1.40060294 154 156 147
1.15707718 0.37522627 1.43584003 168 172 166
1.15856516 0.36072329 1.44232309 145 147 140
1.15658605 0.38018891 1.39483917 161 162 155
1.15145981 0.38247669 1.41670340 164 164 160
1.15055159 0.38398988 1.42762734 168 169 167
1.14483228 0.41508859 1.57148439 167 168 162
1.14911807 0.41431636 1.58016741 173 174 166
1.14134872 0.43284334 1.55837202 171 172 164
1.14653105 0.43254505 1.57194573 176 177 169
1.15620575 0.42979055 1.59112782 169 169 165
1.15617299 0.43531119 1.60384703 172 173 167
1.14540758 0.44467896 1.57356982 165 166 159
1.15205653 0.44585534 1.59162273 170 170 164
1.15614049 0.44978095 1.60766272 166 166 162
1.14346097 0.71162032 1.73627903 127 125 125
1.14616251 0.71462695 1.74880041 127 125 125
1.14385748 0.72012734 1.73818421 117 117 117
1.14616595 0.72167353 1.75166631 121 117 117
1.14915742 0.72797687 1.76946992 124 122 122
1.15698299 0.73234317 1.78628558 128 127 126
1.14331229 0.75037674 1.77274230 121 122 121
1.15132072 0.74931811 1.78627938 124 124 123
1.14028966 0.76082188 1.76995254 120 121 125
1.14620864 0.76066166 1.78392589 125 125 125
1.15682656 0.76509625 1.80530775 130 131 131
1.17477146 0.34981750 1.44617045 159 160 155
1.16943296 0.37516463 1.41229105 149 150 146
1.17346945 0.37111488 1.42717567 164 165 162
1.16720232 0.37265918 1.44941547 162 163 159
1.17482382 0.37144223 1.46492836 148 149 147
1.17212476 0.39106593 1.41041020 154 154 150
1.17356100 0.39092768 1.43088817 167 167 161
1.17060405 0.38563505 1.44541158 169 171 167
1.17440941 0.38386814 1.46890126 163 167 164
1.17691803 0.40386249 1.41699948 144 144 142
1.17673170 0.40373383 1.42761756 156 156 150
1.16270059 0.43150772 1.59318513 172 173 168
1.16678430 0.43547800 1.61097753 176 177 173
1.16534057 0.45141614 1.62272310 171 171 168
1.16162550 0.72366118 1.78392589 131 130 128
1.17085600 0.76963985 1.82720172 128 129 126
1.18423134 0.34558824 1.45471019 171 172 167
1.18784581 0.34812546 1.47082291 146 146 145
1.19077427 0.35454066 1.48196592 137 137 135
1.18844687 0.37643300 1.45078278 168 169 163
1.19043298 0.37520306 1.46918443 164 165 159
1.19157910 0.36708125 1.48582029 145 144 142
1.18390480 0.39247435 1.41744360 149 149 144
1.18315789 0.39153774 1.43197970 170 170 164
1.18698420 0.38667052 1.44735017 166 167 164
1.19275961 0.38586167 1.46519703 169 170 166
1.18380404 0.38040760 1.48011315 141 142 145
1.18206161 0.40206595 1.41670340 145 146 144
1.18457159 0.40519547 1.42339608 146 146 144
1.18365884 0.79136893 1.85217732 135 135 133
1.19015360 0.79087842 1.86234021 136 136 135
1.19015360 0.80053514 1.86234021 138 138 136
1.20627667 0.37655988 1.47008684 173 174 167
1.20204329 0.36391440 1.49644995 136 135 133
1.20125973 0.38224027 1.45783186 155 155 155
1.20732391 0.38762321 1.47003833 161 161 160
1.21706140 0.39064062 1.48011315 156 156 156
1.20004404 0.79420519 1.87781680 136 137 136
1.20599174 0.80520838 1.89224142 141 141 139
1.21231660 0.81328924 1.90956746 152 152 144
1.21728289 0.81220412 1.92037344 153 154 145
1.22907734 0.80952039 1.92584461 141 141 137
1.23459184 0.81815583 1.94238353 147 147 143
1.22204359 0.82429582 1.93315514 162 162 152
1.23050326 0.82868083 1.95134946 163 164 153
1.23532116 0.83103788 1.96490383 164 165 154
1.25705504 0.23986647 1.10405838 138 139 135
1.25667958 0.24211606 1.10912263 151 152 149
1.24508417 0.81949484 1.95357883 143 143 139
1.24529636 0.82186329 1.95922494 149 149 145
1.25258787 0.82576195 1.97177153 149 149 143
1.24969757 0.83441290 1.98504627 159 160 150
1.25188529 0.85312825 1.99674028 172 172 162
1.27351160 0.23271381 1.13234249 159 160 156
1.26539721 0.24317955 1.11243217 144 144 141
1.27376849 0.24760122 1.13114274 157 157 155
1.27165836 0.82750268 1.99527854 143 143 141
1.28030813 0.23490681 1.10766637 146 147 143
1.28570316 0.23193911 1.13227438 157 159 153
1.28547540 0.23556585 1.14819286 158 159 155
1.28963308 0.24469850 1.11740482 145 149 147
1.29017891 0.25263272 1.13147269 148 150 149
1.28932999 0.25510732 1.14575535 160 163 161
1.29962945 0.26021838 1.12606621 157 158 153
1.29542407 0.26331273 1.15092479 161 166 163
1.30630752 0.23446602 1.13724738 149 151 149
1.31487720 0.23515277 1.14343613 146 150 149
1.30700814 0.25183801 1.13569472 134 138 136
1.31364858 0.25428947 1.14315943 136 139 139
1.30178952 0.25865018 1.16276479 160 161 161
1.30781098 0.26433845 1.15099842 152 154 152
1.30178952 0.26065993 1.16276479 162 167 164
1.32308370 0.23472949 1.14896917 155 161 160
1.32384900 0.26405204 1.15223224 143 144 143
