ply
format ascii 1.0
element vertex 1115
property float x
property float y
property float z
property uchar red
property uchar green
property uchar blue
end_header
0.29967818 -0.32994620 0.91863922 137 137 138
0.29060742 -0.33012520 0.92532053 85 86 98
0.29982230 -0.31183570 0.91908103 133 132 136
0.29012231 -0.30985206 0.92639911 82 83 99
0.29003569 -0.29013895 0.92730612 78 78 94
0.28992361 -0.26997447 0.92808253 76 77 97
0.29013017 -0.25010105 0.92874222 75 77 97
0.29031363 -0.23018057 0.92932959 72 74 94
0.29032942 -0.21039223 0.92998464 71 73 93
0.28990993 -0.19028553 0.93060893 70 73 95
0.29009850 -0.17029004 0.93121338 69 72 95
0.29031352 -0.15028181 0.93190278 67 69 92
0.28987008 -0.13014953 0.93266317 64 64 89
0.28995965 -0.11018551 0.93335590 63 65 88
0.29015531 -0.09008123 0.93398591 63 64 84
0.29024884 -0.06999655 0.93447292 61 62 83
0.28960913 -0.04976856 0.93482858 60 62 83
0.28968817 -0.03038770 0.93508378 59 60 81
0.28974152 -0.01018698 0.93525585 61 61 82
0.28976531 0.01002007 0.93533240 61 62 84
0.28976830 0.03022837 0.93534153 60 61 81
0.28975845 0.05043485 0.93530926 63 63 83
0.28973535 0.06982844 0.93523439 62 63 80
0.28969503 0.09002173 0.93510379 47 47 66
0.28967645 0.11021813 0.93504341 30 29 43
0.28973924 0.12964043 0.93524592 30 29 42
0.28986858 0.14991388 0.93566335 38 39 60
0.29002440 0.17022049 0.93616625 40 43 65
0.29017985 0.18973916 0.93666795 39 43 69
0.29033604 0.21008922 0.93717212 40 44 71
0.29048275 0.23045323 0.93764570 40 43 69
0.28999214 0.25015521 0.93806314 39 42 70
0.28992086 0.26957958 0.93844978 39 43 69
0.29003304 0.28996720 0.93881295 43 47 70
0.29013037 0.31035443 0.93912806 49 50 69
0.29001834 0.32977943 0.93938390 42 42 54
0.28946612 0.34948928 0.93960668 29 28 37
0.28952088 0.36985962 0.93978447 20 19 25
0.28954119 0.39019097 0.93985047 10 9 11
0.28953547 0.40967650 0.93983206 0 0 0
0.28877263 0.42894121 0.93991587 0 0 0
0.29528065 0.43785071 0.94002273 0 0 0
0.28227197 0.44235402 0.93998732 0 0 0
0.28999386 0.45082848 0.94010753 0 0 0
0.28967335 0.47000425 0.94027982 0 0 0
0.28973111 0.48960425 0.94046734 0 0 0
0.28979509 0.51003599 0.94067505 0 0 0
0.28985184 0.52802385 0.94085927 0 0 0
0.31011865 -0.62396799 0.92850614 0 0 0
0.31007459 -0.61024047 0.92837420 0 0 0
0.30996838 -0.58998094 0.92805628 0 0 0
0.30982902 -0.57028333 0.92742445 0 0 0
0.31013599 -0.55067700 0.92650490 0 0 0
0.31079973 -0.52689841 0.91712929 107 107 108
0.30660066 -0.53788891 0.92371711 52 50 54
0.31020810 -0.50996197 0.91673614 115 116 115
0.31021439 -0.49019524 0.91693343 122 123 122
0.31025286 -0.46979327 0.91721496 129 127 126
0.31039661 -0.45002512 0.91729505 139 128 125
0.31036606 -0.43018389 0.91738660 143 113 115
0.31018345 -0.40995251 0.91745709 130 102 106
0.31023416 -0.38987008 0.91709935 119 114 121
0.30936590 -0.37002959 0.91664427 143 142 143
0.31003436 -0.35002401 0.91584609 153 152 151
0.30970954 -0.32981692 0.91575873 155 155 154
0.30984661 -0.30996398 0.91605797 151 150 150
0.30016211 -0.30105783 0.92012268 136 137 139
0.31028856 -0.29035242 0.91702445 142 141 141
0.30039793 -0.28908492 0.92297626 109 108 112
0.31081961 -0.27031484 0.91804749 142 141 141
0.30075381 -0.26921735 0.92351663 116 116 120
0.31142303 -0.25030034 0.91898909 140 140 140
0.30177271 -0.24903387 0.92320152 117 117 122
0.31561839 -0.23233208 0.91957916 141 138 139
0.30642985 -0.22871077 0.92240440 130 129 130
0.31877980 -0.21870945 0.91992362 149 149 151
0.30954467 -0.20976412 0.92339162 137 136 140
0.30963094 -0.19002479 0.92465146 136 138 145
0.30986332 -0.17008944 0.92547310 137 138 145
0.30994345 -0.15032463 0.92638096 127 129 135
0.30986230 -0.12995805 0.92716762 105 103 109
0.30980971 -0.10997582 0.92833714 99 97 104
0.31052197 -0.09002667 0.92911887 95 93 97
0.31046515 -0.06990904 0.93047044 92 89 94
0.31028561 -0.05009578 0.93263774 75 65 76
0.30966507 -0.03048165 0.93377691 66 57 68
0.30960130 -0.01017519 0.93422296 65 61 72
0.30971998 0.01001237 0.93457668 66 64 77
0.30978604 0.03021032 0.93477341 63 61 74
0.30982489 0.05041242 0.93488885 60 59 71
0.30984324 0.06980690 0.93494271 56 55 69
0.30985397 0.09000954 0.93497332 45 45 61
0.30989072 0.11022297 0.93508244 28 27 41
0.30998846 0.12965861 0.93537643 25 24 36
0.31013933 0.14994086 0.93583132 32 32 49
0.30971823 0.17010614 0.93635461 38 40 65
0.30967582 0.18978124 0.93687557 39 44 73
0.30984490 0.21013741 0.93738706 40 43 74
0.31000022 0.23050514 0.93785694 40 44 75
0.31013703 0.25006752 0.93827086 40 44 74
0.31026333 0.26963795 0.93865300 42 46 76
0.31038123 0.29002796 0.93900971 47 51 78
0.31048371 0.31041777 0.93931977 51 53 76
0.31035134 0.33013758 0.93957110 44 44 61
0.30982343 0.34955343 0.93977921 32 33 43
0.30808673 0.36842556 0.93992488 23 22 30
0.31627242 0.37526856 0.94002782 22 21 27
0.30488277 0.39134480 0.93996155 8 8 10
0.31478323 0.38918955 0.94003915 13 12 16
0.30794746 0.40945221 0.93994853 0 0 0
0.31835977 0.41095954 0.94001221 0 0 0
0.30403742 0.42387138 0.93997047 0 0 0
0.31144556 0.43170160 0.94006588 0 0 0
0.30996441 0.45046706 0.94020720 0 0 0
0.31001992 0.47005211 0.94037560 0 0 0
0.31007962 0.48965078 0.94055673 0 0 0
0.31014619 0.51008133 0.94075869 0 0 0
0.31020521 0.52806788 0.94093774 0 0 0
0.33014381 -0.62390129 0.92840687 0 0 0
0.33009098 -0.61016445 0.92825847 0 0 0
0.32996557 -0.58988553 0.92790608 0 0 0
0.32977026 -0.57025270 0.92718296 0 0 0
0.33310275 -0.54046055 0.91886240 114 113 114
0.32978806 -0.55166915 0.92605516 8 8 8
0.33085377 -0.52907178 0.91562091 126 125 125
0.32420479 -0.53950389 0.92157010 114 116 115
0.33007417 -0.51004783 0.91527784 136 131 129
0.33018715 -0.48995576 0.91535584 148 136 135
0.33046396 -0.47003991 0.91539972 168 139 140
0.32994917 -0.45002702 0.91510690 163 138 139
0.33008364 -0.42994292 0.91451410 157 135 136
0.32961798 -0.40994474 0.91402814 160 148 149
0.32976342 -0.39003933 0.91345466 165 164 165
0.32945300 -0.36992398 0.91331622 170 169 171
0.32937983 -0.34993050 0.91328244 170 171 173
0.32978909 -0.33027848 0.91361111 177 180 182
0.32986395 -0.31021150 0.91429492 165 166 169
0.33018982 -0.28995363 0.91519790 161 161 164
0.33051110 -0.26975432 0.91624576 165 166 169
0.32928178 -0.24967250 0.91745505 159 160 163
0.32995446 -0.23017454 0.91840054 158 159 163
0.33147695 -0.21118469 0.91913969 160 161 166
0.32308374 -0.20537247 0.92021392 151 152 154
0.33559213 -0.19101692 0.91955849 168 169 175
0.32609321 -0.18867000 0.92053028 164 167 171
0.33869918 -0.17424572 0.91985326 154 157 164
0.32958873 -0.16943399 0.92079975 166 169 173
0.32993956 -0.15013548 0.92130215 149 150 154
0.32928507 -0.12972359 0.92192201 137 133 135
0.32987033 -0.10992420 0.92273500 132 129 130
0.33011274 -0.08989932 0.92383484 120 116 114
0.33044835 -0.07001190 0.92477534 126 120 120
0.33027398 -0.05037609 0.92767256 115 87 94
0.32956071 -0.03010462 0.93076733 100 62 71
0.32962022 -0.01014462 0.93147085 99 70 77
0.32986710 0.00998710 0.93216875 101 98 103
0.33002629 0.03014123 0.93261878 101 98 102
0.33020514 0.05031792 0.93312327 95 93 96
0.33032783 0.06965366 0.93364429 88 84 88
0.32981770 0.08994622 0.93430443 62 60 68
0.33002000 0.11019909 0.93487532 31 30 41
0.33019576 0.12965822 0.93537214 21 20 29
0.33038734 0.14995427 0.93591433 27 27 41
0.32997223 0.17042249 0.93649141 34 36 60
0.32997064 0.18981202 0.93702741 39 42 76
0.33015472 0.21017397 0.93755007 40 44 81
0.32958133 0.23048312 0.93801754 39 44 82
0.32965372 0.25011005 0.93843046 39 43 77
0.32978648 0.26968258 0.93880841 39 43 74
0.32991027 0.29007462 0.93916080 42 45 74
0.33001879 0.31046732 0.93946972 44 46 71
0.33010513 0.33003916 0.93971554 41 42 60
0.32942457 0.34870090 0.93991009 33 34 46
0.33620432 0.35685376 0.94002328 30 29 40
0.32288789 0.36181418 0.93998330 26 26 35
0.33073742 0.37053624 0.94008999 24 23 31
0.33025260 0.39030921 0.94013538 13 12 16
0.33023322 0.40978464 0.94008023 0 0 0
0.33025933 0.43012958 0.94015462 0 0 0
0.33031210 0.45051386 0.94030491 0 0 0
0.33036826 0.47009669 0.94046481 0 0 0
0.33043012 0.48969462 0.94064095 0 0 0
0.33049940 0.51012443 0.94083819 0 0 0
0.33056087 0.52811022 0.94101319 0 0 0
0.35014514 -0.62379952 0.92825541 0 0 0
0.35007584 -0.61004196 0.92807195 0 0 0
0.34991281 -0.58971665 0.92764019 0 0 0
0.35014714 -0.56979756 0.92680930 0 0 0
0.35170905 -0.54243982 0.91609609 146 140 134
0.34923999 -0.55350653 0.92537232 16 16 15
0.35035677 -0.52962361 0.91236017 155 142 138
0.35030306 -0.51009462 0.91192542 158 146 143
0.35020851 -0.48994977 0.91185378 159 144 141
0.35019735 -0.46996714 0.91149511 158 150 150
0.35002215 -0.45007151 0.91133616 163 160 160
0.35019240 -0.43007567 0.91112565 158 153 154
0.34990538 -0.40995879 0.91108367 163 163 164
0.34980939 -0.38988164 0.91110413 168 170 172
0.34995105 -0.37039875 0.91124412 174 177 179
0.34938728 -0.35027612 0.91163125 169 172 177
0.34962853 -0.33001893 0.91225959 176 179 184
0.34995785 -0.30981203 0.91311829 173 175 180
0.35032727 -0.28960006 0.91408186 166 168 172
0.34994399 -0.26978413 0.91509265 161 164 168
0.34973303 -0.25019593 0.91615035 158 161 167
0.34990334 -0.23032428 0.91711212 167 171 177
0.35023768 -0.20991780 0.91798828 171 175 182
0.35014809 -0.19005239 0.91875452 168 171 177
0.35029296 -0.17031394 0.91941790 157 159 166
0.34147597 -0.16188472 0.92002720 147 151 158
0.35329299 -0.15526103 0.91981683 147 149 153
0.34777687 -0.14706525 0.92029114 150 151 155
0.34976310 -0.13020499 0.92091454 152 153 156
0.35008583 -0.11040987 0.92176432 154 154 158
0.35026943 -0.08993380 0.92270427 132 126 128
0.34996714 -0.06991954 0.92355488 123 102 106
0.34985251 -0.04969074 0.92499043 116 90 94
0.34966246 -0.03024245 0.92892405 95 57 65
0.34986819 -0.01012488 0.92965920 97 59 68
0.35017194 0.00996928 0.93046535 97 88 93
0.35040733 0.03009205 0.93108953 98 95 100
0.34995098 0.05018720 0.93182305 98 94 97
0.35010774 0.06969643 0.93262445 92 87 90
0.34975077 0.08988200 0.93362946 65 62 69
0.35009632 0.11016129 0.93455052 32 31 41
0.34984028 0.12946897 0.93526554 21 20 29
0.34980324 0.14995621 0.93592550 25 25 38
0.35003883 0.17029143 0.93655559 30 31 54
0.35025045 0.18983115 0.93712170 33 37 65
0.35045030 0.21019780 0.93765633 35 40 71
0.34988124 0.23063101 0.93813498 36 41 76
0.34997334 0.25014198 0.93855022 36 41 74
0.35011470 0.26971731 0.93892930 36 41 76
0.34982269 0.28989945 0.93927507 36 42 75
0.34954727 0.31050550 0.93958525 40 44 72
0.34963778 0.33007885 0.93982855 41 45 69
0.34700421 0.34372404 0.93996494 40 43 60
0.35098475 0.35242740 0.94006236 38 38 56
0.34977187 0.37001878 0.94018899 26 25 35
0.34979402 0.39035619 0.94024847 13 12 16
0.34977247 0.40983272 0.94019055 0 0 0
0.34979628 0.43017529 0.94025459 0 0 0
0.34984794 0.45055629 0.94039350 0 0 0
0.34990472 0.47013735 0.94054615 0 0 0
0.34996898 0.48973519 0.94071889 0 0 0
0.35004046 0.51016392 0.94091106 0 0 0
0.35010381 0.52814848 0.94108137 0 0 0
0.37013003 -0.62368130 0.92807947 0 0 0
0.37003564 -0.60989162 0.92784301 0 0 0
0.36982180 -0.58950529 0.92730741 0 0 0
0.36999489 -0.56991194 0.92643951 0 0 0
0.37141048 -0.54383535 0.91138769 150 150 147
0.36878922 -0.55594424 0.92504615 23 23 22
0.36990392 -0.52997207 0.90855328 152 151 146
0.37012714 -0.51002684 0.90828044 149 149 147
0.37022716 -0.49011597 0.90829311 146 146 143
0.37013351 -0.46993744 0.90841023 143 142 141
0.37027661 -0.44969992 0.90876142 151 151 151
0.37017031 -0.42973832 0.90899639 154 154 154
0.37068676 -0.41025194 0.90926535 142 142 144
0.37030085 -0.39060380 0.90966840 145 145 146
0.36977833 -0.36999939 0.91024263 159 161 163
0.36959470 -0.35001204 0.91094537 160 162 166
0.36993356 -0.32984515 0.91177985 168 172 177
0.37026112 -0.30973511 0.91272582 175 179 184
0.36992973 -0.28948424 0.91371632 163 166 172
0.36977670 -0.26985980 0.91467468 163 165 171
0.36992195 -0.25053164 0.91565205 167 172 176
0.37026861 -0.23026473 0.91665005 167 173 179
0.36992113 -0.20983176 0.91761259 167 172 178
0.37003613 -0.19002843 0.91842028 168 171 178
0.36975047 -0.17046842 0.91915947 166 169 176
0.36955257 -0.15427498 0.91976756 155 158 163
0.37075908 -0.14410771 0.92018414 151 154 159
0.37013299 -0.13034719 0.92073513 139 139 145
0.36990934 -0.11038252 0.92153445 138 126 130
0.37004614 -0.08960623 0.92236271 149 106 114
0.36976666 -0.06988994 0.92316651 148 92 100
0.37014023 -0.04999415 0.92409928 120 90 92
0.36962406 -0.03005389 0.92666395 99 57 64
0.37004730 -0.01010499 0.92787791 124 51 65
0.37025081 0.00981071 0.92886068 120 60 72
0.37004339 0.03005376 0.92988021 97 77 83
0.36970346 0.05025541 0.93089107 104 82 86
0.37002195 0.06957761 0.93184941 106 78 82
0.37004911 0.08960995 0.93297066 76 60 67
0.37013192 0.11011551 0.93415788 35 32 41
0.36995888 0.12979337 0.93511594 21 20 29
0.37000651 0.14994927 0.93588121 24 23 35
0.36995403 0.17010501 0.93656182 26 26 44
0.36970183 0.18983868 0.93715870 27 28 51
0.36991877 0.21020953 0.93770855 30 32 58
0.37011234 0.23058928 0.93819917 32 35 64
0.37028023 0.25016185 0.93862473 32 36 64
0.37043211 0.26974040 0.93900967 32 36 65
0.37011953 0.29034724 0.93936623 32 37 67
0.36988148 0.31053428 0.93967232 36 40 68
0.36932106 0.32889432 0.93989959 42 46 74
0.37419672 0.33792179 0.94002140 43 48 70
0.36026115 0.34069847 0.93999767 45 48 69
0.37012082 0.34973803 0.94012055 43 46 66
0.37012045 0.37005437 0.94027938 32 33 44
0.37014841 0.39039852 0.94035035 17 16 22
0.37012831 0.40988008 0.94029922 0 0 0
0.36993986 0.42986106 0.94035250 0 0 0
0.37041059 0.45020694 0.94048114 0 0 0
0.36944358 0.47017675 0.94062500 0 0 0
0.36951025 0.48977467 0.94079475 0 0 0
0.36946954 0.50953003 0.94097478 0 0 0
0.36978436 0.52749311 0.94114174 0 0 0
0.39009860 -0.62354890 0.92788244 0 0 0
0.38983673 -0.61032740 0.92760995 0 0 0
0.39010943 -0.58971224 0.92695009 0 0 0
0.38992203 -0.56970706 0.92601121 0 0 0
0.39107759 -0.54579197 0.90833201 145 145 142
0.38482100 -0.55719461 0.92356499 67 69 69
0.38976782 -0.52986289 0.90636274 146 146 142
0.38976200 -0.50973478 0.90658664 143 143 142
0.38993461 -0.48958043 0.90698663 143 143 140
0.38987859 -0.46965027 0.90730072 140 140 139
0.39042914 -0.45026694 0.90768258 140 139 138
0.39040826 -0.43053064 0.90808620 138 137 136
0.39001124 -0.41050730 0.90868795 134 132 130
0.38983705 -0.39010933 0.90946427 132 131 129
0.38977788 -0.37020832 0.91027671 134 134 134
0.39014886 -0.35008753 0.91114239 135 135 135
0.38993398 -0.33008433 0.91203003 141 141 144
0.39009815 -0.30971801 0.91301946 149 150 156
0.38980094 -0.28958013 0.91401912 156 159 164
0.39026958 -0.26997534 0.91497711 149 151 158
0.38967637 -0.25041624 0.91591089 154 157 163
0.39017701 -0.23021366 0.91691324 165 169 175
0.38984905 -0.20988652 0.91785211 151 153 162
0.39031857 -0.19003219 0.91867534 152 154 163
0.38957891 -0.17032925 0.91941731 166 171 178
0.38677004 -0.15672934 0.91986927 167 172 177
0.39117811 -0.14765787 0.92030477 154 152 157
0.39008485 -0.13003673 0.92094054 148 123 128
0.38988455 -0.11040083 0.92168718 154 101 106
0.39011524 -0.08987540 0.92250348 143 94 99
0.38979523 -0.06990462 0.92336256 111 86 88
0.39018348 -0.05000444 0.92428221 108 88 89
0.38997466 -0.03007962 0.92568457 122 67 74
0.38991759 -0.01020805 0.92713862 136 48 61
0.39003684 0.01009317 0.92824216 123 48 61
0.38988972 0.03003508 0.92929638 127 68 76
0.39007550 0.04999969 0.93034453 147 70 80
0.38995517 0.06954188 0.93137072 144 65 76
0.38997734 0.08998113 0.93249874 107 52 62
0.39007893 0.11000979 0.93374328 48 32 40
0.38982249 0.12959533 0.93491288 19 18 27
0.39018558 0.14993372 0.93578335 20 19 30
0.39014429 0.17047722 0.93653107 25 24 38
0.38994401 0.18983616 0.93714605 25 24 40
0.39012186 0.21015256 0.93771252 28 27 47
0.38957984 0.23059424 0.93821928 29 29 52
0.38976133 0.25017028 0.93865631 29 31 54
0.38992503 0.26975215 0.93905050 28 31 56
0.39007565 0.29015259 0.93941319 29 32 58
0.39020638 0.31055269 0.93972800 33 37 62
0.38967105 0.32612987 0.93992933 40 44 69
0.39120537 0.33573371 0.94004699 44 46 69
0.39039698 0.34970509 0.94018696 44 45 62
0.39046454 0.37008204 0.94034966 34 35 45
0.39049810 0.39043181 0.94043045 20 20 26
0.39048438 0.40992284 0.94039730 0 0 0
0.39050492 0.42945040 0.94044679 0 0 0
0.39055294 0.44982440 0.94056246 0 0 0
0.38979818 0.47021553 0.94070260 0 0 0
0.38986718 0.48981340 0.94086915 0 0 0
0.38993956 0.50942258 0.94104384 0 0 0
0.39000700 0.52740539 0.94120659 0 0 0
0.41004431 -0.62339489 0.92765324 0 0 0
0.40990507 -0.61036147 0.92733843 0 0 0
0.40964502 -0.59056691 0.92665804 0 0 0
0.41375968 -0.56037075 0.91636178 121 120 120
0.40972848 -0.57172531 0.92544273 6 6 6
0.41031537 -0.54710196 0.90622227 137 137 134
0.40953870 -0.52933621 0.90527066 137 137 134
0.40983952 -0.50936793 0.90593527 138 138 136
0.41011657 -0.48934319 0.90654740 140 139 137
0.41037751 -0.46992191 0.90699096 139 138 137
0.40998760 -0.45079643 0.90756941 137 136 135
0.41007411 -0.43057786 0.90818644 133 132 130
0.40976013 -0.41042610 0.90898009 131 130 127
0.41006117 -0.39049904 0.90989803 127 125 124
0.40993977 -0.37060137 0.91080794 130 128 127
0.41011233 -0.35032469 0.91176013 132 131 130
0.40992207 -0.33003906 0.91270996 130 129 129
0.41007807 -0.31011027 0.91369109 127 126 127
0.40984540 -0.28978988 0.91468113 122 121 125
0.41016097 -0.26942012 0.91567608 122 122 125
0.40992238 -0.25000469 0.91662041 128 128 132
0.40987109 -0.23063467 0.91756351 136 137 144
0.40995862 -0.21002947 0.91847699 146 148 154
0.41025894 -0.18950046 0.91929740 149 152 157
0.40621671 -0.17320359 0.91976973 149 152 156
0.41311646 -0.16678476 0.92020855 133 120 126
0.41014522 -0.15006304 0.92067789 148 109 117
0.40978709 -0.13025831 0.92136798 158 96 105
0.40993272 -0.11039063 0.92211714 140 93 97
0.41022413 -0.08970187 0.92294071 120 93 93
0.40992933 -0.06993605 0.92377785 131 88 89
0.40991093 -0.05023279 0.92467066 143 85 90
0.41001665 -0.03008355 0.92577879 125 72 78
0.40988487 -0.00998988 0.92703137 113 49 60
0.41011678 0.00984003 0.92809936 126 47 61
0.40989219 0.03002947 0.92912502 138 58 71
0.41006577 0.05033275 0.93015908 139 64 74
0.40997812 0.06952495 0.93114418 113 58 66
0.40991850 0.08956773 0.93224405 72 49 55
0.41013797 0.11010003 0.93350383 43 31 38
0.40993360 0.12956770 0.93471251 19 17 25
0.40992202 0.14970157 0.93564208 17 16 26
0.40988118 0.17027019 0.93643783 23 22 32
0.41016370 0.18982346 0.93708320 23 22 35
0.41035475 0.21026357 0.93767296 25 24 40
0.40984047 0.23058880 0.93819700 28 28 47
0.41003874 0.25016883 0.93865079 29 30 49
0.41002512 0.26961074 0.93905673 29 31 50
0.40956928 0.29015918 0.93943448 29 30 50
0.40971006 0.31056241 0.93975737 30 31 54
0.40944512 0.32466646 0.93994819 33 35 57
0.41011699 0.33440586 0.94006958 35 37 58
0.40991636 0.34972129 0.94023050 37 39 56
0.40998858 0.37010034 0.94039613 32 33 43
0.41002879 0.39045587 0.94048830 22 21 29
0.41002527 0.40995896 0.94048013 0 0 0
0.41004702 0.42948839 0.94053001 0 0 0
0.41009407 0.44986049 0.94063794 0 0 0
0.41015406 0.47025201 0.94077558 0 0 0
0.41022533 0.48984978 0.94093906 0 0 0
0.41029945 0.50945790 0.94110908 0 0 0
0.41037026 0.52744175 0.94127149 0 0 0
0.42998554 -0.62324846 0.92743533 0 0 0
0.42981202 -0.61017919 0.92706125 0 0 0
0.43027882 -0.59049264 0.92634163 0 0 0
0.43307647 -0.56410481 0.91513932 132 132 131
0.42897079 -0.57477426 0.92534522 6 6 6
0.43022120 -0.54864790 0.90554324 137 136 133
0.42998922 -0.52946878 0.90549753 132 132 130
0.43025903 -0.50944183 0.90606651 129 129 127
0.43012110 -0.48959214 0.90663245 133 132 129
0.43003703 -0.46933679 0.90725061 133 132 131
0.42990344 -0.44931244 0.90803829 133 132 132
0.43004268 -0.42964519 0.90877914 131 129 128
0.42993551 -0.40997729 0.90968245 125 124 121
0.43009880 -0.38990463 0.91065680 122 122 119
0.42990602 -0.37001239 0.91158910 123 122 121
0.42991428 -0.35055273 0.91252885 126 124 123
0.42984937 -0.33047280 0.91351535 123 122 123
0.43020794 -0.31018879 0.91455364 119 119 120
0.43001278 -0.29006302 0.91554337 120 120 120
0.42973482 -0.26983307 0.91649889 122 120 121
0.43027070 -0.24963352 0.91748342 114 113 114
0.42987800 -0.22988392 0.91837510 111 110 113
0.43008579 -0.21025241 0.91920325 112 111 115
0.42723949 -0.19314696 0.91975670 112 110 115
0.43281402 -0.18535268 0.92023436 107 105 108
0.43002798 -0.16995125 0.92065915 107 95 98
0.43033930 -0.15016864 0.92132569 126 93 98
0.42993089 -0.12950962 0.92203499 132 92 96
0.42996379 -0.10990105 0.92276803 136 91 94
0.42976702 -0.08986916 0.92351800 142 89 94
0.43013827 -0.06997693 0.92431609 149 83 87
0.43008375 -0.04984613 0.92515847 137 79 84
0.43009380 -0.03015044 0.92607413 129 73 80
0.42982263 -0.01009617 0.92708265 144 56 68
0.43015238 0.01005406 0.92810246 151 47 60
0.42993940 0.03002751 0.92906690 140 50 63
0.42994046 0.04996412 0.93004869 105 59 66
0.43004590 0.06951686 0.93103590 77 57 61
0.42999286 0.08991645 0.93215806 88 52 59
0.42998656 0.10983330 0.93334811 66 36 43
0.43004392 0.12954232 0.93452899 22 18 26
0.43004313 0.15009814 0.93550834 18 16 24
0.43005543 0.17024742 0.93631238 22 21 30
0.42983538 0.18962689 0.93697684 23 22 33
0.42983267 0.21018335 0.93759127 24 23 37
0.43008239 0.23057381 0.93813590 25 25 41
0.43029916 0.25015765 0.93860869 25 26 45
0.43027975 0.26989710 0.93903600 26 27 45
0.42986048 0.29015554 0.93942260 27 28 47
0.43001405 0.31056269 0.93975815 29 30 49
0.43010409 0.32443668 0.93995488 31 32 51
0.43016199 0.33422953 0.94008139 32 33 50
0.42991597 0.34953997 0.94024937 32 33 49
0.42950516 0.37011055 0.94042203 29 29 40
0.42955411 0.39047287 0.94052916 21 21 29
0.42956293 0.40998872 0.94054834 1 1 1
0.42958791 0.42952173 0.94060302 0 0 0
0.42963471 0.44989279 0.94070550 0 0 0
0.42969588 0.47028393 0.94083945 0 0 0
0.42976953 0.48988187 0.94100071 0 0 0
0.42984603 0.50948991 0.94116822 0 0 0
0.42992071 0.52747552 0.94133174 0 0 0
0.44991332 -0.62309667 0.92720944 0 0 0
0.44971142 -0.61000305 0.92679353 0 0 0
0.45015208 -0.59030824 0.92605217 0 0 0
0.45177318 -0.56440080 0.91020984 100 101 106
0.44827198 -0.57677414 0.92485452 20 21 21
0.45009806 -0.54969881 0.90659416 117 117 117
0.45003686 -0.53003815 0.90647110 131 130 128
0.45019333 -0.50984772 0.90678722 128 128 125
0.44994111 -0.48947257 0.90716134 126 125 121
0.44990771 -0.46961712 0.90779260 124 124 121
0.45009515 -0.44980621 0.90863211 126 126 124
0.44994792 -0.42960938 0.90946013 128 128 127
0.44993929 -0.40942818 0.91045112 119 117 117
0.45012804 -0.38957513 0.91141591 119 118 115
0.44981335 -0.36948466 0.91237559 119 118 115
0.45029298 -0.34941001 0.91340982 119 117 115
0.45002300 -0.33000344 0.91440250 117 116 114
0.44962944 -0.31046931 0.91541966 117 116 116
0.45024302 -0.29035322 0.91645949 119 119 118
0.44996854 -0.26998098 0.91739897 118 117 117
0.44981234 -0.24984471 0.91828884 117 115 116
0.44996618 -0.23003717 0.91913006 115 113 112
0.44801936 -0.21332629 0.91971790 107 104 103
0.45375302 -0.20565604 0.92021199 107 105 105
0.44004079 -0.19924199 0.91997051 116 111 112
0.44997664 -0.18978546 0.92066036 105 102 102
0.44987043 -0.17026838 0.92134156 98 96 98
0.44978849 -0.15028214 0.92202234 104 100 100
0.45014528 -0.12966755 0.92275381 103 96 95
0.45021519 -0.10964435 0.92347202 109 92 93
0.45003438 -0.08993211 0.92416361 114 90 91
0.44971620 -0.07012775 0.92485990 113 85 88
0.44994064 -0.05007697 0.92561472 105 80 82
0.45026481 -0.03004467 0.92642968 132 69 74
0.44994425 -0.01009854 0.92727136 154 58 70
0.44992649 0.00975634 0.92816736 152 46 59
0.45002901 0.03002855 0.92910143 136 47 59
0.45001186 0.05034011 0.93006640 107 55 64
0.45008667 0.06945781 0.93101044 115 57 65
0.44986924 0.08973485 0.93209805 132 51 61
0.45007752 0.11019911 0.93325913 90 37 46
0.45008769 0.12946070 0.93435388 27 20 28
0.44981451 0.14986201 0.93533475 18 16 23
0.45020898 0.17021883 0.93615498 20 19 28
0.44998937 0.18994680 0.93685035 23 22 32
0.45003326 0.21015714 0.93747421 24 23 35
0.44991380 0.23035473 0.93803594 23 23 39
0.44973068 0.25013758 0.93853329 23 24 40
0.44994096 0.26972969 0.93897205 24 24 42
0.45013461 0.29014121 0.93937612 24 25 43
0.45030289 0.31055250 0.93972725 25 24 42
0.45084162 0.32480599 0.93993862 25 25 42
0.45010783 0.33453441 0.94007119 27 26 42
0.45019750 0.34991834 0.94024702 27 26 41
0.44982612 0.37011299 0.94042820 25 25 35
0.44988583 0.39048280 0.94055296 20 19 28
0.44990873 0.41001158 0.94060073 2 2 4
0.44993957 0.42955011 0.94066516 0 0 0
0.44998810 0.44992201 0.94076661 0 0 0
0.45005146 0.47031373 0.94089906 0 0 0
0.45012763 0.48991186 0.94105832 0 0 0
0.45001466 0.50937563 0.94122230 0 0 0
0.44947104 0.52750621 0.94138651 0 0 0
0.46983467 -0.62294913 0.92698987 0 0 0
0.47014770 -0.60965902 0.92652684 0 0 0
0.46966816 -0.59064609 0.92577051 0 0 0
0.47118688 -0.56708357 0.91043159 72 75 84
0.46596180 -0.57832114 0.92250949 47 47 51
0.46974542 -0.54990207 0.90822353 86 90 96
0.46966935 -0.52998570 0.90795533 113 113 112
0.46942991 -0.51024540 0.90793448 125 125 121
0.46970501 -0.49020708 0.90814759 124 124 119
0.46999003 -0.47008638 0.90869926 121 118 115
0.47011526 -0.44985587 0.90943576 119 118 114
0.46998229 -0.42996155 0.91020559 122 121 119
0.46993579 -0.41010974 0.91114556 117 115 113
0.47017289 -0.38986841 0.91210201 111 108 107
0.46988314 -0.36976594 0.91307025 112 109 106
0.46994300 -0.34984078 0.91410233 111 108 108
0.47018257 -0.32949638 0.91518933 117 115 114
0.47014282 -0.30976954 0.91626969 112 112 112
0.46961409 -0.29044252 0.91722861 113 112 112
0.47013204 -0.27026750 0.91817997 112 111 111
0.47001811 -0.24970189 0.91905730 113 112 112
0.46781486 -0.23239320 0.91968552 111 109 109
0.47474833 -0.22557797 0.92019384 110 108 109
0.46123569 -0.21938014 0.91995780 111 109 109
0.46977962 -0.21007966 0.92060995 107 106 105
0.47017024 -0.18998754 0.92136491 100 98 99
0.47011602 -0.17002058 0.92207061 98 94 95
0.47007831 -0.15040028 0.92274705 96 92 92
0.46962985 -0.12976313 0.92343368 97 95 96
0.46997842 -0.10989390 0.92411928 96 93 92
0.47031719 -0.08999274 0.92478556 96 92 93
0.46996957 -0.06995763 0.92542945 99 92 93
0.47000835 -0.05024775 0.92609346 97 89 88
0.46973972 -0.03011762 0.92680046 103 70 73
0.47012035 -0.01010182 0.92755175 122 62 71
0.47005024 0.01013273 0.92836773 133 49 60
0.47005050 0.02992670 0.92922657 135 45 57
0.46982444 0.05015776 0.93014057 138 47 61
0.47021770 0.06957978 0.93106218 145 52 63
0.46999866 0.08973302 0.93208060 142 50 59
0.46987450 0.10988612 0.93314925 101 39 49
0.47018633 0.12955761 0.93419796 33 23 30
0.46993256 0.14983330 0.93515562 17 15 22
0.46995437 0.16999142 0.93597178 18 16 25
0.46988831 0.18974152 0.93667831 20 19 28
0.47021109 0.21012299 0.93732171 21 20 31
0.47008531 0.23071322 0.93791128 22 21 36
0.46994942 0.25010653 0.93841669 23 23 39
0.47017769 0.26970110 0.93887243 24 23 40
0.46957944 0.29011731 0.93929864 24 23 39
0.46976460 0.31053326 0.93966894 24 22 39
0.47040040 0.32630845 0.93991341 24 23 39
0.46917260 0.33595806 0.94005263 24 23 37
0.47003767 0.34971560 0.94021505 23 22 35
0.47013768 0.37010785 0.94041504 22 21 30
0.47020927 0.39048500 0.94055817 17 16 25
0.47024716 0.41002605 0.94063386 4 3 6
0.47028578 0.42957109 0.94071107 0 0 0
0.47033929 0.44994663 0.94081809 0 0 0
0.47040570 0.47033965 0.94095092 0 0 0
0.47048406 0.48993755 0.94110768 0 0 0
0.47035050 0.50969563 0.94127224 0 0 0
0.46983417 0.52753345 0.94143512 0 0 0
0.48973085 -0.62278187 0.92674097 0 0 0
0.48999901 -0.60982916 0.92626605 0 0 0
0.49664469 -0.58256658 0.91732899 65 63 81
0.48931604 -0.59222715 0.92525027 6 6 7
0.49016444 -0.56896475 0.91126636 67 70 80
0.48983618 -0.54990365 0.91020182 76 80 88
0.48922923 -0.53002165 0.90977564 94 98 103
0.48947976 -0.50977782 0.90954653 109 109 108
0.49025629 -0.48983432 0.90960560 120 119 118
0.48936881 -0.47015936 0.90983988 121 119 116
0.48964142 -0.45037925 0.91038353 117 117 116
0.49011106 -0.43036870 0.91106711 113 112 110
0.48999997 -0.41010016 0.91189975 108 108 107
0.49001189 -0.39032882 0.91277632 107 105 103
0.48997350 -0.37004055 0.91374819 106 104 102
0.49002977 -0.34971404 0.91478808 107 106 106
0.48995425 -0.32993476 0.91584034 104 102 102
0.49010550 -0.30952700 0.91695002 108 107 106
0.48995758 -0.28992191 0.91792603 108 106 106
0.48989643 -0.27066030 0.91881486 111 105 106
0.48886773 -0.25154006 0.91960690 107 106 107
0.49510798 -0.24324338 0.92014737 105 104 104
0.48256383 -0.23859087 0.91994758 104 103 104
0.49036850 -0.22917952 0.92055280 107 105 106
0.49002860 -0.20987346 0.92127467 106 105 105
0.48974113 -0.19022659 0.92198609 103 103 103
0.49014727 -0.16972394 0.92273268 94 93 93
0.49022921 -0.14992502 0.92342788 93 90 91
0.48993297 -0.12985646 0.92409766 93 92 93
0.48982278 -0.11015554 0.92473994 91 87 87
0.48980762 -0.09004969 0.92537003 93 89 89
0.49013680 -0.07010410 0.92599205 96 94 94
0.49027211 -0.04998055 0.92661894 99 96 96
0.48999370 -0.03013190 0.92723573 85 79 79
0.48979973 -0.01028615 0.92789349 81 69 71
0.48992450 0.00994943 0.92862417 90 58 63
0.49021980 0.03015097 0.92943475 104 42 52
0.48998852 0.05016462 0.93026975 131 43 57
0.48984313 0.06937489 0.93111656 144 49 59
0.49013393 0.08973240 0.93207566 143 49 58
0.48997993 0.11009269 0.93307767 103 42 51
0.48997189 0.12928065 0.93404005 39 26 32
0.49004503 0.14980519 0.93498032 17 15 20
0.49005419 0.17034848 0.93580043 16 15 22
0.49002735 0.18970357 0.93649093 17 16 25
0.48988371 0.20988095 0.93713938 18 17 26
0.48987084 0.23047671 0.93774046 19 18 31
0.49014405 0.25006570 0.93826342 22 22 34
0.49039184 0.26966243 0.93873770 24 24 38
0.48981409 0.29008239 0.93918544 24 23 39
0.49001747 0.31050236 0.93957533 24 23 38
0.49077943 0.32880969 0.93987384 24 22 36
0.48656012 0.33797626 0.94002616 23 22 35
0.48958336 0.34963390 0.94016102 24 23 36
0.48962496 0.37009438 0.94038073 26 25 35
0.48971066 0.39047968 0.94054526 23 22 29
0.48976342 0.41003160 0.94064651 6 6 8
0.48981025 0.42958268 0.94073640 0 0 0
0.48986986 0.44996232 0.94085087 0 0 0
0.48994151 0.47035841 0.94098845 0 0 0
0.49002240 0.48995637 0.94114382 0 0 0
0.49010785 0.50956554 0.94130793 0 0 0
0.49019527 0.52755625 0.94147581 0 0 0
0.51022006 -0.62255693 0.92647631 0 0 0
0.51010341 -0.60943060 0.92592306 0 0 0
0.51278171 -0.58392856 0.91533354 65 67 78
0.50860973 -0.59478810 0.92470995 9 10 12
0.50985584 -0.56987416 0.91285842 66 70 80
0.50963275 -0.54993330 0.91218258 75 79 90
0.50939456 -0.52997813 0.91175657 94 96 105
0.50957795 -0.50996789 0.91144540 95 97 102
0.51057510 -0.49011114 0.91134750 105 105 106
0.50996218 -0.46989008 0.91136318 114 114 111
0.50983185 -0.44989178 0.91167716 115 114 113
0.50967883 -0.42987800 0.91212756 113 113 110
0.50978037 -0.41035367 0.91277742 110 108 107
0.51015121 -0.39032010 0.91357380 100 99 98
0.51004023 -0.37037388 0.91443147 101 98 98
0.50985703 -0.35014868 0.91542050 100 97 96
0.51008278 -0.32976677 0.91651057 104 102 102
0.50991364 -0.30994231 0.91757480 105 104 104
0.51013801 -0.28956447 0.91859057 107 105 105
0.50956555 -0.27017404 0.91945114 104 102 103
0.51800493 -0.26218931 0.92005836 105 107 102
0.50426449 -0.25702169 0.91985790 107 107 107
0.51112323 -0.24903174 0.92039476 101 101 101
0.50984729 -0.22973907 0.92112028 104 101 101
0.51026678 -0.21001097 0.92187816 101 100 99
0.50998005 -0.19013586 0.92259339 101 100 100
0.50985178 -0.16985069 0.92331749 95 94 94
0.50985915 -0.14981056 0.92402718 87 86 87
0.51023438 -0.12994214 0.92470722 92 90 91
0.51010912 -0.10985543 0.92535355 89 88 87
0.51001151 -0.09021278 0.92596181 87 85 86
0.50964399 -0.07014563 0.92653963 93 91 91
0.50996694 -0.05015917 0.92712688 93 91 92
0.51029228 -0.03014771 0.92771841 88 85 86
0.51005437 -0.00993548 0.92832023 82 76 77
0.50998365 0.00981120 0.92896060 83 65 68
0.50976858 0.03004717 0.92968829 94 45 53
0.51019098 0.05017469 0.93045886 120 44 54
0.51000609 0.06967407 0.93124434 134 48 59
0.50992765 0.08952674 0.93209727 134 47 57
0.50998519 0.10998172 0.93302536 83 40 47
0.51007115 0.12965563 0.93395089 31 26 30
0.51004758 0.14967468 0.93483044 16 15 19
0.50979007 0.17012289 0.93562741 16 15 22
0.51016140 0.18966669 0.93630897 18 17 26
0.51000494 0.21024042 0.93696445 18 17 25
0.51002918 0.23043076 0.93755351 18 17 27
0.50992738 0.24982276 0.93808176 22 21 30
0.50977622 0.26961700 0.93857943 24 23 35
0.51002731 0.29003801 0.93904165 23 22 36
0.51024985 0.31046142 0.93945134 24 23 36
0.51043505 0.33006626 0.93979225 25 25 36
0.51368871 0.34231174 0.93996619 28 27 37
0.50903265 0.35128799 0.94010822 29 29 40
0.50991292 0.37007328 0.94032699 31 30 40
0.51001684 0.39046863 0.94051852 27 26 34
0.51008403 0.41002981 0.94064235 10 9 12
0.51013878 0.42958584 0.94074328 0 0 0
0.51014877 0.44991282 0.94086878 0 0 0
0.50947233 0.47037113 0.94101390 0 0 0
0.50955727 0.48997040 0.94117077 0 0 0
0.50964714 0.50958115 0.94133675 0 0 0
0.50973935 0.52757376 0.94150705 0 0 0
0.52942108 -0.62288682 0.92631542 0 0 0
0.53003472 -0.61006770 0.92565797 0 0 0
0.53068054 -0.58644833 0.91612628 49 53 64
0.52952158 -0.59758066 0.92351117 18 19 25
0.53026836 -0.57008554 0.91481690 61 64 76
0.52956640 -0.55001634 0.91425987 68 74 85
0.52970602 -0.52999259 0.91384661 77 79 90
0.52926223 -0.51020389 0.91343592 81 84 95
0.53057309 -0.48972924 0.91326654 89 91 97
0.53074481 -0.46996841 0.91317899 98 99 101
0.53015918 -0.44995162 0.91323706 108 108 106
0.52973346 -0.43012547 0.91346198 110 109 108
0.52956073 -0.40960438 0.91392548 107 106 105
0.53011823 -0.38971840 0.91456067 101 99 97
0.53009082 -0.37022281 0.91528406 97 95 94
0.52990527 -0.35058391 0.91618381 96 95 94
0.52988861 -0.33023064 0.91722871 100 99 99
0.53013094 -0.30978035 0.91830974 101 99 99
0.52980144 -0.28991711 0.91925609 100 100 101
0.53864428 -0.28034598 0.92000061 93 92 92
0.52596251 -0.27455857 0.91979094 102 101 102
0.53210200 -0.26764356 0.92029992 101 99 99
0.53018683 -0.25021031 0.92094842 98 96 96
0.52998594 -0.22999668 0.92173211 97 95 95
0.52972376 -0.21014434 0.92246363 96 94 95
0.53013919 -0.19036331 0.92318708 95 95 94
0.53011214 -0.16954813 0.92391624 95 94 94
0.52995616 -0.15004242 0.92458719 88 87 87
0.52972453 -0.13001845 0.92525008 87 85 85
0.53009622 -0.11010564 0.92589932 87 86 86
0.53032168 -0.09005049 0.92652331 82 80 80
0.52997404 -0.07018696 0.92708508 87 84 85
0.52974417 -0.05036683 0.92762990 88 85 85
0.52980929 -0.03016341 0.92820048 84 81 83
0.53013802 -0.01011553 0.92877648 80 77 78
0.53026660 0.01010475 0.92937528 82 73 74
0.53003945 0.03005747 0.93001209 82 54 61
0.52969731 0.05012640 0.93069691 91 52 57
0.53002973 0.06954417 0.93140798 108 53 61
0.53009386 0.08995315 0.93220268 101 50 57
0.53002113 0.10987755 0.93303117 65 43 48
0.52982555 0.12945287 0.93388634 32 29 33
0.53017477 0.14987849 0.93473644 17 16 21
0.52992542 0.17009745 0.93548772 17 16 22
0.52997735 0.18944635 0.93614705 18 17 25
0.52985224 0.21000329 0.93678776 18 17 25
0.53018193 0.23038582 0.93737071 18 17 26
0.53006243 0.25016469 0.93790479 20 19 28
0.52995091 0.26956437 0.93839618 21 20 30
0.53010296 0.28987873 0.93887190 21 20 31
0.52965608 0.31041519 0.93931135 22 22 32
0.52985903 0.33002378 0.93967121 23 23 33
0.53107416 0.34548226 0.93991724 25 25 34
0.52873472 0.35481262 0.94006331 28 28 38
0.53018887 0.37004540 0.94025600 30 29 39
0.53031230 0.39045053 0.94047482 26 25 34
0.53039597 0.41002146 0.94062312 13 12 16
0.53045872 0.42958178 0.94073437 0 0 0
0.53046862 0.45003429 0.94087132 0 0 0
0.52981022 0.47037743 0.94102646 0 0 0
0.52990152 0.48997969 0.94118861 0 0 0
0.52999752 0.50959325 0.94135909 0 0 0
0.53009523 0.52758810 0.94153264 0 0 0
0.55023660 -0.62317210 0.92613073 0 0 0
0.54959192 -0.61116169 0.92528551 3 3 4
0.55048649 -0.58893420 0.91784706 36 37 47
0.54729365 -0.59870575 0.92050871 33 32 44
0.55040504 -0.56995510 0.91682712 54 56 64
0.54993492 -0.55000593 0.91634790 63 66 78
0.54968206 -0.52999173 0.91586508 71 72 84
0.54944369 -0.50998300 0.91546824 72 72 87
0.54977482 -0.49023636 0.91519186 76 78 91
0.54986337 -0.47005941 0.91501908 86 90 97
0.55018735 -0.44983470 0.91501439 95 96 98
0.54955709 -0.43007011 0.91503592 102 102 101
0.54933605 -0.41021636 0.91529019 103 102 102
0.54962342 -0.38985389 0.91576945 100 99 96
0.55007552 -0.36960416 0.91642942 97 96 94
0.55038861 -0.34977648 0.91724610 94 93 90
0.54959258 -0.33056294 0.91809535 93 92 92
0.55003867 -0.31025614 0.91910963 96 96 94
0.54640236 -0.29336219 0.91975012 94 96 97
0.55315226 -0.28680763 0.92032679 93 93 94
0.54987396 -0.26987272 0.92088507 96 95 96
0.54980095 -0.25006690 0.92166232 93 92 91
0.55029963 -0.22995474 0.92242954 90 89 89
0.55020215 -0.20991316 0.92313546 91 91 92
0.54945775 -0.19010570 0.92379591 91 91 91
0.55007260 -0.16986246 0.92450747 90 89 89
0.55026025 -0.14985061 0.92517946 89 88 88
0.55004448 -0.13009645 0.92580482 82 80 81
0.54960781 -0.11016730 0.92641771 81 80 82
0.54997580 -0.09021204 0.92703800 80 77 77
0.55032255 -0.07022767 0.92762250 79 77 77
0.55007382 -0.05004028 0.92816187 83 81 81
0.54990233 -0.03034850 0.92869417 82 80 81
0.54967606 -0.01012064 0.92924011 83 80 81
0.55000709 0.00996170 0.92979980 82 78 78
0.55035918 0.03006973 0.93039515 83 75 77
0.54998464 0.05026162 0.93101689 79 71 71
0.54983688 0.06937230 0.93164103 81 69 69
0.54990513 0.08975855 0.93235242 79 65 66
0.55021251 0.11010280 0.93311738 65 57 61
0.55000541 0.12945344 0.93389130 40 38 41
0.54979264 0.14964379 0.93467614 18 17 22
0.55008018 0.17007982 0.93539117 16 15 20
0.55010354 0.18980039 0.93603120 17 16 24
0.55000396 0.20996975 0.93663824 18 17 25
0.54988268 0.23015592 0.93720938 17 16 25
0.54983715 0.24992468 0.93773423 18 17 26
0.55012452 0.26951501 0.93822435 20 19 28
0.55027514 0.29004830 0.93870897 19 18 27
0.54985817 0.31036334 0.93915437 18 18 27
0.55007969 0.32997516 0.93953268 20 19 28
0.55050071 0.34862622 0.93984950 24 23 32
0.54411888 0.35758071 0.94002459 24 24 35
0.55765891 0.36019209 0.93999010 24 23 32
0.54953829 0.37014047 0.94017572 25 24 33
0.54978624 0.39042753 0.94041931 23 22 31
0.54988677 0.41000757 0.94059118 14 13 18
0.54995866 0.42957254 0.94071412 0 0 0
0.55004393 0.44996672 0.94085994 0 0 0
0.55014241 0.47037839 0.94102836 0 0 0
0.55024105 0.48998411 0.94119707 0 0 0
0.55034431 0.50960115 0.94137367 0 0 0
0.55044749 0.52759793 0.94155017 0 0 0
0.57005600 -0.62296465 0.92582240 0 0 0
0.57015809 -0.61056496 0.92387312 15 16 19
0.56798017 -0.58900132 0.91932076 32 32 41
0.57636491 -0.59401977 0.92029066 35 35 42
0.57036981 -0.57003011 0.91882490 39 39 50
0.57042208 -0.55007496 0.91836751 55 55 70
0.56971871 -0.52996526 0.91784802 63 62 78
0.56987697 -0.50997392 0.91749627 62 65 82
0.56927240 -0.48998007 0.91711848 69 72 86
0.56953243 -0.46997406 0.91693511 83 84 94
0.56912015 -0.45018584 0.91679175 88 90 96
0.56935809 -0.42978598 0.91677892 91 91 94
0.56950185 -0.40987484 0.91691700 96 95 94
0.56933708 -0.39021136 0.91719681 98 96 96
0.56983693 -0.37006896 0.91773349 96 96 95
0.57027250 -0.34971501 0.91843535 93 92 92
0.57003863 -0.32998024 0.91921980 91 89 89
0.57842727 -0.32170606 0.92004727 87 87 88
0.56541676 -0.31365623 0.91969108 90 89 88
0.57284496 -0.30747312 0.92034292 89 88 88
0.57024861 -0.29018798 0.92096140 91 91 91
0.57012328 -0.26958631 0.92176641 89 88 89
0.56958322 -0.25000403 0.92246205 88 86 87
0.57001324 -0.23024766 0.92315866 89 88 88
0.57037546 -0.20960126 0.92385251 87 87 87
0.57002592 -0.18982986 0.92447308 90 88 88
0.56961059 -0.16997077 0.92509654 88 87 88
0.57000265 -0.15008730 0.92573339 87 85 87
0.57037998 -0.13017260 0.92634631 81 79 80
0.56994479 -0.11022946 0.92694033 79 76 78
0.56970578 -0.09041176 0.92753582 76 74 75
0.56986684 -0.07026520 0.92811834 76 74 75
0.57020355 -0.05024255 0.92866672 80 77 78
0.57025383 -0.03002261 0.92920815 78 76 77
0.56999485 -0.01018340 0.92972876 79 76 76
0.56956732 0.00996646 0.93024929 81 79 79
0.56990723 0.03008288 0.93080456 81 77 78
0.57025980 0.05022404 0.93138056 78 74 75
0.57012366 0.06977113 0.93195115 77 73 73
0.56994275 0.08960274 0.93256236 77 72 72
0.56978725 0.11000708 0.93324386 67 64 65
0.57021718 0.12946122 0.93394823 46 45 47
0.56996854 0.14986220 0.93467411 23 22 26
0.56999915 0.16989909 0.93533355 17 16 21
0.56981407 0.18959142 0.93593798 16 15 22
0.57017082 0.20994411 0.93652402 17 16 24
0.57002733 0.23050455 0.93709015 18 17 25
0.57001344 0.24988798 0.93759657 18 17 26
0.56991774 0.26927878 0.93807931 18 17 26
0.56978944 0.28989000 0.93856226 19 18 27
0.57005857 0.31031417 0.93900559 18 18 27
0.57029192 0.32992506 0.93938996 18 17 26
0.57015421 0.34973240 0.93974676 20 19 28
0.57214457 0.36253901 0.93994779 20 19 28
0.56910290 0.37259097 0.94011845 22 21 29
0.57006058 0.39039772 0.94034738 20 19 27
0.57018122 0.40998805 0.94054629 14 13 19
0.56980697 0.42936827 0.94068491 0 0 0
0.56954806 0.44995864 0.94084299 0 0 0
0.56965663 0.47037538 0.94102231 0 0 0
0.56976318 0.48998476 0.94119830 0 0 0
0.56987324 0.50960463 0.94138009 0 0 0
0.56998103 0.52760239 0.94155814 0 0 0
0.58993499 -0.62283422 0.92562852 0 0 0
0.58993306 -0.61020223 0.92307061 35 37 40
0.58968357 -0.59012691 0.92121120 37 38 44
0.58242098 -0.56582776 0.91985422 36 35 47
0.59108890 -0.57031918 0.92074935 32 32 41
0.58423994 -0.54874944 0.91963868 47 47 59
0.59424792 -0.55078253 0.92059565 40 40 51
0.58642972 -0.52925089 0.91942125 55 56 72
0.59617459 -0.53115972 0.92035808 54 54 69
0.58794468 -0.50958306 0.91921906 58 60 73
0.59801617 -0.51184823 0.92019157 57 56 70
0.58961142 -0.48979752 0.91907894 61 64 76
0.59910260 -0.49663315 0.92005091 58 58 74
0.58941464 -0.47005719 0.91884575 71 73 85
0.58960108 -0.44998274 0.91870822 85 86 95
0.58937329 -0.43002448 0.91858959 88 88 95
0.58936744 -0.41004798 0.91859303 86 85 88
0.58971968 -0.38980456 0.91879397 91 90 89
0.58953921 -0.37018070 0.91913563 93 93 92
0.59908503 -0.36145262 0.92002392 90 91 91
0.58751325 -0.35125693 0.91951212 93 93 93
0.59663503 -0.34760462 0.92022356 93 92 93
0.58364343 -0.33533483 0.91980928 91 90 90
0.59161229 -0.32863295 0.92054578 90 90 90
0.58973984 -0.31004010 0.92112712 90 88 88
0.58980576 -0.29029408 0.92189272 87 83 85
0.59043625 -0.26999134 0.92265852 87 85 86
0.59002111 -0.25020176 0.92330448 85 84 84
0.58953741 -0.23031110 0.92391169 85 83 84
0.59005039 -0.20982139 0.92455314 85 85 86
0.59042767 -0.18996780 0.92514445 86 85 86
0.58999397 -0.17008511 0.92571831 86 86 86
0.58962756 -0.15023789 0.92628721 85 83 84
0.58992636 -0.13024617 0.92686952 81 79 79
0.59030364 -0.11029158 0.92746234 78 75 77
0.59004941 -0.09016562 0.92804968 75 73 73
0.58977503 -0.07049050 0.92860356 77 74 75
0.58977239 -0.05026874 0.92915095 80 79 78
0.59011450 -0.03021187 0.92968995 79 77 78
0.59038420 -0.01006992 0.93021973 79 76 76
0.58996385 0.00997145 0.93071965 79 77 77
0.58967435 0.02994441 0.93122141 76 74 75
0.58980778 0.05024355 0.93174416 77 75 75
0.59013099 0.06960705 0.93225491 74 73 73
0.59022314 0.08998414 0.93281462 75 73 73
0.59005588 0.11002664 0.93341086 68 67 68
0.58971916 0.12941273 0.93404094 51 48 50
0.59006447 0.14976029 0.93470269 29 27 31
0.59017738 0.17024364 0.93533164 22 21 25
0.59000337 0.18958111 0.93588734 19 18 24
0.58987004 0.20972451 0.93644146 18 17 24
0.58988724 0.23029163 0.93698772 18 17 25
0.59020078 0.24985844 0.93748580 18 17 25
0.59008377 0.26963636 0.93796961 18 17 26
0.58998874 0.28985140 0.93843730 20 19 28
0.58994235 0.31008340 0.93887637 20 19 28
0.58969465 0.32987962 0.93926062 20 19 28
0.58992015 0.34949441 0.93961978 19 18 27
0.59081630 0.36568237 0.93989387 20 19 28
0.58916173 0.37603937 0.94006955 21 20 28
0.59032464 0.39036313 0.94026396 20 19 27
0.59046608 0.40996320 0.94048918 17 15 22
0.59007735 0.42973187 0.94065031 0 0 0
0.58986078 0.44994767 0.94082001 0 0 0
0.58998023 0.47036950 0.94101050 0 0 0
0.59009528 0.48998253 0.94119398 0 0 0
0.59002023 0.50946079 0.94137960 0 0 0
0.58951125 0.52760360 0.94156029 0 0 0
0.61019057 -0.62228285 0.92480874 16 16 18
0.61006559 -0.60950182 0.92342060 50 50 56
0.60957501 -0.58986968 0.92275120 44 44 50
0.60973976 -0.57020174 0.92234699 34 33 42
0.61007174 -0.54968895 0.92195253 35 34 44
0.61057661 -0.52998204 0.92159886 55 55 66
0.61017789 -0.50994709 0.92123247 57 58 69
0.60065436 -0.48069994 0.91999197 58 61 71
0.61003662 -0.49008738 0.92094827 57 57 71
0.60099985 -0.46833593 0.91991227 64 67 78
0.61098289 -0.47020334 0.92083062 60 61 73
0.60170561 -0.44902362 0.91981623 81 81 91
0.61179835 -0.45029884 0.92073698 72 72 85
0.60207710 -0.42969628 0.91973599 89 89 96
0.61221404 -0.43011591 0.92063417 87 88 98
0.60282860 -0.40964393 0.91974706 79 84 89
0.61303940 -0.41010857 0.92064309 81 86 94
0.60218913 -0.39087025 0.91978259 86 84 85
0.61207897 -0.38985744 0.92061843 81 81 84
0.60103122 -0.37441468 0.91990500 89 89 86
0.61064484 -0.36943217 0.92073373 86 86 88
0.61000155 -0.35006106 0.92106093 89 89 90
0.61048328 -0.33022102 0.92162408 90 90 90
0.60978333 -0.30981321 0.92222210 89 88 88
0.60971538 -0.28999345 0.92287352 83 81 82
0.61014904 -0.27024650 0.92353013 83 82 82
0.61037738 -0.24951829 0.92417242 85 84 84
0.60974481 -0.23002735 0.92470870 84 83 83
0.60969291 -0.20998210 0.92526083 81 80 81
0.61004626 -0.19010193 0.92579721 82 81 82
0.61040890 -0.17020083 0.92634767 81 79 82
0.61001634 -0.15021541 0.92687333 82 81 82
0.60969641 -0.13047216 0.92740089 80 79 80
0.60987156 -0.11035157 0.92796659 75 74 75
0.61025121 -0.09035868 0.92854429 74 73 73
0.61013613 -0.07015390 0.92910547 74 71 71
0.60986685 -0.05049062 0.92962910 76 73 73
0.60970348 -0.03022706 0.93015719 76 75 74
0.61004616 -0.01013639 0.93068000 77 76 76
0.61037556 0.00997638 0.93118257 77 75 75
0.61005895 0.03025587 0.93166148 74 73 73
0.60986496 0.05007702 0.93212099 76 74 74
0.60967362 0.06963054 0.93257106 74 73 73
0.60999608 0.08982670 0.93306444 69 68 68
0.61035050 0.11004962 0.93360673 66 65 66
0.60997742 0.12954978 0.93417548 50 49 51
0.60981996 0.14956998 0.93476808 32 31 35
0.60987870 0.17007366 0.93535838 26 25 29
0.61022111 0.18958031 0.93588362 23 22 28
0.61005328 0.21011659 0.93641349 20 19 25
0.61008721 0.23027502 0.93692029 18 17 24
0.60973318 0.24972439 0.93739923 17 16 24
0.60989382 0.26941263 0.93786809 18 17 25
0.61019570 0.28981897 0.93833232 19 18 26
0.61012961 0.31042855 0.93877503 21 21 30
0.60991324 0.32983939 0.93914610 21 20 29
0.61014486 0.34945089 0.93950276 22 21 29
0.61019373 0.36883676 0.93984025 24 23 32
0.60496252 0.37872927 0.94002889 25 23 31
0.60976904 0.39032627 0.94017510 24 23 32
0.60993036 0.40993473 0.94042378 20 19 26
0.61004758 0.42952253 0.94060444 2 2 2
0.61017065 0.44993533 0.94079415 0 0 0
0.61030170 0.47036236 0.94099618 0 0 0
0.61042541 0.48997885 0.94118690 0 0 0
0.61033466 0.50975390 0.94137979 0 0 0
0.60985187 0.52760186 0.94155719 0 0 0
0.63012839 -0.62223616 0.92473977 53 58 72
0.62996482 -0.61009057 0.92449935 49 50 59
0.62988291 -0.59009521 0.92417188 48 48 54
0.62935375 -0.56993339 0.92381697 40 39 46
0.62977229 -0.55027876 0.92350358 33 32 41
0.63030832 -0.52979332 0.92319884 60 62 70
0.63060287 -0.51001129 0.92293304 63 67 74
0.63020124 -0.48994200 0.92265665 57 57 72
0.63024295 -0.46996916 0.92247745 52 55 69
0.62999809 -0.44995739 0.92229040 62 64 78
0.62995553 -0.43002495 0.92214521 76 80 93
0.62990710 -0.41007016 0.92207433 82 84 98
0.63008256 -0.38995479 0.92211691 79 79 89
0.62986385 -0.37009616 0.92221725 79 78 82
0.63030947 -0.34979793 0.92251240 82 81 82
0.63036042 -0.33002252 0.92289874 86 86 88
0.63005172 -0.31008823 0.92336682 86 86 86
0.62974679 -0.28983726 0.92390794 84 82 82
0.62974553 -0.27006640 0.92445329 80 79 80
0.63031801 -0.24989758 0.92501831 80 79 80
0.63025054 -0.22984775 0.92552974 81 79 79
0.62963939 -0.21032775 0.92598979 80 78 79
0.62970571 -0.19024022 0.92647020 80 78 79
0.63004503 -0.17031519 0.92696956 81 79 81
0.63058392 -0.15002175 0.92748544 79 78 80
0.62990158 -0.12995238 0.92796776 79 78 79
0.62981484 -0.10995113 0.92849283 75 74 75
0.62969896 -0.08981718 0.92904020 75 72 73
0.63021304 -0.07037598 0.92958107 70 69 69
0.63025627 -0.05012170 0.93012354 66 66 66
0.62986247 -0.03041166 0.93062486 71 70 70
0.62964978 -0.01014126 0.93112422 74 73 73
0.62997749 0.00998091 0.93160889 74 73 73
0.63028909 0.03012353 0.93206976 74 73 73
0.63023392 0.05047387 0.93250813 73 72 72
0.63004936 0.06965559 0.93290753 72 70 70
0.62960188 0.08979152 0.93334064 71 68 69
0.62986554 0.11007592 0.93383067 66 65 64
0.63021298 0.12951603 0.93434591 53 52 54
0.63007391 0.14998869 0.93489951 35 35 38
0.63001442 0.16998291 0.93543707 27 26 31
0.62966475 0.18959000 0.93593176 25 25 29
0.62999334 0.20992065 0.93642025 24 23 27
