ply
format ascii 1.0
element vertex 802
property float x
property float y
property float z
property uchar red
property uchar green
property uchar blue
end_header
-0.90273187 -0.23077983 1.79396869 93 111 133
-0.88331282 -0.22681208 1.74265254 91 112 132
-0.89530281 -0.22695191 1.77062484 91 105 128
-0.88874006 -0.22502789 1.79057426 92 99 116
-0.89158733 -0.21255411 1.77321168 86 81 93
-0.89174820 -0.21441478 1.78486729 101 91 102
-0.87446729 -0.23260849 1.72756031 99 106 133
-0.87413400 -0.22284310 1.79812157 152 124 116
-0.87046265 -0.22825544 1.80772449 150 122 107
-0.87800485 -0.23845918 1.83214009 153 121 99
-0.87605046 -0.21496901 1.78993240 121 109 110
-0.44189180 -0.04812996 0.59787499 59 57 68
-0.44659287 -0.04408790 0.60188305 59 57 68
-0.44358833 -0.02413739 0.59926966 108 119 140
-0.44536776 -0.03347960 0.60221528 67 69 82
-0.42728031 -0.10018919 0.57791293 85 99 121
-0.43041959 -0.10038855 0.58489418 83 94 120
-0.42728542 -0.09373099 0.57942724 86 94 116
-0.42645680 -0.08819414 0.58272992 89 96 118
-0.42824119 -0.07597582 0.57989037 89 95 122
-0.42793853 -0.07028720 0.58307152 70 72 88
-0.43507408 -0.05225921 0.59303632 62 61 70
-0.43874349 -0.04078776 0.60043561 70 63 74
-0.43719341 -0.03025399 0.59623355 105 101 113
-0.43787670 -0.03711274 0.60075501 74 69 75
-0.41701130 -0.09259920 0.57872135 112 109 111
-0.41800251 -0.08861197 0.58164547 129 116 110
-0.38182873 0.34448878 1.48335667 89 89 87
-0.36040124 0.31652385 1.44539833 137 134 126
-0.36146322 0.32233725 1.45471019 103 100 96
-0.36966248 0.32941124 1.47275478 107 105 104
-0.36876305 0.33682692 1.48065295 101 101 99
-0.36687134 0.34664855 1.47162452 111 109 105
-0.36799454 0.35008697 1.48173356 106 104 103
-0.36388028 0.36246257 1.45263573 109 109 106
-0.36871736 0.36221216 1.46858807 107 107 105
-0.35600570 0.31608975 1.43773621 125 121 115
-0.34865578 0.31762044 1.44850449 118 116 113
-0.34775288 0.31844230 1.46572751 108 109 108
-0.34502824 0.33230199 1.45432082 129 125 120
-0.35056606 0.33059410 1.46943637 131 125 121
-0.35754500 0.33819637 1.48011315 140 138 131
-0.34575279 0.35824002 1.43439996 117 115 115
-0.34943236 0.35361413 1.45050864 98 96 96
-0.35213742 0.34816275 1.46756728 112 108 106
-0.34781611 0.36253406 1.43470621 123 114 115
-0.35371450 0.36168318 1.44617707 99 98 97
-0.35851483 0.36215581 1.46836849 77 76 79
-0.33554412 0.31788715 1.44591969 104 104 106
-0.32901913 0.33632480 1.43926084 115 113 108
-0.33411626 0.33126508 1.44850196 124 120 117
-0.33903313 0.32498503 1.46097374 122 122 120
-0.33564037 0.35621885 1.41131234 131 128 126
-0.33929622 0.35767922 1.43015158 128 128 125
-0.33542786 0.34404472 1.45082638 100 99 99
-0.28004706 -0.03036380 0.45865482 143 116 90
-0.26722714 -0.04767660 0.45105168 145 116 97
-0.27580536 -0.03512650 0.45350672 144 117 88
-0.26225431 0.14360131 1.67174566 120 116 119
-0.25903718 -0.04438693 0.45051647 137 113 100
-0.24145477 0.05645118 1.28527951 132 130 131
-0.24246174 0.08476739 1.28389066 165 161 155
-0.24014181 0.11603595 1.62954772 140 139 139
-0.24837120 0.11868156 1.64671596 129 129 131
-0.24261698 0.13198339 1.61788034 131 133 132
-0.24557038 0.12861353 1.63191315 132 129 130
-0.25068874 0.12838742 1.64594599 131 128 130
-0.24354379 0.14031383 1.63347435 128 122 124
-0.24877548 0.14310521 1.64939630 122 117 118
-0.25622316 0.14511207 1.66696286 141 137 137
-0.22961143 0.05640632 1.27823826 143 139 140
-0.23526730 0.05386485 1.28497449 145 141 142
-0.22976722 0.07162390 1.27297249 134 131 132
-0.23802269 0.06146451 1.28388608 152 151 151
-0.23141544 0.08344432 1.27385529 154 147 143
-0.23757274 0.08681964 1.28145909 144 140 137
-0.23003329 0.11939970 1.61788034 163 154 150
-0.22973984 0.11800568 1.63027536 151 146 145
-0.22710719 0.13444053 1.59730027 129 123 124
-0.22937910 0.13038019 1.61285199 129 124 126
-0.22832079 0.12165531 1.62565491 142 136 134
-0.22907940 0.14118278 1.61117104 122 117 118
-0.23956594 0.14245066 1.62563992 125 120 121
-0.21577464 0.07325296 1.25768435 139 134 132
-0.21842799 0.06768158 1.26184799 143 137 135
-0.21830733 0.08162742 1.26394439 162 158 156
-0.20906048 0.11800152 1.61788034 112 112 113
-0.21355772 0.11936168 1.62369537 135 131 131
-0.21331308 0.12960266 1.61353827 139 135 135
-0.20063526 0.21314457 1.04331231 120 115 114
-0.18069743 0.11898211 0.75071079 108 102 103
-0.18190721 0.12578827 0.75303151 116 116 110
-0.18911205 0.15123106 0.45543758 105 104 99
-0.18553140 0.16316430 0.45573997 101 101 95
-0.18017837 0.18957391 0.99984050 127 123 124
-0.18478852 0.19464689 1.00938199 123 118 119
-0.19181798 0.19847676 1.02194957 122 115 115
-0.18348238 0.20399100 1.01135573 121 116 115
-0.19294135 0.20987135 1.03037238 119 115 113
-0.17628410 0.11838613 0.74928954 122 116 115
-0.16577243 0.12619233 0.73712323 132 128 127
-0.17435453 0.12524160 0.74694821 117 115 113
-0.17979991 0.16367306 0.45374286 98 97 99
-0.17029514 0.19284448 0.99600332 123 118 119
-0.16718346 0.19013683 1.00848418 121 117 117
-0.16572299 0.18839098 1.02153833 120 117 117
-0.17282949 0.20278430 0.99422180 130 123 120
-0.17897819 0.20140094 1.00279856 124 117 117
-0.16163053 0.26656135 0.56244925 0 0 0
-0.15262146 0.19098576 0.99918652 150 145 139
-0.15663190 0.19178050 1.00655313 140 135 131
-0.15892435 0.18797211 1.02246130 136 136 134
-0.14174214 0.24403646 0.51492012 0 0 0
-0.14750015 0.25052684 0.52882087 0 0 0
-0.15378145 0.25743095 0.54385058 0 0 0
-0.15769281 0.26248157 0.55317375 0 0 0
-0.12058791 0.21924707 0.46430969 0 0 0
-0.12380529 0.22366961 0.47195552 0 0 0
-0.13117744 0.23233095 0.48974650 0 0 0
-0.13711352 0.23849967 0.50379378 0 0 0
-0.13921305 0.24163604 0.50892800 0 0 0
-0.10368630 -0.34491846 0.98382944 108 110 120
-0.10311627 -0.32805687 0.97784713 105 110 116
-0.10135980 -0.33237246 0.98334572 106 110 118
-0.10774530 0.17432280 0.83621294 186 180 174
-0.10964375 0.17188211 0.84064053 150 144 143
-0.10615596 0.18499685 0.83149101 200 192 182
-0.10306573 0.18168264 0.84071036 200 192 182
-0.11745919 0.21649803 0.45681470 0 0 0
-0.09688817 -0.34401956 0.98325582 107 111 122
-0.09638108 -0.33096866 0.97776770 105 111 117
-0.09584293 -0.32953744 0.98401144 105 110 118
-0.08982956 0.11486751 0.51438703 129 126 122
-0.09683663 0.11765449 0.52025467 139 136 131
-0.09038252 0.12227710 0.51875135 134 128 122
-0.09051411 0.12536556 0.52106911 144 139 135
-0.09861375 0.18282744 0.83096365 201 193 181
-0.06301244 -0.12735361 0.46574013 102 107 122
-0.07453705 -0.12007982 0.53729876 100 107 120
-0.07342114 -0.11239579 0.53792442 99 104 122
-0.05833827 -0.12897970 0.46559390 103 108 120
-0.02044806 0.26790216 0.64784727 161 151 142
-0.02434776 0.44942950 1.21487812 168 152 139
-0.02341683 0.45626232 1.22496390 155 140 131
-0.02267735 0.46374676 1.22560190 143 132 124
-0.02078780 0.51558018 1.29864335 130 122 116
-0.02082770 0.51881868 1.30113602 137 129 123
-0.02176256 0.52544173 1.31206950 139 131 124
-0.02352820 0.53126460 1.32659853 139 131 124
-0.00506530 0.13794098 0.49186625 190 183 171
-0.00517420 0.14404265 0.48995556 171 161 152
-0.01241260 0.25979578 0.63771576 136 128 123
-0.01209434 0.26508850 0.63579961 127 122 114
-0.01707217 0.26983860 0.64475108 94 88 83
-0.01045438 0.45331071 1.19844588 149 141 135
-0.00513147 0.45451562 1.20601581 147 140 134
-0.00788284 0.46415658 1.21286407 149 142 136
-0.01398742 0.46880853 1.22712932 149 141 134
-0.00850626 0.48821503 1.25149643 154 147 140
-0.01367978 0.49743262 1.26393851 142 133 128
-0.01268312 0.50578486 1.27356127 144 137 130
-0.00930457 0.51486291 1.29225193 153 147 139
-0.00058790 0.51690235 1.30197004 151 141 135
-0.01094703 0.52240483 1.29678580 162 154 145
-0.00693878 0.52425469 1.30295838 156 149 140
0.00468749 0.13845126 0.49582865 176 168 158
0.00583568 0.13829650 0.50102872 176 168 158
0.00422595 0.14228745 0.49235180 168 160 149
0.00903980 0.19044270 0.61814331 150 142 136
0.00609889 0.18807470 0.62206414 154 146 137
0.00977519 0.43875751 1.19347155 151 146 139
0.00795980 0.44805549 1.19784287 158 152 144
0.00300469 0.45170384 1.20470764 155 149 141
0.00503569 0.46379139 1.21125587 166 161 147
0.00447370 0.47259269 1.22502443 168 162 150
0.00808258 0.48900983 1.25076127 162 156 141
0.00526768 0.49679274 1.26788441 161 154 142
0.00801424 0.50574870 1.26927599 157 148 141
0.00352488 0.51396514 1.28898674 153 145 137
0.00239545 0.52364131 1.29452384 157 150 141
0.00166139 0.52219203 1.30113602 153 145 137
0.03760170 0.13947788 0.45834556 133 126 121
0.03561111 0.13985194 0.46052435 131 123 117
0.03670163 0.14449262 0.45795988 147 139 133
0.03153633 0.14836130 0.46415144 168 160 149
0.04340980 0.13629016 0.45550180 134 126 121
0.04248889 0.14389004 0.45670181 157 148 138
0.07874556 0.19670857 0.51120842 136 132 125
0.07825649 0.20061091 0.51311810 143 137 131
0.07467071 0.23525161 0.71514598 148 138 130
0.07500596 0.23682406 0.72039515 160 150 138
0.07797272 0.24626466 0.71632268 150 143 132
0.07270082 0.24773978 0.72273768 167 158 148
0.07422563 0.27546066 0.71886730 136 128 121
0.07419317 0.27892542 0.72464067 141 132 127
0.07472136 0.29078044 0.73561262 140 132 124
0.06994354 0.29624836 0.74435265 155 148 135
0.07494355 0.30199901 0.73817700 119 112 107
0.06870492 0.30713167 0.74991481 118 109 103
0.06277733 0.31652227 0.76082134 48 48 47
0.08711917 0.19753378 0.49662073 161 154 143
0.08428637 0.19686354 0.50595475 152 145 138
0.08869790 0.20210336 0.49840317 145 135 127
0.09075400 0.20747497 0.50506762 84 78 74
0.09375579 0.23091600 0.69640597 166 158 150
0.08556288 0.23255340 0.70678964 137 132 128
0.09518911 0.24456108 0.69790078 148 144 138
0.08589429 0.24526121 0.70722932 136 130 125
0.11260495 0.17740221 0.84586109 143 134 133
0.11278953 0.19024004 0.84941310 169 161 156
0.11951890 0.21949570 0.63592106 138 130 124
0.11731650 0.22359254 0.63516775 126 121 113
0.11820774 0.22890754 0.64072955 112 109 101
0.10092522 0.23858071 0.69399287 125 117 113
0.10063098 0.24358759 0.69527427 130 122 120
0.13512034 0.09786057 0.75255712 121 117 117
0.13454851 0.10361433 0.75434177 122 120 119
0.12134952 0.19135980 0.84854937 170 162 153
0.12340552 0.21717323 0.62987200 121 113 111
0.12261830 0.22266136 0.62899936 127 124 119
0.15348203 0.03593599 0.66228827 152 145 143
0.15352139 0.04279890 0.66543952 138 135 133
0.14252894 0.09719537 0.75281220 114 112 114
0.14584171 0.10297822 0.75615952 118 114 116
0.15022603 0.10480435 0.76082134 117 113 116
0.14860373 0.17876280 0.45622577 165 156 144
0.15159496 0.18402345 0.45858250 154 145 136
0.14690525 0.18447784 0.46209868 149 141 133
0.16083425 0.03820973 0.66590554 150 145 144
0.16279428 0.04123413 0.66827309 158 152 148
0.17921427 0.17957327 0.70983491 157 147 143
0.17875863 0.18439709 0.70931056 141 134 133
0.17604844 0.37953800 1.93131578 165 157 151
0.17292542 0.39576144 1.89708873 177 169 163
0.17369585 0.39074846 1.90832364 175 167 161
0.17540790 0.38633276 1.92828842 176 168 162
0.17308965 0.40597939 1.89885676 177 168 164
0.17357585 0.40218294 1.90419054 168 160 155
0.17173178 0.40560092 1.92037344 167 158 154
0.18704771 0.17867178 0.69553824 134 128 127
0.18239431 0.17851990 0.70336833 145 136 134
0.18672826 0.18376631 0.69185466 165 158 150
0.18147180 0.18378277 0.70402848 162 157 151
0.19906739 0.37100160 1.89620471 150 135 133
0.19144299 0.37504969 1.90849078 161 149 145
0.18672154 0.37755963 1.94983629 174 164 158
0.19041731 0.38756709 1.89708873 169 158 153
0.19260383 0.38567351 1.90708580 162 151 147
0.18393635 0.39357658 1.92651878 175 166 161
0.18610363 0.38640882 1.94573889 178 169 162
0.18361183 0.40119117 1.92310125 184 174 168
0.21532206 0.17594682 0.51963952 150 143 129
0.21758828 0.16808822 0.52832809 161 154 145
0.21448651 0.16356672 0.54015285 152 147 144
0.21805230 0.18458143 0.51858410 146 136 129
0.21737586 0.18047129 0.52025467 145 135 121
0.21631095 0.27988663 1.15091991 166 158 153
0.21569294 0.28303465 1.15114183 158 150 147
0.21207822 0.36918840 1.89532069 140 128 127
0.21007575 0.37226255 1.90884333 147 134 132
0.20771997 0.36625041 1.92583942 153 143 141
0.21203287 0.36821154 1.94909425 151 142 141
0.20075203 0.38736662 1.91225159 147 138 137
0.20890508 0.39101924 1.93029875 156 145 142
0.21765662 0.39402629 1.94517428 161 149 140
0.21034000 0.40364036 1.92950769 162 152 146
0.20839167 0.40297560 1.94238353 166 158 153
0.22057367 0.17896981 0.51721415 151 141 135
0.22133659 0.16911543 0.52431294 152 148 140
0.22313394 0.18678347 0.51900553 144 137 130
0.23122001 0.19491522 0.52542764 154 146 138
0.23191344 0.20001246 0.52672249 143 139 127
0.22451293 0.27862714 1.15513337 158 149 143
0.23350646 0.28997900 1.10910440 138 131 131
0.23352864 0.28990522 1.12947737 141 132 130
0.22681998 0.28953990 1.15140870 153 146 140
0.22007102 0.38397005 1.93683386 139 133 126
0.22296344 0.39419099 1.94957820 162 150 139
0.22070161 0.40185651 1.94238353 175 165 157
0.25831410 -0.06321381 0.71289599 59 56 56
0.25833718 -0.05963601 0.71432307 59 56 55
0.25868294 0.13083176 0.45092628 179 174 157
0.27030433 -0.20269111 0.48653697 103 104 105
0.26920495 -0.19890480 0.48672675 103 104 104
0.26369708 -0.06546602 0.71537519 59 57 56
0.26919922 -0.07134590 0.72193117 59 56 55
0.26426925 -0.05637109 0.71675797 59 55 55
0.26894796 0.13466438 0.45529007 153 143 134
0.27305664 0.14058448 0.45883233 136 125 115
0.29697454 0.35902545 1.89355266 182 172 165
0.29572341 0.37105790 1.89844875 158 148 144
0.28967152 0.37307925 1.90776987 145 138 138
0.29055470 0.37558742 1.92474415 140 134 135
0.29616539 0.38300526 1.89885676 130 118 122
0.29095291 0.38552433 1.91135592 127 117 122
0.29419124 0.39194357 1.92428367 129 121 123
0.30775527 0.15022907 0.75274005 170 161 153
0.31747107 0.15088602 0.76283379 151 144 136
0.30424356 0.35928750 1.87781680 176 166 155
0.31034866 0.36896215 1.83710527 127 120 122
0.31119201 0.36518890 1.84209740 141 132 133
0.30894927 0.37054613 1.87264167 148 139 136
0.30301632 0.37130656 1.89046905 165 155 148
0.30193418 0.37420741 1.90419054 165 156 151
0.31311318 0.38095182 1.87262940 114 106 109
0.30704699 0.38485513 1.89180923 135 124 123
0.30525412 0.39088883 1.90848775 140 130 130
0.30413356 0.39733484 1.92857242 130 121 121
0.30623183 0.40374427 1.93133923 158 155 150
0.33799544 0.07595921 0.76167625 124 121 122
0.33017768 0.15482673 0.75406862 161 155 148
0.32524395 0.15227650 0.76325357 140 131 128
0.33377675 0.16208167 0.75732436 146 138 134
0.33378077 0.16819883 0.76601763 158 151 144
0.32902773 0.18684306 0.49304050 145 139 128
0.35609258 -0.20354522 0.52769811 102 103 102
0.35682863 -0.19893985 0.52669182 100 103 102
0.35947104 -0.17528779 0.56336807 96 97 98
0.35944763 0.05978520 0.77384913 166 162 155
0.35066060 0.07039175 0.76997374 147 142 137
0.34278388 0.17017781 0.76948124 148 141 138
0.35376400 0.19920891 0.45784872 150 146 134
0.35833149 0.19651003 0.46196495 137 135 124
0.35181680 0.20176229 0.45564933 143 141 126
0.35816692 0.20056616 0.46042013 167 166 145
0.36176879 -0.20609773 0.52884694 102 103 103
0.36128332 -0.19924844 0.52685903 99 101 102
0.36455973 -0.16938722 0.56417158 95 97 99
0.36288357 -0.15902426 0.56226339 93 97 96
0.36119747 0.05985353 0.77473354 165 156 155
0.36358265 0.07095867 0.77659324 148 142 137
0.36026205 0.19899978 0.45816092 153 151 139
0.36159717 0.19409777 0.46235658 137 132 122
0.43937168 0.14214066 0.45012739 145 136 126
0.42768153 0.19157971 0.45523831 137 130 116
0.42876378 0.19530316 0.46301382 143 139 126
0.43942033 0.21256474 0.45057642 144 139 129
0.44420233 0.13533311 0.45040525 138 135 121
0.45109205 0.15609110 0.77743333 163 155 147
0.44708154 0.15749207 0.78728503 170 166 154
0.44708422 0.15913641 0.80272090 163 159 153
0.44872207 0.16351431 0.77576990 149 139 135
0.44759595 0.16524058 0.79168850 173 167 153
0.44804525 0.16770825 0.80525260 164 158 148
0.44294620 0.21467751 0.45596093 150 145 134
0.44392684 0.22301339 0.45701536 93 90 86
0.44725862 0.22677506 0.46521479 92 90 85
0.45573232 0.23448187 0.48445187 94 90 77
0.45288962 0.23820621 0.65878764 158 154 141
0.45307145 0.23833095 0.66071332 159 155 141
0.45819817 0.24252677 0.48724811 0 0 0
0.45798797 0.25139176 0.66715744 141 138 122
0.45640259 0.26301369 0.66523762 138 131 111
0.46248549 0.23856360 0.47975361 0 0 0
0.46126827 0.23926240 0.48326182 0 0 0
0.46252289 0.24255580 0.48656270 0 0 0
0.46429275 0.25349135 0.66834482 147 139 125
0.46106270 0.26253288 0.66308928 155 148 125
0.46968758 0.43360600 1.73373878 153 150 144
0.47210243 0.43884739 1.74265254 158 158 149
0.47756982 0.44111532 1.75165856 166 163 155
0.48059744 0.44111532 1.75165856 176 171 162
0.49264416 0.45181875 1.77217162 173 166 154
0.49737691 0.45097767 1.78471039 176 170 158
0.49550200 0.46047077 1.75619650 167 158 149
0.51351433 0.23560817 0.57740633 141 133 120
0.51521803 0.23620299 0.58386118 134 125 111
0.51786762 0.24089010 0.59482762 116 110 99
0.51909083 0.24067040 0.60096794 131 122 109
0.50488496 0.43650525 1.79495029 147 139 139
0.50467798 0.43746594 1.80530775 146 136 135
0.50634365 0.45318041 1.77527211 172 164 153
0.51177455 0.45231101 1.79243331 174 167 157
0.51218117 0.44909889 1.80611332 168 160 153
0.50828437 0.46574058 1.75317121 177 169 157
0.50851985 0.46846597 1.76920984 172 163 154
0.51316146 0.46438630 1.79242831 170 162 151
0.51335448 0.46025264 1.80290389 174 165 155
0.51584339 0.48189008 1.77924371 150 138 138
0.51411754 0.48007485 1.78392589 153 141 136
0.52284400 0.23751755 0.59395787 133 125 112
0.53349240 0.23616006 0.60928799 146 143 128
0.52337608 0.24148046 0.59732721 124 115 105
0.52739756 0.24108425 0.60573605 139 129 114
0.52303708 0.45471776 1.79336464 181 172 159
0.52236539 0.45018253 1.81254506 178 173 166
0.52343657 0.45276945 1.82721059 170 166 159
0.53137983 0.45442418 1.85217044 155 152 147
0.53496689 0.45575500 1.86747062 148 144 140
0.52544266 0.46185482 1.79099876 159 147 137
0.57206734 -0.60248481 1.20836592 107 108 107
0.57648182 -0.58795771 1.19301792 106 107 108
0.57027266 -0.58920180 1.20488950 104 108 108
0.57263218 -0.57647885 1.19793951 104 106 107
0.57406183 -0.57565129 1.20364532 105 107 108
0.57036964 0.13091014 0.56854908 149 146 132
0.57334649 0.14179045 0.57286941 145 146 132
0.58404657 -0.58287935 1.19183838 105 107 107
0.58380642 -0.57609388 1.19542852 104 107 108
0.58557927 -0.57449280 1.20910468 104 107 108
0.58335247 0.14793312 0.58662348 118 117 106
0.59638649 0.16782460 0.59380567 151 150 138
0.59737512 0.17061222 0.60142548 137 131 123
0.60016215 0.17376952 0.60310662 108 108 99
0.61781096 0.29857403 0.77918601 148 145 126
0.61887819 0.29706578 0.78053200 133 128 111
0.61948514 0.31127500 0.78683639 129 125 108
0.62189913 0.29818556 0.78392016 135 129 113
0.62347098 0.31099293 0.79149292 128 125 114
0.62461229 0.31703296 0.80144901 123 117 110
0.62452696 0.32237603 0.79514158 134 133 115
0.62758811 0.32165402 0.80319015 119 117 105
0.69940776 0.28026968 0.72813302 142 141 112
0.71623386 -0.48692541 0.88729472 110 113 109
0.71614662 -0.40578444 0.75827212 111 112 110
0.71518731 -0.41024961 0.76099232 112 113 110
0.71706063 -0.38720865 0.75899667 107 112 108
0.71136349 0.27815995 0.73924953 151 145 125
0.71340925 0.27786576 0.74445931 154 147 129
0.70672984 0.28672445 0.73648019 133 132 110
0.71380449 0.29017633 0.74640607 130 128 109
0.71682348 0.30211732 0.75224801 112 108 99
0.72797055 -0.48694288 0.88508898 111 113 109
0.73011587 -0.47845456 0.88298394 111 114 111
0.72197698 -0.40404866 0.75752540 109 111 109
0.72028643 -0.40213513 0.76082134 109 113 111
0.72395699 -0.39194490 0.75977629 108 110 107
0.72428937 -0.39282075 0.76088241 109 110 106
0.72325357 0.28953072 0.75858956 136 133 113
0.72843985 0.29007886 0.77028615 145 141 122
0.73441921 0.29186754 0.78539708 159 153 137
0.73061667 0.30367287 0.76900513 139 133 119
0.74312776 0.29147190 0.79658264 167 161 148
0.74525392 0.29284838 0.80034459 169 163 149
0.77836126 -0.94656956 1.72053766 109 110 110
0.77125384 0.21237871 0.83759489 136 134 125
0.77157984 0.21472220 0.85284411 157 153 140
0.77452883 0.21245214 0.86136332 168 163 146
0.77283370 0.22026129 0.85700613 157 154 145
0.77784309 0.22271239 0.86422300 153 150 142
0.78947393 -0.96118504 1.73079771 107 108 107
0.79182040 -0.95045332 1.72890703 105 108 106
0.79842961 -0.94036639 1.74489820 107 108 106
0.78696245 -0.93847496 1.73375006 107 109 107
0.79564528 -0.93813741 1.74805615 108 108 107
0.78165107 0.21775891 0.85300831 128 124 116
0.78483858 0.22158342 0.85448764 149 142 132
0.78714311 0.22785272 0.86933779 159 153 142
0.79090583 0.23479150 0.88382250 180 174 158
0.79813012 0.27407515 1.08462971 178 171 158
0.80578089 -0.96159405 1.73152733 107 108 106
0.81652510 -0.96750768 1.74489820 105 108 106
0.80478540 -0.95040521 1.73495732 104 109 106
0.81198094 -0.94687752 1.74679203 105 109 107
0.80770667 -0.93591708 1.75106281 107 108 107
0.81684558 -0.93319170 1.76075804 106 107 108
0.81513590 0.23620542 1.07211286 168 163 148
0.81874967 0.23751950 1.08462691 160 153 142
0.81791773 0.24085684 1.07858753 173 169 156
0.81696820 0.24623967 1.09843619 145 138 131
0.81315110 0.25112958 1.10502405 159 153 142
0.81297204 0.25666036 1.12326813 178 170 158
0.80236638 0.27140164 1.07772946 171 164 151
0.80805449 0.27465404 1.09316148 170 163 150
0.81519357 0.27081713 1.11096355 156 151 140
0.81727602 0.26273536 1.12295791 157 155 139
0.80820270 0.28159768 1.11313693 157 149 142
0.81766884 0.28118670 1.12172115 162 155 144
0.81715184 0.41960680 1.19768882 157 153 141
0.81598286 0.42522041 1.19698592 171 167 153
0.81797206 0.42317223 1.20193589 164 162 146
0.83509576 -0.98378837 1.77149701 105 108 108
0.82378188 -0.97554767 1.75392753 106 108 107
0.83282282 -0.96976939 1.76667053 103 108 109
0.82363338 -0.94979620 1.75619650 106 107 108
0.82599453 -0.94774974 1.76141308 106 107 108
0.83073005 0.15614784 1.21759021 126 122 121
0.83159040 0.15581305 1.22319212 130 129 126
0.83424559 0.16657161 1.22971989 130 129 127
0.83681414 0.17779031 1.24383819 120 117 111
0.82889578 0.18806100 1.23365313 114 113 115
0.83658527 0.18944098 1.24269915 115 113 114
0.82043833 0.23922147 1.08811170 161 154 145
0.82099408 0.24159735 1.07772946 169 165 150
0.82634322 0.24461171 1.09328624 168 162 151
0.83040469 0.25299311 1.10517042 159 154 144
0.82899395 0.26804518 1.11390764 167 162 151
0.82780348 0.27113725 1.12682168 155 149 140
0.83251932 0.27576315 1.14413020 156 150 139
0.83838713 0.28036264 1.15287733 154 146 133
0.83393303 0.41702623 1.19544600 126 120 110
0.83719770 0.41554689 1.20534454 140 136 123
0.83312002 0.42197468 1.19769306 124 117 115
0.83367290 0.42680981 1.21166685 148 143 134
0.83512644 0.42909426 1.22780918 153 149 137
0.84182286 -0.98194253 1.77924371 104 110 110
0.84268636 -0.97937196 1.77458596 104 110 110
0.84295305 0.17498128 1.23613091 108 113 110
0.84607857 0.17565282 1.24861245 119 120 115
0.85350540 0.18640666 1.25478245 111 110 109
0.85474013 0.19154721 1.26111206 116 115 114
0.85795899 0.20637229 1.26529230 125 121 121
0.84516455 0.25580183 1.10694597 167 159 151
0.84191626 0.26321688 1.11404431 164 159 152
0.84583754 0.26994085 1.12430485 169 164 153
0.84124851 0.28331897 1.15681207 158 153 136
0.84256357 0.28276794 1.16276819 157 152 133
0.84301544 0.41712792 1.19474415 146 139 125
0.84759937 0.41524977 1.21039653 148 141 126
0.84996457 0.41451542 1.22950533 151 144 129
0.85776317 0.41309306 1.24460038 164 157 141
0.84316930 0.42977795 1.19558920 136 129 118
0.84676811 0.43303649 1.21183804 138 133 124
0.84328781 0.42743882 1.22920056 144 139 126
0.85082667 0.42677812 1.25086155 144 137 125
0.85393665 0.43214018 1.26414728 153 147 134
0.84406322 0.44134295 1.19768882 153 145 128
0.85406744 0.44557020 1.21486384 146 139 125
0.85027820 0.44357221 1.22529098 159 155 141
0.87850481 0.07767744 0.83176996 164 161 151
0.86715752 0.18968161 1.25613451 119 118 116
0.86706528 0.19513777 1.26099971 127 125 123
0.86337914 0.20522179 1.26420118 116 113 112
0.86312329 0.41313994 1.25342727 173 167 149
0.86583648 0.41510426 1.26158921 176 169 152
0.86023122 0.43715557 1.22363150 117 116 112
0.86243284 0.42323563 1.25768435 143 136 121
0.86536142 0.42302224 1.26354599 154 146 129
0.89193755 0.07445181 0.83222788 142 142 133
0.89239194 0.08137898 0.83177665 158 158 144
0.97105728 0.39706449 1.53716969 166 157 142
0.97748051 0.39774498 1.54066324 168 159 144
0.97443103 0.41485948 1.51250753 158 150 142
0.97651650 0.41269528 1.54707634 146 139 125
0.97702676 0.42384458 1.51653659 139 130 129
0.97881746 0.42356148 1.54417276 145 138 133
0.99427501 0.04267552 1.57284053 114 113 109
0.99016166 0.39607218 1.11132646 132 132 124
0.99685718 0.39660715 1.12373960 123 121 113
0.98949337 0.39820617 1.54417276 169 163 145
0.99745154 0.40091574 1.11679053 137 137 128
0.99744864 0.40713318 1.13140521 140 134 126
0.99814306 0.40531440 1.14187352 159 154 142
0.99013912 0.41137971 1.53108423 161 155 141
0.98894333 0.41097660 1.54889260 154 147 132
0.99819332 0.40684339 1.56196272 161 154 139
0.99070895 0.41977873 1.58016741 147 140 127
0.98709863 0.42282461 1.51993692 160 154 144
0.98807090 0.42447336 1.52822857 152 144 139
0.98690910 0.42632621 1.54816319 142 134 130
0.99133090 0.42523668 1.56680604 142 135 125
0.99302369 0.42623469 1.58385944 145 138 127
1.00968474 0.01708742 1.59504843 133 131 124
1.01450132 0.01399453 1.60925110 131 130 124
1.01749390 0.01639964 1.62908512 130 130 124
1.01045269 0.03108609 1.59296470 137 133 127
1.01145102 0.02939448 1.60921561 141 138 131
1.01656963 0.02824084 1.62891210 135 134 130
1.00202918 0.04277462 1.57649267 117 111 112
1.00566779 0.04072361 1.58509876 138 135 131
1.00158954 0.04080901 1.60637879 137 136 127
1.00462604 0.39519361 1.13359845 119 115 106
1.00471461 0.40871431 1.11699728 148 146 137
1.00690751 0.41248148 1.13041264 137 134 125
1.01159032 0.40986822 1.15053009 140 136 125
1.00133336 0.41803575 1.53369200 165 158 147
1.01095626 0.41413889 1.54639032 159 154 139
1.01082162 0.40813140 1.57041895 160 154 137
1.01119286 0.40885398 1.58016741 166 159 142
1.01191367 0.42517852 1.13400421 135 130 123
1.01507460 0.42948258 1.14315980 134 129 122
1.00133336 0.42201206 1.53369200 166 158 149
1.01280444 0.42304157 1.54367369 166 161 149
1.00202918 0.44060123 1.57649267 118 109 108
1.02030754 -0.00223727 1.61402822 131 129 128
1.02575492 -0.00338693 1.63113346 125 124 122
1.02939173 -0.00606580 1.64337981 130 129 125
1.02235394 0.00473543 1.61348578 122 122 121
1.02560207 0.00620217 1.63282937 129 128 126
1.02443535 0.00817178 1.64490557 130 128 126
1.02094388 0.02603178 1.63741994 126 126 122
1.02175494 0.02471514 1.64404380 138 136 133
1.02094233 0.41799581 1.15878952 141 138 123
1.02664409 0.41210166 1.16480567 130 127 117
1.02321617 0.43707446 1.14811248 147 147 135
1.02519059 0.42034203 1.56196272 164 160 145
1.02669436 0.44176896 1.15288061 148 148 137
1.05036036 0.41465634 1.19140589 135 132 122
1.05684733 0.70606458 1.61019444 120 121 112
1.07909656 0.25621973 0.95209527 153 149 139
1.07016087 0.42323148 1.21704102 142 139 128
1.06468832 0.69824934 1.61788034 140 137 127
1.06979477 0.69878846 1.62563992 131 128 118
1.06189191 0.70663846 1.61788034 130 131 122
1.06954980 0.71736747 1.62954772 112 108 101
1.07731891 0.70839339 1.64138460 138 137 125
1.07971060 0.72039300 1.64937186 130 131 122
1.08213842 0.25116491 0.95477912 154 149 138
1.09474903 0.25615224 0.96738079 149 146 136
1.09205935 0.26744846 0.95792768 157 148 137
1.09631106 0.26828018 0.96631067 159 152 140
1.09691575 0.43358172 1.53058238 156 149 135
1.09621902 0.44523964 1.51504546 134 129 119
1.09838352 0.44278982 1.52764896 156 149 134
1.09091723 0.66785264 1.65339470 140 134 116
1.09473634 0.67051148 1.66354078 144 137 119
1.08451594 0.71050495 1.65289679 126 125 115
1.09314133 0.70935294 1.66696963 114 113 105
1.08234394 0.72500777 1.65339470 122 123 114
1.09214032 0.72628108 1.67277634 130 131 121
1.09823656 0.72887880 1.68211377 120 119 110
1.10849988 0.25891954 0.98103017 145 141 133
1.10334897 0.26778604 0.95815149 146 137 127
1.10888527 0.27485827 0.97099801 153 149 136
1.11220631 0.27141283 0.98531716 161 155 143
1.10721278 0.28359916 0.97481031 158 157 142
1.11573430 0.28926918 0.98902165 162 158 145
1.11823213 0.38103172 1.38912261 171 165 152
1.10871681 0.43396052 1.53460534 162 154 141
1.11191050 0.43069109 1.54183308 173 167 152
1.10793735 0.44833601 1.51550663 134 132 124
1.11327375 0.44469804 1.52913765 141 133 125
1.10149229 0.67899072 1.67380702 135 129 113
1.10405135 0.67799932 1.68211377 141 135 118
1.10788390 0.69040017 1.67691436 126 118 105
1.11045685 0.69935891 1.68631381 119 107 98
1.10483845 0.70483465 1.67450094 122 118 106
1.10902803 0.70652402 1.68830884 120 113 103
1.11483870 0.71216040 1.70754917 121 115 105
1.11638429 0.73399838 1.71444838 110 109 99
1.11751306 0.74660718 1.71618187 129 130 121
1.12088382 0.28150231 0.97119176 156 151 135
1.12133634 0.29369113 0.99543589 165 158 146
1.13592303 0.36837575 1.35578912 137 127 122
1.12401658 0.38219509 1.39556110 169 163 150
1.13214638 0.38266955 1.40691610 168 161 147
1.12321529 0.41179189 1.53559035 169 164 147
1.12894794 0.41200491 1.54854871 168 164 149
1.13182980 0.41494259 1.56196272 163 159 144
1.12501781 0.43050010 1.53300427 170 164 149
1.12415486 0.42804919 1.54620576 178 173 156
1.13749381 0.42533051 1.57041327 181 180 158
1.12108016 0.44318452 1.51993692 160 152 145
1.12625889 0.44257148 1.52971529 156 149 139
1.12189324 0.69301789 1.70841157 136 129 113
1.12332320 0.69199973 1.72053766 142 136 122
1.12833014 0.70353649 1.71099007 124 113 101
1.12854578 0.70961277 1.72723872 128 118 106
1.13621205 0.71235548 1.74490209 133 122 108
1.12465759 0.72980682 1.73134065 116 114 107
1.13204745 0.73041689 1.74845043 122 119 110
1.13740945 0.73556632 1.76075804 125 124 115
1.12595703 0.74867524 1.73375809 117 116 107
1.13222965 0.75152077 1.75066046 118 116 106
1.13740945 0.74469626 1.76075804 121 117 111
1.13173783 0.76264101 1.74265254 125 122 114
1.13740945 0.76295626 1.76075804 121 122 113
1.15184593 0.35942286 1.38912261 172 167 144
1.14604809 0.37305497 1.36989687 138 130 123
1.15253173 0.37539736 1.38803538 148 137 128
1.15612342 0.37407530 1.43752023 170 169 154
1.15607222 0.37734288 1.44232309 167 167 154
1.14967048 0.38192058 1.37503421 156 153 138
1.15566872 0.38615885 1.39113451 160 156 138
1.15603686 0.38644536 1.40815273 169 164 146
1.15109937 0.38374955 1.42995742 171 166 152
1.15731871 0.38191329 1.44232309 172 172 156
1.15897083 0.40029949 1.39771509 149 145 135
1.14375639 0.42375687 1.57466376 171 169 151
1.14814492 0.42549192 1.58448631 167 167 148
1.15043890 0.44516262 1.55125610 163 159 145
1.14116609 0.70389497 1.72053766 130 123 110
1.14356911 0.71241260 1.75619650 135 128 113
1.14648169 0.71764958 1.76535529 137 128 116
1.14637713 0.73150543 1.77305766 130 121 109
1.15696365 0.73175615 1.78863907 139 129 117
1.14330210 0.75142812 1.77304554 124 120 113
1.15322727 0.74952800 1.79196261 130 124 115
1.14559661 0.77151699 1.77343369 123 120 112
1.14924361 0.76899650 1.78796399 129 125 117
1.15629258 0.77046257 1.80691461 137 129 121
1.14627552 0.78019214 1.77924371 122 114 108
1.16138661 0.36285400 1.39771509 168 163 141
1.16892667 0.37020860 1.41193213 166 159 141
1.17465160 0.37316213 1.43412514 169 165 144
1.16914739 0.37594376 1.44694422 164 162 144
1.17798674 0.37480967 1.46571723 158 151 139
1.16285112 0.39047629 1.39541435 148 144 130
1.16617879 0.39287255 1.40982213 161 157 142
1.16846353 0.38858142 1.42749696 172 166 148
1.17144859 0.38259290 1.44488800 173 171 152
1.16942716 0.40198184 1.40641868 144 140 130
1.16956372 0.40162265 1.42294824 168 164 151
1.16461587 0.73955899 1.80771160 142 135 124
1.16150492 0.74638256 1.80530775 134 128 117
1.17085826 0.75497222 1.82228994 136 128 119
1.16145045 0.76762673 1.81497473 133 126 120
1.16874909 0.77419422 1.83050291 145 135 128
1.16558882 0.78297444 1.82884785 148 142 130
1.18275066 0.37381761 1.43346402 167 161 144
1.18527378 0.37556069 1.44571644 168 163 144
1.18882823 0.37549328 1.47232177 165 159 143
1.18179611 0.38263367 1.43722800 169 161 144
1.18687222 0.38286257 1.44747720 167 161 141
1.19046859 0.38345027 1.46730753 172 170 150
1.19915354 0.38040760 1.48011315 172 166 150
1.18358493 0.75999451 1.84209740 131 122 112
1.19008225 0.76999184 1.85470074 138 129 119
1.19829792 0.77422556 1.86876741 140 133 121
1.18368280 0.78550154 1.85723794 149 139 131
1.18589679 0.79323548 1.86662028 157 147 137
1.19700885 0.79758769 1.89355266 160 150 139
1.18371582 0.80053514 1.86234021 157 151 135
1.19201672 0.80567077 1.88565552 167 157 141
1.20437723 0.37909135 1.48497844 176 170 154
1.20171189 0.38040760 1.48011315 174 168 152
1.20999324 0.77578354 1.88827813 134 126 115
1.20901561 0.79322493 1.89356252 150 139 129
1.21367109 0.79825205 1.90687251 156 145 134
1.21042502 0.80102736 1.90955448 160 149 137
1.21734768 0.80505040 1.92310125 160 150 136
1.22032654 0.79442632 1.90955448 146 139 122
1.23250014 0.79734403 1.92860365 141 134 123
1.22412610 0.80418128 1.92766833 156 147 131
1.23528880 0.81074224 1.95079616 158 149 135
1.23871744 0.81405699 1.96490383 158 149 137
1.23040497 0.82713491 1.95171833 169 157 145
1.24349952 0.80799729 1.95640188 151 144 132
1.24981177 0.83563209 1.98795259 168 156 145
1.24890357 0.84531659 1.98650801 177 165 152
1.27356517 0.42276192 1.85723794 147 138 137
1.29800236 -0.17179060 1.31120276 57 53 53
1.29288089 0.39934158 1.88303292 175 168 161
1.29579085 0.40472668 1.87781680 181 175 162
1.29200437 0.40784524 1.89020951 175 169 158
1.29588830 0.41370228 1.90419054 179 173 163
1.29694390 0.41389894 1.92037344 167 162 153
1.28929955 0.42582342 1.87781680 149 140 139
1.29244749 0.42378555 1.88780396 141 132 127
1.31269609 -0.22176878 1.31374563 67 65 65
1.31433592 -0.21387084 1.31615302 54 54 52
1.31599018 -0.20839603 1.32475431 56 56 54
1.31217195 -0.19014732 1.31502287 56 55 52
1.31447703 -0.19198706 1.32599970 59 57 54
1.30039322 -0.17649407 1.31247330 57 56 54
1.30446820 0.41179612 1.89159313 172 166 151
1.30795622 0.41699350 1.90419054 171 167 149
1.31019574 0.42685585 1.87522310 165 164 151
1.31050944 0.42523805 1.89039382 159 155 147
1.31041145 0.42107401 1.90776650 164 160 144
1.31041759 0.42113471 1.92310125 173 166 156
1.32293177 -0.22051622 1.31120276 64 61 61
1.32379905 -0.21320963 1.31431731 54 54 52
1.32788640 -0.20553606 1.33011107 56 56 54
1.32153499 -0.19558863 1.31885576 57 57 54
1.32295427 -0.19613794 1.32689317 58 58 54
1.32306874 0.41934940 1.91494870 167 163 142
1.32629348 0.42693933 1.89356741 168 165 152
1.33322234 0.42408433 1.90649370 164 160 147
1.33250205 0.42204200 1.92219198 167 162 144
1.34705997 -0.20678544 1.33970726 56 56 54
1.34972739 -0.20487477 1.34236014 57 57 54
1.34764665 0.42701937 1.91225159 169 166 153
1.34558064 0.42506415 1.92584461 160 154 142
1.37618244 0.43668026 1.94796503 173 171 157
1.38014829 0.43456212 1.95357883 169 166 152
1.47556043 0.26919776 1.81740439 133 130 130
1.48165989 0.22593875 1.79812157 124 125 116
1.48645353 0.22557765 1.80773094 124 121 117
1.49127316 0.26975388 1.83545021 126 125 122
1.49879265 0.26967141 1.84209740 122 121 115
1.50619006 0.23210514 1.83462939 116 116 110
1.51608797 0.24442479 1.84377050 124 126 124
1.51198697 0.27163078 1.84460706 135 135 128
1.51848185 0.26941594 1.86234021 124 124 117
1.51582587 0.26590011 1.88303292 131 128 120
1.52395189 0.22694670 1.85723794 122 117 113
1.52813852 0.22435127 1.86234021 119 114 113
1.52373739 0.25170832 1.85048127 127 127 122
1.52611677 0.25233767 1.86933803 108 107 105
1.52662671 0.25486097 1.88565552 113 108 109
1.52691913 0.26528859 1.85596934 107 105 101
1.52906198 0.26698774 1.87099965 118 118 112
1.52885902 0.26568408 1.88780662 115 113 107
1.54186320 0.26590011 1.88303292 121 121 116
1.81817657 -0.62142038 1.95077193 96 96 94
1.80909387 -0.61251686 1.93683386 95 95 95
1.81381681 -0.61308707 1.94573243 96 96 96
1.82605749 -0.64104491 1.95922494 94 98 97
1.82764372 -0.62986104 1.95600782 94 97 96
1.83255237 -0.63446295 1.96680784 93 97 96
1.82845187 -0.61389218 1.95499843 94 94 94
1.83177984 -0.60896814 1.96718864 95 96 96
1.84242487 -0.62298435 1.95922494 94 95 97
1.85540736 -0.63114774 1.97061586 96 96 97
1.84830709 -0.61651535 1.97177153 95 95 96
1.85441372 -0.61175005 1.98504627 96 96 97
1.86877505 -0.63262391 1.98602649 93 94 95
1.86081672 -0.61932391 1.97636104 93 94 94
1.86794990 -0.61671643 1.99186204 95 95 96
1.89684755 -0.63247257 1.99087608 96 97 97
1.90696728 -0.63181600 1.99968100 95 96 96
