ply
format ascii 1.0
element vertex 1064
property float x
property float y
property float z
property uchar red
property uchar green
property uchar blue
end_header
0.21345136 0.17660335 0.51945734 143 137 119
0.21451357 0.17673878 0.51985568 145 139 121
0.21541210 0.17673878 0.51985568 145 139 121
0.85895163 0.43239656 1.27184212 151 146 133
0.85633004 0.42997643 1.26472354 146 140 128
0.85373759 0.42758325 1.25768435 142 136 124
0.84804457 0.42365324 1.24612474 137 130 117
0.84708411 0.42210141 1.24156010 135 128 115
0.85549742 0.42521656 1.25072300 133 125 112
0.85137600 0.42210141 1.24156010 135 126 114
0.84731454 0.41903159 1.23253059 142 134 122
0.84636712 0.41751334 1.22806489 145 139 124
0.84542662 0.41600609 1.22363150 148 141 127
0.84146601 0.41302395 1.21485996 150 144 128
0.84356576 0.41302395 1.21485996 154 148 132
0.84114331 0.41081527 1.20836341 158 150 135
0.83874655 0.40863010 1.20193589 160 152 137
0.84082401 0.40863010 1.20193589 161 153 138
-0.18867934 0.15525405 0.45435110 112 112 108
-0.18802005 0.15535818 0.45465583 109 110 103
-0.18748569 0.15556686 0.45526651 108 109 102
-0.18682428 0.15567140 0.45557249 108 105 100
-0.18591192 0.15556686 0.45526651 100 98 94
-0.18512502 0.15556686 0.45526651 97 95 93
0.07094955 0.24721350 0.72347051 173 163 153
0.07212304 0.24694994 0.72269917 173 162 151
0.07337216 0.24694994 0.72269917 170 159 147
0.07470093 0.24721350 0.72347051 168 155 142
0.07587042 0.24694994 0.72269917 163 154 140
0.07711954 0.24694994 0.72269917 160 152 139
0.07820193 0.24642453 0.72116154 153 144 137
0.07919565 0.24564056 0.71886730 145 138 131
0.08018307 0.24486157 0.71658754 140 132 126
0.08116423 0.24408752 0.71432227 133 125 119
0.08231214 0.24383058 0.71357036 127 119 113
0.08354550 0.24383058 0.71357036 122 114 108
0.08451197 0.24306302 0.71132410 122 114 108
0.08583149 0.24331833 0.71207124 124 124 121
0.08687973 0.24280822 0.71057844 132 132 127
0.08810791 0.24280822 0.71057844 135 135 126
0.08887031 0.24154228 0.70687366 145 137 131
0.08953193 0.24004047 0.70247859 148 140 134
0.09055842 0.23954400 0.70102566 149 141 135
0.09177008 0.23954400 0.70102566 149 141 131
0.09278984 0.23904958 0.69957876 142 133 126
0.09409611 0.23929654 0.70030147 139 130 124
0.09520817 0.23904958 0.69957876 137 128 123
0.09611975 0.23831178 0.69741958 136 128 123
0.09712534 0.23782243 0.69598752 137 129 123
0.09842935 0.23806685 0.69670284 134 126 121
0.09953125 0.23782243 0.69598752 132 123 117
0.10032221 0.23684974 0.69314092 134 124 118
0.12073129 0.21750146 0.63651818 142 138 131
0.12171718 0.21729742 0.63592106 140 136 129
0.12235719 0.21648510 0.63354379 130 122 116
0.12287802 0.21547818 0.63059705 138 128 126
0.12556382 0.21448061 0.62767762 133 123 121
0.12583311 0.21309941 0.62363553 139 127 124
0.21181798 0.17763731 0.51985568 143 135 123
0.21255352 0.17750119 0.51945734 145 136 124
0.21345136 0.17750119 0.51945734 145 138 125
0.21451357 0.17763731 0.51985568 146 139 126
0.21541210 0.17763731 0.51985568 146 139 125
0.85514891 0.43378100 1.26946032 158 152 139
0.85574061 0.43297020 1.26708758 157 151 138
0.85473537 0.43135765 1.26236844 149 144 130
0.85215664 0.42896122 1.25535524 144 139 125
0.84339350 0.42347175 1.23929036 139 134 120
0.84245527 0.42192906 1.23477566 136 129 116
0.85078830 0.42502579 1.24383819 133 127 113
0.84672368 0.42192906 1.23477566 131 125 109
0.84424454 0.41963595 1.22806489 141 135 119
0.84483665 0.41887712 1.22584414 140 134 118
0.84390330 0.41736767 1.22142673 145 139 123
0.83996069 0.41438112 1.21268666 148 143 126
0.84055305 0.41364115 1.21052110 151 146 130
0.83815521 0.41143703 1.20407081 157 151 135
0.83874655 0.41070753 1.20193589 163 156 140
0.83933586 0.40998062 1.19980860 165 157 142
0.85044086 0.41438112 1.21268666 168 157 145
0.85559803 0.41586903 1.21704102 157 146 134
0.85616452 0.41512376 1.21485996 152 140 127
-0.19193576 0.15677491 0.45649281 105 105 99
-0.19050533 0.15624881 0.45496097 109 109 103
-0.18946464 0.15603937 0.45435110 112 112 108
-0.18893260 0.15624881 0.45496097 116 116 112
-0.18827260 0.15635374 0.45526651 107 108 99
-0.18786420 0.15666941 0.45618564 109 110 101
-0.18707572 0.15666941 0.45618564 107 106 100
-0.18616197 0.15656404 0.45587885 99 99 94
-0.18549876 0.15666941 0.45618564 93 93 91
0.06866848 0.24926202 0.72579426 168 160 149
0.06977355 0.24872941 0.72424340 167 158 148
0.07087391 0.24819908 0.72269917 167 157 147
0.07204623 0.24793476 0.72192955 167 157 147
0.07329403 0.24793476 0.72192955 166 157 146
0.07462129 0.24819908 0.72269917 164 153 141
0.07578962 0.24793476 0.72192955 162 151 139
0.07703742 0.24793476 0.72192955 160 149 139
0.07811882 0.24740779 0.72039515 151 141 138
0.07911175 0.24662153 0.71810579 146 138 133
0.08018307 0.24610014 0.71658754 142 134 128
0.08124985 0.24558094 0.71507579 139 131 125
0.08239888 0.24532217 0.71432227 132 124 118
0.08363353 0.24532217 0.71432227 127 120 114
0.08460074 0.24454910 0.71207124 126 120 113
0.08583149 0.24454910 0.71207124 125 123 115
0.08687973 0.24403641 0.71057844 129 126 118
0.08820036 0.24429248 0.71132410 132 129 121
0.08905604 0.24327140 0.70835096 134 126 122
0.08971787 0.24175569 0.70393753 131 123 119
0.09065216 0.24100490 0.70175141 131 122 119
0.09186509 0.24100490 0.70175141 134 124 122
0.09288570 0.24050696 0.70030147 131 120 118
0.09409611 0.24050696 0.70030147 130 117 116
0.09511001 0.24001107 0.69885755 126 116 116
0.09611975 0.23951721 0.69741958 128 118 118
0.09712534 0.23902540 0.69598752 128 120 119
0.09853061 0.23951721 0.69741958 128 122 117
0.09963354 0.23927104 0.69670284 121 115 110
0.10052779 0.23853558 0.69456130 124 119 113
0.10162415 0.23829144 0.69385040 129 119 115
0.12061804 0.21839656 0.63592106 140 134 129
0.12160310 0.21819188 0.63532507 136 128 124
0.12212891 0.21717419 0.63236177 122 113 112
0.12276382 0.21636686 0.63001102 123 114 114
0.12544766 0.21536608 0.62709701 123 112 109
0.12571746 0.21398045 0.62306237 137 122 120
0.21181798 0.17853583 0.51985568 148 141 130
0.21255352 0.17839903 0.51945734 150 143 132
0.21541210 0.17853583 0.51985568 147 140 127
0.21631062 0.17853583 0.51985568 145 138 127
0.85156381 0.43193087 1.25768435 152 145 132
0.84589076 0.42796090 1.24612474 148 141 128
0.83879322 0.42329225 1.23253059 145 139 126
0.83636153 0.42099589 1.22584414 140 136 123
0.84613067 0.42483711 1.23702896 134 130 116
0.84518421 0.42329225 1.23253059 127 124 108
0.84271789 0.42099589 1.22584414 130 127 110
0.84331167 0.42023599 1.22363150 132 130 113
0.84238553 0.41872433 1.21922994 135 133 116
0.83846074 0.41573346 1.21052110 141 138 121
0.84205669 0.41647717 1.21268666 145 143 127
0.83964658 0.41425398 1.20621324 149 146 129
0.83874655 0.41278499 1.20193589 148 143 128
0.84082401 0.41278499 1.20193589 149 144 128
0.85044086 0.41647717 1.21268666 151 142 129
0.85559803 0.41797259 1.21704102 151 140 128
0.85463291 0.41647717 1.21268666 149 137 124
0.85519904 0.41573346 1.21052110 149 136 122
-0.19193576 0.15756391 0.45649281 113 109 101
-0.19050533 0.15703517 0.45496097 113 108 100
-0.18946464 0.15682468 0.45435110 114 110 103
-0.18905948 0.15714064 0.45526651 117 113 106
-0.18839912 0.15724625 0.45557249 111 112 103
-0.18799071 0.15756391 0.45649281 109 109 100
-0.18720171 0.15756391 0.45649281 104 104 95
-0.18628724 0.15745789 0.45618564 97 97 91
-0.18549876 0.15745789 0.45618564 92 92 90
0.06673110 0.25268078 0.73206460 170 163 148
0.06755868 0.25105408 0.72735178 166 160 144
0.06852176 0.24998121 0.72424340 166 159 149
0.06969909 0.24971442 0.72347051 166 158 152
0.07072312 0.24891746 0.72116154 166 156 151
0.07196958 0.24891746 0.72116154 166 157 148
0.07321605 0.24891746 0.72116154 164 155 145
0.07446253 0.24891746 0.72116154 161 153 143
0.07562853 0.24865294 0.72039515 157 148 138
0.07695546 0.24891746 0.72116154 153 144 134
0.07803590 0.24838898 0.71963042 149 140 133
0.07902804 0.24760044 0.71734589 148 140 134
0.08009839 0.24707752 0.71583086 140 132 126
0.08116423 0.24655682 0.71432227 140 132 126
0.08239888 0.24655682 0.71432227 134 126 120
0.08354550 0.24629728 0.71357036 130 122 116
0.08460074 0.24577984 0.71207124 130 122 116
0.08574143 0.24552195 0.71132410 130 122 116
0.08687973 0.24526459 0.71057844 132 125 119
0.08820036 0.24552195 0.71132410 134 127 121
0.08914919 0.24475148 0.70909190 131 122 119
0.08981113 0.24322496 0.70466930 131 123 121
0.09074610 0.24246882 0.70247859 130 123 123
0.09186509 0.24221782 0.70175141 129 119 122
0.09288570 0.24171737 0.70030147 130 120 123
0.09409611 0.24171737 0.70030147 131 121 123
0.09511001 0.24121898 0.69885755 111 106 107
0.09611975 0.24072264 0.69741958 116 111 111
0.09722515 0.24047525 0.69670284 120 114 114
0.09853061 0.24072264 0.69741958 127 121 120
0.09963354 0.24047525 0.69670284 123 116 115
0.10052779 0.23973608 0.69456130 122 114 112
0.10162415 0.23949070 0.69385040 119 110 109
0.11875397 0.22011515 0.63771576 136 131 123
0.11951890 0.21949570 0.63592106 138 130 124
0.12050500 0.21928999 0.63532507 134 125 121
0.12137559 0.21887971 0.63413644 130 120 119
0.12190148 0.21786071 0.63118422 117 111 109
0.12264983 0.21725386 0.62942606 104 98 96
0.12350839 0.21685117 0.62825936 100 93 91
0.12544766 0.21644996 0.62709701 113 99 98
0.12583311 0.21525522 0.62363553 119 101 101
0.21631062 0.17943436 0.51985568 148 138 122
0.21737586 0.17957208 0.52025467 146 135 123
0.21794055 0.17929687 0.51945734 146 135 123
0.21939999 0.17902251 0.51866245 148 138 128
0.22012803 0.17888564 0.51826596 152 142 133
0.22051804 0.17847629 0.51707995 153 145 139
0.22073828 0.17793339 0.51550710 155 147 141
0.84879094 0.43491155 1.26002204 160 154 140
0.85096878 0.43491155 1.26002204 158 151 138
0.84841567 0.43249983 1.25303483 153 146 134
0.83971637 0.42697522 1.23702896 148 141 129
0.83575410 0.42388117 1.22806489 144 138 126
0.83485186 0.42235091 1.22363150 140 135 126
0.84305388 0.42542258 1.23253059 135 130 121
0.84365028 0.42465049 1.23029375 133 128 119
0.84271789 0.42311466 1.22584414 130 125 116
0.84027815 0.42083168 1.21922994 129 125 114
0.83936620 0.41932333 1.21485996 130 129 114
0.83846074 0.41782573 1.21052110 133 132 117
0.84055305 0.41782573 1.21052110 138 136 122
0.83964658 0.41633880 1.20621324 145 143 129
0.83874655 0.41486242 1.20193589 141 137 123
0.84082401 0.41486242 1.20193589 138 134 120
0.84892219 0.41782573 1.21052110 137 132 117
0.85406470 0.41932333 1.21485996 139 133 117
0.85158610 0.41708094 1.20836341 146 139 124
0.84913379 0.41486242 1.20193589 154 143 128
0.85424048 0.41633880 1.20621324 152 141 127
-0.19206510 0.15845963 0.45680043 114 106 99
-0.19076137 0.15803367 0.45557249 114 106 100
-0.18931377 0.15813994 0.45587885 114 107 102
-0.18865268 0.15824637 0.45618564 110 109 100
-0.18811738 0.15845963 0.45680043 106 105 96
-0.18732785 0.15845963 0.45680043 100 100 93
-0.18641269 0.15835293 0.45649281 95 95 90
-0.18562368 0.15835293 0.45649281 91 91 87
0.06859504 0.25150171 0.72501802 168 161 149
0.06969909 0.25096488 0.72347051 167 160 151
0.07072312 0.25016394 0.72116154 167 159 151
0.07196958 0.25016394 0.72116154 165 157 149
0.07313824 0.24989808 0.72039515 164 157 148
0.07438339 0.24989808 0.72039515 161 154 143
0.07554825 0.24963279 0.71963042 158 151 140
0.07679208 0.24963279 0.71963042 153 146 135
0.07787057 0.24910392 0.71810579 152 144 133
0.07886114 0.24831478 0.71583086 146 138 129
0.07992958 0.24779145 0.71432227 137 130 121
0.08107880 0.24753062 0.71357036 137 129 122
0.08222559 0.24727035 0.71281999 132 124 117
0.08336998 0.24701060 0.71207124 131 123 117
0.08442338 0.24649276 0.71057844 132 124 118
0.08565155 0.24649276 0.71057844 134 126 120
0.08678876 0.24623466 0.70983440 136 128 122
0.08801565 0.24623466 0.70983440 137 129 123
0.08905604 0.24572006 0.70835096 133 131 125
0.08971787 0.24418910 0.70393753 133 132 126
0.09065216 0.24343073 0.70175141 135 134 132
0.09177008 0.24317901 0.70102566 140 136 137
0.09288570 0.24292779 0.70030147 136 132 133
0.09409611 0.24292779 0.70030147 138 134 135
0.09520817 0.24267708 0.69957876 129 129 129
0.09611975 0.24192809 0.69741958 132 132 131
0.09722515 0.24167944 0.69670284 122 121 117
0.09853061 0.24192809 0.69741958 124 120 117
0.09963354 0.24167944 0.69670284 122 117 115
0.10052779 0.24093658 0.69456130 121 115 113
0.11864235 0.22100949 0.63711637 135 130 121
0.11951890 0.22059484 0.63592106 136 129 121
0.12027954 0.21997577 0.63413644 134 126 120
0.12126216 0.21977018 0.63354379 129 121 116
0.12178808 0.21874799 0.63059705 119 113 110
0.12253606 0.21813923 0.62884218 111 105 102
0.12350839 0.21793707 0.62825936 104 95 94
0.12544766 0.21753386 0.62709701 100 85 87
0.12583311 0.21633312 0.62363553 102 84 87
0.21737586 0.18047129 0.52025467 145 135 121
0.21794055 0.18019471 0.51945734 142 131 119
0.21867083 0.18005674 0.51905960 142 131 121
0.21956798 0.18005674 0.51905960 142 132 124
0.22029646 0.17991897 0.51866245 146 136 129
0.22085497 0.17964408 0.51787001 150 140 133
0.22090626 0.17896050 0.51589942 152 142 136
0.84879094 0.43708938 1.26002204 160 155 141
0.85096878 0.43708938 1.26002204 160 153 140
0.84685034 0.43386364 1.25072300 156 149 137
0.83666289 0.42755291 1.23253059 152 145 134
0.83273691 0.42446586 1.22363150 149 142 131
0.83184880 0.42293903 1.21922994 143 137 128
0.83999932 0.42600378 1.22806489 137 132 123
0.84212190 0.42600378 1.22806489 132 125 117
0.83968103 0.42370108 1.22142673 125 117 109
0.83726645 0.42142311 1.21485996 120 114 105
0.83339208 0.41842365 1.20621324 126 123 113
0.83251423 0.41693988 1.20193589 129 126 115
0.83607405 0.41768044 1.20407081 132 127 117
0.83666915 0.41693988 1.20193589 137 131 121
0.83578283 0.41546661 1.19768882 135 130 118
0.83785290 0.41546661 1.19768882 131 127 113
0.84439862 0.41768044 1.20407081 133 128 114
0.84949750 0.41916952 1.20836341 143 137 121
0.84705639 0.41693988 1.20193589 152 146 130
0.84464103 0.41473386 1.19557643 157 149 134
0.84670752 0.41473386 1.19557643 154 145 130
1.07016087 0.42217970 1.21704102 140 138 124
1.05521429 0.41546661 1.19768882 136 134 120
-0.19232430 0.15946409 0.45741689 112 106 103
-0.19101812 0.15903485 0.45618564 112 106 104
-0.18837126 0.15946409 0.45741689 101 99 95
-0.18745416 0.15935656 0.45710847 94 94 92
-0.18666409 0.15935656 0.45710847 89 89 87
-0.18574876 0.15924917 0.45680043 89 89 86
0.06814360 0.25576383 0.73364919 174 167 152
0.06888976 0.25384080 0.72813302 174 167 153
0.06977355 0.25248480 0.72424340 174 167 155
0.07196958 0.25141039 0.72116154 167 160 148
0.07313824 0.25114322 0.72039515 165 158 146
0.07438339 0.25114322 0.72039515 162 155 143
0.07546814 0.25061059 0.71886730 159 152 140
0.07654829 0.25008020 0.71734589 154 147 136
0.07762388 0.24955203 0.71583086 147 142 131
0.07869494 0.24902610 0.71432227 141 135 125
0.07976149 0.24850239 0.71281999 136 129 120
0.08090846 0.24824136 0.71207124 133 125 117
0.08205304 0.24798088 0.71132410 130 121 115
0.08319520 0.24772094 0.71057844 132 122 117
0.08415873 0.24694438 0.70835096 135 127 123
0.08529393 0.24668661 0.70761150 141 133 128
0.08642676 0.24642938 0.70687366 144 136 130
0.08764853 0.24642938 0.70687366 146 138 132
0.08868536 0.24591652 0.70540255 145 143 135
0.08953193 0.24489717 0.70247859 146 146 137
0.09055842 0.24439067 0.70102566 146 147 140
0.09167528 0.24413820 0.70030147 152 151 147
0.09288570 0.24413820 0.70030147 148 147 144
0.09409611 0.24413820 0.70030147 149 148 144
0.09520817 0.24388625 0.69957876 145 145 141
0.09621873 0.24338391 0.69813782 140 140 135
0.09732518 0.24313352 0.69741958 132 131 125
0.09853061 0.24313352 0.69741958 131 125 123
0.09963354 0.24288364 0.69670284 128 121 119
0.10063089 0.24238542 0.69527370 123 116 114
0.11622149 0.22169398 0.63592106 140 135 125
0.11754115 0.22211069 0.63711637 136 131 122
0.11864235 0.22211069 0.63711637 136 129 120
0.11940689 0.22148620 0.63532507 135 128 118
0.12016713 0.22086520 0.63354379 135 127 117
0.12114894 0.22065899 0.63295221 129 121 114
0.12167490 0.21963362 0.63001102 121 115 109
0.12253606 0.21922614 0.62884218 113 108 103
0.12350839 0.21902296 0.62825936 105 96 96
0.12447892 0.21882017 0.62767762 97 87 90
0.12544766 0.21861774 0.62709701 84 74 78
0.12594898 0.21761121 0.62420982 92 80 85
0.21720916 0.18123142 0.51985568 144 133 121
0.21777368 0.18095389 0.51905960 139 127 118
0.21867083 0.18095389 0.51905960 135 120 115
0.21956798 0.18095389 0.51905960 140 128 122
0.22029646 0.18081544 0.51866245 143 132 126
0.22102381 0.18067721 0.51826596 145 135 130
0.22158079 0.18040136 0.51747471 146 136 131
0.84721619 0.43845227 1.25768435 161 154 143
0.84313297 0.43522242 1.24841964 161 154 143
0.83910948 0.43203980 1.23929036 160 153 142
0.83363146 0.42812639 1.22806489 157 150 139
0.82974148 0.42504635 1.21922994 156 149 138
0.82590705 0.42201030 1.21052110 150 144 135
0.83696681 0.42658082 1.22363150 140 135 127
0.83908176 0.42658082 1.22363150 132 126 119
0.83666605 0.42428327 1.21704102 125 117 112
0.83427620 0.42201030 1.21052110 124 116 110
0.83043677 0.41901734 1.20193589 127 120 113
0.82957250 0.41753671 1.19768882 128 121 114
0.83459169 0.41901734 1.20193589 128 121 114
0.83371270 0.41753671 1.19768882 126 118 111
0.83578283 0.41753671 1.19768882 121 114 106
0.83490270 0.41606650 1.19347155 118 113 101
0.84140962 0.41827571 1.19980860 127 122 110
0.84647977 0.41976160 1.20407081 141 135 120
0.84555715 0.41827571 1.19980860 151 145 129
0.84167218 0.41533530 1.19137406 152 146 130
0.84373140 0.41533530 1.19137406 150 144 128
1.07016087 0.42428327 1.21704102 144 141 132
1.05149865 0.41606650 1.19347155 138 135 126
1.04436815 0.41243592 1.18305731 132 129 120
1.00462604 0.39519361 1.13359845 119 115 106
-0.18849845 0.16036290 0.45772576 91 89 86
-0.18758065 0.16025469 0.45741689 88 88 84
-0.18666409 0.16014664 0.45710847 87 86 82
-0.18587402 0.16014664 0.45710847 86 85 81
0.06821743 0.25731036 0.73444402 175 169 152
0.06888976 0.25509930 0.72813302 176 170 154
0.06977355 0.25373659 0.72424340 177 171 156
0.07630605 0.25052473 0.71507579 153 146 135
0.07746029 0.25026077 0.71432227 147 143 131
0.07852944 0.24973445 0.71281999 138 134 123
0.07967771 0.24947211 0.71207124 133 128 119
0.08082356 0.24921034 0.71132410 127 122 113
0.08188120 0.24868843 0.70983440 126 119 112
0.08293440 0.24816871 0.70835096 137 128 122
0.08372131 0.24687885 0.70466930 143 135 131
0.08485107 0.24662249 0.70393753 145 138 132
0.08606777 0.24662249 0.70393753 153 146 139
0.08710357 0.24611135 0.70247859 154 152 143
0.08831774 0.24611135 0.70247859 155 155 145
0.08934675 0.24560234 0.70102566 156 156 146
0.09046487 0.24534862 0.70030147 157 157 148
0.09158067 0.24509542 0.69957876 161 160 151
0.09278984 0.24509542 0.69957876 157 156 147
0.09399900 0.24509542 0.69957876 158 155 147
0.09520817 0.24509542 0.69957876 156 153 146
0.09621873 0.24459058 0.69813782 156 152 146
0.09732518 0.24433894 0.69741958 150 144 139
0.09853061 0.24433894 0.69741958 142 135 132
0.09963354 0.24408783 0.69670284 135 127 126
0.10073421 0.24383722 0.69598752 121 112 112
0.11458489 0.22175300 0.63295221 144 140 126
0.11611256 0.22258431 0.63532507 135 131 120
0.11743078 0.22300231 0.63651818 133 128 119
0.11853095 0.22300231 0.63651818 133 125 117
0.11929508 0.22237590 0.63473016 131 123 115
0.12005493 0.22175300 0.63295221 134 126 118
0.12092312 0.22133966 0.63177246 131 123 115
0.12167490 0.22072254 0.63001102 121 117 111
0.12242249 0.22010885 0.62825936 110 109 105
0.12350839 0.22010885 0.62825936 101 96 99
0.12447892 0.21990505 0.62767762 82 79 82
0.12544766 0.21970163 0.62709701 78 77 79
0.12606506 0.21889167 0.62478513 101 96 99
0.21704271 0.18199039 0.51945734 139 130 122
0.21760705 0.18171190 0.51866245 136 126 119
0.21833646 0.18157297 0.51826596 128 115 110
0.83240223 0.43181357 1.23253059 158 153 141
0.83301795 0.43102986 1.23029375 158 154 142
0.82912534 0.42792335 1.22142673 158 154 141
0.81797206 0.42109478 1.20193589 159 155 141
0.81715184 0.41960680 1.19768882 157 153 141
0.82799929 0.42410260 1.21052110 150 147 136
0.83306682 0.42562267 1.21485996 138 134 125
0.83070052 0.42334664 1.20836341 124 117 112
0.82983065 0.42184272 1.20407081 123 115 111
0.82750237 0.41960680 1.19768882 125 117 113
0.82810938 0.41886675 1.19557643 126 118 114
0.83017582 0.41886675 1.19557643 124 116 110
0.83224231 0.41886675 1.19557643 119 111 105
0.83283991 0.41812932 1.19347155 113 105 99
0.83343542 0.41739449 1.19137406 106 99 90
0.83844167 0.41886675 1.19557643 119 112 102
0.84199315 0.41960680 1.19768882 135 128 116
0.84257460 0.41886675 1.19557643 145 138 125
0.84019554 0.41666222 1.18928397 148 141 127
0.83930624 0.41520536 1.18512559 148 142 126
1.01092792 0.40597856 1.15878952 154 147 141
1.00947964 0.40459532 1.15484130 150 145 138
1.03869784 0.41303906 1.17894232 134 131 123
1.02469683 0.40667373 1.16077375 129 126 118
1.01798749 0.40322149 1.15091991 125 122 114
0.99961120 0.39517048 1.12793982 120 116 108
-0.18849845 0.16115405 0.45772576 86 86 84
-0.18758065 0.16104530 0.45741689 84 84 82
-0.18666409 0.16093671 0.45710847 83 83 79
-0.18587402 0.16093671 0.45710847 83 82 78
0.07836463 0.25043982 0.71132410 142 135 123
0.07951067 0.25017729 0.71057844 134 127 115
0.08065430 0.24991533 0.70983440 126 122 111
0.08162478 0.24913271 0.70761150 131 127 117
0.08250335 0.24809682 0.70466930 139 134 125
0.08337464 0.24706951 0.70175141 145 140 132
0.08450009 0.24681400 0.70102566 150 146 137
0.08580048 0.24706951 0.70175141 154 150 140
0.08683362 0.24655902 0.70030147 156 155 144
0.08804403 0.24655902 0.70030147 157 155 146
0.08916234 0.24630459 0.69957876 159 157 148
0.09027834 0.24605066 0.69885755 161 159 151
0.09148626 0.24605066 0.69885755 164 162 153
0.09269418 0.24605066 0.69885755 164 161 153
0.09390210 0.24605066 0.69885755 167 160 153
0.09511001 0.24605066 0.69885755 168 161 153
0.09611975 0.24554437 0.69741958 168 160 152
0.09722515 0.24529202 0.69670284 163 155 150
0.09842935 0.24529202 0.69670284 155 149 143
0.09963354 0.24529202 0.69670284 145 139 133
0.10073421 0.24504018 0.69598752 134 125 126
0.11349089 0.22284700 0.63295221 144 136 124
0.11458489 0.22284700 0.63295221 133 128 115
0.11600384 0.22347298 0.63473016 129 125 114
0.11732063 0.22389226 0.63592106 127 122 113
0.11841976 0.22389226 0.63592106 126 121 112
0.11929508 0.22347298 0.63473016 125 120 111
0.11994294 0.22263913 0.63236177 124 119 111
0.12092312 0.22243163 0.63177246 119 113 112
0.12156192 0.22160551 0.62942606 110 106 104
0.12242249 0.22119476 0.62825936 106 104 102
0.12339403 0.22098994 0.62767762 101 100 102
0.12447892 0.22098994 0.62767762 112 111 112
0.12533171 0.22058146 0.62651742 117 117 118
0.12594898 0.21976900 0.62420982 134 132 128
0.21671058 0.18260837 0.51866245 132 124 116
0.21727458 0.18232937 0.51787001 132 124 118
0.83240223 0.43394390 1.23253059 161 160 147
0.83301795 0.43315634 1.23029375 163 163 150
0.82763410 0.42926103 1.21922994 164 164 149
0.81797206 0.42317224 1.20193589 163 163 147
0.81715184 0.42167693 1.19768882 162 162 147
0.82948053 0.42695731 1.21268666 158 159 143
0.83456248 0.42849037 1.21704102 157 158 142
0.83367258 0.42695731 1.21268666 157 153 143
0.83278906 0.42543519 1.20836341 152 147 139
0.82896698 0.42242324 1.19980860 145 138 135
0.82957250 0.42167693 1.19768882 138 129 130
0.83311450 0.42242324 1.19980860 129 120 120
0.83371270 0.42167693 1.19768882 119 112 111
0.83430874 0.42093322 1.19557643 113 106 104
0.83490270 0.42019215 1.19347155 111 103 98
0.84140962 0.42242324 1.19980860 114 106 100
0.84497893 0.42317224 1.20193589 123 115 106
0.84406322 0.42167693 1.19768882 134 127 114
0.84167218 0.41945368 1.19137406 141 135 121
1.00577021 0.40589988 1.15287733 157 149 139
1.00434673 0.40452397 1.14896917 153 146 139
1.00975549 0.40589988 1.15287733 148 141 135
1.02269053 0.40868002 1.16077375 126 123 115
1.01772606 0.40589988 1.15287733 124 121 113
1.00603127 0.40045157 1.13740242 122 119 112
0.99629575 0.39580289 1.12419879 123 120 112
-0.18758065 0.16183591 0.45741689 81 80 78
-0.18653831 0.16161780 0.45680043 76 75 72
-0.18562368 0.16150896 0.45649281 81 80 76
0.08056994 0.25087953 0.70909190 121 116 102
0.08153967 0.25009471 0.70687366 135 129 118
0.08233218 0.24879754 0.70320731 141 136 128
0.08337464 0.24828242 0.70175141 146 143 134
0.08450009 0.24802567 0.70102566 152 149 140
0.08571175 0.24802567 0.70102566 154 151 143
0.08683362 0.24776945 0.70030147 157 154 146
0.08795317 0.24751374 0.69957876 159 156 148
0.08916234 0.24751374 0.69957876 161 158 150
0.09027834 0.24725857 0.69885755 164 161 153
0.09139204 0.24700393 0.69813782 166 162 154
0.09259871 0.24700393 0.69813782 171 166 157
0.09822744 0.24599059 0.69527370 170 163 152
0.09942917 0.24599059 0.69527370 161 154 143
0.10052779 0.24573855 0.69456130 151 143 137
0.11338502 0.22373211 0.63236177 136 128 120
0.11447801 0.22373211 0.63236177 124 118 110
0.11600384 0.22457005 0.63473016 122 117 108
0.11732063 0.22499138 0.63592106 121 116 108
0.11841976 0.22499138 0.63592106 114 112 103
0.11929508 0.22457005 0.63473016 112 109 102
0.11983115 0.22352360 0.63177246 110 106 102
0.12081053 0.22331548 0.63118422 106 101 100
0.12156192 0.22269343 0.62942606 115 110 109
0.12242249 0.22228065 0.62825936 123 119 118
0.12339403 0.22207484 0.62767762 130 129 125
0.12436377 0.22186939 0.62709701 137 136 131
0.12521599 0.22145967 0.62593889 143 142 136
0.12583311 0.22064473 0.62363553 154 149 141
0.83240223 0.43607423 1.23253059 162 162 149
0.83453256 0.43607423 1.23253059 164 165 149
0.82912534 0.43214563 1.22142673 166 167 151
0.81797206 0.42524967 1.20193589 171 170 152
0.81859809 0.42449704 1.19980860 172 172 154
0.83395612 0.43136838 1.21922994 170 170 154
0.83606350 0.43136838 1.21922994 168 168 152
0.83817083 0.43136838 1.21922994 166 164 149
0.83726645 0.42982227 1.21485996 164 160 146
0.83339208 0.42676303 1.20621324 162 157 146
0.83251423 0.42524967 1.20193589 157 151 149
0.83607405 0.42600501 1.20407081 139 133 131
0.83666915 0.42524967 1.20193589 124 118 118
0.83726203 0.42449704 1.19980860 117 111 111
0.84590113 0.42676303 1.20621324 108 102 99
0.85101449 0.42828718 1.21052110 116 110 104
0.84705639 0.42524967 1.20193589 128 123 112
0.84315401 0.42225495 1.19347155 135 129 118
0.99728984 0.40445331 1.14315653 158 151 140
0.99423581 0.40241748 1.13740242 157 149 139
0.99453306 0.40174341 1.13549721 152 145 135
1.00491202 0.40513653 1.14508760 143 136 127
1.01374078 0.40789255 1.15287733 129 127 118
1.01573348 0.40789255 1.15287733 126 124 116
1.01084960 0.40513653 1.14508760 126 124 116
1.00266659 0.40107161 1.13359845 127 124 118
0.99464625 0.39708745 1.12233746 126 124 118
-0.18745416 0.16251686 0.45710847 83 82 80
-0.18641269 0.16229798 0.45649281 86 86 82
-0.18549876 0.16218877 0.45618564 87 87 83
0.08048575 0.25184169 0.70835096 126 119 110
0.08145473 0.25105467 0.70613736 136 129 122
0.08233218 0.25001296 0.70320731 139 134 129
0.08337464 0.24949534 0.70175141 145 142 136
0.08450009 0.24923733 0.70102566 150 147 140
0.08571175 0.24923733 0.70102566 156 151 144
0.08907042 0.24846649 0.69885755 165 160 153
0.09018537 0.24821061 0.69813782 168 163 154
0.09129801 0.24795525 0.69741958 173 167 158
0.09922563 0.24668628 0.69385040 170 163 150
0.11359695 0.22524533 0.63354379 133 125 117
0.11458489 0.22503501 0.63295221 124 117 109
0.11622149 0.22609052 0.63592106 120 114 106
0.11754115 0.22651550 0.63711637 116 113 105
0.11864235 0.22651550 0.63711637 107 107 102
0.11940689 0.22587863 0.63532507 103 102 98
0.12005493 0.22503501 0.63295221 103 101 99
0.12092312 0.22461556 0.63177246 102 98 97
0.12156192 0.22378133 0.62942606 128 124 123
0.12242249 0.22336654 0.62825936 136 132 130
0.12339403 0.22315972 0.62767762 142 140 132
0.12447892 0.22315972 0.62767762 148 147 137
0.12521599 0.22254156 0.62593889 156 154 144
0.12583311 0.22172263 0.62363553 162 155 147
0.21923225 0.18426032 0.51826596 135 127 122
0.22029646 0.18440130 0.51866245 131 126 121
0.82912534 0.43425676 1.22142673 174 168 154
0.81508172 0.42581713 1.19768882 176 170 157
0.81571066 0.42506614 1.19557643 178 172 158
0.83696681 0.43504062 1.22363150 178 173 158
0.83756989 0.43425676 1.22142673 176 172 158
0.84119672 0.43504062 1.22363150 174 169 155
0.84179217 0.43425676 1.22142673 170 163 150
0.83786464 0.43114936 1.21268666 165 158 145
0.83846074 0.43037948 1.21052110 160 152 145
0.83905470 0.42961231 1.20836341 149 141 135
0.83964658 0.42884788 1.20621324 136 129 126
0.83874655 0.42732713 1.20193589 126 120 118
0.85713691 0.43347573 1.21922994 113 111 108
0.85007077 0.42884788 1.20621324 120 120 111
0.84613335 0.42581713 1.19768882 127 127 117
1.00066471 0.40780458 1.14702511 167 160 149
0.99758339 0.40574494 1.14123201 163 158 146
0.99955595 0.40574494 1.14123201 158 153 142
1.01174819 0.40988520 1.15287733 150 145 133
1.01920009 0.41128412 1.15681207 129 128 117
1.01427615 0.40849575 1.14896917 133 132 122
1.00434613 0.40370604 1.13549721 132 132 124
0.99795073 0.40035298 1.12606621 131 130 123
0.99329710 0.39771038 1.11863339 128 128 120
0.99687552 0.39836776 1.12048233 126 125 116
0.98577714 0.39316884 1.10585940 132 132 123
-0.18837126 0.16341713 0.45741689 93 92 89
-0.18732785 0.16319689 0.45680043 90 90 86
-0.18628724 0.16297725 0.45618564 88 88 83
-0.18549876 0.16297725 0.45618564 86 85 81
-0.18409087 0.16243070 0.45465583 88 86 81
0.11820774 0.22890754 0.64072955 112 109 101
0.11897782 0.22826031 0.63891786 101 100 97
0.12039216 0.22676422 0.63473016 107 106 104
0.12114894 0.22612903 0.63295221 113 112 110
0.12156192 0.22486925 0.62942606 133 132 129
0.12242249 0.22445244 0.62825936 141 141 128
0.12339403 0.22424461 0.62767762 146 146 132
0.12447892 0.22424461 0.62767762 152 152 137
0.21783684 0.18473241 0.51707995 139 130 124
0.21906477 0.18501465 0.51787001 140 132 126
0.22012803 0.18515611 0.51826596 132 127 121
0.22119293 0.18529777 0.51866245 127 124 118
0.22208938 0.18529777 0.51866245 127 124 120
0.22298585 0.18529777 0.51866245 128 124 121
0.82319242 0.43324539 1.21268666 177 170 157
0.81364417 0.42713261 1.19557643 173 166 153
0.81571066 0.42713261 1.19557643 169 162 149
0.84059912 0.43794608 1.22584414 170 163 150
0.84424454 0.43873945 1.22806489 170 163 150
0.84331167 0.43715557 1.22363150 168 162 149
0.84238553 0.43558306 1.21922994 166 160 147
0.84297669 0.43480104 1.21704102 166 159 147
0.84566557 0.43402183 1.21485996 144 138 129
0.84173143 0.43093270 1.20621324 134 129 123
0.86023122 0.43715557 1.22363150 117 116 112
0.85310680 0.43247175 1.21052110 118 118 111
1.00434673 0.41048166 1.14896917 171 164 151
1.02444470 0.41541025 1.16276479 130 127 116
1.01945984 0.41257954 1.15484130 133 131 119
1.00603127 0.40634930 1.13740242 134 131 121
0.99961120 0.40296867 1.12793982 134 131 123
1.00184333 0.40229931 1.12606621 133 132 123
0.99388385 0.39832926 1.11495364 134 134 125
0.98768854 0.39508024 1.10585940 137 137 128
-0.18824424 0.16409701 0.45710847 114 114 106
-0.18720171 0.16387600 0.45649281 110 110 101
-0.18591192 0.16343577 0.45526651 103 103 95
-0.18524943 0.16354561 0.45557249 99 99 92
-0.18396749 0.16310714 0.45435110 99 100 93
-0.18293695 0.16288880 0.45374286 94 93 88
-0.18215269 0.16288880 0.45374286 94 90 87
-0.18161155 0.16310714 0.45435110 94 90 89
0.12219600 0.22512105 0.62709701 144 145 129
0.12316594 0.22491300 0.62651742 151 152 136
0.21604939 0.18562613 0.51707995 154 144 139
0.21694311 0.18562613 0.51707995 150 140 134
0.21816967 0.18590975 0.51787001 147 138 132
0.21923225 0.18605189 0.51826596 145 137 131
0.22012803 0.18605189 0.51826596 146 138 132
0.22119293 0.18619423 0.51866245 143 135 129
0.22225943 0.18633680 0.51905960 133 129 123
0.22298585 0.18619423 0.51866245 131 128 123
0.84483665 0.44006485 1.22584414 162 158 144
0.84238553 0.43769041 1.21922994 161 157 143
0.84297669 0.43690461 1.21704102 162 158 145
0.84718382 0.43690461 1.21704102 154 150 139
0.85007077 0.43301755 1.20621324 121 122 115
1.02269053 0.41670525 1.16077375 133 130 118
1.01772606 0.41387051 1.15287733 131 129 117
1.00603127 0.40831521 1.13740242 132 129 119
1.00127721 0.40559310 1.12981975 133 130 122
1.00490487 0.40627024 1.13170588 133 130 122
1.00518286 0.40559310 1.12981975 135 134 125
1.00046587 0.40290704 1.12233746 136 136 127
0.99745154 0.40091574 1.11679053 137 137 128
-0.18824424 0.16488709 0.45710847 129 130 121
-0.18707572 0.16455421 0.45618564 127 128 118
-0.18566254 0.16400237 0.45465583 122 123 114
-0.18500078 0.16411245 0.45496097 116 117 108
-0.18384427 0.16378269 0.45404679 107 109 102
-0.18281458 0.16356358 0.45343935 101 101 98
-0.18203086 0.16356358 0.45343935 96 95 95
-0.18161155 0.16389246 0.45435110 97 94 96
-0.18082625 0.16389246 0.45435110 99 97 99
-0.17979991 0.16367306 0.45374286 98 97 99
0.21581413 0.18709069 0.51866245 161 151 144
0.21654491 0.18694766 0.51826596 160 150 144
0.21727458 0.18680485 0.51787001 155 145 138
0.21850352 0.18709069 0.51866245 151 141 134
0.21939999 0.18709069 0.51866245 148 138 133
0.22046514 0.18723395 0.51905960 146 137 132
0.22153191 0.18737742 0.51945734 144 136 130
0.22242975 0.18737742 0.51945734 140 132 126
0.22315659 0.18723395 0.51905960 142 134 128
0.45307145 0.23833095 0.66071332 159 155 141
0.45244950 0.23740539 0.65814739 160 156 142
0.84449285 0.43979773 1.21922994 162 158 144
0.84660017 0.43979773 1.21922994 162 158 144
0.84870750 0.43979773 1.21922994 158 154 140
0.84856093 0.43432957 1.20407081 127 125 118
1.02094233 0.41799581 1.15878952 141 138 123
1.01772606 0.41586316 1.15287733 133 131 116
1.00772202 0.41097066 1.13931406 130 128 114
1.00294888 0.40822628 1.13170588 132 129 119
1.00827146 0.40959388 1.13549721 133 130 120
1.00686097 0.40822628 1.13170588 133 132 122
1.00545990 0.40686780 1.12793982 135 135 126
1.00406814 0.40551832 1.12419879 138 138 129
1.00601125 0.40551832 1.12419879 141 141 133
-0.18707572 0.16534269 0.45618564 134 135 124
-0.18553810 0.16467777 0.45435110 132 132 123
-0.18475279 0.16467777 0.45435110 125 125 117
-0.18384427 0.16456747 0.45404679 118 118 109
-0.18281458 0.16434731 0.45343935 110 110 106
0.21671058 0.18798716 0.51866245 163 154 145
0.21760705 0.18798716 0.51866245 160 151 143
0.21867083 0.18813111 0.51905960 155 146 139
0.21956798 0.18813111 0.51905960 151 141 136
0.22063407 0.18827526 0.51945734 147 137 132
0.22170180 0.18841965 0.51985568 145 137 131
0.22260033 0.18841965 0.51985568 140 132 126
0.22332759 0.18827526 0.51945734 145 137 131
0.22639850 0.18784344 0.51826596 157 150 138
0.22729428 0.18784344 0.51826596 158 149 139
0.45484471 0.24041019 0.66329926 153 151 138
0.45332974 0.23900703 0.65942788 156 153 140
0.85119295 0.44430241 1.22584414 159 155 141
0.85177147 0.44350040 1.22363150 159 155 141
0.84856093 0.43641070 1.20407081 131 126 119
1.01573348 0.41785583 1.15287733 144 139 124
1.01256001 0.41573474 1.14702511 137 133 119
1.00772202 0.41293988 1.13931406 129 126 112
1.00462604 0.41086826 1.13359845 132 129 116
1.00827146 0.41155648 1.13549721 134 132 119
1.00854468 0.41086826 1.13359845 135 134 122
1.00713563 0.40949872 1.12981975 136 137 128
1.00740945 0.40881735 1.12793982 138 139 130
1.00935900 0.40881735 1.12793982 140 140 131
1.00628543 0.40678680 1.12233746 143 143 134
1.00159228 0.40411058 1.11495364 149 149 140
-0.18745416 0.16646723 0.45710847 140 141 129
-0.18591192 0.16579644 0.45526651 134 134 125
-0.18512502 0.16579644 0.45526651 125 125 116
-0.18409087 0.16557404 0.45465583 117 118 109
0.21883839 0.18917310 0.51945734 160 151 142
0.21973623 0.18917310 0.51945734 157 146 141
0.22080328 0.18931818 0.51985568 151 140 135
0.22221303 0.18975472 0.52105445 144 136 131
0.22311363 0.18975472 0.52105445 140 132 126
0.22384217 0.18960899 0.52065426 147 139 134
0.22456960 0.18946347 0.52025467 153 145 139
0.22619444 0.18931818 0.51985568 159 152 141
0.22674520 0.18902826 0.51905960 161 154 141
0.22764236 0.18902826 0.51905960 162 153 141
0.22871463 0.18917310 0.51945734 157 148 136
0.45618379 0.24226782 0.66525203 146 146 133
0.45554543 0.24132054 0.66265088 148 148 136
0.85331172 0.44642118 1.22584414 159 154 140
0.84705639 0.43771437 1.20193589 134 128 120
1.01057744 0.41771728 1.14702511 140 133 120
1.00744605 0.41560757 1.14123201 134 127 115
1.00603127 0.41421294 1.13740242 131 124 112
1.00462604 0.41282761 1.13359845 133 127 116
1.00827146 0.41351911 1.13549721 136 132 120
1.00854468 0.41282761 1.13359845 139 135 123
1.00713563 0.41145152 1.12981975 139 137 126
1.00908840 0.41145152 1.12981975 140 138 128
1.00935900 0.41076690 1.12793982 141 140 130
1.00795424 0.40940449 1.12419879 143 141 133
1.00489783 0.40737772 1.11863339 146 145 136
1.00351942 0.40603769 1.11495364 147 146 137
0.22041182 0.19065534 0.52105445 157 148 139
0.22131242 0.19065534 0.52105445 151 142 136
0.22341511 0.19168670 0.52387315 145 137 132
0.22449407 0.19183494 0.52427828 143 135 131
0.22487848 0.19139089 0.52306467 148 140 136
0.22543466 0.19109598 0.52225876 151 143 138
0.22633734 0.19109598 0.52225876 151 143 138
0.22689043 0.19080199 0.52145529 154 146 139
0.22709297 0.19021671 0.51985568 156 148 141
0.22799149 0.19021671 0.51985568 157 149 138
0.22941783 0.19065534 0.52105445 154 145 133
0.23031843 0.19065534 0.52105445 153 144 132
0.23246981 0.19168670 0.52387315 152 143 132
0.23428054 0.19243024 0.52590525 152 143 133
0.45663193 0.24365677 0.66590554 139 139 125
0.45688528 0.24317901 0.66459984 142 139 126
0.45758536 0.24294083 0.66394889 143 140 127
0.45873296 0.24294083 0.66394889 147 142 129
0.46033138 0.24317901 0.66459984 153 146 133
0.85559803 0.44531882 1.21704102 142 135 123
0.84555715 0.43901342 1.19980860 143 136 125
1.00547349 0.41758013 1.14123201 140 132 121
1.00406539 0.41617885 1.13740242 133 126 116
1.00266659 0.41478693 1.13359845 133 125 116
1.00294888 0.41409448 1.13170588 133 126 118
1.00827146 0.41548172 1.13549721 134 129 122
1.00686097 0.41409448 1.13170588 138 133 126
1.00545990 0.41271645 1.12793982 140 136 128
1.00740945 0.41271645 1.12793982 140 137 129
1.00935900 0.41271645 1.12793982 141 138 129
1.00795424 0.41134757 1.12419879 145 142 134
1.00489783 0.40931121 1.11863339 147 144 136
1.00351942 0.40796480 1.11495364 149 146 138
1.00710297 0.40863687 1.11679053 151 148 139
0.74525392 0.29284838 0.80034459 169 163 149
0.74312776 0.29147190 0.79658264 167 161 148
0.00154018 0.44344175 1.20621324 150 143 141
0.00360578 0.44108719 1.19980860 148 143 137
0.00566951 0.44030789 1.19768882 152 148 141
0.00773962 0.44030789 1.19768882 154 150 142
0.00977519 0.43875751 1.19347155 151 146 139
0.22393428 0.19303972 0.52509052 145 137 131
0.22501615 0.19318935 0.52549756 145 137 132
0.22557470 0.19289030 0.52468407 148 140 135
0.22630641 0.19274113 0.52427828 150 142 137
0.22756457 0.19303972 0.52509052 151 143 138
0.22794247 0.19259217 0.52387315 151 143 138
0.22796707 0.19185086 0.52185667 151 143 137
0.22904539 0.19199866 0.52225876 151 142 136
0.23065889 0.19259217 0.52387315 151 142 135
0.23192282 0.19289030 0.52468407 153 144 135
0.23301002 0.19303972 0.52509052 154 145 135
0.23555501 0.19363968 0.52672249 157 148 136
0.23609851 0.19333923 0.52590525 149 140 130
0.23627430 0.19274113 0.52427828 151 142 133
0.32989985 0.18190822 0.49481156 122 122 114
0.32931286 0.18111502 0.49265397 113 112 110
0.32849324 0.18019831 0.49016041 117 116 114
0.45708093 0.24504845 0.66656029 131 132 116
0.45778289 0.24480774 0.66590554 140 138 122
0.45893386 0.24480774 0.66590554 145 141 125
0.46008483 0.24480774 0.66590554 147 142 128
0.46078315 0.24456748 0.66525203 149 143 130
0.85253686 0.44582158 1.21268666 151 144 127
0.84406322 0.44030789 1.19768882 150 142 126
0.84167218 0.43798640 1.19137406 150 142 129
1.00209939 0.41814473 1.13740242 135 128 118
1.00070727 0.41674626 1.13359845 137 129 122
1.00099266 0.41605052 1.13170588 136 128 122
1.00294888 0.41605052 1.13170588 135 128 121
1.00827146 0.41744435 1.13549721 133 128 121
1.00686097 0.41605052 1.13170588 138 133 126
1.00713563 0.41535711 1.12981975 140 136 129
1.00740945 0.41466600 1.12793982 140 137 129
1.00935900 0.41466600 1.12793982 140 137 129
1.00795424 0.41329065 1.12419879 144 141 133
1.00489783 0.41124466 1.11863339 147 144 136
1.00517261 0.41056716 1.11679053 150 147 139
0.72755009 0.28777629 0.78278506 168 162 149
0.73965114 0.29147866 0.79285598 166 159 146
0.73929220 0.29079846 0.79100567 164 159 147
0.73893493 0.29012138 0.78916395 162 158 146
0.73772246 0.28911167 0.78641742 161 156 144
0.73397291 0.28711322 0.78098136 162 156 143
-0.02579223 0.44952595 1.21704102 170 155 141
-0.02351977 0.44632077 1.20836341 172 157 144
0.00154293 0.44632077 1.20836341 152 147 140
0.00361217 0.44394672 1.20193589 154 151 143
0.00567955 0.44316098 1.19980860 154 151 143
0.00773962 0.44237801 1.19768882 155 152 144
0.00979243 0.44159779 1.19557643 157 154 146
0.01183801 0.44082034 1.19347155 158 155 143
0.22574942 0.19394729 0.52509052 148 140 133
0.22665700 0.19394729 0.52509052 150 142 136
0.22791767 0.19424821 0.52590525 151 143 137
0.22847216 0.19394729 0.52509052 150 142 136
0.22902493 0.19364730 0.52427828 151 143 137
0.23010907 0.19379717 0.52468407 150 144 137
0.23119488 0.19394729 0.52509052 150 145 138
0.23228239 0.19409764 0.52549756 154 147 141
0.23337156 0.19424821 0.52590525 157 149 143
0.23464462 0.19455008 0.52672249 157 149 142
0.23573819 0.19470136 0.52713209 158 150 142
0.23628181 0.19439903 0.52631354 149 140 130
0.23700750 0.19424821 0.52590525 155 145 136
0.32880461 0.18263017 0.49445066 140 140 129
0.32965922 0.18263017 0.49445066 125 125 114
0.32907370 0.18183438 0.49229619 120 120 118
0.32849324 0.18104552 0.49016041 119 118 118
0.32910249 0.18091470 0.48980623 118 115 115
0.45753080 0.24644287 0.66721636 132 129 112
0.45868403 0.24644287 0.66721636 139 136 117
0.45983726 0.24644287 0.66721636 145 142 122
0.46099049 0.24644287 0.66721636 150 146 127
0.46168929 0.24620055 0.66656029 153 148 131
0.46329695 0.24644287 0.66721636 155 150 134
0.84406322 0.44237801 1.19768882 157 149 130
0.84019554 0.43927360 1.18928397 150 142 123
1.00209939 0.42011064 1.13740242 131 123 116
0.99903667 0.41800660 1.13170588 132 124 118
0.99932438 0.41730991 1.12981975 135 127 122
1.00294888 0.41800660 1.13170588 135 127 122
1.00827146 0.41940695 1.13549721 136 134 126
1.00854468 0.41870561 1.13359845 139 139 130
1.00713563 0.41730991 1.12981975 141 141 132
1.00908840 0.41730991 1.12981975 138 137 128
1.01104128 0.41730991 1.12981975 139 138 129
1.00962865 0.41592351 1.12606621 142 140 132
1.00655890 0.41386107 1.12048233 147 144 136
1.00683129 0.41317815 1.11863339 149 146 138
0.72420502 0.28779995 0.77918601 169 163 148
0.73569936 0.29182512 0.79008371 165 159 144
0.73706496 0.29182512 0.79008371 165 158 143
0.73585761 0.29080829 0.78733081 163 157 143
0.73550999 0.29013437 0.78550619 161 156 142
0.73516393 0.28946352 0.78368998 159 155 142
0.73228556 0.28779995 0.77918601 159 155 140
0.73027474 0.28648278 0.77561998 162 159 142
0.73782194 0.28681093 0.77650839 175 168 148
0.72749746 0.28228405 0.76425236 172 165 145
-0.02593190 0.45407516 1.22363150 159 140 129
-0.02373128 0.45244178 1.21922994 162 146 134
-0.02178063 0.45572034 1.22806489 162 151 139
-0.00054758 0.45001364 1.21268666 149 145 140
0.00154293 0.44840932 1.20836341 155 150 144
0.00361217 0.44602418 1.20193589 155 150 143
0.00567955 0.44523475 1.19980860 156 152 144
0.00775332 0.44523475 1.19980860 157 153 145
0.00979243 0.44366425 1.19557643 158 155 147
0.01185889 0.44366425 1.19557643 158 154 145
0.22809462 0.19530872 0.52631354 152 144 135
0.22864926 0.19500591 0.52549756 154 147 138
0.22955754 0.19500591 0.52549756 153 145 138
0.23046583 0.19500591 0.52549756 152 145 138
0.23137410 0.19500591 0.52549756 152 148 141
0.23246258 0.19515720 0.52590525 156 151 144
0.23337156 0.19515720 0.52590525 158 150 144
0.23464462 0.19546047 0.52672249 158 150 144
0.23592164 0.19576469 0.52754229 159 151 145
0.23664929 0.19561246 0.52713209 159 149 144
0.23719151 0.19530872 0.52631354 160 150 145
0.32747227 0.18321750 0.49373040 155 149 136
0.32856497 0.18335104 0.49409026 143 140 131
0.32941896 0.18335104 0.49409026 131 128 119
0.32883489 0.18255271 0.49193892 123 122 114
0.32849324 0.18189272 0.49016041 121 120 114
0.32910249 0.18176129 0.48980623 120 119 113
0.32994908 0.18176129 0.48980623 120 117 111
0.33103487 0.18189272 0.49016041 118 114 109
0.33164227 0.18176129 0.48980623 119 112 104
0.45908874 0.24906696 0.67118007 124 120 106
0.45888579 0.24832936 0.66919231 130 127 110
0.46004242 0.24832936 0.66919231 137 133 116
0.46074423 0.24808446 0.66853237 144 138 121
0.46144468 0.24784003 0.66787374 147 142 124
0.46214372 0.24759610 0.66721636 149 143 125
0.46375340 0.24784003 0.66787374 153 147 129
0.46490777 0.24784003 0.66787374 155 148 129
0.46790609 0.24882060 0.67051619 160 152 131
1.00547349 0.42349771 1.14123201 128 119 115
1.00070727 0.42066494 1.13359845 129 120 116
1.00266659 0.42066494 1.13359845 133 125 121
1.00630879 0.42136955 1.13549721 135 127 123
1.01166058 0.42278594 1.13931406 137 132 125
1.01192904 0.42207655 1.13740242 139 136 128
1.01050401 0.42066494 1.13359845 141 139 130
1.01077306 0.41996264 1.13170588 139 137 129
1.01272917 0.41996264 1.13170588 139 137 129
1.01130855 0.41856512 1.12793982 141 139 130
1.00989735 0.41717684 1.12419879 144 141 132
1.01016521 0.41648614 1.12233746 147 144 135
1.01210511 0.41648614 1.12233746 149 145 136
0.72254401 0.28848353 0.77739888 166 160 146
0.73143691 0.29149204 0.78550619 165 159 142
0.73620689 0.29284939 0.78916395 163 157 140
0.73585761 0.29216915 0.78733081 161 155 138
0.73380935 0.29081807 0.78368998 160 154 137
0.73346806 0.29014722 0.78188217 159 153 137
0.73228556 0.28914669 0.77918601 158 154 136
0.73027474 0.28782338 0.77561998 158 155 136
0.72994500 0.28716624 0.77384913 164 161 142
0.72630781 0.28521273 0.76858485 165 162 143
0.72516972 0.28424591 0.76597947 165 161 143
0.73479640 0.28749442 0.77473354 164 160 142
0.73362023 0.28651211 0.77208638 166 160 141
0.72586077 0.28296697 0.76253301 166 159 141
0.71590465 0.27857989 0.75071079 165 158 140
0.71403927 0.27735129 0.74740005 164 155 138
0.71454322 0.27704585 0.74657691 162 152 135
0.71504617 0.27674106 0.74575561 159 149 132
0.71476251 0.27613351 0.74411839 153 144 128
0.71369839 0.27522716 0.74167597 147 137 122
-0.02377404 0.45536813 1.22142673 152 133 126
-0.02178063 0.45784295 1.22806489 155 143 134
-0.00262950 0.44969627 1.20621324 148 145 138
-0.00054758 0.45210969 1.21268666 149 145 138
0.00154293 0.45049790 1.20836341 153 148 141
0.00361217 0.44810161 1.20193589 156 151 144
0.00567955 0.44730851 1.19980860 158 153 146
0.00775332 0.44730851 1.19980860 159 154 147
0.00979243 0.44573072 1.19557643 159 154 147
0.22991399 0.19621842 0.52631354 154 147 135
0.23082370 0.19621842 0.52631354 157 150 139
0.23155360 0.19606619 0.52590525 158 152 141
0.23264307 0.19621842 0.52631354 159 153 143
0.23355275 0.19621842 0.52631354 160 153 145
0.23464462 0.19637087 0.52672249 160 153 145
0.23592164 0.19667651 0.52754229 161 154 147
0.23683345 0.19667651 0.52754229 162 153 147
0.23737581 0.19637087 0.52672249 167 157 151
0.32771096 0.18420504 0.49409026 156 149 138
0.32904461 0.18447395 0.49481156 148 140 132
0.32965922 0.18433939 0.49445066 141 133 127
0.32931286 0.18366955 0.49265397 133 126 121
0.32873094 0.18287215 0.49051508 127 122 117
0.32934046 0.18273993 0.49016041 126 121 116
0.33042657 0.18287215 0.49051508 123 118 113
0.33151427 0.18300457 0.49087027 121 117 112
0.33212221 0.18287215 0.49051508 121 113 107
0.33248886 0.18260789 0.48980623 124 116 109
0.46091413 0.25122198 0.67384875 122 115 105
0.46070495 0.25047505 0.67184526 128 122 107
0.46140888 0.25022703 0.67118007 135 129 113
0.46165481 0.24973252 0.66985363 141 135 119
0.46189976 0.24923995 0.66853237 145 139 123
0.46214372 0.24874932 0.66721636 145 139 123
0.46375340 0.24899440 0.66787374 146 140 123
0.46490777 0.24899440 0.66787374 146 138 121
0.46790609 0.24997954 0.67051619 146 138 119
1.00887036 0.42690763 1.14508760 116 105 103
1.00406539 0.42404246 1.13740242 122 111 109
1.00603127 0.42404246 1.13740242 128 120 116
1.00799727 0.42404246 1.13740242 133 125 121
1.01336372 0.42547023 1.14123201 135 128 122
1.01362979 0.42475516 1.13931406 135 131 122
1.01219666 0.42333218 1.13549721 139 134 125
1.01415920 0.42333218 1.13549721 139 135 126
1.01442266 0.42262426 1.13359845 139 136 126
1.01299405 0.42121553 1.12981975 139 136 127
