ply
format ascii 1.0
element vertex 1062
property float x
property float y
property float z
property uchar red
property uchar green
property uchar blue
end_header
-0.26140231 -0.05572370 0.51747471 42 42 49
-0.26050788 -0.05572370 0.51747471 44 44 51
-0.25981179 -0.05576627 0.51787001 47 47 59
-0.25891671 -0.05576627 0.51787001 40 39 52
-0.25802159 -0.05576627 0.51787001 37 35 49
-0.25712651 -0.05576627 0.51787001 119 118 132
-0.25623143 -0.05576627 0.51787001 160 158 172
-0.25514141 -0.05572370 0.51747471 153 155 161
-0.25424698 -0.05572370 0.51747471 150 156 154
-0.25335258 -0.05572370 0.51747471 150 156 154
-0.25245816 -0.05572370 0.51747471 150 156 154
-0.25137186 -0.05568120 0.51707995 150 156 154
-0.25086084 -0.05576627 0.51787001 151 157 155
-0.24996574 -0.05576627 0.51787001 152 156 156
-0.24945177 -0.05585160 0.51866245 153 158 158
-0.24836528 -0.05580890 0.51826596 156 158 159
-0.70595521 -0.17298114 1.60637879 38 37 45
-0.70821345 -0.17421968 1.61788034 37 36 44
-0.70373750 -0.17380486 1.61402822 37 37 45
-0.70262069 -0.17421968 1.61788034 37 37 45
-0.69982427 -0.17421968 1.61788034 38 37 45
-0.69536835 -0.17380486 1.61402822 38 37 45
-0.69257861 -0.17380486 1.61402822 38 37 45
-0.69143516 -0.17421968 1.61788034 40 39 47
-0.68863881 -0.17421968 1.61788034 43 39 47
-0.68420947 -0.17380486 1.61402822 59 56 64
-0.68304604 -0.17421968 1.61788034 81 80 87
-0.68024969 -0.17421968 1.61788034 68 67 74
-0.67745328 -0.17421968 1.61788034 71 70 77
-0.67465693 -0.17421968 1.61788034 70 68 85
-0.67186058 -0.17421968 1.61788034 69 68 86
-0.66906416 -0.17421968 1.61788034 56 61 86
-0.66786176 -0.17463647 1.62175083 59 64 89
0.55326515 -0.15903713 1.47688854 35 35 44
0.55581784 -0.15903713 1.47688854 36 35 42
0.55788594 -0.15465687 1.43621159 36 36 40
0.56036830 -0.15465687 1.43621159 36 36 40
0.56047577 -0.15400432 1.43015158 36 36 40
0.56413788 -0.15432991 1.43317509 37 37 41
-0.38651830 -0.05624617 0.53084719 48 52 67
-0.38290218 -0.05585254 0.52713209 46 50 78
-0.38080660 -0.05567935 0.52549756 48 52 80
-0.37989831 -0.05567935 0.52549756 50 54 82
-0.37957853 -0.05576581 0.52631354 51 55 83
-0.37866884 -0.05576581 0.52631354 49 54 81
-0.37746608 -0.05572255 0.52590525 47 52 77
-0.37626520 -0.05567935 0.52549756 51 55 81
-0.37506616 -0.05563622 0.52509052 52 57 82
-0.80700594 -0.12941687 1.22142673 44 44 51
-0.80344719 -0.12918411 1.21922994 12 12 20
-0.80133981 -0.12918411 1.21922994 117 120 119
-0.79923248 -0.12918411 1.21922994 154 158 155
-0.79856139 -0.12941687 1.22142673 160 162 159
-0.79501784 -0.12918411 1.21922994 159 159 157
-0.79148692 -0.12895218 1.21704102 156 157 155
-0.78938335 -0.12895218 1.21704102 156 156 154
-0.78727984 -0.12895218 1.21704102 155 156 154
-0.78658843 -0.12918411 1.21922994 154 155 153
-0.78027099 -0.12849081 1.21268666 156 156 154
-0.77956957 -0.12872109 1.21485996 157 157 156
-0.76783741 -0.12712631 1.19980860 156 157 156
-0.73232323 -0.12257059 1.15681207 153 154 152
-0.72660398 -0.12194629 1.15091991 153 154 152
-0.72584701 -0.12215368 1.15287733 153 153 151
-0.72017998 -0.12153361 1.14702511 153 154 152
-0.71941471 -0.12173960 1.14896917 153 154 154
-0.71621490 -0.12153361 1.14702511 152 152 152
-0.71544290 -0.12173960 1.14896917 149 150 150
-0.71224982 -0.12153361 1.14702511 147 148 148
-0.71026731 -0.12153361 1.14702511 146 149 148
-0.70948523 -0.12173960 1.14896917 148 154 152
-0.70749933 -0.12173960 1.14896917 116 122 120
-0.70551342 -0.12173960 1.14896917 44 50 49
-0.70233715 -0.12153361 1.14702511 31 36 37
-0.70035458 -0.12153361 1.14702511 45 46 56
-0.69837207 -0.12153361 1.14702511 41 42 53
-0.69638950 -0.12153361 1.14702511 41 41 53
-0.69323397 -0.12132832 1.14508760 40 39 52
-0.69008911 -0.12112372 1.14315653 39 39 49
-0.69044191 -0.12153361 1.14702511 38 37 48
-0.69197190 -0.12215368 1.15287733 41 40 49
-0.68300974 -0.12091980 1.14123201 41 40 48
-0.68449426 -0.12153361 1.14702511 40 39 47
-0.68168265 -0.12173960 1.14896917 40 39 47
-0.68200862 -0.12215368 1.15287733 40 39 48
-0.67428225 -0.12112372 1.14315653 40 39 48
-0.67248040 -0.12872109 1.21485996 156 156 158
-0.67279208 -0.12918411 1.21922994 155 155 157
-0.66352439 -0.12780492 1.20621324 154 155 157
-0.26368296 -0.05474570 0.51668584 39 40 44
-0.26278991 -0.05474570 0.51668584 40 41 45
-0.26209664 -0.05478746 0.51707995 39 40 44
-0.26120290 -0.05478746 0.51707995 39 40 47
-0.26030916 -0.05478746 0.51707995 44 45 51
-0.25961348 -0.05482928 0.51747471 46 46 55
-0.25871906 -0.05482928 0.51747471 38 38 47
-0.25782463 -0.05482928 0.51747471 22 21 30
-0.25693023 -0.05482928 0.51747471 117 116 124
-0.25603580 -0.05482928 0.51747471 162 162 167
-0.25494680 -0.05478746 0.51707995 155 157 160
-0.25405306 -0.05478746 0.51707995 151 155 154
-0.25315931 -0.05478746 0.51707995 151 156 154
-0.25226560 -0.05478746 0.51707995 150 156 154
-0.25118026 -0.05474570 0.51668584 149 155 153
-0.25066933 -0.05482928 0.51747471 150 156 154
-0.24977493 -0.05482928 0.51747471 151 157 155
-0.24945177 -0.05495514 0.51866245 151 157 155
-0.24836528 -0.05491312 0.51826596 152 157 156
-0.70595521 -0.17020465 1.60637879 38 37 44
-0.70821345 -0.17142330 1.61788034 36 35 42
-0.70373750 -0.17101516 1.61402822 36 35 41
-0.70262069 -0.17142330 1.61788034 35 36 40
-0.69982427 -0.17142330 1.61788034 36 35 41
-0.69536835 -0.17101516 1.61402822 36 35 42
-0.69257861 -0.17101516 1.61402822 33 32 39
-0.69143516 -0.17142330 1.61788034 40 39 46
-0.68863881 -0.17142330 1.61788034 45 40 50
-0.68420947 -0.17101516 1.61402822 53 48 58
-0.68024969 -0.17142330 1.61788034 75 72 79
-0.67305058 -0.17101516 1.61402822 69 66 85
0.55447316 -0.15682612 1.48011315 37 37 42
0.55703145 -0.15682612 1.48011315 38 37 42
0.55594808 -0.15580556 1.47048128 38 37 42
0.55487877 -0.15479819 1.46097374 36 36 40
0.55278111 -0.15282205 1.44232309 37 37 41
0.55645800 -0.15314789 1.44539833 37 37 41
0.56135005 -0.15380378 1.45158851 38 38 42
0.56025994 -0.15282205 1.44232309 38 38 42
0.56275284 -0.15282205 1.44232309 37 37 41
0.56285065 -0.15217450 1.43621159 36 36 39
0.56653333 -0.15249759 1.43926084 35 35 37
0.56541961 -0.15153241 1.43015158 37 37 39
-0.38742846 -0.05545893 0.53209722 46 52 68
-0.38320014 -0.05498419 0.52754229 46 50 76
-0.38080660 -0.05477107 0.52549756 47 51 79
-0.37989831 -0.05477107 0.52549756 48 52 79
-0.38016886 -0.05494143 0.52713209 47 51 79
-0.37925774 -0.05494143 0.52713209 46 50 77
-0.37746608 -0.05481356 0.52590525 45 49 77
-0.37655711 -0.05481356 0.52590525 49 52 80
-0.37535691 -0.05477107 0.52549756 51 56 80
-0.80133981 -0.12707676 1.21922994 115 115 117
-0.79923248 -0.12707676 1.21922994 155 155 155
-0.79856139 -0.12730573 1.22142673 155 155 154
-0.79501784 -0.12707676 1.21922994 157 157 155
-0.79148692 -0.12684862 1.21704102 157 157 155
-0.78938335 -0.12684862 1.21704102 154 157 154
-0.78727984 -0.12684862 1.21704102 152 156 153
-0.78658843 -0.12707676 1.21922994 152 156 153
-0.78027099 -0.12639478 1.21268666 153 156 153
-0.78096914 -0.12684862 1.21704102 152 157 155
-0.76783741 -0.12505254 1.19980860 152 157 155
-0.76441067 -0.12483159 1.19768882 152 156 155
-0.73107564 -0.12036573 1.15484130 149 152 151
-0.72414505 -0.11955107 1.14702511 150 153 152
-0.72216254 -0.11955107 1.14702511 150 153 152
-0.71654272 -0.11894727 1.14123201 151 154 153
-0.71698427 -0.11934913 1.14508760 152 153 153
-0.71379936 -0.11914786 1.14315653 151 152 152
-0.71182346 -0.11914786 1.14315653 149 149 150
-0.70984763 -0.11914786 1.14315653 146 147 148
-0.70787179 -0.11914786 1.14315653 147 151 150
-0.70708829 -0.11934913 1.14508760 147 155 151
-0.70510912 -0.11934913 1.14508760 114 122 118
-0.70312995 -0.11934913 1.14508760 33 39 35
-0.69996834 -0.11914786 1.14315653 27 33 30
-0.69799250 -0.11914786 1.14315653 46 49 53
-0.69601667 -0.11914786 1.14315653 41 44 48
-0.69404078 -0.11914786 1.14315653 40 41 47
-0.69089985 -0.11894727 1.14123201 39 40 46
-0.68776947 -0.11874737 1.13931406 39 39 45
-0.68962622 -0.11975370 1.14896917 40 39 45
-0.68071777 -0.11854813 1.13740242 41 40 47
-0.68333805 -0.11934913 1.14508760 40 39 46
-0.68168265 -0.11975370 1.14896917 39 38 46
-0.68200862 -0.12016103 1.15287733 39 38 47
-0.67428225 -0.11914786 1.14315653 40 39 48
-0.67248040 -0.12662129 1.21485996 155 155 157
-0.67158419 -0.12684862 1.21704102 156 157 159
-0.66352439 -0.12572007 1.20621324 156 157 159
-0.26357156 -0.05364820 0.51472425 39 39 45
-0.26348215 -0.05381164 0.51629233 39 39 46
-0.26258978 -0.05381164 0.51629233 39 39 46
-0.26189688 -0.05385265 0.51668584 38 38 45
-0.26100382 -0.05385265 0.51668584 41 41 50
-0.26011077 -0.05385265 0.51668584 43 43 52
-0.25921771 -0.05385265 0.51668584 44 44 53
-0.25852171 -0.05389373 0.51707995 46 46 54
-0.25762799 -0.05389373 0.51707995 11 10 18
-0.25673425 -0.05389373 0.51707995 120 120 127
-0.25584051 -0.05389373 0.51707995 161 162 162
-0.25475246 -0.05385265 0.51668584 153 154 153
-0.25385943 -0.05385265 0.51668584 152 153 151
-0.25296637 -0.05385265 0.51668584 152 154 152
-0.25207332 -0.05385265 0.51668584 151 156 153
-0.25098896 -0.05381164 0.51629233 150 156 152
-0.25047815 -0.05389373 0.51707995 150 156 152
-0.24977493 -0.05393487 0.51747471 151 156 154
-0.24945177 -0.05405867 0.51866245 153 157 156
-0.24817555 -0.05397607 0.51787001 154 158 157
-0.70821345 -0.16862693 1.61788034 38 38 42
-0.70373750 -0.16822544 1.61402822 38 38 42
-0.70262069 -0.16862693 1.61788034 36 37 41
-0.69815803 -0.16822544 1.61402822 36 36 41
-0.69536835 -0.16822544 1.61402822 37 36 41
-0.69257861 -0.16822544 1.61402822 33 32 40
-0.69143516 -0.16862693 1.61788034 39 38 47
-0.68863881 -0.16862693 1.61788034 47 42 51
-0.67305058 -0.16822544 1.61402822 65 65 84
0.55447316 -0.15426786 1.48011315 37 37 41
0.55581784 -0.15393177 1.47688854 38 38 42
0.55594808 -0.15326396 1.47048128 36 36 41
0.55487877 -0.15227303 1.46097374 36 36 41
0.55263984 -0.15097155 1.44848680 36 36 41
0.55514342 -0.15097155 1.44848680 36 36 41
0.56004035 -0.15161949 1.45470357 37 36 41
0.56497949 -0.15227303 1.46097374 38 38 42
0.56145447 -0.15064964 1.44539833 38 38 42
0.56395274 -0.15064964 1.44539833 36 36 40
0.56285065 -0.14969212 1.43621159 36 36 40
0.56653333 -0.15000995 1.43926084 37 37 40
0.56661499 -0.14937565 1.43317509 39 39 41
-0.38773280 -0.05458209 0.53251517 46 54 61
-0.38379750 -0.05415666 0.52836466 46 53 67
-0.38080660 -0.05386279 0.52549756 46 52 69
-0.37989831 -0.05386279 0.52549756 46 51 69
-0.38105780 -0.05415666 0.52836466 46 49 70
-0.37955290 -0.05407238 0.52754229 48 51 71
-0.37775916 -0.05394643 0.52631354 48 52 71
-0.37684947 -0.05394643 0.52631354 50 54 73
-0.37564811 -0.05390458 0.52590525 54 59 73
-0.80344719 -0.12496943 1.21922994 41 39 46
-0.80133981 -0.12496943 1.21922994 108 106 110
-0.79923248 -0.12496943 1.21922994 159 158 158
-0.79712516 -0.12496943 1.21922994 155 155 154
-0.79359049 -0.12474506 1.21704102 159 160 156
-0.79148692 -0.12474506 1.21704102 157 158 154
-0.78938335 -0.12474506 1.21704102 154 160 156
-0.78727984 -0.12474506 1.21704102 151 157 153
-0.78658843 -0.12496943 1.21922994 151 157 153
-0.78027099 -0.12429875 1.21268666 151 157 153
-0.78096914 -0.12474506 1.21704102 151 157 154
-0.76783741 -0.12297876 1.19980860 150 156 154
-0.76441067 -0.12276149 1.19768882 149 155 153
-0.72983235 -0.11816837 1.15287733 150 151 149
-0.72292185 -0.11736993 1.14508760 151 152 150
-0.71972692 -0.11717201 1.14315653 152 153 151
-0.71533841 -0.11677815 1.13931406 152 153 151
-0.71577519 -0.11717201 1.14315653 150 153 152
-0.71259767 -0.11697475 1.14123201 149 152 151
-0.71062511 -0.11697475 1.14123201 147 150 150
-0.70865262 -0.11697475 1.14123201 146 147 149
-0.70668006 -0.11697475 1.14123201 147 150 152
-0.70470756 -0.11697475 1.14123201 149 158 159
-0.70392007 -0.11717201 1.14315653 121 130 130
-0.70076251 -0.11697475 1.14123201 23 29 28
-0.69878995 -0.11697475 1.14123201 31 37 37
-0.69564629 -0.11677815 1.13931406 45 50 51
-0.69484490 -0.11697475 1.14123201 42 47 48
-0.69170791 -0.11677815 1.13931406 39 45 45
-0.68973869 -0.11677815 1.13931406 38 44 44
-0.68661547 -0.11658221 1.13740242 37 42 43
-0.68845934 -0.11756853 1.14702511 37 40 43
-0.68071777 -0.11658221 1.13740242 37 41 44
-0.68218565 -0.11717201 1.14315653 37 41 44
-0.68168265 -0.11776780 1.14896917 37 39 44
-0.68085068 -0.11796775 1.15091991 38 38 45
-0.67314708 -0.11697475 1.14123201 39 39 46
-0.67127740 -0.12429875 1.21268666 151 155 156
-0.67158419 -0.12474506 1.21704102 151 155 156
-0.66234583 -0.12341563 1.20407081 154 157 158
-0.26357156 -0.05275854 0.51472425 38 38 45
-0.26328161 -0.05287900 0.51589942 38 38 45
-0.26258978 -0.05291927 0.51629233 39 39 47
-0.26169741 -0.05291927 0.51629233 39 39 48
-0.26080504 -0.05291927 0.51629233 41 41 50
-0.26011077 -0.05295961 0.51668584 43 43 52
-0.25921771 -0.05295961 0.51668584 44 44 53
-0.25832465 -0.05295961 0.51668584 49 49 58
-0.25743163 -0.05295961 0.51668584 2 2 9
-0.25653857 -0.05295961 0.51668584 124 124 133
-0.25564551 -0.05295961 0.51668584 166 167 165
-0.25455844 -0.05291927 0.51629233 151 152 150
-0.25385943 -0.05295961 0.51668584 153 154 152
-0.25296637 -0.05295961 0.51668584 152 153 151
-0.25188133 -0.05291927 0.51629233 153 154 152
-0.25098896 -0.05291927 0.51629233 153 155 153
-0.25028723 -0.05295961 0.51668584 151 155 152
-0.24958441 -0.05300000 0.51707995 152 156 153
-0.70206589 -0.16504276 1.61019444 38 38 44
-0.70094776 -0.16543572 1.61402822 37 37 43
-0.69815803 -0.16543572 1.61402822 37 37 43
-0.69536835 -0.16543572 1.61402822 38 37 44
-0.69257861 -0.16543572 1.61402822 36 34 42
-0.68978888 -0.16543572 1.61402822 38 37 46
0.55581784 -0.15137909 1.47688854 36 35 42
0.55594808 -0.15072234 1.47048128 36 35 42
0.55368549 -0.14942580 1.45783186 36 35 42
0.55263984 -0.14846796 1.44848680 37 36 43
0.55514342 -0.14846796 1.44848680 38 37 44
0.56245428 -0.14974785 1.46097374 38 38 43
0.56497949 -0.14974785 1.46097374 36 36 40
0.56145447 -0.14815138 1.44539833 36 36 40
0.56275284 -0.14783618 1.44232309 36 36 40
0.56166071 -0.14689852 1.43317509 37 37 41
0.56653333 -0.14752230 1.43926084 38 38 42
0.56661499 -0.14689852 1.43317509 38 38 42
-0.38409686 -0.05328496 0.52877676 46 53 67
-0.38080660 -0.05295451 0.52549756 46 53 68
-0.37989831 -0.05295451 0.52549756 45 50 66
-0.38224953 -0.05340995 0.53001708 44 46 63
-0.37984851 -0.05320196 0.52795315 48 50 67
-0.37746608 -0.05299559 0.52590525 50 53 67
-0.37714228 -0.05307795 0.52672249 51 54 68
-0.37564811 -0.05299559 0.52590525 54 58 68
-0.80344719 -0.12286209 1.21922994 39 39 42
-0.80133981 -0.12286209 1.21922994 94 93 95
-0.79923248 -0.12286209 1.21922994 163 162 162
-0.79712516 -0.12286209 1.21922994 156 156 155
-0.79359049 -0.12264151 1.21704102 151 152 150
-0.79148692 -0.12264151 1.21704102 153 155 153
-0.78938335 -0.12264151 1.21704102 153 157 153
-0.78586894 -0.12242172 1.21485996 154 158 153
-0.78658843 -0.12286209 1.21922994 152 158 152
-0.78166938 -0.12242172 1.21485996 151 157 151
-0.78096914 -0.12264151 1.21704102 153 160 156
-0.76783741 -0.12090499 1.19980860 154 163 160
-0.76576364 -0.12090499 1.19980860 147 156 153
-0.72983235 -0.11617571 1.15287733 148 155 153
-0.72292185 -0.11539074 1.14508760 148 154 152
-0.71851522 -0.11500222 1.14123201 148 154 152
-0.71533841 -0.11480894 1.13931406 148 154 152
-0.71457016 -0.11500222 1.14123201 148 153 153
-0.71259767 -0.11500222 1.14123201 147 151 152
-0.71062511 -0.11500222 1.14123201 145 149 149
-0.70865262 -0.11500222 1.14123201 144 148 149
-0.70668006 -0.11500222 1.14123201 145 149 150
-0.70470756 -0.11500222 1.14123201 155 162 163
-0.70273501 -0.11500222 1.14123201 130 138 139
-0.70076251 -0.11500222 1.14123201 33 38 39
-0.69761550 -0.11480894 1.13931406 32 37 37
-0.69564629 -0.11480894 1.13931406 44 49 49
-0.69367713 -0.11480894 1.13931406 43 48 49
-0.69170791 -0.11480894 1.13931406 40 45 46
-0.68973869 -0.11480894 1.13931406 40 44 45
-0.68661547 -0.11461631 1.13740242 40 43 45
-0.68580025 -0.11480894 1.13931406 40 41 45
-0.68845934 -0.11558599 1.14702511 40 41 45
-0.67957753 -0.11442433 1.13549721 40 41 45
-0.68218565 -0.11519615 1.14315653 40 41 45
-0.68168265 -0.11578190 1.14896917 39 39 46
-0.68200862 -0.11617571 1.15287733 39 39 47
-0.67428225 -0.11519615 1.14315653 39 39 47
-0.67007869 -0.12198450 1.21052110 154 158 159
-0.66918141 -0.12220272 1.21268666 152 156 157
-0.26357156 -0.05186889 0.51472425 38 38 47
-0.26328161 -0.05198731 0.51589942 38 38 47
-0.26238993 -0.05198731 0.51589942 39 38 47
-0.26169741 -0.05202690 0.51629233 39 39 48
-0.26080504 -0.05202690 0.51629233 41 41 50
-0.25991267 -0.05202690 0.51629233 43 43 52
-0.25902030 -0.05202690 0.51629233 44 44 53
-0.25832465 -0.05206655 0.51668584 46 45 54
-0.25743163 -0.05206655 0.51668584 14 12 21
-0.25653857 -0.05206655 0.51668584 121 119 128
-0.25545081 -0.05202690 0.51629233 166 165 162
-0.25455844 -0.05202690 0.51629233 152 151 147
-0.25366607 -0.05202690 0.51629233 154 154 150
-0.25277370 -0.05202690 0.51629233 153 153 149
-0.25188133 -0.05202690 0.51629233 153 153 151
-0.25098896 -0.05202690 0.51629233 154 155 153
-0.25028723 -0.05206655 0.51668584 155 156 154
-0.24958441 -0.05210627 0.51707995 156 157 156
-0.64911938 -0.14321032 1.42115688 20 26 30
-0.64802152 -0.14351118 1.42414248 36 40 47
-0.64556003 -0.14351118 1.42414248 37 41 48
0.55594808 -0.14818074 1.47048128 36 36 40
0.55263984 -0.14596435 1.44848680 36 35 42
0.55884111 -0.14627692 1.45158851 36 36 41
0.56255466 -0.14659081 1.45470357 37 37 41
0.56025994 -0.14534323 1.44232309 36 36 40
0.56275284 -0.14534323 1.44232309 36 36 40
0.56285065 -0.14472738 1.43621159 37 36 42
0.56653333 -0.14503466 1.43926084 38 38 43
0.56661499 -0.14442140 1.43317509 38 38 42
-0.38409686 -0.05237101 0.52877676 46 52 71
-0.38080660 -0.05204623 0.52549756 46 52 70
-0.37989831 -0.05204623 0.52549756 46 51 68
-0.38195089 -0.05245284 0.52960300 46 48 58
-0.37955290 -0.05224875 0.52754229 48 51 61
-0.37746608 -0.05208661 0.52590525 50 53 63
-0.37684947 -0.05212705 0.52631354 51 54 64
-0.37564811 -0.05208661 0.52590525 52 55 64
-0.80555451 -0.12075475 1.21922994 38 39 42
-0.80344719 -0.12075475 1.21922994 37 38 38
-0.80133981 -0.12075475 1.21922994 82 83 83
-0.79923248 -0.12075475 1.21922994 166 167 166
-0.79712516 -0.12075475 1.21922994 153 154 153
-0.79359049 -0.12053795 1.21704102 147 150 147
-0.79148692 -0.12053795 1.21704102 150 153 150
-0.78938335 -0.12053795 1.21704102 151 155 151
-0.78586894 -0.12032194 1.21485996 152 157 152
-0.78658843 -0.12075475 1.21922994 152 157 152
-0.78166938 -0.12032194 1.21485996 150 156 151
-0.78096914 -0.12053795 1.21704102 151 157 153
-0.76919883 -0.11904191 1.20193589 157 164 162
-0.76576364 -0.11883122 1.19980860 148 155 153
-0.72983235 -0.11418306 1.15287733 148 156 153
-0.72292185 -0.11341155 1.14508760 148 156 154
-0.71972692 -0.11322030 1.14315653 149 154 153
-0.71533841 -0.11283973 1.13931406 149 153 152
-0.71577519 -0.11322030 1.14315653 150 154 153
-0.71259767 -0.11302970 1.14123201 151 155 154
-0.71062511 -0.11302970 1.14123201 148 152 152
-0.70865262 -0.11302970 1.14123201 147 150 150
-0.70668006 -0.11302970 1.14123201 144 147 147
-0.70589590 -0.11322030 1.14315653 163 164 165
-0.70392007 -0.11322030 1.14315653 128 129 130
-0.70076251 -0.11302970 1.14123201 46 47 49
-0.69878995 -0.11302970 1.14123201 35 36 38
-0.69681746 -0.11302970 1.14123201 44 45 50
-0.69484490 -0.11302970 1.14123201 45 45 51
-0.69170791 -0.11283973 1.13931406 43 44 49
-0.68973869 -0.11283973 1.13931406 43 43 49
-0.67957753 -0.11246171 1.13549721 41 42 46
-0.68218565 -0.11322030 1.14315653 40 41 45
-0.68020982 -0.11322030 1.14315653 39 40 44
-0.68168265 -0.11379600 1.14896917 39 40 44
-0.68200862 -0.11418306 1.15287733 39 40 45
-0.67314708 -0.11302970 1.14123201 39 39 44
-0.66888428 -0.11967850 1.20836341 154 159 157
-0.26357156 -0.05097922 0.51472425 39 38 47
-0.26328161 -0.05109562 0.51589942 39 38 47
-0.26238993 -0.05109562 0.51589942 40 39 48
-0.26169741 -0.05113453 0.51629233 41 40 49
-0.26080504 -0.05113453 0.51629233 41 40 49
-0.25991267 -0.05113453 0.51629233 43 42 51
-0.25902030 -0.05113453 0.51629233 45 44 53
-0.25832465 -0.05117350 0.51668584 42 40 49
-0.25743163 -0.05117350 0.51668584 24 21 30
-0.25634319 -0.05113453 0.51629233 115 112 122
-0.25545081 -0.05113453 0.51629233 160 159 158
-0.25455844 -0.05113453 0.51629233 154 153 151
-0.25366607 -0.05113453 0.51629233 156 155 152
-0.25277370 -0.05113453 0.51629233 154 153 151
-0.25188133 -0.05113453 0.51629233 153 153 151
-0.25098896 -0.05113453 0.51629233 154 154 152
-0.25028723 -0.05117350 0.51668584 153 156 153
-0.24958441 -0.05121254 0.51707995 151 155 152
-0.64911938 -0.14075395 1.42115688 21 27 28
-0.64666301 -0.14075395 1.42115688 38 44 46
-0.64420664 -0.14075395 1.42115688 38 42 49
-0.63438123 -0.14075395 1.42115688 34 34 43
0.55474472 -0.14532389 1.46729839 38 37 44
0.56015062 -0.14346077 1.44848680 38 38 42
0.55907041 -0.14254701 1.43926084 38 38 42
0.56036830 -0.14224499 1.43621159 38 38 42
0.56166071 -0.14194427 1.43317509 38 38 42
0.56533307 -0.14224499 1.43621159 39 39 43
-0.38379750 -0.05141696 0.52836466 46 52 70
-0.38051164 -0.05109834 0.52509052 44 50 68
-0.37960404 -0.05109834 0.52509052 40 46 63
-0.38076103 -0.05137691 0.52795315 41 46 56
-0.37896308 -0.05125716 0.52672249 42 46 55
-0.37717348 -0.05113795 0.52549756 47 50 61
-0.37655711 -0.05117762 0.52590525 52 54 66
-0.37535691 -0.05113795 0.52549756 53 56 67
-0.37444863 -0.05113795 0.52549756 52 55 63
-0.37292117 -0.05117762 0.52590525 67 69 77
-0.80200469 -0.11843439 1.21704102 42 42 46
-0.79990119 -0.11843439 1.21704102 80 80 82
-0.79636788 -0.11822215 1.21485996 170 171 166
-0.79569405 -0.11843439 1.21704102 154 156 151
-0.79216826 -0.11822215 1.21485996 151 152 148
-0.79006851 -0.11822215 1.21485996 151 152 148
-0.78796870 -0.11822215 1.21485996 151 153 149
-0.78446311 -0.11801066 1.21268666 152 154 150
-0.78517628 -0.11843439 1.21704102 152 155 151
-0.78027099 -0.11801066 1.21268666 150 154 150
-0.77956957 -0.11822215 1.21485996 149 153 149
-0.72983235 -0.11219040 1.15287733 150 155 153
-0.72170275 -0.11124445 1.14315653 151 155 154
-0.71851522 -0.11105717 1.14123201 148 152 151
-0.71533841 -0.11087052 1.13931406 147 149 148
-0.71577519 -0.11124445 1.14315653 152 154 153
-0.71259767 -0.11105717 1.14123201 151 153 153
-0.71062511 -0.11105717 1.14123201 150 152 152
-0.70865262 -0.11105717 1.14123201 150 151 151
-0.70668006 -0.11105717 1.14123201 148 149 149
-0.70470756 -0.11105717 1.14123201 163 164 163
-0.70392007 -0.11124445 1.14315653 127 128 127
-0.70076251 -0.11105717 1.14123201 49 50 55
-0.69878995 -0.11105717 1.14123201 31 31 41
-0.69681746 -0.11105717 1.14123201 45 45 56
-0.69484490 -0.11105717 1.14123201 43 43 55
-0.69170791 -0.11087052 1.13931406 43 43 53
-0.68973869 -0.11087052 1.13931406 43 43 50
-0.68776947 -0.11087052 1.13931406 43 43 50
-0.68695480 -0.11105717 1.14123201 42 43 48
-0.68729639 -0.11143236 1.14508760 42 43 48
-0.68071777 -0.11068449 1.13740242 40 41 45
-0.68218565 -0.11124445 1.14315653 40 41 45
-0.68135881 -0.11143236 1.14508760 40 41 45
-0.68168265 -0.11181010 1.14896917 40 41 45
-0.68200862 -0.11219040 1.15287733 40 40 46
-0.67428225 -0.11124445 1.14315653 40 40 47
-0.67007869 -0.11779992 1.21052110 151 157 155
-0.66918141 -0.11801066 1.21268666 151 157 155
-0.26357156 -0.05008956 0.51472425 41 41 48
-0.26328161 -0.05020393 0.51589942 38 38 45
-0.26238993 -0.05020393 0.51589942 39 39 47
-0.26169741 -0.05024216 0.51629233 40 40 47
-0.26080504 -0.05024216 0.51629233 40 40 48
-0.25991267 -0.05024216 0.51629233 40 40 49
-0.25902030 -0.05024216 0.51629233 43 43 53
-0.25812793 -0.05024216 0.51629233 42 41 52
-0.25743163 -0.05028046 0.51668584 30 29 38
-0.25634319 -0.05024216 0.51629233 106 104 113
-0.25545081 -0.05024216 0.51629233 158 156 158
-0.25455844 -0.05024216 0.51629233 155 154 152
-0.25366607 -0.05024216 0.51629233 155 154 152
-0.25277370 -0.05024216 0.51629233 155 154 152
-0.25188133 -0.05024216 0.51629233 152 153 151
-0.25098896 -0.05024216 0.51629233 152 153 151
-0.25028723 -0.05028046 0.51668584 152 156 155
-0.24958441 -0.05031881 0.51707995 152 156 155
-0.65021259 -0.13800828 1.41818380 89 94 94
-0.64776134 -0.13800828 1.41818380 17 20 21
-0.64531016 -0.13800828 1.41818380 40 40 43
-0.64285892 -0.13800828 1.41818380 40 40 45
-0.63795650 -0.13800828 1.41818380 39 38 44
-0.63550532 -0.13800828 1.41818380 38 38 44
-0.63305408 -0.13800828 1.41818380 33 33 39
-0.68651974 -0.15632218 1.60637879 34 33 43
0.55474472 -0.14278778 1.46729839 39 39 43
0.56015062 -0.14095718 1.44848680 35 35 39
0.55907041 -0.14005935 1.43926084 38 38 41
0.56036830 -0.13976263 1.43621159 39 39 42
0.56166071 -0.13946714 1.43317509 40 40 44
-0.38379750 -0.05050372 0.52836466 47 53 67
-0.38080660 -0.05022967 0.52549756 48 54 70
-0.37960404 -0.05019077 0.52509052 49 55 71
-0.38046470 -0.05042512 0.52754229 54 58 71
-0.37866884 -0.05030767 0.52631354 55 59 71
-0.37717348 -0.05022967 0.52549756 55 58 69
-0.37655711 -0.05026864 0.52590525 55 58 68
-0.37564811 -0.05026864 0.52590525 57 60 70
-0.37444863 -0.05022967 0.52549756 58 58 69
-0.37412038 -0.05030767 0.52631354 61 60 71
-0.37292117 -0.05026864 0.52590525 69 68 77
-0.37172380 -0.05022967 0.52549756 81 80 87
-0.80056745 -0.11612236 1.21485996 47 46 56
-0.79846764 -0.11612236 1.21485996 73 73 81
-0.79636788 -0.11612236 1.21485996 165 170 161
-0.79426807 -0.11612236 1.21485996 155 159 150
-0.79216826 -0.11612236 1.21485996 151 155 146
-0.79006851 -0.11612236 1.21485996 150 154 145
-0.78796870 -0.11612236 1.21485996 149 152 144
-0.78446311 -0.11591463 1.21268666 150 152 145
-0.78517628 -0.11633084 1.21704102 153 155 149
-0.78027099 -0.11591463 1.21268666 153 154 150
-0.77956957 -0.11612236 1.21485996 152 153 149
-0.72048777 -0.10908464 1.14123201 150 154 153
-0.71730763 -0.10890131 1.13931406 147 150 149
-0.71413821 -0.10871859 1.13740242 144 145 145
-0.71457016 -0.10908464 1.14123201 151 152 152
-0.71259767 -0.10908464 1.14123201 150 151 151
-0.71062511 -0.10908464 1.14123201 150 151 151
-0.70865262 -0.10908464 1.14123201 150 151 150
-0.70668006 -0.10908464 1.14123201 147 148 146
-0.70470756 -0.10908464 1.14123201 160 161 159
-0.70273501 -0.10908464 1.14123201 130 131 129
-0.70076251 -0.10908464 1.14123201 56 56 60
-0.69761550 -0.10890131 1.13931406 25 24 34
-0.69564629 -0.10890131 1.13931406 46 46 56
-0.69367713 -0.10890131 1.13931406 44 44 53
-0.69170791 -0.10890131 1.13931406 44 44 53
-0.68858141 -0.10871859 1.13740242 43 43 52
-0.68661547 -0.10871859 1.13740242 43 43 52
-0.68580025 -0.10890131 1.13931406 43 43 51
-0.68498230 -0.10908464 1.14123201 43 43 51
-0.67957753 -0.10853647 1.13549721 42 42 49
-0.68103725 -0.10908464 1.14123201 42 42 49
-0.68168265 -0.10982420 1.14896917 42 42 49
-0.68200862 -0.11019775 1.15287733 42 42 49
-0.67428225 -0.10926860 1.14315653 42 42 49
-0.66888428 -0.11550138 1.20836341 154 158 157
-0.66918141 -0.11591463 1.21268666 152 156 155
-0.26357156 -0.04919991 0.51472425 39 39 46
-0.26308140 -0.04927474 0.51550710 39 40 44
-0.26238993 -0.04931223 0.51589942 39 40 45
-0.26169741 -0.04934979 0.51629233 39 39 46
-0.26080504 -0.04934979 0.51629233 40 40 48
-0.25991267 -0.04934979 0.51629233 42 42 51
-0.25902030 -0.04934979 0.51629233 45 45 54
-0.25812793 -0.04934979 0.51629233 43 43 54
-0.25723556 -0.04934979 0.51629233 34 32 42
-0.25634319 -0.04934979 0.51629233 95 92 101
-0.25545081 -0.04934979 0.51629233 159 157 162
-0.25455844 -0.04934979 0.51629233 157 155 157
-0.25366607 -0.04934979 0.51629233 154 153 153
-0.25277370 -0.04934979 0.51629233 157 157 156
-0.25188133 -0.04934979 0.51629233 152 153 152
-0.25098896 -0.04934979 0.51629233 153 154 153
-0.25028723 -0.04938741 0.51668584 154 155 154
-0.24958441 -0.04942508 0.51707995 154 155 154
-0.24945177 -0.04957634 0.51866245 153 155 154
-0.65648842 -0.13584125 1.42115688 147 152 151
-0.65403205 -0.13584125 1.42115688 156 160 159
-0.65157574 -0.13584125 1.42115688 88 88 88
-0.64911938 -0.13584125 1.42115688 17 17 18
-0.64666301 -0.13584125 1.42115688 41 41 44
-0.64285892 -0.13555707 1.41818380 41 41 44
-0.64175028 -0.13584125 1.42115688 40 40 44
-0.63929397 -0.13584125 1.42115688 40 40 44
-0.63683760 -0.13584125 1.42115688 39 39 43
-0.63438123 -0.13584125 1.42115688 37 37 41
-0.69371665 -0.15391040 1.61019444 36 35 44
-0.68815047 -0.15391040 1.61019444 36 35 44
0.56135005 -0.13875006 1.45158851 36 36 38
0.55907041 -0.13757171 1.43926084 38 38 40
-0.38379750 -0.04959049 0.52836466 45 52 67
-0.38080660 -0.04932139 0.52549756 45 53 68
-0.37989831 -0.04932139 0.52549756 47 54 69
-0.38046470 -0.04951330 0.52754229 49 55 68
-0.37896308 -0.04943636 0.52672249 51 55 67
-0.37717348 -0.04932139 0.52549756 50 54 65
-0.37655711 -0.04935966 0.52590525 50 51 61
-0.37564811 -0.04935966 0.52590525 53 54 64
-0.37473914 -0.04935966 0.52590525 58 57 68
-0.37441108 -0.04943636 0.52672249 61 60 71
-0.37292117 -0.04935966 0.52590525 68 67 76
-0.37201217 -0.04935966 0.52590525 81 79 86
-0.37081552 -0.04932139 0.52549756 92 90 96
-0.80056745 -0.11402258 1.21485996 31 28 45
-0.79703927 -0.11381860 1.21268666 74 72 89
-0.79494321 -0.11381860 1.21268666 154 158 153
-0.79284722 -0.11381860 1.21268666 157 162 154
-0.79075116 -0.11381860 1.21268666 151 156 148
-0.78865516 -0.11381860 1.21268666 150 155 147
-0.78655910 -0.11381860 1.21268666 147 152 146
-0.78446311 -0.11381860 1.21268666 144 148 147
-0.78517628 -0.11422728 1.21704102 148 152 151
-0.78027099 -0.11381860 1.21268666 150 154 153
-0.78096914 -0.11422728 1.21704102 150 154 153
-0.71927685 -0.10693210 1.13931406 150 154 153
-0.71490461 -0.10657386 1.13549721 151 155 154
-0.71294200 -0.10657386 1.13549721 156 157 157
-0.71336925 -0.10693210 1.13931406 154 155 155
-0.71140003 -0.10693210 1.13931406 150 151 151
-0.70943081 -0.10693210 1.13931406 150 151 151
-0.70746160 -0.10693210 1.13931406 150 151 150
-0.70430869 -0.10675268 1.13740242 147 148 146
-0.70234275 -0.10675268 1.13740242 158 159 158
-0.70155394 -0.10693210 1.13931406 136 138 138
-0.69841093 -0.10675268 1.13740242 63 65 68
-0.69644505 -0.10675268 1.13740242 20 20 29
-0.69331586 -0.10657386 1.13549721 45 46 54
-0.69251323 -0.10675268 1.13740242 44 44 53
-0.68939060 -0.10657386 1.13549721 43 43 52
-0.67844111 -0.10639565 1.13359845 42 42 51
-0.67875189 -0.10675268 1.13740242 42 42 51
-0.68052918 -0.10765583 1.14702511 42 42 51
-0.68085068 -0.10802139 1.15091991 42 42 51
-0.67428225 -0.10729274 1.14315653 42 42 51
-0.66888428 -0.11341283 1.20836341 153 157 158
-0.66918141 -0.11381860 1.21268666 152 156 157
-0.26584429 -0.04744564 0.50551218 43 42 54
-0.26497054 -0.04744564 0.50551218 43 42 53
-0.26409680 -0.04744564 0.50551218 42 42 52
-0.26341951 -0.04748104 0.50588942 41 41 50
-0.26293758 -0.04755202 0.50664562 41 40 49
-0.26328161 -0.04842054 0.51589942 40 39 46
-0.26238993 -0.04842054 0.51589942 39 39 46
-0.26169741 -0.04845742 0.51629233 39 39 48
-0.26080504 -0.04845742 0.51629233 40 40 49
-0.26011077 -0.04849436 0.51668584 42 42 51
-0.25902030 -0.04845742 0.51629233 45 45 54
-0.25832465 -0.04849436 0.51668584 47 45 55
-0.25743163 -0.04849436 0.51668584 38 34 44
-0.25634319 -0.04845742 0.51629233 87 82 92
-0.25545081 -0.04845742 0.51629233 162 157 166
-0.25455844 -0.04845742 0.51629233 160 155 163
-0.25366607 -0.04845742 0.51629233 154 152 156
-0.25277370 -0.04845742 0.51629233 155 154 156
-0.25188133 -0.04845742 0.51629233 153 153 155
-0.25098896 -0.04845742 0.51629233 155 156 157
-0.25028723 -0.04849436 0.51668584 154 155 157
-0.24977493 -0.04856839 0.51747471 154 155 156
-0.24945177 -0.04867987 0.51866245 152 156 156
-0.24817555 -0.04860550 0.51787001 152 156 156
-0.66246867 -0.13310584 1.41818380 152 154 155
-0.66140115 -0.13338490 1.42115688 151 152 154
-0.65894479 -0.13338490 1.42115688 153 154 156
-0.65648842 -0.13338490 1.42115688 144 148 147
-0.65403205 -0.13338490 1.42115688 161 165 164
-0.65157574 -0.13338490 1.42115688 79 79 83
-0.64911938 -0.13338490 1.42115688 14 14 18
-0.64666301 -0.13338490 1.42115688 41 41 45
-0.64420664 -0.13338490 1.42115688 41 41 45
-0.64175028 -0.13338490 1.42115688 40 40 44
-0.63929397 -0.13338490 1.42115688 41 40 43
-0.63683760 -0.13338490 1.42115688 42 41 43
-0.63438123 -0.13338490 1.42115688 42 41 45
-0.69649971 -0.15112731 1.61019444 36 35 42
-0.69371665 -0.15112731 1.61019444 36 36 42
-0.68815047 -0.15112731 1.61019444 38 37 46
-0.67305058 -0.15148713 1.61402822 63 63 71
-0.67026091 -0.15148713 1.61402822 60 61 76
-0.66747117 -0.15148713 1.61402822 58 60 75
-0.66626781 -0.15184867 1.61788034 58 59 76
-0.38349858 -0.04863934 0.52795315 46 52 67
-0.38080660 -0.04841311 0.52549756 47 53 64
-0.37960404 -0.04837561 0.52509052 47 53 64
-0.38016886 -0.04856370 0.52713209 47 54 63
-0.37866884 -0.04848829 0.52631354 48 55 62
-0.37717348 -0.04841311 0.52549756 49 55 62
-0.37626520 -0.04841311 0.52549756 48 52 58
-0.37564811 -0.04845067 0.52590525 51 55 61
-0.37473914 -0.04845067 0.52590525 56 57 66
-0.37412038 -0.04848829 0.52631354 59 59 69
-0.37292117 -0.04845067 0.52590525 66 65 75
-0.37172380 -0.04841311 0.52549756 82 81 90
-0.37081552 -0.04841311 0.52549756 103 102 111
-0.37019420 -0.04845067 0.52590525 90 90 90
-0.79352367 -0.11152306 1.21052110 147 149 151
-0.79143143 -0.11152306 1.21052110 158 162 156
-0.78933913 -0.11152306 1.21052110 148 153 146
-0.78515452 -0.11152306 1.21052110 149 154 148
-0.78376913 -0.11192279 1.21485996 146 150 148
-0.77887768 -0.11152306 1.21052110 147 151 149
-0.77956957 -0.11192279 1.21485996 149 153 151
-0.71807003 -0.10478677 1.13740242 151 155 154
-0.71174979 -0.10443632 1.13359845 153 154 154
-0.71336925 -0.10496289 1.13931406 151 152 153
-0.71140003 -0.10496289 1.13931406 151 152 152
-0.70824045 -0.10478677 1.13740242 149 151 150
-0.70627457 -0.10478677 1.13740242 148 150 148
-0.70430869 -0.10478677 1.13740242 150 152 150
-0.70116627 -0.10461125 1.13549721 155 162 160
-0.70037687 -0.10478677 1.13740242 136 149 145
-0.69724107 -0.10461125 1.13549721 68 79 77
-0.69527847 -0.10461125 1.13549721 15 21 23
-0.69215643 -0.10443632 1.13359845 45 50 53
-0.69135320 -0.10461125 1.13549721 44 46 53
-0.68823779 -0.10443632 1.13359845 42 44 51
-0.67844111 -0.10443632 1.13359845 40 41 50
-0.67875189 -0.10478677 1.13740242 40 42 51
-0.68052918 -0.10567329 1.14702511 41 43 51
-0.68085068 -0.10603211 1.15091991 42 43 51
-0.67428225 -0.10531688 1.14315653 43 43 52
-0.66888428 -0.11132427 1.20836341 153 158 159
-0.26584429 -0.04657190 0.50551218 44 44 49
-0.26497054 -0.04657190 0.50551218 44 43 50
-0.26409680 -0.04657190 0.50551218 43 42 50
-0.26322308 -0.04657190 0.50551218 42 41 49
-0.26293758 -0.04667632 0.50664562 42 41 49
-0.26308140 -0.04749271 0.51550710 41 40 47
-0.26238993 -0.04752886 0.51589942 41 40 47
-0.26169741 -0.04756505 0.51629233 41 40 49
-0.26080504 -0.04756505 0.51629233 42 42 51
-0.25991267 -0.04756505 0.51629233 44 43 52
-0.25902030 -0.04756505 0.51629233 45 44 53
-0.25812793 -0.04756505 0.51629233 47 46 55
-0.25723556 -0.04756505 0.51629233 44 42 52
-0.25634319 -0.04756505 0.51629233 81 76 86
-0.25545081 -0.04756505 0.51629233 161 158 165
-0.25455844 -0.04756505 0.51629233 158 157 158
-0.25366607 -0.04756505 0.51629233 155 154 154
-0.25277370 -0.04756505 0.51629233 154 154 155
-0.25188133 -0.04756505 0.51629233 153 153 155
-0.25079796 -0.04752886 0.51589942 152 153 155
-0.25028723 -0.04760131 0.51668584 151 155 156
-0.24958441 -0.04763762 0.51707995 150 156 156
-0.24926107 -0.04774688 0.51826596 150 156 156
-0.24798609 -0.04767398 0.51747471 150 156 156
-0.24652712 -0.04756505 0.51629233 150 156 156
-0.66246867 -0.13065463 1.41818380 153 154 156
-0.66001743 -0.13065463 1.41818380 153 154 156
-0.65894479 -0.13092855 1.42115688 153 155 157
-0.65648842 -0.13092855 1.42115688 150 153 153
-0.65403205 -0.13092855 1.42115688 160 164 163
-0.65157574 -0.13092855 1.42115688 75 76 81
-0.64911938 -0.13092855 1.42115688 6 6 11
-0.64666301 -0.13092855 1.42115688 43 42 49
-0.64420664 -0.13092855 1.42115688 40 39 46
-0.64175028 -0.13092855 1.42115688 39 38 45
-0.63929397 -0.13092855 1.42115688 39 39 44
-0.63683760 -0.13092855 1.42115688 40 40 44
-0.63438123 -0.13092855 1.42115688 38 38 42
-0.70373750 -0.14869742 1.61402822 37 37 41
-0.70094776 -0.14869742 1.61402822 38 38 43
-0.69815803 -0.14869742 1.61402822 38 37 43
-0.69536835 -0.14869742 1.61402822 38 38 43
-0.69257861 -0.14869742 1.61402822 39 39 43
-0.68978888 -0.14869742 1.61402822 39 39 45
-0.68699920 -0.14869742 1.61402822 33 32 38
-0.68420947 -0.14869742 1.61402822 41 41 46
-0.68304604 -0.14905231 1.61788034 79 78 84
-0.67863005 -0.14869742 1.61402822 75 74 81
-0.67745328 -0.14905231 1.61788034 63 64 70
-0.67465693 -0.14905231 1.61788034 63 65 71
-0.67186058 -0.14905231 1.61788034 62 65 73
-0.66906416 -0.14905231 1.61788034 61 64 73
-0.66626781 -0.14905231 1.61788034 59 61 72
-0.66505867 -0.14940889 1.62175083 57 61 71
-0.66225559 -0.14940889 1.62175083 55 62 70
-0.38320014 -0.04768968 0.52754229 46 51 62
-0.38051164 -0.04746804 0.52509052 47 52 59
-0.37931025 -0.04743129 0.52468407 48 53 59
-0.37957853 -0.04757860 0.52631354 48 53 59
-0.37837508 -0.04754169 0.52590525 49 54 59
-0.37688133 -0.04746804 0.52509052 51 56 61
-0.37597376 -0.04746804 0.52509052 51 56 61
-0.37535691 -0.04750483 0.52549756 53 58 63
-0.37444863 -0.04750483 0.52549756 55 58 65
-0.37383014 -0.04754169 0.52590525 58 61 70
-0.37263209 -0.04750483 0.52549756 67 70 78
-0.37172380 -0.04750483 0.52549756 80 83 91
-0.37052828 -0.04746804 0.52509052 96 100 107
-0.36990723 -0.04750483 0.52549756 93 94 96
-0.78793210 -0.10923571 1.20836341 146 152 150
-0.78444523 -0.10904134 1.20621324 148 154 151
-0.77472734 -0.10884766 1.20407081 145 150 150
-0.77540076 -0.10923571 1.20836341 148 152 153
-0.71217227 -0.10282086 1.13740242 151 152 153
-0.71020639 -0.10282086 1.13740242 149 152 151
-0.70312893 -0.10264863 1.13549721 145 153 145
-0.69999379 -0.10247698 1.13359845 151 160 153
-0.69920367 -0.10264863 1.13549721 142 153 148
-0.69607514 -0.10247698 1.13359845 72 83 79
-0.69411576 -0.10247698 1.13359845 7 18 18
-0.69100094 -0.10230590 1.13170588 44 55 55
-0.67730850 -0.10230590 1.13170588 41 41 50
-0.67648178 -0.10247698 1.13359845 41 41 50
-0.67565233 -0.10264863 1.13549721 42 42 51
-0.68052918 -0.10369075 1.14702511 43 43 52
-0.67969674 -0.10386650 1.14896917 44 44 53
-0.67314708 -0.10316706 1.14123201 43 43 52
-0.66888428 -0.10923571 1.20836341 153 159 159
-0.27458164 -0.04569816 0.50551218 153 154 156
-0.27370793 -0.04569816 0.50551218 153 154 155
-0.27263087 -0.04566411 0.50513548 152 153 155
-0.26739237 -0.04566411 0.50513548 47 47 51
-0.26651928 -0.04566411 0.50513548 45 45 49
-0.26564619 -0.04566411 0.50513548 45 44 48
-0.26477310 -0.04566411 0.50513548 44 43 48
-0.26390001 -0.04566411 0.50513548 43 42 46
-0.26322308 -0.04569816 0.50551218 41 40 45
-0.26274118 -0.04576642 0.50626725 43 42 46
-0.26308140 -0.04660170 0.51550710 43 42 49
-0.26219040 -0.04660170 0.51550710 41 40 47
-0.26149824 -0.04663716 0.51589942 41 40 47
-0.26060656 -0.04663716 0.51589942 44 43 50
-0.25991267 -0.04667268 0.51629233 44 43 50
-0.25902030 -0.04667268 0.51629233 45 44 51
-0.25812793 -0.04667268 0.51629233 48 47 53
-0.25723556 -0.04667268 0.51629233 39 38 45
-0.25614810 -0.04663716 0.51589942 73 74 78
-0.25525641 -0.04663716 0.51589942 160 161 164
-0.25436473 -0.04663716 0.51589942 155 156 156
-0.25347301 -0.04663716 0.51589942 153 154 154
-0.25258133 -0.04663716 0.51589942 154 155 155
-0.25168964 -0.04663716 0.51589942 153 155 154
-0.25079796 -0.04663716 0.51589942 153 154 154
-0.25009659 -0.04667268 0.51629233 151 155 155
-0.24958441 -0.04674388 0.51707995 150 156 156
-0.24926107 -0.04685109 0.51826596 150 155 156
-0.24779694 -0.04674388 0.51707995 150 156 156
-0.24652712 -0.04667268 0.51629233 152 158 158
-0.65648842 -0.12847219 1.42115688 151 155 154
-0.65403205 -0.12847219 1.42115688 160 164 162
-0.65157574 -0.12847219 1.42115688 77 78 82
-0.64911938 -0.12847219 1.42115688 17 17 23
-0.64666301 -0.12847219 1.42115688 44 44 51
-0.64420664 -0.12847219 1.42115688 39 39 46
-0.64175028 -0.12847219 1.42115688 39 39 46
-0.63929397 -0.12847219 1.42115688 39 39 45
-0.63683760 -0.12847219 1.42115688 37 38 42
-0.63571399 -0.12874208 1.42414248 35 36 40
-0.63458562 -0.12901312 1.42714071 36 37 41
-0.70373750 -0.14590770 1.61402822 38 37 43
-0.70094776 -0.14590770 1.61402822 36 36 42
-0.69815803 -0.14590770 1.61402822 38 37 43
-0.69702792 -0.14625593 1.61788034 39 38 45
-0.69423157 -0.14625593 1.61788034 39 38 45
-0.69143516 -0.14625593 1.61788034 40 39 46
-0.68863881 -0.14625593 1.61788034 38 37 44
-0.68584245 -0.14625593 1.61788034 50 50 54
-0.68304604 -0.14625593 1.61788034 80 79 84
-0.68024969 -0.14625593 1.61788034 82 81 88
-0.67745328 -0.14625593 1.61788034 56 64 68
-0.67465693 -0.14625593 1.61788034 49 64 66
-0.67186058 -0.14625593 1.61788034 51 66 70
-0.66906416 -0.14625593 1.61788034 50 65 69
-0.66786176 -0.14660582 1.62175083 55 63 69
-0.66665351 -0.14695740 1.62563992 54 62 68
-0.66384375 -0.14695740 1.62563992 54 62 69
-0.65475339 -0.14556113 1.61019444 54 63 69
-0.38290218 -0.04674149 0.52713209 48 51 59
-0.38051164 -0.04656046 0.52509052 48 51 58
-0.37901688 -0.04648844 0.52427828 48 51 58
-0.37899002 -0.04659655 0.52549756 48 52 58
-0.37808177 -0.04659655 0.52549756 48 53 58
-0.37658963 -0.04652442 0.52468407 51 56 61
-0.37568274 -0.04652442 0.52468407 50 57 64
-0.37535691 -0.04659655 0.52549756 51 58 66
-0.37415859 -0.04656046 0.52509052 51 57 66
-0.37354037 -0.04659655 0.52549756 54 59 70
-0.37234345 -0.04656046 0.52509052 71 75 86
-0.37143585 -0.04656046 0.52509052 83 85 94
-0.37024149 -0.04652442 0.52468407 92 95 103
-0.36962071 -0.04656046 0.52509052 87 88 93
-0.36871314 -0.04656046 0.52509052 80 80 82
-0.77888966 -0.10676652 1.20407081 146 155 151
-0.77819073 -0.10695650 1.20621324 146 155 151
-0.77472734 -0.10676652 1.20407081 148 154 152
-0.77264619 -0.10676652 1.20407081 148 153 152
-0.70783108 -0.10051765 1.13359845 145 149 147
-0.69686913 -0.10034984 1.13170588 151 161 155
-0.69375485 -0.10018259 1.12981975 74 83 78
-0.69180208 -0.10018259 1.12981975 12 20 25
-0.67535245 -0.10034984 1.13170588 41 41 48
-0.67452246 -0.10051765 1.13359845 44 44 51
-0.67937964 -0.10153641 1.14508760 46 46 53
-0.67969674 -0.10188060 1.14896917 46 45 52
-0.67201579 -0.10102446 1.13931406 45 44 51
-0.67230642 -0.10136518 1.14315653 44 43 50
-0.66769409 -0.10695650 1.20621324 153 159 159
-0.27417275 -0.04475767 0.50475937 153 154 156
-0.27330032 -0.04475767 0.50475937 153 154 156
-0.27242786 -0.04475767 0.50475937 152 153 154
-0.27155542 -0.04475767 0.50475937 154 157 157
-0.27068299 -0.04475767 0.50475937 152 158 156
-0.26806569 -0.04475767 0.50475937 39 42 42
-0.26719326 -0.04475767 0.50475937 46 46 49
-0.26651928 -0.04479102 0.50513548 44 44 47
-0.26544839 -0.04475767 0.50475937 44 44 48
-0.26477310 -0.04479102 0.50513548 44 43 49
-0.26370353 -0.04475767 0.50475937 42 41 48
-0.26302692 -0.04479102 0.50513548 39 38 45
-0.26274118 -0.04489138 0.50626725 42 41 48
-0.26225787 -0.04495853 0.50702459 45 44 51
-0.26288149 -0.04567595 0.51511538 43 42 49
-0.26219040 -0.04571069 0.51550710 44 43 50
-0.26149824 -0.04574547 0.51589942 44 43 50
-0.26060656 -0.04574547 0.51589942 44 43 50
-0.25971487 -0.04574547 0.51589942 43 43 51
-0.25882316 -0.04574547 0.51589942 45 45 52
-0.25793147 -0.04574547 0.51589942 52 51 57
-0.25703979 -0.04574547 0.51589942 22 22 28
-0.25614810 -0.04574547 0.51589942 80 81 81
-0.25525641 -0.04574547 0.51589942 169 170 170
-0.25436473 -0.04574547 0.51589942 155 156 154
-0.25347301 -0.04574547 0.51589942 153 154 152
-0.25258133 -0.04574547 0.51589942 153 154 152
-0.25168964 -0.04574547 0.51589942 153 155 153
-0.25060722 -0.04571069 0.51550710 151 155 154
-0.24990627 -0.04574547 0.51589942 151 155 155
-0.24939418 -0.04581521 0.51668584 151 157 157
-0.24926107 -0.04595532 0.51826596 152 157 157
-0.24779694 -0.04585015 0.51707995 151 155 156
-0.24652712 -0.04578031 0.51629233 155 158 159
-0.65540612 -0.12628058 1.42414248 155 163 162
-0.65157574 -0.12601583 1.42115688 71 78 80
-0.64911938 -0.12601583 1.42115688 22 29 33
-0.64666301 -0.12601583 1.42115688 40 43 49
-0.64420664 -0.12601583 1.42115688 37 40 46
-0.64175028 -0.12601583 1.42115688 40 40 47
-0.63929397 -0.12601583 1.42115688 39 40 46
-0.63683760 -0.12601583 1.42115688 38 38 44
-0.63571399 -0.12628058 1.42414248 36 37 42
-0.63458562 -0.12654643 1.42714071 36 37 41
-0.70373750 -0.14311798 1.61402822 36 36 42
-0.70094776 -0.14311798 1.61402822 41 40 46
-0.69815803 -0.14311798 1.61402822 45 44 48
-0.69702792 -0.14345956 1.61788034 42 40 44
-0.69257861 -0.14311798 1.61402822 41 40 44
-0.69143516 -0.14345956 1.61788034 41 40 44
-0.68863881 -0.14345956 1.61788034 39 38 42
-0.68584245 -0.14345956 1.61788034 49 47 54
-0.68304604 -0.14345956 1.61788034 78 76 83
-0.68024969 -0.14345956 1.61788034 78 77 84
-0.67745328 -0.14345956 1.61788034 62 67 72
-0.67465693 -0.14345956 1.61788034 55 66 69
-0.67186058 -0.14345956 1.61788034 50 62 68
-0.66906416 -0.14345956 1.61788034 50 62 68
-0.66626781 -0.14345956 1.61788034 53 63 70
-0.66505867 -0.14380276 1.62175083 54 62 70
-0.66225559 -0.14380276 1.62175083 52 60 70
-0.65320182 -0.14243969 1.60637879 52 59 71
-0.38230759 -0.04575922 0.52631354 48 50 62
-0.38021711 -0.04561755 0.52468407 48 51 62
-0.37843153 -0.04551187 0.52346861 47 51 62
-0.37869647 -0.04565288 0.52509052 47 51 62
-0.37778890 -0.04565288 0.52509052 48 52 63
-0.37629837 -0.04558227 0.52427828 48 52 63
-0.37539220 -0.04558227 0.52427828 46 52 67
-0.37506616 -0.04565288 0.52509052 45 51 68
-0.37386900 -0.04561755 0.52468407 47 53 70
-0.37325102 -0.04565288 0.52509052 53 59 76
-0.37234345 -0.04565288 0.52509052 62 68 85
-0.37114838 -0.04561755 0.52468407 82 84 94
-0.36995515 -0.04558227 0.52427828 94 94 103
-0.36933464 -0.04561755 0.52468407 91 91 97
-0.36842775 -0.04561755 0.52468407 84 84 86
-0.78027552 -0.10487166 1.20621324 146 150 141
-0.77957785 -0.10505860 1.20836341 145 148 139
-0.77402103 -0.10487166 1.20621324 153 154 150
-0.67422682 -0.09822979 1.12981975 44 44 46
-0.67452246 -0.09855831 1.13359845 46 46 49
-0.67937964 -0.09955721 1.14508760 46 45 50
-0.67969674 -0.09989469 1.14896917 46 46 51
-0.67201579 -0.09905525 1.13931406 46 45 53
-0.67117459 -0.09922200 1.14123201 45 44 51
-0.27484053 -0.04385258 0.50438380 153 155 156
-0.27396876 -0.04385258 0.50438380 152 154 155
-0.27309695 -0.04385258 0.50438380 152 154 155
-0.27202278 -0.04381998 0.50400883 151 153 153
-0.27115163 -0.04381998 0.50400883 152 154 154
-0.27028051 -0.04381998 0.50400883 153 154 154
-0.26940936 -0.04381998 0.50400883 102 103 103
-0.26873803 -0.04385258 0.50438380 26 26 27
-0.26786622 -0.04385258 0.50438380 45 46 48
-0.26699445 -0.04385258 0.50438380 49 49 55
-0.26612267 -0.04385258 0.50438380 45 45 51
-0.26525089 -0.04385258 0.50438380 44 44 52
-0.26437908 -0.04385258 0.50438380 44 43 51
-0.26350731 -0.04385258 0.50438380 44 43 51
-0.26283109 -0.04388523 0.50475937 43 42 50
-0.26254511 -0.04398349 0.50588942 44 43 51
-0.26206186 -0.04404923 0.50664562 45 44 52
-0.26288149 -0.04478562 0.51511538 44 44 50
-0.26199117 -0.04478562 0.51511538 44 44 49
-0.26129937 -0.04481968 0.51550710 44 43 49
-0.26040837 -0.04481968 0.51550710 45 44 49
-0.25971487 -0.04485378 0.51589942 45 44 52
-0.25882316 -0.04485378 0.51589942 46 45 54
-0.25793147 -0.04485378 0.51589942 55 51 61
-0.25684431 -0.04481968 0.51550710 16 11 21
-0.25595331 -0.04481968 0.51550710 99 99 98
-0.25506228 -0.04481968 0.51550710 167 168 166
-0.25417128 -0.04481968 0.51550710 160 161 159
-0.25328028 -0.04481968 0.51550710 153 154 152
-0.25238925 -0.04481968 0.51550710 150 154 151
-0.25149825 -0.04481968 0.51550710 151 154 151
-0.25060722 -0.04481968 0.51550710 150 154 152
-0.24990627 -0.04485378 0.51589942 150 155 153
-0.24939418 -0.04492216 0.51668584 151 156 155
-0.24907064 -0.04502511 0.51787001 153 156 156
-0.24760807 -0.04492216 0.51668584 152 153 155
-0.24633950 -0.04485378 0.51589942 153 154 156
-0.65403205 -0.12355947 1.42115688 151 160 157
-0.65157574 -0.12355947 1.42115688 75 84 85
-0.64911938 -0.12355947 1.42115688 19 27 31
-0.64666301 -0.12355947 1.42115688 34 42 47
-0.64420664 -0.12355947 1.42115688 36 44 48
-0.64175028 -0.12355947 1.42115688 37 41 47
-0.63929397 -0.12355947 1.42115688 39 42 48
-0.63683760 -0.12355947 1.42115688 36 39 43
-0.63438123 -0.12355947 1.42115688 35 38 41
-0.63458562 -0.12407973 1.42714071 35 36 39
