ply
format ascii 1.0
element vertex 1063
property float x
property float y
property float z
property uchar red
property uchar green
property uchar blue
end_header
-0.79789639 -0.88570538 1.84460706 110 137 150
-0.78194171 -0.87460995 1.81497473 107 134 150
-0.78511107 -0.87013569 1.82783902 109 136 148
-0.79066857 -0.86888676 1.84410512 106 134 150
-0.78300363 -0.85596681 1.83214009 105 135 149
-0.78279948 -0.51187491 1.63347435 140 141 145
-0.78946339 -0.50911754 1.64737993 138 144 144
-0.79140678 -0.48569222 1.47325447 87 89 88
-0.79771948 -0.49658395 1.48119275 79 83 81
-0.78267586 -0.48201594 1.51315141 42 42 51
-0.78091776 -0.49656177 1.62954772 140 146 146
-0.78952412 -0.47057077 1.46923257 87 91 92
-0.78369996 -0.47364740 1.51428485 41 42 49
-0.79058528 -0.47473353 1.52335250 43 43 52
-0.79643631 -0.47178650 1.79812157 144 146 145
-0.79855448 -0.46213463 1.80290389 117 118 119
-0.78967722 -0.44803751 1.45258756 139 145 141
-0.79061860 -0.45781919 1.46097374 117 123 122
-0.79326022 -0.45652403 1.52850670 160 160 161
-0.79855448 -0.45746037 1.80290389 29 29 37
-0.79454746 -0.42257978 1.41621411 46 46 51
-0.79072512 -0.42734480 1.43144211 43 43 52
-0.78946407 -0.43693839 1.44309190 98 101 101
-0.78457043 -0.40296644 1.39771509 41 44 48
-0.79101036 -0.40800751 1.40943578 42 45 50
-0.78825353 -0.41350988 1.42289953 42 45 49
-0.79052102 -0.38817934 1.38845282 45 50 53
-0.78701803 -0.39122878 1.40974327 43 44 50
-0.79015764 -0.36934059 1.37102433 89 91 93
-0.78222216 -0.37742040 1.38289154 50 53 56
-0.78488590 -0.37760831 1.41130823 94 96 100
-0.78966109 -0.34864051 1.35272404 65 64 71
-0.79467568 -0.35833204 1.36122859 45 44 57
-0.78758352 -0.32471764 1.33759587 46 47 53
-0.78978911 -0.33447556 1.34475965 47 45 54
-0.78720404 -0.30454151 1.31438404 127 131 133
-0.78836471 -0.31279007 1.32878833 74 77 81
-0.78170717 -0.28349739 1.29864335 153 154 154
-0.79326971 -0.28763182 1.30990692 154 155 154
-0.79391637 -0.29675113 1.32271707 153 157 155
-0.78946886 -0.26632031 1.29405799 152 152 151
-0.79322726 -0.27562038 1.30496269 153 156 150
-0.78939452 -0.24630159 1.27118409 129 131 133
-0.79055186 -0.25666742 1.28510880 120 120 124
-0.78699890 -0.22723623 1.25267438 155 157 155
-0.79168022 -0.23532048 1.26165622 151 156 153
-0.78381836 -0.20575652 1.23613091 152 155 153
-0.78800003 -0.21626017 1.24741001 154 156 157
-0.79232469 -0.18262469 1.23142028 42 42 49
-0.78723028 -0.17261848 1.21286608 42 43 48
-0.79077106 -0.16750491 1.22759651 38 40 47
-0.78143736 -0.15639086 1.21777066 42 43 50
-0.79142852 -0.14930477 1.22607145 98 101 105
-0.78885149 -0.12735137 1.21754558 154 156 154
-0.79328812 -0.13535122 1.22189918 153 155 155
-0.78847833 -0.11402963 1.21309333 142 145 142
-0.78304390 0.16434381 1.41649192 93 94 100
-0.78235118 0.17555617 1.42801540 116 117 117
-0.78186319 0.18813256 1.43790562 129 130 129
-0.78592694 0.18871054 1.44232309 126 129 129
-0.76839471 -0.86361106 1.80914535 106 134 147
-0.77523599 -0.86263550 1.82783566 104 136 148
-0.76241293 -0.85878521 1.81578461 100 130 145
-0.77044772 -0.85771413 1.83034432 102 134 148
-0.77086405 -0.54192134 1.63610474 100 105 108
-0.77713112 -0.54722800 1.64297819 54 58 66
-0.76973373 -0.52097017 1.61788034 139 140 142
-0.76550918 -0.52900363 1.62535229 138 140 140
-0.76342005 -0.50653648 1.59880149 144 144 144
-0.76684179 -0.50740768 1.61350007 142 143 144
-0.76614832 -0.50537255 1.62425096 141 143 144
-0.77784103 -0.50416544 1.76995254 138 138 139
-0.77429435 -0.48242807 1.47314974 44 44 46
-0.77339625 -0.48688928 1.49402115 42 42 48
-0.77002038 -0.48935012 1.51516022 41 40 50
-0.76203835 -0.48581098 1.59880149 140 145 145
-0.76581707 -0.49031317 1.60966489 139 143 144
-0.76456752 -0.49839048 1.62175083 139 143 143
-0.76712569 -0.48425260 1.75619650 141 142 142
-0.77666314 -0.49143432 1.76726781 140 140 140
-0.77291874 -0.47028766 1.47023941 41 41 49
-0.77110997 -0.47019801 1.51451807 41 43 50
-0.76952136 -0.47999951 1.52335250 44 43 54
-0.76402689 -0.46929801 1.59430134 70 69 76
-0.76561345 -0.46967523 1.75295511 143 142 142
-0.77622666 -0.46758382 1.76350920 143 143 142
-0.77072158 -0.44753758 1.45125865 47 48 56
-0.77112901 -0.45418986 1.46453393 41 42 51
-0.76767690 -0.44783160 1.49780769 109 110 114
-0.77072548 -0.45443414 1.50457064 64 64 71
-0.76413491 -0.45229164 1.75347373 125 125 126
-0.77366254 -0.44867571 1.76228646 78 78 86
-0.76961461 -0.42892960 1.43285200 102 99 105
-0.76715242 -0.43794812 1.44541519 72 73 80
-0.76196327 -0.42560766 1.47475278 153 155 156
-0.76548471 -0.43769092 1.48987460 151 153 152
-0.76486851 -0.43314619 1.75336029 43 42 50
-0.77886665 -0.43419930 1.76534331 36 38 45
-0.77014250 -0.40636172 1.41255025 58 60 65
-0.77155771 -0.41782829 1.42251397 70 70 78
-0.76060474 -0.41250795 1.47048128 156 157 155
-0.76688409 -0.40573808 1.73818421 37 39 43
-0.76673120 -0.38297481 1.39675645 48 47 53
-0.77051074 -0.39310982 1.40600799 47 47 54
-0.76394707 -0.38847641 1.73152733 47 47 53
-0.77550425 -0.36606934 1.37003153 116 119 120
-0.76652272 -0.37247685 1.39118757 84 84 88
-0.77825522 -0.36895312 1.40156957 157 158 155
-0.76338388 -0.36885243 1.73334284 142 146 146
-0.77177710 -0.34823444 1.35108517 153 154 152
-0.76847589 -0.35611995 1.36628328 154 158 154
-0.77451801 -0.35994712 1.39483917 153 159 155
-0.76406062 -0.34978640 1.73263587 146 146 146
-0.76584345 -0.35181148 1.74265254 144 145 145
-0.76902016 -0.32646199 1.33641254 120 124 129
-0.76978498 -0.33628925 1.34305493 139 141 142
-0.76197523 -0.33988708 1.37225068 154 156 156
-0.76227864 -0.33374287 1.73227954 146 146 145
-0.76939507 -0.30492141 1.31143695 93 94 101
-0.76992822 -0.31484814 1.32626895 83 83 91
-0.76874254 -0.28845550 1.29328947 152 156 153
-0.76987386 -0.29728977 1.30224914 150 155 149
-0.76435348 -0.26393521 1.27567618 152 155 153
-0.77018902 -0.27151208 1.28771123 154 156 154
-0.77023514 -0.24761264 1.27071978 88 89 94
-0.77294218 -0.25780552 1.28249923 153 155 153
-0.76994020 -0.22672170 1.25191120 82 84 85
-0.77098038 -0.23699363 1.26175234 48 51 61
-0.77742635 -0.20150336 1.22973853 147 155 150
-0.77202809 -0.21875032 1.24487829 130 130 130
-0.76528274 -0.18864350 1.21270367 47 47 54
-0.77301621 -0.19647502 1.22395100 142 151 147
-0.76362296 -0.17022634 1.19516513 39 42 47
-0.76926674 -0.17406746 1.20447917 41 42 49
-0.76250602 -0.14712247 1.19377862 88 90 92
-0.77262582 -0.14565020 1.20729087 114 116 117
-0.76582813 -0.12849271 1.19874924 152 156 154
-0.77448472 -0.13332994 1.20910186 153 156 155
-0.76576364 -0.11883122 1.19980860 148 155 153
-0.77694145 -0.10906356 1.20794668 142 146 144
-0.76655360 0.15622129 1.40788117 98 100 104
-0.77146213 0.16402787 1.41415821 99 102 106
-0.77016803 0.17334670 1.42587524 105 105 108
-0.77265849 0.18712118 1.43406985 111 114 115
-0.74848568 -0.86404880 1.79812157 99 136 150
-0.75018604 -0.86910529 1.80386543 97 136 150
-0.75832102 -0.86081386 1.82228994 107 134 152
-0.74670974 -0.85872096 1.79812157 103 134 149
-0.75125797 -0.85799165 1.80531204 103 132 148
-0.75575185 -0.52097017 1.61788034 141 143 143
-0.75816540 -0.52824682 1.62304719 137 139 136
-0.75114153 -0.50163365 1.51020825 136 134 150
-0.75549763 -0.51359792 1.61788034 141 141 141
-0.74918180 -0.50875263 1.62401998 81 85 88
-0.75070302 -0.49023843 1.51530544 135 134 135
-0.74422813 -0.48457695 1.52487910 143 143 141
-0.75894621 -0.48296559 1.58943206 136 141 142
-0.75039366 -0.48816937 1.60873614 121 126 123
-0.75195373 -0.49979201 1.62175083 109 110 107
-0.75965387 -0.48355211 1.75619650 143 144 144
-0.75128287 -0.48600535 1.76409496 121 124 124
-0.75869414 -0.46918015 1.45704979 41 40 47
-0.75223322 -0.46872196 1.51807808 136 136 137
-0.74720686 -0.47588000 1.52468763 144 144 142
-0.75189441 -0.46214801 1.57466376 28 26 36
-0.74988511 -0.47060396 1.59062917 99 100 100
-0.75095013 -0.46896699 1.75451098 126 131 131
-0.74762765 -0.47872144 1.76075804 110 116 116
-0.74988121 -0.44059727 1.43773621 44 44 51
-0.75611116 -0.45103184 1.45071559 42 42 48
-0.75091245 -0.44526129 1.49728131 95 96 100
-0.74774016 -0.45363234 1.50643227 124 124 129
-0.74499257 -0.44841229 1.57110681 40 39 46
-0.74814961 -0.45738891 1.58016741 41 40 48
-0.75065927 -0.45265704 1.75572706 111 113 114
-0.75288182 -0.44954787 1.76111076 107 108 108
-0.75209507 -0.42689658 1.42911536 133 134 132
-0.75850463 -0.43203118 1.44232309 168 168 166
-0.75107328 -0.42324260 1.47349722 151 152 152
-0.74935926 -0.43891083 1.49110281 112 116 116
-0.74280268 -0.42986098 1.55337899 38 38 44
-0.74229044 -0.43164103 1.56436986 38 38 44
-0.75336468 -0.42151070 1.73818421 42 42 49
-0.75224429 -0.43386376 1.75166321 53 52 61
-0.74049389 -0.42050603 1.79812157 77 110 128
-0.74345326 -0.42999360 1.80530775 84 105 126
-0.74973396 -0.40698817 1.41173984 154 158 157
-0.75094833 -0.41646063 1.42235239 155 157 150
-0.75154215 -0.40946343 1.45783186 154 156 156
-0.74823119 -0.41017165 1.46898198 151 153 153
-0.74298769 -0.41237534 1.55447583 53 54 59
-0.74405978 -0.41011376 1.56391811 69 71 75
-0.74289110 -0.41268711 1.71401501 42 42 49
-0.74558410 -0.40614434 1.72711575 51 52 56
-0.74174720 -0.40151003 1.74265254 69 70 72
-0.74979369 -0.38369266 1.39643690 124 123 125
-0.74932611 -0.39397783 1.40512753 143 142 144
-0.74711061 -0.38598772 1.45456921 128 129 124
-0.74589258 -0.39358016 1.46426526 153 154 149
-0.74194258 -0.38877181 1.55551426 148 152 147
-0.75037087 -0.39128699 1.56776125 147 151 148
-0.74159304 -0.38982747 1.69192616 40 42 44
-0.74892981 -0.38975954 1.71186055 42 42 48
-0.74817851 -0.38959494 1.73134434 45 45 49
-0.74950645 -0.37042004 1.38791014 114 113 115
-0.74468544 -0.37072752 1.45310770 43 41 49
-0.74198494 -0.37108750 1.55544913 149 151 152
-0.75197037 -0.36974099 1.56881104 149 151 152
-0.75260982 -0.37166292 1.73536956 143 147 146
-0.74846634 -0.36698749 1.74265254 140 144 144
-0.74867711 -0.34244110 1.33444651 154 159 156
-0.75693419 -0.34786309 1.34502705 154 158 154
-0.74881862 -0.34787841 1.37072399 154 155 155
-0.75129028 -0.35832709 1.38063514 134 135 135
-0.74249022 -0.34656247 1.43834606 40 40 46
-0.74223930 -0.35095181 1.44463117 39 39 46
-0.74352126 -0.35093716 1.55453166 118 119 120
-0.75325597 -0.35138198 1.56617687 101 101 104
-0.75373221 -0.34886741 1.73664541 145 146 146
-0.74877526 -0.35499085 1.74265254 141 142 143
-0.75151548 -0.32721896 1.33215484 152 156 154
-0.74750513 -0.32904685 1.34992100 154 156 153
-0.74612275 -0.33512453 1.36300890 152 156 155
-0.74242504 -0.33498798 1.43773781 44 44 51
-0.74105406 -0.33979243 1.44232309 42 43 47
-0.74034196 -0.33191310 1.54487786 40 40 47
-0.75622067 -0.32233164 1.71401501 146 147 146
-0.74968572 -0.33285910 1.73114171 146 147 146
-0.75023930 -0.30538068 1.31199395 134 137 135
-0.74649795 -0.31385937 1.32958458 144 145 144
-0.74199514 -0.31761271 1.34569466 150 153 150
-0.75506723 -0.31990764 1.72491562 135 139 139
-0.74980930 -0.28776845 1.29148179 118 122 121
-0.74914746 -0.29753896 1.30213685 76 80 79
-0.74918100 -0.26779676 1.27603704 150 155 153
-0.75062787 -0.27716912 1.28197916 149 153 152
-0.74517545 -0.24363148 1.25639137 70 73 75
-0.75012097 -0.25155637 1.26572669 136 139 139
-0.74242780 -0.22438624 1.23872501 42 42 49
-0.75099835 -0.22983796 1.25113910 44 44 52
-0.75675233 -0.23746467 1.26080418 45 45 53
-0.74112839 -0.21726675 1.23477566 43 43 51
-0.75010853 -0.21818692 1.24613193 43 43 50
-0.74968545 -0.18750204 1.21183470 95 95 100
-0.75106081 -0.19486213 1.22142673 63 69 71
-0.74541801 -0.16870271 1.16477646 39 41 48
-0.74950504 -0.16933264 1.19357318 44 44 51
-0.75257923 -0.17894168 1.20193589 62 62 70
-0.74318988 -0.14907187 1.17330764 55 55 64
-0.75060935 -0.15300201 1.18862801 52 52 58
-0.74246141 -0.13541844 1.17282677 151 155 154
-0.75062311 -0.13876210 1.18409872 151 156 153
-0.74639584 0.15517678 1.39484310 88 96 97
-0.75403218 0.15664132 1.40292404 92 99 101
-0.75532537 0.16670428 1.41341437 89 96 95
-0.75770459 0.17478792 1.42364909 103 107 109
-0.75951946 0.18217424 1.43015158 112 112 118
-0.73926565 -0.50770865 1.62466764 39 39 50
-0.72773439 -0.50088441 1.77458596 93 110 131
-0.72390521 -0.48423085 1.49976075 143 143 142
-0.73579104 -0.48765644 1.51712845 143 143 141
-0.73847948 -0.48299286 1.52449616 142 143 142
-0.73608642 -0.48803430 1.60791773 38 42 45
-0.73793840 -0.49979201 1.62175083 37 39 48
-0.73216568 -0.48909433 1.76996464 92 114 128
-0.72131300 -0.47515810 1.49976075 142 142 142
-0.73201837 -0.46886578 1.51294487 141 144 143
-0.73792547 -0.47605002 1.52335250 145 145 143
-0.73191666 -0.47043632 1.58951856 70 72 75
-0.73261780 -0.46816437 1.75376546 97 107 121
-0.72796608 -0.46986162 1.76688906 95 111 128
-0.72634576 -0.44712141 1.49810535 118 118 118
-0.73407673 -0.45351025 1.50822365 145 147 146
-0.72976319 -0.44872629 1.57261420 76 75 82
-0.73345321 -0.45888457 1.58016741 62 60 72
-0.73331940 -0.45136257 1.75227948 94 106 120
-0.72724633 -0.45253449 1.76843224 88 110 129
-0.73464793 -0.45418668 1.78392589 90 112 128
-0.73487834 -0.42518838 1.41131234 77 76 84
-0.73487629 -0.42141300 1.47496214 76 80 81
-0.72745428 -0.43624589 1.48933005 30 32 40
-0.72615840 -0.42459383 1.55837202 37 38 47
-0.72918044 -0.42936235 1.56466922 60 60 69
-0.73196302 -0.42942953 1.73374629 88 87 100
-0.72645208 -0.43026054 1.74942452 83 99 123
-0.72269050 -0.43345009 1.76228646 84 108 133
-0.72890794 -0.40470408 1.39675645 154 157 156
-0.73329673 -0.41384044 1.40593743 155 156 154
-0.73062162 -0.41010265 1.47201863 65 70 73
-0.72950691 -0.40949533 1.56531392 78 78 85
-0.73450848 -0.40255360 1.67795014 40 40 44
-0.72825913 -0.40264058 1.71329272 74 75 82
-0.73429290 -0.40278678 1.73374629 76 78 86
-0.72819304 -0.40151003 1.74265254 92 99 121
-0.72534145 -0.40686238 1.76594356 83 106 129
-0.73594360 -0.41174983 1.78707214 83 106 130
-0.73064635 -0.38636275 1.39260467 155 156 154
-0.73740619 -0.38988395 1.40278384 156 157 155
-0.73894340 -0.38124231 1.45783186 57 57 56
-0.73016569 -0.39056687 1.46441707 87 90 90
-0.73269308 -0.38464309 1.55747846 146 149 147
-0.72940711 -0.39099390 1.56299341 138 141 138
-0.72090179 -0.39237592 1.65339470 39 40 46
-0.72905485 -0.39408047 1.67124811 40 42 47
-0.73402460 -0.38982866 1.68350856 41 41 46
-0.73860550 -0.39932182 1.70753610 52 52 59
-0.73274500 -0.38949585 1.73693394 80 84 97
-0.72639956 -0.39008416 1.74377829 89 103 122
-0.72547878 -0.38996588 1.76535733 84 105 125
-0.73141775 -0.36964058 1.38635272 122 123 123
-0.73072414 -0.36903451 1.45610892 84 83 89
-0.72791009 -0.37885009 1.46097374 113 112 116
-0.73310143 -0.37309422 1.55744597 147 151 151
-0.72774284 -0.36817329 1.56207545 138 141 142
-0.73383665 -0.37166139 1.73818421 95 101 109
-0.72884752 -0.37214230 1.74507992 85 98 115
-0.72307815 -0.37727719 1.76075804 83 100 128
-0.72946231 -0.34836296 1.37038397 57 58 64
-0.72526807 -0.35787256 1.38063514 45 47 58
-0.73450541 -0.34238787 1.43926084 44 44 48
-0.72915307 -0.35060559 1.44669565 66 66 72
-0.73053822 -0.34963155 1.55348520 111 113 114
-0.73491377 -0.35035014 1.73788785 100 104 110
-0.73421712 -0.35557652 1.74265254 91 92 98
-0.73802522 -0.32210284 1.31885576 152 156 153
-0.73856224 -0.33083416 1.32185678 154 156 156
-0.72959724 -0.32369793 1.35373135 104 109 108
-0.72980922 -0.33414206 1.36318624 74 77 80
-0.72997205 -0.32992606 1.43253066 58 57 62
-0.72298028 -0.33916920 1.44232309 62 62 67
-0.73664802 -0.32228398 1.53716969 38 39 42
-0.72941138 -0.33019970 1.54507663 40 40 47
-0.73181538 -0.32945493 1.72961526 103 106 110
-0.73531156 -0.30881609 1.31217500 151 153 151
-0.73157526 -0.30571073 1.33666525 89 91 93
-0.72952289 -0.31473096 1.34389792 133 136 134
-0.72551533 -0.31340448 1.41122584 152 155 155
-0.72690392 -0.31761149 1.42115688 153 157 156
-0.72839957 -0.30986387 1.53379051 38 37 45
-0.72607285 -0.31715803 1.54066324 37 37 44
-0.72158128 -0.31532156 1.71618187 90 97 106
-0.73026223 -0.31797308 1.72366478 74 78 82
-0.73264826 -0.28541515 1.29163813 41 43 54
-0.73179792 -0.29167931 1.30847514 39 39 45
-0.72815661 -0.29222640 1.32853397 45 44 51
-0.72374059 -0.28835431 1.51937020 72 72 77
-0.72692876 -0.29419781 1.52545093 50 50 56
-0.73099824 -0.26627792 1.27536680 66 71 74
-0.72785356 -0.27541482 1.28344246 40 43 50
-0.72420452 -0.27022298 1.31018193 42 42 47
-0.72542012 -0.27391789 1.51616719 150 153 153
-0.72881599 -0.24299969 1.25608580 57 57 63
-0.73018535 -0.25225382 1.26452682 98 102 103
-0.72110301 -0.24758380 1.29864335 142 144 145
-0.72229370 -0.25720545 1.30332778 43 45 55
-0.72846456 -0.22611079 1.23569848 45 45 51
-0.73067309 -0.23533887 1.24625083 46 45 58
-0.73036686 -0.23119834 1.65541601 151 152 153
-0.72126091 -0.20715569 1.21922994 44 44 49
-0.72948518 -0.21175135 1.22966465 42 44 49
-0.73032556 -0.18661186 1.21349343 143 146 146
-0.73177378 -0.19401237 1.22271284 91 94 97
-0.72994540 -0.16791311 1.19226216 128 130 130
-0.73100462 -0.17786740 1.20450946 151 156 155
-0.72978655 -0.14425040 1.17515359 99 97 103
-0.72985247 -0.15443576 1.18549272 99 99 104
-0.72643992 -0.12636647 1.15567000 150 153 152
-0.72991474 -0.13555125 1.16522242 152 154 152
-0.72514483 -0.11512009 1.14774644 149 154 152
-0.71972066 -0.47669569 1.49644995 142 143 143
-0.71913218 -0.44112372 1.48987222 96 95 95
-0.71270890 -0.44621989 1.57189750 137 141 140
-0.70536095 -0.44327776 1.58016741 139 141 140
-0.71815302 -0.43035249 1.48465884 32 32 42
-0.71143382 -0.42911855 1.56926823 141 143 142
-0.70630380 -0.42823335 1.58227961 141 142 142
-0.71648073 -0.42066365 1.74714386 85 107 131
-0.71532699 -0.40949695 1.47336566 39 39 46
-0.71570086 -0.41009344 1.48011315 38 39 46
-0.71292313 -0.41032073 1.57276578 121 124 124
-0.70819170 -0.40940964 1.58650896 102 105 106
-0.70618075 -0.40142626 1.72931588 80 108 132
-0.71740642 -0.41666964 1.74940121 84 105 127
-0.71390138 -0.38979381 1.46830144 50 50 56
-0.71203343 -0.38981699 1.56836210 36 37 49
-0.70866477 -0.39047432 1.58756876 37 37 46
-0.71504164 -0.38623456 1.63347909 40 40 45
-0.71850222 -0.38810724 1.64138460 43 44 46
-0.71582037 -0.39717111 1.66149962 48 48 55
-0.71016449 -0.39628398 1.68211377 85 91 99
-0.70798683 -0.39795797 1.73373878 81 105 130
-0.71982485 -0.36151119 1.37782896 50 50 50
-0.71645542 -0.36661278 1.45612552 151 152 149
-0.71216011 -0.37075138 1.46557598 151 153 149
-0.71114285 -0.37067436 1.56626588 34 38 44
-0.70728626 -0.37191836 1.58448054 36 38 43
-0.71850222 -0.37817773 1.64138460 43 44 46
-0.70980215 -0.37945035 1.73818421 84 102 123
-0.71865759 -0.34778176 1.37295406 43 43 51
-0.71213635 -0.34850472 1.45025759 153 153 153
-0.70974890 -0.35355404 1.46438354 152 153 154
-0.71091569 -0.34851050 1.55391354 69 71 77
-0.70596611 -0.35646741 1.56515549 41 41 49
-0.71424526 -0.32258567 1.35475038 41 45 50
-0.71598376 -0.33293805 1.36713677 42 42 50
-0.71066780 -0.32686267 1.43171580 124 125 126
-0.70854519 -0.33610197 1.44508718 153 153 153
-0.70770872 -0.33534820 1.46097374 149 152 151
-0.71094294 -0.32989483 1.54456875 101 102 104
-0.71336966 -0.30482264 1.33907305 101 103 104
-0.70863190 -0.31158668 1.34560615 57 60 66
-0.71739605 -0.30601902 1.39627713 153 155 156
-0.70956995 -0.30850361 1.40793802 135 139 138
-0.70774550 -0.31783390 1.42215208 58 61 62
-0.70915680 -0.31028047 1.53490878 89 89 93
-0.71701896 -0.31769061 1.54066324 39 39 44
-0.71956593 -0.28027582 1.28388608 41 41 50
-0.71295033 -0.28107119 1.31885576 53 54 59
-0.71048520 -0.29168446 1.33102256 126 127 127
-0.70297133 -0.29091628 1.39638865 149 152 151
-0.70751446 -0.29849297 1.40060294 148 151 151
-0.71283235 -0.28377946 1.51799820 99 99 102
-0.70967599 -0.29355341 1.52590612 60 61 70
-0.71598586 -0.26512188 1.27565124 39 42 45
-0.71824215 -0.27485735 1.28449741 41 41 50
-0.70969362 -0.26947809 1.31404243 82 83 89
-0.70406222 -0.27933511 1.32142663 151 152 152
-0.70453167 -0.26558141 1.37343512 151 152 150
-0.70172128 -0.26945704 1.38204396 147 150 150
-0.71210071 -0.26360131 1.49810535 149 150 150
-0.70953603 -0.27067325 1.51048092 147 150 149
-0.70151639 -0.26121002 1.60258114 39 38 45
-0.71786290 -0.26624539 1.63347435 39 38 44
-0.71345210 -0.24220976 1.25420242 116 116 124
-0.71288945 -0.25094498 1.26573974 46 46 56
-0.70880537 -0.24506814 1.29719728 156 157 154
-0.71008770 -0.25594842 1.30531360 54 57 66
-0.70461756 -0.25082121 1.37234974 39 39 46
-0.70751552 -0.24935339 1.49645857 149 152 152
-0.70576581 -0.25746322 1.50308609 151 155 154
-0.70653672 -0.24970757 1.61192057 46 46 52
-0.71114814 -0.24597599 1.63013288 93 94 96
-0.70802087 -0.24870434 1.64587221 73 73 77
-0.70909594 -0.22722605 1.23416581 120 120 124
-0.70793085 -0.23549853 1.24603690 143 143 144
-0.70425206 -0.23007971 1.27624150 154 156 156
-0.70779754 -0.23576254 1.28799266 154 155 155
-0.70126009 -0.23978508 1.36947846 40 40 47
-0.70316526 -0.22728725 1.47528321 137 141 139
-0.70387329 -0.23647086 1.48825464 149 152 151
-0.71100980 -0.22595262 1.61788034 150 151 152
-0.71450341 -0.23098880 1.63262588 150 151 151
-0.70809235 -0.23037868 1.64213833 149 150 149
-0.71416017 -0.20162641 1.21823569 54 56 62
-0.70952824 -0.21110257 1.22629912 89 90 95
-0.70214905 -0.21426735 1.47048402 38 38 41
-0.70965549 -0.20738308 1.61479864 151 153 154
-0.70886310 -0.20963113 1.63226941 149 151 151
-0.70702894 -0.21810398 1.64182727 149 151 148
-0.71391934 -0.18104438 1.19980860 152 156 155
-0.70883533 -0.19090959 1.21217937 97 100 103
-0.70356023 -0.19908440 1.22142673 128 132 133
-0.70663947 -0.18935577 1.61461246 115 116 117
-0.70458449 -0.19406436 1.62402102 143 144 145
-0.70557874 -0.16465069 1.17894232 151 154 153
-0.71003662 -0.17014180 1.19149898 151 154 153
-0.70486895 -0.17870159 1.20264753 150 154 153
-0.70450707 -0.17323372 1.61367354 38 37 46
-0.71058268 -0.14616046 1.17344988 142 146 143
-0.71535748 -0.15356571 1.18531398 149 153 152
-0.70254190 -0.14511064 1.61402822 37 37 43
-0.71056043 -0.12631538 1.15328901 104 107 107
-0.70917441 -0.13706497 1.16511397 55 55 58
-0.71027878 -0.10665097 1.13773423 149 151 150
-0.70912628 -0.11418709 1.14199505 134 137 137
-0.70331967 -0.08241706 1.11403829 40 40 51
-0.70280645 -0.06697506 1.11228577 42 42 50
-0.70197600 -0.05719644 1.11038870 46 45 59
-0.69560554 -0.42667462 1.56437041 141 142 142
-0.69752019 -0.41023226 1.56867637 138 140 140
-0.69964266 -0.38293850 1.45470357 44 43 55
-0.69499325 -0.38983732 1.56299341 34 34 42
-0.69293833 -0.36174503 1.55837202 38 39 43
-0.69506963 -0.37231190 1.56316519 36 38 43
-0.69766557 -0.34301519 1.44539833 154 155 157
-0.68085372 -0.34619585 1.53716969 39 39 48
-0.69250062 -0.34827593 1.55063303 52 52 59
-0.69938967 -0.34677392 1.56376642 96 97 102
-0.69556520 -0.32455675 1.43251035 140 142 139
-0.69680442 -0.33356009 1.44232309 152 154 152
-0.69546650 -0.32228398 1.53716969 142 146 143
-0.69331154 -0.33034917 1.54664559 144 146 145
-0.69723469 -0.33828101 1.56196272 143 147 148
-0.69390625 -0.30112892 1.33706474 168 167 163
-0.69897455 -0.30464167 1.34236014 96 96 97
-0.69101140 -0.30587533 1.40844327 42 42 49
-0.69226273 -0.31537315 1.42434910 37 37 44
-0.69199664 -0.30930735 1.53404485 145 146 146
-0.68959391 -0.31545156 1.54417989 143 145 144
-0.69755567 -0.28943499 1.33332096 150 152 150
-0.69214255 -0.28789368 1.39584751 73 75 78
-0.68649276 -0.29466332 1.40234686 38 40 44
-0.69047752 -0.28368393 1.51937020 112 113 114
-0.68817790 -0.29338266 1.52608326 144 148 145
-0.69186894 -0.26475074 1.31450775 151 154 152
-0.69327646 -0.27231110 1.32336482 149 154 152
-0.69273091 -0.26234269 1.37608155 123 126 129
-0.68874747 -0.27202421 1.38500412 81 84 89
-0.68960719 -0.26975166 1.51098020 55 57 62
-0.69781497 -0.26670961 1.59412551 35 34 42
-0.69355010 -0.24422530 1.29748461 72 74 77
-0.69081944 -0.25359232 1.30812036 138 138 139
-0.69010171 -0.24921021 1.37411073 71 71 81
-0.68072349 -0.25844273 1.38063514 162 162 164
-0.68965678 -0.24846770 1.49710026 93 96 97
-0.69563374 -0.25798282 1.50308609 135 139 139
-0.68250396 -0.25138564 1.61659630 77 78 87
-0.69176000 -0.24963709 1.63226497 64 64 73
-0.69459041 -0.24362287 1.64138460 100 99 106
-0.69454730 -0.22482798 1.23320148 156 156 157
-0.69883642 -0.23197857 1.24498147 158 159 159
-0.69278739 -0.23605669 1.28877748 98 100 103
-0.68963816 -0.23080497 1.36981448 54 53 64
-0.69470290 -0.22277848 1.47305107 78 79 79
-0.68725268 -0.23136618 1.48704033 100 104 106
-0.68787969 -0.23156045 1.63741994 95 98 110
-0.69602450 -0.22738026 1.64138460 122 125 126
-0.68122143 -0.21769239 1.21922994 156 157 159
-0.69550177 -0.21345711 1.22752385 155 155 155
-0.69321501 -0.20132627 1.24841964 151 157 156
-0.68594853 -0.20544446 1.35605757 125 127 128
-0.68510818 -0.21522911 1.36270341 39 38 48
-0.69150991 -0.20491532 1.45522936 39 39 43
-0.68924340 -0.21000896 1.46904269 39 38 43
-0.68724342 -0.21426456 1.63634387 98 103 116
-0.69523886 -0.21873832 1.64138460 115 121 120
-0.69435055 -0.18864712 1.21150787 105 106 108
-0.68674947 -0.18497818 1.23555928 60 60 66
-0.68740519 -0.18994449 1.24919963 64 65 70
-0.68584570 -0.19949444 1.35307753 147 154 153
-0.69084296 -0.19813564 1.45471019 38 38 46
-0.68718161 -0.19815349 1.46413117 41 40 50
-0.69023059 -0.18462352 1.61747486 79 81 84
-0.68933016 -0.19218022 1.62391247 119 122 123
-0.68589397 -0.17004970 1.19323422 81 83 85
-0.69441067 -0.17928793 1.20193589 121 123 121
-0.68412939 -0.16919127 1.23739711 41 41 45
-0.68323658 -0.17339587 1.24156010 41 41 45
-0.69055070 -0.17368580 1.61614689 48 46 53
-0.68605699 -0.14446560 1.16737171 148 151 149
-0.68281978 -0.15862218 1.18720114 83 86 85
-0.68302523 -0.15640311 1.23445729 39 41 49
-0.68980829 -0.14591217 1.61496918 47 46 52
-0.69087611 -0.12624990 1.15221251 40 40 49
-0.69090651 -0.13651158 1.16316571 54 56 61
-0.68618394 -0.13542704 1.61211133 46 43 51
-0.69159771 -0.10943103 1.13698516 48 52 55
-0.68688820 -0.11364354 1.14559615 39 40 46
-0.68982172 -0.08304952 1.10870423 56 56 64
-0.68968097 -0.06876127 1.10756112 45 46 54
-0.68886415 -0.05765389 1.10775497 46 46 59
-0.67931330 -0.34143630 1.53369200 22 21 31
-0.67821798 -0.32897954 1.53121909 139 143 143
-0.67691051 -0.30986256 1.52826718 146 147 147
-0.67403337 -0.28366074 1.39643690 38 38 44
-0.67798383 -0.29049440 1.40350680 38 38 43
-0.67214696 -0.28931995 1.51751244 142 142 141
-0.67916910 -0.28498159 1.52592573 130 131 131
-0.67219549 -0.26029891 1.37782896 58 57 60
-0.67394834 -0.26892155 1.38569910 41 40 48
-0.66428429 -0.26130037 1.49976075 37 36 44
-0.67480188 -0.26857758 1.51148896 37 36 43
-0.67230729 -0.27275038 1.52491203 37 36 40
-0.67826700 -0.26862496 1.54946911 38 37 43
-0.67833984 -0.25216696 1.30490375 153 155 152
-0.67169116 -0.24841064 1.37520829 151 152 151
-0.66795452 -0.25354861 1.38114744 150 151 151
-0.67188035 -0.24841009 1.49606069 37 38 45
-0.67091785 -0.25238484 1.50754963 36 36 43
-0.66950637 -0.22996704 1.36847669 152 154 153
-0.66538535 -0.22081205 1.47688854 130 131 135
-0.66975149 -0.22976111 1.48649340 48 48 58
-0.66835517 -0.23849809 1.50308609 37 37 43
-0.67681292 -0.22903932 1.63618694 82 94 122
-0.67830129 -0.21743058 1.21777066 156 157 158
-0.66906277 -0.20644081 1.35613510 102 105 106
-0.66967857 -0.21654178 1.36255708 143 146 145
-0.66999592 -0.20945272 1.47061137 134 135 137
-0.66151092 -0.21677248 1.48769403 153 154 154
-0.67683651 -0.21321736 1.63419518 83 93 122
-0.67679495 -0.19067172 1.21356375 124 127 128
-0.67036909 -0.18681736 1.24852055 99 98 102
-0.66867845 -0.19577751 1.34853731 75 81 79
-0.66769003 -0.19685733 1.46607947 139 139 144
-0.67385796 -0.18380725 1.61788034 60 66 78
-0.67297913 -0.18875930 1.62264831 61 69 85
-0.67017622 -0.16764047 1.18991652 41 41 49
-0.67275736 -0.17960694 1.20407456 43 43 52
-0.67630837 -0.17118989 1.23853656 41 40 47
-0.66920493 -0.17157739 1.24312442 90 88 93
-0.67322900 -0.17595952 1.61733004 65 65 82
-0.66786176 -0.17603800 1.62175083 60 64 89
-0.67084041 -0.14529189 1.17240496 76 79 85
-0.66796066 -0.15719655 1.18527644 40 40 48
-0.67048777 -0.14913054 1.23209951 82 85 93
-0.67106067 -0.14563703 1.61699139 57 63 71
-0.66471251 -0.14670627 1.62286200 54 61 69
-0.67542414 -0.12430182 1.14509246 40 39 48
-0.66863182 -0.13731072 1.16491049 110 111 113
-0.66954509 -0.12605021 1.21270538 153 155 157
-0.67577967 -0.13674286 1.22400290 150 155 153
-0.66165159 -0.13147170 1.41818380 152 154 155
-0.66140115 -0.13338490 1.42115688 151 152 154
-0.67001170 -0.13217230 1.61074471 59 67 75
-0.67726553 -0.10516287 1.13491641 41 41 49
-0.67509341 -0.10840668 1.14375521 42 41 49
-0.66897384 -0.11416530 1.20966114 152 157 157
-0.66179480 -0.11310357 1.41325748 87 87 88
-0.66993647 -0.08471092 1.11121614 152 157 156
-0.66823965 -0.08979975 1.13071593 129 132 131
-0.67745702 -0.09634493 1.14451348 85 86 90
-0.67121279 -0.07004033 1.10827036 150 153 154
-0.66298851 -0.06991997 1.12148172 155 160 159
-0.67248617 -0.05634545 1.11117888 153 156 157
-0.66669218 -0.02218462 1.06893355 148 155 155
-0.66620431 -0.01430424 1.06966414 140 146 147
-0.65954236 -0.24564133 1.37132661 150 151 152
-0.65877706 -0.25627807 1.49315381 37 37 41
-0.65137432 -0.22401754 1.35759505 149 152 151
-0.65644559 -0.23309067 1.36488785 150 152 152
-0.65903608 -0.22709267 1.48791184 53 53 59
-0.65160212 -0.20820486 1.35370238 104 106 106
-0.65908119 -0.21138611 1.36275266 129 129 129
-0.65670872 -0.20666621 1.46961167 151 152 152
-0.65793907 -0.21090089 1.48254402 152 153 154
-0.65324491 -0.18574224 1.24849802 153 153 152
-0.64511189 -0.18768770 1.33891450 39 40 45
-0.65374738 -0.19257730 1.34632839 40 42 46
-0.65606649 -0.19726370 1.46691599 150 151 152
-0.65208476 -0.17052505 1.24537097 152 154 153
-0.65501846 -0.14610857 1.17080798 38 39 52
-0.65883848 -0.15575188 1.18099630 38 40 47
-0.65032440 -0.15102190 1.23617944 141 144 141
-0.64891822 -0.15693684 1.24292991 148 156 153
-0.64711499 -0.14208242 1.42215208 31 36 41
-0.65397760 -0.14400041 1.60828662 52 61 70
-0.64722451 -0.13049007 1.15610153 150 156 153
-0.65389837 -0.13682252 1.16381585 125 131 131
-0.64642434 -0.12842626 1.41818380 54 57 61
-0.64950298 -0.12970667 1.42122797 76 79 82
-0.64787255 -0.12792017 1.59411237 51 60 74
-0.65670755 -0.13002188 1.60569650 52 62 74
-0.64903817 -0.11208243 1.41574064 103 105 107
-0.65349767 -0.11951984 1.59692055 53 61 73
-0.65892235 -0.08216226 1.10805519 155 160 157
-0.64878208 -0.08432483 1.12585951 117 121 119
-0.65126126 -0.06983881 1.11338975 152 158 157
-0.64956476 -0.07334801 1.12048233 147 153 151
-0.65130475 -0.05612760 1.10817689 157 162 160
-0.64817346 -0.02269017 1.06961723 61 67 70
-0.64163369 -0.02118769 1.08462691 44 44 51
-0.64877084 -0.01243989 1.07067877 82 89 94
-0.64116509 -0.01790850 1.08462831 44 45 51
-0.63855068 -0.18609614 1.33246905 38 39 43
-0.63849449 -0.14311515 1.23029375 15 15 22
-0.63438123 -0.14075395 1.42115688 34 34 43
-0.63907599 -0.12691947 1.15091991 151 155 154
-0.63599554 -0.13114488 1.41818380 36 37 43
-0.63639708 -0.12857570 1.42232681 38 38 43
-0.63369550 -0.11007391 1.41448981 120 120 121
-0.63192487 -0.11741859 1.42115688 36 33 42
-0.63333235 -0.08326856 1.12551093 44 44 50
-0.63167364 -0.06982688 1.11546670 50 53 57
-0.63030880 -0.07514634 1.12048233 42 43 47
-0.62696445 -0.06409049 1.17271997 101 100 107
-0.63595537 -0.04238879 1.08347555 42 43 52
-0.62654654 -0.05610186 1.10767061 48 50 60
-0.62322786 -0.04244306 1.14922625 156 160 159
-0.63461459 -0.02816955 1.07577030 42 43 49
-0.62861480 -0.02794668 1.08337883 52 51 58
-0.62336415 -0.02893920 1.13893173 159 164 163
-0.62320847 -0.02706803 1.14559617 158 163 163
-0.63665101 -0.01320379 1.07308562 65 67 74
-0.62835590 -0.01504205 1.08523946 65 65 75
-0.61328388 -0.06296446 1.17313483 155 158 158
-0.61479784 -0.06646080 1.18306022 158 159 161
-0.60942254 -0.04429562 1.15320272 72 73 79
-0.60823114 -0.05711483 1.16744871 143 144 145
-0.61252727 -0.02600138 1.08570367 161 161 162
-0.61928320 -0.03450478 1.13740402 158 162 163
-0.60981662 -0.03142662 1.14671700 96 98 101
-0.61549011 -0.01556068 1.08846214 163 163 164
-0.60064811 0.15483280 1.26708758 115 115 114
-0.59675511 -0.04531987 1.15371129 45 46 52
-0.59942895 -0.05486999 1.16276479 163 164 163
-0.59938818 -0.02481794 1.07944560 162 167 168
-0.58537042 -0.03210203 1.13931406 43 42 50
-0.59423898 -0.02947804 1.14726375 43 43 51
-0.58672469 0.15017754 1.25436694 105 107 108
-0.59365730 0.15174650 1.26220395 106 107 108
-0.58235925 0.16302503 1.25015354 121 122 118
-0.58858740 0.16050296 1.26002204 103 104 106
-0.56513530 0.13970489 1.23029774 93 93 97
-0.56559891 0.15031474 1.23262593 116 116 117
-0.57343717 0.15398413 1.24447662 110 111 112
-0.56405667 0.16438754 1.23150407 97 100 101
-0.57033987 0.16410130 1.24594683 122 123 120
-0.54327536 -0.25767016 1.51653659 78 91 122
-0.54562947 -0.25545113 1.52679121 80 92 122
-0.55990946 0.13919917 1.22584414 96 96 105
-0.55693604 0.14805141 1.22756173 120 123 123
-0.55850405 0.15600532 1.24156010 124 128 129
-0.55915025 0.16731260 1.22832782 124 126 125
-0.55850405 0.16137017 1.24156010 123 123 126
-0.52560193 -0.26781718 1.49146398 73 94 124
-0.52407093 -0.26247968 1.50547620 71 93 121
-0.53078514 -0.25741205 1.49976075 74 92 118
-0.52859918 -0.25801266 1.51263991 75 91 120
-0.52860260 -0.25619525 1.52335250 83 97 123
-0.51856822 -0.28023428 1.48335195 70 96 127
-0.51886135 -0.27901319 1.47688854 72 98 128
-0.51323336 -0.27213130 1.49523021 74 93 123
-0.51268170 -0.26971755 1.51133236 75 93 122
-0.51791799 -0.26468903 1.52678347 73 95 124
-0.49777905 -0.27646880 1.49535612 76 90 120
-0.40323885 -0.20829827 0.55377548 85 117 138
-0.40208485 -0.19432217 0.55182973 81 109 135
-0.40305622 -0.17370367 0.55035750 77 104 131
-0.40040192 -0.13477136 0.54602656 69 94 122
-0.40901204 -0.02582696 0.65846790 147 153 152
-0.41557747 -0.02145074 0.66006994 149 158 158
-0.40839157 -0.01849139 0.65937858 154 156 155
-0.41557747 -0.01859855 0.66006994 150 158 157
-0.40389511 0.37801743 1.56557012 66 72 74
-0.39672650 -0.20329623 0.55182949 90 118 137
-0.39667432 -0.19599852 0.55123757 81 112 134
-0.39420891 -0.16850365 0.54399640 85 105 132
-0.38994040 -0.14919755 0.53854229 78 99 126
-0.39416501 -0.15417037 0.54065479 79 97 127
-0.38745350 -0.12750073 0.53497512 75 95 125
-0.39663065 -0.13064159 0.54156936 73 93 120
-0.38579046 -0.11060791 0.53289683 71 91 120
-0.38380729 -0.08955320 0.52890763 69 85 117
-0.38191933 -0.07023260 0.52635727 61 82 108
-0.38218227 -0.05137844 0.52701536 46 50 67
-0.38100899 -0.02960109 0.52538947 49 54 66
-0.38189243 -0.01849316 0.52699598 75 92 128
-0.38648223 0.35478190 1.53300583 75 76 80
-0.38622193 0.35807367 1.54183308 65 65 73
-0.38859761 0.36053246 1.53716969 66 66 74
-0.38707006 0.37057883 1.54933258 75 77 81
-0.38241670 0.38887629 1.53369200 73 77 87
-0.38265575 0.38598050 1.55623076 76 81 82
-0.38608339 0.38726722 1.56603560 78 83 84
-0.36899785 -0.20433990 0.51684250 103 128 143
-0.36657277 -0.19734842 0.51698017 119 132 137
-0.37794857 -0.10667520 0.53017909 92 100 122
-0.37701253 -0.08828136 0.52761807 80 94 119
-0.37660510 -0.06768636 0.52513260 68 84 106
-0.37486215 -0.04804996 0.52477738 58 62 75
-0.37627219 -0.03116839 0.52333920 50 54 64
-0.36972797 0.33988568 1.49315381 81 84 83
-0.36914038 0.34582746 1.51541829 74 76 77
-0.37117194 0.35180242 1.53240737 75 75 77
-0.37019882 0.35723102 1.54241800 81 84 87
-0.36202887 0.37115997 1.53716969 91 90 93
-0.37012175 0.37057820 1.54477029 97 100 102
-0.36603691 0.39278317 1.48866908 80 81 84
-0.36727769 0.38896237 1.51498699 77 80 84
-0.36974466 0.38677545 1.53104326 65 68 72
-0.37280155 0.38463920 1.54417811 65 66 72
-0.36314777 0.40255296 1.47688854 68 72 73
-0.36949903 0.40349330 1.49360975 73 79 80
-0.36304889 0.40517427 1.50559497 73 78 81
-0.34784263 0.35377425 1.51206821 92 96 99
-0.35586059 0.35524716 1.52967109 103 109 112
-0.35008898 0.36699897 1.51993692 79 80 84
-0.35523373 0.36947308 1.53139781 85 86 89
-0.35752583 0.37999225 1.54066324 82 87 91
-0.35167382 0.38918035 1.48832138 87 91 94
-0.35694597 0.38542923 1.50728378 89 94 95
-0.35804355 0.38178745 1.53716969 81 85 90
-0.35538678 0.40356522 1.49579365 79 83 89
-0.35999575 0.40669842 1.50642633 72 73 81
-0.28519143 -0.08789818 0.52416178 138 141 139
-0.28304966 0.01580559 0.49936006 112 116 120
-0.28567205 0.01719003 0.50065904 115 118 121
-0.28389512 0.02149678 0.49898454 111 112 110
-0.28704866 0.02101692 0.50043700 111 112 110
-0.27545641 -0.08708092 0.52364748 41 41 49
-0.26518238 -0.06024175 0.51787001 17 19 22
-0.26553562 -0.04621527 0.50916604 67 68 73
-0.27056331 -0.03886964 0.50214288 77 77 81
-0.27761752 0.01544177 0.49770483 109 116 117
-0.27934618 0.01860063 0.50058479 109 112 116
-0.27960563 0.02166108 0.49735278 124 125 124
-0.25355727 -0.04834209 0.51629466 118 119 121
-0.24850144 -0.03849680 0.51348504 49 50 61
-0.24628713 -0.02993888 0.52895772 71 71 76
-0.22880500 -0.04172761 0.81282136 44 49 63
-0.23888712 -0.03190180 0.52890032 147 149 147
-0.22979988 -0.03297427 0.81413906 51 57 75
-0.21765994 -0.03494024 0.81178223 41 48 61
-0.20112675 0.23179030 1.05265534 101 104 105
-0.20558644 0.23152423 1.06904349 87 89 93
-0.18348129 0.03284861 1.77633262 129 129 135
-0.18794645 0.03403101 1.78471039 131 132 138
-0.18339610 0.05036764 1.77417798 131 131 132
-0.18700173 0.04330105 1.78549488 136 139 139
-0.18224484 0.06057693 1.77924371 124 123 128
-0.18838876 0.19886468 1.02092147 97 97 99
-0.18627517 0.20944771 1.03113735 87 91 97
-0.19486961 0.21478851 1.04691124 87 88 94
-0.18807900 0.22786989 1.03496742 92 94 97
-0.19257567 0.22997075 1.04870696 98 100 102
-0.19803046 0.23103188 1.06420387 93 94 97
-0.16560876 -0.20497588 0.56981534 90 110 128
-0.16505395 -0.19694081 0.57197478 91 107 128
-0.16167149 0.01729605 1.75619650 134 134 142
-0.16390111 0.02977451 1.75364681 121 121 128
-0.17347443 0.03177763 1.76812332 125 125 130
-0.16001333 0.05917900 1.73818421 114 115 122
-0.16474403 0.05129171 1.74976499 116 116 121
-0.17418212 0.04882681 1.76604913 118 118 121
-0.17823395 0.06026060 1.76995254 123 124 127
-0.16032616 0.19302825 0.75869381 117 118 118
-0.16594535 0.19531827 0.76429468 99 102 105
-0.17587892 0.19879198 1.01694095 76 76 83
-0.16911235 0.19893841 1.02493720 84 84 93
-0.16245376 0.19923624 1.04130852 102 105 115
-0.16032635 0.20483020 0.75869477 97 96 97
-0.16696282 0.20448105 0.76506598 86 88 92
-0.17314546 0.20688910 1.01855216 105 108 111
-0.16912530 0.20936382 1.02576894 97 98 101
-0.16507839 0.23450895 1.01862091 76 80 81
-0.16907629 0.23043541 1.02850157 89 91 94
-0.17202383 0.23155697 1.04259017 98 101 105
-0.16963945 0.24074293 1.03024152 73 73 81
-0.14264034 -0.58300477 1.36947846 86 102 110
-0.14149693 -0.57246125 1.35850072 88 99 108
-0.14206633 -0.57830119 1.36396754 88 101 110
-0.15440060 0.01716266 1.74265254 116 120 127
-0.14760233 0.03166064 1.73522274 121 121 126
-0.15560781 0.03000216 1.74490209 116 117 123
-0.14894200 0.05989641 0.47021435 124 124 119
-0.15480572 0.05229038 1.73754915 112 114 119
-0.15352861 0.04464114 1.74415224 123 123 126
-0.14753662 0.06250666 0.47077195 107 106 106
-0.15578816 0.19558220 0.75490248 97 99 102
-0.15824414 0.19437076 0.76182031 104 106 109
-0.15374790 0.19856565 1.01938617 114 116 121
-0.15679584 0.20300786 0.75297869 90 90 94
-0.15972970 0.20838453 0.76210463 79 78 81
-0.15376971 0.20279087 1.01785694 126 127 126
-0.15919120 0.20518019 1.02608715 107 108 111
-0.12545556 -0.58338121 1.35768561 87 99 105
-0.13002349 -0.58549115 1.36475901 86 99 106
-0.12826460 -0.56825059 1.35550899 84 96 105
-0.13218654 -0.57384022 1.36177638 87 98 105
-0.12034811 -0.14367019 0.48525088 86 97 119
-0.12032724 -0.13967949 0.48594397 84 98 120
-0.13458434 0.03439312 1.73510661 107 108 115
-0.13934043 0.02318673 1.74265254 117 117 124
-0.13139312 0.04187790 1.73707286 125 126 130
-0.13934043 0.04276494 1.74265254 125 126 128
-0.13846954 0.06358353 0.47158335 104 106 108
-0.11508127 -0.58420157 1.35850072 87 95 109
-0.11644972 -0.58223227 1.36305455 89 96 109
-0.11606778 -0.57040313 1.35682871 86 98 107
-0.11613516 -0.56768600 1.36397487 88 97 105
-0.11523110 -0.14371467 0.48656494 82 98 117
-0.11605929 -0.13856338 0.48721605 85 96 116
-0.10542900 0.17122508 1.49645483 86 88 100
-0.10358521 0.17441689 1.50727254 86 87 92
-0.10291199 0.18007199 1.51653659 105 102 103
-0.08538691 0.03291959 0.74682976 103 103 111
-0.08381680 0.04224257 0.74393134 102 101 111
-0.08694883 0.08858752 0.49608478 101 101 104
-0.09164026 0.09127593 0.50097593 78 77 76
-0.08649347 0.12462413 0.51985568 104 110 109
-0.09035640 0.12790495 0.52415606 113 113 116
-0.08437476 0.15874718 1.51315141 96 101 100
-0.09341512 0.17410195 0.47595747 173 174 169
-0.09655343 0.17085996 0.48069105 173 174 170
-0.09142718 0.16956289 1.49748823 91 92 97
-0.08926021 0.17287357 1.50936528 98 99 102
-0.08117396 0.17601175 1.52679121 95 99 103
-0.09115363 0.18293832 0.46977362 177 178 171
-0.08998210 0.19264431 1.49391550 92 93 100
-0.09029601 0.18664301 1.51036909 94 97 105
-0.08378950 0.18354508 1.52635847 99 104 110
-0.07834705 0.03616043 0.74323430 105 104 115
-0.07967760 0.15981738 1.52335250 83 84 86
-0.07007367 0.17855928 1.51485914 101 101 106
-0.07684846 0.17320076 1.52525859 84 87 93
-0.07325923 0.18844892 1.49976075 105 109 115
-0.07431711 0.18590103 1.51317114 80 82 87
-0.07813370 0.18517795 1.52403870 93 96 102
-0.04274291 0.05700075 0.46673406 91 93 97
-0.04280066 0.06171112 0.46682654 82 84 93
-0.03745014 0.05533059 0.46458864 88 89 95
-0.03965548 0.06134065 0.46574561 90 93 100
-0.00897182 0.03292496 0.55137983 93 95 104
-0.00574716 0.14642143 0.49529840 156 154 152
-0.00065879 0.14168165 0.50075133 141 141 142
0.00120292 0.03173836 0.55016887 97 99 104
0.00965796 0.14826255 0.49545946 136 134 134
0.00818019 0.14412224 0.50168926 146 144 142
0.01364329 0.19459978 0.61964518 146 147 145
0.00810090 0.19454332 0.62699042 127 126 124
0.01833696 0.19524466 1.08936887 163 163 163
0.00689630 0.20252756 0.62782130 130 129 128
0.01438176 0.21876756 0.99507260 172 172 168
0.01290303 0.20925057 1.05554648 176 175 173
0.01590758 0.20657826 1.06814977 175 175 172
0.01633019 0.20125638 1.08116722 173 173 170
0.01884369 0.22583982 0.97876432 133 131 132
0.01421667 0.22373668 0.98679975 162 161 157
0.01282827 0.27673928 0.73717912 117 118 118
0.01170510 0.27636724 0.74371849 131 131 128
0.01777915 0.28451373 0.73281242 118 117 116
0.01499658 0.28204454 0.74699280 133 133 130
0.03653641 0.14991199 0.45883310 131 131 127
0.03518130 0.14945256 0.46328472 131 131 128
0.02031720 0.15294164 0.49517301 146 145 141
0.03790817 0.19320410 0.51474613 120 118 116
0.03101079 0.19866692 1.05100187 171 172 166
0.02444725 0.19919035 1.07015461 170 170 166
0.02011056 0.19420027 1.08348111 163 162 162
0.02734792 0.20860326 0.50814473 113 113 113
0.03296082 0.21489971 0.93460103 145 145 148
0.03069803 0.21690099 0.94791217 142 143 146
0.02810109 0.21775841 0.97141356 132 134 136
0.02482782 0.21859256 0.98689382 117 115 117
0.03049974 0.20577588 1.05192523 147 147 143
0.02432410 0.20661095 1.06576527 176 175 171
0.02816160 0.22168027 0.95077714 151 151 151
0.02429280 0.22347802 0.97365490 134 134 136
0.02106015 0.22105145 0.98762107 107 107 105
0.02329483 0.27936892 0.72579927 81 85 86
0.02312929 0.28199808 0.72441084 104 108 108
0.04090173 0.14943438 0.45915244 119 119 114
0.04108711 0.14819020 0.46143113 123 121 121
0.04703344 0.19203288 0.50955729 134 133 130
0.04670318 0.20620790 0.51654874 138 136 132
0.07124432 0.23913426 0.71745512 133 132 128
0.07572526 0.25116433 0.71914524 131 131 128
0.07517194 0.25007544 0.72288686 135 133 131
0.07001408 0.26269229 0.73118181 150 149 143
0.07963167 0.50922430 1.86234021 143 143 144
0.07835061 0.51883316 1.90956962 134 134 137
0.07924287 0.51807010 1.93131578 129 128 131
0.07812991 0.52231318 1.90419054 139 139 138
0.07901775 0.53157717 1.92582905 152 152 150
0.07700164 0.53571576 1.95922494 132 134 135
0.07549032 0.53366430 1.97292056 124 126 128
0.07369623 0.53832354 1.99186206 118 122 124
0.07857132 0.54677802 1.91494870 128 124 126
0.07901775 0.54988468 1.92582905 128 125 128
0.07835168 0.55027510 1.95078270 146 142 141
0.07462771 0.54889251 1.97110567 142 141 141
0.07297226 0.55387858 1.98796976 146 144 145
0.07924330 0.56313145 1.93132623 94 94 98
0.07692767 0.56959172 1.95734290 109 108 109
0.07347106 0.56664467 1.97062691 132 130 130
0.07021218 0.56845999 1.99089901 140 138 138
0.09530557 0.23537161 0.69638094 146 144 142
0.08860089 0.23584802 0.70862312 128 130 131
0.08389142 0.23842609 0.72185487 81 83 89
0.09722783 0.24613196 0.69734219 122 122 122
0.08752121 0.24910392 0.71206772 113 114 116
0.08215528 0.25211246 0.72154687 105 105 107
0.08099170 0.51193547 1.87522310 141 141 141
0.08506059 0.53411786 1.89357477 133 130 130
0.08480598 0.53410487 1.90633612 141 139 137
0.08908855 0.54192704 1.89225614 105 103 106
0.08828223 0.54569404 1.91033374 111 108 112
0.09130950 0.55544113 1.93242567 102 102 107
0.09002670 0.55115485 1.94796503 122 122 121
0.08715537 0.56449757 1.92913358 94 93 102
0.08896685 0.56760373 1.94922331 94 93 103
0.09760190 0.56953222 1.96490383 97 95 102
0.11776251 0.23080356 0.63831621 92 92 96
0.11965490 0.23122203 0.64255384 96 96 99
0.10546744 0.23024859 0.69438483 128 126 123
0.10081191 0.24643401 0.69652437 98 98 102
0.10014818 0.25140068 0.70030147 130 130 129
0.10012740 0.56462246 1.94796503 97 97 101
0.13791917 -0.28313635 0.84994914 70 77 83
0.13358278 -0.26322382 0.83662878 70 76 88
0.13632026 -0.27311928 0.84330429 71 78 86
0.13555577 -0.25651184 0.83411531 69 77 87
0.13930648 0.05300186 0.65665996 93 93 102
0.12469798 0.22822899 0.63682012 95 95 98
0.12168782 0.22892213 0.64309015 101 101 105
0.14507271 -0.28504933 0.85113798 69 76 88
0.14173101 -0.26145595 0.83897507 65 75 94
0.14580184 -0.27587209 0.84474489 70 78 87
0.14159138 -0.25455134 0.83178671 69 77 89
0.15458468 0.03850727 0.66814585 120 121 122
0.14662008 0.05450620 0.65802092 104 104 111
0.15438468 0.04908153 0.66390611 102 102 106
0.15114431 0.06000514 0.65878701 100 105 110
0.15726384 0.06038678 0.66297697 113 112 114
0.15552118 0.20950363 0.45619884 0 0 0
0.15780201 0.21531036 0.46884314 0 0 0
0.15970889 0.22016504 0.47941431 0 0 0
0.16206288 0.05576467 0.66470577 92 92 96
0.16004816 0.06035708 0.66265088 102 97 102
0.17026834 0.19389869 0.46710546 84 84 83
0.17256479 0.20263591 0.47120025 0 0 0
0.16171919 0.22528306 0.49055891 0 0 0
0.16490381 0.23339073 0.50821356 0 0 0
0.16714792 0.23910397 0.52065426 0 0 0
0.16891539 0.24360373 0.53045261 0 0 0
0.17201413 0.25149276 0.54763114 0 0 0
0.17462397 0.25813714 0.56209940 0 0 0
0.17668746 0.26339056 0.57353884 0 0 0
0.17882682 0.26883709 0.58539885 0 0 0
0.18030629 0.27260366 0.59360057 0 0 0
0.18182780 0.27647725 0.60203540 0 0 0
0.18419875 0.28251341 0.61517927 0 0 0
0.18751781 0.29096334 0.63357919 0 0 0
0.19013356 0.29762271 0.64808017 0 0 0
0.19194953 0.30224597 0.65814739 0 0 0
0.19478949 0.30947620 0.67389137 0 0 0
0.19775252 0.31701973 0.69031757 0 0 0
0.19981501 0.32227057 0.70175141 0 0 0
0.21543764 0.17788795 0.51914972 122 122 119
0.21509899 0.18208538 0.51949372 120 118 109
0.21665472 0.18811839 0.52179588 128 127 122
0.20194696 0.32769829 0.71357036 0 0 0
0.20529289 0.33621663 0.73211926 0 0 0
0.20879664 0.34513676 0.75154305 0 0 0
0.21251389 0.35460047 0.77215049 0 0 0
0.21641630 0.36453557 0.79378438 0 0 0
0.21915017 0.37149566 0.80894017 0 0 0
0.20151137 0.50156808 1.11312294 0 0 0
0.20497258 0.51510113 1.14315653 0 0 0
0.20566623 0.52080935 1.14702511 0 0 0
0.20898858 0.53234306 1.17689908 0 0 0
0.21286743 0.54755306 1.21052504 0 0 0
0.21697444 0.56365779 1.24612892 0 0 0
0.22708877 0.18924955 0.51920970 120 119 122
0.22663879 0.19397131 0.52355047 120 120 118
0.22984527 0.20183610 0.52633165 125 124 119
0.22199047 0.37872672 0.82468593 0 0 0
0.22647986 0.39015621 0.84957391 0 0 0
0.23121591 0.40221366 0.87582928 0 0 0
0.23455071 0.41070366 0.89431643 0 0 0
0.23802932 0.41955981 0.91360086 0 0 0
0.22091119 0.57741958 1.28145909 0 0 0
0.22174956 0.58405757 1.28632224 0 0 0
0.22551723 0.59542876 1.32142663 0 0 0
0.22639987 0.60234505 1.32659853 0 0 0
0.23041983 0.61459750 1.36396754 0 0 0
0.23158498 0.62363008 1.37086457 0 0 0
0.23564859 0.63504148 1.40933859 0 0 0
0.23688003 0.64448300 1.41670340 0 0 0
0.25162726 0.11495788 0.47172937 121 122 121
0.24962287 0.12242428 0.47001632 136 137 137
0.24166127 0.42880630 0.93373531 0 0 0
0.24545689 0.43846953 0.95477724 0 0 0
