ply
format ascii 1.0
element vertex 871
property float x
property float y
property float z
property uchar red
property uchar green
property uchar blue
end_header
-0.92170775 0.01688864 1.57649267 73 73 73
-0.92112505 0.02375598 1.58016741 75 72 75
-0.91271529 0.01719236 1.57330687 71 71 71
-0.90200675 0.01829360 1.58016741 74 74 76
-0.91002024 0.02316543 1.57384016 73 72 73
-0.90701969 0.02528676 1.58285881 75 74 75
-0.90142888 0.05131045 1.58757308 75 74 74
-0.88687176 0.03824268 1.55837202 73 73 75
-0.89228990 0.02959595 1.57138754 73 73 74
-0.89706804 0.02445266 1.58109042 75 74 75
-0.88960063 0.04509211 1.57175448 75 75 76
-0.89493957 0.05171098 1.58312449 75 74 75
-0.87879121 0.02881536 1.55837202 74 73 74
-0.86152112 0.04569299 1.53716969 75 74 74
-0.86736925 0.04656754 1.54907039 75 74 74
-0.87554106 0.05443783 1.56702638 76 75 75
-0.84603471 0.04777453 1.53503438 76 74 76
-0.85372765 0.05172820 1.54277055 75 74 75
-0.46820448 -0.20546695 0.83185408 70 70 73
-0.46924559 -0.19294613 0.83231702 72 72 74
-0.46960595 -0.12063868 0.62709701 45 45 45
-0.46069175 -0.10423704 0.61661641 47 47 48
-0.46708916 -0.10976592 0.62373613 46 46 47
-0.46121027 -0.09077614 0.61731043 48 47 48
-0.46605320 -0.08913144 0.62249588 50 48 50
-0.46587267 -0.06921535 0.62716556 48 46 48
-0.46792771 -0.05751918 0.62694265 48 48 50
-0.45605633 -0.10459705 0.61182750 46 45 47
-0.45139003 -0.08858201 0.60841548 46 45 46
-0.45607978 -0.07765598 0.61359412 48 48 49
-0.45808442 -0.07585651 0.62175730 48 47 48
-0.44467061 -0.04512741 0.59950672 51 50 52
-0.45871650 -0.05522837 0.61682656 48 48 51
-0.44152548 -0.03631573 0.59509327 51 50 51
-0.42295377 -0.06789718 1.15648584 87 89 89
-0.42466543 -0.06269600 1.16299134 88 88 88
-0.43434461 -0.04541944 0.58995310 49 49 51
-0.42454645 -0.05600659 1.16912418 87 89 90
-0.43092471 -0.02991604 0.58679179 49 49 50
-0.42122513 -0.00330954 0.57989037 48 47 47
-0.42833451 -0.00928406 0.58515484 49 48 49
-0.42194946 0.01426924 0.57846732 51 50 50
-0.42720484 0.00663201 0.58403228 49 48 49
-0.42200983 0.02770787 0.57727112 51 50 51
-0.42596328 0.02178450 0.58088448 50 50 50
-0.40070047 -0.07252238 1.11495972 87 90 92
-0.40652031 -0.06713957 1.13010223 88 90 91
-0.41630109 -0.06612188 1.14900707 89 90 90
-0.41984153 -0.06280124 1.16077375 94 94 92
-0.40488408 -0.05058314 0.79733560 79 78 78
-0.40287479 -0.05069065 0.80273018 82 80 81
-0.40930622 -0.05848460 1.15486400 89 90 90
-0.41366737 -0.05511536 1.16268353 88 89 92
-0.41655864 -0.00030475 0.58388615 59 59 59
-0.41551000 0.01182733 0.57734880 47 46 47
-0.41727716 0.00313911 0.58277926 52 52 53
-0.41646411 0.02973518 0.57564417 49 49 49
-0.41273910 0.04594166 0.57051339 46 45 47
-0.39338269 -0.06062585 0.79174579 79 78 78
-0.39161780 -0.06077095 0.80271637 80 79 80
-0.39121473 -0.07510908 1.09869015 88 89 91
-0.39531785 -0.07153990 1.10780780 88 90 92
-0.39720955 -0.06654153 1.12234056 89 91 94
-0.39616835 -0.05626970 0.79602677 80 79 81
-0.39620776 -0.05190485 0.80580570 80 80 80
-0.32531816 -0.04513651 0.99743798 93 93 97
-0.33181562 -0.04860249 1.00242826 91 91 94
-0.32439013 -0.03177280 0.99498794 92 93 96
-0.31853300 -0.04568255 0.99543643 84 85 87
-0.31863074 -0.03577824 0.99507099 88 89 91
-0.18352724 -0.20567750 0.79681258 92 96 102
-0.18450830 -0.20830118 0.80201435 92 95 101
-0.18227532 -0.19722493 0.79533969 94 95 101
-0.18434438 -0.19961736 0.80034459 94 95 97
-0.18211285 -0.10673261 0.64300238 72 72 75
-0.18053425 -0.09661414 0.64770995 76 75 77
-0.18016662 0.09213823 0.57506948 82 83 83
-0.17003074 -0.20985434 0.79504565 94 99 104
-0.17585845 -0.20954655 0.80263812 95 97 104
-0.17196186 -0.19744052 0.79362706 92 96 102
-0.17784767 -0.19870321 0.80223888 91 95 98
-0.16819657 -0.12489139 0.47740853 89 93 95
-0.16943953 -0.13258635 0.48340253 89 92 95
-0.17212603 -0.12045256 0.64347351 91 94 100
-0.16577056 -0.11915133 0.47772517 90 93 98
-0.16783689 -0.11974214 0.48009336 88 92 95
-0.16426488 -0.11011195 0.63718277 90 93 97
-0.17298207 -0.10784055 0.64372198 86 87 90
-0.16870097 -0.09663706 0.63903282 88 90 93
-0.17307419 -0.09712007 0.64197630 83 84 87
-0.17444216 0.09396582 0.57421113 83 82 83
-0.17455745 0.10146832 0.57483287 84 80 81
-0.15900686 -0.11587576 0.63222273 91 95 98
-0.12696435 -0.10801747 0.53304301 91 94 99
-0.11893202 -0.11167527 0.53083070 92 96 102
-0.11358286 0.29945940 0.85055441 109 108 110
-0.10796781 0.31042167 0.85519067 111 110 111
-0.08203278 -0.30157036 0.59100389 79 85 86
-0.08229413 -0.30089083 0.60070178 79 85 87
-0.08294014 -0.29827789 0.59527607 80 85 87
-0.08233059 -0.29842757 0.60096794 78 84 86
-0.09520701 0.31232232 0.85558078 110 110 110
-0.07496378 -0.30199507 0.59089569 77 84 84
-0.07420133 -0.30138072 0.60123476 77 83 84
-0.07907422 -0.29945472 0.59990430 85 88 93
-0.07597385 -0.29909104 0.60090909 80 84 87
-0.06229971 0.21733917 0.67373647 113 113 114
-0.06095099 0.22087537 0.66836804 116 116 119
-0.05172090 0.07878135 0.62163436 80 79 81
-0.04909083 0.08647399 0.61913232 78 76 78
-0.05184562 0.08282209 0.62056994 69 67 69
-0.05456945 0.21732196 0.67501832 111 111 112
-0.05431882 0.22216427 0.67403529 115 115 116
-0.02580655 -0.08579199 0.50732046 90 91 97
-0.02226863 -0.07934192 0.50630385 91 93 100
-0.01847510 -0.08136555 0.50276397 90 92 97
-0.01875839 -0.07699659 0.50317486 90 94 99
0.01939562 -0.28081220 0.59884441 69 78 79
0.01785540 -0.27005312 0.59584276 72 76 81
0.00608314 -0.16305453 0.49519254 84 87 92
0.00865309 -0.15778533 0.49291142 81 84 91
0.01180671 0.07790824 0.45269962 89 89 92
0.01259872 0.08090854 0.45256343 91 92 96
0.03667293 -0.52711600 1.23253877 72 79 82
0.03948893 -0.51272005 1.21922994 75 80 84
0.03764976 -0.51749827 1.22807094 74 80 83
0.03843526 -0.42210439 1.21922994 79 82 87
0.03890397 -0.42619247 1.22289658 77 81 86
0.03519558 -0.41375798 1.21354755 78 81 85
0.03763308 -0.34673965 1.18493822 77 81 86
0.03687655 -0.32948573 1.18530892 78 83 88
0.03799753 -0.31298690 1.18903553 80 83 90
0.03896337 -0.30108492 1.20300335 85 86 93
0.02609404 -0.28258764 0.59774888 68 76 79
0.03880502 -0.28888585 1.19811425 83 85 91
0.03795571 -0.29355752 1.20407650 85 87 94
0.02414118 -0.27127915 0.59331369 70 76 80
0.03882557 -0.26272699 1.19874871 81 81 88
0.03898807 -0.27318999 1.20376582 80 82 90
0.03885990 -0.25984770 1.19980860 82 82 90
0.03841804 -0.24322015 1.25303483 87 91 94
0.03929623 -0.18309154 0.53825867 89 92 96
0.03579833 -0.12363763 1.23185482 84 83 90
0.03109247 -0.12608815 1.24896544 84 85 90
0.02992089 -0.12370595 1.26002204 83 84 88
0.03885990 -0.10120416 1.19980860 87 88 95
0.03316746 -0.10407062 1.21231830 88 87 95
0.03277834 -0.10955728 1.23084415 86 87 93
0.02860434 -0.11463556 1.25016092 88 89 93
0.03752112 -0.09055867 1.19283757 85 85 90
0.03158250 -0.09622911 1.20892014 88 89 95
0.02903681 -0.09786766 1.22289920 89 89 96
0.03614637 -0.06174652 1.17894232 85 86 95
0.03668217 -0.07219538 1.18981969 87 86 93
0.03737557 -0.04497699 1.23453077 87 89 95
0.03433097 -0.04635971 1.25073147 87 90 97
0.03132581 -0.04456942 1.26402143 89 91 96
0.03635921 -0.03095852 1.23456018 88 89 96
0.03439289 -0.03129458 1.25112600 89 90 97
0.03160372 -0.02829618 1.26709233 90 90 98
0.03053129 -0.03289352 1.28572714 91 91 98
0.03866901 -0.00625204 1.16900874 90 89 96
0.03615236 -0.00702276 1.19265326 89 89 95
0.03535585 -0.00898165 1.21019115 89 89 95
0.03442156 -0.01146879 1.22990985 90 89 96
0.03237953 -0.01306014 1.25018111 91 91 98
0.03131790 -0.01456146 1.26148963 91 90 98
0.03885467 0.00649706 1.17466604 91 91 97
0.03618583 0.01083335 1.19000410 89 89 94
0.03272572 0.00825035 1.20946668 89 89 94
0.03987509 0.02969350 1.16878042 86 87 91
0.03719620 0.02563110 1.18660043 89 88 95
0.03483593 0.02518677 1.20407991 89 89 96
0.03886979 0.05848172 1.13931406 88 88 92
0.03880457 0.06329836 1.13740242 88 88 93
0.03901419 0.07411536 1.14354665 88 88 91
0.03684827 0.07548714 1.16544392 89 89 92
0.03873972 0.09066403 1.13550169 86 88 93
0.03667060 0.09056816 1.15405102 88 89 94
0.03608850 0.08549341 1.16396761 88 89 94
0.03764421 0.11211399 0.45433974 107 105 108
0.03481515 0.11955427 0.46052456 110 107 110
0.03870087 0.11018560 1.13436301 85 84 90
0.03747805 0.11172354 1.15714387 86 85 92
0.03663882 0.10828301 1.16882917 85 84 89
0.03620934 0.11573521 1.18099630 88 86 95
0.03583675 0.12107278 0.45933884 110 106 108
0.03482697 0.12118775 0.46068089 112 106 109
0.03906721 0.12310654 1.14510059 83 82 90
0.03678765 0.12345025 1.16713965 83 82 88
0.05941677 -0.54150513 1.23929036 74 82 87
0.05325061 -0.54092805 1.24536816 69 75 80
0.05063014 -0.52746868 1.23370965 71 75 81
0.05529706 -0.53774752 1.24298391 70 76 81
0.04850602 -0.51741297 1.22723716 71 76 81
0.04454909 -0.42396824 1.21766642 77 81 86
0.04272678 -0.42655943 1.22142673 76 81 85
0.04948788 -0.40933781 1.20922798 76 80 84
0.05117133 -0.40703142 1.22142673 73 80 84
0.05584677 -0.39274313 1.19716445 76 81 88
0.05564471 -0.39812433 1.20407331 75 80 87
0.04432901 -0.34817029 1.17743136 75 79 83
0.05067535 -0.34376714 1.18606565 75 80 84
0.04953701 -0.32970490 1.17894232 75 77 83
0.04950798 -0.32927713 1.18334642 76 79 85
0.04866643 -0.31120100 1.18984484 77 79 87
0.05081749 -0.30235113 1.20649882 77 78 86
0.05861636 -0.30250388 1.22994794 75 75 84
0.05812484 -0.30064157 1.25768435 74 74 83
0.04153305 -0.28892855 1.19712998 80 83 89
0.04833998 -0.29244865 1.20860053 76 78 84
0.05256520 -0.28764589 1.22624978 75 76 83
0.05523372 -0.28605753 1.24156010 75 75 84
0.05855953 -0.28427642 1.26708975 72 76 83
0.04185409 -0.26936642 1.19818889 80 81 88
0.04688575 -0.26852614 1.21355550 78 79 86
0.05042183 -0.27405193 1.22865145 76 77 85
0.05333311 -0.27116589 1.24729747 75 76 82
0.05248948 -0.26232443 1.26158631 76 77 81
0.04204539 -0.25672856 1.19769093 80 82 89
0.04613367 -0.25837912 1.20912385 79 81 88
0.05133401 -0.24193777 1.23816168 74 77 83
0.05184684 -0.24964693 1.25266093 77 79 83
0.05064619 -0.25282199 1.26096324 77 80 83
0.05634765 -0.22928277 1.21922994 72 72 80
0.05129312 -0.22969444 1.22885355 76 76 84
0.04722734 -0.22926426 1.24676286 80 81 87
0.04322902 -0.22623733 1.26708758 82 82 90
0.04150443 -0.22991080 1.28145909 82 82 91
0.05265980 -0.20715570 1.21922994 75 74 83
0.05115065 -0.20969585 1.22576881 76 76 83
0.04493254 -0.20776773 1.25351434 82 82 88
0.04352554 -0.20625559 1.26947993 82 81 88
0.04162264 -0.21279174 1.28510880 82 81 87
0.04457978 -0.18682377 0.53603925 88 91 96
0.04223537 -0.18887123 0.54015285 86 91 96
0.04791829 -0.18186761 1.21922994 78 81 84
0.05209707 -0.19106634 1.22778882 75 76 83
0.05317869 -0.19337904 1.24971812 76 76 83
0.04322902 -0.19776657 1.26708758 81 82 86
0.04821681 -0.17899733 0.53445192 89 93 100
0.04176613 -0.16207153 1.17648904 84 83 89
0.05057995 -0.16628784 1.18955269 77 77 82
0.05216143 -0.17607616 1.21026689 75 77 81
0.05877210 -0.17861669 1.22584414 72 72 79
0.04359134 -0.15246707 1.17415747 81 81 88
0.05257247 -0.15026999 1.18336628 76 76 82
0.04970544 -0.13231000 1.17826009 76 77 84
0.05111296 -0.13269803 1.18508094 75 77 84
0.04441145 -0.12156058 1.20984308 85 85 90
0.04488125 -0.12213707 1.22252911 82 82 88
0.04928604 -0.10563739 1.19195116 78 79 86
0.04455326 -0.11275047 1.21154323 81 81 87
0.04476951 -0.11817064 1.22363375 81 81 86
0.04932086 -0.09073637 1.19065322 79 79 86
0.04218631 -0.06469527 1.17690089 84 85 91
0.04457500 -0.07364554 1.18990235 82 81 89
0.05488186 -0.07647513 1.20557433 78 77 84
0.04199174 -0.05730455 1.17147291 85 86 93
0.04036217 -0.05991722 1.18305731 83 83 91
0.04631301 -0.04352277 1.23628221 81 83 87
0.05495142 -0.04549170 1.24856405 76 77 81
0.05823288 -0.05183703 1.26002204 75 73 80
0.04888097 -0.02130117 1.15878952 83 84 93
0.04238004 -0.02332929 1.16831270 87 89 96
0.04400013 -0.03771808 1.23740721 85 85 92
0.05201465 -0.03870013 1.24823094 79 79 85
0.05513056 -0.00711935 1.15742137 76 76 83
0.04513237 -0.00826783 1.16710088 88 88 95
0.04131248 -0.01490519 1.18099630 88 88 95
0.05683645 0.00594303 1.15708507 74 74 80
0.04834569 0.01171964 1.16833897 83 83 89
0.05462828 0.01879281 1.18202680 77 76 80
0.04622208 0.03480905 1.15627282 82 82 87
0.05087561 0.02682267 1.16866009 80 80 84
0.05393198 0.02253054 1.18168330 77 77 81
0.04747832 0.05506676 1.13797719 82 82 85
0.05298769 0.05505716 1.14633066 79 79 85
0.04771013 0.06948127 1.13615436 83 84 87
0.05298392 0.07127807 1.14504897 80 80 84
0.04974313 0.09035336 1.12898485 81 82 87
0.05895844 0.08167529 1.14702839 74 75 78
0.04236295 0.11295535 0.45476627 109 106 109
0.05073177 0.10962378 1.11863339 79 78 84
0.04984977 0.10946354 1.12346169 79 79 83
0.04057798 0.12053252 0.45819008 105 104 106
0.04822316 0.12106313 1.12794359 79 80 85
0.06094613 -0.52604692 1.22695655 78 81 88
0.06222385 -0.51742785 1.21055670 80 81 88
0.06085424 -0.51731010 1.22510660 81 81 88
0.06457289 -0.40499388 1.21531019 88 90 95
0.06156262 -0.39291364 1.19769251 90 93 99
0.06298796 -0.39743774 1.20514202 89 93 99
0.06123785 -0.34038875 1.19137406 90 96 98
0.06854111 -0.32464295 1.17536578 91 92 100
0.06408224 -0.32884510 1.18685683 89 91 98
0.06855608 -0.31251523 1.17562252 89 90 97
0.06477444 -0.31208534 1.19021033 89 90 97
0.06341201 -0.30725335 1.21188704 89 90 96
0.06336287 -0.30361922 1.22585219 85 87 95
0.06224298 -0.30169661 1.25303769 80 83 91
0.06291912 -0.30146281 1.26662712 82 84 92
0.06786525 -0.29184296 1.19272433 89 92 99
0.06710384 -0.29216165 1.21054779 89 91 99
0.06566277 -0.29027959 1.23104341 87 90 97
0.06605418 -0.29128347 1.24326867 89 92 99
0.06243534 -0.29032777 1.26698372 77 80 87
0.06974022 -0.26624060 1.19592849 92 94 98
0.06853605 -0.26962783 1.21117775 91 92 97
0.06678528 -0.26955042 1.22858016 87 89 93
0.06546915 -0.27064829 1.24976013 85 86 89
0.06246480 -0.27079463 1.26864767 76 78 81
0.06155487 -0.26807082 1.28388608 72 73 78
0.06978128 -0.25812666 1.19663262 92 91 99
0.06868292 -0.25762641 1.21377331 91 91 95
0.06444230 -0.24945274 1.23310611 85 86 89
0.06281019 -0.24901811 1.25362349 78 79 83
0.06168390 -0.25405347 1.26384367 75 77 81
0.06163810 -0.22656765 1.23478268 75 75 84
0.06167153 -0.23884693 1.24156010 78 78 85
0.06466071 -0.20257667 1.21704102 92 92 99
0.06200390 -0.20422524 1.22696263 79 78 86
0.06179911 -0.19105566 1.23189734 75 77 82
0.06172811 -0.19073819 1.24269915 74 74 81
0.06156262 -0.16313093 1.19769251 82 82 91
0.06106300 -0.16981992 1.20839792 77 78 86
0.06089108 -0.17755980 1.22584820 68 71 78
0.06238260 -0.15402348 1.18970635 86 86 93
0.06002256 -0.07581878 1.20836341 75 75 81
0.07017715 -0.04101282 1.16877902 88 87 97
0.06862143 -0.04045752 1.21268666 89 89 100
0.06504870 -0.04343548 1.23778276 74 73 81
0.06250463 -0.04643312 1.25112531 72 71 77
0.06046698 -0.05188428 1.26119524 73 72 79
0.07177472 -0.02643530 1.15550137 90 90 97
0.06874808 -0.02897220 1.16747041 90 88 95
0.06649531 -0.03078464 1.18972103 87 86 92
0.06529982 -0.03407264 1.20944995 82 78 85
0.06572266 -0.03913152 1.23702896 76 76 87
0.06228251 -0.03880121 1.25397332 71 71 78
0.06703988 -0.00878688 1.15391543 89 89 95
0.06617520 -0.01678435 1.16945656 90 91 98
0.06336301 0.00922506 1.15246286 79 78 86
0.06156584 0.02893758 1.15878952 74 75 79
0.06271082 0.02649439 1.16143743 76 76 80
0.07115080 0.05732836 1.13597834 90 87 90
0.06593274 0.05520539 1.14983676 83 83 88
0.06978371 0.07153209 1.13178296 89 90 97
0.06446245 0.06925727 1.14646413 81 82 87
0.07290654 0.09311334 1.11771196 88 89 91
0.06652980 0.08986351 1.12854278 83 84 88
0.06190418 0.08164146 1.14654729 74 74 78
0.07088709 0.10650131 1.11633280 89 88 93
0.06585507 0.10651511 1.12511505 81 79 83
0.09845805 -1.00826919 1.98213995 71 80 79
0.09984050 -0.90411472 1.94238353 84 86 91
0.09927161 -0.88561058 1.93131578 84 88 91
0.09984050 -0.89572158 1.94238353 80 85 88
0.09927215 -0.87893275 1.93132623 81 85 89
0.09984050 -0.87725669 1.94238353 81 84 89
0.09849983 -0.12688129 0.53873556 82 84 88
0.09820685 -0.13113563 0.54076365 86 87 93
0.10873596 -0.94660181 1.98213995 84 95 95
0.11148855 -0.90465573 1.92819835 85 91 93
0.10898822 -0.91538008 1.94611530 84 91 93
0.11155697 -0.88952564 1.91298717 86 90 92
0.10907614 -0.89097475 1.92468705 84 88 91
0.11185601 -0.87097973 1.91054213 85 89 91
0.11049719 -0.86898195 1.92842941 85 88 91
0.10757817 -0.86948663 1.94665553 85 87 89
0.11762749 -0.85890308 1.93133146 88 90 92
0.11424744 -0.48305143 0.99794442 85 89 95
0.10845249 -0.48554766 1.00280154 85 90 95
0.11933067 -0.46785037 0.97088116 82 87 91
0.11489558 -0.47371932 0.99706964 82 88 89
0.10897786 -0.47265938 1.00269563 83 87 90
0.11942834 -0.45972779 0.97678941 81 85 88
0.11969447 -0.39699198 1.74265254 95 95 104
0.10815188 -0.14299934 0.53926844 88 90 96
0.10487911 -0.14288884 0.54120926 89 90 98
0.10729465 -0.13374575 0.53886634 87 88 96
0.10571623 -0.13596087 0.54180169 86 88 96
0.13043544 -0.94417813 1.97348845 87 93 93
0.12968419 -0.92161751 1.93683386 85 91 92
0.13263195 -0.90458409 1.91494870 82 89 92
0.12773474 -0.90963677 1.92653829 83 90 92
0.12954247 -0.89007355 1.91009845 83 88 90
0.12328133 -0.89390556 1.92401570 84 88 90
0.13042338 -0.86580333 1.89885676 84 88 90
0.12763418 -0.86778035 1.90630105 84 88 90
0.12395540 -0.86146072 1.92584461 88 89 91
0.13042338 -0.85595730 1.89885676 81 85 86
0.13290654 -0.85291760 1.90956161 85 89 90
0.12894174 -0.85314778 1.92583942 85 90 93
0.12092049 -0.46782775 0.98435730 77 85 88
0.12802709 -0.39624831 1.73288124 92 94 102
0.12714505 -0.39377047 1.74747635 93 94 101
0.13097550 -0.38778930 1.77107069 94 94 103
0.13060495 -0.38634271 1.78594671 95 95 104
0.13006519 -0.38111413 1.80290389 96 96 105
0.12495505 -0.37819529 1.77458596 99 99 108
0.13556193 0.18930264 0.59322240 112 110 112
0.14026944 -0.86252132 1.89885676 84 89 89
0.15473818 -0.38427633 1.69756118 90 90 98
0.15224910 -0.38477999 1.70994618 91 91 97
0.14572548 -0.38584615 1.72744612 93 93 100
0.14289844 -0.38357142 1.75016920 90 93 102
0.14224134 -0.38133496 1.76075804 87 91 103
0.15604293 -0.37961867 1.71184814 91 91 98
0.15171201 -0.37371767 1.73003799 92 95 103
0.14680277 -0.37440175 1.74265254 91 96 103
0.14427023 -0.37727719 1.76075804 91 95 102
0.14205596 0.19097590 0.59294770 109 108 109
0.17218311 -0.42096701 0.83897507 75 84 83
0.17087853 -0.42240951 0.84088362 76 84 84
0.16640577 -0.40987188 0.83598118 79 83 84
0.17213723 -0.41048061 0.84170621 80 85 86
0.16285066 -0.39704213 0.82838464 82 83 85
0.16041984 -0.37255441 1.72711575 92 95 103
0.17898272 -0.23210511 0.50332388 75 77 79
0.18104694 -0.40683302 0.84360541 78 82 85
0.18927734 -0.22906126 0.50407220 75 76 78
0.19346023 -0.02188993 0.68966268 88 88 95
0.19316776 -0.01504340 0.69221644 89 89 96
0.19707911 0.13746484 0.83170383 86 86 88
0.19751086 0.14142590 0.83113392 85 84 84
0.19557333 0.37502739 0.97095812 109 109 107
0.20481603 0.13258962 0.81870997 84 83 87
0.20527600 0.13533229 0.82699212 84 84 86
0.20655272 0.14378749 0.82909771 86 86 88
0.21932841 0.19847129 0.61752878 108 105 106
0.21876760 0.20058822 0.61720091 111 110 111
0.20794110 0.37275871 0.97056203 110 109 109
0.20070907 0.38167310 0.96980232 109 108 108
0.23239396 -0.44496417 1.63067767 88 89 94
0.23255576 -0.44331804 1.64844483 87 89 96
0.22242230 -0.44434271 1.66971135 85 88 97
0.22130093 -0.45085463 1.69050336 87 90 98
0.22296903 -0.45130911 1.70324588 86 89 97
0.22297946 -0.43987530 1.61788034 88 90 96
0.23512278 -0.43875314 1.65407507 87 89 98
0.23760647 -0.43737584 1.66149962 87 90 97
0.22908062 0.19761258 0.61814491 106 104 105
0.22873401 0.20128472 0.61844692 109 109 109
0.25149676 -0.46304431 1.09149114 76 79 82
0.24337143 -0.46114573 1.61402822 91 94 98
0.24148673 -0.46417154 1.62954772 92 94 97
0.25497651 -0.44485951 1.07754091 82 85 89
0.25001685 -0.45053424 1.08546674 81 82 87
0.24803726 -0.44104300 1.11040652 78 81 84
0.24944446 -0.44388009 1.59425483 89 90 98
0.24447413 -0.44899653 1.60848553 90 90 97
0.24246192 -0.44576418 1.62663093 88 88 96
0.24213106 -0.44343929 1.64671270 88 88 96
0.25558693 -0.43518115 1.07602347 82 85 88
0.25410839 -0.43222246 1.08899286 81 85 87
0.25027292 -0.43424185 1.10335206 80 83 86
0.24865046 -0.43248165 1.55123997 88 90 98
0.24766952 -0.43547115 1.56196272 88 90 98
0.25223639 -0.43538597 1.59463726 87 88 97
0.25366812 -0.43170416 1.61005512 87 89 97
0.25092961 -0.42922946 1.63054541 87 89 97
0.24568021 -0.43342099 1.64827065 86 89 97
0.25313111 -0.41427295 1.61404285 89 90 97
0.24756141 -0.41233845 1.62630581 88 91 98
0.24946701 -0.22137648 0.69662726 81 82 83
0.25704904 -0.22379456 0.70126857 82 83 85
0.24873104 -0.20247655 0.67857222 85 88 90
0.25007779 -0.21396277 0.69055571 82 83 86
0.24783453 0.21627671 1.37627881 80 79 81
0.25160947 0.21176198 1.38653363 72 71 75
0.25893122 0.20546395 1.40350282 64 60 66
0.24668135 0.22129231 1.37133972 80 80 80
0.25753023 0.22146353 1.38723266 79 79 81
0.26742235 -0.46188350 1.09161609 78 79 84
0.26476823 -0.44323472 1.07837370 80 85 89
0.26806667 -0.45278029 1.08471148 78 82 85
0.26594607 -0.44159660 1.59880149 86 89 97
0.26380485 -0.44125560 1.60258114 87 90 98
0.26372327 -0.43228750 1.07649407 80 83 88
0.26507626 -0.42912178 1.08116722 78 82 84
0.27147286 -0.43676063 1.59880149 88 89 97
0.26617769 -0.43067607 1.60604011 87 89 97
0.26088932 -0.42985870 1.62759382 87 90 97
0.26026523 -0.41731277 1.60637879 87 91 94
0.26186033 -0.21394072 0.69420585 81 82 85
0.26355720 0.21578149 1.39055857 79 78 82
0.26458446 0.20814126 1.40936746 66 65 70
0.27439825 0.21064266 1.43098162 69 67 75
0.27855787 0.20865405 1.44232309 84 82 91
0.26054500 0.22602078 1.37364244 87 86 93
0.26310248 0.22183735 1.38458903 80 80 81
0.28545518 -0.14830242 0.71722683 81 82 86
0.28623346 -0.14591562 0.72171720 81 83 86
0.29008852 -0.13650287 0.71600400 84 85 88
0.29020265 -0.13204120 0.72892293 82 82 86
0.29076753 -0.11746415 0.73079897 79 80 81
0.29900885 0.21391496 0.62287166 106 105 106
0.28169790 0.21567398 1.43926084 64 63 70
0.28919796 0.21302979 1.44998581 63 62 69
0.29226059 0.21261474 1.46097374 70 69 77
0.31583382 -0.37112875 1.99185057 88 88 95
0.31544829 -0.34833451 1.98942722 91 94 100
0.30716072 0.21446376 0.62697053 106 105 104
0.30991721 0.22476667 0.63200913 110 107 105
0.32398799 -0.34321606 1.99968100 94 95 99
0.33733459 -0.24452655 0.60314874 66 66 69
0.33153260 -0.23361245 0.59990430 69 70 74
0.33269508 -0.23694367 0.60184573 69 70 72
0.34044792 -0.24361198 0.60283858 65 65 67
0.35856628 0.01408981 0.49501468 61 61 67
0.37893095 -0.30052250 0.66286701 68 69 71
0.37319015 -0.28601719 0.65802250 68 69 72
0.37722186 -0.29588655 0.66042109 66 67 69
0.37134837 -0.27458687 0.65268345 66 66 70
0.37697304 -0.04372413 0.48748752 60 60 66
0.37602234 -0.03871898 0.48875829 61 61 65
0.36568493 0.01429633 0.49506176 63 63 68
0.36699191 0.02065437 0.49639690 61 65 68
0.37388894 0.11513481 0.61851448 66 65 68
0.37634768 0.11861519 0.62275530 70 69 71
0.37778550 0.12230683 0.61964518 74 73 76
0.37669848 0.12443807 0.62470306 75 75 78
0.36985527 0.25206655 0.61789902 106 106 105
0.37115291 0.25225885 0.63030425 108 107 105
0.37761514 0.24763815 0.64118503 109 108 105
0.38249249 -0.30062085 0.66308397 64 65 67
0.39779330 -0.28045496 0.45941489 52 56 60
0.39685027 -0.28032979 0.46036802 52 56 60
0.38328292 -0.29030221 0.65755103 63 65 68
0.38153267 -0.29476489 0.66055293 66 67 69
0.39696039 -0.27574717 0.45953372 52 54 57
0.39751539 -0.27826235 0.46043252 51 54 59
0.38041422 -0.27991015 0.65750909 66 67 71
0.38308103 -0.04417219 0.48802442 60 60 64
0.38076574 -0.03953640 0.48874682 61 61 65
0.39132389 -0.02028771 0.67840415 73 73 79
0.39005744 -0.02155185 0.68129903 72 73 77
0.38305867 -0.00830639 0.65814739 71 71 76
0.39328922 -0.01009580 0.66962976 68 68 73
0.39004429 -0.01465010 0.68418689 73 74 77
0.38063243 0.11938144 0.62021214 72 72 75
0.38044922 0.12247479 0.62049609 72 72 76
0.38154218 0.24723696 0.63801882 108 108 104
0.38246113 0.24651045 0.64186943 109 108 105
0.41879942 -0.30313680 0.67637046 58 59 63
0.40067267 -0.28045884 0.45927632 53 54 60
0.40189838 -0.28012203 0.46068130 52 54 59
0.41803570 -0.29635718 0.67500084 57 58 60
0.40353727 -0.27481099 0.45851771 53 55 59
0.40527462 -0.27442149 0.46194536 52 55 59
0.40094806 -0.01074848 0.66853337 63 62 68
0.41267711 0.17952003 1.89885676 88 88 95
0.41830257 0.18053140 1.90955448 88 88 94
0.42653325 -0.30300986 0.67287637 51 51 55
0.42436826 -0.30268660 0.68061429 59 60 62
0.42994263 -0.29500711 0.67357715 50 50 54
0.42822556 -0.29180258 0.68175620 53 54 57
0.43500346 -0.18140216 0.49424494 59 62 66
0.43304836 -0.17322643 0.49243769 58 61 65
0.43620330 -0.11030182 0.58478343 63 63 69
0.43899018 -0.09926336 0.58422172 65 65 70
0.43343725 -0.02227407 0.49286429 63 65 69
0.43135951 -0.01310685 0.49357875 66 67 71
0.43232267 0.03682394 0.84268588 75 75 79
0.43112075 0.04629196 0.84584420 76 76 79
0.43782740 0.15662103 1.91315063 88 87 96
0.43851084 0.15544091 1.92582905 89 88 96
0.43340179 0.17763288 1.89620471 88 89 93
0.43796806 0.16913251 1.91135255 90 89 95
0.43512507 0.17167537 1.92663739 89 88 95
0.43456067 0.16970160 1.95029179 90 88 95
0.43293706 0.17147546 1.97636104 89 86 95
0.42910339 0.18209918 1.90866554 88 89 92
0.43184689 0.18672755 1.92584150 88 89 92
0.43598296 0.19053192 1.94424403 90 89 93
0.45803500 -0.30104816 0.55534842 50 52 54
0.45848129 -0.29515278 0.55443184 54 57 59
0.45893718 -0.22752363 0.73281014 55 56 59
0.44123012 -0.18196096 0.49388628 59 60 64
0.44071531 -0.17636408 0.49287985 58 61 64
0.45289955 -0.12405861 0.57898314 59 61 64
0.45166657 -0.12302304 0.58510454 61 62 67
0.45337443 -0.12549027 0.63824461 60 60 66
0.45399521 -0.12228615 0.64198855 62 62 68
0.45038494 -0.10945903 0.57939476 61 61 70
0.44705246 -0.11369985 0.58451302 62 61 68
0.45554439 -0.11758089 0.64481595 62 63 68
0.44401128 -0.09855479 0.58451645 60 60 67
0.44107887 -0.02360805 0.49639045 62 65 70
0.44117673 0.03726473 0.83897507 76 76 79
0.44097153 0.03789728 0.84227971 75 76 80
0.44183266 0.04122450 0.84579202 76 76 79
0.45480350 0.11943997 1.88303292 90 89 96
0.45678931 0.12235476 1.87781680 91 90 97
0.45443419 0.12556590 1.89356580 91 90 98
0.45460998 0.13102660 1.90956205 88 87 96
0.45566332 0.13620821 1.92447293 85 84 93
0.45297956 0.13231727 1.94797795 88 87 96
0.45420051 0.13651963 1.96490383 86 86 95
0.45423746 0.14628813 1.91494870 89 87 95
0.45149011 0.15232528 1.93054984 87 86 94
0.44803204 0.14861903 1.95056595 86 84 93
0.44380524 0.15118457 1.96776813 90 88 96
0.44535368 0.14827055 1.98603223 88 87 96
0.45344396 0.16670844 1.93099241 90 89 96
0.45235203 0.17188471 1.94238353 91 90 95
0.46299067 -0.30145229 0.55415996 55 58 60
0.46067283 -0.30047518 0.56024116 55 59 60
0.46422994 -0.29616480 0.55485150 56 60 62
0.46067283 -0.29902267 0.56024116 54 60 60
0.46636612 -0.24120220 0.73254288 48 48 52
0.46601945 -0.22925055 0.73059318 49 49 52
0.46726801 -0.22524837 0.74935202 55 56 58
0.47181795 -0.20215706 0.45833365 60 62 66
0.47425632 -0.20485494 0.46027423 60 61 64
0.47307442 -0.21755661 0.74824577 51 51 53
0.46994574 -0.19364714 0.45489300 63 65 69
0.46174033 -0.12428292 0.63816808 60 61 66
0.46232126 -0.12214871 0.64283108 61 61 67
0.46451096 -0.11671796 0.64527874 63 63 68
0.47941326 -0.03329294 0.90425805 76 75 78
0.46126229 0.13174877 1.89620471 88 88 97
0.46230870 0.13652533 1.90956457 89 87 97
0.46378863 0.13772293 1.93407482 89 87 96
0.46344241 0.14988452 1.91039135 89 88 96
0.46269094 0.15074084 1.92949728 89 88 96
0.46582187 0.16118237 1.91494870 88 88 97
0.46838990 0.16881930 1.92858977 89 89 95
0.46645026 0.17549616 1.94517428 89 88 94
0.49916178 -0.50625094 1.05244576 69 70 72
0.49907938 -0.49828595 1.05099511 68 70 70
0.49458711 -0.36399236 0.75341266 48 49 51
0.49735651 -0.37113586 0.76527794 45 46 49
0.48977359 -0.35941740 0.74719471 48 48 52
0.49972698 -0.18864487 0.56608930 59 61 64
0.49504650 -0.04202254 0.90712599 74 73 79
0.49064341 -0.03387925 0.89906079 75 76 78
0.49064544 -0.03424079 0.90479752 76 76 79
0.50816376 -0.54362222 1.09221968 70 74 76
0.50492760 -0.52908246 1.06917340 68 71 75
0.50770763 -0.53794140 1.08898360 72 74 79
0.51060964 -0.50737484 1.05437360 67 67 69
0.51079445 -0.51213276 1.06086361 67 68 70
0.50879163 -0.49830211 1.05154281 66 67 69
0.51701990 -0.40281885 0.80557852 43 43 45
0.50543486 -0.38114992 0.77456633 48 48 49
0.50679405 -0.38739922 0.79279009 47 48 49
0.51109561 -0.39652512 0.80192528 49 50 52
0.50011706 -0.36818895 0.75996846 49 50 52
0.50392934 -0.37694924 0.77098281 49 49 51
0.50313801 -0.37840666 0.78598724 41 43 45
0.51106805 -0.24117646 0.59049815 60 64 67
0.51182353 -0.22792203 0.58601849 57 62 65
0.51644258 -0.21855885 0.58346411 59 61 66
0.51301521 -0.18529758 0.57496391 57 60 66
0.51455088 -0.17843150 0.57611639 59 62 67
0.50230113 -0.04295814 0.91033017 70 72 78
0.50597347 -0.03072766 0.89777206 76 76 80
0.50649065 -0.03561063 0.90620063 74 75 80
0.50983223 0.01229283 0.83001500 61 61 65
0.52007437 -0.40118524 0.80509722 43 44 46
0.52021480 -0.22322314 0.58358467 59 64 69
0.52728942 0.00928890 0.83357113 56 58 63
0.54867905 -0.09248856 0.51967864 63 66 69
0.55403944 -0.08777399 0.52650592 62 63 68
0.54844306 0.07681164 0.67832496 62 63 66
0.54995487 0.07629500 0.68546388 62 62 65
0.54599179 0.08337864 0.67820834 60 61 66
0.54771457 0.08313913 0.68551405 61 61 67
0.56142702 -0.08108619 0.53492193 62 66 70
0.56326428 -0.07834150 0.53540733 63 67 71
0.57092717 -0.07612780 0.54340969 64 65 69
0.57848803 0.07664356 0.55339292 66 65 69
0.57979763 0.08271068 0.55839527 67 66 73
0.59805266 -0.32147365 0.66831297 58 62 68
0.59943157 -0.31989902 0.66985363 61 65 68
0.58537385 0.07744021 0.55421730 65 64 68
0.58171427 0.07814244 0.56024116 66 65 67
0.59123465 0.08510722 0.55681897 65 65 69
0.58292359 0.08301882 0.56047288 67 66 72
0.59840873 0.11979187 1.26708758 79 80 85
0.59763750 0.12139826 1.27244198 77 77 82
0.60465137 -0.32136898 0.67264479 60 63 67
0.60793353 -0.32268766 0.68455060 58 62 65
0.60792828 -0.31813950 0.67622537 58 62 65
0.60771052 -0.31829982 0.68129879 59 62 67
0.60143816 0.09675426 0.56147867 64 63 70
0.61620950 0.11750756 1.23388743 79 78 85
0.61746895 0.11952441 1.24156010 78 78 85
0.60441612 0.11557703 1.26590776 77 77 82
0.61961490 0.12167035 1.24156010 76 76 78
0.61046422 0.12528508 1.26947183 76 75 80
0.61073321 0.12668781 1.28145909 78 77 82
0.62215996 0.11868268 1.25535524 77 76 85
0.62695634 0.11782204 1.26946032 76 75 84
0.62062418 0.12144792 1.23929036 75 75 77
0.62315090 0.12400167 1.25212207 77 76 79
0.62705530 0.12721844 1.27045206 75 74 78
0.63363213 0.13363431 1.28748075 73 72 75
0.63389879 0.14081845 1.27904117 73 73 75
0.63564941 0.14393500 1.29215017 72 72 76
0.64095648 0.14711360 1.29554194 73 72 78
0.64035130 0.14549993 1.30113602 71 71 75
0.65527826 0.21488970 0.99836942 74 75 75
0.65683177 0.21424330 1.00205797 73 74 75
0.65742591 0.22426898 1.00428754 78 78 77
0.65160955 0.23084249 1.03505293 80 80 82
0.65433402 0.22786902 1.04237764 80 80 83
0.67952633 -0.24864465 0.68404830 66 66 73
0.66330858 0.21346232 1.01298679 74 74 76
0.66596187 0.21698659 1.02682637 74 74 76
0.66316529 0.22703342 1.01798508 78 78 78
0.66448481 0.22697252 1.02963391 77 77 78
0.66663798 0.22613150 1.04291221 75 76 78
0.68584683 -0.24433519 0.68771271 64 65 70
0.68778381 -0.23552643 0.68996415 66 69 73
0.73010836 -0.07632116 0.71544259 66 70 72
0.73596663 -0.06973684 0.72437464 64 67 71
0.73873234 -0.05906838 0.72761273 64 67 74
0.74196663 -0.06628225 0.72516030 64 67 71
0.74614127 -0.05769100 0.73025931 63 66 72
0.77261110 0.37156527 1.35460450 97 96 96
0.77467869 0.37300040 1.36728825 97 96 96
0.77667264 0.37502456 1.38289616 97 96 97
0.77484703 0.38203803 1.35646567 97 97 97
0.77774119 0.38352203 1.37088331 96 96 96
0.77916127 0.38317592 1.38536982 97 96 96
0.78914966 0.37543400 1.37035600 97 96 96
0.78601887 0.38361874 1.36921359 98 97 97
0.78391250 0.38970983 1.39169140 97 97 97
0.78616795 0.39189612 1.40696941 96 96 97
0.79276079 0.39964405 1.42115688 96 96 98
0.79016353 0.40543600 1.40845853 97 97 98
0.79231916 0.41039715 1.43039723 100 99 100
0.79210317 0.41432147 1.44232309 102 101 102
0.79605473 0.42346229 1.43865099 99 99 101
0.79804698 0.42371228 1.45314604 99 98 101
0.81673761 -0.36159491 0.98674988 62 63 68
0.81846393 -0.35738975 0.98933799 59 60 66
0.81664407 0.32358836 1.05249027 92 92 94
0.81878710 0.32839396 1.07188251 95 95 96
0.80062038 0.42507592 1.45783186 99 99 103
0.83631724 -0.48451623 1.59093152 73 74 79
0.83527569 -0.46999066 1.58843476 73 73 80
0.82376399 -0.36245381 0.99139431 61 62 66
0.83844316 -0.36104068 1.00279856 62 62 69
0.82566234 -0.35612574 0.99665473 59 60 66
0.83184778 -0.35153699 1.00770614 60 61 64
0.82093388 -0.33701271 0.99836797 63 68 71
0.82335907 -0.33973902 1.00131738 62 66 69
0.82006532 0.32330036 1.05262709 90 90 92
0.82399808 0.33083507 1.07189756 93 93 94
0.82635415 0.33559753 1.08616460 97 97 98
0.82617024 0.34119693 1.07901657 95 93 91
0.83121348 0.34507878 1.09019114 95 93 91
0.84849799 -0.50334448 1.55479777 73 73 75
0.85533197 -0.50549095 1.56980924 73 73 76
0.85961175 -0.50472957 1.58016741 73 74 77
0.85701676 -0.49482844 1.57040767 72 73 76
0.85113975 -0.48824318 1.58991967 72 73 76
0.84133559 -0.49111438 1.60258114 74 75 79
0.85229424 -0.46769337 1.58779102 73 74 78
0.85049062 -0.36185934 1.01678971 60 64 67
0.84907969 -0.35820108 1.01482324 60 63 66
0.84075952 0.35453901 1.09869015 90 90 87
0.86873948 -0.48754720 1.59022375 72 72 75
0.87838420 -0.48475830 1.60447997 72 73 76
0.86921543 -0.47928002 1.57283485 74 74 77
0.86544783 -0.47636639 1.58838098 71 72 76
0.89690578 -0.15604324 1.61788034 74 74 76
0.89645809 -0.14756899 1.62467232 73 73 76
0.88361645 -0.13614778 1.61403739 73 73 76
0.89482668 -0.13360713 1.62652082 71 71 76
0.90281901 -0.14049572 1.61595428 75 75 79
0.90381302 -0.14727756 1.63261018 74 74 76
0.90709889 -0.14838071 1.64138460 74 74 76
0.90657361 -0.12885374 1.61237481 72 72 76
0.90644357 -0.13066950 1.63117292 73 72 78
0.91052943 -0.12413126 1.64437741 73 73 80
0.91446071 -0.11621562 1.63300240 72 74 77
0.91621285 -0.11419507 1.64876500 72 73 77
0.90612990 0.13605794 0.91855264 66 65 72
0.90927578 0.13667462 0.92527338 65 64 71
0.91165535 0.14493542 0.92931090 64 64 69
0.91696884 0.14427636 0.94108236 63 64 70
0.92623686 0.13957524 0.93142979 67 66 74
0.92785075 0.14496707 0.93426647 65 66 72
0.93195421 0.14800354 0.94415741 64 65 70
0.97349357 -0.66667367 1.46678507 51 52 54
0.96944326 -0.65841419 1.45783186 52 52 54
0.97723281 -0.65841106 1.47050536 51 51 53
0.99765313 -0.68140777 1.48227235 50 51 54
0.98623385 -0.67326709 1.47459621 51 52 55
0.99220407 -0.66895093 1.48498793 52 52 54
0.98211575 -0.65681016 1.47688854 50 51 53
0.98170185 -0.65824425 1.48011315 50 51 53
1.00956083 -0.68562246 1.48710539 52 53 56
1.01642364 -0.68404865 1.50308609 53 54 58
1.01241860 -0.67655600 1.49610147 52 52 56
1.01749647 -0.67465482 1.50531292 51 52 54
1.02898245 -0.68374965 1.51046441 51 51 55
1.03748898 -0.68149710 1.52449616 52 52 54
1.02644056 -0.67681698 1.51249998 52 52 54
1.03417225 -0.67538457 1.52816205 54 54 56
1.03689949 0.01799449 0.96554699 61 63 66
1.03258641 0.02846217 0.95750805 62 64 66
1.02984490 0.02559239 0.96409147 61 62 65
1.04625902 -0.68284391 1.53543085 54 54 56
1.05354851 -0.68139397 1.54417676 55 55 57
1.04330748 -0.67809444 1.53370241 54 54 56
1.05089076 -0.67783958 1.54418882 55 55 56
1.04629626 0.01723313 0.96688101 63 65 70
1.04304976 0.02434513 0.95828692 62 65 68
1.04572711 0.02824194 0.96333937 62 64 66
1.06105173 -0.68183255 1.55123997 56 56 57
1.15945423 -0.43899371 1.12981975 60 68 71
1.16332984 -0.44672363 1.13455415 59 67 68
1.17343540 -0.44669655 1.14565054 58 68 69
1.16334057 -0.43715771 1.13265216 56 67 71
1.17591774 -0.43824701 1.14470658 58 67 68
1.18257555 -0.44919152 1.15568784 57 67 69
1.19050691 -0.44670575 1.16733451 59 64 67
1.19401759 -0.44477620 1.18321375 59 61 65
1.18313297 -0.43881961 1.15419110 61 65 67
1.19368844 -0.43502910 1.17217541 63 64 67
1.19252201 -0.43668797 1.18337010 63 64 67
1.20322001 -0.46328705 1.18443616 60 65 68
1.20323798 -0.44930919 1.18690671 59 61 65
1.20375216 -0.43464679 1.17894232 65 66 69
1.20231407 -0.43492386 1.18637092 63 64 68
1.41507852 -0.42319131 1.48119275 61 62 65
1.41525797 -0.41666974 1.48227708 61 61 63
1.42340877 -0.42515908 1.49261655 60 61 64
1.43397832 -0.42519519 1.50642633 60 61 63
1.42782842 -0.41261074 1.49481207 59 62 66
1.43622833 -0.40843949 1.50668782 60 63 67
1.43602455 -0.38813717 1.49692919 62 64 68
1.43622673 -0.39764763 1.50810760 61 65 66
1.43482769 -0.37840897 1.49644995 62 64 71
1.42834783 -0.03323594 1.99576004 68 68 72
1.43691218 -0.01832513 1.99968100 61 64 70
1.44239237 -0.42864471 1.51710331 60 61 64
1.44994724 -0.42935060 1.52736046 59 61 64
1.44159359 -0.40342499 1.49810535 62 66 69
1.44631845 -0.40879015 1.51357693 61 64 68
1.45011469 -0.41222424 1.52782363 60 63 66
1.44702663 -0.39047041 1.51189896 61 64 67
1.44119060 -0.37748909 1.50308609 60 63 70
1.66961193 -0.94125646 1.73818421 53 58 63
1.66787982 -0.94217011 1.74265254 52 56 62
1.67713213 -0.94448756 1.76443584 55 59 63
1.66755772 -0.93476638 1.73729513 53 57 62
1.67293659 -0.93026213 1.74940787 56 59 63
1.67560142 -0.92769678 1.76382021 57 61 64
1.67361768 -0.91421765 1.73818421 55 58 62
1.67327514 -0.91535854 1.74865654 56 60 63
1.67760020 -0.91696060 1.76075804 56 60 63
1.68924141 -0.96096861 1.77458596 54 57 63
1.68601294 -0.94876032 1.77401589 56 59 63
1.68888211 -0.94598444 1.78392589 56 59 63
1.68425934 -0.92697846 1.75438132 55 59 62
1.68633215 -0.92781958 1.77252027 57 60 64
1.69235999 -0.92707755 1.78527074 57 61 64
1.68709600 -0.91373560 1.75165856 57 61 64
1.68779799 -0.91758628 1.77229351 56 60 64
1.68888211 -0.91977578 1.78392589 58 61 67
1.70527872 -0.92460905 1.77692091 56 60 63
1.71526940 -0.92702290 1.78958418 55 60 63
1.70180213 -0.91629726 1.76534331 57 63 65
1.72261548 -0.92774200 1.79336464 55 61 63
