ply
format ascii 1.0
element vertex 622
property float x
property float y
property float z
property uchar red
property uchar green
property uchar blue
end_header
-0.78013325 0.17952305 1.40933859 120 108 102
-0.78311678 0.18328085 1.41326153 137 128 126
-0.76825991 0.17117712 1.41253723 131 125 119
-0.76644037 0.17521509 1.42464798 126 118 115
-0.76161993 0.19495332 1.39771509 129 121 113
-0.77171636 0.18868494 1.41368858 133 125 118
-0.76912129 0.18704889 1.42517650 135 126 120
-0.74837971 0.15549720 1.39361673 113 104 102
-0.75268982 0.15912600 1.40132791 98 90 87
-0.74470907 0.16113159 1.39771509 114 102 102
-0.75159022 0.16849706 1.40957287 126 115 115
-0.75878972 0.17484476 1.42414248 129 120 120
-0.75159127 0.18271872 1.41522300 134 123 118
-0.75555204 0.18798235 1.42175400 134 125 117
-0.70720662 -0.39134264 1.83133040 92 95 102
-0.70767640 -0.39028438 1.84628475 91 98 103
-0.68956730 -0.40792085 1.82691436 90 96 104
-0.68820441 -0.39333672 1.83138756 92 94 103
-0.69147831 -0.38833700 1.84310126 87 92 102
-0.69076546 -0.37412264 1.82967091 90 92 103
-0.66383061 -0.42300829 1.82228994 93 94 104
-0.66219366 -0.41130825 1.81740439 93 92 103
-0.67336100 -0.40849789 1.82392720 93 94 103
-0.66152734 -0.39779141 1.81740439 90 91 103
-0.66965578 -0.39195516 1.82742080 90 92 102
-0.67900592 -0.38939923 1.84209740 90 92 102
-0.66048026 -0.37475568 1.81740439 91 92 101
-0.66225576 -0.37576309 1.82228994 93 95 104
-0.65871429 -0.40508205 1.81254506 94 95 108
-0.65847614 -0.38584207 1.82228994 89 91 100
-0.65733904 -0.37475568 1.81740439 90 91 103
-0.38135257 -0.42320807 1.12419879 104 105 111
-0.38734564 -0.40175983 1.11349444 103 106 110
-0.38030166 -0.40977255 1.12110070 105 107 113
-0.38494222 -0.39782922 1.11150220 104 105 110
-0.38496062 0.35531948 1.51100535 68 63 63
-0.38688055 0.36315462 1.51485914 83 79 76
-0.38241670 0.37827283 1.53369200 78 73 66
-0.38328385 0.38178745 1.53716969 75 69 64
-0.37940949 -0.42223653 1.12419879 103 105 109
-0.37071471 -0.40834864 1.11716135 102 103 109
-0.37465125 -0.40969024 1.12137577 103 104 110
-0.37756820 -0.39775513 1.11548540 102 102 109
-0.37428191 -0.39760074 1.12048233 104 105 112
-0.36369047 -0.18106681 0.95593206 90 92 104
-0.36607805 -0.17761502 0.95680084 90 91 103
-0.36814059 -0.17245214 0.96354736 91 92 104
-0.36511929 0.35405182 1.49692501 98 93 91
-0.37400339 0.35406483 1.50867739 93 87 86
-0.37096263 0.36690059 1.49810535 87 78 76
-0.37129597 0.36876211 1.51080663 82 74 75
-0.37586508 0.37438111 1.52592573 79 70 69
-0.36303352 0.38159671 1.49480918 82 80 82
-0.36772702 0.38245371 1.51249251 74 68 72
-0.37737673 0.38381662 1.52937222 67 56 56
-0.35590609 -0.18236905 0.95657455 89 89 104
-0.35383902 -0.17687032 0.95680026 88 90 105
-0.35394107 -0.17148088 0.96283092 90 90 97
-0.34199572 0.09000483 0.66515211 138 130 118
-0.35887820 0.35227085 1.49096608 111 105 99
-0.34438205 0.37809429 1.45158851 81 74 76
-0.34735727 0.37883013 1.46412921 85 79 79
-0.35268950 0.37950656 1.48660493 102 98 99
-0.35999575 0.37805732 1.50642633 86 77 81
-0.34735727 0.38389140 1.46412921 79 74 77
-0.35555483 0.38755015 1.48890635 86 81 82
-0.35999575 0.38196293 1.50642633 98 94 96
-0.33643980 0.07898912 0.66403107 127 118 108
-0.33037596 0.08607420 0.65787437 137 126 116
-0.33615554 0.08773476 0.66306471 140 130 121
-0.30218296 -0.02182613 0.47410569 53 53 67
-0.30266748 -0.01731169 0.47530499 98 103 120
-0.29652483 -0.02156906 0.47373232 51 52 68
-0.29776464 -0.01880998 0.47424580 90 95 118
-0.28189754 0.23731622 1.01557042 82 77 74
-0.28675482 0.23804395 1.02246130 85 79 77
-0.28233082 0.24849140 1.01425193 80 75 72
-0.28194457 0.26336089 1.01785564 109 97 95
-0.28060663 0.28137618 1.01938617 96 88 82
-0.28588592 0.28652293 1.02713038 84 75 72
-0.28707173 0.29327793 1.04291302 70 65 65
-0.26177573 0.12963326 1.67795014 87 77 71
-0.26146430 0.14557561 1.69472957 123 114 113
-0.26592280 0.15315728 1.71401501 102 87 89
-0.27337191 0.23717958 1.00941303 92 86 82
-0.26269720 0.24833078 0.99984050 99 96 91
-0.27122134 0.25099795 1.00890225 93 85 82
-0.27176997 0.27252477 0.99984050 66 66 66
-0.27182550 0.26608334 1.01447732 89 83 80
-0.26716338 0.27268276 1.02603235 77 71 69
-0.27674001 0.28253335 1.01720617 94 86 79
-0.27102853 0.28623397 1.03228606 84 77 75
-0.26978361 0.29063659 1.04351935 74 68 67
-0.24281944 0.11802189 1.65743732 127 116 111
-0.24849916 0.11226127 1.66670623 114 107 100
-0.24402626 0.13454811 1.65413512 125 114 111
-0.25045190 0.12860323 1.66630942 119 110 106
-0.24234199 0.14332715 1.65743732 108 99 96
-0.24977847 0.14565812 1.66820911 108 99 97
-0.25675178 0.15124520 1.69261646 98 85 86
-0.25689033 0.15513891 1.70324588 118 110 106
-0.25836412 0.25565106 1.00921573 94 89 82
-0.25495484 0.26464903 1.01796788 74 68 69
-0.25498226 0.27339620 1.02418628 69 67 63
-0.25649253 0.28127038 1.02866983 73 69 67
-0.23091549 0.11687490 1.65570477 118 107 102
-0.23153874 0.11106476 1.66703395 109 101 98
-0.22791389 0.11269713 1.68490334 103 94 92
-0.22290596 0.13499247 1.63741994 113 107 103
-0.23029055 0.13048740 1.65129741 126 114 110
-0.23527792 0.12549058 1.66149962 142 131 125
-0.22095717 0.15160716 1.63347435 95 91 88
-0.22924029 0.14567210 1.65155828 112 102 98
-0.21740599 0.11887298 1.64937186 118 104 100
-0.21410669 0.13196950 1.63505638 119 105 102
-0.21603606 0.12987616 1.64437258 123 105 105
-0.21325628 0.14892384 1.63505638 107 101 95
-0.21661747 0.14507048 1.64337659 124 113 108
-0.20143092 0.20221463 1.03811920 140 126 115
-0.20230715 0.21520202 1.04884764 100 90 88
-0.20302290 0.22107229 1.05099761 92 86 82
-0.19020352 0.19805473 1.02525768 115 108 101
-0.18826241 0.20844880 1.02894321 100 91 89
-0.19662145 0.21544457 1.04327204 96 90 87
-0.19245939 0.22015768 1.03811920 88 82 78
-0.19746265 0.22053682 1.04559541 90 85 82
-0.16417436 0.01231459 1.75053862 149 137 126
-0.16417589 0.01066485 1.76351399 148 136 124
-0.16730757 0.00831903 1.78392589 148 134 121
-0.16445136 0.03036983 1.73522488 149 131 121
-0.16278901 0.02771778 1.74377537 146 131 121
-0.16211152 0.05321440 1.70754337 138 119 115
-0.16509637 0.04450273 1.72845386 141 125 113
-0.16913699 0.13323394 0.61156262 107 99 96
-0.16057999 0.19048593 0.73833047 102 96 91
-0.16420005 0.19044190 0.74415239 96 89 88
-0.17729435 0.19914134 1.01632965 111 103 102
-0.16678579 0.19804343 1.02916917 114 104 97
-0.17499395 0.21203977 0.99984050 102 90 83
-0.17352267 0.21039748 1.01657054 104 93 92
-0.16860294 0.20818151 1.02379459 111 97 93
-0.16686523 0.22347648 1.02555734 110 101 97
-0.15400471 0.01211147 1.73818421 137 126 116
-0.15610947 0.01114906 1.74489820 134 124 113
-0.15428362 0.02990398 1.73139990 145 134 123
-0.15934055 0.05490759 1.69897699 133 121 116
-0.15018735 0.05321852 1.70969892 127 112 110
-0.15469674 0.04428373 1.72526099 141 126 118
-0.15910907 0.12999780 0.60858279 97 91 87
-0.15224745 0.17902909 0.73444806 110 102 100
-0.15229684 0.18844783 0.73187436 102 95 91
-0.15894602 0.18252903 0.74005657 111 100 98
-0.15373189 0.19492736 1.01694367 123 116 108
-0.15447068 0.19762553 1.02518027 131 119 113
-0.15561470 0.20832607 1.01544027 109 95 93
-0.15575613 0.20499885 1.02866226 119 104 100
-0.15345468 0.20643552 1.04130852 116 110 103
-0.10034834 0.13335387 0.53136753 85 75 76
-0.08627722 0.08798236 0.49563731 112 100 95
-0.09321672 0.08883674 0.50047395 99 87 83
-0.08648103 0.11837873 0.51429446 96 91 86
-0.09501749 0.11832741 0.52199028 122 112 102
-0.08873084 0.12271349 0.51754778 115 107 102
-0.09496153 0.12593170 0.52302970 100 90 87
-0.07893825 0.08872247 0.49501284 84 78 75
-0.02066956 0.02810070 0.54869318 121 106 106
-0.02151794 0.35441592 0.87292792 97 89 79
-0.02100814 0.36527156 0.88798275 102 85 82
-0.02230926 0.37653050 0.90506256 108 92 91
-0.01301103 0.01909705 0.54701807 115 101 96
-0.01203835 0.02998483 0.54893362 118 107 103
-0.00171815 0.13924117 0.49439103 151 143 129
-0.00464498 0.14573751 0.49057117 139 128 116
-0.00285100 0.27540407 0.74855046 103 91 90
-0.01004059 0.34927388 0.85917848 111 102 98
-0.01107392 0.35610291 0.87029966 104 96 87
-0.00710005 0.36629416 0.87648579 67 62 60
-0.00958131 0.36926041 0.88485348 95 86 83
0.00301815 0.13925237 0.49660124 151 141 130
0.00669177 0.13982180 0.50028920 152 143 130
0.01021457 0.14592680 0.49454023 128 116 108
0.01994702 0.19886514 0.50753077 122 116 112
0.01223726 0.19504838 0.61692632 126 116 109
0.00624414 0.19405640 0.62689121 115 102 94
0.01995200 0.20154756 0.50765745 131 121 111
0.00539397 0.20058740 0.62579682 122 108 96
0.01516639 0.21670690 0.97830857 162 144 129
0.01532667 0.21517904 0.98169947 169 150 134
0.01867924 0.22584812 0.97609049 147 134 124
0.01992383 0.23710602 0.98197800 143 131 121
0.01022560 0.27417287 0.75095550 108 97 89
0.01364311 0.28131275 0.75238019 111 105 98
0.00334429 0.35684980 0.86494671 113 105 97
0.00208278 0.36817496 0.87358252 43 40 36
0.02264167 0.19897284 0.50892838 118 110 103
0.02681571 0.20613587 0.51231145 132 123 115
0.03011176 0.21658498 0.95512100 154 142 132
0.02704655 0.21487892 0.97261532 143 127 120
0.02310611 0.21216515 0.98327030 111 88 87
0.02844624 0.22063760 0.95478481 162 147 136
0.02379810 0.22614975 0.97243005 157 144 137
0.05756188 -0.37179360 1.13511875 84 83 82
0.05771489 -0.36800895 1.14423441 86 81 82
0.05776913 0.17648103 0.56737334 120 110 101
0.07495013 -0.38153071 1.13899545 85 83 81
0.07148193 -0.38129339 1.14123201 86 85 82
0.07109581 -0.36879892 1.13651769 87 83 82
0.06236212 -0.36832547 1.14283796 88 84 83
0.07356315 -0.35717446 1.13420004 84 81 79
0.06336634 0.17588153 0.57021988 93 88 84
0.07934252 0.19832230 0.51472584 90 83 81
0.06156601 0.18026425 0.56774861 91 86 70
0.07916873 0.20509715 0.51465784 114 105 101
0.07613438 0.23587551 0.71632051 102 91 78
0.07591213 0.23388219 0.72145358 110 97 82
0.07696106 0.25088120 0.71713166 104 96 88
0.07568618 0.24638021 0.72207770 124 115 102
0.07552530 0.26888315 0.71167808 108 99 91
0.06872830 0.26736863 0.72116219 121 113 104
0.07668399 0.28157415 0.71861347 76 67 68
0.07679685 0.29180598 0.73264586 84 73 72
0.07450529 0.29625659 0.74499652 90 78 75
0.07198875 0.30731146 0.74870526 73 65 64
0.06807562 0.31867410 0.76124880 0 0 0
0.08382469 -0.36714701 1.13257516 85 80 80
0.08413448 -0.35837751 1.13013411 83 81 78
0.09457797 0.17528802 0.57695878 110 97 88
0.09320408 0.17306096 0.58146641 113 101 95
0.08359708 0.19840161 0.51727244 95 86 85
0.08942783 0.19547759 0.52486045 94 83 78
0.09773828 0.18073356 0.57725788 92 79 79
0.08514880 0.20524112 0.51588424 125 116 108
0.08698924 0.20430057 0.52025467 119 110 104
0.09895169 0.23300520 0.69897800 128 111 107
0.09044017 0.23282992 0.70657447 124 117 111
0.08185426 0.23246606 0.72039515 71 63 63
0.08831120 0.24927794 0.71307370 108 100 97
0.08189780 0.24940844 0.72077835 96 85 83
0.08232339 0.26618340 0.71003786 103 96 89
0.11941615 0.17925557 0.84525168 129 103 99
0.11220038 0.19814419 0.83862938 154 139 132
0.11668116 0.19287570 0.84887861 147 137 126
0.11165677 0.20145133 0.84266706 154 138 133
0.10101083 0.23043237 0.69790162 128 110 103
0.10027775 0.22809121 0.70120749 142 132 124
0.11562291 0.23471720 0.83114709 129 113 106
0.11150895 0.23568967 0.84070949 140 123 114
0.10007498 0.25061736 0.70835096 93 90 90
0.11514480 0.24213317 0.83289300 148 134 118
0.11148611 0.24128839 0.84424118 138 123 112
0.11525091 0.46354175 1.97636104 133 111 100
0.11757235 0.47091695 1.98990540 130 107 101
0.11820603 0.48655708 1.99014521 146 133 123
0.13948660 0.05250180 0.65750909 136 117 113
0.13906544 0.13432920 0.63861930 101 93 93
0.13793599 0.13267235 0.64335273 100 84 82
0.12153140 0.17914396 0.84472537 123 106 102
0.12261231 0.18958777 0.85301517 139 126 114
0.12978076 0.19462314 0.86814256 134 120 112
0.13123389 0.20091267 0.87334768 143 135 126
0.13117153 0.23262368 0.81646848 115 104 98
0.12541656 0.23503320 0.82368651 92 82 78
0.12536810 0.24247803 0.82669735 66 57 58
0.12696379 0.44965549 1.89620471 136 113 110
0.12633653 0.45427093 1.93683386 131 106 97
0.12669852 0.45892981 1.94238353 125 99 95
0.12858206 0.46036789 1.92037344 134 114 110
0.12860755 0.47218789 1.94959205 116 100 97
0.12588008 0.46949051 1.97472429 126 105 98
0.12255988 0.47048851 1.98408322 128 105 98
0.13080539 0.48183456 1.95357883 115 94 92
0.12544673 0.48578861 1.97554030 140 129 117
0.12456723 0.49396402 1.98330247 153 136 120
0.12377141 0.50455517 1.99263706 123 98 95
0.15454731 0.03849764 0.66756947 141 127 111
0.14364984 0.05157469 0.65795173 135 119 113
0.15364082 0.04941690 0.66463857 127 111 106
0.15985650 0.06692209 0.59386069 117 102 102
0.14978331 0.13403155 0.63771731 131 120 114
0.14540644 0.13173952 0.64300979 114 104 101
0.16491643 0.05919763 0.59360057 139 113 107
0.16004816 0.05291237 0.66265088 91 77 76
0.16954573 0.06975463 0.59801293 154 145 147
0.16965127 0.07075866 0.60083503 139 126 128
0.17806910 0.17400169 0.72612836 142 131 124
0.17984973 0.19431047 0.69957876 128 114 110
0.17941409 0.19727479 0.71470460 133 125 115
0.17973966 0.18719257 0.72347082 92 81 80
0.17994882 0.20954832 0.68612534 115 110 104
0.17948978 0.22052100 0.68891519 101 90 86
0.17611951 0.39672182 1.94684873 163 143 141
0.16937220 0.40624297 1.93131578 154 146 140
0.17575666 0.40777294 1.94656965 153 142 136
0.19707175 -0.26931562 0.67075917 87 85 80
0.19809261 -0.25916093 0.67214662 93 84 79
0.18605277 0.17273588 0.71350290 131 117 110
0.18195656 0.17180902 0.72189559 138 128 118
0.18817388 0.19051232 0.71192594 128 114 105
0.18151581 0.18947328 0.72183593 127 114 109
0.19292060 0.21566228 0.67694621 81 71 69
0.18683263 0.21115067 0.68740664 105 93 86
0.18741436 0.20193265 0.70780842 134 117 103
0.18165888 0.20279810 0.72116154 128 116 112
0.19032571 0.22082886 0.67708203 93 81 73
0.18499140 0.22199648 0.68688969 104 95 83
0.19884878 0.37845975 1.92582905 139 116 108
0.19998506 0.38397005 1.93683386 133 105 105
0.19240758 0.39255077 1.95284540 148 125 118
0.18997792 0.39700642 1.96490383 156 136 128
0.19052347 0.40725964 1.95467332 154 135 125
0.20702757 -0.26767651 0.67019120 66 64 65
0.20864421 -0.25673726 0.66947829 55 52 57
0.20123339 0.21540328 0.67369131 97 92 92
0.20054985 0.21428765 0.68359413 86 86 85
0.20042138 0.22021307 0.67519110 109 101 100
0.21820073 0.37738764 1.92037344 127 100 100
0.21796890 0.37944296 1.94796503 141 121 117
0.20754713 0.38443331 1.93242567 129 105 101
0.21095034 0.39011139 1.94994278 128 107 102
0.20967574 0.39972335 1.96490383 134 114 103
0.20329983 0.40531916 1.95583727 120 107 98
0.21450770 0.40545756 1.97420660 131 117 101
0.21626402 0.41610154 1.98796632 146 139 118
0.21965146 0.42283225 1.99379957 142 127 108
0.23304472 0.29043772 0.97327354 118 102 89
0.23185849 0.29622343 0.98103017 126 112 99
0.23462009 0.30219437 0.97840141 117 107 94
0.23491072 0.30372034 0.98795545 124 111 98
0.22133763 0.39123519 1.94798118 121 101 95
0.22354507 0.40432391 1.97492474 138 120 100
0.22355633 0.41286824 1.98563440 143 129 106
0.22498361 0.42314336 1.99527854 148 133 113
0.24844570 0.29333567 0.97483963 105 93 91
0.24669055 0.29517734 0.98562477 85 76 74
0.25142577 0.30433609 0.97519528 76 69 66
0.25007715 0.30537005 0.99308441 74 68 67
0.25192466 0.31389719 1.00642154 86 79 75
0.25623104 0.32076827 1.01027095 80 73 69
0.30749459 0.27866688 0.73500776 67 65 64
0.30419610 0.27876701 0.74658116 89 88 86
0.31209080 0.28361067 0.73662557 59 57 56
0.30881411 0.29037945 0.74904674 83 81 79
0.30881201 0.29584956 0.76346140 56 50 53
0.31492281 0.30083108 0.73844427 128 120 114
0.31166457 0.30512904 0.75171101 107 103 100
0.30929255 0.30330502 0.76231977 76 73 74
0.37240292 -0.04133348 0.65874612 174 173 181
0.37438488 -0.04577099 0.66212190 173 174 181
0.37924486 -0.03909628 0.65942788 175 175 183
0.38038462 -0.04080593 0.65942788 174 173 182
0.38272311 -0.04460235 0.66098072 174 174 181
0.38152438 -0.03909628 0.65942788 173 173 182
0.38531850 -0.03913435 0.66006994 173 173 181
0.47675905 0.47436337 1.54572289 89 76 75
0.47013258 0.47817125 1.57162694 77 65 65
0.47250383 0.47652218 1.59412551 92 74 79
0.47751074 0.47795280 1.60867903 97 85 90
0.47540143 0.48275603 1.56739044 72 61 59
0.47016117 0.48519265 1.59317919 64 54 56
0.46956800 0.48816320 1.60917526 62 51 54
0.47159740 0.49305958 1.62825763 58 48 51
0.47502683 0.49355501 1.64829248 59 49 51
0.47656859 0.49373377 1.66696286 61 50 53
0.47896102 0.49628699 1.68211377 63 54 55
0.47244310 0.50331038 1.62954772 51 46 48
0.47219004 0.50331923 1.64337659 55 47 50
0.48143637 0.47055262 1.55837202 129 124 127
0.48318595 0.47763821 1.57283485 82 71 73
0.48754523 0.47720414 1.59345000 127 119 126
0.48817032 0.47805648 1.60715275 135 131 136
0.49508397 0.47396494 1.73522059 169 169 171
0.49552342 0.47652839 1.74829003 167 163 166
0.48095414 0.48625585 1.56557012 77 68 67
0.48212618 0.48668176 1.58908212 78 67 66
0.48639225 0.48575686 1.60708734 97 85 87
0.48972937 0.48210596 1.63088171 126 124 128
0.48840722 0.48473822 1.64539778 127 120 125
0.48615426 0.49180730 1.66889629 83 72 76
0.49277731 0.49363982 1.68630509 107 99 107
0.48497811 0.49957785 1.70324588 71 62 63
0.49514870 0.48189777 1.75317895 162 159 163
0.49739173 0.48650301 1.77924371 159 145 150
0.48082608 0.50126231 1.69897699 58 48 51
0.49293794 0.50069275 1.71041803 82 73 78
0.49134284 0.50354040 1.72822991 78 69 74
0.49294497 0.50566015 1.74716136 75 65 68
0.49827431 0.51043424 1.77691483 91 78 78
0.51736803 0.19713604 0.45790075 28 26 38
0.51844440 0.19893419 0.46094220 27 24 36
0.51593320 0.20505136 0.45844111 26 25 34
0.51515309 0.21254569 0.46752305 103 102 111
0.51223570 0.22081269 0.47223423 143 145 147
0.50752197 0.45445637 1.75054154 170 169 177
0.50942630 0.45278199 1.76764792 173 170 177
0.51238251 0.45970100 1.78863287 173 169 177
0.50182033 0.47949532 1.60637879 167 167 173
0.50455685 0.47076914 1.73571453 169 169 174
0.50373450 0.47039948 1.74658829 169 169 173
0.50988247 0.47112394 1.76829838 169 169 174
0.51025103 0.47229686 1.79202701 169 168 173
0.51391824 0.46593144 1.81117514 168 166 173
0.51652449 0.47426645 1.82886565 165 160 167
0.51955837 0.46515432 1.84711671 155 153 160
0.50022924 0.48341736 1.61019444 145 141 148
0.50342315 0.48359221 1.62958539 166 166 171
0.50688338 0.48686714 1.64537823 171 170 174
0.51743615 0.49140948 1.66558194 168 168 172
0.50222147 0.49914217 1.71184814 139 132 142
0.50714543 0.49953181 1.73373878 157 155 164
0.50753480 0.49033814 1.75249422 168 168 173
0.50861401 0.49282381 1.76627799 169 169 172
0.50391707 0.49247056 1.78786496 163 163 166
0.51120090 0.48908430 1.81740439 161 161 164
0.51442220 0.48584987 1.82885671 160 158 162
0.51777856 0.49043910 1.85217044 149 142 146
0.51882803 0.49287438 1.86747062 129 111 115
0.50052661 0.50040585 1.71618187 125 118 129
0.50532629 0.50145850 1.73263869 145 142 151
0.50754857 0.50238869 1.74714776 147 146 154
0.50758199 0.50592696 1.77190531 147 143 147
0.50456258 0.50661042 1.79053305 147 145 146
0.50793355 0.50780144 1.80578852 154 153 154
0.52091240 0.19721563 0.45794125 24 22 31
0.53440216 0.19721990 0.47481851 37 33 47
0.53576469 0.19918415 0.48077434 111 114 122
0.52105660 0.20137175 0.45923213 25 23 32
0.52813519 0.20329767 0.47408131 83 82 93
0.53596210 0.20490201 0.48547441 138 143 146
0.52145374 0.47539095 1.85385501 155 149 154
0.52384049 0.47542581 1.86234021 161 157 161
0.52387190 0.49460691 1.68629813 167 167 172
0.52619302 0.49957785 1.70324588 168 168 173
0.52369469 0.48983029 1.77458596 171 171 176
0.52586827 0.49325478 1.78982201 169 168 174
0.52305329 0.48647711 1.87393340 145 131 136
0.52569644 0.48531964 1.88828790 138 125 124
0.52233091 0.50231728 1.76996464 168 168 174
0.52949328 0.50563634 1.79075529 168 168 173
0.53803211 0.50657044 1.81255368 169 168 174
0.55753204 -0.30060578 0.47806302 34 32 43
0.54154605 -0.28303206 0.45958769 32 31 40
0.55409120 -0.28903863 0.47232526 32 31 41
0.55989993 -0.29980928 0.48009336 34 32 46
0.55714790 -0.27080751 0.47198991 30 30 40
0.55605597 -0.25685260 0.46880737 30 29 38
0.54410872 0.19276893 0.47819824 27 23 32
0.54854885 0.18934598 0.48284114 27 25 37
0.54085517 0.20598227 0.49144073 139 146 149
0.56201718 -0.30338840 0.48262413 33 32 43
0.56069195 -0.28650295 0.47817711 32 31 40
0.56149790 -0.29791376 0.48132107 33 32 45
0.56098310 -0.27543778 0.47722094 31 31 41
0.57040350 -0.24523070 0.47892548 29 28 38
0.57221283 -0.24702161 0.48141114 30 29 38
0.57112369 -0.23889544 0.47941457 30 29 38
0.57519856 -0.23722916 0.48278160 29 28 39
0.57956636 0.10774803 0.49992025 136 146 145
0.57771186 0.11074138 0.50365728 65 67 72
0.56167036 0.18832254 0.49481156 29 27 42
0.58962253 -0.22454672 0.49374365 29 28 39
0.59555882 -0.22508554 0.50028920 30 29 43
0.59299918 -0.21219001 0.49494390 29 27 37
0.59946009 -0.20881077 0.50065891 29 27 40
0.59849752 -0.19777301 0.49684305 28 27 36
0.58320633 0.10794138 0.50918168 64 65 70
0.59074291 0.11832094 0.52137659 26 26 30
0.60843711 -0.28580817 0.53438424 154 159 164
0.60845397 -0.26930560 0.53141248 153 158 164
0.60651831 -0.25785698 0.52766587 155 156 162
0.60030407 -0.20158961 0.49992025 29 28 35
0.60319015 -0.20499487 0.50390145 30 29 38
0.60122069 -0.19527986 0.49905164 27 27 34
0.60572592 -0.18952198 0.50448217 27 26 36
0.61411978 -0.17490390 0.50976481 27 26 35
0.61875510 -0.12168737 0.82535640 37 36 41
0.61976039 -0.11902847 0.82669735 36 34 41
0.60942360 0.13467711 0.65513748 27 24 29
0.61367136 0.12987380 0.66087538 26 24 30
0.61244498 0.14307317 0.65787092 27 25 30
0.61571816 0.14675535 0.66246440 27 25 30
0.63914838 -0.23456866 0.95370369 30 31 35
0.63881469 -0.22360438 0.96566178 32 30 37
0.63986784 -0.21833201 0.95477724 33 31 40
0.63768452 -0.21956901 0.96018672 33 31 40
0.62306128 -0.16595085 0.51689793 27 26 35
0.62995833 -0.16402205 0.52359846 28 26 36
0.62497011 -0.15660498 0.51748215 27 26 34
0.63138936 -0.14999208 0.52351727 26 25 35
0.63729778 -0.13534119 0.52827920 27 25 36
0.63359293 -0.12376343 0.83399980 36 34 41
0.63366379 -0.11630713 0.83243364 34 33 38
0.62353056 0.15262669 0.66673604 26 25 30
0.65103926 -0.24294303 0.96957937 32 31 37
0.64523249 -0.22938920 0.95760750 32 32 37
0.64668370 -0.23065191 0.96516680 32 32 37
0.64244861 -0.21856797 0.95310666 33 31 39
0.64073884 -0.13214919 0.53168038 27 25 34
0.64124915 -0.12932264 0.83467567 38 36 43
0.65958393 0.05382511 0.69670284 25 23 30
0.65625982 0.09822733 0.57290739 30 29 36
0.65470606 0.10492695 0.57101599 35 34 41
0.66863546 -0.50317280 1.75054154 177 177 184
0.67404078 -0.50520834 1.77130052 177 176 184
0.67682872 -0.51148558 1.79021013 177 176 184
0.67818934 -0.48159692 1.73818421 177 177 184
0.67337802 -0.49065281 1.75134771 177 177 184
0.67260199 -0.49539036 1.76593147 178 178 184
0.67518502 -0.47108182 1.73818421 176 177 184
0.67441673 -0.47299921 1.74527442 177 177 185
0.67697081 -0.47169700 1.76865285 177 177 186
0.67866534 -0.45841110 1.74714386 177 178 186
0.67198002 0.03953732 0.69957876 21 20 24
0.67339200 0.03612409 0.70257395 22 21 24
0.67001414 0.05106502 0.69732765 25 23 28
0.66964770 0.04324868 0.70240541 23 22 28
0.66285388 0.10580220 0.57291731 106 111 115
0.68268353 -0.50132686 1.76534331 175 175 184
0.68660141 -0.48580295 1.73818421 176 176 183
0.68713911 -0.49004751 1.74735233 176 177 182
0.68091035 -0.49545975 1.76075804 176 177 184
0.69421234 -0.47258398 1.73818421 177 177 185
0.68921199 -0.47197998 1.74715555 176 178 184
0.68218107 -0.46582111 1.76722076 176 177 186
0.68348719 0.03529376 0.70521716 24 23 27
0.70262142 -0.48835782 1.75165856 176 177 182
0.70830029 -0.49089473 1.76075804 176 177 182
0.70101696 -0.47681087 1.74265254 177 177 185
1.07118607 -0.54245633 1.15681207 166 169 176
1.07732257 -0.54354516 1.16127151 167 169 174
1.09542951 -0.56551521 1.15317023 161 170 176
1.09733975 -0.56563811 1.16478341 163 171 177
1.09261991 -0.54983925 1.16974712 166 169 174
1.08132219 0.19178374 1.23702896 26 25 29
1.09402569 0.19751421 1.25073433 26 25 29
1.09734553 0.20979808 1.25535959 25 23 26
1.08329892 0.23283260 1.23929036 29 23 27
1.09364906 0.22886132 1.25039531 26 24 27
1.09856321 0.22819816 1.26102764 25 24 27
1.10211903 -0.56393132 1.15780079 164 171 176
1.10265867 -0.56374968 1.16557050 164 170 176
1.10863596 -0.54495350 1.15521712 166 168 174
1.10336188 -0.54937161 1.16817530 165 169 173
1.11236825 -0.54236870 1.18349541 165 170 174
1.10761356 -0.53877866 1.14896917 161 166 173
1.11886674 -0.53879237 1.18616337 164 169 174
1.10361300 0.19601371 1.26670684 25 24 29
1.11774099 0.19942598 1.28632224 26 25 29
1.10687463 0.21027855 1.26892198 25 23 26
1.11671111 0.20469606 1.28449741 25 24 28
1.10298541 0.22760786 1.25535872 25 24 27
1.10596161 0.22459183 1.26773805 25 24 27
1.12167432 -0.54107819 1.18443980 163 170 173
1.12414438 0.19721226 1.29369146 25 24 30
1.13053429 0.19985732 1.30363810 26 24 31
1.12246776 0.20714003 1.27904117 25 24 26
1.12616149 0.21080241 1.29414846 26 24 27
1.13092715 0.21256250 1.30322595 26 24 28
1.12629378 0.22223282 1.29616505 26 24 27
1.14829488 0.33503465 0.99049207 25 24 31
1.17474463 0.33799105 1.01481996 25 24 32
1.17173948 0.34764349 1.01222389 26 23 31
1.18003047 0.33335303 1.01938617 27 25 31
1.19327180 0.33654856 1.03185753 26 25 31
1.18894648 0.35165479 1.02892129 26 24 32
1.18003047 0.36771059 1.01938617 26 23 30
1.19061538 0.36549794 1.03038452 25 22 34
1.20176160 0.33730406 1.03971136 27 27 31
1.20985810 0.33672799 1.04724248 29 29 33
1.21155514 0.34773099 1.05010464 26 24 33
1.21305569 0.36970402 1.05263065 26 23 34
1.21193830 0.38742158 1.05031228 24 23 31
1.22119256 0.33595477 1.05810436 34 33 40
1.23608422 0.34056252 1.07261372 35 33 40
1.22724042 0.37550406 1.06653910 26 22 35
1.22060772 0.38919004 1.05865518 24 23 33
1.22836497 0.39285452 1.06678997 24 23 31
1.23368200 0.40787938 1.07149611 25 23 33
1.23552990 0.43288440 1.07523468 25 22 32
1.23524243 0.44536311 1.07626551 25 21 30
1.25018171 0.41131188 1.08811076 25 24 34
1.24077519 0.42810127 1.07830151 25 23 31
1.24929633 0.43170827 1.08870733 25 23 32
1.24686042 0.45147278 1.08799244 24 22 30
1.25234528 0.46621323 1.09191147 23 22 29
1.26043797 0.42859987 1.09869015 26 24 32
1.26248407 0.42454045 1.10047376 25 24 33
1.43706954 -0.92396441 1.84460706 172 173 176
1.43757570 -0.88368881 1.83710527 171 176 180
1.43768388 -0.88510178 1.84335223 170 174 178
1.43786550 -0.86478853 1.81740439 173 172 179
1.43359801 -0.87002027 1.83149412 171 173 178
1.43511438 -0.87972230 1.84209740 170 173 179
1.42982602 -0.85997599 1.82720172 170 174 177
1.44866741 -0.92595641 1.85361731 171 172 176
1.45624963 -0.92265161 1.86234021 167 172 178
1.45073283 -0.90383315 1.82967091 170 173 178
1.45160144 -0.90818885 1.85723794 170 173 175
1.45281615 -0.90805922 1.86234021 170 174 176
1.44638002 -0.88721599 1.82968761 169 174 178
1.45189238 -0.89076902 1.84915013 169 173 176
1.44349428 -0.87150928 1.83152615 171 171 177
1.45421779 -0.87972230 1.84209740 172 172 179
1.47747612 -0.94025630 1.86747062 169 172 175
1.46296024 -0.92707896 1.85723794 168 173 177
1.46710314 -0.92955588 1.86413586 168 173 176
1.46641085 -0.91013892 1.85673050 167 173 176
1.46648906 -0.91045054 1.86262523 168 173 175
1.46416736 -0.89375764 1.85470074 170 173 178
1.49824256 -0.88434389 1.67587858 168 173 175
1.50113916 -0.88289380 1.67587858 167 173 175
1.51090759 -0.88584786 1.68841646 165 171 171
1.51662087 -0.89168457 1.70467595 166 171 171
1.51883996 -0.88709337 1.72053766 165 166 168
1.51708674 -0.87965435 1.71184814 174 175 179
1.52739744 -0.88715617 1.69579673 166 171 173
1.52704749 -0.88716839 1.70999119 168 171 174
1.52181375 -0.88411957 1.72053766 169 170 174
1.52917720 -0.86929381 1.67422745 166 169 175
1.53511615 -0.87472308 1.68735728 166 169 176
1.52746869 -0.87697292 1.70936200 167 170 175
1.54773723 -0.88915886 1.71237253 168 171 176
1.54075706 -0.87817493 1.71184814 168 172 177
