ply
format ascii 1.0
element vertex 1077
property float x
property float y
property float z
property uchar red
property uchar green
property uchar blue
end_header
-0.49004053 0.18087780 0.94110956 113 101 93
-0.48989859 0.21501802 0.91670376 40 36 39
-0.49018520 0.20539067 0.92344730 45 42 45
-0.49001991 0.22988084 0.90655207 33 32 35
-0.48994480 0.25023251 0.89259449 29 27 30
-0.48991561 0.27417819 0.87548965 26 25 27
-0.48987547 0.26423438 0.88268295 26 25 29
-0.48984803 0.29747840 0.85763056 25 24 26
-0.48999106 0.28742964 0.86540334 26 24 26
-0.49001986 0.31010351 0.84748581 25 22 24
-0.48999835 0.32989735 0.83099736 24 21 23
-0.48982269 0.35148011 0.81209570 22 19 21
-0.49115129 0.34128561 0.82114946 25 21 24
-0.49000705 0.37248439 0.79316116 21 18 21
-0.48986508 0.36281705 0.80203970 20 18 20
-0.49005261 0.39322918 0.77322109 22 18 21
-0.49001134 0.38282185 0.78354124 22 18 21
-0.48990199 0.41833226 0.73858345 0 0 0
-0.48986411 0.41017601 0.74847116 0 0 0
-0.49052697 0.40242896 0.76358102 19 17 20
-0.47043843 -0.58432388 1.08840222 121 128 131
-0.46352031 -0.56065826 1.03041649 95 110 115
-0.47569202 -0.57317155 1.05340534 106 118 123
-0.47016947 -0.57021381 1.09131283 121 127 131
-0.47000228 -0.54926802 0.82905350 0 0 0
-0.46631703 -0.54374518 0.99459088 120 121 123
-0.47018285 -0.55042876 1.09134638 119 127 131
-0.46998570 -0.53006453 0.83502934 0 0 0
-0.47057379 -0.53562528 0.97665066 95 111 111
-0.47003230 -0.53045033 1.09099648 120 128 130
-0.47209951 -0.51946839 0.83962517 0 0 0
-0.47000559 -0.50953559 0.84452286 0 0 0
-0.46964765 -0.50262308 0.90647820 28 33 34
-0.47394894 -0.51240849 0.92556655 31 33 36
-0.47881922 -0.51956526 0.94143307 120 126 133
-0.47017126 -0.50985906 1.09131932 119 126 131
-0.46984411 -0.49260926 0.85382958 0 0 0
-0.46922545 -0.48371766 0.86203451 3 4 4
-0.47097943 -0.49088126 0.88255042 55 62 63
-0.47012882 -0.49000931 1.09122102 119 125 130
-0.47009829 -0.47017485 1.09115030 119 124 130
-0.47029098 -0.45008955 1.09113265 115 122 128
-0.46989417 -0.43031850 1.09112172 112 119 124
-0.47007615 -0.40980456 1.09109886 110 116 122
-0.47010109 -0.39002349 1.09115681 109 114 122
-0.47013613 -0.37024843 1.09123827 106 112 122
-0.47010894 -0.34948117 1.09117512 105 108 119
-0.47005766 -0.32964211 1.09105599 102 106 116
-0.46996243 -0.30977859 1.09083485 98 104 115
-0.46986437 -0.28992101 1.09060709 95 102 111
-0.46977627 -0.27007766 1.09040264 93 99 109
-0.46970037 -0.25024794 1.09022647 93 99 107
-0.46965549 -0.23044012 1.09012218 91 96 105
-0.46961471 -0.20969572 1.09002761 91 95 106
-0.46955593 -0.18988996 1.08989134 90 93 105
-0.47002113 -0.17030067 1.08962935 90 91 109
-0.47024630 -0.15025020 1.08930879 88 93 104
-0.47001353 -0.13041723 1.08876965 71 72 80
-0.47005967 -0.10937765 1.08783512 60 59 67
-0.47017537 -0.08980860 1.08696832 57 56 64
-0.46984301 -0.07021119 1.08545903 56 55 60
-0.47008112 -0.05009666 1.08262773 62 60 70
-0.47009643 -0.03021437 1.07502827 117 116 122
-0.46987354 -0.00146806 1.05877283 148 137 132
-0.47007769 -0.01156959 1.06451719 145 141 138
-0.46996736 0.01032667 1.05192760 143 136 120
-0.46987432 0.03531486 1.03736162 139 130 117
-0.47013515 0.02559289 1.04311357 151 141 126
-0.46997644 0.05016176 1.02844015 139 130 120
-0.47001508 0.07226350 1.01482599 124 113 108
-0.46992731 0.06212091 1.02111239 150 138 126
-0.46997148 0.09786983 0.99870513 112 106 103
-0.47002480 0.08808318 1.00495212 114 107 104
-0.47001993 0.11000229 0.99089153 121 113 106
-0.47018033 0.13276128 0.97564484 143 133 126
-0.46982446 0.12269246 0.98249893 138 127 119
-0.46995794 0.15766261 0.95820426 141 128 122
-0.46990797 0.14718358 0.96559703 137 126 115
-0.47001299 0.17016177 0.94929778 131 120 111
-0.47014082 0.19180839 0.93360257 99 92 88
-0.46887382 0.18126257 0.94129955 111 107 101
-0.46998566 0.21503625 0.91670508 44 40 43
-0.46999066 0.20546519 0.92362207 74 67 66
-0.46859304 0.23906754 0.89991867 31 30 32
-0.47007334 0.22927738 0.90679197 34 33 35
-0.47002012 0.25012353 0.89231239 29 28 30
-0.46997907 0.27414976 0.87525175 26 25 27
-0.46988604 0.26414662 0.88238971 28 26 29
-0.46993514 0.29748037 0.85750868 26 23 26
-0.46997771 0.28741723 0.86525302 27 24 27
-0.47003331 0.31009312 0.84740273 25 22 25
-0.47000696 0.32991204 0.83099219 25 21 23
-0.46996871 0.35132427 0.81227081 24 21 23
-0.46994290 0.34102899 0.82137627 25 21 22
-0.46998957 0.37247417 0.79316636 21 18 21
-0.46994430 0.36280930 0.80215036 23 20 23
-0.46994273 0.39320486 0.77308217 21 17 20
-0.47004896 0.38284449 0.78342597 22 18 21
-0.47004880 0.41827337 0.73847986 0 0 0
-0.46983658 0.40938646 0.74921702 0 0 0
-0.47158809 0.40128168 0.76313894 5 5 6
-0.45106736 -0.58274294 1.08807905 120 125 128
-0.44843807 -0.57654545 1.06810784 123 127 127
-0.45000768 -0.56976176 1.09044987 119 125 128
-0.44987208 -0.54945835 0.82993063 0 0 0
-0.44733786 -0.55079371 1.01389461 106 118 118
-0.44185879 -0.55761916 1.02973509 124 125 132
-0.45024613 -0.55026886 1.09102981 120 126 129
-0.45015259 -0.52960022 0.83588871 0 0 0
-0.45088439 -0.52355211 0.95463663 27 30 30
-0.45392088 -0.52817432 0.96458167 71 78 79
-0.45010155 -0.53029629 1.09067991 120 126 129
-0.44997998 -0.50982614 0.84471052 0 0 0
-0.45020663 -0.51241160 0.93286201 59 65 65
-0.45025556 -0.50973470 1.09105305 119 123 130
-0.45003891 -0.49216377 0.85460357 0 0 0
-0.44904164 -0.48225024 0.86273569 0 0 0
-0.44556743 -0.48986906 0.88762731 54 63 61
-0.45836007 -0.49906107 0.90428025 103 110 115
-0.45021470 -0.48988937 1.09095399 119 124 128
-0.45019495 -0.47006970 1.09090623 116 121 127
-0.45020293 -0.45027936 1.09092570 113 120 126
-0.45021340 -0.43049095 1.09095117 111 117 124
-0.45019517 -0.40973252 1.09090697 110 114 123
-0.45022505 -0.38996002 1.09097945 106 112 120
-0.45026103 -0.37019012 1.09106643 104 110 118
-0.45023935 -0.35037242 1.09101396 102 110 116
-0.45017586 -0.33052572 1.09086013 103 106 114
-0.45007028 -0.30971324 1.09060427 98 104 114
-0.44995626 -0.28984679 1.09032787 98 101 111
-0.44987976 -0.27001317 1.09014237 95 98 109
-0.44981225 -0.25019111 1.08997882 93 97 108
-0.44975812 -0.23038212 1.08984760 92 95 106
-0.44971876 -0.20964268 1.08975211 90 93 105
-0.44967791 -0.18984841 1.08965316 89 93 105
-0.45020074 -0.16981114 1.08941869 90 93 104
-0.45037248 -0.15021538 1.08905560 90 93 108
-0.45015184 -0.13038752 1.08852214 70 71 80
-0.44977088 -0.10959923 1.08760107 60 58 65
-0.44986365 -0.09001385 1.08674408 58 56 63
-0.45005071 -0.06973555 1.08513511 57 55 61
-0.44997262 -0.05028137 1.08246661 63 61 71
-0.44999565 -0.03032557 1.07508953 119 120 124
-0.45019500 -0.00142440 1.05870690 138 131 124
-0.45001682 -0.01160700 1.06447515 139 133 133
-0.45000777 0.01045995 1.05174751 145 134 125
-0.44988787 0.03527677 1.03718277 148 136 128
-0.45007927 0.02560209 1.04293823 146 134 125
-0.44990154 0.05003815 1.02833132 134 125 118
-0.44999877 0.07223067 1.01479376 129 117 112
-0.44999683 0.06207481 1.02098525 143 136 124
-0.44986696 0.09792302 0.99874387 124 115 112
-0.45015019 0.08808482 1.00496857 120 113 109
-0.45001658 0.10996330 0.99103330 124 116 111
-0.45003581 0.13354816 0.97535192 135 123 113
-0.45014924 0.12341208 0.98219715 132 124 120
-0.45049783 0.15822483 0.95813265 145 135 123
-0.44970679 0.14782513 0.96544262 128 117 108
-0.45006232 0.17020331 0.94969876 125 115 106
-0.45010202 0.19169386 0.93416635 97 90 87
-0.45005766 0.18170923 0.94143511 109 102 96
-0.45044433 0.21527750 0.91683954 73 65 66
-0.44957401 0.20516738 0.92429339 98 89 86
-0.44987688 0.23904062 0.89981733 34 31 36
-0.44999626 0.22911388 0.90692154 45 42 44
-0.45000706 0.25008462 0.89208257 31 30 33
-0.44986431 0.27354379 0.87543998 27 25 28
-0.45017870 0.26361345 0.88247866 28 27 28
-0.44989394 0.29742671 0.85748037 27 24 26
-0.44997485 0.28740659 0.86510822 27 24 27
-0.45006663 0.31005963 0.84748498 25 22 25
-0.45012915 0.32998316 0.83103329 25 21 24
-0.45000592 0.35170084 0.81205926 24 21 23
-0.44932145 0.34146871 0.82104970 25 22 23
-0.45003716 0.37251349 0.79328996 22 19 22
-0.45007928 0.36291580 0.80230069 23 19 22
-0.45005483 0.39348681 0.77157729 16 13 14
-0.45001496 0.38279169 0.78345254 23 18 21
-0.45117039 0.41866348 0.73864794 0 0 0
-0.44987008 0.40938115 0.74939807 0 0 0
-0.44973874 0.40037853 0.76024239 0 0 0
-0.43211942 -0.58154207 1.08724849 119 124 127
-0.42570159 -0.56329008 1.04689031 118 125 127
-0.42942253 -0.57348705 1.06756812 124 127 126
-0.42990087 -0.56977521 1.08953444 117 123 126
-0.42998949 -0.54966841 0.83068343 0 0 0
-0.43239356 -0.54924891 1.01321316 80 85 84
-0.43031574 -0.55010199 1.09070039 119 124 126
-0.43009140 -0.53022410 0.83631101 0 0 0
-0.42875893 -0.52030326 0.84015284 0 0 0
-0.43727988 -0.52975697 0.97207761 67 78 81
-0.42510874 -0.53734270 0.99071705 81 81 86
-0.43022374 -0.53019325 1.09046788 118 124 126
-0.42995581 -0.50948997 0.84512916 0 0 0
-0.42483095 -0.50268810 0.91852365 23 25 25
-0.42972787 -0.50667333 0.92678094 61 77 81
-0.43036424 -0.50962762 1.09082393 118 123 127
-0.42996341 -0.49251345 0.85500414 0 0 0
-0.43025927 -0.48246905 0.86373845 1 2 2
-0.43904703 -0.48632476 0.88120252 24 26 26
-0.43032845 -0.48979024 1.09073320 117 123 127
-0.42309292 -0.47954083 0.86891441 3 4 4
-0.43032664 -0.46999309 1.09072868 116 120 125
-0.43033742 -0.45020935 1.09075604 110 118 124
-0.43035897 -0.43043552 1.09081072 111 115 123
-0.43035719 -0.40969470 1.09080633 107 112 119
-0.43036975 -0.38990963 1.09083805 106 110 117
-0.43038131 -0.37012252 1.09086716 105 109 115
-0.43036638 -0.35031313 1.09082930 104 106 117
-0.43030278 -0.33046758 1.09066811 101 105 114
-0.43020431 -0.30966043 1.09041844 97 102 112
-0.43009641 -0.28979817 1.09014497 94 100 108
-0.43001658 -0.26996371 1.08994259 93 98 106
-0.42994382 -0.25014050 1.08975818 91 97 107
-0.42988374 -0.23033097 1.08960586 91 94 105
-0.42984196 -0.20959427 1.08949998 90 92 102
-0.42980074 -0.18980344 1.08939543 88 92 103
-0.42971476 -0.16999887 1.08917751 89 92 106
-0.42958305 -0.15018612 1.08884381 90 91 105
-0.43004860 -0.13056498 1.08833618 69 70 79
-0.42995707 -0.10958001 1.08740994 59 57 64
-0.43006727 -0.08954217 1.08644463 57 56 60
-0.42988592 -0.06994798 1.08485814 55 53 59
-0.43016696 -0.04992219 1.08221014 60 59 68
-0.42988788 -0.03029355 1.07506185 115 112 123
-0.43048007 -0.00146790 1.05865296 133 123 121
-0.42997263 -0.01153043 1.06440752 135 128 128
-0.42996235 0.01033935 1.05170000 142 134 123
-0.42989433 0.03530045 1.03693941 136 124 116
-0.43002843 0.02558441 1.04277013 145 134 119
-0.42988870 0.05012394 1.02805639 130 121 116
-0.43002021 0.07227104 1.01459497 126 117 112
-0.42964152 0.06213711 1.02074821 137 121 115
-0.42998154 0.09782279 0.99874278 105 99 98
-0.43012394 0.08801018 1.00488465 113 105 103
-0.43002683 0.10993828 0.99103091 118 111 106
-0.42994609 0.13351819 0.97545671 138 123 110
-0.42995790 0.12341497 0.98222064 138 129 115
-0.43018425 0.15848202 0.95814494 137 127 113
-0.42991290 0.14805678 0.96545237 132 120 112
-0.43001265 0.17021132 0.94991645 123 111 105
-0.43002282 0.19168681 0.93441540 119 113 109
-0.43009915 0.18179366 0.94164439 117 108 101
-0.43004864 0.21580460 0.91666051 110 101 94
-0.42994505 0.20563469 0.92416832 110 101 96
-0.42967684 0.23905082 0.89985571 53 48 50
-0.43000543 0.22920715 0.90698073 73 65 67
-0.43005403 0.25008158 0.89195218 39 35 38
-0.42998146 0.27337608 0.87528607 27 25 28
-0.42988047 0.26338757 0.88239683 30 29 31
-0.42985794 0.29743901 0.85738928 28 23 26
-0.43002755 0.28734067 0.86497850 27 25 27
-0.43000142 0.31015604 0.84743730 26 23 25
-0.43012425 0.33002195 0.83117696 25 21 24
-0.42992901 0.35137111 0.81252082 22 20 23
-0.42993070 0.34163457 0.82110683 24 20 23
-0.42994296 0.37262676 0.79346645 21 19 22
-0.42999896 0.36248963 0.80292046 22 20 23
-0.43007692 0.39342198 0.77012488 10 8 9
-0.42987667 0.38332183 0.78331905 22 18 21
-0.43015289 0.41921616 0.73901545 0 0 0
-0.42994621 0.40931149 0.74989924 0 0 0
-0.43909519 0.40026010 0.76001751 0 0 0
-0.41637270 -0.58073495 1.08629110 117 127 125
-0.41678281 -0.56103168 1.04269302 119 124 128
-0.40915813 -0.57299487 1.07009840 124 126 127
-0.41017173 -0.57028701 1.08887167 117 123 123
-0.40996448 -0.55005229 0.83129671 0 0 0
-0.40623864 -0.55523439 1.03191859 113 120 117
-0.40893595 -0.55926241 1.04107797 113 125 124
-0.40976427 -0.54981114 1.09049180 118 122 124
-0.41020220 -0.53096843 0.83672811 0 0 0
-0.40868564 -0.52108110 0.84043179 0 0 0
-0.41103708 -0.52399389 0.96764052 100 119 120
-0.40946686 -0.53016239 1.09040381 117 122 125
-0.40994313 -0.50974594 0.84552401 0 0 0
-0.41714000 -0.50118144 0.91673545 5 5 5
-0.41536026 -0.50514263 0.92691153 59 65 67
-0.40537522 -0.51839001 0.95627654 62 64 68
-0.40956484 -0.50955292 1.09066420 116 121 124
-0.40994421 -0.49228304 0.85529157 0 0 0
-0.41021441 -0.48228004 0.86193695 0 0 0
-0.41104860 -0.48873102 0.89208488 0 0 0
-0.41014398 -0.49655029 0.90826440 0 0 0
-0.40954555 -0.48973617 1.09061306 115 120 123
-0.40924068 -0.47873498 0.86700469 0 0 0
-0.40954176 -0.46993910 1.09060311 114 117 122
-0.40954320 -0.45014768 1.09060673 113 116 120
-0.40956642 -0.43037942 1.09066856 109 113 117
-0.40956853 -0.40964502 1.09067412 106 109 116
-0.40957626 -0.38985843 1.09069472 104 108 116
-0.40958203 -0.37006918 1.09070989 103 106 113
-0.40956418 -0.35025957 1.09066252 101 104 109
-0.40949718 -0.33041183 1.09048403 99 102 110
-0.41033543 -0.30960053 1.09020736 98 100 108
-0.41022717 -0.28973827 1.08991969 96 98 106
-0.41014278 -0.26990250 1.08969523 94 94 107
-0.41007790 -0.25008644 1.08952289 90 96 104
-0.41003164 -0.23028747 1.08940004 91 93 103
-0.40998869 -0.20955313 1.08928609 90 92 103
-0.40994457 -0.18976399 1.08916884 90 91 101
-0.40986626 -0.16996495 1.08896075 90 93 102
-0.40975544 -0.15016168 1.08866659 90 92 105
-0.41023717 -0.13014370 1.08808331 67 66 77
-0.41013536 -0.10955658 1.08717926 58 56 63
-0.40975871 -0.08974403 1.08618095 54 54 60
-0.40991241 -0.07008145 1.08459225 54 53 59
-0.41007575 -0.05013095 1.08206389 60 59 65
-0.40993730 -0.03025943 1.07500327 112 111 117
-0.41032495 -0.00146780 1.05858156 151 143 138
-0.41001063 -0.01168133 1.06441227 136 128 128
-0.40995839 0.01033917 1.05167809 141 129 120
-0.40968514 0.03511423 1.03692655 126 117 110
-0.41042432 0.02544418 1.04278651 147 134 117
-0.40998209 0.05007682 1.02791718 126 118 111
-0.40980771 0.07211176 1.01449543 121 114 110
-0.41052311 0.06200381 1.02063729 143 131 121
-0.41007561 0.09790201 0.99852947 110 105 99
-0.41007696 0.08805867 1.00466867 113 104 102
-0.40997899 0.10994423 0.99086400 122 113 106
-0.40958606 0.13326539 0.97550291 134 121 115
-0.41039225 0.12320076 0.98223247 143 131 119
-0.41005973 0.15845257 0.95823768 130 123 115
-0.40995394 0.14799556 0.96546735 125 114 102
-0.40995650 0.17031325 0.94990649 135 125 116
-0.41003378 0.19177336 0.93448929 103 96 95
-0.41006801 0.18184957 0.94170633 100 90 86
-0.40991839 0.21581503 0.91683801 115 101 97
-0.40995450 0.20558416 0.92438521 89 86 84
-0.40947040 0.23905833 0.89988399 110 100 92
-0.41000842 0.22922591 0.90708907 120 108 103
-0.41004387 0.25006136 0.89192506 73 65 65
-0.40994866 0.27329105 0.87511306 34 32 35
-0.40999959 0.26335303 0.88228116 42 39 41
-0.40965722 0.29690618 0.85760682 27 26 29
-0.41020542 0.28686273 0.86508247 31 27 31
-0.40993966 0.31004120 0.84744927 27 24 27
-0.41003097 0.33003666 0.83131861 26 22 25
-0.41002630 0.35149117 0.81271301 24 21 23
-0.40993377 0.34170112 0.82134608 23 22 24
-0.41008073 0.37296400 0.79358671 23 20 23
-0.40957356 0.36288614 0.80293556 23 20 23
-0.40139279 0.39999703 0.75951800 0 0 0
-0.41009716 0.39310591 0.76883969 5 4 5
-0.40999131 0.38375584 0.78385976 23 19 22
-0.41663856 0.41975125 0.73915386 0 0 0
-0.41008880 0.40995862 0.74990001 0 0 0
-0.40618521 0.42016625 0.73956271 0 0 0
-0.38922879 -0.57305903 1.07502690 120 121 123
-0.39026067 -0.56930307 1.08821608 115 119 118
-0.38984481 -0.55018309 0.83187978 0 0 0
-0.39563513 -0.54742566 1.02068460 115 127 123
-0.38977653 -0.55081342 1.09011420 117 119 120
-0.39022270 -0.53185825 0.83706075 0 0 0
-0.38982263 -0.52203145 0.84065812 0 0 0
-0.38222499 -0.53362954 0.99496150 114 125 123
-0.38952916 -0.53865119 1.00271267 103 110 106
-0.38964202 -0.53011425 1.09030410 115 118 120
-0.38995513 -0.51004357 0.84590341 0 0 0
-0.38312816 -0.50168930 0.92645144 22 23 22
-0.39635588 -0.51590339 0.95346501 63 68 66
-0.38970973 -0.50947284 1.09049284 114 118 119
-0.39002970 -0.49258823 0.85503188 0 0 0
-0.38963659 -0.48265969 0.86312286 0 0 0
-0.39230513 -0.48422873 0.88854251 18 20 20
-0.39270371 -0.49917870 0.91888231 11 12 12
-0.38969587 -0.48966475 1.09045405 113 115 117
-0.38971868 -0.47857348 0.87040471 0 0 0
-0.38845018 -0.47981864 0.88044327 3 4 4
-0.38970416 -0.46988483 1.09047717 110 114 118
-0.38970023 -0.45008972 1.09046625 109 112 116
-0.38972176 -0.43032340 1.09052656 106 110 113
-0.38972236 -0.40959027 1.09052833 105 107 114
-0.38972763 -0.38980425 1.09054302 101 105 111
-0.38972604 -0.37001106 1.09053864 103 104 111
-0.38970483 -0.35020063 1.09047900 98 103 108
-0.38964238 -0.33035731 1.09030414 99 100 108
-0.39049676 -0.30955838 1.09005897 96 98 107
-0.39038997 -0.28969608 1.08976070 93 97 104
-0.39029683 -0.26985431 1.08950060 94 95 104
-0.39022601 -0.25003603 1.08930296 91 93 103
-0.39016928 -0.23023346 1.08914449 90 91 103
-0.39015368 -0.20951742 1.08910111 89 90 99
-0.39011772 -0.18973471 1.08900079 88 90 99
-0.39004464 -0.16993936 1.08879681 90 91 103
-0.38994241 -0.15014017 1.08851112 90 90 102
-0.38972159 -0.13031251 1.08789455 67 66 75
-0.39005813 -0.10973581 1.08697794 56 55 62
-0.38996067 -0.08972423 1.08594225 54 52 58
-0.39016939 -0.06977351 1.08435281 53 53 58
-0.38980404 -0.05033580 1.08192096 59 58 65
-0.39002097 -0.03037269 1.07509820 116 114 120
-0.39017697 -0.00146772 1.05852415 162 155 150
-0.38997614 -0.01158711 1.06435288 127 122 122
-0.38994084 0.01033859 1.05161817 146 134 124
-0.39009717 0.03441233 1.03723434 125 114 106
-0.39009569 0.02475716 1.04310621 145 132 119
-0.38993364 0.05011976 1.02772120 121 111 107
-0.38990947 0.07132368 1.01479013 121 113 109
-0.39043179 0.06122719 1.02091711 136 123 118
-0.38985240 0.09778958 0.99838859 112 101 98
-0.39003181 0.08797764 1.00451309 118 108 105
-0.38992277 0.10996913 0.99064206 124 114 108
-0.39002238 0.13271342 0.97575439 124 116 106
-0.38994855 0.12264828 0.98243280 135 123 116
-0.38993667 0.15850271 0.95827010 134 119 102
-0.38992216 0.14799312 0.96545022 134 122 112
-0.38997825 0.17022955 0.95007380 134 121 107
-0.39000595 0.19172485 0.93477120 108 102 98
-0.39005365 0.18180340 0.94192296 117 100 96
-0.38995877 0.21587950 0.91711299 117 108 102
-0.38993320 0.20569826 0.92464452 86 81 79
-0.39316078 0.23907166 0.89993417 117 107 93
-0.38979290 0.22952262 0.90707003 117 108 98
-0.38998424 0.25003688 0.89189079 97 86 83
-0.39008753 0.27328243 0.87495162 66 61 63
-0.38996862 0.26331644 0.88215838 75 68 70
-0.39006087 0.29674866 0.85747129 41 37 39
-0.38994090 0.28662603 0.86501969 51 46 48
-0.38997958 0.31004041 0.84728982 37 33 35
-0.38998279 0.33001774 0.83131136 34 30 32
-0.39003328 0.35154826 0.81298768 31 27 29
-0.39010471 0.34174074 0.82144124 33 29 30
-0.38998384 0.37346597 0.79371898 29 25 28
-0.38995593 0.36315667 0.80300420 29 26 28
-0.39613488 0.39999013 0.75950488 0 0 0
-0.38990541 0.39248246 0.76772452 0 0 0
-0.39024219 0.38384917 0.78447508 28 23 26
-0.39009163 0.41013564 0.75038332 0 0 0
-0.39872669 0.42038800 0.73995304 0 0 0
-0.38742470 0.42042162 0.74076433 0 0 0
-0.36232664 -0.56251902 1.05734903 107 117 118
-0.37338109 -0.57143066 1.07334966 111 119 119
-0.37032135 -0.56875164 1.08779025 117 118 119
-0.37003255 -0.55006312 0.83246916 0 0 0
-0.37555588 -0.54214272 1.01410258 118 121 131
-0.36982147 -0.55059575 1.08997490 114 116 117
-0.36999693 -0.53223004 0.83747609 0 0 0
-0.36964870 -0.52273090 0.84088948 0 0 0
-0.36915087 -0.52090859 0.96968263 78 81 84
-0.37316152 -0.52930239 0.98689345 108 122 118
-0.36985697 -0.53011744 1.09031033 113 117 117
-0.36998476 -0.51003312 0.84622856 0 0 0
-0.36164596 -0.50200870 0.93299717 68 75 73
-0.37003432 -0.51018034 1.09038638 112 115 116
-0.36998087 -0.49249912 0.85494918 0 0 0
-0.37041326 -0.48288117 0.86339484 0 0 0
-0.36631556 -0.48364151 0.89484860 60 69 69
-0.37332416 -0.49115228 0.90845388 52 61 59
-0.36972430 -0.49039710 1.09033916 111 113 116
-0.36925706 -0.47783347 0.87111202 0 0 0
-0.36724319 -0.47866422 0.88252547 0 0 0
-0.36986635 -0.46982474 1.09033766 108 112 115
-0.36986240 -0.45003177 1.09032582 106 110 114
-0.36987934 -0.43026382 1.09037567 106 108 112
-0.36989115 -0.40954598 1.09041060 103 106 110
-0.36989988 -0.38976616 1.09043646 103 105 111
-0.36989722 -0.36997375 1.09042845 102 103 110
-0.36986663 -0.35015552 1.09033838 100 102 106
-0.36980050 -0.33030868 1.09014352 98 98 105
-0.36970467 -0.30950211 1.08986078 96 97 104
-0.36960640 -0.28964568 1.08957114 94 95 104
-0.36951938 -0.26980829 1.08931483 91 92 101
-0.36953816 -0.25007070 1.08911548 89 92 102
-0.37033993 -0.23019434 1.08895934 89 90 101
-0.37031730 -0.20947733 1.08889260 88 90 98
-0.37028648 -0.18970009 1.08880202 89 90 99
-0.37021215 -0.16990609 1.08858344 89 90 101
-0.37011018 -0.15010878 1.08828371 88 89 103
-0.36989925 -0.13028484 1.08766360 66 64 74
-0.37028266 -0.10932050 1.08673148 56 54 63
-0.37016969 -0.08970413 1.08569968 53 52 58
-0.36980170 -0.07004442 1.08415914 53 51 58
-0.37013885 -0.04989844 1.08170868 58 56 64
-0.36994470 -0.03026377 1.07511349 123 120 125
-0.37006630 -0.00146778 1.05856601 158 148 140
-0.36987712 -0.01160699 1.06446533 128 120 119
-0.36986594 0.01035351 1.05161123 143 133 124
-0.37019818 0.03444917 1.03713385 130 119 110
-0.37006195 0.02469222 1.04308185 140 131 116
-0.36990181 0.05006274 1.02762320 116 108 104
-0.37008035 0.07143481 1.01456299 125 113 108
-0.37008687 0.06121854 1.02077281 127 112 109
-0.36997573 0.09787235 0.99821253 125 110 107
-0.36991525 0.08809142 1.00428570 116 107 104
-0.37004891 0.10986609 0.99059636 135 124 113
-0.37004165 0.13270482 0.97569210 135 124 118
-0.36996902 0.12253980 0.98243210 136 125 115
-0.37007867 0.15851017 0.95831521 132 119 110
-0.36997816 0.14801810 0.96544670 130 120 110
-0.36998081 0.17030555 0.95009185 116 106 101
-0.37018488 0.19212390 0.93473484 103 96 95
-0.36935759 0.18220924 0.94179241 128 119 113
-0.37036843 0.21607725 0.91736080 106 97 95
-0.36976367 0.20588497 0.92486346 101 95 91
-0.37000864 0.22994950 0.90715420 126 117 111
-0.37003957 0.25004118 0.89202784 102 91 87
-0.37007784 0.27320173 0.87479471 79 72 72
-0.36998477 0.26330975 0.88213643 82 78 76
-0.37004603 0.29660924 0.85720027 69 61 61
-0.36991176 0.28653511 0.86474522 72 65 65
-0.36500430 0.31903117 0.83972783 56 50 50
-0.37013646 0.30955641 0.84723164 57 52 53
-0.37000636 0.33000277 0.83096424 50 46 46
-0.36999613 0.35154334 0.81294516 53 49 50
-0.37014466 0.34166353 0.82125561 54 47 47
-0.36999676 0.37358054 0.79408801 51 44 46
-0.37006563 0.36324186 0.80303988 52 47 48
-0.36969283 0.39138952 0.76820802 0 0 0
-0.37083565 0.38282972 0.78492562 35 32 34
-0.37001039 0.40985301 0.75115030 0 0 0
-0.37003716 0.42057438 0.74140978 0 0 0
-0.34769402 -0.56016380 0.83035775 0 0 0
-0.35026349 -0.56824037 1.08768423 114 116 115
-0.35016556 -0.54992646 0.83308192 0 0 0
-0.34634291 -0.54709764 1.02936141 117 117 122
-0.35581347 -0.55712568 1.04891133 118 118 122
-0.35005239 -0.55075462 1.08996658 112 115 115
-0.35008754 -0.53309311 0.83764803 0 0 0
-0.34976207 -0.52300285 0.84121103 0 0 0
-0.35941464 -0.52127452 0.97506768 118 123 131
-0.34017156 -0.53165821 0.99771655 118 116 128
-0.35009072 -0.53015022 1.09037722 111 113 113
-0.34992214 -0.50966855 0.84669829 0 0 0
-0.34456568 -0.50172232 0.93697956 92 96 102
-0.34825579 -0.50746994 0.94924557 112 124 124
-0.35009479 -0.51036690 1.09038947 111 112 112
-0.34988891 -0.49205959 0.85505587 0 0 0
-0.35072500 -0.48246088 0.86207926 0 0 0
-0.35465271 -0.48205495 0.89304382 21 22 23
-0.35001370 -0.48803792 0.90703207 56 62 60
-0.35006199 -0.49053201 1.09028671 110 111 113
-0.34969550 -0.47648811 0.86889759 0 0 0
-0.34373317 -0.47776235 0.88580413 11 12 12
-0.35004361 -0.46977793 1.09022898 108 111 112
-0.35003557 -0.44998157 1.09020417 107 109 111
-0.35005264 -0.43021708 1.09025732 106 106 111
-0.35006751 -0.40950582 1.09030367 104 104 110
-0.35007008 -0.38972154 1.09031144 101 102 106
-0.35004713 -0.36990978 1.09023977 99 102 107
-0.35002054 -0.35009714 1.09015680 97 100 103
-0.34996463 -0.33025994 1.08998272 95 96 103
-0.34995464 -0.30954555 1.08970982 95 95 105
-0.34971192 -0.28971799 1.08945750 92 94 103
-0.34972111 -0.26978598 1.08922478 90 93 102
-0.34975545 -0.24988552 1.08901236 90 91 101
-0.35052741 -0.23016182 1.08880501 88 90 98
-0.35049653 -0.20944207 1.08870911 88 89 99
-0.35045523 -0.18966145 1.08858056 87 88 99
-0.35039684 -0.16987728 1.08839920 89 90 99
-0.35029684 -0.15008189 1.08808839 86 89 100
-0.35009034 -0.13025881 1.08744661 64 63 68
-0.34980386 -0.10949425 1.08655731 55 53 59
-0.34973514 -0.08987389 1.08552728 53 51 57
-0.35010245 -0.06974227 1.08400419 52 50 57
-0.35009712 -0.05011170 1.08166163 56 54 61
-0.34998316 -0.03025195 1.07528517 122 119 123
-0.34998419 -0.00146798 1.05869922 141 133 129
-0.34990276 -0.01162811 1.06465920 131 125 125
-0.34988670 0.01039915 1.05163350 145 135 124
-0.35003147 0.03440945 1.03715339 131 120 112
-0.35004660 0.02462848 1.04311150 145 132 124
-0.35004032 0.05008458 1.02752942 117 109 104
-0.35011890 0.07130585 1.01453429 135 124 116
-0.34977125 0.06121404 1.02069782 126 117 114
-0.35007766 0.09776584 0.99814623 150 135 126
-0.35000826 0.08793831 1.00426300 126 114 109
-0.35009909 0.10992478 0.99041040 137 126 112
-0.34995991 0.13266360 0.97562257 116 108 103
-0.34997022 0.12255655 0.98227719 131 117 102
-0.35010539 0.15789095 0.95880664 128 118 112
-0.35003215 0.14799627 0.96546925 116 107 103
-0.34997896 0.16964341 0.95069423 120 108 100
-0.35002073 0.19257779 0.93467620 99 91 88
-0.34996194 0.18267342 0.94165413 127 117 107
-0.35001547 0.21673143 0.91731272 97 92 83
-0.35006215 0.20649956 0.92476405 102 96 90
-0.35003514 0.23011527 0.90748698 100 93 88
-0.35003771 0.25015065 0.89222341 109 101 94
-0.34999717 0.27321632 0.87474292 76 73 72
-0.35003564 0.26334768 0.88218620 78 73 73
-0.34956640 0.29626711 0.85707549 68 65 65
-0.35028347 0.28623076 0.86472250 77 73 72
-0.34932157 0.31911547 0.83897541 62 57 59
-0.35004037 0.30909036 0.84699030 75 69 68
-0.34998912 0.33015578 0.82998296 64 61 61
-0.34974532 0.35106487 0.81237552 67 61 60
-0.35046272 0.34090323 0.82095566 63 57 59
-0.34971558 0.37298613 0.79373402 79 71 69
-0.35078487 0.36281235 0.80257721 74 69 67
-0.34981831 0.39042794 0.76936050 0 0 0
-0.35142003 0.38095739 0.78409273 28 24 25
-0.35011858 0.41023562 0.75110810 0 0 0
-0.34586197 0.40030026 0.76009376 0 0 0
-0.34995677 0.42068977 0.74164963 0 0 0
-0.33001098 -0.56060128 0.83100624 0 0 0
-0.33328398 -0.56319561 1.06380105 113 118 111
-0.32989863 -0.56694011 1.08717359 113 114 111
-0.33009306 -0.55016500 0.83370995 0 0 0
-0.32428142 -0.54081795 1.01820846 107 114 112
-0.33325479 -0.54253261 1.02143667 112 115 114
-0.32407403 -0.55067030 1.04014242 113 118 109
-0.33016275 -0.55064390 1.08991539 111 112 110
-0.33017119 -0.53384051 0.83791004 0 0 0
-0.32953332 -0.52371244 0.84142472 0 0 0
-0.33031593 -0.53017168 1.09042100 110 111 111
-0.33003085 -0.50984825 0.84687024 0 0 0
-0.32726141 -0.51408691 0.96474200 115 115 119
-0.33031718 -0.51038394 1.09042577 110 110 110
-0.32985523 -0.49152665 0.85518971 0 0 0
-0.33049251 -0.48172366 0.86141709 0 0 0
-0.33535248 -0.48794864 0.90978867 57 62 66
-0.32998627 -0.49723018 0.93009164 83 86 88
-0.33026560 -0.49051821 1.09025557 109 109 110
-0.32989025 -0.47529301 0.86878931 0 0 0
-0.32847079 -0.47455935 0.88368778 33 36 36
-0.33022605 -0.46973308 1.09012492 108 108 109
-0.33021386 -0.44993222 1.09008438 106 107 109
-0.33022776 -0.43016694 1.09013027 104 105 107
-0.33024133 -0.40945745 1.09017474 102 103 105
-0.33023625 -0.38966666 1.09015800 99 102 105
-0.33021533 -0.36985867 1.09008907 97 99 103
-0.33018163 -0.35003966 1.08997750 96 97 101
-0.33011824 -0.33019492 1.08976813 95 95 102
-0.33005483 -0.31035778 1.08955898 92 93 101
-0.32998974 -0.29052679 1.08934430 92 93 100
-0.32991818 -0.26975715 1.08910824 91 93 98
-0.32985123 -0.24994064 1.08888730 90 90 97
-0.32979381 -0.23013919 1.08869798 89 89 98
-0.32998448 -0.20973966 1.08858411 87 88 98
-0.32948662 -0.19000120 1.08844640 87 87 98
-0.32965480 -0.16985237 1.08823883 88 88 100
-0.32955261 -0.15005617 1.08790131 87 88 98
-0.33010808 -0.13038539 1.08724291 63 62 65
-0.33003519 -0.10947786 1.08639541 53 50 58
-0.33003212 -0.08948770 1.08539649 52 50 56
-0.33022885 -0.06988920 1.08394970 51 49 55
-0.32977882 -0.05029279 1.08161263 55 54 59
-0.33006982 -0.03028581 1.07537094 118 115 119
-0.32988554 -0.00146811 1.05879577 134 123 118
-0.33000012 -0.01155339 1.06471684 137 131 129
-0.33000811 0.01033987 1.05177343 146 132 122
-0.32988716 0.03437263 1.03724737 129 116 111
-0.33006415 0.02469425 1.04316779 137 124 115
-0.33000810 0.05011831 1.02757810 114 107 101
-0.33003127 0.07139928 1.01447429 137 126 118
-0.33037747 0.06121635 1.02073630 139 125 117
-0.33022388 0.09785184 0.99800353 142 132 125
-0.33002782 0.08802781 1.00413735 140 129 122
-0.33001840 0.10990695 0.99030894 143 128 118
-0.32996903 0.13270668 0.97547230 105 97 94
-0.32998168 0.12257458 0.98213230 141 129 119
-0.32944531 0.15778960 0.95896455 129 118 110
-0.33000834 0.14799665 0.96547145 126 117 111
-0.33002213 0.16964264 0.95088311 117 108 100
-0.33005739 0.19259481 0.93488617 97 90 88
-0.32989051 0.18261296 0.94193529 118 109 104
-0.32996497 0.21685272 0.91750597 90 82 82
-0.33000215 0.20659387 0.92496121 94 85 84
-0.32995448 0.23019232 0.90775702 92 86 83
-0.33005519 0.25026110 0.89252202 93 90 87
-0.32086527 0.24065221 0.90002799 83 80 74
-0.33003332 0.27322102 0.87485743 76 72 71
-0.32997791 0.26342203 0.88235827 78 75 73
-0.32991099 0.29585764 0.85712801 69 66 66
-0.33003660 0.28582916 0.86495729 83 80 78
-0.32992889 0.31850400 0.83867345 69 66 67
-0.32996348 0.30840357 0.84701806 75 69 68
-0.32067476 0.33971840 0.81998432 65 61 64
-0.33001148 0.33025709 0.82875584 63 60 61
-0.32995177 0.35023486 0.81151752 77 73 72
-0.33731476 0.34006235 0.82081452 60 56 57
-0.32968206 0.37231916 0.79149648 61 59 56
-0.33071716 0.36175254 0.80175043 70 65 62
-0.32998580 0.39019094 0.76992549 0 0 0
-0.33430797 0.38009882 0.78066310 0 0 0
-0.33003394 0.41052503 0.75119743 0 0 0
-0.33020214 0.40042824 0.76033678 0 0 0
-0.33020246 0.42085131 0.74186146 0 0 0
-0.30855602 -0.56086919 0.83196461 0 0 0
-0.30020798 -0.56835779 1.07706809 114 114 99
-0.31030567 -0.56667348 1.08642869 109 111 107
-0.31015182 -0.55014882 0.83458601 0 0 0
-0.30988870 -0.55032188 1.08976349 110 110 109
-0.31058177 -0.53479729 0.83836058 0 0 0
-0.30943877 -0.52500691 0.84172534 0 0 0
-0.30807761 -0.52579311 0.99153012 98 102 95
-0.31689611 -0.53785860 1.01428622 105 107 100
-0.30955917 -0.53012910 1.09033370 109 109 110
-0.31006018 -0.51005364 0.84725306 0 0 0
-0.30133228 -0.51369889 0.96715087 73 86 74
-0.30957841 -0.51037259 1.09040152 108 109 109
-0.31003574 -0.49123538 0.85544903 0 0 0
-0.31004079 -0.48130212 0.86131331 0 0 0
-0.30501842 -0.48070009 0.89917135 0 0 0
-0.30929704 -0.48607970 0.91021146 42 42 44
-0.31593825 -0.49460207 0.92667991 64 66 68
-0.30952696 -0.49050224 1.09021997 108 108 109
-0.30995901 -0.47433817 0.86878457 0 0 0
-0.30045192 -0.47592839 0.89024568 0 0 0
-0.30948216 -0.46970599 1.09006204 107 106 108
-0.30946279 -0.44989491 1.08999391 105 106 106
-0.30946414 -0.43011500 1.08999840 103 103 105
-0.30954419 -0.41023338 1.08998123 102 102 104
-0.30938356 -0.39047035 1.08999080 98 99 103
-0.31028688 -0.36988184 1.08990708 97 98 102
-0.31034105 -0.34997285 1.08976950 95 97 99
-0.31028713 -0.33013795 1.08958022 94 95 100
-0.31023575 -0.31031250 1.08940009 91 93 97
-0.31017711 -0.29048673 1.08919409 90 91 98
-0.31011538 -0.26972473 1.08897746 91 91 96
-0.31006005 -0.24991668 1.08878318 89 90 97
-0.31001489 -0.23012370 1.08862478 88 89 97
-0.30998123 -0.21034385 1.08850666 87 87 98
-0.30993687 -0.19056211 1.08835086 87 86 97
-0.30986055 -0.16982808 1.08808245 87 87 96
-0.30974844 -0.15002677 1.08768851 88 87 95
-0.31035237 -0.13007068 1.08706480 61 59 63
-0.31028927 -0.10946727 1.08629168 53 50 55
-0.31002448 -0.08967627 1.08536523 52 50 53
-0.30970526 -0.06996882 1.08397485 50 49 54
-0.31015304 -0.04991360 1.08149560 55 54 58
-0.30997277 -0.03031874 1.07543060 117 114 117
-0.30980965 -0.00146837 1.05898208 130 118 114
-0.31012152 -0.01157395 1.06491955 139 132 127
-0.31005636 0.01034124 1.05192683 141 128 119
-0.31034954 0.03491455 1.03703493 120 110 103
-0.30963304 0.02525953 1.04292507 129 119 110
-0.30998955 0.05002907 1.02775452 122 111 108
-0.30995354 0.07134728 1.01453052 148 135 126
-0.31011679 0.06122197 1.02083006 144 132 128
-0.30951861 0.09754614 0.99811403 135 121 115
-0.31016564 0.08776370 1.00425820 135 122 115
-0.31002091 0.10988656 0.99022760 143 129 120
-0.31000723 0.13268816 0.97545056 120 110 103
-0.31000602 0.12259541 0.98200902 137 126 109
-0.30956125 0.15779270 0.95898339 141 128 114
-0.30997328 0.14799207 0.96544030 116 109 105
-0.30998090 0.16956760 0.95105391 115 103 98
-0.31007867 0.19260844 0.93507748 108 101 97
-0.30999219 0.18266823 0.94204867 110 104 101
-0.31005383 0.21677198 0.91780345 75 69 70
-0.30999936 0.20656343 0.92519362 102 96 92
-0.31001827 0.23021423 0.90806906 79 73 73
-0.30995658 0.25090845 0.89238516 105 99 98
-0.31003815 0.24070093 0.90021019 103 97 94
-0.31005838 0.27329508 0.87489637 71 66 66
-0.30991075 0.26339983 0.88259381 88 85 83
-0.30993889 0.29576886 0.85691808 64 61 61
-0.30991019 0.28582518 0.86489410 78 74 72
-0.30921356 0.31795397 0.83837499 96 89 87
-0.31017369 0.30809461 0.84676053 77 72 72
-0.30924138 0.33941403 0.81947772 89 86 84
-0.31013574 0.32948176 0.82826312 83 74 74
-0.30990674 0.35010874 0.81011514 68 63 63
-0.30989479 0.37149407 0.79035355 50 48 46
-0.31261626 0.36106167 0.80093180 65 61 62
-0.30992966 0.39022975 0.77009787 0 0 0
-0.31012991 0.41060120 0.75166010 0 0 0
-0.30993101 0.40055577 0.76057894 0 0 0
-0.30928723 0.42094137 0.74259333 0 0 0
-0.29042769 -0.56110896 0.83282591 0 0 0
-0.29173584 -0.56302293 1.06988219 115 109 107
-0.29001090 -0.56492308 1.08652536 109 109 106
-0.29011481 -0.55004962 0.83568039 0 0 0
-0.28065933 -0.54142027 1.02602005 118 111 102
-0.28754566 -0.55122170 1.04459429 116 104 105
-0.28232020 -0.55872563 1.06229413 111 109 102
-0.29004507 -0.55060022 1.08934657 108 108 107
-0.29058110 -0.53649348 0.83896049 0 0 0
-0.28927855 -0.52671457 0.84231240 0 0 0
-0.28970729 -0.53001070 1.09009109 108 108 107
-0.29005641 -0.50982309 0.84837103 0 0 0
-0.28945743 -0.51168825 0.96651055 112 114 112
-0.28977034 -0.51033876 1.09032927 108 108 107
-0.29040613 -0.49156986 0.85596819 0 0 0
-0.28936350 -0.48163931 0.86125126 0 0 0
-0.28012074 -0.48289607 0.90915781 65 65 62
-0.29036839 -0.49776947 0.93716025 73 76 71
-0.28972407 -0.49047326 1.09015566 107 106 106
-0.28973320 -0.47361126 0.86870621 0 0 0
-0.29199831 -0.47155558 0.88429115 45 46 47
-0.28967360 -0.46966449 1.08996551 107 105 109
-0.28964531 -0.44983918 1.08985877 105 105 105
-0.28963862 -0.43004993 1.08983343 103 103 105
-0.28963278 -0.41026288 1.08981155 99 101 102
-0.28963152 -0.39048300 1.08980681 99 99 103
-0.29046154 -0.36964193 1.08968137 97 97 99
-0.29051009 -0.34990847 1.08956922 96 96 98
-0.29046263 -0.33008078 1.08939162 94 95 97
-0.29042200 -0.31026666 1.08923929 92 93 97
-0.29036507 -0.29044181 1.08902562 89 91 96
-0.29031195 -0.26968723 1.08882632 90 91 97
-0.29026155 -0.24988318 1.08863730 90 90 96
-0.29022053 -0.23009379 1.08848330 88 87 98
-0.29018397 -0.21031283 1.08834610 86 88 95
-0.29014371 -0.19053482 1.08819494 87 87 96
-0.29006518 -0.16979977 1.08790071 86 87 97
-0.28996284 -0.15000311 1.08751720 86 86 95
-0.28980626 -0.13019666 1.08693033 60 57 61
-0.28961955 -0.10946087 1.08623003 53 50 54
-0.28975413 -0.08989208 1.08540796 52 49 52
-0.29006596 -0.06981085 1.08404380 51 49 53
-0.29023429 -0.05010572 1.08152530 55 53 58
-0.28983773 -0.03034782 1.07536017 109 106 108
-0.28971398 -0.00146856 1.05912276 126 114 109
-0.29010089 -0.01161313 1.06503014 136 128 123
-0.29010490 0.01034305 1.05210276 139 129 120
-0.28993140 0.03530210 1.03698839 114 107 106
-0.28993335 0.02557442 1.04291401 125 116 111
-0.29003712 0.05007331 1.02784513 117 109 106
-0.28997413 0.07132715 1.01464256 139 128 119
-0.28985361 0.06122779 1.02092710 137 126 120
-0.28995227 0.09775440 0.99804458 135 123 116
-0.29002709 0.08800054 1.00420479 131 121 115
-0.29006030 0.10983124 0.99028498 137 127 113
-0.29005809 0.13273192 0.97542498 118 109 103
-0.28984180 0.12254329 0.98202577 131 116 106
-0.28969960 0.15780829 0.95907811 123 116 112
-0.29004372 0.14803634 0.96547885 105 98 95
-0.28999359 0.16965903 0.95110540 125 114 108
-0.29010318 0.19274198 0.93521980 98 89 88
-0.28989202 0.18276803 0.94214175 111 98 98
-0.29056066 0.21705490 0.91789752 95 86 86
-0.28989063 0.20683319 0.92526308 96 88 87
-0.29004899 0.23026895 0.90828499 91 85 82
-0.28997665 0.25101577 0.89256975 89 80 77
-0.28988255 0.24076037 0.90043249 79 76 73
-0.29001940 0.27327361 0.87502782 78 74 74
-0.28997903 0.26348519 0.88272487 110 103 97
-0.28999101 0.29569565 0.85675181 81 76 76
-0.29001720 0.28581489 0.86486341 72 69 69
-0.29006454 0.31749044 0.83800738 99 95 91
-0.29001959 0.30755816 0.84666143 76 75 72
-0.28950873 0.33863904 0.81891186 76 69 69
-0.29001756 0.32866336 0.82792147 79 73 72
-0.29002453 0.34988094 0.80897943 69 66 66
-0.28277643 0.37975343 0.77995373 0 0 0
-0.28999404 0.37058483 0.78993239 50 47 47
-0.29218308 0.36055545 0.80017552 83 79 78
-0.28993135 0.39034511 0.77021549 0 0 0
-0.29012835 0.41087177 0.75217953 0 0 0
-0.28844506 0.40111481 0.76058496 0 0 0
-0.29011944 0.42111704 0.74350000 0 0 0
-0.26915311 -0.56152264 0.83394369 0 0 0
-0.26997757 -0.56461069 1.08583128 108 108 104
-0.27003588 -0.55012469 0.83696714 0 0 0
-0.26028771 -0.54058324 0.84007525 0 0 0
-0.26965707 -0.55531082 1.05580161 107 109 104
-0.26982351 -0.55006264 1.08904741 108 108 103
-0.27457321 -0.53840612 0.83956260 0 0 0
-0.26955829 -0.52915462 0.84295414 0 0 0
-0.26821514 -0.52403658 0.99307704 110 104 93
-0.27417141 -0.53226764 1.00867534 111 104 94
-0.26989922 -0.52996304 1.08999360 108 107 105
-0.27001800 -0.51009267 0.84973612 0 0 0
-0.26562321 -0.50609258 0.95594108 53 50 44
-0.27321326 -0.51009210 0.96389537 83 87 81
-0.26996294 -0.51030185 1.09025050 107 107 106
-0.27034601 -0.49275951 0.85677721 0 0 0
-0.26925186 -0.48296654 0.86155012 0 0 0
-0.26992528 -0.49044734 1.09009821 106 105 106
-0.27006480 -0.47317618 0.86951018 0 0 0
-0.26664708 -0.47019055 0.88523688 36 37 38
-0.26987629 -0.46963646 1.08990032 105 104 105
-0.26984582 -0.44980548 1.08977703 104 104 104
-0.26982543 -0.42999521 1.08969453 101 101 102
-0.26981792 -0.41020734 1.08966411 100 99 101
-0.26981072 -0.39042144 1.08963480 98 98 100
-0.26977082 -0.36964989 1.08947342 96 96 99
-0.26974273 -0.34984129 1.08936018 94 96 99
-0.26970990 -0.33003102 1.08922768 93 94 97
-0.26967377 -0.31022175 1.08908160 93 92 98
-0.26962081 -0.29039981 1.08886800 90 90 97
-0.26956612 -0.26964289 1.08864716 90 91 97
-0.26952228 -0.24984479 1.08847012 89 89 96
-0.26948239 -0.23005700 1.08830915 88 88 95
-0.26944349 -0.21027534 1.08815177 87 87 95
-0.27025143 -0.19058428 1.08799378 88 87 96
-0.27027687 -0.16977167 1.08772113 86 85 94
-0.27019048 -0.14998320 1.08737356 85 85 93
-0.27005889 -0.13018615 1.08684427 58 56 59
-0.26988320 -0.10945154 1.08613753 52 49 53
-0.27008593 -0.08945894 1.08535688 51 49 52
-0.27031659 -0.06989944 1.08411168 51 48 52
-0.26977126 -0.05018563 1.08158130 57 52 56
-0.27007183 -0.03023403 1.07529892 106 102 105
-0.26961999 -0.00146879 1.05928989 124 111 110
-0.26999212 -0.01163369 1.06518821 135 127 123
-0.27007119 0.01037486 1.05228924 138 128 118
-0.26992769 0.03534247 1.03723503 118 109 106
-0.26986812 0.02560700 1.04314346 120 110 105
-0.26995932 0.05018466 1.02799229 124 113 110
-0.27021997 0.07187033 1.01446503 144 131 124
-0.26883204 0.06183755 1.02071843 141 133 128
-0.27016315 0.09786001 0.99810117 129 113 105
-0.26999355 0.08802606 1.00430390 131 121 115
-0.27006188 0.10987700 0.99042251 137 126 117
-0.27004968 0.13267718 0.97560410 110 103 98
-0.26973140 0.12251624 0.98224299 124 111 103
-0.26984032 0.15782755 0.95919518 130 126 112
-0.27003949 0.14804772 0.96555676 110 100 98
-0.26994319 0.16970123 0.95118659 119 110 104
-0.27001551 0.19266304 0.93543572 96 84 81
-0.26997689 0.18273611 0.94231299 100 90 86
-0.27005948 0.21761454 0.91768809 97 89 87
-0.26996162 0.20731766 0.92504366 107 101 98
-0.27004805 0.23037238 0.90836820 90 84 81
-0.27000816 0.25104119 0.89268964 100 93 91
-0.26968587 0.24079171 0.90054970 99 91 89
-0.27001898 0.27325272 0.87506112 70 66 65
-0.27002024 0.26349392 0.88283147 76 71 68
-0.27012402 0.29561556 0.85647441 92 84 85
-0.27007278 0.28573737 0.86466474 115 107 99
-0.26929492 0.31724945 0.83742772 81 74 73
-0.27017306 0.30702932 0.84653950 78 74 73
-0.26964824 0.33836093 0.81832655 83 77 78
-0.27021479 0.32832947 0.82734979 85 81 81
-0.26031363 0.35909109 0.79999435 162 157 150
-0.27011253 0.35003301 0.80787623 129 126 119
-0.26991046 0.37966946 0.77978127 0 0 0
-0.27002813 0.36958051 0.78987662 59 58 54
-0.27007699 0.39014683 0.77060890 0 0 0
-0.27013772 0.41122942 0.75279754 0 0 0
-0.26925354 0.40107781 0.76125949 0 0 0
-0.26926281 0.42145797 0.74453136 0 0 0
-0.24931551 -0.56204707 0.83543339 0 0 0
-0.24081165 -0.56504675 1.07785439 110 107 101
-0.25056603 -0.56411365 1.08472429 108 108 100
-0.25081370 -0.55226892 0.83797682 0 0 0
-0.24682313 -0.54279075 0.84072776 0 0 0
-0.25001516 -0.55224870 1.04997965 106 110 99
-0.24974819 -0.55043711 1.08845100 107 107 102
-0.25010821 -0.52994762 0.84437376 0 0 0
-0.25008386 -0.52989100 1.08984589 107 105 102
-0.24995491 -0.50977137 0.85154705 0 0 0
-0.25182375 -0.50327665 0.95373589 109 109 102
-0.25802517 -0.51066352 0.96773440 114 105 105
-0.25016025 -0.51026823 1.09017860 105 104 101
-0.25052624 -0.49443975 0.85773092 0 0 0
-0.24935195 -0.48457273 0.86238789 0 0 0
-0.24392293 -0.48276530 0.91187897 16 14 14
-0.24961655 -0.49207181 0.93022193 46 46 42
-0.25028386 -0.49801913 0.94274157 78 77 75
-0.25012523 -0.49041499 1.09002623 107 104 103
-0.25013978 -0.47308402 0.87073793 0 0 0
-0.24990137 -0.46751644 0.88020228 0 0 0
-0.25007863 -0.46960319 1.08982298 103 103 102
-0.25003881 -0.44975278 1.08964922 103 102 101
-0.25001824 -0.42994193 1.08955947 99 99 100
-0.25000137 -0.41014021 1.08948565 98 98 98
-0.24998780 -0.39034687 1.08942637 97 97 98
-0.24994307 -0.36956776 1.08923140 96 96 98
-0.24992283 -0.34977158 1.08914327 95 95 97
-0.24990001 -0.32997534 1.08904410 93 93 96
-0.24986413 -0.31016655 1.08888762 92 91 95
-0.24982724 -0.29036201 1.08872699 92 91 95
-0.24978411 -0.26961614 1.08853931 89 90 94
-0.24974241 -0.24981909 1.08835781 88 88 94
-0.24969881 -0.23002701 1.08816731 88 87 93
-0.24965906 -0.21024490 1.08799415 87 86 94
-0.25048091 -0.19039080 1.08782004 86 86 95
-0.25050462 -0.16975011 1.08758320 85 85 93
-0.25044367 -0.14997568 1.08731956 84 83 92
-0.25032591 -0.13018180 1.08680825 57 55 57
-0.25016140 -0.10944710 1.08609314 53 49 53
-0.24998210 -0.08967186 1.08531483 50 48 51
-0.24970363 -0.06989905 1.08410613 52 48 50
-0.25005209 -0.05010782 1.08156230 56 52 55
-0.25013279 -0.03034684 1.07535363 104 99 101
-0.25109498 -0.00119947 1.05928334 119 107 106
-0.24969530 -0.01116821 1.06506450 133 124 122
-0.25002820 0.01034701 1.05250116 124 114 108
-0.24990920 0.03538196 1.03745680 129 118 114
-0.24993921 0.02559927 1.04337769 124 113 107
-0.24995306 0.05005060 1.02832933 133 123 116
-0.24995364 0.07221939 1.01442204 143 131 120
-0.25011413 0.06210070 1.02078035 142 128 118
-0.24977665 0.09782793 0.99827700 143 130 123
-0.24997403 0.08797451 1.00447695 121 109 106
-0.25006406 0.10999305 0.99053355 133 120 110
-0.25005542 0.13272051 0.97580664 118 107 101
-0.24984027 0.12257619 0.98243472 139 125 117
-0.24998033 0.15784960 0.95932917 104 97 94
-0.24998952 0.14804430 0.96578139 114 106 102
-0.24991080 0.16964977 0.95143233 109 101 98
-0.25006658 0.19288535 0.93545664 91 81 79
-0.24974544 0.18285381 0.94243724 101 93 91
-0.24986591 0.21759100 0.91785651 86 79 77
-0.25001415 0.20746830 0.92509315 104 95 93
-0.25002679 0.23033768 0.90849426 90 82 80
-0.25003938 0.25101487 0.89265033 79 73 71
-0.24944645 0.24078728 0.90053317 90 84 80
-0.25002098 0.27320274 0.87483540 97 92 88
-0.25001441 0.26349469 0.88275680 72 68 67
-0.24940693 0.29542088 0.85607627 91 85 85
-0.25027760 0.28532865 0.86463333 89 83 80
-0.25003148 0.31705869 0.83694565 85 79 79
-0.25024330 0.30690740 0.84602698 90 86 85
-0.24990372 0.33817297 0.81796536 148 144 137
-0.25002747 0.32822510 0.82680992 128 123 118
-0.24816285 0.35930697 0.79944994 162 155 146
-0.25010868 0.34929910 0.80771936 160 155 143
-0.24963289 0.37957781 0.77959304 0 0 0
-0.25008611 0.36951897 0.78899142 37 35 33
-0.25000834 0.39004757 0.77094563 0 0 0
-0.24999729 0.41167682 0.75329673 0 0 0
-0.25005235 0.40161181 0.76141845 0 0 0
-0.24985801 0.42163828 0.74561334 0 0 0
-0.22973304 -0.56261791 0.83721406 0 0 0
-0.23774500 -0.56220042 1.07242489 107 107 103
-0.23016080 -0.56396061 1.08472647 108 105 103
-0.23149414 -0.55580933 0.83885746 0 0 0
-0.22893083 -0.54629475 0.84148503 0 0 0
-0.22532552 -0.54218034 1.03253698 106 105 99
-0.23338671 -0.54954468 1.04598745 107 103 97
-0.23382440 -0.55727413 1.06302774 107 107 102
-0.22994352 -0.55068097 1.08813359 106 105 101
-0.22988960 -0.53009467 0.84613245 0 0 0
-0.22274186 -0.53261137 1.01264358 105 104 97
-0.23031138 -0.52990520 1.08987575 105 103 99
-0.23009780 -0.51000352 0.85323999 0 0 0
-0.23035261 -0.51021816 1.09007118 105 102 100
-0.23116882 -0.49647976 0.85866722 0 0 0
-0.22936247 -0.48664381 0.86322367 0 0 0
-0.22524600 -0.48168097 0.91281092 56 61 59
-0.23615258 -0.48958112 0.92778212 81 81 81
-0.23030974 -0.49034372 1.08986765 103 102 101
-0.23020900 -0.47295552 0.87234962 0 0 0
-0.22705874 -0.47169573 0.89065082 0 0 0
-0.23836630 -0.47794553 0.90277508 3 3 3
-0.23025953 -0.46952006 1.08962997 103 102 101
-0.23022396 -0.44967536 1.08946176 102 99 100
-0.23020685 -0.42987149 1.08938093 99 98 98
-0.23018537 -0.41006268 1.08927932 98 97 98
-0.23016149 -0.39025353 1.08916593 96 97 97
-0.23012465 -0.36948649 1.08899199 95 94 96
-0.23011105 -0.34970229 1.08892765 95 94 96
-0.23009679 -0.32991964 1.08886019 93 93 95
-0.23006337 -0.31011372 1.08870225 91 91 93
-0.23002749 -0.29031017 1.08853239 90 90 94
-0.22999271 -0.26957358 1.08836767 89 89 93
-0.22995865 -0.24978436 1.08820653 89 88 94
-0.22991157 -0.22998834 1.08798386 88 87 93
-0.22987585 -0.21021014 1.08781467 86 86 92
-0.22984345 -0.19044144 1.08766183 86 86 92
-0.22979823 -0.16972894 1.08744775 85 85 91
-0.22975088 -0.14996238 1.08722318 83 82 92
-0.22964330 -0.13017053 1.08671402 57 54 57
-0.22948638 -0.10943491 1.08597229 52 48 52
-0.23016820 -0.08974953 1.08524447 50 47 50
-0.23002526 -0.06989792 1.08408966 51 47 49
-0.23033754 -0.05003040 1.08156117 55 51 55
-0.22994611 -0.03033210 1.07537199 104 100 102
-0.22928045 -0.00055273 1.05901281 111 104 100
-0.22989387 -0.01066817 1.06481910 125 118 115
-0.23011634 0.01042315 1.05252190 125 112 109
-0.23001476 0.03532136 1.03755508 134 121 113
-0.22996816 0.02564072 1.04342086 117 105 101
-0.22998354 0.05011984 1.02840174 136 124 118
-0.22990788 0.07223397 1.01452381 147 132 124
-0.22985396 0.06210867 1.02091138 136 122 115
-0.22996711 0.09784192 0.99841962 108 101 96
-0.22993362 0.08811099 1.00451370 117 104 101
-0.22998034 0.10993003 0.99073708 132 118 110
-0.23026987 0.13333186 0.97560720 121 110 107
-0.22973592 0.12331241 0.98213850 135 122 113
-0.23011030 0.15786827 0.95944262 109 102 96
-0.22999052 0.14806477 0.96591596 110 103 97
-0.23002332 0.16971346 0.95149145 101 92 88
-0.22993047 0.19345292 0.93511270 107 96 94
-0.22985274 0.18352544 0.94205613 107 97 93
-0.23003971 0.21769162 0.91774570 89 83 82
-0.23002886 0.20735107 0.92519548 95 86 84
-0.22994779 0.23033470 0.90835209 85 79 76
-0.23008585 0.25095237 0.89245913 77 72 71
-0.22996224 0.24075756 0.90042199 76 72 68
