ply
format ascii 1.0
element vertex 1126
property float x
property float y
property float z
property uchar red
property uchar green
property uchar blue
end_header
-0.84996537 0.19009676 0.88208741 0 0 0
-0.84999002 0.21011187 0.88593068 0 0 0
-0.85005899 0.23016089 0.88955146 0 0 0
-0.84998471 0.25032410 0.89289215 0 0 0
-0.84985037 0.26973419 0.89580242 0 0 0
-0.85020171 0.28962595 0.89856413 0 0 0
-0.84440573 0.29979177 0.90010544 0 0 0
-0.85743417 0.30127879 0.89990010 0 0 0
-0.84989594 0.31054407 0.90137118 0 0 0
-0.84998280 0.32995731 0.90403022 0 0 0
-0.85009915 0.34986637 0.90674438 0 0 0
-0.84993613 0.36976151 0.90943303 0 0 0
-0.84998685 0.38968614 0.91201099 0 0 0
-0.84994352 0.40975565 0.91444744 0 0 0
-0.84993832 0.42990489 0.91713269 0 0 0
-0.85281365 0.44743756 0.91906047 0 0 0
-0.84585843 0.45409634 0.92078515 0 0 0
-0.85903949 0.46063280 0.91994160 0 0 0
-0.84992252 0.47007658 0.92222595 0 0 0
-0.84991240 0.48976618 0.92456737 0 0 0
-0.84972296 0.50995268 0.92704591 0 0 0
-0.85001695 0.52447124 0.92884774 0 0 0
-0.82032481 -0.20326340 0.83226750 0 0 0
-0.82116175 -0.18817031 0.83350136 0 0 0
-0.82192540 -0.16901944 0.83495621 0 0 0
-0.82276001 -0.14944005 0.83645987 0 0 0
-0.82358030 -0.12952663 0.83813014 0 0 0
-0.82343824 -0.11297898 0.83945825 0 0 0
-0.82588586 -0.10470439 0.84039596 0 0 0
-0.82537896 -0.08954228 0.84158355 0 0 0
-0.82637588 -0.06940883 0.84338985 0 0 0
-0.82729046 -0.04996502 0.84515772 0 0 0
-0.82820477 -0.03025776 0.84701216 0 0 0
-0.82925808 -0.00975524 0.84916185 0 0 0
-0.82994520 0.00991690 0.85150974 0 0 0
-0.82994882 0.02991573 0.85418586 0 0 0
-0.83007820 0.04993233 0.85719300 0 0 0
-0.82858800 0.06372058 0.85932149 0 0 0
-0.83067970 0.07336927 0.86103553 0 0 0
-0.83018268 0.09012585 0.86385288 0 0 0
-0.83007227 0.11043866 0.86730160 0 0 0
-0.82992448 0.13047567 0.87072311 0 0 0
-0.82977451 0.15012008 0.87413243 0 0 0
-0.83023754 0.16969241 0.87771631 0 0 0
-0.82803920 0.18088443 0.87982193 0 0 0
-0.83018219 0.19101291 0.88186144 0 0 0
-0.83001440 0.21000919 0.88558099 0 0 0
-0.83011094 0.23014531 0.88934738 0 0 0
-0.83000208 0.25036246 0.89284895 0 0 0
-0.82989128 0.26983208 0.89599306 0 0 0
-0.83035114 0.28795930 0.89872424 0 0 0
-0.82880636 0.29815614 0.90029081 0 0 0
-0.82975598 0.31039936 0.90206359 0 0 0
-0.82986548 0.33046083 0.90511728 0 0 0
-0.82991636 0.35039024 0.90816566 0 0 0
-0.83013011 0.37031647 0.91120897 0 0 0
-0.83002913 0.39010480 0.91421324 0 0 0
-0.82995623 0.40986315 0.91701772 0 0 0
-0.82093687 0.41932149 0.92000711 0 0 0
-0.83369977 0.42727486 0.91897505 0 0 0
-0.82590931 0.43286013 0.92117237 0 0 0
-0.83998350 0.44156516 0.91996849 0 0 0
-0.82990550 0.45001806 0.92291686 2 2 2
-0.82993743 0.46993106 0.92552461 7 6 8
-0.83006421 0.49011668 0.92779756 12 11 13
-0.82991557 0.51008719 0.93001266 16 15 17
-0.83009708 0.52530249 0.93177062 20 18 21
-0.80101917 -0.54324970 0.81315619 0 0 0
-0.80080267 -0.53264558 0.81246114 0 0 0
-0.80014547 -0.38137091 0.81179437 0 0 0
-0.80148531 -0.36871957 0.81368889 0 0 0
-0.80272418 -0.34923253 0.81596570 0 0 0
-0.80402049 -0.32938687 0.81829939 0 0 0
-0.80255365 -0.31444291 0.81944635 0 0 0
-0.80649008 -0.30751516 0.82101699 0 0 0
-0.80633708 -0.28981306 0.82280675 0 0 0
-0.80769933 -0.26977157 0.82501953 0 0 0
-0.80847038 -0.24974071 0.82701784 0 0 0
-0.80955853 -0.22994434 0.82882134 0 0 0
-0.81001439 -0.20998775 0.83049181 0 0 0
-0.80992998 -0.18972608 0.83203049 0 0 0
-0.81002479 -0.16970848 0.83350659 0 0 0
-0.81011172 -0.14979158 0.83502977 0 0 0
-0.81005645 -0.12988674 0.83661897 0 0 0
-0.80996749 -0.10993879 0.83822710 0 0 0
-0.81924748 -0.10061911 0.84001267 0 0 0
-0.80646862 -0.09199697 0.83927141 0 0 0
-0.81450223 -0.08706697 0.84062176 0 0 0
-0.80117849 -0.07713116 0.83984247 0 0 0
-0.81044920 -0.06937059 0.84162765 0 0 0
-0.81007358 -0.05003692 0.84324372 0 0 0
-0.80999503 -0.03034605 0.84507197 0 0 0
-0.81010647 -0.00997348 0.84725962 0 0 0
-0.80998976 0.00978636 0.84967890 0 0 0
-0.81007212 0.02976784 0.85250943 0 0 0
-0.81007123 0.04986311 0.85568462 0 0 0
-0.80916114 0.06742687 0.85860477 0 0 0
-0.81250816 0.07727885 0.86058685 0 0 0
-0.81001079 0.09053932 0.86277047 0 0 0
-0.81010812 0.11041326 0.86631557 0 0 0
-0.81005626 0.13034263 0.86983567 0 0 0
-0.80993944 0.15046403 0.87344473 0 0 0
-0.81001535 0.17011442 0.87718364 0 0 0
-0.80886112 0.18211904 0.87952130 0 0 0
-0.81022317 0.19235500 0.88162493 0 0 0
-0.80998385 0.20988842 0.88515451 0 0 0
-0.81004877 0.23006113 0.88912691 0 0 0
-0.81001756 0.25028319 0.89291702 0 0 0
-0.80998184 0.26991424 0.89644584 0 0 0
-0.81100321 0.28529467 0.89904059 0 0 0
-0.80878757 0.29482025 0.90080009 0 0 0
-0.81006461 0.30957809 0.90321097 0 0 0
-0.80998965 0.32966525 0.90669245 0 0 0
-0.80980136 0.34972702 0.91025821 1 1 2
-0.81004506 0.36990857 0.91393059 8 8 9
-0.81068966 0.38961315 0.91739495 13 12 14
-0.80213927 0.39720037 0.92033351 29 28 31
-0.81544464 0.40613775 0.91909400 7 5 6
-0.80762930 0.41165947 0.92147197 26 24 27
-0.80995352 0.43000505 0.92391906 25 24 29
-0.81026772 0.45001394 0.92665255 27 27 32
-0.81002780 0.46993586 0.92901138 28 27 31
-0.80997955 0.48984941 0.93094475 28 27 30
-0.81007518 0.50969554 0.93272949 29 27 29
-0.80997187 0.52582226 0.93420720 29 26 30
-0.79065937 -0.54488165 0.81291097 0 0 0
-0.79011866 -0.53020872 0.81149277 0 0 0
-0.78921360 -0.51024821 0.80874672 0 0 0
-0.78796146 -0.49103833 0.80598556 0 0 0
-0.78002060 -0.46143946 0.79979151 0 0 0
-0.78623529 -0.46961615 0.80124307 0 0 0
-0.78012130 -0.45583061 0.79989477 0 0 0
-0.78596785 -0.44967195 0.80142342 0 0 0
-0.78627733 -0.42968465 0.80212539 0 0 0
-0.78746279 -0.40972225 0.80434594 0 0 0
-0.78913610 -0.38967204 0.80760723 0 0 0
-0.78983707 -0.36990105 0.81101700 0 0 0
-0.78993047 -0.34999948 0.81330417 0 0 0
-0.79001906 -0.33000721 0.81541616 0 0 0
-0.78998512 -0.31021060 0.81747943 0 0 0
-0.79941743 -0.30237428 0.82016448 0 0 0
-0.78641825 -0.29173890 0.81870402 0 0 0
-0.79530317 -0.28765341 0.82092669 0 0 0
-0.78221531 -0.27513832 0.81946907 0 0 0
-0.79104222 -0.26919105 0.82199849 0 0 0
-0.79027671 -0.24997827 0.82380592 0 0 0
-0.79003309 -0.22997633 0.82562018 0 0 0
-0.78999111 -0.21011443 0.82742527 0 0 0
-0.79016681 -0.19021231 0.82910480 0 0 0
-0.79017304 -0.17016483 0.83066438 0 0 0
-0.79009597 -0.14997373 0.83225863 0 0 0
-0.79007168 -0.12976451 0.83387039 0 0 0
-0.79005197 -0.10957787 0.83548542 0 0 0
-0.79017623 -0.08953196 0.83712038 0 0 0
-0.78886554 -0.07076146 0.83847682 0 0 0
-0.79781675 -0.06409025 0.84044820 0 0 0
-0.78432071 -0.05314393 0.83929807 0 0 0
-0.79304755 -0.04876003 0.84108067 0 0 0
-0.78990925 -0.03027931 0.84239938 0 0 0
-0.79013986 -0.00991320 0.84475759 0 0 0
-0.78999518 0.00981536 0.84738569 0 0 0
-0.79004422 0.02970691 0.85038242 0 0 0
-0.79003292 0.04975172 0.85376357 0 0 0
-0.78999528 0.06991240 0.85743289 0 0 0
-0.79862910 0.07982115 0.86002398 0 0 0
-0.78529623 0.08320203 0.85950980 0 0 0
-0.79088966 0.09172872 0.86158610 0 0 0
-0.79005467 0.11017965 0.86490721 0 0 0
-0.79008093 0.13016741 0.86860111 0 0 0
-0.79000539 0.15042803 0.87248544 0 0 0
-0.79007638 0.16996534 0.87643918 0 0 0
-0.78924629 0.18328701 0.87918411 0 0 0
-0.79050280 0.19353199 0.88140252 0 0 0
-0.79010865 0.20984426 0.88482045 0 0 0
-0.79006606 0.23003539 0.88898975 0 0 0
-0.79015693 0.25047975 0.89310039 0 0 0
-0.78996628 0.27011562 0.89696470 3 3 3
-0.79103764 0.28303137 0.89943701 6 6 8
-0.78956501 0.29284881 0.90140780 12 12 13
-0.79009405 0.30993730 0.90472387 17 16 19
-0.79011353 0.33022430 0.90887311 25 23 25
-0.79038716 0.35008956 0.91290549 28 27 32
-0.78996942 0.36983362 0.91684461 30 29 32
-0.79266749 0.38408852 0.91921119 31 26 32
-0.78867343 0.39348624 0.92122435 30 28 31
-0.79029028 0.41009393 0.92352135 29 28 32
-0.78988835 0.42989415 0.92650453 28 27 32
-0.79011415 0.45003630 0.92919118 27 27 30
-0.79018307 0.47037027 0.93140497 28 27 31
-0.79026886 0.49033542 0.93306391 27 26 30
-0.79027445 0.51009986 0.93448391 27 27 30
-0.78957018 0.52640081 0.93566037 27 26 31
-0.77001409 -0.54415709 0.81182927 0 0 0
-0.77002630 -0.52976407 0.81024760 0 0 0
-0.76997849 -0.50986054 0.80744180 0 0 0
-0.76981186 -0.49116167 0.80423317 0 0 0
-0.77320714 -0.47118834 0.79691034 7 3 4
-0.77477924 -0.45010421 0.79701575 0 0 0
-0.77223793 -0.43153675 0.79723931 0 0 0
-0.77799053 -0.42661622 0.80059659 0 0 0
-0.76578689 -0.40934475 0.79546713 0 0 0
-0.77568959 -0.40953586 0.80202051 0 0 0
-0.76431705 -0.39436879 0.79696763 0 0 0
-0.77442827 -0.39000916 0.80410928 0 0 0
-0.76221176 -0.37599197 0.79815264 0 0 0
-0.77355959 -0.37006147 0.80720971 0 0 0
-0.77236071 -0.34968755 0.80937022 0 0 0
-0.77131968 -0.32982304 0.81127160 0 0 0
-0.77046161 -0.30995743 0.81316861 0 0 0
-0.77025629 -0.28995935 0.81520300 0 0 0
-0.77008609 -0.27018033 0.81716067 0 0 0
-0.77856214 -0.26124278 0.82009709 0 0 0
-0.76680533 -0.25120172 0.81830063 0 0 0
-0.77602774 -0.24802848 0.82089716 0 0 0
-0.76306620 -0.23370394 0.81935449 0 0 0
-0.77190728 -0.22901838 0.82178431 0 0 0
-0.77020935 -0.21001940 0.82318595 0 0 0
-0.76990841 -0.18999055 0.82489949 0 0 0
-0.76987328 -0.16990785 0.82668463 0 0 0
-0.77003230 -0.15006410 0.82845093 0 0 0
-0.77007791 -0.13029819 0.83009703 0 0 0
-0.77008132 -0.11043894 0.83170448 0 0 0
-0.77009271 -0.09046570 0.83327378 0 0 0
-0.77015380 -0.07050338 0.83506521 0 0 0
-0.77014651 -0.05035508 0.83696786 0 0 0
-0.76802377 -0.03151675 0.83852507 0 0 0
-0.77622498 -0.02599616 0.84067151 0 0 0
-0.76269363 -0.01593898 0.83941656 0 0 0
-0.77109109 -0.00900385 0.84191507 0 0 0
-0.77004052 0.00990778 0.84454890 0 0 0
-0.77007099 0.02959141 0.84780571 0 0 0
-0.76988398 0.04980110 0.85140218 0 0 0
-0.77020656 0.06998320 0.85520600 0 0 0
-0.76856662 0.08813143 0.85841595 0 0 0
-0.77458903 0.09598810 0.86075477 0 0 0
-0.76178782 0.10110426 0.85982670 0 0 0
-0.77032836 0.11010608 0.86283904 0 0 0
-0.77014753 0.12996343 0.86678144 0 0 0
-0.77020037 0.15009820 0.87099721 0 0 0
-0.76994831 0.17004124 0.87521017 0 0 0
-0.76939981 0.18612429 0.87862839 2 2 3
-0.77189764 0.19565172 0.88091763 3 3 4
-0.76989355 0.20973546 0.88384618 12 13 12
-0.77004902 0.23003704 0.88832996 21 19 23
-0.77011276 0.25034063 0.89281877 29 26 32
-0.76992021 0.27013003 0.89715730 33 31 35
-0.77119849 0.28179792 0.89967793 32 30 37
-0.76981587 0.29173890 0.90188508 31 31 34
-0.77013185 0.31033759 0.90584722 32 30 34
-0.77021223 0.33003728 0.91006339 31 30 32
-0.76993551 0.34966207 0.91410907 30 29 33
-0.77008066 0.37000861 0.91806279 29 28 31
-0.77707914 0.38109481 0.91985530 31 30 34
-0.77001613 0.39021877 0.92165178 29 28 31
-0.76981583 0.40961377 0.92462602 30 28 31
-0.77010277 0.42997576 0.92764501 28 28 31
-0.77024711 0.45018120 0.93032791 27 27 31
-0.76982494 0.46967724 0.93240519 28 26 31
-0.77012976 0.48924857 0.93390542 28 26 31
-0.77001412 0.50961207 0.93510567 28 26 31
-0.76997027 0.52596024 0.93595751 27 26 30
-0.74984787 -0.54397128 0.81050727 0 0 0
-0.75018921 -0.53022889 0.80906946 0 0 0
-0.74995854 -0.51016643 0.80634389 0 0 0
-0.74984575 -0.49086341 0.80289329 0 0 0
-0.75092743 -0.47820243 0.79676001 15 7 9
-0.74745677 -0.44855344 0.77009536 14 8 9
-0.75873470 -0.45083858 0.78142878 3 2 2
-0.74923440 -0.43261204 0.77416941 2 1 1
-0.75724766 -0.43398004 0.78268367 0 0 0
-0.74644438 -0.40779488 0.77497819 0 0 0
-0.75551509 -0.40934988 0.78474918 0 0 0
-0.74563238 -0.38380888 0.77832538 0 0 0
-0.75617582 -0.39034879 0.78885897 0 0 0
-0.74355092 -0.37939742 0.77755553 0 0 0
-0.75279164 -0.37273849 0.78865323 0 0 0
-0.74045509 -0.35565604 0.77853966 0 0 0
-0.75033430 -0.35236139 0.79050784 0 0 0
-0.75935438 -0.34175722 0.80278778 0 0 0
-0.74680277 -0.33075432 0.79145083 0 0 0
-0.75747296 -0.32945314 0.80373720 0 0 0
-0.74521139 -0.30549918 0.79509976 0 0 0
-0.75723894 -0.30509131 0.80823215 0 0 0
-0.74285844 -0.28735236 0.79626334 0 0 0
-0.75689485 -0.28853581 0.81055301 0 0 0
-0.74024957 -0.27959322 0.79567552 0 0 0
-0.75544153 -0.26959265 0.81203168 0 0 0
-0.75483501 -0.24919272 0.81457427 0 0 0
-0.75350079 -0.22952144 0.81679957 0 0 0
-0.75111789 -0.21068757 0.81800715 0 0 0
-0.75774705 -0.20537287 0.82058084 0 0 0
-0.74601016 -0.19108293 0.81835390 0 0 0
-0.75481673 -0.18883670 0.82139124 0 0 0
-0.74209395 -0.17447978 0.81918187 0 0 0
-0.75151557 -0.16954960 0.82261214 0 0 0
-0.75024276 -0.15003993 0.82393265 0 0 0
-0.74999895 -0.12983569 0.82570867 0 0 0
-0.75006172 -0.10978725 0.82723856 0 0 0
-0.75002949 -0.08993320 0.82866916 0 0 0
-0.75002545 -0.07005183 0.83053294 0 0 0
-0.74999178 -0.05002045 0.83249293 0 0 0
-0.74992608 -0.02995083 0.83482685 0 0 0
-0.74939153 -0.01035427 0.83752335 0 0 0
-0.75794246 -0.00253628 0.84036720 0 0 0
-0.74458318 0.00479238 0.83914344 0 0 0
-0.75163545 0.01217883 0.84180083 0 0 0
-0.75011883 0.03030554 0.84505678 0 0 0
-0.75033911 0.05004782 0.84867494 0 0 0
-0.75032587 0.07012097 0.85176393 0 0 0
-0.75058070 0.08977535 0.85523436 0 0 0
-0.74853104 0.10762722 0.85796002 2 1 2
-0.75540432 0.11361706 0.86112265 0 0 0
-0.74208522 0.12424863 0.85886242 31 27 31
-0.75111601 0.13052737 0.86352692 8 8 9
-0.75006361 0.14993702 0.86785155 20 20 24
-0.74971440 0.17013255 0.87292103 33 30 32
-0.74956963 0.18929789 0.87774206 37 36 40
-0.75472112 0.19839164 0.88029606 36 36 40
-0.74994254 0.21020801 0.88295407 36 36 36
-0.75003743 0.23052271 0.88792330 36 34 38
-0.75003290 0.25023880 0.89263087 33 33 36
-0.74994334 0.27023192 0.89731190 32 32 36
-0.74999060 0.28101338 0.89975555 31 31 35
-0.75003936 0.29108352 0.90202614 32 32 34
-0.75007805 0.31042791 0.90619925 32 31 34
-0.75008054 0.32996469 0.91033466 31 30 33
-0.75007223 0.34954077 0.91430570 30 30 32
-0.74987856 0.36974264 0.91820502 30 29 31
-0.75415459 0.37956973 0.92001241 28 27 31
-0.75002756 0.38986382 0.92178098 29 28 31
-0.75001567 0.40950313 0.92479281 29 28 31
-0.75000238 0.43007194 0.92781990 29 27 32
-0.74975848 0.45011843 0.93042906 27 27 30
-0.75021560 0.46962108 0.93246226 28 27 31
-0.75020251 0.48941402 0.93389728 27 26 30
-0.74951888 0.50954818 0.93487223 27 27 31
-0.75022931 0.52616769 0.93555591 22 21 24
-0.73048275 -0.54345179 0.80922939 0 0 0
-0.72982581 -0.52988087 0.80775880 0 0 0
-0.73000830 -0.50985304 0.80521467 0 0 0
-0.72687025 -0.48083952 0.79986922 0 0 0
-0.72990691 -0.49056798 0.80194975 0 0 0
-0.73240414 -0.47969897 0.79912090 0 0 0
-0.72460857 -0.44433800 0.74871974 34 20 22
-0.73116511 -0.45540348 0.76262571 37 19 22
-0.72260774 -0.43187602 0.74652630 34 16 20
-0.73643024 -0.43021906 0.76048732 13 5 7
-0.72610638 -0.41502276 0.75184090 23 9 11
-0.73589551 -0.41018286 0.76304867 4 2 3
-0.72446343 -0.38528681 0.75486638 8 3 5
-0.73458248 -0.38286209 0.76655967 3 1 2
-0.72175239 -0.36110013 0.75612676 0 0 0
-0.73691810 -0.37444352 0.77108620 5 2 4
-0.72202426 -0.35500843 0.75847220 12 7 7
-0.73252138 -0.35572957 0.77000135 5 2 3
-0.72722214 -0.33191930 0.76902176 5 2 3
-0.73780468 -0.32891683 0.78214890 7 3 4
-0.72473226 -0.30699451 0.77182966 6 2 3
-0.73730853 -0.31075348 0.78522017 2 1 1
-0.72310846 -0.28270997 0.77533289 1 0 1
-0.73140305 -0.28497618 0.78398000 0 0 0
-0.72366224 -0.26710217 0.77929401 0 0 0
-0.73526365 -0.26998241 0.79179269 0 0 0
-0.72123671 -0.25728878 0.77813035 0 0 0
-0.73194097 -0.25166433 0.79171208 0 0 0
-0.72818721 -0.23262709 0.79265052 1 0 1
-0.73593213 -0.22958994 0.80196106 0 0 0
-0.72495558 -0.20900998 0.79398827 0 0 0
-0.73607807 -0.20894819 0.80647550 0 0 0
-0.72387964 -0.18618174 0.79809621 1 1 1
-0.73334680 -0.18570477 0.80837759 0 0 0
-0.73654156 -0.17142670 0.81500801 0 0 0
-0.73271407 -0.15005145 0.81482435 0 0 0
-0.73882728 -0.14670008 0.82090535 0 0 0
-0.72798886 -0.12583522 0.81373961 0 0 0
-0.73780513 -0.13017587 0.82222417 0 0 0
-0.72751880 -0.11408690 0.81594825 0 0 0
-0.73619771 -0.10952652 0.82338535 0 0 0
-0.72385734 -0.09068322 0.81595434 0 0 0
-0.73495579 -0.08899135 0.82477845 0 0 0
-0.72311314 -0.07114565 0.81830335 0 0 0
-0.73422706 -0.06956566 0.82632711 0 0 0
-0.72154998 -0.05563175 0.81893644 0 0 0
-0.73334484 -0.04967314 0.82793994 0 0 0
-0.73377964 -0.03014934 0.83086207 0 0 0
-0.73408056 -0.00987000 0.83384947 0 0 0
-0.73437796 0.00881184 0.83734820 0 0 0
-0.73803030 0.01826608 0.84052709 0 0 0
-0.72792503 0.02483697 0.83518369 0 0 0
-0.73670214 0.02975247 0.84235811 0 0 0
-0.72560403 0.05226693 0.83528102 9 8 11
-0.73693081 0.04995039 0.84502195 0 0 0
-0.72365608 0.07168523 0.83700775 39 34 40
-0.73478680 0.07021803 0.84566986 5 4 5
-0.72183751 0.08312905 0.83901425 42 38 39
-0.72954221 0.09115427 0.84572048 30 29 28
-0.72928235 0.11027888 0.85132691 36 36 37
-0.72901181 0.12726320 0.85741708 38 35 42
-0.73214957 0.13687720 0.86121354 37 36 41
-0.72994239 0.14993636 0.86511128 37 36 42
-0.73001349 0.16982232 0.87118145 39 38 41
-0.73001903 0.18972325 0.87670471 37 38 40
-0.72752117 0.20086622 0.87961376 38 38 40
-0.73031248 0.21113429 0.88241335 36 36 39
-0.73003778 0.23035434 0.88738859 36 35 38
-0.72998656 0.25018711 0.89233798 34 33 37
-0.73003138 0.27006019 0.89711150 32 32 37
-0.72807425 0.28153184 0.89967262 31 31 37
-0.73022696 0.29142044 0.90192907 32 31 35
-0.73004011 0.31034332 0.90595285 32 31 34
-0.72985494 0.33022417 0.91007221 31 31 34
-0.73026949 0.34971594 0.91395970 30 29 32
-0.73006865 0.36993370 0.91780189 29 28 31
-0.72601295 0.38174269 0.91974018 28 28 32
-0.73024736 0.39130376 0.92153962 30 29 31
-0.73027859 0.40986061 0.92431772 29 28 31
-0.72988033 0.42982539 0.92721906 29 28 32
-0.73003375 0.45035113 0.92988165 28 27 31
-0.72986667 0.47046471 0.93189792 28 27 30
-0.73033536 0.49032772 0.93321096 27 26 30
-0.73015375 0.51035432 0.93398354 28 27 30
-0.72957502 0.52598718 0.93435184 11 10 12
-0.70993045 -0.54288990 0.80791490 0 0 0
-0.71012016 -0.53003328 0.80659552 0 0 0
-0.71002143 -0.51014686 0.80426530 0 0 0
-0.70939197 -0.48182581 0.79964681 0 0 0
-0.71006127 -0.49187038 0.80155770 0 0 0
-0.70277332 -0.46510570 0.77704763 23 13 15
-0.70702894 -0.47705128 0.79608180 5 3 3
-0.71043132 -0.44385814 0.74584696 37 19 23
-0.71240334 -0.45542324 0.76087124 39 18 27
-0.70194218 -0.42312121 0.73959648 37 18 22
-0.71042997 -0.43061477 0.74229726 37 18 22
-0.70557970 -0.40913567 0.73865268 37 17 21
-0.71297899 -0.41454845 0.74115525 39 17 21
-0.70446025 -0.39100048 0.73658250 37 18 25
-0.71536203 -0.38960992 0.74444535 24 12 18
-0.70297349 -0.37236842 0.73570751 40 18 24
-0.71262133 -0.37184113 0.74467323 27 11 15
-0.70238819 -0.35423860 0.73702704 37 15 19
-0.71158229 -0.35391062 0.74682868 17 8 9
-0.70104886 -0.33700688 0.73912218 36 19 20
-0.70688685 -0.33212088 0.74633134 25 12 12
-0.71973711 -0.33181792 0.76090449 16 7 9
-0.70598561 -0.30910985 0.75047985 21 12 15
-0.71765009 -0.30753012 0.76428434 18 12 12
-0.70563191 -0.28688832 0.75482042 16 7 9
-0.71300797 -0.28210732 0.76403219 4 2 3
-0.70414336 -0.26120841 0.75827461 0 0 0
-0.71442184 -0.27684988 0.76720631 8 5 6
-0.71171477 -0.25459793 0.76857845 2 1 1
-0.71382250 -0.23331156 0.77555421 0 0 0
-0.71823859 -0.22254693 0.78366381 0 0 0
-0.70542975 -0.21051634 0.77187574 3 3 2
-0.71703552 -0.20916352 0.78531452 0 0 0
-0.70435526 -0.18802229 0.77533855 2 1 2
-0.71250155 -0.18506515 0.78555253 13 9 9
-0.71321828 -0.16959295 0.78935015 0 0 0
-0.70162993 -0.15923724 0.77875996 13 11 11
-0.70935550 -0.15299779 0.78828014 0 0 0
-0.71940004 -0.15390468 0.80001831 0 0 0
-0.71065339 -0.12849516 0.79443788 0 0 0
-0.71598974 -0.12361122 0.80084378 0 0 0
-0.71112005 -0.11887598 0.79693764 0 0 0
-0.71661560 -0.10751012 0.80465502 0 0 0
-0.70522633 -0.09649998 0.79417950 0 0 0
-0.71585870 -0.09189958 0.80716141 0 0 0
-0.70184965 -0.06548393 0.79527692 0 0 0
-0.71387399 -0.06845009 0.80837069 0 0 0
-0.70214132 -0.04047943 0.79926074 0 0 0
-0.71382959 -0.05713728 0.81017195 0 0 0
-0.71159868 -0.03127204 0.81082173 0 0 0
-0.71906822 -0.02169131 0.82014257 0 0 0
-0.70891991 -0.01021535 0.81056545 0 0 0
-0.71806327 -0.00610176 0.82061410 0 0 0
-0.71008896 0.01718129 0.81471950 0 0 0
-0.71935214 0.01026732 0.82453084 0 0 0
-0.70479077 0.03390089 0.81024744 5 5 6
-0.70490722 0.05368043 0.81508009 50 46 56
-0.71515722 0.05200193 0.82471479 33 29 41
-0.70215111 0.06221527 0.81836419 49 43 52
-0.70942816 0.07172919 0.82864044 45 40 46
-0.70883797 0.08698287 0.83652755 42 39 42
-0.71206993 0.09599502 0.84173810 42 40 41
-0.71007486 0.10968962 0.84745815 40 40 44
-0.70989920 0.12964168 0.85556585 40 39 45
-0.71774044 0.13930459 0.86017320 38 37 44
-0.70441979 0.14156908 0.85933902 40 39 46
-0.71052794 0.15105254 0.86337735 38 38 43
-0.71001195 0.17021964 0.86969266 39 39 42
-0.70990145 0.18998095 0.87558623 39 39 41
-0.70948590 0.20292737 0.87926580 37 37 40
-0.71041827 0.21285691 0.88197147 37 37 40
-0.71000100 0.23018543 0.88656187 36 35 38
-0.71001945 0.24995065 0.89154907 34 34 36
-0.70998064 0.26989168 0.89636351 33 33 37
-0.70870162 0.28304449 0.89931203 33 33 37
-0.71055065 0.29290148 0.90158560 32 32 36
-0.71005395 0.31010528 0.90518194 32 31 35
-0.71007104 0.33033247 0.90928541 32 30 34
-0.70984801 0.35016192 0.91307243 32 31 34
-0.71029250 0.36975637 0.91673175 31 30 33
-0.70822861 0.38436737 0.91913947 30 29 32
-0.71116824 0.39418210 0.92098631 29 28 31
-0.70997166 0.41030525 0.92323636 30 27 33
-0.71000027 0.43002738 0.92608704 29 28 32
-0.71010557 0.44973999 0.92860799 29 27 31
-0.71015576 0.46977015 0.93057333 29 27 30
-0.70985612 0.48991761 0.93178572 28 27 31
-0.71013372 0.50983517 0.93245920 27 25 28
-0.71018763 0.52542032 0.93287387 2 2 2
-0.69074599 -0.54261353 0.80692624 0 0 0
-0.68973874 -0.52988366 0.80556834 0 0 0
-0.69000952 -0.51001789 0.80338134 0 0 0
-0.68863093 -0.48350217 0.79922575 0 0 0
-0.69067632 -0.49333464 0.80107320 0 0 0
-0.68603566 -0.46099015 0.77215410 37 20 28
-0.69030484 -0.47827262 0.79793539 0 0 0
-0.69087174 -0.44064190 0.73878421 38 19 24
-0.69383016 -0.44422241 0.74492023 37 18 22
-0.69270389 -0.45633630 0.76324761 37 19 21
-0.68959684 -0.42976305 0.73736073 39 18 23
-0.69872047 -0.43774167 0.74030900 38 18 22
-0.69008201 -0.41002653 0.73576671 39 18 23
-0.69013493 -0.38996885 0.73407331 39 18 24
-0.69019388 -0.37008074 0.73276712 40 18 25
-0.68926491 -0.35044863 0.73188544 41 18 23
-0.68661847 -0.33092444 0.73001135 41 18 22
-0.68473369 -0.31207965 0.72874950 41 18 23
-0.69625630 -0.30513526 0.74081799 35 18 27
-0.68421792 -0.29139713 0.73036163 34 18 23
-0.69580408 -0.28346249 0.74444640 21 9 13
-0.68212570 -0.27055011 0.73218319 28 14 20
-0.69025671 -0.26626427 0.74193941 13 7 11
-0.68009285 -0.25275711 0.73374093 19 13 20
-0.69212415 -0.25599645 0.74625705 10 6 9
-0.69115719 -0.23135724 0.75022509 5 2 3
-0.69952023 -0.23038926 0.76037246 7 2 4
-0.68587486 -0.21109740 0.74976797 16 9 10
-0.69776943 -0.21232415 0.76276968 6 4 5
-0.68500195 -0.18750721 0.75356070 21 19 20
-0.69709932 -0.18841736 0.76747787 24 21 21
-0.68298434 -0.16320601 0.75661317 30 23 24
-0.69214554 -0.16463097 0.76627237 5 4 4
-0.69397035 -0.15883020 0.77025837 30 24 23
-0.68765747 -0.13292927 0.76788004 15 10 8
-0.69975183 -0.12892466 0.78268147 8 5 4
-0.68971082 -0.10516665 0.77504601 1 1 0
-0.69947595 -0.10629626 0.78540969 0 0 0
-0.69045470 -0.09277937 0.77830038 8 5 4
-0.69637656 -0.09790626 0.78345001 0 0 0
-0.68366117 -0.07091154 0.77467114 22 17 14
-0.69561140 -0.06717360 0.78846835 5 4 4
-0.69387401 -0.04886961 0.78906938 3 2 2
-0.68232318 -0.03066892 0.77823254 0 0 1
-0.68845187 -0.02431019 0.78584225 1 1 2
-0.69366740 -0.01212039 0.79351279 3 3 3
-0.68958873 0.01554645 0.79171920 15 17 17
-0.69137826 0.02156968 0.79482804 37 40 47
-0.69805948 0.02593757 0.80250895 27 29 34
-0.68463957 0.05095651 0.79528301 60 58 60
-0.69082088 0.05640570 0.80617080 56 51 58
-0.68793292 0.06545096 0.81532436 49 47 52
-0.69110335 0.07472190 0.82418490 45 43 48
-0.68989725 0.09020631 0.83377246 45 43 48
-0.69802417 0.09943256 0.84046142 44 43 46
-0.68427808 0.10189644 0.83927205 47 46 49
-0.69025088 0.11113837 0.84478046 45 44 48
-0.69004312 0.12991621 0.85299960 43 42 47
-0.68873870 0.14386535 0.85836507 41 40 47
-0.69095486 0.15389787 0.86237953 40 40 44
-0.69002202 0.16984126 0.86793709 40 39 43
-0.69008798 0.18999787 0.87433965 39 39 42
-0.68911651 0.20521304 0.87873268 38 39 42
-0.69071307 0.21472825 0.88138617 37 37 40
-0.68998586 0.22981602 0.88535657 37 36 40
-0.69008033 0.24959076 0.89033884 35 35 38
-0.68991696 0.26954034 0.89512706 34 33 36
-0.68915042 0.28536841 0.89865232 33 32 36
-0.69132923 0.29503747 0.90090850 32 32 35
-0.69009898 0.30962195 0.90380296 32 32 36
-0.69008462 0.32978148 0.90780035 32 31 34
-0.69000999 0.35008199 0.91159107 32 30 34
-0.68980827 0.37018712 0.91522450 32 30 35
-0.68935831 0.38903157 0.91840820 31 30 34
-0.69603374 0.39732426 0.92035719 31 30 34
-0.68285122 0.40126009 0.91974261 31 31 32
-0.69051283 0.41022144 0.92168645 30 30 33
-0.69006433 0.43012858 0.92450172 29 29 32
-0.68988724 0.45020003 0.92696586 29 28 31
-0.69005132 0.47020766 0.92882723 29 27 30
-0.69003945 0.49011992 0.92995835 28 26 30
-0.69034972 0.51001085 0.93039245 22 20 23
-0.69028933 0.52504158 0.93097277 0 0 0
-0.66981294 -0.54238769 0.80607243 0 0 0
-0.67004861 -0.52987416 0.80480961 0 0 0
-0.66988342 -0.50978290 0.80265785 0 0 0
-0.66948509 -0.48602876 0.79884372 0 0 0
-0.67106122 -0.49554294 0.80062917 0 0 0
-0.67227853 -0.46237522 0.77489662 26 21 29
-0.66824752 -0.47504056 0.79394582 4 7 8
-0.67145283 -0.44015010 0.73748416 42 21 25
-0.67491657 -0.44410836 0.74411634 40 19 21
-0.67029777 -0.42895438 0.73291914 40 19 24
-0.66991589 -0.40980716 0.73125946 39 19 24
-0.66998356 -0.38988362 0.72991478 40 19 25
-0.66993277 -0.37002022 0.72885313 39 19 26
-0.66973490 -0.35006560 0.72768378 39 19 24
-0.67003381 -0.32993638 0.72635563 40 19 24
-0.66975952 -0.30978249 0.72485673 40 18 24
-0.66949270 -0.29027781 0.72448654 39 18 23
-0.66789261 -0.27018872 0.72356607 30 15 20
-0.66544907 -0.25092655 0.72256962 27 16 22
-0.66434718 -0.23175511 0.72255960 38 19 23
-0.66517947 -0.21319059 0.72608384 35 15 21
-0.66593712 -0.19183796 0.73119630 16 14 16
-0.67639576 -0.18812781 0.74397188 32 25 31
-0.66249217 -0.16825639 0.73251108 74 58 56
-0.67346136 -0.16841981 0.74499658 60 47 48
-0.66264068 -0.14727542 0.73689969 63 43 44
-0.67189782 -0.14642891 0.74754353 44 32 30
-0.67069314 -0.13554598 0.74824788 34 26 22
-0.66849114 -0.10882037 0.75047266 11 7 5
-0.67923473 -0.10210021 0.76416481 19 13 9
-0.66558490 -0.08421659 0.75210363 48 33 24
-0.66927462 -0.06991253 0.75886184 44 36 25
-0.67459932 -0.07692299 0.76340319 32 21 17
-0.66342997 -0.04281370 0.75519487 4 2 2
-0.67738468 -0.04901778 0.77032009 6 4 4
-0.66253577 -0.03827141 0.75566375 13 11 12
-0.67315310 -0.03307156 0.76807398 6 6 9
-0.66026207 -0.00366202 0.75680101 46 48 46
-0.67444596 -0.00574247 0.77229303 10 9 8
-0.66912194 0.00781980 0.76799209 38 40 41
-0.67981337 0.01715270 0.78153270 50 55 57
-0.66720292 0.03814434 0.76906816 55 54 58
-0.66547209 0.04595230 0.77200884 67 66 67
-0.67091761 0.05423062 0.79016693 63 62 64
-0.67671979 0.05917841 0.80187452 58 57 60
-0.66462951 0.06072424 0.79790000 60 59 63
-0.66966408 0.06956585 0.81316428 52 51 55
-0.67360189 0.07769649 0.82181733 46 45 51
-0.67006212 0.09008257 0.82971528 48 47 51
-0.66863878 0.10422736 0.83782685 46 46 48
-0.67097676 0.11402017 0.84313727 45 45 49
-0.66982924 0.13026945 0.85049435 44 44 47
-0.66963400 0.14664169 0.85735748 43 43 47
-0.67140905 0.15617653 0.86131822 43 42 45
-0.66980790 0.16997889 0.86624692 42 41 45
-0.67021452 0.19015763 0.87293932 41 41 44
-0.66927963 0.20753647 0.87795751 39 39 43
-0.67225976 0.21692628 0.88071682 40 39 42
-0.66983208 0.22971952 0.88390388 38 38 41
-0.66997282 0.24995714 0.88893962 38 37 38
-0.67006854 0.27025944 0.89375576 34 34 38
-0.66957404 0.28954418 0.89795554 33 33 37
-0.67486894 0.29844100 0.90033246 32 31 38
-0.66254753 0.30163474 0.89980179 35 33 36
-0.67022699 0.31039085 0.90225663 33 32 35
-0.66998601 0.33001675 0.90603411 32 32 34
-0.67011858 0.34971657 0.90967186 32 31 35
-0.67001581 0.36976694 0.91327607 32 32 35
-0.66999733 0.39006708 0.91672210 33 32 35
-0.66790007 0.40691818 0.91901086 31 31 34
-0.67267352 0.41515165 0.92065939 31 31 34
-0.67001334 0.43004453 0.92248393 31 30 34
-0.67012055 0.45000320 0.92488055 30 28 31
-0.67002555 0.46974942 0.92661529 30 28 31
-0.66990755 0.49005251 0.92765906 29 27 31
-0.67034046 0.51001440 0.92809163 13 12 14
-0.67000142 0.52458169 0.92900232 0 0 0
-0.64976122 -0.54193225 0.80539556 0 0 0
-0.64996129 -0.53000170 0.80418593 0 0 0
-0.65022817 -0.51027375 0.80218549 0 0 0
-0.64965829 -0.48821674 0.79843359 0 0 0
-0.64977650 -0.49796622 0.80034108 0 0 0
-0.65961270 -0.46041718 0.77368283 70 106 123
-0.64982291 -0.47465419 0.79422908 4 7 8
-0.64660713 -0.44906566 0.75460780 93 107 145
-0.64875381 -0.45682098 0.76875857 90 120 138
-0.65018623 -0.42767127 0.72894013 43 22 29
-0.65003222 -0.40994023 0.72718013 44 23 29
-0.65006966 -0.39003521 0.72604927 46 23 30
-0.64997802 -0.36989529 0.72521584 42 22 28
-0.64987424 -0.35000653 0.72418559 39 20 26
-0.65010510 -0.33000424 0.72295173 40 19 25
-0.64962002 -0.30994449 0.72176918 39 19 25
-0.64120467 -0.28099394 0.71997952 35 19 24
-0.64981140 -0.29022316 0.72141329 39 19 23
-0.64169118 -0.26861762 0.71982721 27 14 18
-0.65152669 -0.27030674 0.72126772 28 15 19
-0.64258041 -0.24909447 0.71968616 36 20 24
-0.65259682 -0.25019601 0.72087661 31 19 23
-0.64562735 -0.22896968 0.71962630 50 22 28
-0.65486428 -0.23111497 0.72025815 47 21 26
-0.64690331 -0.20863175 0.71947963 39 19 23
-0.65538721 -0.21409543 0.72023149 44 19 26
-0.64700287 -0.19017479 0.71893526 51 40 43
-0.65664699 -0.18842295 0.72213743 41 32 36
-0.64500650 -0.17067645 0.71920185 108 85 85
-0.65374893 -0.17088710 0.72274364 98 81 81
-0.64301668 -0.15282582 0.71975373 110 81 83
-0.64753854 -0.14864048 0.72151832 103 78 79
-0.64190720 -0.13162117 0.71965799 105 77 67
-0.64670466 -0.13024078 0.72291025 98 69 61
-0.64063565 -0.11786893 0.71934059 88 53 51
-0.64591044 -0.11048012 0.72526163 57 38 34
-0.64763247 -0.08586818 0.73145603 71 46 41
-0.65432064 -0.08101491 0.74045503 90 64 51
-0.64125911 -0.06949948 0.72709626 71 58 37
-0.65460598 -0.06966313 0.74222970 55 51 33
-0.64520183 -0.05334508 0.73408711 42 30 30
-0.65650412 -0.04871542 0.74710084 21 13 15
-0.64303476 -0.03968025 0.73342162 26 17 19
-0.65207227 -0.03127777 0.74446258 14 12 13
-0.64227364 -0.00928297 0.73581798 31 31 29
-0.65187509 -0.00425005 0.74756072 47 47 44
-0.64222059 0.01109971 0.73831499 79 78 85
-0.65134860 0.01255173 0.74880880 87 92 97
-0.64102169 0.02430686 0.73889480 94 105 118
-0.64566831 0.03424166 0.74751002 79 81 87
-0.64642641 0.04341576 0.75575490 71 70 72
-0.64989738 0.05040772 0.76860136 67 66 67
-0.65445065 0.05728787 0.78455067 66 66 68
-0.64813510 0.06337902 0.79323881 64 63 65
-0.65050819 0.07326960 0.81055239 56 55 59
-0.64697683 0.08181354 0.81824688 51 50 52
-0.65065708 0.09104255 0.82612440 49 47 52
-0.64931252 0.10717140 0.83598199 46 45 48
-0.65196398 0.11685737 0.84161357 45 45 46
-0.64997626 0.13004029 0.84781373 45 44 46
-0.64967886 0.14915552 0.85628555 44 45 47
-0.65508576 0.15820513 0.86054513 44 44 45
-0.64170951 0.16006726 0.85989556 46 46 48
-0.65008756 0.17004129 0.86443257 44 44 48
-0.64995007 0.19000752 0.87110045 44 44 47
-0.64973343 0.20984517 0.87688654 42 41 45
-0.65906223 0.21858854 0.88009089 41 40 44
-0.64504120 0.22165528 0.87963905 42 42 46
-0.65054512 0.23084704 0.88253092 40 39 43
-0.64997252 0.25027418 0.88723381 39 38 40
-0.65007180 0.27004165 0.89183350 37 38 40
-0.65002668 0.28996320 0.89611886 35 35 38
-0.64796264 0.30520102 0.89898445 34 34 36
-0.65174715 0.31423506 0.90112513 34 33 35
-0.64999601 0.32991834 0.90395579 33 33 35
-0.64991978 0.35017245 0.90768325 33 33 35
-0.64972572 0.37025716 0.91129471 33 33 36
-0.65003859 0.39005149 0.91466691 33 32 34
-0.65011397 0.40990556 0.91754131 32 32 34
-0.64626044 0.42540406 0.91927917 31 31 35
-0.65261640 0.43272201 0.92094798 31 30 34
-0.64995404 0.44984965 0.92256048 30 29 32
-0.65007619 0.47018038 0.92428319 29 28 30
-0.64962160 0.48981885 0.92516431 29 28 30
-0.64983775 0.50999609 0.92584245 5 5 6
-0.65071942 0.52387500 0.92733069 0 0 0
-0.62990472 -0.54161634 0.80492605 0 0 0
-0.63000601 -0.52973149 0.80369563 0 0 0
-0.62995371 -0.51033036 0.80171439 0 0 0
-0.62973864 -0.48927415 0.79835549 0 0 0
-0.63196303 -0.49932219 0.80016195 0 0 0
-0.62949088 -0.46114667 0.77943629 57 84 93
-0.62996912 -0.47427456 0.79472028 1 2 2
-0.62458883 -0.44422617 0.74986812 98 135 158
-0.62300711 -0.45493885 0.76894376 73 100 113
-0.63049807 -0.42701546 0.72571654 61 49 65
-0.62993859 -0.40984307 0.72289866 57 38 52
-0.62003117 -0.38986974 0.71995833 73 52 81
-0.63017704 -0.38966666 0.72226309 52 31 42
-0.62004419 -0.36063418 0.71997344 46 28 36
-0.62980481 -0.36998437 0.72184608 52 27 37
-0.62191762 -0.34573823 0.71974115 55 26 34
-0.63108760 -0.35034432 0.72133805 52 27 35
-0.62479898 -0.32881288 0.71934288 52 26 33
-0.63432090 -0.33093503 0.72075598 42 22 27
-0.62839545 -0.30937396 0.71901353 40 21 26
-0.63762485 -0.31312140 0.72026664 40 20 25
-0.62985107 -0.28990770 0.71876589 41 20 25
-0.63998714 -0.28971709 0.72000977 40 19 24
-0.62995271 -0.27006594 0.71849546 26 16 20
-0.62988608 -0.25003826 0.71840284 45 21 28
-0.62972589 -0.22982178 0.71832547 53 22 29
-0.62953003 -0.20959881 0.71809169 50 27 31
-0.62996182 -0.18983468 0.71818859 97 72 77
-0.62981209 -0.16983174 0.71883534 108 83 83
-0.63005996 -0.15019292 0.71932985 107 79 80
-0.63007633 -0.13040375 0.71913747 102 71 63
-0.62931295 -0.11038546 0.71785416 69 45 42
-0.62826192 -0.09065760 0.71722541 110 77 62
-0.63915764 -0.09012268 0.72118121 80 56 45
-0.62649375 -0.07058257 0.71701723 99 70 57
-0.63706413 -0.07091670 0.72233975 87 55 45
-0.62459029 -0.05143028 0.71615192 61 39 40
-0.63490804 -0.04957865 0.72290480 44 26 29
-0.62326817 -0.03089259 0.71544443 24 20 26
-0.63256994 -0.02502102 0.72331859 15 14 21
-0.62281514 -0.01148012 0.71760417 52 48 51
-0.62711079 -0.00531846 0.72283525 76 77 76
-0.62721896 0.01140686 0.72904296 94 100 106
-0.62941011 0.02510282 0.73715620 91 99 105
-0.62974466 0.03481745 0.74330252 81 84 90
-0.62833014 0.04622946 0.75216111 77 78 80
-0.63081591 0.05561017 0.76477420 74 72 73
-0.62686030 0.06135793 0.77471648 72 71 75
-0.62901504 0.06815088 0.79179121 71 68 70
-0.63194776 0.07623474 0.80665165 60 58 61
-0.62867247 0.08514466 0.81578006 51 50 52
-0.63126980 0.09480531 0.82433901 49 45 48
-0.62959305 0.10999679 0.83415099 46 45 47
-0.63737050 0.11867928 0.84045461 45 45 45
-0.62402320 0.12100052 0.83976156 46 46 49
-0.63027834 0.13000998 0.84521081 47 47 48
-0.62996023 0.15012362 0.85438914 49 49 51
-0.62710242 0.16255551 0.85914673 50 50 52
-0.63067940 0.17172843 0.86296341 48 48 49
-0.62984281 0.18988866 0.86900366 46 46 48
-0.63026183 0.21004562 0.87502003 45 45 47
-0.62819108 0.22489656 0.87878670 44 43 46
-0.63126735 0.23407018 0.88145156 42 41 43
-0.63003315 0.24966470 0.88507352 40 40 42
-0.62987359 0.26967505 0.88964158 38 38 41
-0.63003662 0.28995880 0.89394967 37 37 40
-0.62968541 0.30973907 0.89782323 34 35 37
-0.63774865 0.31757896 0.90025107 33 33 35
-0.62317076 0.32250306 0.89954476 33 33 35
-0.63059308 0.33067760 0.90194660 33 32 36
-0.62986497 0.34998108 0.90545696 33 32 35
-0.63016924 0.36972698 0.90907948 33 32 36
-0.62991898 0.38986135 0.91242568 33 32 35
-0.63005700 0.41005875 0.91529319 32 32 34
-0.62977447 0.43024445 0.91793330 32 31 35
-0.63972448 0.43844835 0.92010146 32 32 36
-0.62537085 0.44777428 0.91928637 31 30 35
-0.63376203 0.45239891 0.92080430 31 30 33
-0.62049800 0.46140200 0.91989002 30 30 32
-0.63018321 0.47010831 0.92175072 30 29 31
-0.63009952 0.49019715 0.92266209 27 25 28
-0.63018135 0.50964170 0.92373628 0 0 0
-0.62986732 0.52338962 0.92547519 0 0 0
-0.61115000 -0.54192155 0.80473377 0 0 0
-0.60986344 -0.53004418 0.80350080 0 0 0
-0.60991279 -0.51020051 0.80144045 0 0 0
-0.60990280 -0.49035423 0.79843209 0 0 0
-0.61983237 -0.49958960 0.80000740 0 0 0
-0.60967850 -0.47289119 0.79447325 2 3 3
-0.61625698 -0.44675790 0.75543110 98 141 158
-0.61390082 -0.45574801 0.77256838 72 109 121
-0.60752116 -0.45915710 0.78063458 59 118 133
-0.60802894 -0.42290539 0.71889747 107 138 158
-0.61581854 -0.42605256 0.72323026 109 126 155
-0.60988432 -0.43863935 0.74248204 107 142 162
-0.60904747 -0.40967412 0.71757902 102 131 148
-0.61834084 -0.41760313 0.72026699 107 105 133
-0.60932422 -0.38998530 0.71684184 99 116 138
-0.60945579 -0.37007470 0.71699000 82 86 108
-0.61035165 -0.35000833 0.71754671 66 47 62
-0.61021525 -0.32976641 0.71693045 67 45 63
-0.61010012 -0.30990027 0.71632512 60 46 60
-0.60976453 -0.28974103 0.71649709 41 22 28
-0.60961961 -0.26984174 0.71657037 31 19 24
-0.60989980 -0.25002562 0.71682250 51 22 29
-0.61018541 -0.23031037 0.71715880 51 22 28
-0.60985355 -0.20982447 0.71737730 85 58 62
-0.61023336 -0.18961289 0.71794719 109 86 87
-0.60997594 -0.16985957 0.71837428 103 79 81
-0.60959446 -0.15010320 0.71856922 104 76 77
-0.60998296 -0.12994811 0.71814265 89 60 55
-0.60981046 -0.11013366 0.71695313 60 41 40
-0.61008857 -0.09019108 0.71578050 94 63 55
-0.61012275 -0.07025905 0.71563006 100 69 59
-0.60998571 -0.05027347 0.71509632 59 40 39
-0.60976589 -0.03007095 0.71424492 27 22 26
-0.60981088 -0.01159006 0.71684824 52 50 51
-0.61106280 -0.00179950 0.72094233 106 104 103
-0.61007512 0.01031895 0.72775258 95 101 106
-0.60978306 0.02595355 0.73684725 91 97 105
-0.61015256 0.03579547 0.74252864 89 95 97
-0.60928428 0.04909786 0.75096042 89 89 91
-0.61628453 0.05856465 0.76145327 78 76 80
-0.60019132 0.06129483 0.75940990 89 88 88
-0.60806185 0.06423923 0.76934511 79 74 77
-0.61026895 0.07394818 0.79042231 69 65 67
-0.61539432 0.07860920 0.80215062 60 55 60
-0.60147429 0.08092710 0.79766655 72 68 70
-0.60985300 0.08882615 0.81276285 55 54 55
-0.61288320 0.09740328 0.82189867 49 47 48
-0.61007061 0.11020323 0.83030645 50 49 49
-0.60782546 0.12333486 0.83827130 52 52 52
-0.61060344 0.13263602 0.84368199 54 53 55
-0.61013279 0.14988760 0.85163796 55 55 56
-0.60867850 0.16546881 0.85794697 53 53 54
-0.61110240 0.17482428 0.86173529 51 51 52
-0.61019997 0.18998929 0.86673765 49 49 50
-0.61013657 0.20996475 0.87266056 46 46 47
-0.60909398 0.22891701 0.87757497 44 44 45
-0.61509964 0.23741289 0.88044264 42 43 44
-0.60176306 0.24130355 0.87971729 42 40 47
-0.61034153 0.25026944 0.88292919 41 41 43
-0.60997995 0.27027950 0.88742992 39 39 42
-0.61002512 0.29002040 0.89160071 38 37 41
-0.61001416 0.30984162 0.89553537 35 35 38
-0.60829750 0.32688031 0.89866266 34 33 38
-0.61310601 0.33547921 0.90085015 33 33 37
-0.60990342 0.35003398 0.90322016 32 32 36
-0.60998558 0.37020997 0.90690436 32 32 35
-0.60991447 0.39017019 0.91018996 32 32 35
-0.60989615 0.40995732 0.91290166 32 31 34
-0.60997572 0.42986876 0.91544467 32 31 34
-0.60991428 0.44987210 0.91749340 31 30 33
-0.60856626 0.46938771 0.91886263 30 29 31
-0.61722935 0.47449159 0.92034996 29 28 30
-0.60519436 0.48904207 0.91933773 18 18 19
-0.61544330 0.49050660 0.92071767 20 19 20
-0.60256803 0.50071753 0.91982421 0 0 0
-0.61009945 0.51041443 0.92186947 0 0 0
-0.60996707 0.52305553 0.92377071 0 0 0
-0.59008657 -0.54215893 0.80469906 0 0 0
-0.58995667 -0.53022453 0.80350542 0 0 0
-0.58997403 -0.51015134 0.80142128 0 0 0
-0.59006833 -0.49026846 0.79850860 0 0 0
-0.58111772 -0.49959157 0.80001056 0 0 0
-0.58976186 -0.47206514 0.79478322 0 1 1
-0.59355224 -0.45298644 0.77128011 85 121 133
-0.59266957 -0.45884493 0.78240299 56 82 89
-0.59135918 -0.42200303 0.71717333 105 143 162
-0.58989671 -0.42813532 0.72576030 107 147 166
-0.58184390 -0.43780586 0.74433434 109 155 166
-0.58977041 -0.40993861 0.71478855 99 140 157
-0.59010449 -0.39001025 0.71383810 97 135 150
-0.58967241 -0.36994848 0.71344502 92 127 145
-0.58956148 -0.34991091 0.71324494 87 118 136
-0.58954580 -0.33004982 0.71313872 87 109 133
-0.58951769 -0.31012528 0.71305586 82 105 127
-0.58966461 -0.29035215 0.71389408 69 55 69
-0.58976548 -0.27004939 0.71474609 38 22 27
-0.58996669 -0.24992699 0.71533746 55 24 31
-0.59004095 -0.22984980 0.71593983 69 35 41
-0.58996629 -0.20996499 0.71697477 110 87 88
-0.59005646 -0.18975316 0.71771318 108 84 81
-0.59027313 -0.16991757 0.71804319 107 81 82
-0.59000244 -0.14987423 0.71814353 100 71 69
-0.59014811 -0.13000112 0.71766561 80 53 52
-0.58990489 -0.10994672 0.71642770 54 37 38
-0.59005255 -0.08990143 0.71482223 72 50 45
-0.59007273 -0.07015499 0.71456901 104 70 60
-0.58984393 -0.05037504 0.71429230 67 44 44
-0.58999466 -0.03007427 0.71377303 30 24 28
-0.58998028 -0.01088453 0.71628162 60 58 58
-0.59012638 -0.00099865 0.72066882 132 132 131
-0.58998578 0.01026777 0.72714433 93 98 104
-0.58995397 0.02642946 0.73647269 95 100 105
-0.59018468 0.03619039 0.74204185 93 98 105
-0.58994780 0.05001547 0.74995923 105 105 104
-0.58738649 0.06258546 0.75780069 94 91 91
-0.58863461 0.06939606 0.76709250 80 76 75
-0.59310703 0.07746910 0.78495262 74 67 70
-0.58846580 0.08388828 0.79394211 64 63 64
-0.59149613 0.09374219 0.81052223 60 58 60
-0.58665442 0.10256521 0.81794352 59 57 56
-0.59090749 0.11149972 0.82655102 56 54 54
-0.58904028 0.12603973 0.83617024 57 56 57
-0.59140605 0.13601879 0.84232903 59 57 58
-0.59011461 0.14993865 0.84874726 57 57 58
-0.58924321 0.16877746 0.85649065 54 55 57
-0.59494701 0.17816128 0.86076592 53 53 54
-0.58223636 0.18086782 0.85986191 55 54 54
-0.59005664 0.19004858 0.86403250 50 50 52
-0.58991217 0.20994236 0.86992478 47 47 49
-0.59007568 0.23012098 0.87534490 44 44 47
-0.58795029 0.24509455 0.87876549 43 42 46
-0.59184829 0.25387348 0.88139607 43 42 45
-0.58978909 0.26977232 0.88472291 40 40 42
-0.59006529 0.28997141 0.88908735 38 38 41
-0.59002405 0.31010189 0.89314556 36 35 39
-0.58996729 0.33010668 0.89710970 34 34 39
-0.58648153 0.34390978 0.89935144 34 33 38
-0.59123991 0.35206247 0.90147399 33 32 37
-0.58992472 0.36992087 0.90454299 33 32 35
-0.59012125 0.38996164 0.90783095 32 31 35
-0.58995440 0.40993053 0.91047774 31 31 33
-0.58998154 0.43005081 0.91296956 32 30 33
-0.58978463 0.45019223 0.91494412 31 29 32
-0.59014083 0.46984696 0.91653246 29 28 31
-0.58997307 0.49019221 0.91766959 9 8 10
-0.58844933 0.50513476 0.91929814 0 0 0
-0.59166641 0.51414289 0.92091690 0 0 0
-0.58967031 0.52241262 0.92225836 0 0 0
-0.56914333 -0.54171805 0.80479789 0 0 0
-0.57014821 -0.52994941 0.80362568 0 0 0
-0.57003127 -0.51032403 0.80162362 0 0 0
-0.57015845 -0.48956930 0.79859061 0 0 0
-0.56854789 -0.49938271 0.80014228 0 0 0
-0.56979184 -0.47141791 0.79501558 0 0 0
-0.57162757 -0.44226193 0.75635550 104 152 167
-0.57060573 -0.44655955 0.76393442 84 121 138
-0.56863779 -0.45712117 0.78437901 43 58 66
-0.57253151 -0.42266624 0.71897817 103 148 163
-0.57043838 -0.42856026 0.72979368 97 148 164
-0.56843943 -0.43508358 0.74219965 101 145 165
-0.57007645 -0.40969696 0.71344192 103 142 160
-0.57020481 -0.38993444 0.71212048 99 137 153
-0.57000560 -0.37011075 0.71187198 97 131 148
-0.57010667 -0.35019569 0.71184142 91 124 142
-0.56980092 -0.32997260 0.71163525 86 117 136
-0.56963580 -0.30985101 0.71154867 86 110 131
-0.57008853 -0.28989640 0.71181798 81 97 117
-0.56977946 -0.26987559 0.71262991 67 54 69
-0.57025708 -0.24993270 0.71371211 72 42 52
-0.56973367 -0.23007224 0.71521743 99 65 69
-0.56987123 -0.21038721 0.71678280 115 92 90
-0.57015156 -0.19010912 0.71747800 108 81 77
-0.57037662 -0.16971500 0.71776094 106 79 75
-0.57041406 -0.14987598 0.71780766 94 68 62
-0.57006072 -0.12994619 0.71736314 74 49 46
-0.56997859 -0.10992944 0.71618960 50 34 35
-0.57001202 -0.08995713 0.71448962 56 38 37
-0.56987628 -0.07010154 0.71402501 105 71 59
-0.56974184 -0.05034381 0.71385682 70 48 46
-0.56999378 -0.02994856 0.71348951 34 28 31
-0.56985901 -0.01066620 0.71585078 66 64 65
-0.57131784 -0.00088312 0.72048432 126 127 128
-0.56996240 0.01027961 0.72666348 93 98 103
-0.57005448 0.02699618 0.73618277 100 104 108
-0.57000219 0.03683292 0.74183254 93 97 103
-0.57003501 0.05010761 0.74921304 119 120 119
-0.56919589 0.06448391 0.75745587 106 106 102
-0.56933354 0.07344378 0.76427492 83 81 82
-0.56610665 0.08224903 0.77519074 73 73 73
-0.56917501 0.08952327 0.79082969 68 67 70
-0.57277078 0.09676154 0.80490267 63 63 66
-0.56935492 0.10585159 0.81415291 61 61 61
-0.57075958 0.11566196 0.82441433 61 59 59
-0.56950837 0.12933940 0.83413559 59 58 58
-0.57586479 0.13817862 0.84079339 57 57 58
-0.56190574 0.14030617 0.83947947 58 58 58
-0.57017410 0.15032309 0.84576045 56 57 58
-0.56996756 0.17005845 0.85400339 53 53 55
-0.56772712 0.18394438 0.85857418 50 50 52
-0.57121726 0.19344441 0.86222664 48 48 50
-0.57005704 0.20999980 0.86692850 46 46 48
-0.56973431 0.22982446 0.87228929 44 44 46
-0.56979257 0.24953696 0.87726118 42 42 44
-0.57685230 0.25854962 0.88045267 42 42 44
-0.56344390 0.26238081 0.87943682 39 39 40
-0.57059351 0.27088065 0.88235586 39 39 42
-0.57012119 0.28984669 0.88645429 38 38 41
-0.56999918 0.30969917 0.89056336 35 35 39
-0.56996285 0.32969963 0.89464088 34 34 37
-0.56909399 0.34833772 0.89818154 33 33 36
-0.57560469 0.35687157 0.90059167 33 33 36
-0.56127499 0.36134792 0.89971740 32 32 34
-0.57022255 0.37021614 0.90230334 33 32 35
-0.57001590 0.39002330 0.90546747 32 31 34
-0.56997699 0.41003005 0.90811100 31 31 32
-0.57001424 0.43002167 0.91057272 31 31 32
-0.57001980 0.44975646 0.91255921 31 31 33
-0.56986576 0.46987756 0.91417811 29 28 31
-0.57024636 0.48967735 0.91574937 2 2 2
-0.56931868 0.50860822 0.91849919 0 0 0
-0.57409934 0.51802843 0.92036368 0 0 0
-0.57046034 0.52216129 0.92095870 0 0 0
-0.54994853 -0.54165757 0.80498731 0 0 0
-0.55004456 -0.52963558 0.80378703 0 0 0
-0.54999583 -0.51041239 0.80185431 0 0 0
-0.55020286 -0.48895409 0.79872808 0 0 0
-0.54905677 -0.49885492 0.80030736 0 0 0
-0.54987225 -0.47026701 0.79476195 0 0 0
-0.54912309 -0.44932915 0.77378052 50 69 73
-0.54646809 -0.45792095 0.78990640 2 3 4
-0.54910026 -0.42097896 0.71995741 102 148 172
-0.55838035 -0.42906609 0.73378801 102 147 173
-0.54515273 -0.43487513 0.74704388 91 130 143
-0.55030287 -0.40890651 0.71228918 105 146 164
-0.55012501 -0.39009598 0.71080531 102 141 157
-0.54987642 -0.36996481 0.71055358 98 135 151
-0.54978744 -0.34987453 0.71050984 92 129 145
-0.54974269 -0.33002258 0.71033242 92 121 139
-0.54983359 -0.31011099 0.71026828 88 112 132
-0.54967296 -0.28993399 0.71042124 86 106 127
-0.55001708 -0.27018468 0.71087588 82 101 123
-0.54982896 -0.24992546 0.71178023 86 91 108
-0.55004802 -0.23040440 0.71523433 118 89 84
-0.54983290 -0.21043387 0.71669751 119 92 84
-0.55020531 -0.19007317 0.71734180 110 81 74
-0.55033805 -0.16965703 0.71751460 107 76 68
-0.55030520 -0.14980597 0.71747158 90 63 56
-0.54999134 -0.12989148 0.71706246 66 45 43
-0.54998439 -0.10991162 0.71599613 49 33 34
-0.54993229 -0.08989279 0.71422085 47 32 32
-0.54980406 -0.07005983 0.71360148 103 69 57
-0.54972424 -0.05031821 0.71349804 76 52 47
-0.54981238 -0.02994025 0.71318780 39 30 32
-0.55004813 -0.01026633 0.71552336 74 73 76
-0.54995623 -0.00037593 0.72026216 89 92 96
-0.54996481 0.01032001 0.72614651 99 104 108
-0.55004805 0.02758443 0.73597214 106 110 113
-0.54989543 0.03740548 0.74157309 102 108 109
-0.54999490 0.05009069 0.74862356 125 127 123
-0.54967598 0.06532288 0.75701690 106 108 105
-0.55035105 0.07496545 0.76302713 85 85 85
-0.54802877 0.08453732 0.77097897 78 78 78
-0.55039360 0.09509778 0.78869128 69 69 69
-0.55959881 0.09924803 0.80087662 62 66 67
-0.54565048 0.10213206 0.79686111 71 70 70
-0.55026182 0.11021183 0.81135832 69 66 65
-0.55352570 0.11793355 0.82193003 62 61 61
-0.54979718 0.13000629 0.83037864 60 58 58
-0.54807053 0.14330747 0.83839712 55 56 57
-0.55097436 0.15254823 0.84347601 53 54 56
-0.54994383 0.17003865 0.85047040 50 51 52
-0.54911144 0.18889848 0.85693613 46 47 49
-0.55570935 0.19702989 0.86075436 46 46 47
-0.54333830 0.20074292 0.85969050 44 44 46
-0.55027460 0.21031090 0.86372663 45 44 46
-0.54995500 0.23006745 0.86920904 43 43 46
-0.54991082 0.24982222 0.87430534 41 41 44
-0.54864043 0.26717634 0.87833435 39 39 42
-0.55275791 0.27584987 0.88093857 39 39 41
-0.55023343 0.29017455 0.88379659 38 38 41
-0.54999153 0.31023663 0.88806494 37 36 40
-0.55001009 0.33029323 0.89225717 35 35 37
-0.55001902 0.35029064 0.89621460 34 33 35
-0.54753476 0.36656003 0.89888006 34 33 37
-0.55251743 0.37457369 0.90089106 33 32 36
-0.55000703 0.39015712 0.90301762 32 32 35
