ply
format ascii 1.0
element vertex 1056
property float x
property float y
property float z
property uchar red
property uchar green
property uchar blue
end_header
1.14041436 0.43229488 1.60637879 168 168 166
1.14863455 0.43435344 1.61402822 169 169 167
1.16249561 0.43852991 1.62954772 170 170 169
0.40545708 0.13325672 0.49517301 113 112 111
0.40572023 0.13306232 0.49445066 120 119 123
0.40657485 0.13306232 0.49445066 123 123 127
0.40713251 0.13296534 0.49409026 127 127 131
0.40739262 0.13277179 0.49337107 131 131 136
0.40854272 0.13286850 0.49373040 134 135 139
0.40969449 0.13296534 0.49409026 136 137 141
0.41024947 0.13286850 0.49373040 139 141 145
0.41080365 0.13277179 0.49337107 145 146 150
0.41046146 0.13238639 0.49193892 148 153 156
0.41041821 0.13209879 0.49087027 153 159 161
0.63900846 0.17711499 0.65814739 138 142 140
0.63766962 0.17642982 0.65560138 139 143 141
0.63756961 0.17608923 0.65433574 148 152 151
0.64179802 0.17694320 0.65750909 150 154 153
0.64543861 0.17763238 0.66006994 150 154 153
0.65037918 0.17867625 0.66394889 150 154 153
0.65025300 0.17832692 0.66265088 151 155 155
-0.49724543 0.33260891 1.22806489 155 156 155
-0.49602142 0.33321255 1.23029375 149 150 150
-0.49210873 0.33200747 1.22584414 142 145 145
-0.48998994 0.33200747 1.22584414 133 138 138
-0.48787117 0.33200747 1.22584414 122 127 131
-0.48663238 0.33260891 1.22806489 118 124 128
-0.48363364 0.33200747 1.22584414 120 123 131
-0.48238716 0.33260891 1.22806489 123 126 134
-0.48201096 0.33381841 1.23253059 126 130 138
-0.48517343 0.33750021 1.24612474 121 128 134
-0.48931596 0.34189966 1.26236844 120 129 134
-0.48622862 0.34126416 1.26002204 117 126 132
-0.48136657 0.33937177 1.25303483 120 128 134
-0.47655815 0.33750021 1.24612474 117 121 132
-0.47353384 0.33688095 1.24383819 111 115 127
-0.47052065 0.33626395 1.24156010 108 112 126
-0.46751845 0.33564922 1.23929036 107 110 127
-0.01813845 0.12767741 0.47141296 201 202 202
-0.01735986 0.12794434 0.47239849 201 202 202
-0.01654336 0.12794434 0.47239849 203 204 204
-0.01572686 0.12794434 0.47239849 203 204 204
-0.01492075 0.12803356 0.47272792 201 202 202
-0.01410368 0.12803356 0.47272792 205 206 205
-0.01329588 0.12812291 0.47305781 195 196 194
-0.01247824 0.12812291 0.47305781 190 191 189
-0.01165246 0.12803356 0.47272792 183 184 184
-0.01082784 0.12794434 0.47239849 172 173 173
-0.01001832 0.12803356 0.47272792 164 164 164
-0.00920767 0.12812291 0.47305781 179 180 180
-0.00839003 0.12812291 0.47305781 178 179 179
-0.00757767 0.12821238 0.47338817 178 179 179
-0.00675946 0.12821238 0.47338817 177 178 178
-0.00593296 0.12803356 0.47272792 179 180 180
-0.00511946 0.12812291 0.47305781 179 180 180
-0.00431386 0.12848154 0.47438198 177 178 177
-0.00349637 0.12857151 0.47471419 177 177 177
-0.00268339 0.12893267 0.47604764 174 174 174
-0.00186582 0.12929586 0.47738862 170 170 170
-0.00104069 0.12929586 0.47738862 165 165 166
-0.00021526 0.12911402 0.47671717 161 161 163
0.00060871 0.12911402 0.47671717 152 153 157
0.00142866 0.12875184 0.47537997 154 154 159
0.00225982 0.12929586 0.47738862 154 154 158
0.02753609 0.19848663 0.73285604 121 123 136
0.02864792 0.19741949 0.72891593 129 131 144
0.02974786 0.19636378 0.72501802 141 144 154
0.09320208 0.21883209 0.80797595 172 172 172
0.09459859 0.21883209 0.80797595 175 175 173
0.09588084 0.21857157 0.80701411 179 179 177
0.09704463 0.21805240 0.80509722 179 179 175
0.09878816 0.21883209 0.80797595 171 171 167
0.10018468 0.21883209 0.80797595 167 167 163
0.10146027 0.21857157 0.80701411 151 151 148
0.10310061 0.21909323 0.80894017 138 138 139
0.10449880 0.21909323 0.80894017 119 119 123
0.10551923 0.21831168 0.80605453 115 114 123
0.10665878 0.21779375 0.80414218 117 118 131
0.10792065 0.21753569 0.80318940 113 114 127
0.09846832 0.15786768 0.58288205 124 125 129
0.09939032 0.15773207 0.58238131 111 111 120
0.11080316 0.15678917 0.57889998 158 159 162
0.24885595 0.12272736 0.45313627 174 176 175
0.24963915 0.12272736 0.45313627 176 178 177
0.25042236 0.12272736 0.45313627 177 178 177
0.25120556 0.12272736 0.45313627 176 177 177
0.25182045 0.12264537 0.45283356 169 170 170
0.25260314 0.12264537 0.45283356 161 162 163
0.25338581 0.12264537 0.45283356 154 155 157
0.25433841 0.12272736 0.45313627 145 147 150
0.25495118 0.12264537 0.45283356 144 148 151
0.25556317 0.12256350 0.45253128 147 152 155
0.25651658 0.12264537 0.45283356 148 153 156
0.25729924 0.12264537 0.45283356 152 157 159
0.25790966 0.12256350 0.45253128 156 162 162
0.25851923 0.12248174 0.45222938 156 162 162
1.01206791 0.44455236 1.64138460 110 119 123
1.00276494 0.43923473 1.62175083 113 122 126
1.02269447 0.44671562 1.64937186 117 124 129
1.03056014 0.44890007 1.65743732 121 127 132
1.03342485 0.44890007 1.65743732 126 132 134
1.03882957 0.45000032 1.66149962 134 140 142
1.10220194 0.43098620 1.59129536 157 157 155
1.10495234 0.43098620 1.59129536 158 158 155
1.11569118 0.43301916 1.59880149 154 153 150
1.11582291 0.43200028 1.59503961 150 149 147
1.11595404 0.43098620 1.59129536 145 144 142
1.12133670 0.43200028 1.59503961 139 138 136
1.12409365 0.43200028 1.59503961 139 138 140
1.13217843 0.43404284 1.60258114 145 144 146
1.12960744 0.43200028 1.59503961 152 151 153
1.14590621 0.43610480 1.61019444 160 161 162
0.40516114 0.13401470 0.49481156 111 108 111
0.40572023 0.13391694 0.49445066 113 111 116
0.40627849 0.13381933 0.49409026 119 117 124
0.40683597 0.13372187 0.49373040 126 125 132
0.40969449 0.13381933 0.49409026 134 137 143
0.41024947 0.13372187 0.49373040 132 139 141
0.41080365 0.13362454 0.49337107 138 145 147
0.41075954 0.13333343 0.49229619 135 143 145
0.41071561 0.13304357 0.49122596 140 149 150
0.41276106 0.13343032 0.49265397 151 159 160
0.41301227 0.13323666 0.49193892 147 156 157
0.41296351 0.13294724 0.49087027 142 151 152
0.41321352 0.13275497 0.49016041 141 150 149
0.41316447 0.13246763 0.48909944 141 150 147
0.63911194 0.17859934 0.65942788 130 134 135
0.63777006 0.17790709 0.65687191 132 136 136
0.63705355 0.17739142 0.65496796 134 138 138
0.63756961 0.17722020 0.65433574 143 147 147
0.64117610 0.17790709 0.65687191 146 150 150
0.64543861 0.17877325 0.66006994 145 149 149
0.65101677 0.18000013 0.66459984 142 147 147
0.65088922 0.17964788 0.66329926 145 150 151
-0.49692327 0.33594874 1.23253059 149 150 150
-0.49210873 0.33412623 1.22584414 145 147 147
-0.49087760 0.33473152 1.22806489 139 141 141
-0.48875499 0.33473152 1.22806489 125 132 133
-0.48751557 0.33533904 1.23029375 117 126 127
-0.48450977 0.33473152 1.22806489 117 125 129
-0.48377013 0.33717483 1.23702896 119 127 132
-0.48713407 0.34408158 1.26236844 118 126 132
-0.48225799 0.34217000 1.25535524 109 117 123
-0.47831666 0.34090739 1.25072300 104 110 119
-0.47527799 0.34027958 1.24841964 102 108 120
-0.47138399 0.33903083 1.24383819 102 107 125
-0.46837470 0.33840990 1.24156010 107 112 133
-0.01816371 0.12867117 0.47206953 201 202 202
-0.01737197 0.12885064 0.47272792 201 202 202
-0.01655490 0.12885064 0.47272792 202 203 203
-0.01573782 0.12885064 0.47272792 202 203 203
-0.01493116 0.12894055 0.47305781 202 203 203
-0.01410368 0.12885064 0.47272792 205 206 205
-0.01329588 0.12894055 0.47305781 193 194 190
-0.01247824 0.12894055 0.47305781 181 182 180
-0.01165246 0.12885064 0.47272792 166 167 167
-0.01082784 0.12876084 0.47239849 159 159 161
-0.01001832 0.12885064 0.47272792 157 156 158
-0.00920767 0.12894055 0.47305781 167 167 169
-0.00839003 0.12894055 0.47305781 172 171 173
-0.00757239 0.12894055 0.47305781 172 173 174
-0.00675474 0.12894055 0.47305781 175 176 177
-0.00593296 0.12885064 0.47272792 176 177 178
-0.00511946 0.12894055 0.47305781 175 176 176
-0.00430783 0.12912075 0.47371897 175 176 176
-0.00348904 0.12912075 0.47371897 174 174 173
-0.00267400 0.12930147 0.47438198 171 171 169
-0.00185797 0.12957349 0.47537997 167 167 169
-0.00103559 0.12948270 0.47504684 160 161 163
-0.00021451 0.12948270 0.47504684 153 154 156
0.00060573 0.12930147 0.47438198 144 145 149
0.00142366 0.12912075 0.47371897 145 145 151
0.00224245 0.12912075 0.47371897 146 146 151
0.00306552 0.12930147 0.47438198 149 149 152
0.00388817 0.12939203 0.47471419 145 145 147
0.00471197 0.12948270 0.47504684 142 142 144
0.02604416 0.19804052 0.72657216 128 135 142
0.02735863 0.19846596 0.72813302 130 136 147
0.02852523 0.19782849 0.72579426 133 140 150
0.02968436 0.19719510 0.72347051 149 157 163
0.10018468 0.22022861 0.80797595 173 174 169
0.10146027 0.21996644 0.80701411 163 164 158
0.10310061 0.22049141 0.80894017 151 151 149
0.10449880 0.22049141 0.80894017 140 140 140
0.10551923 0.21970488 0.80605453 122 122 128
0.10665878 0.21918364 0.80414218 100 101 115
0.09729354 0.15860240 0.58188140 123 123 129
0.09829927 0.15860240 0.58188140 113 113 120
0.10945632 0.15873866 0.58238131 184 185 184
0.11036810 0.15860240 0.58188140 181 182 179
0.11108776 0.15819503 0.58038688 174 175 175
0.25042236 0.12351056 0.45313627 177 179 178
0.25120556 0.12351056 0.45313627 179 181 180
0.25182045 0.12342806 0.45283356 176 177 176
0.25260314 0.12342806 0.45283356 161 162 162
0.25338581 0.12342806 0.45283356 150 151 153
0.25433841 0.12351056 0.45313627 139 141 143
0.25512162 0.12351056 0.45313627 134 137 139
0.25590482 0.12351056 0.45313627 144 148 149
0.25668803 0.12351056 0.45313627 147 153 153
0.25764346 0.12359318 0.45343935 152 158 158
0.25842720 0.12359318 0.45343935 158 162 163
0.25903767 0.12351056 0.45313627 163 167 168
1.02804661 0.45066294 1.65339470 123 132 134
1.03342485 0.45176479 1.65743732 131 139 140
1.09962070 0.43272087 1.58756876 158 159 153
1.10236466 0.43272087 1.58756876 158 159 153
1.10770273 0.43373662 1.59129536 159 159 153
1.11306608 0.43475720 1.59503961 156 156 151
1.11320364 0.43373662 1.59129536 151 150 146
1.11334062 0.43272087 1.58756876 147 147 144
1.11870444 0.43373662 1.59129536 141 140 138
1.12409365 0.43475720 1.59503961 139 139 138
1.12950814 0.43578255 1.59880149 143 143 143
1.12960744 0.43475720 1.59503961 148 148 149
1.14863455 0.43993288 1.61402822 157 158 160
1.15970790 0.44309786 1.62563992 157 161 162
0.40486559 0.13477156 0.49445066 138 134 139
0.40542451 0.13467333 0.49409026 137 135 140
0.40598258 0.13457525 0.49373040 138 138 143
0.40624422 0.13437949 0.49301225 148 147 152
0.40621006 0.13408694 0.49193892 150 154 158
0.40735596 0.13418432 0.49229619 152 157 161
0.40880060 0.13437949 0.49301225 153 159 162
0.40935501 0.13428183 0.49265397 150 159 159
0.40990865 0.13418432 0.49229619 148 157 157
0.41046146 0.13408694 0.49193892 146 155 155
0.41071561 0.13389261 0.49122596 143 152 153
0.41216201 0.13408694 0.49193892 145 154 155
0.41271278 0.13398971 0.49158219 146 154 155
0.41266468 0.13369885 0.49051508 144 150 152
0.41321352 0.13360217 0.49016041 139 146 148
0.41286659 0.13321687 0.48874682 137 144 145
0.41400984 0.13331299 0.48909944 138 145 146
0.63921577 0.18008947 0.66071332 120 125 125
0.63787091 0.17939010 0.65814739 123 128 128
0.63715267 0.17886913 0.65623605 125 130 130
0.63643861 0.17835116 0.65433574 128 133 134
0.63695478 0.17817917 0.65370476 135 140 140
0.63993597 0.17869614 0.65560138 138 143 144
0.64355868 0.17939010 0.65814739 139 144 144
0.64910764 0.18061760 0.66265088 140 146 146
0.64898419 0.18026517 0.66135788 140 147 146
-0.49782842 0.33869487 1.23477566 140 141 143
-0.49300021 0.33685413 1.22806489 138 140 142
-0.49087760 0.33685413 1.22806489 133 137 140
-0.48964202 0.33746549 1.23029375 124 132 134
-0.48840195 0.33807907 1.23253059 117 126 128
-0.48225799 0.34433979 1.25535524 105 113 121
-0.47920078 0.34370330 1.25303483 102 109 123
-0.47615489 0.34306917 1.25072300 101 107 123
-0.47225049 0.34180787 1.24612474 104 110 128
-0.46923411 0.34118071 1.24383819 112 118 136
-0.01817637 0.12957734 0.47239849 201 202 202
-0.01737197 0.12966770 0.47272792 201 202 202
-0.01656645 0.12975819 0.47305781 201 202 202
-0.01574881 0.12975819 0.47305781 201 202 202
-0.01494159 0.12984881 0.47338817 205 206 204
-0.01411352 0.12975819 0.47305781 201 202 199
-0.01330517 0.12984881 0.47338817 191 191 187
-0.01248695 0.12984881 0.47338817 176 177 173
-0.01166060 0.12975819 0.47305781 156 157 156
-0.01083539 0.12966770 0.47272792 141 142 144
-0.01001832 0.12966770 0.47272792 149 150 153
-0.00920767 0.12975819 0.47305781 154 154 157
-0.00839003 0.12975819 0.47305781 165 165 167
-0.00757239 0.12975819 0.47305781 168 169 171
-0.00675474 0.12975819 0.47305781 171 172 174
-0.00593296 0.12966770 0.47272792 173 174 176
-0.00511946 0.12975819 0.47305781 174 175 175
-0.00430482 0.12984881 0.47338817 182 182 180
-0.00348661 0.12984881 0.47338817 173 173 172
-0.00267026 0.12993954 0.47371897 171 171 171
-0.00185407 0.13012141 0.47438198 167 168 170
-0.00103341 0.13003041 0.47405025 160 161 164
-0.00021406 0.13003041 0.47405025 153 154 158
0.00060530 0.13003041 0.47405025 147 148 152
0.00142267 0.12984881 0.47338817 144 145 149
0.00223932 0.12975819 0.47305781 144 144 148
0.00306123 0.12993954 0.47371897 144 144 148
0.00388273 0.13003041 0.47405025 140 140 142
0.00469880 0.12993954 0.47371897 135 135 137
0.00552145 0.13003041 0.47405025 137 138 140
0.02598845 0.19887003 0.72501802 135 143 149
0.02724159 0.19887003 0.72501802 145 154 159
0.02849473 0.19887003 0.72501802 154 164 169
0.02965272 0.19823399 0.72269917 160 170 175
0.03090184 0.19823399 0.72269917 167 176 180
0.10182393 0.22215471 0.80990660 172 172 168
0.09595834 0.15906201 0.57989037 110 110 119
0.09712680 0.15933461 0.58088416 113 112 121
0.10955043 0.15988262 0.58288205 182 183 183
0.11055789 0.15988262 0.58288205 181 182 179
0.11127831 0.15947126 0.58138239 177 178 177
0.11170835 0.15865485 0.57840604 167 168 167
0.25120556 0.12429377 0.45313627 179 183 182
0.25198877 0.12429377 0.45313627 182 183 181
0.25277197 0.12429377 0.45313627 169 170 168
0.25355521 0.12429377 0.45313627 156 157 159
0.25433841 0.12429377 0.45313627 142 143 146
0.25529227 0.12437692 0.45343935 130 131 135
0.25624740 0.12446017 0.45374286 136 136 141
0.25703165 0.12446017 0.45374286 131 131 138
0.25798860 0.12454353 0.45404679 142 143 149
0.25894684 0.12462700 0.45435110 154 155 157
0.25938442 0.12446017 0.45374286 161 161 163
1.10495234 0.43648705 1.59129536 156 157 150
1.10770273 0.43648705 1.59129536 152 153 146
1.11306608 0.43751410 1.59503961 150 151 144
1.11320364 0.43648705 1.59129536 147 148 141
1.11334062 0.43546483 1.58756876 142 142 138
1.11870444 0.43648705 1.59129536 140 140 136
1.12409365 0.43751410 1.59503961 141 142 140
1.12950814 0.43854597 1.59880149 147 149 148
1.12960744 0.43751410 1.59503961 152 155 154
1.14863455 0.44272259 1.61402822 153 161 159
1.15970790 0.44590765 1.62563992 157 166 164
0.40457052 0.13552733 0.49409026 146 144 148
0.40483436 0.13533005 0.49337107 154 153 157
0.40539208 0.13523163 0.49301225 160 164 164
0.40535977 0.13493721 0.49193892 164 168 168
0.40591550 0.13483937 0.49158219 166 171 170
0.40706035 0.13493721 0.49193892 166 172 170
0.40850350 0.13513334 0.49265397 166 172 170
0.40876091 0.13493721 0.49193892 163 171 167
0.40961117 0.13493721 0.49193892 158 167 163
0.41016379 0.13483937 0.49158219 156 165 162
0.41041821 0.13464409 0.49087027 164 172 169
0.41186312 0.13483937 0.49158219 155 164 161
0.41241372 0.13474166 0.49122596 145 151 151
0.41266468 0.13454667 0.49051508 137 141 144
0.41351250 0.13454667 0.49051508 135 139 142
0.41316447 0.13415836 0.48909944 136 141 144
0.63787091 0.18052766 0.65814739 127 135 134
0.63715267 0.18000337 0.65623605 128 136 136
0.63643861 0.17948213 0.65433574 131 138 138
0.63695478 0.17930906 0.65370476 133 140 140
0.63931763 0.17965554 0.65496796 135 142 142
0.64293450 0.18035255 0.65750909 136 143 143
0.64720970 0.18123147 0.66071332 138 146 145
-0.49692327 0.34020939 1.23253059 134 138 141
-0.49300021 0.33897674 1.22806489 132 136 142
-0.49087760 0.33897674 1.22806489 130 133 141
-0.47920078 0.34586906 1.25303483 101 107 125
-0.47615489 0.34523094 1.25072300 98 104 122
-0.47312018 0.34459516 1.24841964 106 113 129
-0.47009668 0.34396172 1.24612474 118 126 139
-0.01817637 0.13039385 0.47239849 200 201 201
-0.01738409 0.13057584 0.47305781 201 202 202
-0.01655490 0.13048477 0.47272792 201 202 202
-0.01573782 0.13048477 0.47272792 201 202 201
-0.01494159 0.13066702 0.47338817 204 204 202
-0.01411352 0.13057584 0.47305781 196 196 194
-0.01330517 0.13066702 0.47338817 186 186 182
-0.01248695 0.13066702 0.47338817 171 172 168
-0.01165246 0.13048477 0.47272792 149 150 148
-0.01082784 0.13039385 0.47239849 136 137 139
-0.01001832 0.13048477 0.47272792 144 145 149
-0.00920125 0.13048477 0.47272792 144 146 148
-0.00838418 0.13048477 0.47272792 156 160 161
-0.00756711 0.13048477 0.47272792 161 165 166
-0.00675003 0.13048477 0.47272792 171 173 175
-0.00592883 0.13039385 0.47239849 173 175 177
-0.00511589 0.13048477 0.47272792 174 175 176
-0.00430182 0.13057584 0.47305781 179 179 178
-0.00348418 0.13057584 0.47305781 174 174 173
-0.00266840 0.13066702 0.47338817 172 172 172
0.00142267 0.13066702 0.47338817 146 146 150
0.00223776 0.13048477 0.47272792 144 144 148
0.00305696 0.13057584 0.47305781 141 141 145
0.00387731 0.13066702 0.47338817 139 139 141
0.00551759 0.13075833 0.47371897 138 139 142
0.00633195 0.13066702 0.47338817 132 135 139
0.00714019 0.13048477 0.47272792 134 138 143
0.00795172 0.13039385 0.47239849 124 128 134
0.02598845 0.20012318 0.72501802 150 160 164
0.02727076 0.20033744 0.72579426 156 166 171
0.02849473 0.20012318 0.72501802 162 172 177
0.02965272 0.19948313 0.72269917 165 174 178
0.03090184 0.19948313 0.72269917 169 177 178
0.09536393 0.16075186 0.58238131 128 127 131
0.09595834 0.16006429 0.57989037 122 122 129
0.10249817 0.16089009 0.58288205 157 163 166
0.10341672 0.16075186 0.58238131 157 163 164
0.10442331 0.16075186 0.58238131 158 164 164
0.10863637 0.16102855 0.58338368 177 177 177
0.10945632 0.16075186 0.58238131 177 177 177
0.11055789 0.16089009 0.58288205 176 176 174
0.11137383 0.16061388 0.58188140 176 176 174
0.11180375 0.15979092 0.57889998 163 163 161
0.11242031 0.15924695 0.57692921 161 162 164
0.25120556 0.12507698 0.45313627 185 189 185
0.25198877 0.12507698 0.45313627 182 183 179
0.25294107 0.12516065 0.45343935 176 177 174
0.25355521 0.12507698 0.45313627 164 165 166
0.25450853 0.12516065 0.45343935 156 157 159
0.25546315 0.12524442 0.45374286 144 144 150
0.25641903 0.12532832 0.45404679 139 139 146
0.25737619 0.12541232 0.45435110 121 119 132
0.25885549 0.12574944 0.45557249 120 119 132
0.25981754 0.12583400 0.45587885 127 127 132
0.27242297 0.12958114 0.46945420 159 160 159
1.10770273 0.43923748 1.59129536 145 146 144
1.11306608 0.44027099 1.59503961 143 143 139
1.11320364 0.43923748 1.59129536 141 141 137
1.11334062 0.43820882 1.58756876 139 140 137
1.11870444 0.43923748 1.59129536 137 137 136
1.12409365 0.44027099 1.59503961 135 137 135
1.12950814 0.44130936 1.59880149 136 143 139
1.12960744 0.44027099 1.59503961 146 154 150
1.13236427 0.44027099 1.59503961 152 161 158
1.14590621 0.44445407 1.61019444 157 166 163
1.15417230 0.44657558 1.61788034 160 169 166
0.40395239 0.13588610 0.49229619 169 172 173
0.40450951 0.13578750 0.49193892 174 179 177
0.40477231 0.13559070 0.49122596 175 181 178
0.40532765 0.13549252 0.49087027 175 181 177
0.40647039 0.13559070 0.49122596 174 180 175
0.40791062 0.13578750 0.49193892 172 178 173
0.40846449 0.13568902 0.49158219 170 177 171
0.40901753 0.13559070 0.49122596 168 176 169
0.40956980 0.13549252 0.49087027 167 175 169
0.40982470 0.13529658 0.49016041 173 177 175
0.41126665 0.13549252 0.49087027 168 171 170
0.41211507 0.13549252 0.49087027 158 162 161
0.41236630 0.13529658 0.49016041 147 151 151
0.41351250 0.13539448 0.49051508 136 140 140
0.41316447 0.13500373 0.48909944 136 140 141
0.63715267 0.18113762 0.65623605 141 150 149
0.63582486 0.18043892 0.65370476 141 150 149
0.63572866 0.18009159 0.65244645 142 151 150
0.63870054 0.18061310 0.65433574 141 150 149
0.64293450 0.18148901 0.65750909 141 150 149
0.65037918 0.18326657 0.66394889 142 151 150
-0.49692327 0.34233972 1.23253059 132 136 141
-0.49300021 0.34109935 1.22806489 132 137 143
-0.49087760 0.34109935 1.22806489 128 134 141
-0.48875499 0.34109935 1.22806489 118 126 134
-0.47831666 0.34739271 1.25072300 94 101 118
-0.47527799 0.34675294 1.24841964 101 108 123
-0.47225049 0.34611553 1.24612474 116 125 135
-0.47009668 0.34611553 1.24612474 130 140 148
-0.46794283 0.34611553 1.24612474 135 146 153
-0.01816371 0.13111898 0.47206953 200 201 199
-0.01737197 0.13130185 0.47272792 200 201 199
-0.01655490 0.13130185 0.47272792 200 201 199
-0.01572686 0.13121034 0.47239849 200 201 200
-0.01493116 0.13139348 0.47305781 201 201 198
-0.01411352 0.13139348 0.47305781 193 193 189
-0.01330517 0.13148522 0.47338817 182 182 178
-0.01247824 0.13139348 0.47305781 163 163 162
-0.01165246 0.13130185 0.47272792 141 141 141
-0.01082030 0.13111898 0.47206953 135 136 136
-0.01001134 0.13121034 0.47239849 143 144 146
-0.00920125 0.13130185 0.47272792 148 151 152
-0.00838418 0.13130185 0.47272792 158 162 163
-0.00756183 0.13121034 0.47239849 163 167 168
-0.00675003 0.13130185 0.47272792 167 171 172
-0.00592883 0.13121034 0.47239849 170 174 175
-0.00511589 0.13130185 0.47272792 172 175 177
-0.00430182 0.13139348 0.47305781 174 176 177
-0.00235090 0.16706908 0.60150117 168 167 167
-0.00130777 0.16662553 0.59990430 162 160 160
-0.00027088 0.16662553 0.59990430 158 154 155
0.00551759 0.13157712 0.47371897 138 138 142
0.00633195 0.13148522 0.47338817 141 144 152
0.00714019 0.13130185 0.47272792 147 150 158
0.00795726 0.13130185 0.47272792 143 146 154
0.00875602 0.13102773 0.47174102 156 156 165
0.02610011 0.20224151 0.72813302 162 170 174
0.02738805 0.20245898 0.72891593 163 171 175
0.02855581 0.20180799 0.72657216 167 176 180
0.02971608 0.20116116 0.72424340 168 176 176
0.03100099 0.20137630 0.72501802 169 175 175
0.03232327 0.20180799 0.72657216 169 175 175
0.09479386 0.16079150 0.57889998 125 125 128
0.09563111 0.16051735 0.57791293 124 124 128
0.09679502 0.16079150 0.57889998 125 125 130
0.09829927 0.16161962 0.58188140 126 126 135
0.09947579 0.16189755 0.58288205 128 128 137
0.10074311 0.16231625 0.58438951 133 133 142
0.10166555 0.16217645 0.58388615 135 138 144
0.10241012 0.16175847 0.58238131 142 145 149
0.10315087 0.16134264 0.58088416 145 149 151
0.10415488 0.16134264 0.58088416 151 156 158
0.10488925 0.16092893 0.57939476 156 161 164
0.10607201 0.16120449 0.58038688 159 164 168
0.10725882 0.16148101 0.58138239 165 167 170
0.10844971 0.16175847 0.58238131 169 170 171
0.10926857 0.16148101 0.58138239 171 171 172
0.11027344 0.16148101 0.58138239 168 168 167
0.11118296 0.16134264 0.58088416 173 172 170
0.11170835 0.16065431 0.57840604 165 164 162
0.11232472 0.16010787 0.57643867 158 157 157
0.11322477 0.15997183 0.57594889 147 147 149
0.25137359 0.12594438 0.45343935 181 183 181
0.25215733 0.12594438 0.45343935 182 183 180
0.25311038 0.12602869 0.45374286 186 187 183
0.25372481 0.12594438 0.45343935 183 184 182
0.25467888 0.12602869 0.45374286 177 178 177
0.25580558 0.12619762 0.45435110 167 168 170
0.25693533 0.12636702 0.45496097 157 158 161
0.25806808 0.12653686 0.45557249 141 141 146
0.25937843 0.12679249 0.45649281 129 129 135
0.27312469 0.13111898 0.47206953 144 144 144
0.27336952 0.13084562 0.47108537 142 142 142
0.27513978 0.13130185 0.47272792 140 140 140
1.11569118 0.44407275 1.59880149 140 141 140
1.11582291 0.44302788 1.59503961 138 138 138
1.11595404 0.44198790 1.59129536 134 135 135
1.11870444 0.44198790 1.59129536 131 132 132
1.12409365 0.44302788 1.59503961 129 129 129
1.13217843 0.44512257 1.60258114 129 131 132
1.12960744 0.44302788 1.59503961 145 147 147
1.14863455 0.44830203 1.61402822 158 167 164
0.40368780 0.13693589 0.49301225 153 159 157
0.40365922 0.13663778 0.49193892 165 171 169
0.40450951 0.13663778 0.49193892 172 178 175
0.40447921 0.13634095 0.49087027 174 180 176
0.40503436 0.13624230 0.49051508 173 179 175
0.40617606 0.13634095 0.49087027 171 178 170
0.40761483 0.13653868 0.49158219 170 176 169
0.40787292 0.13634095 0.49087027 169 176 168
0.40842560 0.13624230 0.49051508 170 177 169
0.40927342 0.13624230 0.49051508 171 177 170
0.40952858 0.13604541 0.48980623 171 175 172
0.41067189 0.13614377 0.49016041 169 171 170
0.41151911 0.13614377 0.49016041 164 165 164
0.41206837 0.13604541 0.48980623 159 160 160
0.41321352 0.13614377 0.49016041 152 153 153
0.41286659 0.13575116 0.48874682 147 150 149
0.63715267 0.18227188 0.65623605 150 158 157
0.63460094 0.18121929 0.65244645 148 157 156
0.63207853 0.18017881 0.64870036 148 157 156
0.65165567 0.18477610 0.66525203 148 157 155
0.65280551 0.18477610 0.66525203 147 156 154
-0.49905360 0.34447005 1.23253059 130 137 142
-0.49692327 0.34447005 1.23253059 133 138 143
-0.49389496 0.34384489 1.23029375 134 142 147
-0.49087760 0.34322196 1.22806489 130 138 143
-0.48875499 0.34322196 1.22806489 126 132 137
-0.48751557 0.34384489 1.23029375 126 132 137
-0.47959358 0.34891075 1.24841964 102 112 118
-0.47568372 0.34763032 1.24383819 102 111 125
-0.47353384 0.34763032 1.24383819 111 121 132
-0.46966046 0.34635928 1.23929036 126 136 144
-0.46751845 0.34635928 1.23929036 133 143 150
-0.46537644 0.34635928 1.23929036 132 142 149
-0.01734777 0.13193491 0.47206953 199 200 200
-0.01654336 0.13202685 0.47239849 199 200 200
-0.01572686 0.13202685 0.47239849 199 200 199
-0.01493116 0.13221112 0.47305781 197 196 193
-0.01410368 0.13211893 0.47272792 188 188 184
-0.01329588 0.13221112 0.47305781 174 174 172
-0.01246954 0.13211893 0.47272792 155 155 155
-0.01163624 0.13193491 0.47206953 142 143 143
-0.01081277 0.13184309 0.47174102 139 140 141
-0.01000437 0.13193491 0.47206953 142 143 145
-0.00919484 0.13202685 0.47239849 149 151 152
-0.00837833 0.13202685 0.47239849 158 160 161
-0.00755657 0.13193491 0.47206953 163 165 166
-0.00674533 0.13202685 0.47239849 167 169 170
-0.00592470 0.13193491 0.47206953 170 171 173
-0.00444201 0.16855741 0.60310662 166 169 168
-0.00339959 0.16855741 0.60310662 166 167 167
-0.00235299 0.16825803 0.60203540 165 163 163
-0.00131009 0.16795969 0.60096794 162 159 160
-0.00027136 0.16795969 0.60096794 158 154 155
0.00076532 0.16751418 0.59937388 150 145 147
0.00179179 0.16663019 0.59621096 151 146 148
0.00552145 0.13248849 0.47405025 140 143 149
0.00633637 0.13239589 0.47371897 150 153 161
0.00714517 0.13221112 0.47305781 154 158 165
0.00795726 0.13211893 0.47272792 154 159 165
0.02756589 0.20504171 0.73364919 158 165 167
0.02870966 0.20415790 0.73048687 162 171 172
0.02984361 0.20328169 0.72735178 163 171 175
0.03120122 0.20393814 0.72970057 166 174 177
0.03249742 0.20415790 0.73048687 166 174 176
0.09431063 0.16096732 0.57594889 134 134 140
0.09530611 0.16096732 0.57594889 131 131 138
0.09913482 0.16234665 0.58088416 129 130 138
0.10048325 0.16290501 0.58288205 128 129 137
0.10149071 0.16290501 0.58288205 127 130 137
0.10197210 0.16206889 0.57989037 130 133 141
0.10262324 0.16151622 0.57791293 138 140 148
0.10353385 0.16137865 0.57742065 147 150 157
0.10453188 0.16137865 0.57742065 153 157 164
0.10570998 0.16165404 0.57840604 157 161 168
0.10689212 0.16193037 0.57939476 159 164 169
0.10807831 0.16220765 0.58038688 161 165 169
0.10889500 0.16193037 0.57939476 163 166 169
0.10989644 0.16193037 0.57939476 163 164 165
0.11089787 0.16193037 0.57939476 162 162 161
0.11161312 0.16151622 0.57791293 160 160 158
0.11232472 0.16110419 0.57643867 154 153 151
0.11322477 0.16096732 0.57594889 147 147 147
0.11422025 0.16096732 0.57594889 140 140 142
0.25137359 0.12672812 0.45343935 176 181 180
0.25215733 0.12672812 0.45343935 176 180 178
0.25294107 0.12672812 0.45343935 179 181 179
0.25372481 0.12672812 0.45343935 180 181 178
0.25467888 0.12681293 0.45374286 178 179 175
0.25580558 0.12698293 0.45435110 176 177 172
0.25806808 0.12732428 0.45557249 164 166 160
0.27268857 0.13211893 0.47272792 142 142 142
0.27293465 0.13184309 0.47174102 133 133 133
0.27336952 0.13165985 0.47108537 121 121 122
0.27513978 0.13211893 0.47272792 121 121 123
1.11595404 0.44473833 1.59129536 121 124 124
1.11870444 0.44473833 1.59129536 122 124 125
1.12145495 0.44473833 1.59129536 124 126 127
1.13217843 0.44789252 1.60258114 125 128 129
1.14312315 0.45002025 1.61019444 143 147 148
1.16810298 0.45873737 1.64138460 149 153 154
0.40339443 0.13768789 0.49265397 161 167 165
0.40336651 0.13738835 0.49158219 168 174 172
0.40450951 0.13748805 0.49193892 172 178 175
0.40447921 0.13718937 0.49087027 173 179 175
0.40503436 0.13709010 0.49051508 171 177 173
0.40617606 0.13718937 0.49087027 170 176 170
0.40731946 0.13728879 0.49122596 169 175 168
0.40757778 0.13709010 0.49051508 169 176 168
0.40842560 0.13709010 0.49051508 170 177 169
0.40897751 0.13699098 0.49016041 171 178 170
0.40952858 0.13689201 0.48980623 171 177 170
0.41037518 0.13689201 0.48980623 171 175 170
0.41122177 0.13689201 0.48980623 170 174 169
0.41177082 0.13679317 0.48945260 169 170 167
0.41291493 0.13689201 0.48980623 165 166 164
0.41286659 0.13659592 0.48874682 161 162 160
0.63592148 0.18305172 0.65496796 155 160 159
0.63216722 0.18164767 0.64994425 154 161 159
0.65037918 0.18556173 0.66394889 153 162 161
-0.50087500 0.34786534 1.23702896 133 140 144
-0.49873686 0.34786534 1.23702896 134 139 144
-0.49389496 0.34597135 1.23029375 131 139 143
-0.49176848 0.34597135 1.23029375 126 134 138
-0.48964202 0.34597135 1.23029375 126 132 136
-0.48840195 0.34660038 1.23253059 120 126 130
-0.47394449 0.34850129 1.23929036 113 125 132
-0.47094151 0.34786534 1.23702896 118 130 136
-0.46709865 0.34660038 1.23253059 121 133 138
-0.46581528 0.34723172 1.23477566 127 138 143
-0.46283799 0.34660038 1.23253059 131 141 147
-0.01732365 0.13256621 0.47141296 199 200 198
-0.01652033 0.13265847 0.47174102 199 200 198
-0.01570497 0.13265847 0.47174102 201 201 198
-0.01492075 0.13293599 0.47272792 192 192 187
-0.01409385 0.13284336 0.47239849 180 180 175
-0.01328661 0.13293599 0.47272792 164 165 165
-0.01246085 0.13284336 0.47239849 135 135 136
-0.01162814 0.13265847 0.47174102 132 132 134
-0.01079025 0.13238209 0.47075823 131 132 136
-0.00999045 0.13256621 0.47141296 138 139 142
-0.00918843 0.13275084 0.47206953 149 149 151
-0.00837833 0.13284336 0.47239849 161 161 161
-0.00755657 0.13275084 0.47206953 164 164 164
-0.00674533 0.13284336 0.47239849 168 169 169
-0.00653849 0.16990215 0.60418171 164 165 165
-0.00548443 0.16959983 0.60310662 163 164 164
-0.00444201 0.16959983 0.60310662 161 162 162
-0.00339959 0.16959983 0.60310662 162 162 162
-0.00235508 0.16944908 0.60257053 163 159 160
-0.00131009 0.16899842 0.60096794 158 154 155
-0.00027136 0.16899842 0.60096794 156 152 153
0.00076600 0.16869931 0.59990430 148 144 147
0.00179337 0.16780828 0.59673578 148 145 147
0.00552918 0.13349454 0.47471419 149 154 157
0.00634524 0.13340113 0.47438198 155 159 164
0.00715516 0.13321468 0.47371897 163 167 171
0.00796281 0.13302876 0.47305781 169 173 175
0.02762569 0.20675728 0.73524064 160 164 167
0.02880277 0.20608671 0.73285604 159 163 167
0.03000458 0.20564209 0.73127490 159 164 171
0.03133614 0.20608671 0.73285604 163 167 174
0.03256761 0.20586416 0.73206460 164 168 175
0.03361512 0.20453885 0.72735178 166 169 172
0.09482273 0.16114135 0.57302779 135 135 140
0.09871189 0.16265376 0.57840604 131 132 139
0.09996751 0.16307119 0.57989037 123 126 132
0.10114285 0.16335066 0.58088416 112 115 124
0.10162436 0.16251510 0.57791293 119 122 132
0.10236145 0.16210052 0.57643867 125 128 138
0.10335778 0.16210052 0.57643867 137 140 148
0.10444292 0.16223848 0.57692921 150 153 160
0.10561987 0.16251510 0.57791293 157 160 166
0.10680084 0.16279267 0.57889998 161 165 168
0.10789356 0.16293180 0.57939476 161 163 165
0.10880201 0.16279267 0.57889998 159 159 159
0.10980259 0.16279267 0.57889998 159 159 159
0.11080316 0.16279267 0.57889998 155 155 155
0.11151805 0.16237667 0.57742065 152 152 152
0.11232472 0.16210052 0.57643867 150 150 150
0.11322477 0.16196279 0.57594889 143 144 145
0.11422025 0.16196279 0.57594889 141 142 144
0.11521573 0.16196279 0.57594889 138 139 141
0.11621121 0.16196279 0.57594889 138 139 142
0.11829312 0.16073373 0.57157826 152 153 157
0.25075760 0.12759720 0.45374286 171 175 174
0.25137359 0.12751184 0.45343935 172 176 175
0.25232610 0.12759720 0.45374286 174 178 177
0.25311038 0.12759720 0.45374286 175 179 178
0.25389463 0.12759720 0.45374286 176 179 178
0.25484946 0.12768266 0.45404679 178 179 177
0.25580558 0.12776823 0.45435110 181 182 178
0.27268857 0.13293599 0.47272792 143 143 141
0.27293465 0.13265847 0.47174102 138 138 137
0.27336952 0.13247409 0.47108537 132 133 132
0.27513978 0.13293599 0.47272792 135 136 137
1.11870444 0.44748875 1.59129536 120 125 126
1.13486135 0.45173037 1.60637879 122 127 127
1.17379224 0.46495172 1.65339470 132 135 137
0.40278235 0.13803780 0.49087027 171 175 171
0.40392327 0.13813783 0.49122596 171 175 172
0.40418655 0.13793792 0.49051508 171 175 172
0.40474150 0.13783818 0.49016041 171 175 172
0.40588215 0.13793792 0.49051508 170 175 171
0.40702450 0.13803780 0.49087027 169 174 170
0.40728310 0.13783818 0.49016041 167 172 168
0.40813029 0.13783818 0.49016041 168 173 169
0.40893763 0.13753983 0.48909944 170 175 170
0.40978301 0.13753983 0.48909944 171 175 170
0.41092485 0.13763914 0.48945260 170 176 170
0.41117707 0.13744067 0.48874682 169 172 167
0.41231909 0.13753983 0.48909944 165 166 162
0.41227213 0.13724278 0.48804307 158 159 155
0.63715267 0.18454038 0.65623605 159 161 160
0.63216722 0.18277106 0.64994425 158 163 160
-0.50455785 0.35257700 1.24612474 131 138 143
-0.50056374 0.35128552 1.24156010 130 137 141
-0.49569422 0.34936592 1.23477566 125 133 137
-0.49266261 0.34873071 1.23253059 123 131 135
-0.49053228 0.34873071 1.23253059 119 128 129
-0.48929158 0.34936592 1.23477566 114 123 125
-0.47008368 0.34936592 1.23477566 115 126 133
-0.01650885 0.13338101 0.47141296 196 197 192
-0.01569405 0.13338101 0.47141296 195 196 188
-0.01492075 0.13375306 0.47272792 187 188 183
-0.01409385 0.13365985 0.47239849 173 174 170
-0.01328661 0.13375306 0.47272792 151 152 154
-0.01246085 0.13365985 0.47239849 117 118 121
-0.01162005 0.13338101 0.47141296 113 114 117
-0.01078276 0.13310333 0.47043154 117 116 120
-0.00998351 0.13328832 0.47108537 127 126 130
-0.00918843 0.13356678 0.47206953 138 137 140
-0.00837833 0.13365985 0.47239849 152 151 153
-0.00755657 0.13356678 0.47206953 156 156 156
-0.00652105 0.17049058 0.60257053 159 159 161
-0.00547469 0.17033915 0.60203540 152 153 155
-0.00443412 0.17033915 0.60203540 155 156 157
-0.00339355 0.17033915 0.60203540 156 156 156
-0.00235090 0.17018801 0.60150117 156 155 156
-0.00130893 0.16988653 0.60043561 148 147 147
-0.00027112 0.16988653 0.60043561 151 150 150
0.00076397 0.16928676 0.59831583 151 150 152
0.00178864 0.16839498 0.59516406 148 148 150
0.00552531 0.13422106 0.47438198 156 162 164
0.00634969 0.13431504 0.47471419 160 165 166
0.00715516 0.13403347 0.47371897 170 175 176
0.00796281 0.13384640 0.47305781 173 175 175
0.02762569 0.20802808 0.73524064 156 157 162
0.02883395 0.20757781 0.73364919 154 157 165
0.03003699 0.20712948 0.73206460 156 159 167
0.03137005 0.20757781 0.73364919 156 158 166
0.03256761 0.20712948 0.73206460 160 160 169
0.03361512 0.20579602 0.72735178 161 162 166
0.03479762 0.20535535 0.72579426 160 161 163
0.03597506 0.20491655 0.72424340 162 163 164
0.09945703 0.16323565 0.57692921 120 123 131
0.10071135 0.16365349 0.57840604 106 109 119
0.10145139 0.16323565 0.57692921 122 127 137
0.10227448 0.16295828 0.57594889 128 136 144
0.10326996 0.16295828 0.57594889 143 147 155
0.10435410 0.16309685 0.57643867 155 158 165
0.10561987 0.16351397 0.57791293 157 157 164
0.10680084 0.16379325 0.57889998 159 159 162
0.10789356 0.16393325 0.57939476 157 157 160
0.10880201 0.16379325 0.57889998 155 155 155
0.10980259 0.16379325 0.57889998 148 148 149
0.11080316 0.16379325 0.57889998 145 145 146
0.11161312 0.16351397 0.57791293 137 138 139
0.11242031 0.16323565 0.57692921 124 124 127
0.11332105 0.16309685 0.57643867 133 134 136
0.11431738 0.16309685 0.57643867 135 136 137
0.11531370 0.16309685 0.57643867 133 134 136
0.11640902 0.16323565 0.57692921 134 135 137
0.11730636 0.16309685 0.57643867 136 138 141
0.11820217 0.16295828 0.57594889 134 137 145
0.11879393 0.16240634 0.57399815 140 142 149
0.25154185 0.12838146 0.45374286 168 172 172
0.25249511 0.12846744 0.45404679 169 172 172
0.25344965 0.12855355 0.45435110 170 171 172
0.25423497 0.12855355 0.45435110 171 173 173
0.25502029 0.12855355 0.45435110 170 174 172
0.25614896 0.12872611 0.45496097 171 175 172
0.27130389 0.13347383 0.47174102 146 146 144
0.27249852 0.13365985 0.47239849 141 141 139
0.27274483 0.13338101 0.47141296 136 137 136
0.27317968 0.13319576 0.47075823 141 141 140
0.27494803 0.13365985 0.47239849 152 156 157
0.27557251 0.13356678 0.47206953 159 163 164
1.11347687 0.44813526 1.58385944 129 130 131
1.12950814 0.45236295 1.59880149 126 128 131
0.40249091 0.13878573 0.49051508 173 175 171
0.40333873 0.13878573 0.49051508 175 176 172
0.40389428 0.13868539 0.49016041 174 175 171
0.40444905 0.13858518 0.48980623 173 174 171
0.40558869 0.13868539 0.49016041 171 173 169
0.40672997 0.13878573 0.49051508 169 170 168
0.40698880 0.13858518 0.48980623 168 169 167
0.40783539 0.13858518 0.48980623 167 169 166
0.40923288 0.13848512 0.48945260 166 168 165
0.40978301 0.13838521 0.48909944 167 168 164
0.41092485 0.13848512 0.48945260 169 170 166
0.41117707 0.13828543 0.48874682 170 171 167
0.41261682 0.13848512 0.48945260 170 171 167
0.41256914 0.13818580 0.48839471 171 172 168
0.63911194 0.18657772 0.65942788 158 161 160
0.63777006 0.18585455 0.65687191 160 163 162
0.63521236 0.18478024 0.65307498 162 166 162
0.65537816 0.18896738 0.66787374 162 170 165
0.66094273 0.18990286 0.67118007 156 162 159
0.66457891 0.19027966 0.67251176 141 150 149
-0.50641972 0.35603979 1.25072300 129 139 140
-0.50148219 0.35407996 1.24383819 128 139 139
-0.49659875 0.35214156 1.23702896 123 132 135
-0.49355999 0.35150012 1.23477566 114 123 127
-0.49053228 0.35086104 1.23253059 110 119 121
-0.48929158 0.35150012 1.23477566 105 113 116
-0.01647448 0.13391642 0.47043154 198 199 197
-0.01567225 0.13400942 0.47075823 196 197 192
-0.01489997 0.13438271 0.47206953 184 185 182
-0.01408404 0.13438271 0.47206953 170 171 169
-0.01327735 0.13447636 0.47239849 145 146 148
-0.01245217 0.13438271 0.47206953 119 120 123
-0.01161198 0.13410255 0.47108537 123 123 127
-0.01076781 0.13373081 0.46977952 125 124 128
-0.00996274 0.13382356 0.47010529 141 140 143
-0.00917565 0.13419580 0.47141296 150 150 153
-0.00836086 0.13419580 0.47141296 157 159 160
-0.00754606 0.13419580 0.47141296 159 160 163
-0.00673594 0.13428919 0.47174102 155 155 159
-0.00338754 0.17107587 0.60096794 148 147 149
-0.00234881 0.17107587 0.60096794 145 145 146
-0.00130661 0.17062208 0.59937388 145 145 146
-0.00027041 0.17047136 0.59884441 145 145 146
0.00076129 0.16972171 0.59621096 147 147 149
0.00550221 0.13447636 0.47239849 160 164 171
0.00633637 0.13485225 0.47371897 168 172 175
0.00715016 0.13475809 0.47338817 171 175 176
0.00796281 0.13466404 0.47305781 171 175 176
0.02762569 0.20929889 0.73524064 144 148 152
0.02883395 0.20884585 0.73364919 142 145 153
0.03006946 0.20862009 0.73285604 144 145 154
0.03137005 0.20884585 0.73364919 150 150 158
0.03253248 0.20816998 0.73127490 148 148 155
0.03361512 0.20705318 0.72735178 142 143 148
0.03479762 0.20660982 0.72579426 150 151 155
0.03601353 0.20638885 0.72501802 151 152 154
0.09829255 0.16395375 0.57594889 120 120 128
0.09928803 0.16395375 0.57594889 108 108 121
0.10045421 0.16423284 0.57692921 94 96 110
0.10136512 0.16409318 0.57643867 126 129 143
0.10227448 0.16395375 0.57594889 128 135 147
0.10326996 0.16395375 0.57594889 144 150 158
0.10435410 0.16409318 0.57643867 152 158 164
0.10561987 0.16451286 0.57791293 155 158 165
0.10689212 0.16493468 0.57939476 157 158 161
0.10789356 0.16493468 0.57939476 153 153 156
0.10880201 0.16479383 0.57889998 145 145 148
0.10980259 0.16479383 0.57889998 135 135 138
0.11089787 0.16493468 0.57939476 128 128 132
0.11161312 0.16451286 0.57791293 126 126 132
0.11242031 0.16423284 0.57692921 120 120 127
0.11341749 0.16423284 0.57692921 129 129 135
0.11441467 0.16423284 0.57692921 131 131 136
0.11541184 0.16423284 0.57692921 130 130 134
0.11650817 0.16437273 0.57742065 128 129 133
0.11740620 0.16423284 0.57692921 129 130 136
0.25334355 0.12968653 0.45557249 165 167 168
0.25447300 0.12986109 0.45618564 166 167 169
0.25526148 0.12986109 0.45618564 171 172 174
0.25587779 0.12977375 0.45587885 165 169 168
0.27168202 0.13447636 0.47239849 139 140 139
0.27268857 0.13457014 0.47272792 135 136 136
0.27312469 0.13438271 0.47206953 140 142 142
0.27375001 0.13428919 0.47174102 148 151 150
0.27513978 0.13457014 0.47272792 155 159 159
0.27576452 0.13447636 0.47239849 157 161 162
0.40251687 0.13993733 0.49158219 171 175 172
0.40249091 0.13963355 0.49051508 171 175 170
0.40363079 0.13973467 0.49087027 172 176 171
0.40389428 0.13953260 0.49016041 171 175 172
0.40474150 0.13953260 0.49016041 171 175 172
0.40588215 0.13963355 0.49051508 170 173 171
0.40702450 0.13973467 0.49087027 169 169 169
0.40728310 0.13953260 0.49016041 166 166 166
0.40813029 0.13953260 0.49016041 163 163 162
0.40897751 0.13953260 0.49016041 160 160 159
0.40982470 0.13953260 0.49016041 160 160 159
0.41037518 0.13943177 0.48980623 161 161 158
0.41122177 0.13943177 0.48980623 161 161 159
0.41206837 0.13943177 0.48980623 163 163 160
0.41291493 0.13943177 0.48980623 164 164 161
0.41346279 0.13933110 0.48945260 168 168 165
0.64234608 0.18900448 0.66394889 153 157 156
0.64035773 0.18808341 0.66071332 161 165 162
0.63838869 0.18717127 0.65750909 161 165 162
0.63766962 0.18662821 0.65560138 164 168 164
0.65422380 0.19012176 0.66787374 166 171 166
0.65667206 0.19049712 0.66919231 165 170 164
0.66043657 0.19125231 0.67184526 163 169 162
0.66159779 0.19125231 0.67184526 159 165 159
0.66392022 0.19125231 0.67184526 151 157 153
0.66376579 0.19087397 0.67051619 154 160 156
0.66492474 0.19087397 0.67051619 149 154 152
-0.50735581 0.35886368 1.25303483 123 133 137
-0.50332928 0.35754192 1.24841964 120 131 134
-0.49841779 0.35557738 1.24156010 118 128 131
-0.49446064 0.35427967 1.23702896 104 113 116
-0.49053228 0.35299137 1.23253059 90 98 103
-0.48929158 0.35363436 1.23477566 90 97 104
-0.01644025 0.13444962 0.46945420 198 199 197
-0.01563967 0.13454279 0.46977952 186 187 183
-0.01487925 0.13501061 0.47141296 175 178 176
-0.01406445 0.13501061 0.47141296 159 163 162
-0.01325887 0.13510457 0.47174102 143 147 147
-0.01244350 0.13510457 0.47174102 140 142 144
-0.01159586 0.13472953 0.47043154 149 149 152
-0.01075291 0.13435657 0.46912929 157 156 157
-0.00994206 0.13435657 0.46912929 165 164 165
-0.00915655 0.13472953 0.47043154 166 166 167
-0.00834345 0.13472953 0.47043154 168 169 170
-0.00753035 0.13472953 0.47043154 166 166 169
-0.00672191 0.13482310 0.47075823 161 161 165
-0.00234673 0.17196214 0.60043561 140 140 143
-0.00130661 0.17165805 0.59937388 140 141 144
-0.00027017 0.17135504 0.59831583 142 143 147
0.00075995 0.17045237 0.59516406 144 145 148
0.00222072 0.13435657 0.46912929 158 159 163
0.00303157 0.13435657 0.46912929 157 161 164
0.00384509 0.13444962 0.46945420 158 162 165
0.00465006 0.13426366 0.46880487 161 165 168
0.00549073 0.13501061 0.47141296 166 170 173
0.00633195 0.13557629 0.47338817 170 174 175
0.00714517 0.13548169 0.47305781 171 175 175
0.00796281 0.13548169 0.47305781 170 174 174
0.00876822 0.13529286 0.47239849 171 174 174
0.02638350 0.21079832 0.73603892 133 135 141
0.02765569 0.21079832 0.73603892 135 138 144
0.02886519 0.21034156 0.73444402 135 138 146
0.03010200 0.21011391 0.73364919 133 136 144
0.03140404 0.21034156 0.73444402 139 141 149
0.03256761 0.20966010 0.73206460 137 137 145
0.03361512 0.20831037 0.72735178 137 137 145
0.03483491 0.20808709 0.72657216 143 143 150
0.09820911 0.16480921 0.57545996 116 116 125
0.09920375 0.16480921 0.57545996 112 113 129
0.10036879 0.16508950 0.57643867 111 113 128
0.10136512 0.16508950 0.57643867 134 136 151
0.10218766 0.16480921 0.57545996 139 143 154
0.10326996 0.16494924 0.57594889 153 157 165
0.10435410 0.16508950 0.57643867 156 160 166
0.10570998 0.16565295 0.57840604 156 160 164
0.10698356 0.16607806 0.57989037 156 159 163
0.10798585 0.16607806 0.57989037 155 158 162
0.10889500 0.16593611 0.57939476 149 149 153
0.10999044 0.16607806 0.57989037 138 139 143
0.11099274 0.16607806 0.57989037 127 128 132
0.11161312 0.16551173 0.57791293 127 127 134
0.11251608 0.16537075 0.57742065 127 129 135
0.11341749 0.16523001 0.57692921 127 130 136
0.11441467 0.16523001 0.57692921 127 130 136
0.11541184 0.16523001 0.57692921 126 129 135
0.11650817 0.16537075 0.57742065 126 129 134
0.25385535 0.13073754 0.45649281 161 162 164
0.25498778 0.13091385 0.45710847 158 159 161
0.25577787 0.13091385 0.45710847 159 160 162
0.25639504 0.13082564 0.45680043 156 158 159
0.27048853 0.13510457 0.47174102 133 134 134
0.27168202 0.13529286 0.47239849 123 126 126
0.27268857 0.13538721 0.47272792 128 132 131
0.27312469 0.13519865 0.47206953 139 142 140
0.27394062 0.13519865 0.47206953 150 154 151
0.27513978 0.13538721 0.47272792 155 159 157
0.27576452 0.13529286 0.47239849 157 161 159
0.40222517 0.14068496 0.49122596 171 175 172
0.40219986 0.14037979 0.49016041 170 174 171
0.40333873 0.14048137 0.49051508 170 174 171
0.40418655 0.14048137 0.49051508 170 174 171
0.41067189 0.14037979 0.49016041 158 158 158
0.41151911 0.14037979 0.49016041 159 159 159
0.41236630 0.14037979 0.49016041 160 160 160
0.41351250 0.14048137 0.49051508 162 162 161
0.41406071 0.14037979 0.49016041 161 161 159
0.64109027 0.18978031 0.66265088 149 153 153
0.63973421 0.18904114 0.66006994 163 167 165
0.63521236 0.18703781 0.65307498 169 172 168
0.65667206 0.19165376 0.66919231 167 171 166
0.66109174 0.19260442 0.67251176 168 174 167
0.66159779 0.19241354 0.67184526 168 175 166
0.66144794 0.19203289 0.67051619 168 174 166
0.66326290 0.19222303 0.67118007 170 171 167
-0.50332928 0.35969970 1.24841964 117 127 130
-0.49933234 0.35837969 1.24383819 119 128 133
-0.49446064 0.35641778 1.23702896 105 115 120
-0.49142578 0.35576856 1.23477566 95 102 115
-0.49018446 0.35641778 1.23702896 92 98 110
-0.01721590 0.13498060 0.46848089 200 201 199
-0.01641751 0.13507396 0.46880487 199 199 197
-0.01560722 0.13507396 0.46880487 185 186 183
-0.01482769 0.13535477 0.46977952 175 177 175
-0.01402544 0.13544863 0.47010529 160 163 162
-0.01322207 0.13554263 0.47043154 152 153 153
-0.01240896 0.13554263 0.47043154 163 163 163
-0.01157177 0.13526103 0.46945420 166 166 166
-0.01073805 0.13498060 0.46848089 172 172 171
-0.00992146 0.13488738 0.46815735 176 177 173
-0.00913121 0.13516743 0.46912929 179 180 176
-0.00832035 0.13516743 0.46912929 176 177 173
-0.00750950 0.13516743 0.46912929 175 175 172
-0.00669865 0.13516743 0.46912929 170 170 169
-0.00234673 0.17299995 0.60043561 135 135 139
-0.00130431 0.17238918 0.59831583 135 136 140
-0.00026922 0.17178270 0.59621096 138 138 147
0.00075862 0.17118049 0.59412080 144 144 153
0.00222072 0.13516743 0.46912929 158 162 165
0.00303157 0.13516743 0.46912929 159 163 166
0.00384509 0.13526103 0.46945420 163 167 169
0.00465006 0.13507396 0.46880487 168 172 173
0.00548691 0.13573101 0.47108537 171 174 175
0.00633637 0.13648982 0.47371897 173 176 176
0.00715016 0.13639452 0.47338817 172 176 175
0.00796837 0.13639452 0.47338817 171 175 174
0.00877433 0.13620427 0.47272792 171 173 173
0.02765569 0.21207051 0.73603892 138 141 149
0.02886519 0.21161099 0.73444402 139 142 150
0.03013461 0.21161099 0.73444402 136 139 147
0.03140404 0.21161099 0.73444402 134 137 145
0.03256761 0.21092542 0.73206460 135 135 144
0.03365123 0.20979263 0.72813302 135 135 144
0.03483491 0.20934291 0.72657216 137 137 146
0.09903561 0.16552283 0.57448459 120 125 134
0.10019839 0.16580385 0.57545996 128 133 142
0.10127900 0.16594473 0.57594889 139 144 153
0.10210098 0.16566321 0.57497185 151 154 162
0.10689212 0.16693754 0.57939476 156 160 161
0.10789356 0.16693754 0.57939476 156 160 161
0.10889500 0.16693754 0.57939476 153 154 156
0.10999044 0.16708036 0.57989037 145 146 148
0.11089787 0.16693754 0.57939476 136 138 139
0.11161312 0.16651060 0.57791293 136 136 143
0.11242031 0.16622718 0.57692921 134 136 142
0.11341749 0.16622718 0.57692921 133 136 142
0.11541184 0.16622718 0.57692921 130 132 139
