ply
format ascii 1.0
element vertex 1064
property float x
property float y
property float z
property uchar red
property uchar green
property uchar blue
end_header
-0.56685710 0.51480601 1.71473730 119 124 130
-0.57761252 0.51583421 1.73818421 109 111 124
-0.56552686 0.53165238 1.71294244 154 159 159
-0.56877458 0.52546638 1.72053766 133 142 143
-0.57909739 0.52740117 1.74265254 125 131 136
-0.56436837 0.54193377 1.71618187 169 170 170
-0.56877458 0.54330921 1.72053766 163 164 165
-0.57909739 0.54276255 1.74265254 156 160 160
-0.54218543 0.49473599 1.65743732 116 121 128
-0.54677790 0.49717316 1.66560209 117 120 129
-0.54675563 0.50905894 1.66919184 130 137 139
-0.55350903 0.51550455 1.68315986 134 143 143
-0.55352207 0.52755024 1.68911556 168 171 172
-0.55640021 0.53852621 1.70539099 172 173 173
-0.55998445 0.54352403 1.71184814 174 175 175
-0.52644902 0.48292845 1.61788034 114 119 126
-0.53024759 0.49204835 1.62955399 110 115 122
-0.53954703 0.48947772 1.64937186 118 122 131
-0.53626204 0.50617500 1.64803743 135 147 148
-0.50087500 0.34786534 1.23702896 133 140 144
-0.50386255 0.35572680 1.24744574 125 134 137
-0.50389703 0.36688266 1.24884843 106 113 120
-0.51384187 0.47936860 1.58756876 109 113 121
-0.48177957 0.31697915 1.19839541 130 136 142
-0.48458830 0.31929979 1.20193589 133 136 144
-0.48445725 0.32512555 1.21595439 113 116 125
-0.48885374 0.33303504 1.22832221 130 133 138
-0.48297363 0.33519254 1.25160375 128 134 139
-0.48754491 0.33815527 1.26060864 128 134 140
-0.49197640 0.34923864 1.23279372 116 123 128
-0.49213678 0.35206723 1.24753377 112 121 127
-0.48755955 0.34241513 1.26158631 118 127 132
-0.48130307 0.37311366 1.15780079 93 97 104
-0.48703999 0.37527929 1.16752667 96 103 107
-0.48705350 0.37375320 1.18686006 111 116 121
-0.48452105 0.36915421 1.21216461 131 139 142
-0.48938168 0.36649549 1.23160372 115 122 130
-0.49680834 0.36630706 1.24156010 105 110 121
-0.48239121 0.38329175 1.15681207 96 101 107
-0.48609139 0.38241579 1.16326937 84 91 95
-0.49778469 0.38601510 1.18513468 84 90 95
-0.46260378 0.21403101 1.11863339 132 140 146
-0.46284988 0.21279644 1.12969710 122 132 135
-0.47708075 0.31529390 1.19799270 125 130 135
-0.47637751 0.31670952 1.20657800 127 131 135
-0.47701897 0.32050104 1.20908777 119 125 131
-0.47514842 0.32808291 1.22958867 124 129 139
-0.47328964 0.33547291 1.24460248 117 121 133
-0.46926730 0.34847944 1.23546470 123 134 140
-0.47453907 0.34484825 1.24804325 107 115 128
-0.46452241 0.36894135 1.13085214 93 98 105
-0.47255005 0.37017267 1.15104177 91 94 103
-0.47299540 0.36744804 1.16821820 107 111 119
-0.46445495 0.36238520 1.19140664 109 115 118
-0.47486818 0.36565024 1.20982508 115 124 127
-0.47685574 0.36330053 1.22659514 114 124 129
-0.47512469 0.38007556 1.14412856 104 107 115
-0.44422482 -0.34648838 0.85437194 115 146 165
-0.45240760 -0.34764132 0.86026883 111 147 163
-0.44781632 0.21111248 1.11232713 126 133 137
-0.44602657 0.21435178 1.12517496 115 123 128
-0.44086396 0.22348495 1.12731528 125 133 135
-0.44070655 0.35899504 1.09780127 106 115 125
-0.44372589 0.35613005 1.10873122 121 128 134
-0.45190803 0.35858058 1.12732565 119 124 131
-0.45467031 0.35967468 1.16778016 112 117 119
-0.44558351 0.36740708 1.09338552 108 114 121
-0.45173990 0.36595281 1.10740529 106 112 120
-0.45603016 0.36265029 1.12902663 106 111 119
-0.45693836 0.36098453 1.14315653 121 126 136
-0.45532415 0.36374948 1.16649582 123 130 136
-0.42152725 -0.34141308 0.83828370 108 146 167
-0.43345983 -0.34327654 0.85036797 115 143 165
-0.42150295 -0.33893134 0.83871581 110 143 168
-0.42559071 -0.33491017 0.84503599 112 144 164
-0.42188037 0.03957932 0.58171507 132 138 137
-0.42082237 0.05128837 0.57885786 114 120 122
-0.42215954 0.04919983 0.58201496 119 124 125
-0.42431897 0.06049095 0.58138278 84 91 96
-0.43360177 0.20629714 1.11863339 119 127 133
-0.42945848 0.21296737 1.12728442 115 122 129
-0.42766008 0.22769995 1.11053541 118 124 127
-0.43031311 0.22355224 1.12535836 112 120 123
-0.42587483 0.35952333 1.07944560 94 101 112
-0.43449177 0.35572683 1.09329407 112 122 128
-0.43387146 0.36407373 1.08597948 104 112 118
-0.40804495 -0.34321581 0.83405761 115 145 165
-0.41660283 -0.34197943 0.84044383 112 146 166
-0.41075727 -0.33976138 0.83897507 115 145 166
-0.41719833 -0.33621997 0.84221998 112 144 165
-0.41904141 0.03927135 0.57964256 123 129 128
-0.41831294 0.03959001 0.58188341 131 135 134
-0.41654221 0.05097050 0.57976647 124 130 130
-0.41828022 0.04782052 0.58137027 126 131 130
-0.41554578 0.21200860 1.11817268 112 118 126
-0.41770812 0.21126805 1.12380256 117 125 132
-0.41498437 0.22630663 1.10567835 118 126 129
-0.41748040 0.22469604 1.12364346 117 124 130
-0.36143606 0.28686175 1.30993956 99 102 111
-0.35017763 0.27339484 1.30785737 109 114 119
-0.35265003 0.29700594 1.29740185 128 137 137
-0.34946345 0.28925563 1.31058087 113 119 126
-0.34241759 0.30761488 1.27324712 108 112 121
-0.34693073 0.30519635 1.29279468 110 118 122
-0.34486855 0.30220793 1.30615723 90 100 108
-0.34683645 0.32100749 1.29245466 107 111 119
-0.32726647 0.05836938 0.61356562 128 134 136
-0.32574775 0.06583317 0.61299833 152 157 156
-0.32371687 0.29898695 1.26813875 129 139 143
-0.33184342 0.29799221 1.29370686 101 108 122
-0.33758278 0.28950119 1.30576101 118 124 130
-0.32011729 0.30367634 1.25768435 117 127 131
-0.33086992 0.30867884 1.26931611 111 119 124
-0.33540287 0.30691427 1.28897445 107 117 124
-0.31664991 0.06570136 0.61131810 144 149 148
-0.30229796 0.25880539 0.73871269 120 126 126
-0.30363718 0.25857147 0.74355314 112 119 121
-0.30207682 0.26252446 0.73799882 123 126 127
-0.30414755 0.26373066 0.74323304 112 119 121
-0.31537851 0.29895919 1.25613161 131 136 139
-0.31803669 0.29826164 1.26236844 135 145 144
-0.31627967 0.30492878 1.25587282 106 114 119
-0.31883106 0.31215261 1.26119524 102 112 117
-0.28849445 0.25522860 0.73455259 105 115 119
-0.29653784 0.25514708 0.74106893 101 109 111
-0.28996780 0.26262536 0.73567724 108 115 118
-0.29045168 0.26738337 0.74226208 129 134 138
-0.27616239 0.25355975 0.72894571 115 128 130
-0.27853153 0.26182411 0.73428679 139 149 147
-0.20699907 0.15475334 0.61577434 123 127 132
-0.20912093 0.16108594 0.61629728 137 141 143
-0.19910650 0.15670736 0.61229958 137 144 144
-0.18083493 0.17519349 0.91566018 110 117 124
-0.18563295 0.16888906 0.93119420 123 130 135
-0.19228810 0.17295571 0.94414272 120 128 134
-0.18711726 0.18057659 0.93117186 115 121 128
-0.19238845 0.18130249 0.94759450 120 128 134
-0.17006711 0.11404993 0.57000965 134 138 143
-0.16876350 0.12055614 0.56846365 105 112 121
-0.17505558 0.15828496 0.91855264 116 121 127
-0.17760587 0.15914755 0.92355835 122 127 129
-0.16132307 0.17298448 0.49457243 104 111 120
-0.17019419 0.16792199 0.91430402 129 133 139
-0.17363748 0.16468083 0.92368168 131 136 143
-0.14141272 0.14781463 0.49808598 128 135 141
-0.14676484 0.15352265 0.50236190 124 132 138
-0.15120891 0.17258053 0.49505014 133 142 147
-0.15103796 0.16539847 0.50228513 121 130 134
-0.15869877 0.16868798 0.89787000 165 166 164
-0.12069516 0.15139579 0.82872978 149 158 160
-0.12340039 0.14800716 0.85467621 111 113 125
-0.12898937 0.14893584 0.86507461 115 120 127
-0.10093914 0.11013971 0.49469992 130 136 141
-0.11433870 0.15120465 0.82655287 186 189 190
-0.11185883 0.14776679 0.85273582 165 166 171
-0.09012725 0.09933077 0.49005972 128 134 141
-0.09363634 0.10748646 0.49196695 135 139 145
-0.04201042 -0.44999576 1.53518244 41 29 31
-0.04361052 -0.45148670 1.54289948 41 29 31
-0.04197501 -0.42714223 1.59129889 53 37 38
-0.04232270 -0.42097765 1.60447997 57 39 42
-0.04611817 -0.08287564 0.50145854 92 63 58
-0.04774968 -0.06852258 0.49992025 100 70 64
-0.04804393 -0.07355119 0.50157900 93 65 59
-0.04132971 0.61684316 1.47048128 160 161 165
-0.04045222 0.62116021 1.43926084 0 0 0
-0.04079871 0.62397170 1.45158851 0 0 0
-0.04201660 0.62569844 1.46913878 22 22 22
-0.02460596 -0.46044138 1.53716969 36 27 28
-0.03465764 -0.44245686 1.51204820 41 28 30
-0.03156512 -0.45101644 1.53340453 40 28 30
-0.02789688 -0.44691152 1.54442233 44 32 33
-0.02523542 -0.44497171 1.57649267 51 36 37
-0.02692724 -0.44407197 1.58439922 49 36 37
-0.03470903 -0.43527062 1.51428990 46 34 34
-0.03763450 -0.43753763 1.52679121 47 34 34
-0.03806295 -0.43851829 1.54417276 49 36 36
-0.03174488 -0.43061179 1.59322303 54 38 39
-0.02627811 -0.42500934 1.60475638 55 40 39
-0.03594975 -0.40533254 1.59619847 57 43 44
-0.03452634 -0.41763149 1.60334067 57 42 42
-0.03927064 -0.39873391 1.59316748 59 43 43
-0.02262414 -0.19192131 0.47453105 113 91 80
-0.02469223 0.25146813 0.61469549 152 153 154
-0.02896072 0.24612855 0.62220781 155 156 156
-0.02464923 0.26061337 0.61306201 0 0 0
-0.02016572 0.59242648 1.41227472 160 160 160
-0.02281801 0.59782243 1.42515031 120 120 121
-0.02012380 0.61068225 1.40933859 0 0 0
-0.02515006 0.61200742 1.43088419 13 13 13
-0.02814139 0.61269254 1.44572308 55 55 55
-0.03394570 0.61456255 1.46504448 136 137 139
-0.02677017 0.62116021 1.43926084 0 0 0
-0.03233879 0.62257058 1.45198788 0 0 0
-0.03441051 0.62396843 1.47033046 26 27 27
-0.03392566 0.62600017 1.48011315 0 0 0
-0.01750880 -0.42589343 1.61788034 55 42 41
-0.01759277 -0.42512628 1.62563992 55 43 40
-0.01746711 -0.41929996 1.61402822 57 44 42
-0.01769857 -0.19225306 0.47527529 113 92 81
-0.01057502 0.12981695 0.47272172 176 177 177
-0.00146711 0.12752759 0.48193970 178 179 180
-0.00266525 0.17615993 0.59684638 149 150 151
-0.00440626 0.17284028 0.60133672 159 159 159
-0.00388015 0.18068427 0.59533142 160 161 160
-0.00753575 0.18182129 0.60043561 176 176 174
-0.00087573 0.18812652 0.92590374 195 196 195
-0.01865764 0.25025366 0.61116114 168 169 170
-0.00061963 0.58986801 1.37225068 0 0 0
-0.00704720 0.59153378 1.39104764 52 53 52
-0.01035871 0.59605311 1.40642977 8 8 8
-0.01361607 0.60783110 1.40838818 0 0 0
-0.01222790 0.61282571 1.42961168 0 0 0
0.01764121 -0.14348706 0.62371478 74 56 52
0.01726843 -0.13007543 0.62576499 85 64 60
0.01734286 -0.11018530 0.62644505 95 69 67
0.01823309 -0.09421238 0.62455884 108 82 74
0.01929820 -0.06070763 0.62942606 128 92 83
0.01586052 -0.04891888 0.62984755 128 96 84
0.01662762 -0.03422690 0.62948374 131 100 87
0.00523628 0.13371782 0.47338680 159 161 164
0.00102887 0.12725917 0.48060398 180 181 182
0.00734334 0.14056405 0.47531344 164 165 166
0.00472740 0.17477624 0.57717682 151 153 159
0.00174437 0.17443035 0.59149250 150 151 154
0.01528434 0.17768520 0.90817449 163 170 174
0.01909377 0.18643103 0.47781033 166 168 169
0.01598676 0.18750228 0.48526543 162 166 167
0.00075399 0.18034299 0.59049815 152 154 158
0.01901534 0.18395380 0.87741727 171 172 175
0.01567788 0.18507890 0.89133129 176 178 181
0.00929669 0.18800704 0.91084454 165 167 172
0.00487831 0.18585426 0.92582763 150 151 152
0.01857455 0.41979209 1.87262940 170 172 178
0.01862600 0.42420059 1.87781680 166 168 172
0.01714123 0.42939056 1.89356744 161 165 170
0.01563419 0.43356351 1.90956457 161 166 172
0.01244496 0.43504664 1.92582905 169 173 174
0.00919468 0.43878630 1.94238353 173 174 176
0.01883470 0.44864565 1.89885676 179 183 185
0.01681716 0.44999774 1.90711908 174 177 179
0.01463426 0.44641431 1.92219198 161 166 170
0.00973469 0.44858932 1.94797745 159 161 165
0.01872977 0.46246493 1.88827813 169 169 169
0.01784064 0.46217494 1.90955448 171 171 174
0.01240970 0.46036789 1.92037344 177 178 182
0.02274684 -0.14169627 0.61964518 83 60 59
0.02146841 -0.14340804 0.62185793 78 57 54
0.02175290 -0.12965663 0.62476050 94 69 65
0.02252283 -0.10959908 0.62662229 105 78 72
0.02247494 -0.09004033 0.62511892 115 87 79
0.02757748 -0.06177393 0.61516215 128 97 85
0.02359479 -0.06892397 0.62795952 124 94 82
0.02776567 -0.04771511 0.61617929 133 104 91
0.02350922 -0.04948039 0.62818695 133 103 91
0.02848122 -0.03760054 0.61626632 140 110 97
0.02446577 -0.03303325 0.62906363 140 110 95
0.03256725 0.07688796 0.45554042 169 170 174
0.03196216 0.08102527 0.45372156 171 173 176
0.03456706 0.17266167 0.49480405 151 152 153
0.03382243 0.17718113 0.50078239 163 167 167
0.02359642 0.18450510 0.47769247 147 148 149
0.03525981 0.18434617 0.49487211 158 159 159
0.03719691 0.18543197 0.50276694 157 159 160
0.02861206 0.19820428 0.72596445 143 150 157
0.02077089 0.18398875 0.87469918 163 165 167
0.03138859 0.21023707 0.72975115 155 158 163
0.03246217 0.22164402 0.72409080 175 177 179
0.03959087 0.39998156 1.79812157 158 157 157
0.03959087 0.40930530 1.79812157 150 150 153
0.03826053 0.41489226 1.80893931 153 154 157
0.03897171 0.43807818 1.77000087 146 148 156
0.03955595 0.42860036 1.79653593 170 170 171
0.03712548 0.42860653 1.81074542 178 178 177
0.03389214 0.42826675 1.82598042 179 181 181
0.03115569 0.43251492 1.85090873 180 181 184
0.02831073 0.43637509 1.87435853 178 181 183
0.02530428 0.43716457 1.89179448 170 176 180
0.02217885 0.43674093 1.90419054 164 169 176
0.03804361 0.45304071 1.72784913 173 173 173
0.03549445 0.45717917 1.74940121 179 179 179
0.03426177 0.44360338 1.79022678 139 143 152
0.03353294 0.44399837 1.80651611 134 135 144
0.03067396 0.44630352 1.82228994 125 125 132
0.03016665 0.44695829 1.85554647 163 163 163
0.02747544 0.44892228 1.87262940 169 169 171
0.02523386 0.45061968 1.88652972 170 170 172
0.02218926 0.44846687 1.90508453 177 180 182
0.03817329 0.46057567 1.73373878 159 159 159
0.03558628 0.46442509 1.75392753 168 168 168
0.03235934 0.46762290 1.77644906 174 174 176
0.02187166 0.46314844 1.87781680 153 153 153
0.02205494 0.46375671 1.89355266 154 154 156
0.02221008 0.46207282 1.90687251 160 160 163
0.04063354 0.16952978 0.48389139 163 165 166
0.04079703 0.18210612 0.49651541 146 146 147
0.05836642 0.23093176 0.69111463 168 169 169
0.05743185 0.27473077 0.71426542 153 154 152
0.05750496 0.28132600 0.71843329 137 138 139
0.05706595 0.28408815 0.72184457 131 133 137
0.05841977 0.39557046 1.55480599 164 165 167
0.05766858 0.39562847 1.57103127 170 171 174
0.05559577 0.39751945 1.58944952 170 170 174
0.04929336 0.39703705 1.79121838 135 134 139
0.05371894 0.39481302 1.80290389 136 136 140
0.05760144 0.40194540 1.56920248 163 163 165
0.05388345 0.40765630 1.59188489 167 169 170
0.05139301 0.41126706 1.60830468 169 170 171
0.04972288 0.41681021 1.62175083 175 176 176
0.04824726 0.41851249 1.66763312 171 176 179
0.04870656 0.41522389 1.68350856 156 159 167
0.04941366 0.41042266 1.74986200 169 171 171
0.04888609 0.40812324 1.77080293 161 162 166
0.04679073 0.40787295 1.78972866 149 149 154
0.05854908 0.40898649 1.80771675 163 166 169
0.05902108 0.41795638 1.82228994 173 174 179
0.05441801 0.42510717 1.59504843 128 129 137
0.05436992 0.42528475 1.61403280 141 142 147
0.05287820 0.43267843 1.65018821 144 144 148
0.04936389 0.43290716 1.66642666 164 164 165
0.04594127 0.43113064 1.68882127 175 177 178
0.04508685 0.42961467 1.71186444 164 169 174
0.04517952 0.42706357 1.72668917 151 155 161
0.04252836 0.43129662 1.74866430 149 152 158
0.04378813 0.42961036 1.77924371 154 154 156
0.04567120 0.42663313 1.79258853 167 167 166
0.05131892 0.44320801 1.67380702 131 131 139
0.04890893 0.44324619 1.69050336 155 154 154
0.04568495 0.44767840 1.71063166 160 160 162
0.04311468 0.45289499 1.72163215 161 161 161
0.07814446 0.17977447 0.49016143 143 146 145
0.07757163 0.18631009 0.47646771 145 145 146
0.07681462 0.18395253 0.49034699 156 159 160
0.07659799 0.21419723 0.67735951 166 170 172
0.07078455 0.21397594 0.68577112 136 140 145
0.07556570 0.22761865 0.67619788 154 159 161
0.06730380 0.22727208 0.68696724 140 142 144
0.06240013 0.26195577 0.69778314 137 137 137
0.06372988 0.27408388 0.70703959 134 137 139
0.06257372 0.28130286 0.71199014 119 123 129
0.06596275 0.39090391 1.55151147 158 159 162
0.07091769 0.39379898 1.56376642 153 153 153
0.07191621 0.39658523 1.58571410 166 167 166
0.07130079 0.39376077 1.79456016 152 152 155
0.06522707 0.39741920 1.80531204 144 143 149
0.07905023 0.41522941 1.77691483 152 151 156
0.06432418 0.41159903 1.79455388 176 179 179
0.06717506 0.40681019 1.80862593 169 170 174
0.07802418 0.40748306 1.82474583 160 160 163
0.06978743 0.42273040 1.79574940 139 139 146
0.07436965 0.42198700 1.81254506 163 164 167
0.07191308 0.42491923 1.82967981 168 169 172
0.07109843 0.43382025 1.84964013 145 146 152
0.07208185 0.44306172 1.87522310 121 121 134
0.09571374 -0.22609527 0.95670429 76 54 52
0.09551906 -0.22341009 0.96917109 80 58 55
0.08937302 -0.22543631 0.99561307 85 63 59
0.08829514 -0.22541018 1.00865897 88 65 61
0.09411818 -0.21371418 0.97494198 89 65 60
0.09001815 -0.21047277 0.98753206 94 69 62
0.08952454 -0.21150808 1.00834710 95 71 62
0.08920211 -0.20946548 1.02525032 95 72 64
0.08974129 -0.20442374 1.04387474 97 75 68
0.09334653 -0.18958001 0.97413048 98 73 66
0.09118396 -0.18946248 0.98792024 100 75 68
0.09035641 -0.18999964 1.01040149 100 76 68
0.08995038 -0.19137888 1.02754827 101 77 70
0.08956659 -0.19682540 1.04184254 102 77 70
0.09268228 -0.17525627 0.97387788 102 76 69
0.09531675 -0.16952605 0.98908629 105 79 72
0.09131103 -0.17016117 1.00814875 107 81 73
0.09132584 -0.16833278 1.02489299 109 81 72
0.09156190 -0.16810497 1.04406118 109 81 73
0.09530851 -0.14511226 0.97825441 113 87 79
0.09498607 -0.15255597 0.98499636 111 84 74
0.09145508 -0.15051778 1.00329564 113 85 75
0.09156162 -0.15007409 1.02387865 114 87 78
0.09187246 -0.15084267 1.04760246 115 87 80
0.09209561 -0.15609591 1.07126026 113 87 78
0.09520137 -0.12970791 0.97074165 115 89 81
0.09156688 -0.13001609 0.98582946 118 90 82
0.09147761 -0.12974035 1.00354288 118 90 82
0.09108748 -0.13198089 1.02568824 119 90 81
0.09168682 -0.13065013 1.04548559 120 94 78
0.09519760 -0.11054743 0.96948342 121 92 85
0.09165173 -0.11648739 0.98674297 119 90 83
0.09163574 -0.11694078 1.00527759 119 89 81
0.09613898 -0.09037966 0.97005137 129 100 90
0.09234086 -0.07007934 0.95849006 136 109 99
0.09608461 -0.06928403 0.96747806 136 109 97
0.09410575 -0.05138848 0.95747530 142 115 99
0.09661046 -0.05360867 0.96458897 142 114 98
0.09595834 0.15906201 0.57989037 110 110 119
0.09836034 0.15797995 0.58223920 119 120 126
0.08477258 0.17962864 0.47738862 115 124 125
0.09747766 0.16271775 0.57666058 123 124 132
0.09806845 0.16165392 0.58200723 127 127 135
0.09880482 0.17950386 0.81969994 173 174 179
0.09571473 0.17164233 0.82464963 167 171 174
0.08442211 0.18649114 0.47871699 125 129 133
0.08457505 0.19155575 0.48319864 117 124 129
0.09797457 0.18605942 0.77511755 173 175 176
0.09707675 0.19688568 0.78397807 173 176 179
0.09829278 0.18273571 0.81936995 177 178 181
0.09500787 0.18198819 0.82281870 172 173 178
0.08184157 0.21401563 0.67327677 166 167 169
0.08064358 0.20935952 0.68474537 177 181 182
0.09588961 0.20467383 0.79456920 165 169 171
0.09502836 0.21342598 0.80529186 157 157 158
0.08282471 0.22624950 0.65878701 179 180 179
0.08238917 0.22460757 0.67156679 152 154 157
0.09097738 0.39065632 1.76995254 153 154 158
0.08658037 0.39503979 1.78982201 145 144 149
0.08643876 0.39792919 1.80290389 144 143 151
0.08694216 0.40373241 1.79179577 140 142 146
0.08492599 0.40338826 1.81062717 147 148 153
0.08421852 0.40850735 1.82228994 152 157 158
0.10178349 -0.22610238 0.95693493 69 49 47
0.10521745 -0.22368282 0.96889020 72 56 53
0.10581333 -0.21004147 0.97621037 82 60 56
0.10977305 -0.21416156 0.98103017 82 59 57
0.11010691 -0.19404526 0.97793207 91 66 64
0.10773550 -0.18816811 0.98240794 90 64 63
0.11563379 -0.17117476 0.45923563 113 89 79
0.11375927 -0.16974632 0.46147491 112 89 78
0.10890154 -0.17739899 0.97807206 95 69 64
0.10631312 -0.16902666 0.98865819 98 72 67
0.11942850 -0.15583538 0.97679075 111 86 77
0.10452482 -0.15254799 0.98735875 104 79 74
0.10048718 -0.13171659 0.97320755 113 87 80
0.10162968 -0.08446437 0.97149063 130 104 91
0.10899946 -0.06883250 0.97015658 132 105 93
0.11006631 -0.05357737 0.96582066 137 109 100
0.11166596 0.15788032 0.57819722 148 149 151
0.10584212 0.15745423 0.58285236 143 145 148
0.10243732 0.15820225 0.81760279 147 149 156
0.10034294 0.15986218 0.82069230 151 156 163
0.10920587 0.16453544 0.57727520 141 143 148
0.10573581 0.16157871 0.58206514 155 157 160
0.10364732 0.17414266 0.81878306 170 172 174
0.10434516 0.17054377 0.82417951 167 169 172
0.10999566 0.19239039 0.77813765 153 154 156
0.10661819 0.19482825 0.78519260 157 158 159
0.10061260 0.18171835 0.81903996 169 170 174
0.11964918 0.19968256 1.15878952 163 166 172
0.11759376 0.19274096 1.17062904 160 160 162
0.11806565 0.18545446 1.18306094 173 175 175
0.11220642 0.20216418 0.77873874 149 151 157
0.10639038 0.20543493 0.79105939 141 143 147
0.10384179 0.21532811 0.80530556 130 132 137
0.11784776 0.20002449 1.16077375 165 168 174
0.10240200 0.22084153 0.80894072 159 159 156
0.13161284 -0.26432837 0.93128016 51 37 37
0.13383487 -0.25734842 0.93240277 54 40 39
0.12178332 -0.20337003 0.97200457 96 73 63
0.12762751 -0.20542494 0.98798282 97 73 64
0.12195586 -0.19074303 0.97405481 100 75 68
0.12820120 -0.18926883 0.99140676 103 77 70
0.12300446 -0.17105399 0.97698716 109 82 77
0.12286661 -0.16911354 0.98398497 110 83 79
0.13825276 -0.14545910 0.59554075 57 44 41
0.12200886 -0.15410186 0.97381213 112 86 78
0.13799597 -0.13615527 0.59334892 72 52 49
0.13641722 -0.10748763 0.59911007 92 66 65
0.13808455 -0.10645121 0.60373300 91 66 62
0.13840228 -0.09255174 0.60693432 99 73 68
0.12432710 -0.08588515 0.97109940 132 102 93
0.13893412 -0.07941485 0.61016369 101 78 72
0.12432109 -0.07057376 0.96950782 137 108 98
0.12350206 -0.05439264 0.96418770 140 112 104
0.13652805 0.03414512 0.65013330 139 140 147
0.13784452 0.04253794 0.64711997 140 142 153
0.13264283 0.17817103 1.15566639 145 147 149
0.12439657 0.17771480 1.16577188 146 146 146
0.13972059 0.18516214 0.45812351 88 96 101
0.13148013 0.19445167 1.13495832 148 149 153
0.12996383 0.18913641 1.15436480 136 137 145
0.12433539 0.18784100 1.16477407 150 150 152
0.14521738 -0.26292217 0.93278511 52 38 38
0.14655850 -0.25703647 0.93487559 53 39 37
0.14294113 -0.14434552 0.59270268 53 40 38
0.14304101 -0.13625493 0.58922546 62 45 43
0.14333634 -0.10384706 0.60357281 85 62 59
0.15790959 -0.08264887 0.48212223 156 134 117
0.14343171 -0.09095763 0.60888514 95 70 65
0.15982191 -0.07612360 0.47975361 156 134 117
0.15753563 -0.07703990 0.48095786 155 132 115
0.14479914 -0.06812771 0.61057541 102 77 74
0.15571339 -0.04625111 0.47555778 151 128 112
0.14860360 -0.04971638 0.61248587 108 82 76
0.15658301 -0.03877023 0.47471500 155 131 113
0.14649070 -0.03432491 0.61343510 116 88 82
0.14425510 0.03384986 0.65186745 151 153 156
0.14523459 0.04431660 0.64861766 140 143 149
0.15609428 0.07990381 0.58742791 147 151 158
0.15777466 0.08325060 0.58954608 132 135 142
0.14291080 0.17433037 0.45904751 147 149 150
0.14231243 0.16977795 0.46136176 151 152 153
0.14850696 0.17055972 1.16515918 156 158 164
0.14254150 0.18304955 0.45728826 115 121 125
0.14099974 0.18085601 0.46156990 120 127 131
0.14871237 0.18111118 1.16448908 178 178 179
0.17823450 -0.28337848 1.33509332 95 70 58
0.17931351 -0.27510610 1.31757528 94 71 60
0.17811423 -0.27380954 1.33224207 95 72 63
0.17712101 -0.26646572 1.34541007 101 74 67
0.17734389 -0.25721976 1.33706474 102 76 69
0.17739251 -0.14009476 0.45974359 160 139 123
0.17768170 -0.14185002 0.46104077 159 138 122
0.17793123 -0.13632228 0.45957163 159 137 119
0.17829181 -0.13813194 0.46066681 159 138 121
0.16130104 -0.08188066 0.48231571 156 132 117
0.16092323 -0.07584948 0.47933022 155 132 116
0.16067789 -0.07705198 0.48066109 156 132 115
0.16087464 -0.04220711 0.47497354 152 129 110
0.16026793 -0.03954892 0.47371897 155 131 112
0.16653121 0.07900116 0.59152878 120 124 135
0.16655751 0.08672528 0.59205414 135 137 144
0.17423068 0.16947295 0.67592046 158 159 161
0.16870200 0.16854487 0.68883563 158 162 164
0.16455468 0.17227497 0.70201517 155 158 160
0.16645028 0.25740862 0.66778151 137 138 140
0.16692911 0.26706427 0.67360461 151 152 149
0.16321781 0.26980237 0.68277589 169 171 168
0.16693062 0.28408392 0.68437265 67 67 67
0.19140798 -0.28322107 1.31537349 91 68 62
0.18458123 -0.28417809 1.32271707 94 68 62
0.19027968 -0.27445979 1.31339068 91 69 63
0.18817273 -0.27069137 1.33052917 93 70 64
0.18704340 -0.26822599 1.34591484 99 73 66
0.18301598 -0.14124754 0.45951600 160 139 121
0.18098157 -0.14187663 0.46140294 160 139 120
0.18230130 -0.13639299 0.45841220 160 138 117
0.18044449 -0.13843506 0.46101722 159 138 118
0.20172386 -0.27127939 1.36122859 96 72 64
0.21568851 0.17060006 0.51311229 153 156 158
0.21076816 0.17017035 0.52316416 147 150 150
0.21990474 0.18123142 0.51985568 157 158 160
0.21611476 0.18446369 0.52445065 150 151 151
0.21622496 0.43689334 1.22363749 138 144 145
0.21648109 0.44792173 1.21777153 105 108 118
0.21389368 0.44824393 1.22746193 119 123 131
0.21210344 0.45431789 1.25008311 121 125 132
0.21068211 0.45669000 1.26002204 124 126 130
0.21123715 0.46297848 1.21922994 136 146 147
0.21052279 0.46452828 1.22891890 125 134 139
0.21158508 0.46846659 1.24930565 111 115 124
0.21218086 0.46798013 1.26355040 102 107 116
0.23848660 0.07671840 0.45263235 179 180 179
0.22605826 0.18523698 0.51748022 165 168 168
0.22326096 0.18746091 0.52341583 158 159 158
0.23514756 0.33229899 1.81546066 121 123 132
0.22814228 0.33065420 1.82720172 143 146 152
0.23791333 0.34458743 1.81740439 129 131 135
0.23666459 0.34477429 1.82392720 144 145 149
0.22522558 0.43768477 1.22363544 151 155 158
0.22715804 0.44649312 1.22730655 136 139 142
0.24457313 0.07480606 0.45385990 170 173 173
0.25196510 0.11828525 0.45151111 169 171 171
0.25366521 0.12422119 0.45362892 161 163 164
0.24768902 0.17420368 0.89431795 181 182 184
0.24709933 0.17799445 0.90974451 171 172 177
0.25157183 0.18228963 0.91607579 178 179 182
0.25121087 0.18716976 0.92851784 161 161 166
0.24787935 0.19382996 0.95061602 143 141 145
0.24807756 0.19880793 0.96497107 147 145 147
0.25399603 0.20909098 0.95376767 158 159 160
0.24898406 0.21138110 0.96550504 168 170 172
0.25817757 0.30745811 1.73208584 173 172 173
0.25589496 0.31012335 1.74715165 173 173 173
0.25269838 0.31415130 1.77292749 171 172 172
0.24997690 0.31572008 1.78911600 175 175 175
0.25958264 0.32001135 1.75165856 149 148 154
0.25946067 0.32670021 1.77149701 152 151 153
0.25359818 0.32775799 1.79504652 154 155 158
0.24730929 0.33406559 1.80684566 133 133 143
0.25991309 0.34260333 1.77458596 170 172 177
0.25835410 0.34668796 1.79574311 158 164 170
0.25027732 0.34635594 1.80814535 135 138 148
0.24170256 0.34551373 1.82228994 130 133 143
0.27607335 0.05621450 0.49184025 122 127 135
0.27780119 0.06532102 0.49525638 127 134 139
0.27204733 0.13543558 0.47207118 141 143 142
0.27670647 0.13455364 0.59229100 158 161 163
0.27643873 0.14271964 0.47542183 136 138 140
0.27739001 0.14136218 0.59396194 163 170 171
0.27043657 0.19019339 0.91759221 178 179 179
0.26793195 0.19152372 0.92762055 177 178 179
0.26589502 0.19794329 0.94414567 169 169 172
0.26912200 0.20484224 0.91731638 182 183 184
0.26831110 0.20720021 0.93101691 178 180 182
0.26718805 0.20699333 0.95159394 164 165 168
0.26933437 0.21136938 0.96394636 153 153 159
0.26113968 0.29673194 1.72199698 177 177 180
0.26636325 0.31315813 1.73048932 148 149 152
0.26912682 0.31877629 1.74489820 139 141 147
0.26792664 0.32335145 1.73707286 120 122 131
0.26726513 0.32870047 1.74954359 125 128 136
0.26370227 0.33392118 1.76921656 121 122 129
0.26111138 0.33847782 1.79337722 141 141 146
0.26110294 0.34522401 1.77229351 173 175 176
0.26025230 0.35025504 1.79812157 168 172 173
0.26094446 0.34339614 1.80290389 132 136 143
0.28107850 0.05695206 0.49190574 131 134 140
0.28159392 0.06609315 0.49481402 128 132 138
0.28733177 0.13373736 0.59433691 168 171 172
0.29342750 0.12837435 0.60043561 141 145 149
0.29765476 0.13896872 0.76356579 168 168 171
0.28136574 0.14322063 0.47421724 132 139 140
0.29848416 0.14967321 0.75940110 165 165 172
0.29645654 0.14438787 0.76441503 172 174 176
0.31920585 0.05877872 0.76082134 127 128 131
0.31693265 0.06338041 0.75823039 147 148 150
0.31526080 0.06009373 0.76082134 161 162 162
0.31448934 0.13917163 0.75113802 168 174 174
0.30995630 0.13824754 0.77420952 142 144 149
0.31275840 0.13474663 0.78103545 155 159 163
0.31349560 0.14845833 0.75326031 156 158 161
0.30935919 0.14868194 0.76642172 155 157 159
0.31436590 0.16055241 0.75552516 168 168 168
0.31162253 0.16063492 0.76369415 174 174 174
0.33096857 0.05294707 0.76441830 153 153 155
0.33485045 0.04398929 0.78437921 151 151 153
0.33199650 0.07680574 0.47424549 158 161 161
0.32800386 0.06550808 0.75911873 135 138 146
0.32968242 0.06251899 0.76172915 142 144 150
0.33099116 0.08161531 0.47505049 150 152 155
0.32497761 0.15273828 0.75438423 162 165 168
0.32741958 0.15663318 0.76426259 150 153 158
0.33052098 0.17880718 0.50217535 126 130 133
0.32804281 0.16248278 0.75996846 174 180 180
0.32928269 0.16165495 0.76643133 167 171 172
0.33146763 0.18372999 0.50359081 145 147 146
0.34314444 0.05453250 0.76778255 153 155 157
0.34092382 0.06829288 0.75940174 129 131 139
0.34354853 0.06410897 0.76658030 140 140 145
0.34115356 0.17973116 0.50065896 161 162 160
0.34184779 0.18167496 0.49946110 164 166 159
0.34118842 0.18226849 0.50134711 160 162 156
0.37239962 0.08321739 0.45923220 155 159 161
0.37752081 0.09293563 0.47092568 160 164 163
0.38203690 0.09084147 0.46886129 168 173 171
0.41816111 -0.32088539 0.53019510 104 121 122
0.41679562 -0.31864131 0.52935609 102 123 122
0.40848743 0.13445222 0.49178027 155 160 158
0.40921537 0.14062541 0.49027884 164 165 164
0.42659039 -0.32225181 0.53107019 106 122 124
0.42457684 -0.31844791 0.53049584 101 123 123
0.43397033 0.13146930 0.55615248 156 160 158
0.43394735 0.13271007 0.56307473 141 143 139
0.43503580 0.14118327 0.57083437 146 150 148
0.43754158 0.20311116 0.45163111 146 152 149
0.44099834 0.12702167 0.55801617 146 148 152
0.44114154 0.12891149 0.56163506 139 142 142
0.44421998 0.13983530 0.78784814 186 186 185
0.44398579 0.14210491 0.77784517 168 169 169
0.44573277 0.14741772 0.79190069 162 162 163
0.44781521 0.15371700 0.80216286 148 149 151
0.45275871 0.16447248 0.80758648 171 172 172
0.45864818 0.16992904 0.82135630 185 186 184
0.45058143 0.45263246 1.23702896 178 179 179
0.45173960 0.45704449 1.24614722 176 178 177
0.45417713 0.46692046 1.25557326 166 168 167
0.45411667 0.47161301 1.26418137 164 166 166
0.45742059 0.47623027 1.28632459 161 164 163
0.45628496 0.48612675 1.26863457 160 162 162
0.45710439 0.48968820 1.28961824 141 142 143
0.45648447 0.49543830 1.30590361 117 121 122
0.45568375 0.50563662 1.29459908 139 140 145
0.45769880 0.51243503 1.30615272 127 130 135
0.46008494 0.17241994 0.81969994 184 185 184
0.46246569 0.17091786 0.83076566 184 185 183
0.46837329 0.17655887 0.84632081 178 181 180
0.47197194 0.18083392 0.85269415 171 179 178
0.46043864 0.47833833 1.30113602 168 173 171
0.46138748 0.49593285 1.29279079 148 150 151
0.46113614 0.49174083 1.30566998 136 139 140
0.46662503 0.49135683 1.32617515 155 159 159
0.47225681 0.49545580 1.34769750 164 169 169
0.46135968 0.50275269 1.29740185 147 153 153
0.46103009 0.50973407 1.30280733 148 150 151
0.47038648 0.50277424 1.34236014 137 138 140
0.46238986 0.52372977 1.31629980 142 147 150
0.49767867 -0.26177812 0.57881055 99 113 117
0.49988261 -0.25989670 0.57989037 94 114 118
0.49210287 0.07822039 0.53719256 116 125 127
0.49443711 0.07479933 0.54450321 120 127 130
0.49042926 0.09422067 0.45504584 152 157 157
0.49130601 0.08153405 0.53848116 125 137 139
0.48956729 0.08140476 0.54116022 120 129 131
0.49205115 0.10277150 0.45804804 135 141 141
0.49267861 0.10282895 0.46083784 138 143 144
0.51316601 -0.30015627 0.75405097 93 110 114
0.51172779 -0.29591703 0.75481852 98 110 116
0.50556684 -0.26594997 0.57935037 98 113 118
0.50375580 -0.26835063 0.58060003 95 114 117
0.50650995 -0.25947694 0.57761773 98 114 119
0.50169191 0.07327006 0.55633318 131 136 138
0.50397176 0.07333110 0.56047288 136 143 143
0.52834534 -0.30065858 0.75766368 97 112 116
0.52679534 -0.29453892 0.75654473 96 110 116
0.53347770 0.05403999 0.55757881 141 147 147
0.53371272 0.05102916 0.56024116 158 163 164
0.53182032 0.06047485 0.55552052 138 141 142
0.53571606 0.23998204 0.64072955 169 171 164
0.52967581 0.25169940 0.61941904 123 125 123
0.53216997 0.24912206 0.63136072 120 123 122
0.53611648 0.24443659 0.64240460 144 143 141
0.55502736 -0.18907143 1.19905206 62 62 67
0.55397266 -0.18806213 1.20599598 58 58 62
0.55522907 -0.17793372 1.19980860 59 59 59
0.55697760 -0.17749951 1.21055101 59 59 60
0.55886233 -0.17484450 1.22319531 60 59 60
0.54062990 0.04962178 0.55853131 161 165 165
0.54007602 0.04812417 0.56024116 162 166 165
0.54612914 0.23841552 0.63801712 145 148 147
0.54997730 0.23978113 0.64316112 148 152 149
0.54384834 0.24617158 0.63095113 138 142 137
0.54483584 0.24397072 0.64361778 139 139 135
0.55292118 0.57764381 1.43621159 169 173 174
0.54779524 0.57511604 1.44232309 167 173 171
0.55292118 0.58260858 1.43621159 168 171 172
0.55585130 0.58425216 1.45471684 167 170 171
0.55944932 0.59225569 1.46414292 164 167 169
0.55958968 0.59018457 1.48011315 165 171 169
0.55685814 0.59421599 1.51205814 167 172 172
0.55666691 0.61264715 1.53312020 163 167 168
0.55585289 0.61565995 1.54066324 163 165 165
0.55724931 0.62090605 1.53716969 157 158 160
0.55859289 0.62687277 1.54721311 153 155 156
0.55878252 0.63570502 1.56376642 147 149 149
0.55930448 0.64618629 1.57283485 143 143 143
0.56352419 -0.18726569 1.19980860 57 58 60
0.56243895 -0.18938447 1.20229171 57 58 61
0.56379770 -0.17486770 1.21169825 58 58 61
0.56773043 -0.17110424 1.22363706 58 58 62
0.56136580 0.59442457 1.47581832 163 165 167
0.56461057 0.59919682 1.48661208 163 163 166
0.56025428 0.59946567 1.51653659 170 176 176
0.56002325 0.59694386 1.53022993 165 169 170
0.56688928 0.61026544 1.49373690 160 161 163
0.56598583 0.60920350 1.51252742 161 165 166
0.56361020 0.60980160 1.52844530 164 169 169
0.56181785 0.61235766 1.54241800 163 169 169
0.57203279 0.62440744 1.51823676 161 163 163
0.56972757 0.62695261 1.53246781 163 166 166
0.56600510 0.63371993 1.54659598 160 163 164
0.56213599 0.63644323 1.56557840 144 146 147
0.56737238 0.64267731 1.55126023 152 155 157
0.56621726 0.64928012 1.57172765 145 146 147
0.56255305 0.65302370 1.58799827 140 140 140
0.56625867 0.66529974 1.61595428 139 139 139
0.61884469 0.11886958 0.82168710 139 143 146
0.61453416 0.12758656 0.82792414 160 164 164
0.63839299 -0.20352911 0.61662747 82 103 105
0.63756617 -0.20331971 0.62198245 89 101 106
0.63666671 -0.19189461 0.61676863 86 101 106
0.63659520 -0.19713179 0.62080457 88 100 105
0.63359668 0.11072790 0.81583959 123 128 133
0.62826834 0.11827668 0.82085810 139 145 149
0.62945382 0.13020152 0.82955296 152 155 156
0.62974411 0.13313612 0.84001470 180 181 177
0.63394620 0.14296002 0.83320101 169 175 174
0.63741809 0.17723701 0.65522964 137 142 141
0.63661952 0.18419188 0.65498037 150 156 155
0.63947499 0.18456531 0.66039163 141 146 145
0.64126923 -0.20227318 0.61570604 82 104 105
0.64093911 -0.20586932 0.62315948 87 103 107
0.64164546 -0.19743407 0.61669665 84 102 105
0.64136140 0.12956367 0.83567201 140 144 149
0.64102284 0.14273983 0.83673449 175 183 181
0.64267923 0.17759721 0.65782885 146 151 150
0.64855113 0.17812883 0.66191473 149 154 153
0.64204023 0.18470604 0.65814869 137 143 143
0.65189631 0.19219825 0.66692679 147 152 150
0.66165187 0.19393176 0.67049818 154 158 156
0.68948808 0.38628832 0.93786947 134 135 135
0.69498741 0.39529437 0.94577304 128 130 130
0.69708417 0.40328743 0.93631560 129 130 129
0.69579631 0.40485064 0.94982197 138 139 133
0.70219350 0.39782366 0.94979660 117 121 122
0.70310720 0.40984166 0.95019204 136 136 132
0.70757580 0.41691428 0.96440816 139 138 135
0.70642624 0.42208103 0.95255291 163 165 156
0.70932986 0.42589870 0.97118552 136 139 138
0.70765930 0.42910364 0.98245192 97 100 107
0.72046357 0.43338364 0.97678941 161 170 159
0.72203356 0.44014564 0.98818052 156 165 158
0.77981371 0.08287068 1.27184212 150 151 153
0.79455056 0.05747998 1.27105890 138 141 139
0.79261333 0.05551112 1.28308014 139 143 142
0.79165710 0.06940638 1.27047992 148 150 149
0.78753859 0.07033775 1.28648556 144 146 146
0.78465933 0.08085256 1.26839881 158 161 160
0.81338932 0.05664266 1.25474644 160 163 161
0.80850877 0.05460646 1.26501183 155 157 156
0.80997724 0.06677290 1.25332990 151 152 151
0.80544782 0.06802976 1.26294763 148 149 149
0.83250046 0.03775247 1.27005804 141 147 147
0.82709304 0.05532413 1.25536043 147 149 151
0.82973528 0.04699763 1.26689882 135 139 140
0.83483692 0.41385490 1.23403279 111 112 116
0.83850038 0.41351765 1.24156010 115 118 120
0.83818686 0.42619747 1.23477566 143 149 148
0.83164891 0.42922081 1.25420535 164 165 164
0.83473625 0.43499599 1.26236989 154 158 157
0.84206152 0.41904069 1.24843651 120 121 124
0.84523621 0.42686644 1.25096094 144 147 145
0.85009331 0.43146504 1.26651336 157 158 156
0.85147897 0.44075085 1.27184923 153 155 154
0.85599017 0.44536760 1.28388608 153 155 153
0.86276859 0.44422138 1.27423275 154 154 152
0.86786121 0.44880472 1.29164579 156 157 156
0.87551466 0.45638997 1.30543922 157 157 155
0.89270657 0.45878605 1.30951850 146 146 146
0.89404657 0.46337335 1.31196346 150 150 147
0.89660467 0.46602500 1.32179533 155 155 150
0.90253156 0.45937613 1.31120276 135 136 136
0.90579604 0.46157386 1.31194004 139 140 139
0.98253870 0.49563313 1.38063514 156 162 160
0.99264717 0.50555396 1.39483917 162 167 160
1.01569149 -0.36224482 1.02835906 91 104 109
1.01451173 -0.35269954 1.02843312 89 103 110
1.01246409 0.41359316 1.66696662 144 144 144
1.01680607 0.41529454 1.68772433 148 148 149
1.00276494 0.43783320 1.62175083 113 119 125
1.01303881 0.42777378 1.65342414 122 123 127
1.01240219 0.42972406 1.66758508 136 137 139
1.01246840 0.42360207 1.68211377 160 160 158
1.01329613 0.44366993 1.64337659 109 116 122
1.01640592 0.44296423 1.67107886 132 136 138
1.01790428 0.44068536 1.68630856 150 151 149
1.00593221 0.51171353 1.41522926 160 166 162
1.01423681 0.51657382 1.42864615 164 170 164
1.01482836 0.52302625 1.42717032 163 169 166
1.02462578 -0.36349203 1.02705129 89 104 108
1.02413227 -0.35307100 1.02323589 87 102 109
1.03926706 0.38821478 1.69261646 176 177 177
1.03056014 0.41595547 1.65743732 158 158 158
1.03210004 0.41482659 1.67144051 154 154 155
1.03317707 0.41234436 1.68841330 157 158 157
1.02371585 0.41714802 1.70324588 152 153 155
1.03161850 0.43004167 1.66856390 150 152 152
1.03610220 0.42880299 1.68350856 154 156 156
1.02709086 0.44613324 1.65461538 120 124 130
1.03144476 0.44350585 1.66814841 121 124 130
1.02799380 0.44533437 1.68736511 130 133 136
1.02177250 0.52911735 1.43926084 162 168 167
1.02801538 0.52110463 1.45158851 162 168 162
1.03690153 0.52940774 1.46413606 168 174 169
1.04835076 0.39085054 1.69643278 170 171 171
1.05211356 0.39481974 1.70854124 172 173 173
1.04523964 0.41466856 1.67318530 158 158 159
1.04862839 0.41054583 1.69176491 164 165 164
1.05313496 0.40647702 1.70970144 174 176 174
1.04581814 0.43115886 1.67123541 164 166 166
1.05753303 0.43232426 1.68211377 160 165 165
1.04408877 0.44393435 1.67546835 139 143 146
1.05682403 0.44965135 1.69261646 148 158 158
1.04139507 0.53678253 1.47048128 164 170 168
1.05255270 0.53871074 1.48987222 168 174 170
1.04365897 0.54177016 1.47367787 162 168 167
1.05556134 0.54456878 1.49535124 166 171 170
1.05929005 0.54738557 1.50308609 166 174 171
1.06682283 0.39525995 1.71257766 164 165 166
1.07475098 0.39660127 1.72053766 157 157 159
1.06633650 0.41710164 1.69263229 158 159 162
1.07164729 0.41301485 1.70982662 150 152 153
1.07683563 0.40454413 1.72228885 161 164 163
1.06304220 0.42690161 1.68690784 164 167 168
1.07745556 0.43394355 1.70754337 170 171 171
1.06532854 0.55374333 1.50981134 163 169 168
1.07335162 0.55337662 1.52678347 173 179 176
1.07139027 0.56014752 1.51653659 162 168 168
1.07841945 0.56256044 1.53022993 160 166 166
1.07844869 0.57362828 1.55184642 158 164 161
1.07928493 0.58690777 1.55124319 152 156 155
1.09442418 0.41555860 1.23279186 153 161 158
1.08214438 0.41481663 1.71184814 158 163 162
1.08099937 0.40663636 1.73373878 165 168 165
1.09376562 0.42246515 1.23478591 161 170 165
1.09962070 0.43272087 1.58756876 158 159 153
1.08790511 0.42597969 1.71509844 157 161 163
1.09353038 0.42807344 1.72179169 164 168 168
1.09617567 0.44445580 1.72931588 164 168 169
1.08603954 0.57194099 1.55391444 160 166 163
1.09080632 0.57623057 1.56558260 160 164 162
1.08229673 0.59577844 1.55479777 147 148 149
1.09098012 0.58626350 1.56890609 154 160 157
1.09691938 0.59204529 1.59021680 143 144 144
1.08478475 0.60522860 1.55837202 152 156 154
1.09184812 0.60913377 1.57193732 155 157 156
1.09901244 0.61015675 1.58758232 148 149 149
1.09962070 0.62342775 1.58756876 170 172 170
1.10429335 0.39817040 1.24728060 162 166 161
1.10708427 0.41060802 1.24970344 161 168 163
1.11646068 0.41467464 1.26472354 166 172 164
1.10545425 0.42273986 1.24980845 150 159 156
1.11672919 0.43029110 1.26868190 148 157 155
1.11168592 0.43474959 1.59181075 149 149 145
1.11416745 0.44173041 1.26708758 158 164 164
1.11623094 0.44404979 1.59213522 130 132 132
1.11762780 0.44797184 1.76075804 166 168 169
1.10396711 0.59226125 1.57162126 160 165 161
1.10883024 0.59158412 1.58387158 161 169 165
1.10170913 0.58915901 1.60258114 155 156 152
1.11475772 0.59904110 1.62564927 149 150 146
1.10787018 0.60690304 1.59552307 149 152 151
1.10700191 0.61141290 1.60886266 140 140 141
1.11475134 0.61449486 1.62563992 130 130 130
1.10768437 0.62468635 1.60563009 161 162 159
1.11643963 0.63473092 1.62564740 164 164 162
1.12083197 0.41904424 1.26474118 157 166 163
1.13771832 0.40495856 1.60258114 170 173 171
1.13170588 0.41400716 1.62175083 180 181 183
1.12309522 0.42999103 1.27557292 152 161 159
1.12772377 0.43167036 1.28715450 142 151 150
1.13683081 0.43526691 1.30414438 135 143 143
1.12626742 0.43451277 1.59616817 145 145 145
1.13206704 0.43305716 1.60715275 159 158 157
1.12246776 0.44368696 1.27904117 155 161 161
1.13442624 0.44610868 1.29420209 152 158 158
1.13899931 0.44299382 1.30301258 140 148 148
1.12752971 0.44315992 1.59551205 136 140 139
1.13307273 0.44824849 1.60384703 125 128 129
1.13100588 0.44688910 1.77458596 155 162 163
1.12198420 0.60903142 1.60384703 157 163 160
1.13184758 0.61691300 1.65474224 137 137 131
1.12147641 0.62950385 1.63544714 151 151 148
1.12825119 0.62624198 1.64671596 138 138 136
1.13785247 0.63242911 1.66422451 140 140 138
1.13001760 0.64161011 1.65206687 161 161 159
1.13072610 0.64240873 1.66149962 160 160 158
1.14578319 0.40742633 1.61788034 167 172 170
1.15523670 0.41521965 1.63124401 174 176 174
1.15675497 0.41618237 1.64138460 180 181 180
1.14197183 0.42946264 1.29616034 160 169 166
1.14378548 0.43727148 1.31629479 132 138 137
1.15421017 0.43696177 1.33271583 114 118 120
1.14625674 0.43460479 1.61348837 167 167 166
1.15324509 0.43212797 1.63125208 176 177 173
1.15587459 0.43001180 1.64938583 177 178 176
1.14490548 0.44844437 1.31237384 140 147 147
1.15725686 0.44907468 1.33343795 129 135 136
1.15944993 0.45378938 1.34502351 126 135 136
1.14809415 0.44641491 1.61326513 154 161 160
1.15401868 0.44321797 1.62956659 154 158 157
1.15379488 0.44304169 1.65340130 157 157 155
1.14600587 0.45592391 1.79812157 166 170 170
1.15216994 0.45713648 1.80290389 161 166 168
1.14615965 0.46844137 1.31120276 141 145 142
1.15959382 0.46568128 1.32919967 144 149 148
1.15213807 0.46211237 1.80610903 167 170 171
1.14199495 0.62595169 1.67380702 136 136 128
1.15052438 0.63015923 1.68630856 137 137 132
1.15913630 0.63499826 1.70324588 147 143 135
1.14199495 0.64427429 1.67380702 157 157 157
1.14860125 0.64465706 1.68491030 147 146 146
1.15913630 0.65266180 1.70324588 152 152 152
1.16247356 0.41982332 1.63347435 171 171 169
1.16807675 0.41494095 1.65339470 165 171 169
1.16359975 0.43527721 1.63426726 173 174 171
1.16698138 0.43032503 1.64964337 178 179 177
1.16421694 0.43500496 1.66456640 176 177 174
1.17092156 0.43813905 1.68211377 173 174 173
1.16297168 0.45431133 1.33970726 131 140 141
1.16478196 0.45001670 1.34837508 121 127 128
1.17499876 0.44988483 1.36488783 124 127 127
1.16810298 0.45873737 1.64138460 149 153 154
1.16516513 0.44373856 1.66764322 168 168 162
1.17561038 0.44559255 1.69053698 170 171 166
1.17974377 0.44953117 1.70324588 164 165 163
1.16616344 0.45958105 1.81254506 168 173 175
1.16453942 0.47282165 1.33531006 144 148 145
1.17135046 0.46675893 1.35071315 138 144 143
1.17815077 0.46700658 1.36672300 132 139 139
1.17379224 0.46495172 1.65339470 132 135 137
1.16458485 0.46521489 1.81618956 169 174 174
1.17401737 0.46866921 1.82967091 169 174 174
1.17691278 0.48409059 1.35172987 139 144 142
1.16353309 0.63331263 1.70862499 146 146 138
1.16499054 0.64412290 1.71184814 139 139 130
1.17090416 0.65185329 1.72053766 140 137 132
1.18238512 0.43144835 1.65642667 169 169 169
1.18174854 0.44919688 1.37364525 120 123 124
1.19634128 0.45566165 1.39340711 125 129 130
1.18269690 0.44991106 1.70467595 163 164 161
1.18427147 0.46943224 1.37187074 134 140 140
1.19375668 0.47152451 1.38887918 132 138 137
1.18193728 0.46771619 1.83214009 171 174 175
1.19085369 0.47650877 1.85091561 171 176 176
1.18162513 0.49306487 1.35714221 153 160 158
1.19289751 0.48808566 1.37281415 139 143 142
1.19852889 0.48300196 1.38204396 140 144 142
1.19331312 0.48054343 1.85723794 178 182 182
1.20470154 0.49077380 1.39054883 136 140 138
1.21429197 0.48474795 1.41621411 138 144 142
1.21771014 0.48070374 1.42115688 127 137 137
1.21844548 0.48962975 1.44386071 170 171 168
1.21966350 0.50488770 1.40641463 132 136 137
1.23062062 0.47503100 1.43622442 129 132 132
1.23848128 0.47891039 1.44539833 138 142 140
1.23643529 0.47298367 1.46969241 170 175 169
1.22006500 0.49195418 1.41818380 135 139 138
1.22974437 0.49248134 1.43520584 136 139 138
1.22610009 0.49296024 1.44849741 163 166 163
1.23555624 0.49310799 1.46986122 166 168 165
1.23543429 0.50211102 1.43318158 138 140 138
1.23235944 0.50645150 1.45195678 154 158 156
1.23593949 0.50457069 1.46701307 170 175 172
1.24305212 0.46908674 1.45366522 132 133 134
1.25752497 0.47757052 1.47207958 131 132 134
1.25182609 0.47718317 1.49207930 173 178 174
1.25607091 0.49303965 1.46888983 123 127 126
1.25168402 0.48882854 1.49088687 162 164 162
1.24616911 0.50969419 1.44911246 137 138 137
1.24908687 0.50954925 1.46890011 156 159 156
1.25031651 0.50605801 1.48585549 167 170 168
1.25952792 0.50694221 1.50642633 173 175 171
1.25182700 0.52194870 1.46097374 111 114 117
1.26035810 0.47913343 1.47688854 137 137 139
1.26022959 0.48949139 1.47474809 138 143 142
1.27045870 0.49107483 1.48989317 136 140 139
1.26501846 0.48581130 1.51091476 167 170 167
1.27551377 0.49545400 1.52449616 171 173 169
1.26212106 0.51227683 1.47240479 143 144 143
1.26818791 0.51066650 1.48872918 152 154 152
1.27345121 0.50623465 1.51993692 175 176 174
1.27540531 0.51070470 1.52542040 170 172 170
1.26291084 0.52252901 1.47688854 127 127 128
1.27231952 0.52369908 1.48990564 137 137 136
1.27486821 0.52474105 1.52793229 166 172 172
1.28011680 0.49802431 1.50308609 156 160 156
1.28232479 0.49093446 1.53369200 172 177 170
1.29384811 0.49435345 1.55197101 163 166 162
1.28296574 0.50780026 1.50643126 147 150 148
1.28406944 0.50620199 1.53577862 172 173 172
1.29137056 0.51146623 1.54771037 174 175 173
1.28511730 0.52475189 1.50895759 154 156 153
1.28853207 0.52853861 1.54912790 166 171 170
1.29786289 0.52833110 1.56196272 168 172 171
1.30356622 0.49707970 1.56557012 156 161 159
1.31063521 0.50929748 1.57405980 170 174 170
1.30029881 0.53754312 1.52678347 140 140 140
1.30607465 0.52732538 1.57103127 171 175 172
1.31667819 0.52832180 1.58460822 174 176 174
1.32690996 0.51393247 1.59692055 168 174 168
1.32535293 0.52573712 1.59504666 173 175 173
1.33378834 0.53490996 1.61023074 174 177 175
1.34635121 0.53658479 1.62369537 174 175 173
1.97681230 0.32844321 1.78654088 160 162 158
1.97833949 0.35087830 1.79336464 160 163 160
1.97581732 0.36579460 1.79812157 155 157 157
1.97795594 0.36053512 1.80290389 158 162 161
1.98711182 0.33236404 1.78824269 166 168 162
1.98228705 0.35331494 1.75165856 162 163 161
1.99280193 0.34870578 1.79566109 160 162 160
1.99066620 0.36959315 1.79812157 155 157 157
1.98969252 0.36971083 1.80474440 160 162 161
1.99607468 0.37386087 1.82228994 169 170 170
1.99436061 0.38105787 1.81158354 171 174 172
2.00456997 0.33528625 1.78931238 153 155 154
2.01350403 0.35580367 1.77924371 158 159 157
2.01066227 0.34974950 1.79554068 149 151 151
