ply
format ascii 1.0
element vertex 1043
property float x
property float y
property float z
property uchar red
property uchar green
property uchar blue
end_header
-0.47001027 0.04991389 0.76564960 202 203 202
-0.47122898 0.07854928 0.75967207 197 200 197
-0.46977698 0.06835214 0.76177033 192 193 192
-0.46999875 0.08999861 0.75744768 188 189 187
-0.46999138 0.10965409 0.75381340 142 142 143
-0.47000150 0.12994975 0.75044444 117 118 121
-0.46997577 0.15008864 0.74730375 101 101 104
-0.46998597 0.17009231 0.74438055 89 89 92
-0.46996938 0.18997592 0.74162735 80 80 84
-0.47005350 0.21091221 0.73892439 73 73 75
-0.47015584 0.20111910 0.74013810 77 77 80
-0.47000122 0.23003525 0.73670274 66 65 69
-0.46998909 0.25034957 0.73458530 59 57 61
-0.47000551 0.26994449 0.73263170 51 50 54
-0.47001364 0.29004210 0.73060635 45 45 48
-0.46999096 0.31006664 0.72868105 41 41 43
-0.46996753 0.33006098 0.72697326 36 35 40
-0.46989192 0.35000872 0.72530727 31 29 34
-0.46997511 0.36983375 0.72362558 27 24 30
-0.46816747 0.39780921 0.71965626 0 0 0
-0.47035096 0.38791044 0.72139454 6 6 7
-0.47036318 0.40434661 0.71885510 0 0 0
-0.44895252 -0.62403429 1.17799297 204 209 206
-0.45276795 -0.62872478 1.18242605 206 211 209
-0.44549926 -0.60035850 1.11937881 200 201 203
-0.45177140 -0.60617832 1.13022995 204 207 209
-0.45845264 -0.61249459 1.14200675 206 211 212
-0.45016737 -0.61087234 1.17281584 205 209 208
-0.45397435 -0.58764963 1.08866608 209 212 210
-0.45017049 -0.58841159 1.15114441 208 211 210
-0.44955369 -0.59830374 1.16237088 211 214 211
-0.44498805 -0.57897240 1.07603633 208 215 211
-0.45049733 -0.56890727 1.13142367 210 215 213
-0.44848671 -0.57881927 1.14177084 210 215 213
-0.44797432 -0.54063581 0.99203974 145 147 142
-0.45641022 -0.54871637 1.00686717 170 171 165
-0.45063897 -0.54884654 1.11022538 210 212 212
-0.44619435 -0.55866607 1.12112912 211 216 216
-0.45998037 -0.53243077 0.97389513 191 210 209
-0.44130220 -0.53293432 0.98101926 204 208 200
-0.45040714 -0.52977931 1.09250491 210 211 210
-0.44481478 -0.53908553 1.10092829 213 214 214
-0.45003828 -0.50347607 0.75024676 0 0 0
-0.45758782 -0.50527466 0.91841537 209 210 206
-0.45001940 -0.50686141 1.07297482 206 208 207
-0.45040411 -0.51783151 1.08235380 207 208 207
-0.44998325 -0.49025311 0.75160526 0 0 0
-0.44945581 -0.49819253 0.90839636 207 209 206
-0.45035233 -0.48659408 1.05530466 202 205 205
-0.44950037 -0.49576803 1.06337880 202 203 203
-0.44996191 -0.46987973 0.75438252 0 0 0
-0.45245907 -0.47159455 0.84919286 167 177 175
-0.45484289 -0.47725375 0.86206633 210 211 214
-0.44982922 -0.46423171 1.03580271 200 202 202
-0.44993922 -0.47466748 1.04493274 199 203 202
-0.44996864 -0.45494093 0.75805615 0 0 0
-0.45007803 -0.44493672 0.76220466 0 0 0
-0.44685475 -0.44416060 0.79361670 160 165 163
-0.45336418 -0.45553333 0.81519645 141 145 145
-0.45097881 -0.44289351 1.01676281 202 204 204
-0.44962368 -0.45295908 1.02580457 199 204 203
-0.44943135 -0.43645278 0.76669429 4 4 4
-0.44056365 -0.43926431 0.78365928 51 54 52
-0.44964973 -0.42126788 0.99765946 204 208 208
-0.44990767 -0.43099281 1.00627486 204 206 206
-0.44997268 -0.40009372 0.97959225 201 204 204
-0.45011014 -0.41057696 0.98843897 202 205 205
-0.45002294 -0.38888384 0.97074256 202 206 206
-0.45042492 -0.36737916 0.95494493 203 206 205
-0.45015483 -0.37707056 0.96189104 204 205 204
-0.44996113 -0.34230212 0.93724850 202 205 205
-0.44960060 -0.35287343 0.94466725 202 204 203
-0.45004071 -0.32944054 0.92847399 203 205 205
-0.44983997 -0.30789292 0.91401914 203 205 204
-0.45073546 -0.31801640 0.92077312 204 207 206
-0.44982009 -0.28300363 0.89815096 201 202 202
-0.45001371 -0.29275330 0.90432400 202 203 203
-0.45006683 -0.26953636 0.88968477 203 205 205
-0.45004732 -0.24646377 0.87576921 210 213 213
-0.44993471 -0.25646834 0.88164412 208 211 212
-0.45002900 -0.22950903 0.86610570 204 206 206
-0.44999274 -0.20889694 0.85518747 201 205 204
-0.44950124 -0.21905636 0.86039576 195 197 198
-0.45003407 -0.18969187 0.84555661 208 210 211
-0.45012655 -0.16880141 0.83573454 206 207 206
-0.44999233 -0.17912148 0.84048236 210 211 211
-0.44991601 -0.14999169 0.82755663 204 205 205
-0.44997319 -0.12550848 0.81768070 201 204 204
-0.44992445 -0.13607939 0.82178647 201 202 202
-0.45002731 -0.10990067 0.81183100 199 203 203
-0.45008322 -0.09018295 0.80476185 197 200 200
-0.44981422 -0.06808336 0.79737942 200 201 201
-0.45060758 -0.07801359 0.80060215 197 199 200
-0.44997781 -0.05036726 0.79179687 203 206 206
-0.45003347 -0.03029272 0.78584702 202 203 201
-0.44995999 -0.00444729 0.77882352 192 193 193
-0.44989504 -0.01456531 0.78148131 194 194 193
-0.45002327 0.01030905 0.77514559 196 197 197
-0.44998848 0.03020890 0.77027198 202 203 203
-0.44997743 0.04995162 0.76578288 194 195 192
-0.45010689 0.07905075 0.75975796 189 190 188
-0.45003101 0.06872711 0.76185372 194 195 194
-0.45002645 0.08993062 0.75764006 191 193 191
-0.44997702 0.10972975 0.75397032 159 160 160
-0.45002193 0.12998121 0.75058039 124 126 128
-0.44997249 0.15013070 0.74739946 107 107 110
-0.45000036 0.17011179 0.74444121 93 94 97
-0.45005408 0.18994900 0.74168327 84 84 87
-0.45001252 0.21101546 0.73896095 76 76 78
-0.45002993 0.20111314 0.74019209 78 80 84
-0.44999710 0.23014395 0.73674607 69 69 72
-0.45002056 0.25044832 0.73462332 61 61 65
-0.45000523 0.27000163 0.73266449 54 53 59
-0.45001467 0.29008209 0.73063621 48 47 51
-0.44998237 0.31009084 0.72872054 41 41 44
-0.44996657 0.33008700 0.72702036 35 34 38
-0.44987380 0.35003987 0.72537178 29 27 32
-0.45006213 0.36978795 0.72367239 24 22 28
-0.44917324 0.39643010 0.71944777 0 0 0
-0.45037633 0.38624350 0.72112470 0 0 0
-0.45019612 0.40445660 0.71843055 0 0 0
-0.43379294 -0.62225770 1.17290323 212 214 213
-0.42610443 -0.60661964 1.13470960 206 210 209
-0.43122067 -0.61321959 1.14828646 208 211 210
-0.42958700 -0.61042056 1.16902291 209 211 211
-0.43058982 -0.58792633 1.09619880 207 211 210
-0.43742986 -0.59334533 1.10630262 203 207 206
-0.42910001 -0.58844629 1.15215389 210 214 213
-0.43123569 -0.59706697 1.16136093 209 212 212
-0.42992102 -0.56928677 1.13255616 211 215 213
-0.43026114 -0.57951639 1.14314598 210 215 213
-0.42704885 -0.55509658 1.02835906 212 217 214
-0.43000848 -0.54885468 1.11140957 209 213 210
-0.43007729 -0.55912509 1.12205029 211 216 213
-0.42267056 -0.52914113 0.97714573 204 212 206
-0.42973679 -0.52853108 1.09254262 209 211 209
-0.43113834 -0.53983025 1.10244915 210 212 212
-0.43000324 -0.50362860 0.75032437 0 0 0
-0.43055784 -0.50677153 1.07371097 209 211 210
-0.42983395 -0.51646293 1.08209905 209 211 210
-0.43002378 -0.49000938 0.75160477 0 0 0
-0.43663067 -0.48381188 0.87940341 208 210 203
-0.42148156 -0.48966002 0.89566106 197 214 213
-0.42939293 -0.48528904 1.05515632 210 210 210
-0.43002543 -0.49506053 1.06357226 209 210 210
-0.42997223 -0.46968788 0.75425026 0 0 0
-0.43177523 -0.46693118 0.84606206 215 216 207
-0.42888259 -0.47705496 0.86985445 204 209 202
-0.43070527 -0.46433294 1.03671952 204 204 204
-0.43008595 -0.47414797 1.04539614 207 208 208
-0.42972841 -0.45412170 0.75794879 0 0 0
-0.43030715 -0.44445541 0.76159377 0 0 0
-0.43726221 -0.44072524 0.78869760 124 129 127
-0.42579192 -0.45005855 0.81230479 177 181 182
-0.43191933 -0.45469021 0.82130969 209 211 212
-0.42991801 -0.44268240 1.01723299 204 206 204
-0.43005510 -0.45293490 1.02655557 203 204 204
-0.42943978 -0.43540373 0.76605308 2 2 2
-0.43115130 -0.43798639 0.78460566 110 113 113
-0.42999863 -0.42144402 0.99807659 199 203 201
-0.43000377 -0.43121469 1.00681964 203 205 204
-0.42967874 -0.40011602 0.97964684 204 205 205
-0.43008185 -0.41068040 0.98868691 203 207 206
-0.42997640 -0.38896098 0.97077955 203 207 206
-0.43017989 -0.36780341 0.95507632 204 207 205
-0.43010884 -0.37698690 0.96167762 206 206 206
-0.42925257 -0.34264996 0.93731186 205 208 207
-0.43040754 -0.35346914 0.94489114 204 206 204
-0.43000979 -0.32948997 0.92841164 202 205 204
-0.42967198 -0.30835233 0.91420130 207 208 208
-0.43199380 -0.31841724 0.92101003 204 207 208
-0.42949389 -0.28299970 0.89776833 201 203 201
-0.43013723 -0.29275116 0.90398818 201 201 200
-0.43016172 -0.26966227 0.88937550 204 206 206
-0.43005731 -0.24684911 0.87567477 207 209 210
-0.42993677 -0.25677940 0.88150391 207 208 209
-0.42988178 -0.22977187 0.86590339 206 210 210
-0.42975306 -0.20904081 0.85486517 206 208 208
-0.43372394 -0.21897481 0.86007543 197 198 198
-0.42999000 -0.18958626 0.84506460 205 209 209
-0.42977678 -0.16979566 0.83573914 205 206 206
-0.43529485 -0.17905143 0.84015364 197 198 196
-0.43005859 -0.15055519 0.82737684 206 208 208
-0.42979182 -0.12600424 0.81750778 200 203 204
-0.43027691 -0.13648384 0.82158978 195 198 198
-0.43006160 -0.10980547 0.81141176 199 202 202
-0.43009369 -0.09008576 0.80442395 199 201 202
-0.42996968 -0.06868867 0.79731063 202 205 205
-0.42997606 -0.07859251 0.80051150 191 192 194
-0.43006484 -0.05034358 0.79157815 200 203 203
-0.42996905 -0.03027921 0.78566656 192 192 191
-0.42999668 -0.00447274 0.77872115 200 200 197
-0.42991882 -0.01462084 0.78139731 194 193 192
-0.43001830 0.01024697 0.77500276 202 203 202
-0.42998597 0.03025371 0.77020257 200 203 202
-0.42996729 0.04988531 0.76583321 196 197 195
-0.42978658 0.07905691 0.75981716 197 199 198
-0.43006221 0.06871498 0.76189068 201 201 201
-0.43003377 0.08996737 0.75770908 196 198 198
-0.42994738 0.10974441 0.75405012 181 182 181
-0.43003777 0.12998482 0.75066213 137 137 139
-0.43001210 0.15009165 0.74751497 115 115 119
-0.43005898 0.17008046 0.74452062 100 100 103
-0.43000511 0.19004589 0.74171219 89 89 92
-0.43011154 0.21150410 0.73894136 78 78 81
-0.42916757 0.20156426 0.74018751 84 85 87
-0.43001059 0.23018808 0.73676488 71 71 76
-0.43002305 0.25048208 0.73462055 63 63 67
-0.43002214 0.27007748 0.73265840 55 54 61
-0.43001329 0.29013515 0.73066310 47 46 51
-0.43004263 0.31013792 0.72874353 39 39 44
-0.42998948 0.33010037 0.72704995 32 32 35
-0.42987050 0.35002370 0.72540449 27 25 31
-0.42997884 0.37002597 0.72342769 18 16 20
-0.42940974 0.39496665 0.71928133 0 0 0
-0.43071666 0.38495968 0.72076519 0 0 0
-0.43024293 0.40427392 0.71814573 0 0 0
-0.41540676 -0.60053443 1.12697053 217 217 217
-0.40583860 -0.60778355 1.15644536 209 213 210
-0.41084638 -0.60979239 1.16353529 210 214 213
-0.40733964 -0.59313318 1.11235831 213 215 214
-0.40943307 -0.58990046 1.15247525 208 212 210
-0.41313459 -0.59893684 1.16165149 212 215 212
-0.40953575 -0.56165053 1.04720712 204 209 208
-0.40953320 -0.56907906 1.13176194 212 213 213
-0.41187397 -0.57866395 1.14146446 212 215 214
-0.41825923 -0.54647965 1.01564765 212 221 220
-0.41010398 -0.54756264 1.11044882 209 211 211
-0.41064951 -0.55907622 1.12195220 211 211 211
-0.40121408 -0.52641860 0.97836363 209 218 217
-0.41014017 -0.52724614 1.09193123 209 212 210
-0.40942262 -0.53693346 1.10041755 209 212 211
-0.41019013 -0.50362660 0.75039565 0 0 0
-0.41272480 -0.50034558 0.92103028 203 208 199
-0.40985731 -0.50648459 1.07414942 209 211 211
-0.41009129 -0.51584391 1.08210886 209 212 210
-0.40994437 -0.49023425 0.75153913 0 0 0
-0.40991371 -0.48477094 1.05517446 209 210 209
-0.41019395 -0.49553009 1.06458083 209 210 210
-0.41007475 -0.46960178 0.75403807 0 0 0
-0.41174479 -0.46366704 0.84544313 201 206 204
-0.41008719 -0.46394284 1.03716247 210 212 209
-0.41018593 -0.47283615 1.04487728 209 211 210
-0.40953809 -0.45259601 0.75775515 0 0 0
-0.41070924 -0.44281331 0.76108764 0 0 0
-0.41345100 -0.44101480 0.79536909 76 76 76
-0.41258650 -0.44588461 0.80666663 139 143 139
-0.40169886 -0.45888151 0.83671728 162 166 165
-0.41158700 -0.44296422 1.01811209 200 203 200
-0.40956187 -0.45304292 1.02743605 206 208 206
-0.40979101 -0.43364241 0.76549742 2 2 2
-0.40149982 -0.43555050 0.78673750 27 27 26
-0.41032006 -0.42160949 0.99846846 204 205 205
-0.40989086 -0.43167180 1.00774220 203 204 203
-0.40936014 -0.40011663 0.97964834 204 205 205
-0.40988246 -0.41067984 0.98878382 203 205 205
-0.40978188 -0.38890507 0.97063951 203 204 204
-0.41010605 -0.36770640 0.95479499 204 206 206
-0.41007965 -0.37691101 0.96148405 204 206 207
-0.41057557 -0.34390243 0.93803466 190 191 193
-0.40993548 -0.35422344 0.94521041 205 207 206
-0.40975442 -0.32993707 0.92841355 203 206 206
-0.40998150 -0.30849187 0.91391379 205 207 208
-0.41028142 -0.31882232 0.92090417 206 207 207
-0.41008212 -0.28367547 0.89781720 205 206 205
-0.40992339 -0.29346909 0.90404103 206 207 207
-0.40996491 -0.27021025 0.88930297 207 208 208
-0.40990015 -0.24798775 0.87588082 208 210 211
-0.40990157 -0.25805216 0.88184919 211 211 212
-0.40998291 -0.23005679 0.86562336 208 211 211
-0.41000735 -0.20946688 0.85466271 210 212 212
-0.41001564 -0.18951792 0.84455993 207 209 209
-0.40991341 -0.17015790 0.83543371 206 207 206
-0.40999665 -0.15048614 0.82686304 201 203 203
-0.40976510 -0.12651674 0.81721126 199 199 199
-0.41048284 -0.13708099 0.82134437 202 204 202
-0.41004922 -0.10972549 0.81087622 198 200 201
-0.40996092 -0.09002582 0.80389157 201 204 205
-0.40995019 -0.06918711 0.79702364 202 205 205
-0.41108288 -0.07916841 0.80027405 199 200 201
-0.41002166 -0.05035917 0.79119361 202 204 204
-0.40997078 -0.03029746 0.78534173 191 192 189
-0.40970460 -0.00497780 0.77857430 196 197 195
-0.41029218 -0.01509842 0.78125058 192 192 190
-0.41005223 0.01031549 0.77471836 192 193 193
-0.40998408 0.03018033 0.76998803 200 200 200
-0.40996464 0.04987837 0.76563854 197 198 198
-0.40918197 0.07881437 0.75971376 203 204 205
-0.41017050 0.06857519 0.76175184 198 199 198
-0.40994825 0.08998436 0.75761085 201 203 203
-0.41007952 0.10974395 0.75399047 194 194 193
-0.40997562 0.12999367 0.75059208 164 165 166
-0.41000283 0.15016682 0.74746201 124 125 129
-0.41003005 0.17019063 0.74450279 107 106 108
-0.40998415 0.18996625 0.74173994 93 94 96
-0.40992513 0.21150682 0.73896488 82 82 85
-0.41016286 0.20177859 0.74018718 87 88 89
-0.41000893 0.22998893 0.73678442 74 74 77
-0.40996630 0.25026012 0.73461133 64 64 67
-0.40998338 0.26997131 0.73264281 54 53 60
-0.41003369 0.29017821 0.73066482 44 43 49
-0.41008991 0.31015223 0.72874834 37 35 41
-0.40999384 0.33011347 0.72704812 31 29 33
-0.40987320 0.35001567 0.72537765 26 24 30
-0.41006068 0.37007169 0.72292070 12 11 14
-0.40948168 0.39340980 0.71913660 0 0 0
-0.41079770 0.38366512 0.72045831 0 0 0
-0.41024602 0.40413924 0.71790638 0 0 0
-0.39148181 -0.60223156 1.13383305 205 213 209
-0.38933979 -0.60420235 1.15738715 207 211 209
-0.39121100 -0.61312310 1.16389610 210 213 212
-0.38993493 -0.58283475 1.09375509 207 213 210
-0.38857459 -0.58847261 1.10613537 204 211 209
-0.38996995 -0.59104950 1.15183315 211 213 212
-0.38310628 -0.57824195 1.08513618 204 209 204
-0.38973706 -0.56949876 1.13107284 210 213 212
-0.38066014 -0.54695832 1.02311039 214 216 215
-0.38983564 -0.54941795 1.11141059 208 212 211
-0.39759000 -0.55843885 1.12067314 212 212 212
-0.38951268 -0.52792336 1.09215546 211 212 211
-0.39074033 -0.53861305 1.10137560 209 210 209
-0.39007087 -0.50360603 0.75036493 0 0 0
-0.38571656 -0.51255927 0.95260568 203 210 211
-0.39269801 -0.51742579 0.96165025 205 214 213
-0.38995211 -0.50662399 1.07435159 210 212 212
-0.38991521 -0.51582224 1.08197010 213 214 213
-0.39001991 -0.49007611 0.75143774 0 0 0
-0.39579649 -0.48261257 0.88838756 206 207 203
-0.38982077 -0.48473142 1.05508800 209 210 210
-0.39003709 -0.49563366 1.06480326 207 212 210
-0.39006991 -0.47000825 0.75366653 0 0 0
-0.38885333 -0.46209455 0.84658149 161 167 163
-0.38363795 -0.47609938 0.87639817 154 158 156
-0.38677651 -0.47886627 0.88242976 204 208 204
-0.39035421 -0.46392487 1.03712237 209 210 210
-0.38982080 -0.47263521 1.04461043 210 212 212
-0.38973500 -0.45178612 0.75737357 0 0 0
-0.39100632 -0.44182171 0.76061122 0 0 0
-0.38613951 -0.44837250 0.81755531 41 46 46
-0.39209407 -0.45366489 0.82785188 115 119 117
-0.39003864 -0.44199528 1.01758965 206 208 207
-0.38999668 -0.45220285 1.02675979 209 209 208
-0.38971775 -0.43278083 0.76546093 1 1 1
-0.39220542 -0.43240012 0.78447812 141 143 141
-0.39000217 -0.42203194 0.99946892 206 206 205
-0.39002435 -0.43195009 1.00847892 207 208 206
-0.39590232 -0.40020542 0.97986573 202 203 202
-0.38955968 -0.40999533 0.98865973 205 206 204
-0.38979761 -0.38888568 0.97069993 204 206 206
-0.39005757 -0.36758811 0.95451693 204 206 206
-0.39005338 -0.37682949 0.96127602 204 206 207
-0.38981005 -0.34421034 0.93803416 207 209 209
-0.38992247 -0.35407053 0.94486107 207 209 210
-0.39001282 -0.33030562 0.92840768 206 207 208
-0.39001860 -0.30825002 0.91336192 208 209 209
-0.39017345 -0.31864893 0.92040334 208 210 210
-0.38979048 -0.28373724 0.89728372 210 210 210
-0.39037957 -0.29341869 0.90345196 206 207 207
-0.39001444 -0.27003440 0.88868620 211 214 214
-0.38973737 -0.24804878 0.87541969 211 212 213
-0.39047543 -0.25804448 0.88138949 211 213 213
-0.38748550 -0.22037307 0.85973092 211 215 214
-0.39011592 -0.23063713 0.86543486 209 212 212
-0.39002562 -0.20931365 0.85403550 209 212 212
-0.39007798 -0.18041053 0.83972064 202 202 203
-0.38997359 -0.19014425 0.84434213 204 206 206
-0.38997960 -0.16999307 0.83497074 203 205 206
-0.38999259 -0.15050993 0.82655876 204 205 206
-0.39009283 -0.12681269 0.81695728 204 206 207
-0.38995216 -0.13738629 0.82111858 204 207 207
-0.39000351 -0.10971516 0.81046103 203 205 205
-0.38999926 -0.09001343 0.80347029 204 206 207
-0.38992774 -0.06991521 0.79679883 205 207 207
-0.39929679 -0.07923671 0.80003288 198 200 202
-0.38999658 -0.05024874 0.79067403 199 200 199
-0.38999690 -0.03021304 0.78492051 193 193 192
-0.38986232 -0.00574109 0.77841401 195 196 196
-0.39016906 -0.01585104 0.78106039 188 187 187
-0.39002082 0.01030500 0.77438360 203 203 202
-0.39001942 0.03017815 0.76963084 207 208 208
-0.38996874 0.04985992 0.76526470 205 206 207
-0.38954843 0.07801981 0.75955832 207 211 210
-0.39023519 0.06775278 0.76159136 206 209 209
-0.38994982 0.08990799 0.75735232 203 204 204
-0.39004194 0.10965479 0.75376324 204 205 204
-0.38999356 0.12996608 0.75036985 197 197 197
-0.38996660 0.15001422 0.74729944 158 157 159
-0.39003742 0.17000846 0.74443239 122 120 126
-0.39000023 0.18995523 0.74167787 101 100 104
-0.38984146 0.21117648 0.73893718 89 87 90
-0.39075286 0.20132629 0.74019198 93 94 97
-0.39000972 0.23009668 0.73670208 78 77 80
-0.39000260 0.25031786 0.73451590 65 65 68
-0.38994829 0.26982729 0.73256007 56 54 60
-0.38996632 0.28998190 0.73059529 51 50 57
-0.39006557 0.31014828 0.72869219 48 47 53
-0.39000797 0.33011665 0.72699354 43 41 47
-0.38992326 0.34995013 0.72529373 37 35 41
-0.38997505 0.36982173 0.72235766 9 9 11
-0.38960046 0.39163026 0.71899285 0 0 0
-0.39176338 0.38193276 0.72022761 0 0 0
-0.39026060 0.40400271 0.71766370 0 0 0
-0.37021594 -0.60439891 1.15497029 207 210 207
-0.37209371 -0.61479342 1.16582578 211 213 211
-0.36983435 -0.59095997 1.14946936 210 212 211
-0.36729360 -0.56263857 1.05585468 204 213 210
-0.37226788 -0.57058210 1.07192051 204 212 207
-0.36989774 -0.56905274 1.13018670 211 215 214
-0.36182454 -0.55702848 1.04532671 201 210 206
-0.36986816 -0.55001776 1.11138370 210 214 212
-0.37025524 -0.52880435 1.09230220 210 211 211
-0.36971410 -0.53917356 1.10110806 209 211 211
-0.36992268 -0.50354379 0.75027215 0 0 0
-0.37264806 -0.50162350 0.93228126 203 207 208
-0.37529360 -0.50995266 0.94930068 206 211 213
-0.36982268 -0.50745844 1.07454883 210 214 213
-0.36938195 -0.51761407 1.08282493 212 213 212
-0.37008903 -0.48978715 0.75132814 0 0 0
-0.36833581 -0.49420061 0.91750171 203 209 207
-0.36822778 -0.49782599 0.92522347 198 203 203
-0.37049017 -0.48568235 1.05564322 209 214 214
-0.36989643 -0.49547215 1.06433299 211 215 214
-0.36995455 -0.46977445 0.75348752 0 0 0
-0.37538425 -0.46956707 0.86437356 109 113 112
-0.37004968 -0.46368744 1.03667868 210 213 212
-0.36950629 -0.47361969 1.04512051 212 214 214
-0.36984619 -0.45093332 0.75725587 0 0 0
-0.37118721 -0.44105568 0.76025288 0 0 0
-0.37668735 -0.44074445 0.80491811 86 87 86
-0.36291191 -0.45577943 0.83899343 89 93 90
-0.36323124 -0.45839238 0.84649658 198 207 200
-0.36987821 -0.44207465 1.01777238 207 208 207
-0.37002310 -0.45212812 1.02667859 209 211 211
-0.36991922 -0.43159055 0.76499899 0 0 0
-0.36577959 -0.43365508 0.79259884 45 46 45
-0.37367252 -0.42212394 0.99968679 206 206 205
-0.36951492 -0.43137430 1.00814614 209 210 209
-0.36996702 -0.40999390 0.98901786 207 208 208
-0.36991202 -0.38910095 0.97112538 205 206 206
-0.37010118 -0.36743151 0.95410956 205 207 208
-0.37008451 -0.37679889 0.96119787 204 206 207
-0.37006422 -0.34394078 0.93729957 208 210 211
-0.36993708 -0.35378383 0.94418494 206 209 209
-0.36992858 -0.32993672 0.92764540 206 208 208
-0.37005437 -0.30965259 0.91385444 206 208 208
-0.37888595 -0.31852265 0.92003858 215 216 216
-0.37006496 -0.28422994 0.89711301 211 211 212
-0.36971221 -0.29464659 0.90378412 208 209 209
-0.37000047 -0.26985505 0.88803653 211 215 215
-0.36990637 -0.24848693 0.87514437 211 212 213
-0.37011834 -0.25857568 0.88114275 213 217 217
-0.36833401 -0.22063982 0.85940724 207 208 209
-0.37015309 -0.23088166 0.86508476 209 212 212
-0.37011308 -0.20976494 0.85384451 204 206 206
-0.36963553 -0.18035063 0.83944181 204 207 208
-0.36984607 -0.19063996 0.84431445 206 208 209
-0.37009678 -0.16992014 0.83460974 205 206 207
-0.36995575 -0.15033347 0.82606819 206 207 208
-0.37031517 -0.12790708 0.81696117 208 209 210
-0.37002345 -0.13807300 0.82098612 208 208 211
-0.36975531 -0.11006432 0.81011119 207 208 209
-0.36809004 -0.08059882 0.79982761 211 213 213
-0.37015637 -0.09046745 0.80317309 208 209 210
-0.36995553 -0.06994268 0.79640706 203 203 202
-0.37000891 -0.05029391 0.79032885 197 198 198
-0.36999999 -0.03028845 0.78463882 196 195 194
-0.36982051 -0.00638699 0.77827700 200 200 199
-0.37019088 -0.01651610 0.78092958 186 185 184
-0.37001257 0.01034774 0.77395317 202 203 203
-0.37001660 0.03017147 0.76915648 206 207 207
-0.36995114 0.04982432 0.76480793 203 204 204
-0.36962612 0.07682533 0.75937508 208 210 211
-0.37033123 0.06660656 0.76136497 206 207 207
-0.36999637 0.08986833 0.75696798 206 207 208
-0.36992155 0.10966553 0.75339811 202 203 203
-0.37004490 0.12991672 0.75002416 202 203 203
-0.37001753 0.15007330 0.74693734 189 190 190
-0.37000287 0.17008223 0.74415053 168 168 170
-0.37000287 0.18996801 0.74149440 138 137 143
-0.36976897 0.21059886 0.73883982 119 118 123
-0.37215856 0.20087633 0.74010512 118 117 123
-0.37000225 0.23013214 0.73652401 109 105 113
-0.37007589 0.25043181 0.73431380 99 98 104
-0.37002905 0.26989459 0.73235245 93 92 97
-0.36993280 0.28988876 0.73042216 89 88 93
-0.36991357 0.31001601 0.72854452 85 85 89
-0.37011885 0.33015210 0.72682242 83 81 85
-0.36989273 0.35006176 0.72508938 76 75 79
-0.36306309 0.37916136 0.71995503 0 0 0
-0.37016651 0.36947579 0.72173879 5 5 6
-0.36980695 0.38996571 0.71882252 0 0 0
-0.37681977 0.38047478 0.72008570 0 0 0
-0.37036748 0.40388383 0.71739288 0 0 0
-0.34927620 -0.60497933 1.15337933 211 214 208
-0.35782664 -0.61455687 1.16461778 210 216 213
-0.34914573 -0.58676229 1.10831535 212 217 215
-0.35736110 -0.59729163 1.12820387 218 218 218
-0.34999732 -0.59100577 1.14772461 211 213 210
-0.34054034 -0.57545768 1.08696246 211 216 215
-0.34988407 -0.56876560 1.12976336 210 214 212
-0.35653988 -0.55164739 1.03522849 199 208 203
-0.34978816 -0.54948378 1.11037999 212 215 213
-0.34132554 -0.53077107 0.99605173 202 213 207
-0.34472664 -0.53976614 1.01622820 205 214 209
-0.34968895 -0.52907952 1.09196364 212 215 214
-0.35026771 -0.53885973 1.10046715 214 216 211
-0.35014665 -0.50341432 0.75015448 0 0 0
-0.35003752 -0.50725017 1.07394493 211 215 215
-0.34994075 -0.51788196 1.08255256 211 212 214
-0.35003911 -0.49024263 0.75116851 0 0 0
-0.35391348 -0.48721695 0.90695694 196 203 202
-0.35011277 -0.48578914 1.05541086 209 214 214
-0.35009527 -0.49499625 1.06355757 212 217 216
-0.34987806 -0.47000515 0.75335249 0 0 0
-0.34562018 -0.47552219 0.88377124 155 161 161
-0.34873433 -0.46428147 1.03699264 209 213 213
-0.35072707 -0.47424989 1.04541783 211 215 214
-0.34985883 -0.45015142 0.75723643 0 0 0
-0.35701538 -0.44048936 0.76006417 0 0 0
-0.34244951 -0.44286657 0.81782564 107 109 108
-0.34917369 -0.44759483 0.82708952 186 192 189
-0.34855767 -0.44272775 1.01819369 211 212 211
-0.35036472 -0.45250350 1.02679579 211 212 212
-0.34975360 -0.43040160 0.76493777 0 0 0
-0.35417825 -0.42967678 0.78655954 19 19 19
-0.35287913 -0.43692272 0.80300826 81 85 81
-0.34437594 -0.42221815 0.99990993 214 214 214
-0.35019048 -0.43113686 1.00788291 211 211 211
-0.35004108 -0.41008490 0.98937026 210 211 209
-0.34996459 -0.38931716 0.97166447 206 207 207
-0.35007967 -0.36747761 0.95422745 203 205 206
-0.35029963 -0.37696168 0.96161312 203 205 205
-0.34975083 -0.34460890 0.93738889 208 209 210
-0.35025446 -0.35454005 0.94455185 206 207 207
-0.35000451 -0.32984929 0.92718050 207 207 207
-0.35001480 -0.31013920 0.91390499 206 207 206
-0.34988711 -0.28408855 0.89666619 208 209 209
-0.35005494 -0.29493308 0.90377040 208 208 208
-0.34988133 -0.26960267 0.88738168 210 212 213
-0.34970220 -0.24896739 0.87494618 211 213 213
-0.35223503 -0.25884069 0.88078978 211 214 214
-0.34973367 -0.22093431 0.85912970 203 203 205
-0.35005946 -0.23142422 0.86492383 207 210 210
-0.34995997 -0.20991728 0.85353357 204 206 207
-0.34911061 -0.18098641 0.83946340 211 212 213
-0.35016308 -0.19143868 0.84436169 208 210 211
-0.35007756 -0.16989441 0.83433197 208 209 210
-0.35000728 -0.15029142 0.82566210 209 211 211
-0.34991823 -0.12884001 0.81677720 206 208 208
-0.35037240 -0.13866818 0.82074618 208 210 210
-0.34994724 -0.11024151 0.80969496 207 209 209
-0.34862808 -0.08112690 0.79958063 205 205 206
-0.35016697 -0.09110649 0.80296940 208 210 210
-0.35001607 -0.06983670 0.79598274 202 204 204
-0.35000343 -0.05024162 0.78998146 194 195 195
-0.34997032 -0.03024545 0.78431854 190 190 190
-0.34968624 -0.00684782 0.77805557 204 204 203
-0.35042646 -0.01692422 0.78074755 190 189 188
-0.34999262 0.01028203 0.77357931 205 206 205
-0.35002928 0.03018548 0.76875722 208 209 210
-0.34993184 0.04979708 0.76439200 205 206 206
-0.34957851 0.07566821 0.75914745 206 207 207
-0.35042191 0.06538025 0.76116406 205 207 208
-0.34999715 0.08983990 0.75653364 207 208 208
-0.34995276 0.10955364 0.75299702 202 203 204
-0.34999098 0.12977867 0.74959392 200 200 200
-0.34999395 0.14991686 0.74648818 201 201 200
-0.35001239 0.16995231 0.74369601 196 197 198
-0.34585263 0.19843596 0.73986397 190 190 190
-0.35040792 0.18901553 0.74119075 188 188 189
-0.34999376 0.20953682 0.73858392 180 180 181
-0.34997451 0.22978017 0.73616678 169 168 168
-0.34998982 0.25004522 0.73398068 163 162 163
-0.35001105 0.26985640 0.73200377 157 157 158
-0.35003572 0.28992346 0.73010344 149 150 151
-0.34985606 0.30974400 0.72826011 145 145 146
-0.35005158 0.32987497 0.72652310 137 136 138
-0.35003591 0.35038016 0.72464780 105 105 106
-0.34835248 0.37783596 0.71980097 0 0 0
-0.35032134 0.36830745 0.72126541 0 0 0
-0.34990309 0.38955721 0.71848282 0 0 0
-0.35045212 0.40366594 0.71706534 0 0 0
-0.33855603 -0.60002947 1.13708758 206 213 202
-0.33054196 -0.60486731 1.15396690 210 211 206
-0.32153256 -0.59042335 1.11888349 208 210 206
-0.33084266 -0.59673961 1.13085313 206 209 203
-0.33052137 -0.59076246 1.14685607 212 214 210
-0.32947133 -0.56972883 1.13046631 212 214 214
-0.33010636 -0.54955523 1.11059657 212 217 216
-0.32989672 -0.52895641 1.09163717 213 215 215
-0.33040307 -0.53869248 1.10012558 211 214 215
-0.33000489 -0.50341595 0.75000736 0 0 0
-0.32754409 -0.51548859 0.97052038 206 213 209
-0.32984725 -0.50714175 1.07356952 211 213 213
-0.33013357 -0.51779162 1.08217747 213 216 215
-0.33006442 -0.49043253 0.75105061 0 0 0
-0.32990478 -0.48558174 1.05496020 210 215 213
-0.33005996 -0.49493070 1.06329314 210 213 213
-0.32999918 -0.47054624 0.75323260 0 0 0
-0.33005250 -0.46079081 0.85915244 204 210 206
-0.33735322 -0.46887389 0.87422347 206 214 210
-0.32645190 -0.47125748 0.88150853 208 208 208
-0.32968478 -0.46479353 1.03705690 212 213 212
-0.33031853 -0.47499020 1.04568761 210 214 213
-0.32992285 -0.44997901 0.75707596 0 0 0
-0.32485348 -0.44893443 0.83435714 134 146 146
-0.32339995 -0.45663399 0.85140197 203 208 204
-0.32993994 -0.44314595 1.01839428 211 212 213
-0.33023774 -0.45305800 1.02704867 210 213 213
-0.32670649 -0.43904952 0.75984588 0 0 0
-0.33008975 -0.42891290 0.76508488 0 0 0
-0.32891881 -0.42680761 0.78818023 89 94 93
-0.33410038 -0.43657140 0.80620056 53 54 54
-0.32963484 -0.42215194 0.99975311 209 209 209
-0.33017641 -0.43197842 1.00848624 210 211 210
-0.32097847 -0.41989363 0.77293527 0 0 0
-0.32998514 -0.40995487 0.98912538 210 211 210
-0.32993628 -0.38932694 0.97171123 206 207 207
-0.32993927 -0.36753036 0.95439442 207 207 207
-0.33041517 -0.37703008 0.96178757 209 209 211
-0.33013839 -0.34479082 0.93740333 209 210 211
-0.33011660 -0.35484806 0.94476250 206 207 208
-0.33006762 -0.32957863 0.92669066 208 209 208
-0.33008211 -0.30985246 0.91330827 203 204 203
-0.32960691 -0.28423017 0.89652749 205 206 206
-0.33029918 -0.29493311 0.90343996 206 209 208
-0.32996792 -0.26954284 0.88706518 205 207 208
-0.33003587 -0.24913838 0.87464784 209 210 210
-0.33066894 -0.25919682 0.88056403 209 209 209
-0.33073404 -0.22113196 0.85891263 209 210 210
-0.33012353 -0.23138254 0.86447265 205 206 208
-0.32978922 -0.21012531 0.85331667 209 210 210
-0.32999504 -0.18107437 0.83908428 211 213 213
-0.33000670 -0.19158670 0.84405409 211 212 212
-0.32994894 -0.16978284 0.83386942 207 208 208
-0.33010357 -0.15014019 0.82513573 205 207 207
-0.32973718 -0.12927974 0.81649848 207 209 210
-0.33177996 -0.13897648 0.82045907 205 207 208
-0.32998333 -0.11025873 0.80930444 208 209 210
-0.32915953 -0.08179009 0.79937683 201 200 199
-0.33011471 -0.09180217 0.80279678 205 206 206
-0.33006513 -0.06993497 0.79566685 199 199 198
-0.32996372 -0.05020354 0.78974824 194 194 193
-0.33002024 -0.03016026 0.78402680 203 202 201
-0.32985322 -0.00756051 0.77792974 207 207 207
-0.33044564 -0.01770013 0.78061454 205 205 201
-0.32993621 0.01028526 0.77337010 208 208 208
-0.33004621 0.03014132 0.76854268 204 205 204
-0.32994722 0.04977272 0.76410939 206 207 207
-0.32963250 0.07479117 0.75892937 197 197 198
-0.33036665 0.06445239 0.76100446 209 210 208
-0.32989327 0.09024167 0.75603012 204 204 205
-0.33018065 0.10993169 0.75250825 204 204 205
-0.32996111 0.12971424 0.74916094 199 198 199
-0.32999710 0.14976259 0.74604651 200 200 200
-0.33003258 0.16972521 0.74322576 200 201 201
-0.32889939 0.19688248 0.73967209 196 196 197
-0.33037353 0.18724069 0.74094342 199 199 199
-0.32995036 0.21012849 0.73805751 196 196 195
-0.33005177 0.23050404 0.73564006 189 190 189
-0.33001054 0.25003332 0.73352392 186 187 187
-0.32981677 0.26988789 0.73155309 187 188 187
-0.33013679 0.29020419 0.72963536 185 185 185
-0.32989895 0.31000522 0.72780672 178 179 180
-0.33001376 0.32980732 0.72608997 178 178 177
-0.33010950 0.34998503 0.72401868 105 105 105
-0.32899247 0.37642511 0.71953211 0 0 0
-0.33039989 0.36629340 0.72102476 0 0 0
-0.32994027 0.39021351 0.71798517 0 0 0
-0.33059926 0.40395295 0.71663191 0 0 0
-0.31044274 -0.60349663 1.15309978 210 211 208
-0.31224445 -0.58034897 1.09979200 209 211 206
-0.31144122 -0.58688932 1.11401850 209 210 207
-0.30901802 -0.58469028 1.13819142 212 213 209
-0.31127573 -0.59232084 1.14473175 211 213 209
-0.30001822 -0.56799854 1.07638729 207 212 204
-0.30600222 -0.57398227 1.08772677 206 211 203
-0.30976101 -0.56942749 1.12885797 212 213 212
-0.30985045 -0.54868870 1.10884743 211 213 213
-0.31173698 -0.52970703 1.00054562 210 217 216
-0.30972072 -0.52985921 1.09188065 211 216 215
-0.31991622 -0.53864390 1.10002637 216 222 222
-0.31010964 -0.50328282 0.74988331 0 0 0
-0.31675736 -0.50107864 0.94339049 213 212 212
-0.30945230 -0.50739493 1.07340155 209 211 211
-0.31158520 -0.51764185 1.08174062 210 212 210
-0.31006599 -0.49025855 0.75097361 0 0 0
-0.30354782 -0.48643899 0.91582814 215 216 215
-0.31514927 -0.49676816 0.93374854 209 214 211
-0.30932515 -0.48599515 1.05508501 212 215 213
-0.31091017 -0.49514867 1.06319844 210 211 211
-0.31000218 -0.47023689 0.75325687 0 0 0
-0.30978159 -0.46451464 1.03643447 211 214 212
-0.31029980 -0.47477922 1.04522293 210 214 212
-0.31009676 -0.44999185 0.75699571 0 0 0
-0.30909784 -0.44692974 0.83465591 177 178 178
-0.31704171 -0.45385575 0.84622189 179 184 184
-0.31008722 -0.44298102 1.01783142 209 212 212
-0.31008700 -0.45300404 1.02657535 209 212 211
-0.30820239 -0.43865742 0.75960755 0 0 0
-0.31011867 -0.42831838 0.76421635 0 0 0
-0.31340470 -0.42245534 0.78326085 122 126 127
-0.31132149 -0.43215221 0.80316693 118 126 125
-0.30956304 -0.42187954 0.99910802 209 209 209
-0.31004622 -0.43168598 1.00777471 210 212 211
-0.30869200 -0.41883576 0.77145387 0 0 0
-0.30997626 -0.40975199 0.98867804 210 211 211
-0.30993245 -0.38917194 0.97145838 210 211 211
-0.30998442 -0.36752140 0.95434128 210 211 210
-0.31045092 -0.37701026 0.96173703 208 209 209
-0.31002380 -0.34474009 0.93722078 208 209 209
-0.31014046 -0.35482414 0.94462845 209 210 210
-0.31282709 -0.32004605 0.91984655 206 206 206
-0.31019567 -0.33050356 0.92702955 205 206 205
-0.30973836 -0.31016017 0.91310243 205 205 204
-0.31024231 -0.28555054 0.89703291 203 203 202
-0.31008114 -0.29565489 0.90352158 203 203 201
-0.30978071 -0.27008552 0.88698706 205 206 206
-0.30984283 -0.24934368 0.87432666 207 208 208
-0.31456372 -0.25909478 0.88021738 202 204 205
-0.30999200 -0.22244204 0.85911147 212 213 214
-0.30996381 -0.23205049 0.86434755 208 209 209
-0.30994965 -0.21058365 0.85305500 206 208 209
-0.30995660 -0.18168957 0.83892083 205 208 208
-0.30998434 -0.19231043 0.84395840 205 206 206
-0.30996196 -0.16966985 0.83340354 206 207 209
-0.31006535 -0.15011309 0.82468156 208 209 210
-0.30982912 -0.12973595 0.81620837 207 209 210
-0.31296066 -0.13935689 0.82019508 207 207 209
-0.31001663 -0.11017852 0.80882080 207 209 210
-0.30923660 -0.08227828 0.79921416 193 194 194
-0.31015260 -0.09223519 0.80254787 200 201 201
-0.31002006 -0.06979231 0.79535682 197 197 197
-0.30995027 -0.05027637 0.78958678 198 198 198
-0.30997036 -0.03022155 0.78383779 206 206 206
-0.31007786 -0.00781881 0.77785083 205 205 204
-0.31016238 -0.01791217 0.78042891 199 199 199
-0.30992702 0.01027943 0.77336383 204 205 205
-0.31001303 0.03012759 0.76850062 207 208 209
-0.30999023 0.04976160 0.76385583 204 204 204
-0.30966471 0.07393326 0.75868854 204 204 204
-0.31030653 0.06362679 0.76082643 203 203 202
-0.31000703 0.09040550 0.75554859 203 204 204
-0.31000849 0.11019833 0.75202935 206 206 206
-0.31000258 0.12975304 0.74872974 199 200 199
-0.30999233 0.14986379 0.74558663 201 201 200
-0.31001831 0.16987084 0.74274862 200 200 199
-0.30950250 0.19526947 0.73946050 196 198 197
-0.31042256 0.18531408 0.74075008 200 200 199
-0.30999891 0.20989327 0.73765760 194 195 195
-0.30999275 0.23010241 0.73521810 190 191 190
-0.31000055 0.24994281 0.73303940 189 188 187
-0.31005005 0.27009602 0.73103378 191 192 192
-0.30988036 0.28999122 0.72915530 187 188 188
-0.31009287 0.31021131 0.72729668 181 184 183
-0.30992994 0.33001177 0.72557485 188 188 187
-0.30997295 0.34993127 0.72325753 75 75 75
-0.30958250 0.37469043 0.71929666 0 0 0
-0.31084167 0.36462505 0.72072243 0 0 0
-0.30982201 0.39027610 0.71752102 0 0 0
-0.31041602 0.40379699 0.71619825 0 0 0
-0.29445389 -0.60197312 1.14981050 213 213 211
-0.28824329 -0.58489612 1.13655568 211 212 210
-0.29066270 -0.59454239 1.14336717 210 210 208
-0.29588891 -0.56367630 1.06819642 208 212 203
-0.29673093 -0.57417711 1.09167171 209 210 208
-0.29002725 -0.57071252 1.12798720 211 215 212
-0.29164954 -0.55908879 1.05950284 211 214 204
-0.28672514 -0.55836637 1.06161106 207 210 207
-0.28554351 -0.54026227 1.09945059 216 217 217
-0.29017051 -0.55033309 1.10978996 212 213 212
-0.28975124 -0.52957442 1.09089026 213 215 215
-0.28998920 -0.50322978 0.74980427 0 0 0
-0.28983213 -0.50786265 1.07312438 212 213 212
-0.29030507 -0.51849116 1.08178100 213 215 216
-0.28993564 -0.49046407 0.75090389 0 0 0
-0.29557858 -0.48246909 0.90835392 209 211 209
-0.28530950 -0.48750559 0.92083275 210 216 216
-0.28989938 -0.48642341 1.05480269 211 213 212
-0.29031583 -0.49562903 1.06291829 209 212 208
-0.29000450 -0.47035877 0.75321117 0 0 0
-0.29573381 -0.46456098 0.87180102 211 220 213
-0.28385469 -0.47468261 0.89369416 208 208 208
-0.28887182 -0.47916594 0.90213501 205 211 203
-0.28977734 -0.46403560 1.03536543 214 216 215
-0.29018530 -0.47438324 1.04435127 211 212 211
-0.29005738 -0.45039711 0.75684520 0 0 0
-0.28999039 -0.44258242 1.01682781 212 215 215
-0.29006390 -0.45249230 1.02541542 212 214 214
-0.28946119 -0.43853952 0.75945409 0 0 0
-0.29007597 -0.42798997 0.76388305 0 0 0
-0.29072893 -0.42301994 0.78872800 104 104 104
-0.28965908 -0.43114733 0.80626422 170 174 172
-0.29035006 -0.42156237 0.99835688 212 214 212
-0.28991631 -0.43112809 1.00674012 212 214 213
-0.28936474 -0.41768053 0.77149070 4 4 4
-0.28655474 -0.41891067 0.78106618 90 90 90
-0.28493330 -0.40015279 0.97973686 212 213 213
-0.29028009 -0.41006796 0.98845136 210 211 211
-0.28993581 -0.38904403 0.97098489 210 211 211
-0.28995582 -0.36749406 0.95406415 209 210 210
-0.29081988 -0.37694080 0.96146774 209 210 208
-0.29016335 -0.34445739 0.93649693 210 210 209
-0.29004262 -0.35456594 0.94401060 210 211 211
-0.28574777 -0.32157770 0.91968004 202 202 202
-0.29024775 -0.33084768 0.92644993 203 203 201
-0.28997700 -0.31037564 0.91246861 204 206 206
-0.28947704 -0.28593868 0.89658984 205 206 204
-0.29050373 -0.29562978 0.90278111 204 205 203
-0.28997553 -0.27014368 0.88645194 206 206 206
-0.29010080 -0.24975103 0.87403745 207 208 209
-0.28907650 -0.22293487 0.85880155 209 210 211
-0.29022244 -0.23242072 0.86400546 206 208 209
-0.29000301 -0.21032087 0.85233968 207 209 210
-0.28946558 -0.18311126 0.83896171 201 201 203
-0.29022404 -0.19278998 0.84360964 205 207 208
-0.28996803 -0.17034639 0.83308376 204 205 205
-0.28168795 -0.14073250 0.81995019 201 202 204
-0.29009975 -0.15012418 0.82412928 206 207 209
-0.29002059 -0.13015461 0.81593393 208 208 209
-0.29003797 -0.11006339 0.80836165 207 208 209
-0.28988042 -0.08255632 0.79904601 197 197 198
-0.28998848 -0.09260048 0.80232059 199 200 201
-0.28999117 -0.06982588 0.79512215 199 199 200
-0.28997257 -0.05019167 0.78930869 195 195 195
-0.28990645 -0.03024608 0.78369327 203 203 203
-0.29015435 -0.00800278 0.77788302 203 203 202
-0.28976347 -0.01807434 0.78039628 205 205 206
-0.28993902 0.01028228 0.77353124 206 206 206
-0.29003147 0.03007000 0.76872209 205 202 203
-0.29008560 0.04974606 0.76335187 207 202 202
-0.28965593 0.07266086 0.75845943 206 203 203
-0.29075477 0.06251391 0.76063003 204 202 202
-0.29001928 0.09031560 0.75515221 206 205 204
-0.29000221 0.10998231 0.75175209 204 204 204
-0.29002902 0.12955972 0.74845229 202 202 201
-0.28997379 0.14956245 0.74530806 197 197 196
-0.28997463 0.16947223 0.74243091 197 198 198
-0.28953144 0.19409344 0.73922880 197 197 196
-0.29023807 0.18407773 0.74054828 194 194 193
-0.29014205 0.21025015 0.73720912 193 193 192
-0.29003950 0.23018466 0.73473298 195 196 195
-0.28993010 0.24953146 0.73258904 194 194 193
-0.29005900 0.26990989 0.73057372 190 191 190
-0.29000761 0.28992301 0.72868253 189 189 188
-0.28989933 0.30991467 0.72683143 178 180 182
-0.29008333 0.33005355 0.72508627 188 190 190
-0.29011899 0.34998171 0.72251967 38 38 38
-0.28962885 0.37282668 0.71906146 0 0 0
-0.29092259 0.36309654 0.72041219 0 0 0
-0.28980291 0.39003887 0.71708484 0 0 0
-0.29043650 0.40355628 0.71577131 0 0 0
-0.27001426 -0.58755585 1.13512561 211 212 211
-0.26976360 -0.59530587 1.14121804 211 211 210
-0.26556159 -0.56165035 1.11935282 212 214 211
-0.27019123 -0.57173374 1.12688313 213 215 211
-0.27470406 -0.54189233 1.03028929 211 212 210
-0.27977657 -0.54834392 1.04255557 210 212 210
-0.26466853 -0.54222019 1.09956741 212 214 214
-0.27060735 -0.55125748 1.10922912 211 212 211
-0.26733720 -0.53209861 1.01083875 212 213 209
-0.27104197 -0.53815695 1.02318728 215 215 213
-0.27027475 -0.52983823 1.08953420 209 211 210
-0.26990253 -0.50323159 0.74980697 0 0 0
-0.26942446 -0.50926072 1.07297447 210 211 209
-0.27099724 -0.51854719 1.08059887 205 206 204
-0.27005787 -0.49020349 0.75094287 0 0 0
-0.26947164 -0.48633217 1.05394413 212 213 211
-0.27102962 -0.49679786 1.06308602 212 213 211
-0.27003072 -0.47051714 0.75322465 0 0 0
-0.27135979 -0.46312289 0.87334594 186 192 192
-0.27843152 -0.46945007 0.88384277 187 192 190
-0.26958873 -0.46483949 1.03529673 209 212 210
-0.27030294 -0.47512799 1.04424281 212 214 213
-0.27002423 -0.45052099 0.75686079 0 0 0
-0.27958882 -0.44144850 0.82842785 196 200 195
-0.26241146 -0.45036899 0.84930074 182 189 185
-0.26965915 -0.44332425 1.01672332 210 212 210
-0.27054111 -0.45329745 1.02546125 209 211 210
-0.27040425 -0.43862450 0.75942292 0 0 0
-0.26983964 -0.42796175 0.76380200 0 0 0
-0.26962570 -0.42457492 0.79482973 52 52 51
-0.27557106 -0.42849659 0.80217402 96 98 97
-0.26998928 -0.42222526 0.99797063 212 212 211
-0.26998158 -0.43210852 1.00675503 210 210 209
-0.26994077 -0.41713230 0.77157196 0 0 0
-0.26300226 -0.41902224 0.78464894 46 46 46
-0.27975811 -0.40001751 0.97940564 210 210 210
-0.27004164 -0.41016677 0.98760450 208 209 208
-0.27013497 -0.39045745 0.97124670 211 211 210
-0.26997883 -0.36793711 0.95337487 210 211 212
-0.26896407 -0.37836744 0.96151801 211 211 211
-0.26993479 -0.34526056 0.93584564 212 213 212
-0.27038222 -0.35536331 0.94353519 213 213 213
-0.26800547 -0.32179328 0.91895952 200 200 199
-0.27031102 -0.33113118 0.92558218 202 203 202
-0.27000138 -0.30993020 0.91128836 203 203 201
-0.26994055 -0.28639582 0.89623155 203 202 202
-0.27036163 -0.29604742 0.90227265 200 200 199
-0.26797996 -0.26043909 0.87961931 208 208 210
-0.27009106 -0.27066233 0.88607018 208 208 208
-0.27006939 -0.24945196 0.87317432 206 207 208
-0.26935812 -0.22354612 0.85847591 209 210 211
-0.27028032 -0.23295672 0.86363053 208 208 211
-0.26997548 -0.21031471 0.85178101 208 209 211
-0.26955023 -0.18366706 0.83859993 204 205 205
-0.27026823 -0.19340613 0.84331483 207 208 209
-0.26996461 -0.17021005 0.83237668 206 207 208
-0.27025734 -0.14068364 0.81966553 209 210 210
-0.27001848 -0.15063993 0.82379651 206 206 208
-0.27000900 -0.13006970 0.81544971 207 208 209
-0.27003339 -0.11002619 0.80793518 208 208 209
-0.26956347 -0.08313119 0.79896748 201 200 202
-0.27024037 -0.09309170 0.80217101 196 195 195
-0.26997306 -0.06980825 0.79484471 202 202 202
-0.26991679 -0.05015093 0.78907997 197 197 196
-0.27002612 -0.03016272 0.78362429 206 206 205
-0.27001695 -0.00780484 0.77798848 205 205 204
-0.27013849 -0.01794382 0.78044229 205 206 206
-0.26998125 0.01028652 0.77380918 199 199 199
-0.26997943 0.03007837 0.76837635 206 184 190
-0.26983845 0.04985309 0.76304883 176 132 146
-0.27138480 0.07299965 0.75849217 191 157 168
-0.26697373 0.06424661 0.76110376 170 127 140
-0.26985354 0.09030579 0.75512524 187 155 165
-0.26978999 0.11010636 0.75112984 189 160 169
-0.26969445 0.12979448 0.74787314 192 167 174
-0.26982197 0.14974582 0.74486510 194 167 175
-0.26988674 0.16964102 0.74206467 199 174 181
-0.26954162 0.19317524 0.73898564 208 185 191
-0.27052867 0.18320042 0.74046159 194 178 183
-0.26989537 0.21025507 0.73687292 208 194 198
-0.26994653 0.23002724 0.73426866 196 193 193
-0.27013522 0.25030330 0.73202102 192 193 192
-0.26986264 0.27019931 0.73010058 182 183 184
-0.27007067 0.28998387 0.72822170 190 191 188
-0.26990626 0.30969824 0.72639043 188 188 188
-0.27019930 0.33030450 0.72462936 178 177 174
-0.27006493 0.35019446 0.72170721 2 2 2
-0.26967529 0.37076929 0.71882702 0 0 0
-0.27349936 0.36133165 0.72017474 0 0 0
-0.26977395 0.38983839 0.71664946 0 0 0
-0.27048589 0.40332354 0.71535850 0 0 0
-0.25688901 -0.58248436 1.11111748 209 209 208
-0.25013746 -0.58784888 1.13413225 212 213 211
-0.25865820 -0.59471900 1.14009404 215 216 213
-0.25052944 -0.57451501 1.09591556 206 207 205
-0.24994783 -0.56230970 1.11873895 207 208 207
-0.24994251 -0.57288121 1.12577197 208 211 210
-0.24203731 -0.55926936 1.06683373 209 213 210
-0.25001343 -0.54134316 1.09778888 213 216 214
-0.25005103 -0.55161373 1.10860456 210 211 210
-0.25099852 -0.52219770 0.99284428 212 213 212
-0.25804279 -0.52607714 1.00022018 206 207 207
-0.24125792 -0.52129941 1.07985187 210 212 212
-0.25035889 -0.53002997 1.08788637 212 214 213
-0.24984499 -0.50329268 0.74989800 0 0 0
-0.24251880 -0.51875224 0.98629349 213 216 213
-0.24982840 -0.50963448 1.07121604 211 212 210
-0.25815069 -0.51962387 1.08024871 200 200 199
-0.24984853 -0.49020544 0.75106098 0 0 0
-0.25522580 -0.49548722 0.93897450 209 215 205
-0.24990309 -0.48750551 1.05337172 209 210 207
-0.25179533 -0.49733024 1.06180060 211 211 210
-0.25018732 -0.46995544 0.75345169 0 0 0
-0.24948870 -0.46620953 1.03502231 210 210 208
-0.24986141 -0.47570487 1.04322885 206 207 205
-0.24987628 -0.44997618 0.75716291 0 0 0
-0.25406715 -0.44276303 0.83632004 205 212 204
-0.24991738 -0.44429148 1.01639843 206 205 205
-0.25048756 -0.45438503 1.02503836 208 208 206
-0.25124367 -0.43856103 0.75964000 0 0 0
-0.24994901 -0.42832202 0.76403276 0 0 0
-0.24541615 -0.42306932 0.79652083 122 125 125
-0.25371438 -0.43493466 0.81885993 140 145 144
-0.24513274 -0.43841540 0.82810795 201 208 201
-0.24991212 -0.42280919 0.99739274 213 214 213
-0.25031938 -0.43297145 1.00645870 207 208 206
-0.24968257 -0.41647229 0.77209056 1 1 1
-0.25340306 -0.41695012 0.78296443 101 102 101
-0.25008935 -0.40163336 0.97921798 210 211 209
-0.24971852 -0.41137360 0.98744526 208 209 208
-0.25000282 -0.39022634 0.96984250 212 212 212
-0.25010525 -0.36864883 0.95258444 209 210 210
-0.25040495 -0.37919069 0.96094593 211 211 211
-0.25000101 -0.34633176 0.93512770 203 203 203
-0.24987917 -0.35594003 0.94261808 200 201 202
-0.24888305 -0.32243499 0.91846703 203 203 202
-0.25027532 -0.33258817 0.92541747 204 204 202
-0.24996892 -0.30961438 0.91010296 200 200 200
-0.25012978 -0.28687352 0.89577954 205 205 206
-0.25004185 -0.29665998 0.90178828 203 203 204
-0.24815908 -0.26088429 0.87916644 189 189 191
-0.25014569 -0.27107507 0.88562471 209 209 208
-0.25002642 -0.24922320 0.87241077 201 202 203
-0.24993444 -0.22360241 0.85807137 208 209 208
-0.24999773 -0.23317154 0.86325478 208 208 209
-0.24999248 -0.20998070 0.85110872 209 210 210
-0.24959208 -0.18410163 0.83829031 207 207 208
-0.25022892 -0.19385475 0.84302335 207 207 208
-0.24999759 -0.17012089 0.83186133 208 210 210
-0.25036572 -0.14135990 0.81947790 205 206 207
-0.24995144 -0.15134113 0.82363406 210 210 211
-0.24996699 -0.13000123 0.81497137 210 210 211
-0.25003296 -0.11002731 0.80747964 200 201 201
-0.24960450 -0.08341630 0.79876706 202 203 203
-0.25021587 -0.09350328 0.80195114 194 194 194
-0.25001898 -0.06974071 0.79458073 199 200 200
-0.24995058 -0.05021903 0.78895760 198 197 197
-0.25006995 -0.03025564 0.78364804 207 207 208
-0.25005189 -0.00777927 0.77809694 206 206 206
-0.24992470 -0.01794525 0.78050473 206 206 208
-0.25003937 0.01030182 0.77404014 192 191 190
-0.25004237 0.03011771 0.76816691 198 163 173
-0.24998805 0.04979049 0.76420728 185 120 140
-0.25667424 0.07802003 0.75966799 161 155 161
-0.24945206 0.06929787 0.76158922 166 152 159
-0.25059783 0.09068933 0.75817794 156 149 156
-0.24357465 0.08245657 0.76021849 160 159 162
-0.25022950 0.10987033 0.75487526 159 155 159
-0.24991614 0.12994586 0.75127370 160 152 157
-0.24998820 0.14995741 0.74747770 160 146 152
-0.25002315 0.16989384 0.74395742 162 144 150
-0.25526806 0.19605269 0.73951024 165 128 141
-0.24871282 0.18829820 0.74136568 162 144 150
-0.25013496 0.21003525 0.73732770 187 151 163
-0.24187430 0.20098236 0.74018159 160 155 159
-0.24989322 0.22964044 0.73377278 195 188 189
-0.25006936 0.24998335 0.73159121 169 168 171
-0.24996317 0.27009813 0.72967493 170 170 171
-0.25002048 0.29018764 0.72776834 181 182 181
-0.25001332 0.31015504 0.72592257 186 186 185
-0.25003294 0.33005268 0.72416046 135 134 133
-0.24634830 0.35808356 0.71979682 0 0 0
-0.25060623 0.34881321 0.72121488 0 0 0
-0.25007329 0.36968448 0.71845942 0 0 0
-0.24977353 0.38957897 0.71623899 0 0 0
-0.25025093 0.40305254 0.71497741 0 0 0
-0.22512757 -0.58285311 1.11549875 216 219 218
-0.23145875 -0.58489871 1.12687034 213 216 214
-0.22679551 -0.56675251 1.11744688 211 213 213
-0.23294844 -0.57419097 1.12274802 212 213 213
-0.22996077 -0.54293752 1.09717529 211 211 211
