ply
format ascii 1.0
element vertex 465
property float x
property float y
property float z
property uchar red
property uchar green
property uchar blue
end_header
-1.04809976 -0.00859952 1.77691483 43 41 47
-1.05362338 -0.00865295 1.78627938 44 42 49
-1.04024756 0.00522191 1.77924371 44 43 51
-1.04581991 0.00833752 1.78745613 45 44 48
-1.02809244 -0.00544861 1.74940121 45 43 50
-1.03822315 -0.00092139 1.76534331 45 43 50
-1.02221972 0.00363655 1.75619650 46 44 55
-1.02888391 0.00468335 1.76765595 47 46 55
-1.03664246 0.00910288 1.78627938 47 45 53
-1.00170279 -0.02149643 1.70324588 41 40 49
-1.00231886 -0.01568005 1.71185899 43 42 47
-1.01116589 -0.00729671 1.73463988 47 44 54
-1.01159939 -0.00279265 1.74377537 52 49 62
-1.00122035 0.00359925 1.73818421 62 59 77
-1.01287252 0.00362190 1.75053570 54 52 65
-0.98392582 -0.02987778 1.67795014 43 43 50
-0.98759413 -0.02270983 1.68420595 42 41 50
-0.98691136 -0.01622426 1.69051906 44 43 50
-0.98926972 -0.01102500 1.70939655 60 58 70
-0.99689283 -0.00865181 1.72757375 61 59 74
-0.98558038 0.00355369 1.71618187 86 83 97
-0.96952689 -0.04658710 1.65339470 43 42 51
-0.97427946 -0.04107193 1.66149962 43 43 52
-0.96389789 -0.03084492 1.65273408 46 46 54
-0.97104018 -0.02627968 1.66456807 45 45 54
-0.96839383 -0.01494415 1.67617452 67 65 78
-0.97248378 -0.01549684 1.69136961 76 76 84
-0.97215102 -0.00503148 1.70927398 156 155 157
-0.96313012 0.00321086 1.69137385 146 144 149
-0.96710154 0.00206275 1.70971388 175 174 172
-0.97767353 0.00356271 1.72053766 169 167 166
-0.95316264 -0.04559101 1.63235785 44 44 54
-0.95964730 -0.04057470 1.64138460 44 44 53
-0.94031262 -0.03999367 1.61788034 48 48 59
-0.94881731 -0.03258781 1.63251626 48 48 58
-0.95104108 -0.02576307 1.64738485 62 61 74
-0.95704883 -0.02096956 1.66149962 56 54 69
-0.94897938 -0.01662117 1.65743732 115 113 122
-0.95049123 -0.00761391 1.67244860 142 140 146
-0.95384538 -0.00573785 1.68629813 173 172 170
-0.93807375 -0.03710873 1.61402822 45 45 55
-0.93780041 -0.02487916 1.63544714 91 88 104
-0.93924856 -0.00374814 1.66558194 172 173 172
-0.62088025 0.61784184 1.65339470 32 31 36
-0.62122548 0.60661346 1.66968429 30 29 32
-0.62088025 0.62212849 1.65339470 33 31 38
-0.60073066 0.61611760 1.63741994 34 33 37
-0.60937419 0.61230309 1.65101717 31 30 34
-0.61425231 0.60616714 1.66252020 29 28 32
-0.60307602 0.62410406 1.63610474 34 31 34
-0.60960723 0.62372186 1.64404445 32 31 35
-0.58098996 0.59197244 1.61402822 32 31 36
-0.58704857 0.59577735 1.62824512 32 31 36
-0.58517295 0.61575627 1.61788034 35 33 36
-0.59122893 0.61073890 1.62838665 33 32 35
-0.59819176 0.60605998 1.64470780 31 30 35
-0.58517295 0.62927208 1.61788034 36 36 40
-0.59304144 0.62486999 1.63181574 35 33 36
-0.59934825 0.62895739 1.64138460 37 31 36
-0.56594683 0.39371790 1.31142680 38 37 42
-0.56476496 0.40683825 1.30868693 41 41 42
-0.57821669 0.59428539 1.61148453 32 31 35
-0.57220771 0.60819349 1.59730027 33 32 36
-0.57658229 0.60940920 1.60486153 34 33 36
-0.57686943 0.62378317 1.60258114 39 39 43
-0.54294831 0.39204119 1.27479760 37 37 38
-0.54826383 0.38728242 1.29131816 35 34 37
-0.54905832 0.38773156 1.30436550 30 30 34
-0.54937633 0.38910464 1.32661208 28 27 29
-0.54399828 0.40470982 1.27185998 40 39 42
-0.55314572 0.40816516 1.28908511 41 40 44
-0.52131402 0.39858428 1.25535524 33 33 37
-0.53061407 0.39369038 1.26896797 33 33 36
-0.53587482 0.38751287 1.28829670 28 28 31
-0.53866287 0.38867127 1.30364978 26 26 29
-0.52977540 0.40265985 1.25228546 38 38 41
-0.53373222 0.40273110 1.26280143 38 37 41
-0.50224935 0.37762838 1.23646766 25 25 29
-0.50487932 0.37812158 1.25226422 25 24 28
-0.50510517 0.38873041 1.23778411 27 27 32
-0.51003263 0.38874361 1.25160696 26 26 31
-0.51841167 0.39208090 1.26096060 27 28 32
-0.51903424 0.40140636 1.24727219 35 35 38
-0.48210680 -0.52379839 1.01027924 177 178 178
-0.48303714 -0.51770494 1.01087592 176 178 176
-0.48156318 -0.50826460 1.02710891 177 178 176
-0.48181194 0.37023947 1.14123201 39 38 42
-0.49660042 0.37672712 1.23703301 26 24 31
-0.49569422 0.38244617 1.23477566 27 24 31
-0.48349123 0.59362109 1.45346818 179 178 173
-0.48242394 0.61120965 1.43926084 180 180 178
-0.48559846 0.60884400 1.44972193 180 180 177
-0.49064093 0.60884121 1.46126060 180 180 176
-0.49399756 0.62220615 1.45626771 180 181 174
-0.47148236 -0.52516129 1.01006156 177 179 178
-0.47377153 -0.51211819 1.01080140 176 178 178
-0.47852144 -0.50780876 1.02440482 177 178 176
-0.46120489 0.36723676 1.09691238 40 40 44
-0.46497569 0.36449440 1.10588071 38 37 43
-0.47189507 0.36410967 1.12233746 39 38 42
-0.47164415 0.58218712 1.43926084 175 174 169
-0.47483212 0.58918964 1.44729382 178 176 171
-0.47412999 0.59644133 1.46097374 181 178 175
-0.47117229 0.61277346 1.44850034 187 186 181
-0.46613491 0.60995618 1.46922531 187 187 179
-0.46882913 0.60809237 1.48011315 185 185 178
-0.46801340 0.62799915 1.45375480 189 186 179
-0.46652900 0.63495302 1.46269740 188 187 180
-0.46614136 0.64085579 1.45574633 187 186 177
-0.46996216 0.64097781 1.46176261 188 186 177
-0.45840946 -0.52501333 0.99984050 175 179 178
-0.44261734 0.35768898 1.07841592 33 32 38
-0.44775525 0.35742586 1.08725381 33 31 39
-0.44662602 0.37098428 1.07363680 36 36 40
-0.45390285 0.36497815 1.08869541 37 36 41
-0.44608836 0.38977739 1.07211463 38 37 42
-0.44400305 0.40218226 1.07237467 38 38 42
-0.45323756 0.59765297 1.45470357 183 183 176
-0.45519117 0.59770393 1.46097374 180 180 171
-0.45468699 0.60977360 1.45263352 189 189 183
-0.45850807 0.60429753 1.46350086 186 186 178
-0.45715076 0.62383714 1.45595489 190 187 182
-0.45771635 0.63053119 1.46097374 187 187 180
-0.42089355 0.35862952 1.05755353 28 28 32
-0.42921093 0.35736724 1.07246352 27 27 31
-0.43118048 0.35808541 1.08812965 26 26 30
-0.42155120 0.36193600 1.05920601 28 28 32
-0.43116691 0.37002589 1.06910387 29 28 32
-0.42457359 0.37854638 1.08405681 27 26 32
-0.42213774 0.38543633 1.05837977 31 30 37
-0.43329861 0.38822440 1.07020733 32 31 36
-0.43103680 0.38244159 1.09251529 27 26 32
-0.40972497 0.35765421 1.05467850 28 27 31
-0.41668279 0.35783354 1.06633844 28 28 32
-0.41553836 0.37172031 1.05788507 29 28 32
-0.41660168 0.36662043 1.06552819 27 26 31
-0.41782592 0.38026761 1.05673510 31 30 34
-0.41664010 0.38111439 1.06419572 28 28 32
-0.18255807 0.07591874 0.53501371 38 36 46
-0.19545421 0.07835064 0.55542442 33 32 37
-0.18268804 0.08092219 0.53615440 37 36 44
-0.19075858 0.08540624 0.54837270 33 31 37
-0.17172877 0.07483957 0.53068381 153 151 155
-0.16961147 0.08445735 0.52913404 166 165 167
-0.14527642 -0.10270657 0.99362315 33 30 34
-0.14761041 -0.09113540 0.98923767 30 28 33
-0.14290465 -0.07473681 0.98825749 27 25 31
-0.13919923 -0.10158333 0.99106997 32 31 35
-0.13807993 -0.09170629 0.98757820 29 28 34
-0.13975466 -0.07357118 0.98292861 27 25 31
-0.04897204 -0.24640931 0.59950672 169 170 171
-0.04472672 -0.24456242 0.60582043 143 143 145
-0.05004141 -0.23672311 0.59990430 174 174 176
-0.04608426 -0.23798801 0.60471918 156 156 158
-0.05053335 -0.08074232 0.62906790 66 65 76
-0.04775655 -0.07500942 0.63579220 110 108 115
-0.05355236 -0.07245496 0.64191480 57 57 61
-0.05479869 0.09354280 0.61850163 176 174 177
-0.04619130 0.09344964 0.62148149 113 111 118
-0.05311091 0.10204150 0.61412572 176 175 178
-0.04529240 0.10367747 0.62188117 101 100 106
-0.03612269 -0.24460499 0.60590829 41 40 50
-0.03734114 -0.07532002 0.63449332 180 178 181
-0.03606220 0.09482278 0.62160009 34 32 41
-0.03630472 0.10406269 0.62232644 32 31 38
0.01476054 -0.00452559 0.53388257 181 179 183
0.01204355 0.00540372 0.53478362 180 179 182
0.04969552 -0.08309530 0.59375401 80 78 88
0.05142145 -0.07611836 0.59430859 178 175 177
0.11952269 0.09811020 0.66820337 44 40 53
0.11868243 0.10714355 0.67043741 36 32 37
0.13077644 -0.26286990 0.63344539 99 98 100
0.13094971 -0.25636506 0.63560949 97 96 99
0.13500789 -0.25253334 0.64271602 126 127 128
0.13426389 -0.08241011 0.67963111 147 145 148
0.13222465 -0.08529753 0.68254610 162 160 162
0.13523509 -0.07424566 0.67881531 133 130 135
0.13049318 -0.07745993 0.68306993 171 170 173
0.13002465 0.09820203 0.67046112 94 91 100
0.12981484 0.10956008 0.67089292 89 86 91
0.14240636 -0.26064830 0.64499700 173 173 173
0.14171859 -0.25583383 0.63443998 174 174 174
0.14506147 -0.25576621 0.64841561 175 174 175
0.14693536 -0.08305539 0.67815157 38 37 42
0.14306790 -0.08644808 0.68230349 47 45 53
0.14690786 -0.07548651 0.67783928 35 34 42
0.14683078 -0.07422600 0.68201308 36 35 42
0.14306599 0.09865810 0.67537624 177 177 179
0.14299126 0.10725688 0.67321799 180 180 182
0.14378932 0.12129974 0.68335873 178 178 180
0.15394470 0.19984600 0.45042646 0 0 0
0.15473879 0.20249323 0.45506359 0 0 0
0.15722701 0.20837504 0.46886485 0 0 0
0.15938752 0.21380199 0.48094496 0 0 0
0.17518004 -0.13326023 0.46316925 180 179 180
0.17618090 0.20634943 0.45620403 0 0 0
0.17844773 0.21074519 0.46631846 0 0 0
0.16088289 0.21751278 0.48929234 0 0 0
0.16242503 0.22133963 0.49790080 0 0 0
0.16458070 0.22668898 0.50993411 0 0 0
0.16800304 0.23518160 0.52903816 0 0 0
0.17169181 0.24433539 0.54962951 0 0 0
0.17567940 0.25423069 0.57188890 0 0 0
0.17897598 0.26260952 0.59035079 0 0 0
0.18152191 -0.14052360 0.46115091 180 179 179
0.18184845 -0.13622616 0.46206031 180 179 180
0.18035992 0.21438953 0.47488052 0 0 0
0.18205831 0.21721381 0.48243204 0 0 0
0.18449849 0.22169380 0.49326543 0 0 0
0.18665086 0.22572944 0.50288713 0 0 0
0.18006869 0.26452792 0.59621096 0 0 0
0.18229626 0.27065059 0.60882530 0 0 0
0.18469307 0.27659832 0.62220466 0 0 0
0.18635438 0.28072089 0.63147834 0 0 0
0.18894803 0.28715710 0.64595655 0 0 0
0.19258776 0.29618918 0.66627413 0 0 0
0.19556190 0.29816869 0.68267053 0 0 0
0.19668418 0.30525669 0.68909920 0 0 0
0.19956622 0.31164613 0.70515813 0 0 0
0.19073081 0.38178581 0.85055441 0 0 0
0.19313799 0.38960728 0.86797929 0 0 0
0.19564587 0.39775592 0.88613313 0 0 0
0.19826089 0.40625271 0.90506256 0 0 0
0.20170449 0.31692082 0.71709311 0 0 0
0.20398951 0.31870991 0.72970057 0 0 0
0.20387983 0.32421070 0.72930825 0 0 0
0.20739130 0.33094901 0.74883463 0 0 0
0.21111374 0.33607435 0.76945728 0 0 0
0.21099406 0.34186484 0.76902106 0 0 0
0.21490395 0.34948113 0.79076719 0 0 0
0.21905902 0.35543999 0.81379575 0 0 0
0.21892769 0.36155230 0.81330785 0 0 0
0.20099008 0.41512045 0.92481834 0 0 0
0.20384108 0.42438394 0.94545585 0 0 0
0.20682220 0.43407029 0.96703541 0 0 0
0.20994261 0.44420916 0.98962313 0 0 0
0.21321227 0.45483300 1.01329124 0 0 0
0.21664214 0.46597746 1.03811920 0 0 0
0.22182447 0.36655265 0.82939486 0 0 0
0.22479143 0.37387149 0.84595517 0 0 0
0.22797595 0.37717390 0.86355650 0 0 0
0.22783092 0.38364588 0.86300716 0 0 0
0.23109554 0.38942244 0.88114224 0 0 0
0.23455213 0.39631458 0.90025479 0 0 0
0.23424105 0.40045083 0.89906079 0 0 0
0.23794686 0.40632317 0.91938353 0 0 0
0.22024433 0.47768176 1.06419444 0 0 0
0.22403213 0.48998919 1.09161329 0 0 0
0.22802030 0.50294757 1.12048233 0 0 0
0.23222512 0.51660997 1.15091991 0 0 0
0.23666477 0.53103542 1.18305731 0 0 0
0.24137728 0.41819933 0.93890840 0 0 0
0.24171206 0.41390413 0.94021058 0 0 0
0.24553576 0.41997379 0.96154869 0 0 0
0.24536187 0.42714928 0.96086770 0 0 0
0.24941651 0.43461639 0.98340253 0 0 0
0.25372860 0.43994281 1.00726867 0 0 0
0.25354038 0.44744441 1.00652146 0 0 0
0.25799354 0.45577413 1.03127615 0 0 0
0.24135949 0.54628956 1.21704102 0 0 0
0.24633189 0.56244600 1.25303483 0 0 0
0.25160739 0.57958722 1.29122257 0 0 0
0.25721452 0.59780604 1.33181107 0 0 0
0.27957969 -0.22237355 0.53010377 51 50 53
0.27774473 -0.22692936 0.54807866 157 157 156
0.27860060 -0.21291359 0.52756257 48 47 50
0.27696110 -0.21731198 0.54593009 144 143 142
0.26260303 0.46714475 1.05700445 0 0 0
0.26759088 0.47373042 1.08462691 0 0 0
0.26737715 0.48178066 1.08376062 0 0 0
0.27254823 0.49167744 1.11251465 0 0 0
0.27807915 0.49929428 1.14315653 0 0 0
0.27784508 0.50775701 1.14219427 0 0 0
0.26318562 0.61720747 1.37503421 0 0 0
0.26955730 0.63791043 1.42115688 0 0 0
0.27637124 0.66005051 1.47048128 0 0 0
0.28378008 -0.22361693 0.53175818 50 48 51
0.28306845 -0.22535295 0.54646858 65 64 69
0.28156110 -0.21622227 0.52839794 47 47 48
0.28289589 -0.21582502 0.54567871 60 56 63
0.29117226 -0.18319501 0.50656972 39 37 39
0.28921491 -0.17496465 0.50551733 38 37 41
0.29605174 -0.08094133 0.60580202 74 74 81
0.29343475 -0.07072719 0.60792128 58 57 61
0.29268675 0.09545986 0.60340360 157 155 156
0.29317061 0.10457452 0.60355734 153 150 152
0.28375956 0.51313955 1.17485583 0 0 0
0.28351410 0.52182475 1.17383957 0 0 0
0.28959210 0.53372097 1.20764669 0 0 0
0.29594013 0.54938022 1.24307883 0 0 0
0.28367519 0.68378264 1.52335250 0 0 0
0.29152396 0.70928502 1.58016741 0 0 0
0.29998088 0.73676342 1.64138460 0 0 0
0.30456189 -0.08059180 0.60711315 167 167 166
0.30708935 -0.06504507 0.59966337 176 174 174
0.30487740 -0.06997586 0.60572050 171 170 170
0.31389922 0.07388906 0.56450283 178 177 175
0.31218997 0.08288436 0.56608056 97 94 98
0.30934684 0.09649975 0.61054852 43 41 47
0.30249980 0.10752303 0.59990430 39 38 46
0.30251252 0.10387260 0.60300051 44 40 51
0.30286241 0.55970043 1.28145909 0 0 0
0.30229098 0.56969798 1.27904117 0 0 0
0.30286241 0.56856000 1.28145909 0 0 0
0.31002444 0.57715696 1.32142663 0 0 0
0.30942127 0.58743173 1.31885576 0 0 0
0.31002444 0.58629286 1.32142663 0 0 0
0.31764761 0.59573746 1.36396754 0 0 0
0.31732868 0.60573629 1.36259806 0 0 0
0.30911946 0.76645660 1.70753610 0 0 0
0.31902558 0.79864377 1.77924371 0 0 0
0.32577792 0.61555409 1.40933859 0 0 0
0.32543997 0.62586457 1.40787661 0 0 0
0.33446774 0.63673443 1.45783186 0 0 0
0.33410886 0.64737657 1.45626771 0 0 0
0.32980016 0.83365285 1.85723794 0 0 0
0.35210297 -0.22638650 0.47789629 175 174 173
0.35262415 -0.23338518 0.48228993 175 175 173
0.34377688 0.65942430 1.50978136 0 0 0
0.34339491 0.67042002 1.50810385 0 0 0
0.35350226 0.69137335 1.56436765 0 0 0
0.34156269 0.87187189 1.94238353 0 0 0
0.36081308 -0.23509058 0.48351887 177 177 175
0.37916204 -0.06261159 0.48796723 169 169 163
0.37841143 -0.05646556 0.48793675 172 171 170
0.36453825 0.71002764 1.62563992 0 0 0
0.36410220 0.72180551 1.62369537 0 0 0
0.37616152 0.73835790 1.69050336 0 0 0
0.37569365 0.75056991 1.68840075 0 0 0
0.38388105 -0.06238717 0.48832025 161 160 155
0.38391191 -0.05700322 0.48881440 166 162 158
0.38627614 0.07903561 0.51074519 40 39 41
0.39140266 0.07835160 0.52635275 57 55 59
0.38898735 0.08348386 0.51498644 36 36 37
0.39173139 0.08478844 0.52724486 36 35 38
0.39531230 0.19945473 0.50075147 83 77 72
0.39377355 0.20648688 0.49707969 76 69 67
0.39461303 0.20434834 0.50161329 111 99 91
0.38875088 0.76904291 1.76075804 0 0 0
0.38774374 0.78222775 1.75619650 0 0 0
0.38875088 0.78121620 1.76075804 0 0 0
0.41623673 -0.08362598 0.67047117 173 173 173
0.41428511 -0.07293552 0.66737796 174 174 174
0.41574697 0.09158838 0.54190409 49 44 44
0.41175574 0.10038803 0.53929341 34 33 33
0.41727814 0.10070850 0.54101503 46 44 45
0.40206945 0.81117759 1.83545021 0 0 0
0.41735333 0.83875781 1.92037344 0 0 0
0.41617438 0.85293764 1.91494870 0 0 0
0.41735333 0.85203469 1.92037344 0 0 0
0.42123161 0.09301968 0.54111153 120 102 89
0.42055100 0.10070850 0.54101503 114 96 90
0.43069826 0.11210731 0.63903862 35 32 33
0.42815180 0.11567382 0.64469993 38 36 37
0.42999398 0.12058555 0.64565583 35 34 36
0.45878972 -0.00752492 0.47293229 136 134 126
0.44106854 0.11799409 0.64893603 34 31 33
0.44156854 0.12136107 0.64994703 35 30 34
0.45857166 0.14692662 0.45064647 124 116 108
0.46443622 -0.00774464 0.47250192 128 125 121
0.46263952 0.14637552 0.45083426 127 118 108
0.55970415 0.23751842 0.52033459 137 136 133
0.55954850 0.24233136 0.51985568 144 136 137
0.56702650 0.23622538 0.52413616 127 125 122
0.56493968 0.24412842 0.51985568 97 94 95
0.56925533 0.24257676 0.52467281 118 114 110
0.62767969 0.15428853 0.59261550 135 126 118
0.62960679 0.16966794 0.59536514 124 118 105
0.63364446 0.18032423 0.59977169 129 128 107
0.63716646 0.18428643 0.60219221 129 123 110
0.65863019 0.13840756 0.66071391 131 121 115
0.65854813 0.14338786 0.65910766 139 133 126
0.65513868 0.14718260 0.66279721 132 129 116
0.64063662 0.18744594 0.60688615 131 121 116
0.66070741 0.13851087 0.66394889 134 126 117
0.66488749 0.15111687 0.66701605 132 126 116
0.67834401 0.15925644 0.68404830 135 132 121
0.66990376 0.16079951 0.67319620 134 126 120
0.67834401 0.16043878 0.68404830 132 129 120
0.73517266 0.09909874 0.66905468 80 72 74
0.73521514 0.10275416 0.66972694 76 69 71
0.75941537 -0.44462051 0.77226465 89 92 91
0.75888520 -0.42598486 0.75996846 85 89 90
0.75926520 -0.43529280 0.76685899 89 92 92
0.75055288 0.09646442 0.67841801 95 92 89
0.74508132 0.10766028 0.67724871 95 91 89
0.74967597 0.11280569 0.68198659 127 122 116
0.77095115 -0.46104243 0.77473354 88 88 84
0.76308053 -0.44866838 0.76962506 91 92 89
0.76121607 -0.43458484 0.76560351 90 92 91
0.77638040 -0.26453185 1.03134902 40 39 42
0.77720913 -0.24926176 1.03501794 38 37 39
0.77885073 -0.24801838 1.04130852 38 38 41
0.77447744 -0.23249154 1.02968231 36 35 37
0.77885073 -0.23451976 1.04130852 36 36 37
0.76143321 0.09713859 0.67959100 92 93 89
0.76536395 0.09854508 0.68187077 93 94 88
0.77252698 0.10024150 0.68473923 91 88 84
0.79599488 -0.28136134 1.03049449 42 42 43
0.79270598 -0.27169557 1.03402129 40 40 42
0.79604487 -0.26244013 1.04355531 38 36 38
0.78613499 -0.24523408 1.03745965 36 35 38
0.79294900 -0.24916726 1.04233560 37 36 38
0.78412346 -0.23493529 1.03128372 35 34 36
0.78285182 -0.23259569 1.04344948 35 34 37
0.80404622 -0.28206308 1.03232952 41 40 40
0.80506144 -0.27440571 1.03650796 40 39 41
0.80456153 -0.26461856 1.04291400 40 37 39
0.93085575 0.41032296 0.99873719 143 141 131
0.93319013 0.41571622 1.00709245 129 126 117
0.93840698 0.42181394 1.01531533 133 126 120
0.93936044 0.42955393 1.02400577 121 113 109
0.94595160 0.41723539 1.01039211 147 142 133
0.95286752 0.42773410 1.01576815 137 130 121
0.95057506 0.43290377 1.02739175 124 119 112
0.95372669 0.44160287 1.03706261 116 109 102
0.96474672 0.43457023 1.02825827 141 137 126
1.07862949 -0.64337426 1.52678347 59 57 59
1.07532459 -0.63382000 1.51654416 59 56 57
1.08351016 -0.64230919 1.53369200 58 56 58
1.09599680 -0.64088222 1.54946911 57 56 56
1.08488509 -0.63797350 1.53283039 58 55 57
1.09875536 -0.63747472 1.54769826 57 56 55
1.11870444 -0.66093260 1.59129536 56 54 57
1.10848361 -0.65119468 1.57193315 56 55 56
1.11622053 -0.65373814 1.58386809 56 56 56
1.11402178 -0.63413006 1.56920248 60 51 52
1.10964231 -0.63701735 1.58882260 54 54 54
1.11832881 -0.63653576 1.60258114 56 54 54
1.13021096 -0.66216664 1.60766272 57 56 56
1.12386526 -0.64743086 1.59056056 58 54 54
1.13465169 -0.64744040 1.61595887 61 54 53
1.12617393 -0.63476948 1.59330749 62 53 54
1.13261271 -0.63321781 1.60534634 62 54 55
1.13170588 -0.63433909 1.62175083 61 56 59
1.14148217 -0.66175908 1.62369537 57 57 57
1.14423382 -0.64504999 1.62760949 62 55 56
1.15103547 -0.65116103 1.64537501 58 54 55
1.14252951 -0.63183086 1.61250567 59 50 53
1.14840367 -0.63355529 1.63054821 57 50 53
1.15672326 -0.63788720 1.64537501 61 56 58
1.15630406 0.42961742 1.14703822 89 89 88
1.16233850 -0.65689194 1.65743732 61 56 56
1.16921518 -0.65211898 1.66724312 63 57 59
1.16467004 -0.63602222 1.64938745 54 49 50
1.17146892 0.41785155 1.15711991 93 88 83
1.17638479 0.41528704 1.16317122 96 90 84
1.16630888 0.42569071 1.15559656 92 92 87
1.17042646 0.42743125 1.16737226 82 82 76
1.18849111 -0.65409678 1.69472957 61 57 57
1.19747210 -0.65608823 1.70753610 57 55 54
1.18535127 0.41642265 1.17370442 97 91 84
1.19748203 0.41798688 1.18720963 88 82 76
1.18132055 0.42249283 1.17689562 79 72 67
1.18950261 0.42801477 1.19109003 93 87 81
1.19506651 0.43246644 1.20371878 90 87 84
1.19184148 0.44030789 1.19768882 82 82 80
1.21388765 -0.66372369 1.73522059 53 52 52
1.21908677 -0.66054493 1.74265254 52 51 51
1.20201570 -0.65413192 1.71401501 52 52 52
1.20966017 -0.65382183 1.72491562 52 51 51
1.20506757 0.41616614 1.19180434 85 78 74
1.20012188 0.42167693 1.19768882 101 94 87
1.20698557 0.42956025 1.21456836 115 112 103
1.21335244 0.43003449 1.22142673 130 129 115
