ply
format ascii 1.0
element vertex 1071
property float x
property float y
property float z
property uchar red
property uchar green
property uchar blue
end_header
0.60956174 0.33012424 0.89797634 143 145 145
0.60956174 0.35030127 0.89797634 147 148 146
0.60956174 0.37047831 0.89797634 146 148 147
0.60956174 0.39065534 0.89797634 159 165 165
0.60956174 0.41005633 0.89797634 48 51 51
0.60956174 0.42945732 0.89797634 0 0 0
0.60956174 0.44963436 0.89797634 0 0 0
0.60956174 0.46981139 0.89797634 0 0 0
0.60956174 0.48998842 0.89797634 0 0 0
0.60956174 0.50550922 0.89797634 0 0 0
0.63046647 -0.80475816 1.31474519 103 119 122
0.63000585 -0.78921965 1.31474519 100 119 121
0.63000585 -0.76990399 1.31474519 100 119 122
0.63000585 -0.75058833 1.31474519 101 118 120
0.63000585 -0.73013645 1.31474519 102 117 122
0.63000585 -0.70968458 1.31474519 99 118 121
0.63000585 -0.68923270 1.31474519 104 116 122
0.63000585 -0.66991704 1.31474519 102 117 121
0.63000585 -0.65060138 1.31474519 100 116 120
0.63000585 -0.63014950 1.31474519 98 115 120
0.63000585 -0.60969763 1.31474519 99 114 122
0.63000585 -0.58924575 1.31474519 100 113 122
0.63000585 -0.56993009 1.31474519 101 113 120
0.63000585 -0.55061443 1.31474519 100 112 120
0.63000585 -0.53016255 1.31474519 100 113 118
0.63000585 -0.50971068 1.31474519 99 112 121
0.63000585 -0.48925880 1.31474519 96 111 120
0.63000585 -0.46994314 1.31474519 98 110 120
0.63000585 -0.45062748 1.31474519 100 110 120
0.63000585 -0.43017560 1.31474519 99 110 121
0.63000585 -0.40972373 1.31474519 96 111 120
0.62903195 -0.39738768 1.31474519 96 108 122
0.63988685 -0.34619935 1.05252862 101 111 118
0.63135087 -0.32292545 0.89839578 95 113 118
0.62898513 -0.32787150 0.90676652 93 114 120
0.63206156 -0.33591405 0.94433555 97 111 114
0.62978224 -0.30935403 0.89803840 98 111 119
0.62975602 -0.28993946 0.89800095 96 111 116
0.62974979 -0.27053525 0.89799204 93 108 115
0.62974668 -0.25035662 0.89798762 93 106 111
0.62974502 -0.23017872 0.89798524 90 104 112
0.62974386 -0.21000110 0.89798358 89 101 109
0.62974294 -0.18982363 0.89798227 88 101 110
0.62974198 -0.16964621 0.89798091 87 100 110
0.62974103 -0.14946885 0.89797955 80 90 96
0.62974040 -0.13006765 0.89797866 59 61 64
0.62974022 -0.11066658 0.89797839 59 61 63
0.62974008 -0.09048948 0.89797820 65 66 70
0.62973996 -0.07031239 0.89797803 64 66 68
0.62973975 -0.05013530 0.89797772 85 86 88
0.62973924 -0.02995821 0.89797701 128 133 136
0.62973905 -0.00978116 0.89797672 149 153 153
0.62973896 0.01039588 0.89797660 129 134 138
0.62973892 0.03057291 0.89797654 127 133 137
0.62973889 0.04997391 0.89797650 153 157 159
0.62973886 0.06937490 0.89797646 143 145 147
0.62973886 0.08955194 0.89797646 148 151 152
0.62973883 0.10972897 0.89797642 123 129 135
0.62973882 0.12990600 0.89797640 126 131 137
0.62973882 0.15008303 0.89797640 147 154 155
0.62973882 0.17026007 0.89797640 159 163 163
0.62973882 0.19043710 0.89797640 161 168 168
0.62973882 0.21061414 0.89797640 163 168 169
0.62973879 0.23001512 0.89797636 152 155 157
0.62973878 0.24941611 0.89797634 158 161 159
0.62973878 0.26959314 0.89797634 169 173 172
0.62973878 0.28977017 0.89797634 160 164 162
0.62973878 0.30994721 0.89797634 144 145 142
0.62973878 0.33012424 0.89797634 156 160 160
0.62973878 0.35030127 0.89797634 144 148 147
0.62973878 0.37047831 0.89797634 153 157 156
0.62973878 0.39065534 0.89797634 167 169 166
0.62973878 0.41005633 0.89797634 79 81 79
0.62973878 0.42945732 0.89797634 0 0 0
0.62973878 0.44963436 0.89797634 0 0 0
0.62973878 0.46981139 0.89797634 0 0 0
0.62973878 0.48998842 0.89797634 0 0 0
0.62973878 0.50550922 0.89797634 0 0 0
0.64995079 -0.80778366 1.31474519 99 120 121
0.64932151 -0.78921965 1.31474519 99 118 122
0.64932151 -0.76990399 1.31474519 100 119 122
0.64932151 -0.75058833 1.31474519 101 117 120
0.64932151 -0.73013645 1.31474519 102 116 122
0.64932151 -0.70968458 1.31474519 102 116 121
0.64932151 -0.68923270 1.31474519 101 117 121
0.64932151 -0.66991704 1.31474519 102 115 121
0.64932151 -0.65060138 1.31474519 100 114 122
0.64932151 -0.63014950 1.31474519 99 114 119
0.64932151 -0.60969763 1.31474519 98 114 119
0.64932151 -0.58924575 1.31474519 98 113 122
0.64932151 -0.56993009 1.31474519 99 113 123
0.64932151 -0.55061443 1.31474519 103 113 120
0.64932151 -0.53016255 1.31474519 99 112 119
0.64932151 -0.50971068 1.31474519 99 110 121
0.64932151 -0.48925880 1.31474519 97 110 122
0.64932151 -0.46994314 1.31474519 99 110 121
0.64932151 -0.45062748 1.31474519 98 110 120
0.64932151 -0.43017560 1.31474519 96 110 123
0.64877612 -0.41036001 1.31474519 98 109 122
0.64136800 -0.39836157 1.31474519 95 110 123
0.65568608 -0.34238591 0.94194055 93 118 119
0.65065789 -0.34720013 0.97844791 97 112 114
0.65081669 -0.35965990 1.10506570 95 112 117
0.65104292 -0.32601841 0.89823913 98 113 117
0.65033416 -0.33317781 0.90287575 100 111 117
0.65780085 -0.33922741 0.92883450 99 114 118
0.64994455 -0.30934626 0.89801609 97 112 117
0.64993005 -0.28993787 0.89799603 96 110 117
0.64992560 -0.27053459 0.89798987 92 109 117
0.64992310 -0.25035629 0.89798641 93 106 113
0.64992168 -0.23017852 0.89798446 90 103 111
0.64992071 -0.21000099 0.89798312 89 100 110
0.64991989 -0.18982357 0.89798197 88 101 111
0.64991896 -0.16964617 0.89798070 88 100 109
0.64991805 -0.14946883 0.89797944 81 89 96
0.64991745 -0.13006764 0.89797861 59 61 64
0.64991727 -0.11066657 0.89797836 59 61 65
0.64991713 -0.09048947 0.89797817 64 66 69
0.64991701 -0.07031239 0.89797799 63 65 67
0.64991677 -0.05013530 0.89797766 86 88 92
0.64991628 -0.02995821 0.89797699 126 133 133
0.64991609 -0.00978116 0.89797672 150 154 155
0.64991600 0.01039588 0.89797660 131 136 139
0.64991595 0.03057291 0.89797653 126 132 136
0.64991592 0.04997391 0.89797650 156 159 160
0.64991590 0.06937490 0.89797646 153 157 158
0.64991590 0.08955194 0.89797646 144 148 149
0.64991586 0.10972897 0.89797641 126 133 137
0.64991585 0.12990600 0.89797640 119 129 133
0.64991585 0.15008303 0.89797640 147 153 154
0.64991585 0.17026007 0.89797640 154 160 162
0.64991585 0.19043710 0.89797640 165 170 169
0.64991585 0.21061414 0.89797640 163 166 166
0.64991582 0.23001512 0.89797635 169 173 173
0.64991581 0.24941611 0.89797634 166 169 168
0.64991581 0.26959314 0.89797634 144 147 148
0.64991581 0.28977017 0.89797634 150 152 152
0.64991581 0.30994721 0.89797634 155 159 156
0.64991581 0.33012424 0.89797634 166 172 170
0.64991581 0.35030127 0.89797634 161 168 167
0.64991581 0.37047831 0.89797634 146 149 148
0.64991581 0.39065534 0.89797634 143 144 142
0.64991581 0.41005633 0.89797634 80 82 82
0.64991581 0.42945732 0.89797634 0 0 0
0.64991581 0.44963436 0.89797634 0 0 0
0.64991581 0.46981139 0.89797634 0 0 0
0.64991581 0.48998842 0.89797634 0 0 0
0.64991581 0.50550922 0.89797634 0 0 0
0.67431824 -0.82216990 1.31474519 98 118 120
0.66988700 -0.80955791 1.31474519 101 119 122
0.66977338 -0.78921965 1.31474519 98 118 124
0.66977338 -0.76990399 1.31474519 99 118 120
0.66977338 -0.75058833 1.31474519 100 115 122
0.66977338 -0.73013645 1.31474519 101 115 122
0.66977338 -0.70968458 1.31474519 101 115 121
0.66977338 -0.68923270 1.31474519 102 115 122
0.66977338 -0.66991704 1.31474519 100 115 120
0.66977338 -0.65060138 1.31474519 99 114 121
0.66977338 -0.63014950 1.31474519 99 114 120
0.66977338 -0.60969763 1.31474519 97 113 120
0.66977338 -0.58924575 1.31474519 99 113 121
0.66977338 -0.56993009 1.31474519 101 113 122
0.66977338 -0.55061443 1.31474519 100 113 119
0.66977338 -0.53016255 1.31474519 100 111 118
0.66977338 -0.50971068 1.31474519 97 110 120
0.66977338 -0.48925880 1.31474519 94 112 123
0.66977338 -0.46994314 1.31474519 96 111 121
0.66977338 -0.45062748 1.31474519 100 110 120
0.66977338 -0.43017560 1.31474519 97 110 122
0.66924585 -0.41280774 1.31474519 99 108 121
0.67759753 -0.34180156 0.89876090 96 113 119
0.67296015 -0.34262516 0.90392032 97 111 123
0.67302715 -0.34440391 0.92548847 101 111 118
0.67183213 -0.35265142 0.97481740 93 113 123
0.66298119 -0.35955677 1.08742416 101 110 120
0.67043431 -0.32929223 0.89813000 99 112 118
0.66337421 -0.33844916 0.90278425 99 110 120
0.67011339 -0.30934202 0.89800389 97 111 118
0.67010496 -0.28993675 0.89799258 97 111 117
0.67010156 -0.27053403 0.89798803 94 109 115
0.67009964 -0.25035601 0.89798544 93 106 115
0.67009840 -0.23017835 0.89798379 92 101 113
0.67009761 -0.21000090 0.89798273 89 100 110
0.67009679 -0.18982349 0.89798163 87 100 111
0.67009596 -0.16964613 0.89798052 88 100 110
0.67009509 -0.14946881 0.89797936 80 88 95
0.67009450 -0.13006764 0.89797856 59 62 65
0.67009433 -0.11066657 0.89797834 59 61 65
0.67009419 -0.09048947 0.89797815 64 65 69
0.67009405 -0.07031238 0.89797796 62 64 66
0.67009380 -0.05013530 0.89797762 91 92 94
0.67009332 -0.02995821 0.89797698 128 134 134
0.67009312 -0.00978116 0.89797671 146 150 149
0.67009304 0.01039588 0.89797660 135 140 143
0.67009299 0.03057291 0.89797653 127 133 136
0.67009296 0.04997391 0.89797650 153 158 159
0.67009293 0.06937490 0.89797646 149 151 151
0.67009293 0.08955194 0.89797646 136 143 145
0.67009290 0.10972897 0.89797641 127 136 140
0.67009289 0.12990600 0.89797640 124 132 136
0.67009289 0.15008303 0.89797640 152 160 160
0.67009289 0.17026007 0.89797640 166 171 172
0.67009289 0.19043710 0.89797640 161 163 162
0.67009289 0.21061414 0.89797640 167 172 171
0.67009285 0.23001512 0.89797635 162 167 167
0.67009284 0.24941611 0.89797634 164 167 167
0.67009284 0.26959314 0.89797634 156 158 158
0.67009284 0.28977017 0.89797634 161 166 166
0.67009284 0.30994721 0.89797634 153 160 159
0.67009284 0.33012424 0.89797634 157 160 158
0.67009284 0.35030127 0.89797634 159 161 160
0.67009284 0.37047831 0.89797634 144 147 147
0.67009284 0.39065534 0.89797634 134 135 135
0.67009284 0.41005633 0.89797634 113 118 117
0.67009284 0.42945732 0.89797634 0 0 0
0.67009284 0.44963436 0.89797634 0 0 0
0.67009284 0.46981139 0.89797634 0 0 0
0.67009284 0.48998842 0.89797634 0 0 0
0.67009284 0.50550922 0.89797634 0 0 0
0.69152379 -0.82363074 1.31474519 99 119 120
0.69022526 -0.80967153 1.31474519 103 117 121
0.69022526 -0.78921965 1.31474519 98 117 122
0.69022526 -0.76990399 1.31474519 100 115 120
0.69022526 -0.75058833 1.31474519 101 116 123
0.69022526 -0.73013645 1.31474519 101 116 122
0.69022526 -0.70968458 1.31474519 102 116 122
0.69022526 -0.68923270 1.31474519 102 114 120
0.69022526 -0.66991704 1.31474519 100 115 120
0.69022526 -0.65060138 1.31474519 100 114 119
0.69022526 -0.63014950 1.31474519 100 113 119
0.69022526 -0.60969763 1.31474519 99 113 120
0.69022526 -0.58924575 1.31474519 100 113 120
0.69022526 -0.56993009 1.31474519 99 113 120
0.69022526 -0.55061443 1.31474519 100 112 119
0.69022526 -0.53016255 1.31474519 102 112 120
0.69022526 -0.50971068 1.31474519 98 111 122
0.69022526 -0.48925880 1.31474519 97 111 122
0.69022526 -0.46994314 1.31474519 99 111 118
0.69022526 -0.45062748 1.31474519 99 109 122
0.69022526 -0.43017560 1.31474519 98 109 123
0.68820532 -0.41603604 1.31474519 96 110 119
0.69190451 -0.34535138 0.89826526 96 113 118
0.68959393 -0.35045040 0.90345642 96 112 118
0.68811127 -0.35173012 0.93082237 98 110 122
0.69290771 -0.35450076 0.94385320 99 110 122
0.69030496 -0.32952639 0.89802204 97 112 118
0.69028572 -0.30933962 0.89799697 96 112 115
0.69028053 -0.28993598 0.89799021 93 110 118
0.69027795 -0.27053367 0.89798685 94 109 117
0.69027631 -0.25035581 0.89798471 92 106 114
0.69027524 -0.23017823 0.89798332 90 101 112
0.69027451 -0.21000082 0.89798237 89 100 109
0.69027371 -0.18982343 0.89798132 89 101 108
0.69027295 -0.16964610 0.89798034 88 101 109
0.69027212 -0.14946880 0.89797926 80 87 94
0.69027155 -0.13006763 0.89797852 60 63 65
0.69027139 -0.11066657 0.89797832 60 61 65
0.69027125 -0.09048947 0.89797813 64 65 68
0.69027111 -0.07031238 0.89797795 62 64 66
0.69027085 -0.05013530 0.89797760 92 94 95
0.69027035 -0.02995821 0.89797696 129 135 136
0.69027016 -0.00978116 0.89797671 140 144 144
0.69027008 0.01039588 0.89797660 136 141 142
0.69027002 0.03057291 0.89797653 123 131 133
0.69027000 0.04997391 0.89797650 157 160 162
0.69026997 0.06937490 0.89797646 148 151 151
0.69026997 0.08955194 0.89797646 139 146 148
0.69026993 0.10972897 0.89797641 126 133 138
0.69026992 0.12990600 0.89797640 130 140 142
0.69026992 0.15008303 0.89797640 150 155 156
0.69026992 0.17026007 0.89797640 163 166 167
0.69026992 0.19043710 0.89797640 158 160 159
0.69026992 0.21061414 0.89797640 162 165 164
0.69026989 0.23001512 0.89797635 158 160 160
0.69026988 0.24941611 0.89797634 145 149 149
0.69026988 0.26959314 0.89797634 157 162 161
0.69026988 0.28977017 0.89797634 168 172 171
0.69026988 0.30994721 0.89797634 170 173 172
0.69026988 0.33012424 0.89797634 135 138 138
0.69026988 0.35030127 0.89797634 133 135 136
0.69026988 0.37047831 0.89797634 135 139 139
0.69026988 0.39065534 0.89797634 150 156 154
0.69026988 0.41005633 0.89797634 139 143 142
0.69026988 0.42945732 0.89797634 0 0 0
0.69026988 0.44963436 0.89797634 0 0 0
0.69026988 0.46981139 0.89797634 0 0 0
0.69026988 0.48998842 0.89797634 0 0 0
0.69026988 0.50550922 0.89797634 0 0 0
0.71181335 -0.82648751 1.31474519 101 116 120
0.71067713 -0.80967153 1.31474519 96 117 120
0.71067713 -0.78921965 1.31474519 98 116 121
0.71067713 -0.76990399 1.31474519 100 115 119
0.71067713 -0.75058833 1.31474519 100 116 121
0.71067713 -0.73013645 1.31474519 98 116 120
0.71067713 -0.70968458 1.31474519 101 116 120
0.71067713 -0.68923270 1.31474519 100 115 121
0.71067713 -0.66991704 1.31474519 98 115 120
0.71067713 -0.65060138 1.31474519 99 113 122
0.71067713 -0.63014950 1.31474519 100 113 120
0.71067713 -0.60969763 1.31474519 101 114 120
0.71067713 -0.58924575 1.31474519 101 114 119
0.71067713 -0.56993009 1.31474519 100 112 122
0.71067713 -0.55061443 1.31474519 99 113 120
0.71067713 -0.53016255 1.31474519 100 113 119
0.71067713 -0.50971068 1.31474519 100 111 119
0.71067713 -0.48925880 1.31474519 97 111 119
0.71067713 -0.46994314 1.31474519 97 111 117
0.71067713 -0.45062748 1.31474519 97 110 121
0.71067713 -0.43017560 1.31474519 99 110 120
0.70385984 -0.41767724 1.31474519 94 111 116
0.71115779 -0.38184141 1.13116860 92 111 122
0.71666324 -0.36205886 0.89863594 99 113 118
0.71495869 -0.36383500 0.90621006 98 114 118
0.70903015 -0.36125356 0.93183613 98 112 119
0.71090001 -0.34930567 0.89813530 97 112 120
0.70417700 -0.35763814 0.90238208 95 115 115
0.71047014 -0.32952035 0.89800573 97 111 117
0.71046045 -0.30933840 0.89799347 95 112 116
0.71045659 -0.28993546 0.89798858 96 110 118
0.71045446 -0.27053339 0.89798589 94 109 116
0.71045301 -0.25035563 0.89798406 94 106 113
0.71045208 -0.23017812 0.89798288 91 103 112
0.71045134 -0.21000072 0.89798194 87 101 110
0.71045061 -0.18982336 0.89798102 87 101 108
0.71044991 -0.16964606 0.89798014 87 100 108
0.71044914 -0.14946878 0.89797915 79 86 90
0.71044860 -0.13006763 0.89797848 59 62 65
0.71044845 -0.11066656 0.89797829 59 62 65
0.71044832 -0.09048947 0.89797813 63 64 68
0.71044818 -0.07031238 0.89797794 61 62 65
0.71044788 -0.05013529 0.89797757 95 98 98
0.71044739 -0.02995821 0.89797695 132 138 137
0.71044719 -0.00978116 0.89797670 139 144 144
0.71044711 0.01039588 0.89797660 144 148 148
0.71044706 0.03057291 0.89797653 127 134 136
0.71044703 0.04997391 0.89797649 153 157 158
0.71044700 0.06937490 0.89797646 144 149 149
0.71044700 0.08955194 0.89797646 135 139 141
0.71044697 0.10972897 0.89797641 130 136 140
0.71044695 0.12990600 0.89797640 122 131 135
0.71044695 0.15008303 0.89797640 149 156 156
0.71044695 0.17026007 0.89797640 170 174 175
0.71044695 0.19043710 0.89797640 163 167 168
0.71044695 0.21061414 0.89797640 148 149 149
0.71044692 0.23001512 0.89797635 159 165 165
0.71044691 0.24941611 0.89797634 166 171 171
0.71044691 0.26959314 0.89797634 157 161 159
0.71044691 0.28977017 0.89797634 160 162 160
0.71044691 0.30994721 0.89797634 144 145 147
0.71044691 0.33012424 0.89797634 142 145 145
0.71044691 0.35030127 0.89797634 147 151 151
0.71044691 0.37047831 0.89797634 142 149 148
0.71044691 0.39065534 0.89797634 146 151 151
0.71044691 0.41005633 0.89797634 152 156 156
0.71044691 0.42945732 0.89797634 9 9 9
0.71044691 0.44963436 0.89797634 0 0 0
0.71044691 0.46981139 0.89797634 0 0 0
0.71044691 0.48998842 0.89797634 0 0 0
0.71044691 0.50550922 0.89797634 0 0 0
0.73056090 -0.82912921 1.31474519 97 117 119
0.72999280 -0.80967153 1.31474519 98 116 119
0.72999280 -0.78921965 1.31474519 100 116 120
0.72999280 -0.76990399 1.31474519 98 116 121
0.72999280 -0.75058833 1.31474519 103 115 121
0.72999280 -0.73013645 1.31474519 98 116 121
0.72999280 -0.70968458 1.31474519 99 116 119
0.72999280 -0.68923270 1.31474519 97 116 121
0.72999280 -0.66991704 1.31474519 98 114 121
0.72999280 -0.65060138 1.31474519 100 113 120
0.72999280 -0.63014950 1.31474519 97 114 118
0.72999280 -0.60969763 1.31474519 100 113 119
0.72999280 -0.58924575 1.31474519 102 112 120
0.72999280 -0.56993009 1.31474519 99 114 122
0.72999280 -0.55061443 1.31474519 100 113 121
0.72999280 -0.53016255 1.31474519 99 112 119
0.72999280 -0.50971068 1.31474519 98 111 121
0.72999280 -0.48925880 1.31474519 98 111 121
0.72999280 -0.46994314 1.31474519 95 111 119
0.72999280 -0.45062748 1.31474519 96 110 121
0.72974579 -0.43057081 1.31474519 97 109 119
0.73131499 -0.36615057 0.89832397 99 113 118
0.73264787 -0.37374828 0.90396465 101 111 118
0.72684332 -0.37049177 0.92272675 96 115 117
0.73066495 -0.34970632 0.89802681 96 113 118
0.73064186 -0.32951763 0.89799837 97 112 117
0.73063576 -0.30933751 0.89799087 96 111 116
0.73063276 -0.28993500 0.89798718 97 109 120
0.73063099 -0.27053312 0.89798500 93 109 114
0.73062980 -0.25035548 0.89798354 92 106 114
0.73062893 -0.23017801 0.89798247 90 101 113
0.73062814 -0.21000062 0.89798150 85 101 109
0.73062748 -0.18982329 0.89798069 86 101 108
0.73062684 -0.16964602 0.89797991 87 99 109
0.73062612 -0.14946876 0.89797902 76 84 88
0.73062565 -0.13006762 0.89797843 58 62 66
0.73062550 -0.11066656 0.89797825 59 61 64
0.73062538 -0.09048947 0.89797810 63 64 69
0.73062524 -0.07031238 0.89797793 60 62 65
0.73062493 -0.05013529 0.89797756 96 98 97
0.73062443 -0.02995821 0.89797694 137 141 141
0.73062423 -0.00978116 0.89797670 140 144 144
0.73062415 0.01039588 0.89797660 147 151 150
0.73062409 0.03057291 0.89797653 124 131 133
0.73062407 0.04997391 0.89797649 151 156 157
0.73062404 0.06937490 0.89797646 134 140 142
0.73062404 0.08955194 0.89797646 143 147 148
0.73062400 0.10972897 0.89797641 124 131 135
0.73062399 0.12990600 0.89797640 119 127 132
0.73062399 0.15008303 0.89797640 149 156 155
0.73062399 0.17026007 0.89797640 165 166 166
0.73062399 0.19043710 0.89797640 155 159 160
0.73062399 0.21061414 0.89797640 164 170 169
0.73062395 0.23001512 0.89797635 170 174 171
0.73062394 0.24941611 0.89797634 164 166 164
0.73062394 0.26959314 0.89797634 144 149 148
0.73062394 0.28977017 0.89797634 145 149 149
0.73062394 0.30994721 0.89797634 154 160 158
0.73062394 0.33012424 0.89797634 157 163 165
0.73062394 0.35030127 0.89797634 151 156 157
0.73062394 0.37047831 0.89797634 122 126 128
0.73062394 0.39065534 0.89797634 127 131 132
0.73062394 0.41005633 0.89797634 154 157 156
0.73062394 0.42945732 0.89797634 30 31 30
0.73062394 0.44963436 0.89797634 0 0 0
0.73062394 0.46981139 0.89797634 0 0 0
0.73062394 0.48998842 0.89797634 0 0 0
0.73062394 0.50550922 0.89797634 0 0 0
0.75120215 -0.84300051 1.31474519 100 118 121
0.74930846 -0.83012340 1.31474519 99 116 120
0.74930846 -0.80967153 1.31474519 98 116 119
0.74930846 -0.78921965 1.31474519 102 115 120
0.74930846 -0.76990399 1.31474519 96 115 118
0.74930846 -0.75058833 1.31474519 99 115 120
0.74930846 -0.73013645 1.31474519 96 118 120
0.74930846 -0.70968458 1.31474519 97 118 120
0.74930846 -0.68923270 1.31474519 102 115 120
0.74930846 -0.66991704 1.31474519 102 115 122
0.74930846 -0.65060138 1.31474519 99 114 120
0.74930846 -0.63014950 1.31474519 98 114 120
0.74930846 -0.60969763 1.31474519 100 114 122
0.74930846 -0.58924575 1.31474519 103 112 122
0.74930846 -0.56993009 1.31474519 100 114 121
0.74930846 -0.55061443 1.31474519 100 112 121
0.74930846 -0.53016255 1.31474519 98 112 120
0.74930846 -0.50971068 1.31474519 98 111 120
0.74930846 -0.48925880 1.31474519 99 110 121
0.74930846 -0.46994314 1.31474519 97 111 119
0.74930846 -0.45062748 1.31474519 98 109 120
0.74896929 -0.43190536 1.31474519 97 110 118
0.75441313 -0.38250423 0.89850209 98 114 118
0.75241932 -0.38461044 0.90388952 98 113 117
0.75122769 -0.38298511 0.96213317 95 118 114
0.74317076 -0.39759972 1.12047946 98 113 117
0.74961868 -0.36975985 0.89811378 97 114 119
0.74137202 -0.37918769 0.90541613 94 109 114
0.75005188 -0.34969917 0.89800863 97 113 118
0.75004026 -0.32951627 0.89799469 96 112 117
0.75003562 -0.30933691 0.89798914 95 111 115
0.75003315 -0.28993468 0.89798618 97 110 116
0.75003172 -0.27053295 0.89798446 94 108 113
0.75003057 -0.25035535 0.89798308 92 106 113
0.75002969 -0.23017790 0.89798203 89 102 112
0.75002895 -0.21000053 0.89798115 86 102 109
0.75002835 -0.18982324 0.89798043 85 100 107
0.75002779 -0.16964599 0.89797976 85 99 108
0.75002709 -0.14946874 0.89797892 75 82 87
0.75002664 -0.13006761 0.89797838 60 62 65
0.75002651 -0.11066655 0.89797822 59 62 64
0.75002639 -0.09048946 0.89797808 64 64 67
0.75002626 -0.07031238 0.89797793 59 63 65
0.75002595 -0.05013529 0.89797755 99 102 101
0.75002542 -0.02995821 0.89797693 139 141 141
0.75002523 -0.00978116 0.89797669 134 140 140
0.75002515 0.01039588 0.89797659 147 153 151
0.75002509 0.03057291 0.89797653 124 134 136
0.75002506 0.04997391 0.89797649 152 156 157
0.75002503 0.06937490 0.89797646 143 147 148
0.75002503 0.08955194 0.89797646 140 144 146
0.75002499 0.10972897 0.89797641 125 134 137
0.75002498 0.12990600 0.89797640 117 129 132
0.75002498 0.15008303 0.89797640 138 148 148
0.75002498 0.17026007 0.89797640 166 170 170
0.75002498 0.19043710 0.89797640 169 174 172
0.75002498 0.21061414 0.89797640 165 169 168
0.75002494 0.23001512 0.89797635 151 152 151
0.75002493 0.24941611 0.89797634 145 148 149
0.75002493 0.26959314 0.89797634 165 171 169
0.75002493 0.28977017 0.89797634 164 169 168
0.75002493 0.30994721 0.89797634 166 171 170
0.75002493 0.33012424 0.89797634 157 162 161
0.75002493 0.35030127 0.89797634 154 159 158
0.75002493 0.37047831 0.89797634 137 140 136
0.75002493 0.39065534 0.89797634 123 130 128
0.75002493 0.41005633 0.89797634 116 118 119
0.75002493 0.42945732 0.89797634 41 42 43
0.75002493 0.44963436 0.89797634 0 0 0
0.75002493 0.46981139 0.89797634 0 0 0
0.75002493 0.48998842 0.89797634 0 0 0
0.75002493 0.50550922 0.89797634 0 0 0
0.77028474 -0.84533121 1.31474519 97 116 119
0.76976033 -0.83012340 1.31474519 99 116 120
0.76976033 -0.80967153 1.31474519 102 116 118
0.76976033 -0.78921965 1.31474519 100 115 119
0.76976033 -0.76990399 1.31474519 98 116 121
0.76976033 -0.75058833 1.31474519 95 117 120
0.76976033 -0.73013645 1.31474519 100 116 122
0.76976033 -0.70968458 1.31474519 99 116 122
0.76976033 -0.68923270 1.31474519 102 115 121
0.76976033 -0.66991704 1.31474519 99 115 123
0.76976033 -0.65060138 1.31474519 99 114 121
0.76976033 -0.63014950 1.31474519 98 115 120
0.76976033 -0.60969763 1.31474519 99 114 119
0.76976033 -0.58924575 1.31474519 101 112 123
0.76976033 -0.56993009 1.31474519 100 113 118
0.76976033 -0.55061443 1.31474519 97 110 125
0.76976033 -0.53016255 1.31474519 96 111 120
0.76976033 -0.50971068 1.31474519 96 111 121
0.76976033 -0.48925880 1.31474519 96 111 118
0.76976033 -0.46994314 1.31474519 97 110 117
0.76976033 -0.45062748 1.31474519 98 110 117
0.76904272 -0.43304604 1.31474519 97 110 117
0.77068022 -0.38623806 0.89829911 97 114 120
0.77081875 -0.39375143 0.90473916 95 116 117
0.77857747 -0.39964199 0.93119770 98 113 117
0.77093742 -0.39372224 0.96808910 101 113 120
0.76946948 -0.36988462 0.89802720 97 115 118
0.76944726 -0.34969628 0.89800125 97 112 117
0.76943947 -0.32951534 0.89799215 97 111 116
0.76943573 -0.30933644 0.89798778 95 111 116
0.76943375 -0.28993445 0.89798547 96 109 115
0.76943238 -0.27053278 0.89798388 94 107 115
0.76943136 -0.25035524 0.89798268 90 107 113
0.76943049 -0.23017781 0.89798167 88 103 111
0.76942981 -0.21000047 0.89798087 88 100 109
0.76942927 -0.18982320 0.89798024 87 100 107
0.76942875 -0.16964596 0.89797963 86 100 108
0.76942807 -0.14946873 0.89797884 72 81 83
0.76942765 -0.13006761 0.89797835 59 61 63
0.76942751 -0.11066655 0.89797819 60 61 64
0.76942740 -0.09048946 0.89797805 62 63 66
0.76942728 -0.07031238 0.89797791 59 62 64
0.76942695 -0.05013529 0.89797753 100 103 104
0.76942642 -0.02995821 0.89797691 138 140 139
0.76942623 -0.00978116 0.89797669 136 142 141
0.76942614 0.01039588 0.89797659 154 160 158
0.76942609 0.03057291 0.89797652 132 138 140
0.76942606 0.04997391 0.89797649 147 152 153
0.76942603 0.06937490 0.89797646 142 145 145
0.76942603 0.08955194 0.89797646 144 148 149
0.76942599 0.10972897 0.89797641 124 133 136
0.76942598 0.12990600 0.89797640 124 133 136
0.76942598 0.15008303 0.89797640 153 162 162
0.76942598 0.17026007 0.89797640 169 174 173
0.76942598 0.19043710 0.89797640 163 165 165
0.76942598 0.21061414 0.89797640 155 157 157
0.76942594 0.23001512 0.89797635 155 159 158
0.76942593 0.24941611 0.89797634 163 168 167
0.76942593 0.26959314 0.89797634 165 170 169
0.76942593 0.28977017 0.89797634 156 161 160
0.76942593 0.30994721 0.89797634 162 164 163
0.76942593 0.33012424 0.89797634 150 152 153
0.76942593 0.35030127 0.89797634 148 149 148
0.76942593 0.37047831 0.89797634 116 120 120
0.76942593 0.39065534 0.89797634 133 136 132
0.76942593 0.41005633 0.89797634 105 113 116
0.76942593 0.42945732 0.89797634 69 72 72
0.76942593 0.44963436 0.89797634 0 0 0
0.76942593 0.46981139 0.89797634 0 0 0
0.76942593 0.48998842 0.89797634 0 0 0
0.76942593 0.50550922 0.89797634 0 0 0
0.79089394 -0.84807561 1.31474519 98 116 120
0.79021221 -0.83012340 1.31474519 97 115 121
0.79021221 -0.80967153 1.31474519 99 114 118
0.79021221 -0.78921965 1.31474519 99 115 119
0.79021221 -0.76990399 1.31474519 102 115 121
0.79021221 -0.75058833 1.31474519 98 116 121
0.79021221 -0.73013645 1.31474519 100 117 120
0.79021221 -0.70968458 1.31474519 101 117 121
0.79021221 -0.68923270 1.31474519 99 116 121
0.79021221 -0.66991704 1.31474519 98 115 121
0.79021221 -0.65060138 1.31474519 98 114 120
0.79021221 -0.63014950 1.31474519 98 114 118
0.79021221 -0.60969763 1.31474519 97 114 121
0.79021221 -0.58924575 1.31474519 99 113 121
0.79021221 -0.56993009 1.31474519 99 113 119
0.79021221 -0.55061443 1.31474519 101 112 122
0.79021221 -0.53016255 1.31474519 98 112 120
0.79021221 -0.50971068 1.31474519 95 111 120
0.79021221 -0.48925880 1.31474519 96 112 119
0.79021221 -0.46994314 1.31474519 96 110 118
0.79021221 -0.45062748 1.31474519 98 110 119
0.78939646 -0.43536141 1.31474519 100 108 118
0.79724866 -0.40085065 0.89901499 96 116 116
0.79345806 -0.40203704 0.90795243 94 117 118
0.78597820 -0.40327074 0.92475569 97 117 117
0.78040007 -0.40003521 0.95915389 102 112 119
0.79791369 -0.40822428 0.98696899 104 112 120
0.79765632 -0.41007545 1.09686768 101 111 117
0.79031560 -0.38914264 0.89820255 96 114 119
0.78728809 -0.39861291 0.90245646 97 120 121
0.78361219 -0.39987989 0.94700778 95 113 117
0.78041780 -0.39849202 0.97155911 104 113 121
0.78963760 -0.36987988 0.89801576 95 114 118
0.78962192 -0.34969498 0.89799791 97 112 116
0.78961534 -0.32951470 0.89799043 97 111 117
0.78961226 -0.30933614 0.89798692 95 110 116
0.78961044 -0.28993425 0.89798484 92 110 114
0.78960913 -0.27053262 0.89798336 91 108 114
0.78960816 -0.25035512 0.89798226 90 107 113
0.78960736 -0.23017772 0.89798134 87 103 108
0.78960675 -0.21000042 0.89798065 86 100 108
0.78960623 -0.18982316 0.89798006 87 99 109
0.78960574 -0.16964594 0.89797950 84 98 107
0.78960508 -0.14946871 0.89797876 72 79 82
0.78960470 -0.13006760 0.89797832 59 62 63
0.78960456 -0.11066655 0.89797816 58 61 63
0.78960444 -0.09048946 0.89797802 61 64 67
0.78960432 -0.07031238 0.89797789 59 61 63
0.78960400 -0.05013529 0.89797752 107 109 108
0.78960346 -0.02995821 0.89797691 139 142 140
0.78960327 -0.00978116 0.89797669 138 143 142
0.78960318 0.01039588 0.89797659 155 160 158
0.78960312 0.03057291 0.89797652 130 137 139
0.78960309 0.04997391 0.89797649 141 146 148
0.78960306 0.06937490 0.89797646 131 136 141
0.78960306 0.08955194 0.89797646 146 149 149
0.78960302 0.10972897 0.89797641 125 133 136
0.78960301 0.12990600 0.89797640 115 125 130
0.78960301 0.15008303 0.89797640 151 156 156
0.78960301 0.17026007 0.89797640 162 166 165
0.78960301 0.19043710 0.89797640 156 160 161
0.78960301 0.21061414 0.89797640 164 170 169
0.78960297 0.23001512 0.89797635 164 170 169
0.78960296 0.24941611 0.89797634 167 171 170
0.78960296 0.26959314 0.89797634 144 150 150
0.78960296 0.28977017 0.89797634 156 159 157
0.78960296 0.30994721 0.89797634 130 137 138
0.78960296 0.33012424 0.89797634 140 146 147
0.78960296 0.35030127 0.89797634 148 153 152
0.78960296 0.37047831 0.89797634 142 148 146
0.78960296 0.39065534 0.89797634 131 139 139
0.78960296 0.41005633 0.89797634 135 142 142
0.78960296 0.42945732 0.89797634 81 84 83
0.78960296 0.44963436 0.89797634 0 0 0
0.78960296 0.46981139 0.89797634 0 0 0
0.78960296 0.48998842 0.89797634 0 0 0
0.78960296 0.50550922 0.89797634 0 0 0
0.81861759 -0.86307365 1.31474519 95 115 117
0.81096309 -0.84997727 1.31474519 98 118 119
0.81066408 -0.83012340 1.31474519 99 116 120
0.81066408 -0.80967153 1.31474519 98 116 119
0.81066408 -0.78921965 1.31474519 99 115 121
0.81066408 -0.76990399 1.31474519 100 115 119
0.81066408 -0.75058833 1.31474519 99 116 119
0.81066408 -0.73013645 1.31474519 100 116 120
0.81066408 -0.70968458 1.31474519 100 117 122
0.81066408 -0.68923270 1.31474519 102 117 122
0.81066408 -0.66991704 1.31474519 101 114 120
0.81066408 -0.65060138 1.31474519 98 114 120
0.81066408 -0.63014950 1.31474519 100 113 120
0.81066408 -0.60969763 1.31474519 99 113 122
0.81066408 -0.58924575 1.31474519 100 113 120
0.81066408 -0.56993009 1.31474519 99 113 119
0.81066408 -0.55061443 1.31474519 100 113 120
0.81066408 -0.53016255 1.31474519 94 112 120
0.81066408 -0.50971068 1.31474519 98 110 119
0.81066408 -0.48925880 1.31474519 97 111 117
0.81066408 -0.46994314 1.31474519 96 111 119
0.81066408 -0.45062748 1.31474519 98 109 119
0.80744481 -0.43831848 1.31474519 95 110 117
0.81184713 -0.40333842 0.89851015 98 116 116
0.80946079 -0.40704758 0.90334320 98 117 116
0.80512453 -0.41131467 0.93211818 93 117 120
0.80418165 -0.40920179 1.04616487 94 116 116
0.80985774 -0.39007838 0.89806269 99 114 118
0.80980780 -0.36987633 0.89800719 95 114 119
0.80979672 -0.34969380 0.89799489 96 112 118
0.80979147 -0.32951420 0.89798907 97 110 116
0.80978886 -0.30933588 0.89798617 92 109 113
0.80978714 -0.28993406 0.89798427 93 109 115
0.80978591 -0.27053248 0.89798290 91 108 112
0.80978503 -0.25035503 0.89798192 92 104 111
0.80978430 -0.23017766 0.89798111 89 102 108
0.80978373 -0.21000038 0.89798049 86 101 107
0.80978323 -0.18982313 0.89797993 87 99 105
0.80978274 -0.16964592 0.89797939 87 98 106
0.80978210 -0.14946870 0.89797868 70 76 80
0.80978175 -0.13006760 0.89797829 58 61 63
0.80978161 -0.11066654 0.89797814 58 62 64
0.80978150 -0.09048946 0.89797801 61 64 67
0.80978138 -0.07031238 0.89797787 61 62 64
0.80978104 -0.05013529 0.89797750 111 113 112
0.80978050 -0.02995821 0.89797690 138 141 140
0.80978030 -0.00978116 0.89797668 141 145 145
0.80978022 0.01039588 0.89797659 156 161 158
0.80978016 0.03057291 0.89797652 127 134 137
0.80978013 0.04997391 0.89797649 138 144 145
0.80978010 0.06937490 0.89797646 144 149 150
0.80978010 0.08955194 0.89797646 155 160 160
0.80978005 0.10972897 0.89797640 127 134 138
0.80978005 0.12990600 0.89797640 119 129 132
0.80978005 0.15008303 0.89797640 138 144 147
0.80978005 0.17026007 0.89797640 166 172 171
0.80978005 0.19043710 0.89797640 162 166 166
0.80978005 0.21061414 0.89797640 160 165 164
0.80978000 0.23001512 0.89797634 152 156 156
0.80977999 0.24941611 0.89797634 153 155 152
0.80977999 0.26959314 0.89797634 144 148 148
0.80977999 0.28977017 0.89797634 147 150 148
0.80977999 0.30994721 0.89797634 160 168 165
0.80977999 0.33012424 0.89797634 153 157 157
0.80977999 0.35030127 0.89797634 165 172 168
0.80977999 0.37047831 0.89797634 150 156 156
0.80977999 0.39065534 0.89797634 152 158 154
0.80977999 0.41005633 0.89797634 134 139 140
0.80977999 0.42945732 0.89797634 81 84 87
0.80977999 0.44963436 0.89797634 0 0 0
0.80977999 0.46981139 0.89797634 0 0 0
0.80977999 0.48998842 0.89797634 0 0 0
0.80977999 0.50550922 0.89797634 0 0 0
0.83059950 -0.86400328 1.31474519 98 116 119
0.82997974 -0.85057528 1.31474519 96 117 119
0.82997974 -0.83012340 1.31474519 99 116 119
0.82997974 -0.80967153 1.31474519 99 116 119
0.82997974 -0.78921965 1.31474519 99 116 121
0.82997974 -0.76990399 1.31474519 100 116 119
0.82997974 -0.75058833 1.31474519 103 115 120
0.82997974 -0.73013645 1.31474519 100 116 120
0.82997974 -0.70968458 1.31474519 100 115 122
0.82997974 -0.68923270 1.31474519 102 115 120
0.82997974 -0.66991704 1.31474519 101 114 122
0.82997974 -0.65060138 1.31474519 100 114 122
0.82997974 -0.63014950 1.31474519 100 113 121
0.82997974 -0.60969763 1.31474519 99 115 121
0.82997974 -0.58924575 1.31474519 98 115 119
0.82997974 -0.56993009 1.31474519 97 114 120
0.82997974 -0.55061443 1.31474519 96 113 118
0.82997974 -0.53016255 1.31474519 94 114 119
0.82997974 -0.50971068 1.31474519 96 113 117
0.82997974 -0.48925880 1.31474519 96 112 118
0.82997974 -0.46994314 1.31474519 97 111 119
0.82920233 -0.45254111 1.31474519 95 111 117
0.83104760 -0.40563684 0.89829792 99 116 119
0.82525217 -0.41130041 0.90229998 97 117 118
0.83142664 -0.41719663 0.92021686 100 120 121
0.83000633 -0.39006392 0.89802973 96 114 119
0.82998042 -0.36987404 0.89800166 97 114 116
0.82997212 -0.34969293 0.89799267 94 113 116
0.82996764 -0.32951374 0.89798783 97 110 114
0.82996539 -0.30933561 0.89798539 93 110 114
0.82996390 -0.28993390 0.89798378 93 107 115
0.82996282 -0.27053240 0.89798261 92 107 111
0.82996190 -0.25035494 0.89798161 91 103 109
0.82996124 -0.23017761 0.89798090 86 103 108
0.82996071 -0.21000034 0.89798032 86 100 106
0.82996023 -0.18982311 0.89797981 86 98 106
0.82995975 -0.16964590 0.89797928 84 98 105
0.82995913 -0.14946869 0.89797862 69 76 80
0.82995881 -0.13006759 0.89797826 58 61 63
0.82995867 -0.11066654 0.89797811 59 62 65
0.82995855 -0.09048946 0.89797799 61 65 66
0.82995843 -0.07031238 0.89797786 61 62 65
0.82995808 -0.05013529 0.89797748 115 116 116
0.82995753 -0.02995821 0.89797689 139 142 140
0.82995734 -0.00978116 0.89797668 140 146 145
0.82995725 0.01039588 0.89797659 151 156 154
0.82995719 0.03057291 0.89797652 126 131 133
0.82995716 0.04997391 0.89797649 134 142 143
0.82995714 0.06937490 0.89797646 130 138 139
0.82995714 0.08955194 0.89797646 160 164 164
0.82995708 0.10972897 0.89797640 127 135 139
0.82995708 0.12990600 0.89797640 118 128 132
0.82995708 0.15008303 0.89797640 141 147 149
0.82995708 0.17026007 0.89797640 158 162 162
0.82995708 0.19043710 0.89797640 155 157 157
0.82995708 0.21061414 0.89797640 158 164 163
0.82995703 0.23001512 0.89797634 156 162 161
0.82995702 0.24941611 0.89797634 153 158 157
0.82995702 0.26959314 0.89797634 153 158 158
0.82995702 0.28977017 0.89797634 144 147 144
0.82995702 0.30994721 0.89797634 159 165 162
0.82995702 0.33012424 0.89797634 161 162 160
0.82995702 0.35030127 0.89797634 163 165 161
0.82995702 0.37047831 0.89797634 148 154 151
0.82995702 0.39065534 0.89797634 145 149 145
0.82995702 0.41005633 0.89797634 128 130 131
0.82995702 0.42945732 0.89797634 116 118 116
0.82995702 0.44963436 0.89797634 0 0 0
0.82995702 0.46981139 0.89797634 0 0 0
0.82995702 0.48998842 0.89797634 0 0 0
0.82995702 0.50550922 0.89797634 0 0 0
0.84991921 -0.86732889 1.31474519 97 116 118
0.84929541 -0.85057528 1.31474519 101 116 117
0.84929541 -0.83012340 1.31474519 95 116 119
0.84929541 -0.80967153 1.31474519 98 115 120
0.84929541 -0.78921965 1.31474519 101 116 122
0.84929541 -0.76990399 1.31474519 100 116 119
0.84929541 -0.75058833 1.31474519 103 117 121
0.84929541 -0.73013645 1.31474519 100 117 122
0.84929541 -0.70968458 1.31474519 100 115 122
0.84929541 -0.68923270 1.31474519 101 116 121
0.84929541 -0.66991704 1.31474519 100 116 119
0.84929541 -0.65060138 1.31474519 100 115 120
0.84929541 -0.63014950 1.31474519 100 115 121
0.84929541 -0.60969763 1.31474519 103 115 119
0.84929541 -0.58924575 1.31474519 99 114 120
0.84929541 -0.56993009 1.31474519 99 114 118
0.84929541 -0.55061443 1.31474519 98 112 118
0.84929541 -0.53016255 1.31474519 98 111 119
0.84929541 -0.50971068 1.31474519 95 113 118
0.84929541 -0.48925880 1.31474519 96 111 118
0.84929541 -0.46994314 1.31474519 98 111 118
0.84613376 -0.45695077 1.31474519 96 111 119
0.85644880 -0.42131936 0.89931101 103 117 121
0.85542800 -0.42275853 0.90557342 102 118 122
0.84926825 -0.42414253 0.93022972 101 120 122
0.85115243 -0.42791331 0.94385481 100 120 121
0.85691090 -0.43864857 0.99406207 95 119 122
0.85094359 -0.40940987 0.89817359 101 115 119
0.84380506 -0.41694018 0.90396150 101 116 121
0.85017106 -0.39005766 0.89801544 99 114 118
0.85015544 -0.36987291 0.89799893 97 114 116
0.85014836 -0.34969245 0.89799145 97 112 116
0.85014421 -0.32951346 0.89798707 94 109 113
0.85014206 -0.30933541 0.89798479 93 109 113
0.85014071 -0.28993377 0.89798336 92 107 113
0.85013967 -0.27053229 0.89798227 91 107 111
0.85013882 -0.25035488 0.89798137 91 102 110
0.85013823 -0.23017757 0.89798075 87 101 108
0.85013771 -0.21000031 0.89798020 87 99 107
0.85013723 -0.18982308 0.89797969 86 98 107
0.85013673 -0.16964587 0.89797916 85 98 104
0.85013615 -0.14946868 0.89797855 67 75 78
0.85013586 -0.13006759 0.89797824 58 61 63
0.85013571 -0.11066654 0.89797809 58 62 63
0.85013560 -0.09048945 0.89797797 61 64 67
0.85013549 -0.07031238 0.89797786 61 63 66
0.85013512 -0.05013529 0.89797746 120 121 120
0.85013457 -0.02995821 0.89797688 139 144 141
0.85013438 -0.00978116 0.89797668 143 148 146
0.85013429 0.01039588 0.89797659 148 153 151
0.85013423 0.03057291 0.89797652 123 132 134
0.85013420 0.04997391 0.89797649 128 135 138
0.85013417 0.06937490 0.89797646 132 140 141
0.85013417 0.08955194 0.89797646 148 154 154
0.85013412 0.10972897 0.89797640 129 137 140
0.85013411 0.12990600 0.89797640 122 131 134
0.85013411 0.15008303 0.89797640 143 150 151
0.85013411 0.17026007 0.89797640 158 165 165
0.85013411 0.19043710 0.89797640 160 168 167
0.85013411 0.21061414 0.89797640 164 171 170
0.85013406 0.23001512 0.89797634 164 167 166
0.85013406 0.24941611 0.89797634 161 167 166
0.85013406 0.26959314 0.89797634 150 154 153
0.85013406 0.28977017 0.89797634 135 138 137
0.85013406 0.30994721 0.89797634 135 137 136
0.85013406 0.33012424 0.89797634 156 157 152
0.85013406 0.35030127 0.89797634 134 137 136
0.85013406 0.37047831 0.89797634 156 159 155
0.85013406 0.39065534 0.89797634 149 153 150
0.85013406 0.41005633 0.89797634 131 137 136
0.85013406 0.42945732 0.89797634 129 135 136
0.85013406 0.44963436 0.89797634 0 0 0
0.85013406 0.46981139 0.89797634 0 0 0
0.85013406 0.48998842 0.89797634 0 0 0
0.85013406 0.50550922 0.89797634 0 0 0
0.87315593 -0.88011688 1.31474519 95 117 118
0.87004369 -0.86954514 1.31474519 96 117 119
0.86974728 -0.85057528 1.31474519 101 114 118
0.86974728 -0.83012340 1.31474519 99 115 118
0.86974728 -0.80967153 1.31474519 100 116 122
0.86974728 -0.78921965 1.31474519 98 118 124
0.86974728 -0.76990399 1.31474519 97 117 119
0.86974728 -0.75058833 1.31474519 102 117 121
0.86974728 -0.73013645 1.31474519 101 116 121
0.86974728 -0.70968458 1.31474519 103 116 121
0.86974728 -0.68923270 1.31474519 102 115 122
0.86974728 -0.66991704 1.31474519 101 115 119
0.86974728 -0.65060138 1.31474519 101 116 121
0.86974728 -0.63014950 1.31474519 97 116 120
0.86974728 -0.60969763 1.31474519 101 114 119
0.86974728 -0.58924575 1.31474519 99 113 119
0.86974728 -0.56993009 1.31474519 99 113 117
0.86974728 -0.55061443 1.31474519 97 112 121
0.86974728 -0.53016255 1.31474519 96 112 118
0.86974728 -0.50971068 1.31474519 96 113 118
0.86974728 -0.48925880 1.31474519 96 112 118
0.86877338 -0.47172862 1.31474519 97 112 118
0.87032176 -0.42233098 0.89872750 98 117 120
0.87293153 -0.42724866 0.90468343 100 117 120
0.87023825 -0.43834880 0.96687251 101 120 121
0.87042595 -0.41027222 0.89809486 97 116 118
0.87034280 -0.39005488 0.89800907 98 113 118
0.87033085 -0.36987200 0.89799673 93 114 117
0.87032457 -0.34969198 0.89799025 95 111 118
0.87032094 -0.32951326 0.89798650 93 110 114
0.87031889 -0.30933526 0.89798438 92 108 112
0.87031761 -0.28993367 0.89798307 91 106 113
0.87031666 -0.27053224 0.89798208 89 105 108
0.87031585 -0.25035484 0.89798125 87 102 108
0.87031522 -0.23017753 0.89798060 89 100 107
0.87031472 -0.21000028 0.89798008 87 99 106
0.87031424 -0.18982306 0.89797959 86 97 106
0.87031375 -0.16964586 0.89797908 84 97 105
0.87031317 -0.14946867 0.89797848 67 73 74
0.87031291 -0.13006759 0.89797822 58 61 63
0.87031277 -0.11066654 0.89797807 59 62 62
0.87031266 -0.09048945 0.89797795 62 63 66
0.87031255 -0.07031238 0.89797785 61 63 65
0.87031216 -0.05013529 0.89797744 121 122 121
0.87031162 -0.02995821 0.89797688 144 149 145
0.87031142 -0.00978116 0.89797668 145 151 149
0.87031133 0.01039588 0.89797659 149 154 151
0.87031127 0.03057291 0.89797652 127 133 135
0.87031123 0.04997391 0.89797649 127 134 135
0.87031121 0.06937490 0.89797646 131 139 140
0.87031121 0.08955194 0.89797646 156 163 161
0.87031116 0.10972897 0.89797641 127 134 137
0.87031115 0.12990600 0.89797640 108 123 127
0.87031115 0.15008303 0.89797640 141 150 152
0.87031115 0.17026007 0.89797640 161 168 166
0.87031115 0.19043710 0.89797640 162 165 163
0.87031115 0.21061414 0.89797640 153 157 156
0.87031110 0.23001512 0.89797635 153 155 156
0.87031109 0.24941611 0.89797634 152 154 154
0.87031109 0.26959314 0.89797634 149 151 148
0.87031109 0.28977017 0.89797634 138 144 142
0.87031109 0.30994721 0.89797634 136 138 136
0.87031109 0.33012424 0.89797634 141 144 141
0.87031109 0.35030127 0.89797634 155 159 157
0.87031109 0.37047831 0.89797634 155 159 158
0.87031109 0.39065534 0.89797634 151 156 155
0.87031109 0.41005633 0.89797634 137 144 143
0.87031109 0.42945732 0.89797634 147 153 152
0.87031109 0.44963436 0.89797634 10 10 10
0.87031109 0.46981139 0.89797634 0 0 0
0.87031109 0.48998842 0.89797634 0 0 0
0.87031109 0.50550922 0.89797634 0 0 0
0.89182232 -0.88287626 1.31474519 96 115 118
0.89019916 -0.86989094 1.31474519 99 115 119
0.89019916 -0.85057528 1.31474519 98 116 119
0.89019916 -0.83012340 1.31474519 101 117 120
0.89019916 -0.80967153 1.31474519 98 116 119
0.89019916 -0.78921965 1.31474519 98 117 123
0.89019916 -0.76990399 1.31474519 98 117 121
0.89019916 -0.75058833 1.31474519 103 116 121
0.89019916 -0.73013645 1.31474519 103 115 121
0.89019916 -0.70968458 1.31474519 104 115 121
0.89019916 -0.68923270 1.31474519 100 115 124
0.89019916 -0.66991704 1.31474519 99 115 119
0.89019916 -0.65060138 1.31474519 99 117 120
0.89019916 -0.63014950 1.31474519 102 115 120
0.89019916 -0.60969763 1.31474519 99 114 120
0.89019916 -0.58924575 1.31474519 99 113 118
0.89019916 -0.56993009 1.31474519 100 113 120
0.89019916 -0.55061443 1.31474519 99 113 120
0.89019916 -0.53016255 1.31474519 97 113 119
0.89019916 -0.50971068 1.31474519 96 113 119
0.89019916 -0.48925880 1.31474519 99 111 120
0.88969417 -0.47442488 1.31474519 94 113 118
0.89459492 -0.45838340 1.08113217 97 112 116
0.89099030 -0.42393170 0.89857387 102 115 120
0.88597982 -0.42836968 0.90407231 98 118 119
0.89265706 -0.43823269 0.92432946 97 116 117
0.89058254 -0.41026146 0.89807161 99 115 119
0.89051845 -0.39005394 0.89800692 99 112 118
0.89050717 -0.36987151 0.89799555 94 112 118
0.89050150 -0.34969182 0.89798983 93 111 115
0.89049805 -0.32951320 0.89798635 92 109 114
0.89049607 -0.30933525 0.89798435 92 107 112
0.89049475 -0.28993366 0.89798302 91 106 112
0.89049382 -0.27053224 0.89798208 87 105 109
0.89049291 -0.25035482 0.89798117 88 102 108
0.89049227 -0.23017751 0.89798052 87 100 105
0.89049179 -0.21000027 0.89798004 85 100 104
0.89049130 -0.18982305 0.89797955 84 98 105
0.89049080 -0.16964585 0.89797903 82 98 105
0.89049021 -0.14946866 0.89797844 66 71 73
0.89048996 -0.13006758 0.89797819 57 61 61
0.89048982 -0.11066653 0.89797805 58 62 63
0.89048970 -0.09048945 0.89797793 61 64 66
0.89048960 -0.07031237 0.89797783 61 63 65
0.89048920 -0.05013529 0.89797743 122 125 123
0.89048866 -0.02995821 0.89797688 149 151 146
0.89048846 -0.00978116 0.89797668 152 156 155
0.89048837 0.01039588 0.89797659 143 150 148
0.89048831 0.03057291 0.89797652 128 136 138
0.89048827 0.04997391 0.89797649 133 141 142
0.89048824 0.06937490 0.89797646 127 136 137
0.89048824 0.08955194 0.89797646 151 157 156
0.89048819 0.10972897 0.89797641 125 135 136
0.89048818 0.12990600 0.89797640 123 133 136
0.89048818 0.15008303 0.89797640 145 152 152
0.89048818 0.17026007 0.89797640 162 168 168
0.89048818 0.19043710 0.89797640 150 154 151
0.89048818 0.21061414 0.89797640 147 156 153
0.89048813 0.23001512 0.89797635 153 160 160
0.89048812 0.24941611 0.89797634 152 159 158
0.89048812 0.26959314 0.89797634 155 159 156
0.89048812 0.28977017 0.89797634 149 155 155
0.89048812 0.30994721 0.89797634 141 146 147
0.89048812 0.33012424 0.89797634 135 140 138
0.89048812 0.35030127 0.89797634 156 162 161
0.89048812 0.37047831 0.89797634 152 158 157
0.89048812 0.39065534 0.89797634 150 155 154
0.89048812 0.41005633 0.89797634 143 149 149
0.89048812 0.42945732 0.89797634 145 150 150
0.89048812 0.44963436 0.89797634 27 28 27
0.89048812 0.46981139 0.89797634 0 0 0
0.89048812 0.48998842 0.89797634 0 0 0
0.89048812 0.50550922 0.89797634 0 0 0
0.91065103 -0.88352552 1.31474519 100 115 122
0.91065103 -0.86989094 1.31474519 101 114 119
0.91065103 -0.85057528 1.31474519 99 115 119
0.91065103 -0.83012340 1.31474519 98 115 118
0.91065103 -0.80967153 1.31474519 97 117 121
0.91065103 -0.78921965 1.31474519 101 116 121
0.91065103 -0.76990399 1.31474519 101 117 122
0.91065103 -0.75058833 1.31474519 101 117 122
0.91065103 -0.73013645 1.31474519 101 114 124
0.91065103 -0.70968458 1.31474519 104 117 119
0.91065103 -0.68923270 1.31474519 102 117 124
0.91065103 -0.66991704 1.31474519 99 116 121
0.91065103 -0.65060138 1.31474519 102 115 121
0.91065103 -0.63014950 1.31474519 101 114 119
0.91065103 -0.60969763 1.31474519 103 114 120
0.91065103 -0.58924575 1.31474519 100 114 117
0.91065103 -0.56993009 1.31474519 100 112 121
0.91065103 -0.55061443 1.31474519 99 112 120
0.91065103 -0.53016255 1.31474519 96 113 119
0.91065103 -0.50971068 1.31474519 96 112 121
0.91065103 -0.48925880 1.31474519 97 111 118
0.91017395 -0.46714033 1.08410811 92 115 114
0.90542444 -0.47653319 1.31474519 94 113 122
0.90123574 -0.44798113 0.97327662 101 117 120
0.91406341 -0.45433732 0.99455535 101 119 122
0.91006094 -0.42486134 0.89852352 99 113 120
0.91038464 -0.43213026 0.90376743 96 117 121
0.90998858 -0.41026279 0.89807452 100 113 118
0.90992285 -0.39005512 0.89800963 97 112 116
0.91051698 -0.36973152 0.89799618 95 111 114
0.91067901 -0.34969188 0.89799000 92 109 113
0.91067539 -0.32951323 0.89798643 91 107 115
0.91067316 -0.30933521 0.89798423 92 105 114
0.91067185 -0.28993363 0.89798294 91 105 110
0.91067091 -0.27053221 0.89798201 87 104 109
0.91066999 -0.25035480 0.89798111 87 102 107
0.91066936 -0.23017750 0.89798048 84 100 106
0.91066891 -0.21000027 0.89798004 82 99 104
0.91066842 -0.18982305 0.89797955 84 97 103
0.91066789 -0.16964585 0.89797903 83 96 103
0.91066726 -0.14946865 0.89797841 65 70 72
0.91066702 -0.13006758 0.89797818 56 60 61
0.91066687 -0.11066653 0.89797803 57 60 62
0.91066676 -0.09048945 0.89797792 61 64 66
0.91066664 -0.07031237 0.89797780 60 62 66
0.91066623 -0.05013528 0.89797740 122 127 123
0.91066570 -0.02995821 0.89797688 147 149 147
0.91066550 -0.00978116 0.89797668 151 156 152
0.91066541 0.01039588 0.89797659 145 149 149
0.91066534 0.03057291 0.89797652 132 141 141
0.91066531 0.04997391 0.89797649 128 137 139
0.91066528 0.06937490 0.89797646 129 139 140
0.91066528 0.08955194 0.89797646 158 164 163
0.91066523 0.10972897 0.89797641 127 137 138
0.91066522 0.12990600 0.89797640 121 131 133
0.91066522 0.15008303 0.89797640 150 157 156
0.91066522 0.17026007 0.89797640 164 171 169
0.91066522 0.19043710 0.89797640 162 166 163
0.91066522 0.21061414 0.89797640 159 165 163
0.91066517 0.23001512 0.89797635 157 163 162
