ply
format ascii 1.0
element vertex 902
property float x
property float y
property float z
property uchar red
property uchar green
property uchar blue
end_header
-0.76507270 0.14931321 1.37782896 140 144 149
-0.76658633 0.15457111 1.38487893 138 146 148
-0.76629298 0.16623979 1.39548088 159 162 163
-0.76853263 0.17059894 1.40477670 160 164 164
-0.76664223 0.18145668 1.40544808 149 152 152
-0.74363949 0.15010703 1.37782896 123 131 136
-0.74941815 0.15501036 1.38394410 138 143 149
-0.75182761 0.16774936 1.39084717 142 147 151
-0.75678825 0.18045829 1.39771509 149 152 151
-0.73950118 0.16187857 1.38345277 157 164 167
-0.48119241 -0.23530614 0.79940075 54 43 45
-0.48307162 -0.23309061 0.80367313 55 46 45
-0.49072768 0.00921999 0.81157542 171 172 163
-0.46103209 -0.26178825 0.79799169 51 40 40
-0.46548350 -0.24837186 0.79735554 49 38 40
-0.47176831 -0.24879506 0.80143770 48 38 40
-0.47021825 -0.23556532 0.79482396 53 42 44
-0.47207721 -0.23627562 0.80034459 52 43 43
-0.46706603 0.01333894 0.78802443 174 175 167
-0.47806724 0.01087137 0.80210533 174 175 166
-0.46812015 0.02349017 0.79038513 177 178 173
-0.47679010 0.02243372 0.80129057 178 178 175
-0.45619090 -0.26167947 0.79724042 50 39 39
-0.45463128 -0.26217878 0.80129173 51 40 40
-0.45600836 -0.25407708 0.79667707 49 38 39
-0.45127014 0.01638216 0.77137487 168 169 162
-0.45377668 0.02259101 0.77338659 170 173 169
-0.43989182 0.01945921 0.76597947 142 143 141
-0.37120634 0.33730883 1.47572102 108 115 126
-0.36713847 0.33755681 1.48011315 137 143 145
-0.36199198 0.35728676 1.43519942 113 120 130
-0.36543161 0.35395060 1.45548895 102 110 118
-0.36711084 0.35006432 1.47093114 108 116 127
-0.37245827 0.34413955 1.48092285 116 124 134
-0.36947158 0.36053163 1.45158851 115 122 133
-0.37204739 0.36089059 1.46837997 106 113 122
-0.35342249 0.33688486 1.45783186 137 142 149
-0.35903066 0.33853713 1.47048128 140 147 153
-0.34464751 0.35698819 1.41759164 122 129 136
-0.35013776 0.35472539 1.43017359 115 123 131
-0.35369395 0.34977735 1.44734189 89 96 108
-0.35810214 0.34702941 1.46667826 107 112 123
-0.34473817 0.36815614 1.41480892 113 120 128
-0.35179435 0.36835242 1.42526333 107 114 123
-0.33319752 0.35633375 1.41016976 110 120 127
-0.33446873 0.35387943 1.42481437 130 138 142
-0.33545818 0.36480367 1.41396477 103 114 120
-0.26662736 0.25037556 0.99496739 128 134 140
-0.26538628 0.25643173 1.00649427 110 115 123
-0.26389402 0.26933599 0.99899967 116 125 132
-0.26604760 0.26946307 1.01129418 116 122 130
-0.26304648 0.27267211 1.02304576 110 116 124
-0.27036118 0.28160962 1.01179536 102 112 118
-0.26440623 0.28301901 1.03179884 112 111 125
-0.25706340 0.24176314 0.97679141 138 142 150
-0.25809730 0.24809119 0.99193842 124 129 134
-0.25845888 0.25704730 1.00691953 101 106 116
-0.25842848 0.26884475 1.01531986 115 123 128
-0.19486147 0.03754477 0.49710191 138 143 148
-0.19545766 0.04344716 0.49660682 130 136 142
-0.18009908 0.11923476 0.74822497 131 135 143
-0.18276625 0.12412905 0.75044537 122 128 134
-0.18017837 0.19994277 0.99984050 112 120 126
-0.18629783 0.19229944 1.01276221 128 134 142
-0.19421217 0.19569176 1.02277489 119 125 133
-0.18017837 0.20253499 0.99984050 106 113 123
-0.18476836 0.20323378 1.01006968 114 122 129
-0.19285868 0.20927420 1.02870876 120 128 135
-0.16283332 -0.04296231 0.79830371 54 56 65
-0.16323461 -0.04740877 0.80239276 54 57 67
-0.16266190 -0.03512820 0.79826280 69 73 84
-0.16936837 -0.03641194 0.80186661 65 67 78
-0.17253563 0.11865542 0.74695742 127 136 141
-0.17341008 0.13151604 0.59853015 134 139 147
-0.16935232 0.12759082 0.60388856 141 148 151
-0.16552985 0.12462851 0.73804250 132 137 147
-0.17326606 0.12464804 0.74616674 122 127 137
-0.16109247 0.17803377 0.72950526 133 137 144
-0.16783419 0.17807998 0.99837014 111 113 125
-0.17006034 0.17773905 1.00131738 127 131 138
-0.16114602 0.18236904 0.72502052 121 129 139
-0.17184366 0.19267438 0.99840215 126 132 139
-0.16820635 0.18940234 1.00444454 127 133 141
-0.17766410 0.20078249 0.99543589 106 114 122
-0.16313756 0.20023811 1.00131738 166 166 166
-0.15591745 -0.04436939 0.79622399 56 56 68
-0.15666055 -0.05002287 0.80254946 55 57 69
-0.15693001 -0.03633831 0.79739661 63 64 75
-0.15806109 -0.03638432 0.80034459 62 64 78
-0.15489001 0.17777322 0.72702759 143 148 152
-0.14756074 0.18615181 0.71785355 121 129 133
-0.15384986 0.18376937 0.72435248 130 136 146
-0.15417835 0.18629367 0.99443938 149 154 157
-0.15849507 0.19092853 1.00280380 140 145 153
-0.15967616 0.20023811 1.00131738 131 135 140
-0.12749501 0.05978748 0.48927602 143 148 153
-0.12696938 0.06642702 0.48880636 132 138 147
-0.11932359 0.06707012 0.48685839 132 140 146
-0.10071129 0.12873128 0.52685924 110 114 122
-0.10906510 0.17361493 0.83619149 187 193 194
-0.11363696 0.17315370 0.84116215 173 179 184
-0.10760092 0.18338749 0.83172534 200 203 204
-0.09076743 0.11794670 0.51673561 132 137 143
-0.09050889 0.12208440 0.51865404 138 140 149
-0.09335388 0.12564904 0.52198418 132 138 144
-0.09463277 0.16519326 0.45054401 196 200 199
-0.09848555 0.17731351 0.82268429 200 204 204
-0.09636194 0.18026671 0.81673717 201 205 204
-0.09824709 0.18113968 0.82069230 201 205 204
-0.04739015 0.35428475 0.87620359 172 176 177
-0.04807526 0.35196022 0.88267841 174 177 177
-0.04623069 0.36359394 0.87740520 168 169 168
-0.04421675 0.37142772 0.88308312 143 142 140
-0.03930434 0.35351058 0.87256095 167 170 170
-0.03878662 0.36855138 0.87677574 123 123 121
-0.03560389 0.37377135 0.88555470 121 121 119
-0.00525983 0.13751955 0.49493866 187 190 191
-0.00585838 0.14386577 0.49198802 170 172 173
0.00683894 0.13802806 0.49508386 168 169 171
0.01016756 0.14461800 0.49227870 157 160 163
0.01925529 0.20345634 0.51246754 151 157 164
0.03515545 0.13961751 0.46291454 133 134 140
0.03410820 0.14560491 0.45958786 163 163 164
0.03295361 0.14561369 0.46395161 159 162 164
0.02012609 0.14175347 0.49051534 157 164 170
0.03270581 0.19002823 0.51064651 150 152 154
0.02781700 0.20703986 0.49921595 81 82 81
0.02557756 0.20491868 0.50489696 159 164 165
0.04149211 0.14365527 0.45953594 165 165 164
0.04143916 0.14326869 0.46042027 166 168 168
0.04792382 0.17976315 0.50195956 138 138 143
0.04392368 0.18522099 0.50890745 157 160 162
0.05982519 0.49069503 1.84711671 151 160 162
0.05838248 0.51737630 1.90419054 179 181 184
0.07726664 0.09713823 0.72249048 122 125 141
0.07052737 0.11397322 0.71532235 150 152 160
0.07680887 0.10698575 0.72123919 125 129 144
0.06729906 0.12052589 0.71132459 170 171 174
0.07682473 0.19744252 0.51473869 140 147 148
0.07616011 0.23335008 0.71585643 133 136 141
0.07342892 0.23381288 0.72325799 146 148 150
0.07793646 0.24816608 0.71670220 135 138 140
0.07287761 0.24560970 0.72422736 161 163 164
0.07927067 0.41922760 1.65339470 153 155 165
0.07713392 0.42405684 1.65662880 163 167 171
0.07691357 0.42485559 1.66422784 163 166 172
0.07529637 0.43355533 1.69261646 155 158 163
0.07282897 0.43481153 1.70324588 153 153 162
0.07634838 0.44701275 1.71618187 162 165 172
0.07779157 0.45415199 1.72639736 172 176 181
0.07451396 0.45691958 1.74265254 170 177 181
0.07332196 0.45191256 1.76228646 154 157 163
0.07732721 0.46175662 1.73818421 180 182 185
0.07489904 0.46533611 1.75165856 179 180 182
0.07874265 0.47480580 1.77000087 174 176 177
0.07419996 0.47207344 1.79337966 169 174 177
0.07397407 0.46804307 1.80290389 159 165 171
0.07191094 0.47815494 1.82969761 160 168 172
0.07319386 0.47864470 1.86234021 145 146 155
0.07700164 0.47984079 1.95922494 175 179 179
0.07266993 0.47216030 1.96698093 139 141 150
0.07406026 0.46447591 1.98914261 143 143 144
0.07771321 0.48468365 1.79337303 167 168 170
0.07558522 0.49066042 1.81158869 165 166 169
0.07260265 0.48856872 1.82720837 171 176 177
0.06851487 0.48881554 1.85219109 161 166 170
0.06837049 0.49327258 1.86896489 161 170 172
0.06677963 0.49249892 1.88904842 150 155 161
0.07009872 0.48912911 1.90955448 151 152 157
0.07354272 0.48654204 1.92767878 161 162 166
0.07677973 0.48183456 1.95357883 173 174 174
0.07343838 0.48807057 1.96966938 170 172 173
0.07118921 0.49327071 1.98601504 174 175 176
0.07721229 0.50526434 1.83051177 137 137 145
0.07544589 0.51064490 1.85001242 145 146 152
0.07008055 0.51113354 1.87311137 162 166 168
0.06451802 0.51309162 1.89116319 176 179 181
0.06843454 0.50451291 1.95640188 146 147 156
0.06742718 0.50794947 1.97636104 149 150 158
0.06872678 0.50615501 1.98942292 151 149 153
0.07930502 0.52637181 1.85470074 126 129 140
0.07402466 0.52454801 1.87190875 131 133 142
0.06521391 0.52499460 1.89251544 156 159 162
0.06514795 0.53368598 1.90955448 148 149 153
0.08640543 0.09640648 0.72341031 128 132 139
0.08582952 0.10404323 0.72291081 125 127 138
0.08832185 0.19697918 0.49696133 155 158 159
0.08543102 0.19691390 0.51040903 150 154 156
0.08577648 0.20114967 0.49869566 140 140 142
0.08839615 0.20329614 0.50410422 136 139 142
0.08926831 0.23210084 0.70808518 157 163 166
0.08334609 0.22853937 0.72254756 105 108 123
0.09464400 0.24628382 0.69837972 175 179 179
0.08844419 0.24486059 0.70995926 144 149 154
0.08117581 0.24487703 0.72100859 129 131 136
0.08396225 0.41982332 1.63347435 172 178 179
0.08360439 0.42977584 1.65117722 170 175 177
0.08190564 0.43742597 1.66832364 171 174 178
0.08519398 0.44317058 1.65743732 161 162 164
0.08382824 0.44608446 1.66834390 163 163 165
0.08167998 0.44781098 1.68841121 168 170 175
0.08228094 0.45887789 1.71618187 171 172 174
0.08524723 0.46481043 1.71618187 157 158 160
0.08212234 0.46657500 1.73376135 165 166 168
0.08074560 0.47017640 1.74714386 169 170 171
0.08158670 0.47812533 1.76534331 159 160 164
0.08485894 0.48243290 1.76995254 152 153 157
0.08442981 0.49191571 1.79337093 147 149 154
0.08109239 0.49597105 1.80530775 138 139 145
0.08062101 0.48462778 1.96490383 174 175 175
0.08325593 0.50529819 1.81117145 129 132 141
0.08298056 0.51768488 1.82967091 125 128 139
0.11361687 0.01583900 0.76741470 124 128 135
0.11454920 0.02901690 0.76909524 126 128 138
0.10969296 0.17167116 0.83793972 139 141 152
0.11236882 0.17688524 0.84642681 155 159 165
0.11068698 0.18546641 0.45117679 140 142 143
0.10468826 0.18216211 0.83845654 176 176 178
0.11170274 0.18971021 0.84891206 172 175 180
0.11991160 0.21890913 0.81870997 155 155 155
0.11878344 0.21943918 0.82069230 164 164 165
0.10559666 0.20121419 0.85162294 179 184 185
0.11910162 0.22890264 0.82536584 125 128 139
0.11913089 0.43733068 1.92857242 153 154 154
0.11881100 0.44573897 1.95080423 150 151 152
0.11738714 0.45590120 1.96918786 139 139 144
0.11508339 0.46797956 1.97348845 160 162 165
0.11603175 0.46786495 1.98992451 151 153 157
0.11508339 0.48504208 1.97348845 153 154 159
0.11471371 0.48730317 1.99674028 167 168 173
0.12013207 0.03402248 0.76597947 130 138 142
0.13971248 0.04974146 0.65857381 163 166 167
0.12861363 0.19874105 0.79100780 146 151 158
0.12364808 0.19072844 0.85428119 162 166 171
0.12599848 0.19210520 0.86026883 165 171 177
0.12775753 0.20419190 0.79590170 157 158 157
0.12471213 0.21116184 0.80673235 146 147 149
0.12497034 0.22422087 0.81744462 135 139 145
0.12317548 0.22967653 0.82311166 119 123 132
0.12159917 0.44251823 1.91494870 155 156 158
0.12194365 0.44709104 1.92037344 154 155 157
0.12050219 0.45248480 1.95077193 149 149 154
0.12137514 0.46085456 1.96490383 150 153 156
0.15321635 0.03567290 0.67155920 151 152 156
0.14062318 0.04909305 0.65750965 173 177 177
0.15293055 0.04806914 0.66887123 137 140 147
0.15556945 0.07091469 0.51011316 122 129 137
0.15451625 0.37124961 1.87263894 168 172 178
0.15566928 0.37617521 1.88653950 168 171 178
0.15810173 0.38737962 1.89620471 172 177 182
0.17912757 -0.60165003 1.57649267 106 121 132
0.17583708 -0.60581887 1.58272476 104 120 132
0.17655231 -0.59614626 1.58602753 104 120 132
0.16355250 0.03644981 0.67959122 144 145 150
0.16562954 0.03525720 0.68366019 155 157 159
0.17274409 0.03620952 0.88539257 128 132 140
0.16217810 0.04836850 0.66869527 157 160 164
0.17266994 0.04357505 0.88613675 148 149 154
0.16362439 0.07379371 0.51027769 130 134 143
0.17936479 0.17463642 0.71463308 172 174 175
0.17731272 0.17163125 0.72366078 178 180 182
0.17966451 0.18384242 0.69885829 173 178 179
0.17905518 0.18248049 0.71332094 155 159 163
0.17792618 0.18265684 0.72161063 142 144 150
0.17881688 0.23283086 0.65138968 148 151 152
0.17908131 0.23901875 0.66103560 169 176 173
0.17943643 0.24081804 0.65814739 174 180 179
0.17934428 0.24165902 0.66200629 177 183 182
0.17836253 0.27406851 0.67883528 136 136 138
0.17753990 0.27621829 0.68425706 159 159 157
0.17777217 0.28621127 0.67857358 43 44 45
0.17727605 0.29075700 0.68701084 11 11 11
0.16086403 0.37691012 1.90956962 173 177 184
0.17268242 0.37306926 1.94984706 173 176 181
0.16131717 0.39287073 1.91494870 175 181 184
0.16985612 0.39066538 1.93683386 171 175 183
0.17194105 0.38985442 1.94958589 176 179 185
0.17937049 0.38839799 1.96775985 183 185 190
0.16223375 0.40176025 1.92582905 166 166 173
0.17213357 0.40227407 1.94985783 177 179 181
0.18537478 -0.60287135 1.57483157 105 120 130
0.19384256 -0.60444961 1.58312277 105 119 128
0.18352622 -0.59800677 1.57527339 106 119 132
0.18967013 -0.59004872 1.58885933 103 120 130
0.18839257 -0.57734161 1.59337550 104 118 132
0.18840494 -0.10434858 0.45979555 94 103 118
0.18740488 -0.10724118 0.46190360 93 104 119
0.18907380 0.03137321 0.87696230 152 151 161
0.18652026 0.03626535 0.88801548 139 141 148
0.18715262 0.04798924 0.89276410 148 151 156
0.18584926 0.17874433 0.69355355 151 152 159
0.18141519 0.17441683 0.70960983 157 158 162
0.18187359 0.16745046 0.72301149 168 171 172
0.19093215 0.18364961 0.67879774 159 160 166
0.18601150 0.18312057 0.68951173 157 158 162
0.18097880 0.18138693 0.70221861 165 171 172
0.18121201 0.23503129 0.65124548 166 170 168
0.18193947 0.24267318 0.65624045 164 172 174
0.18452700 0.25165706 0.67034835 155 162 165
0.18219658 0.25744809 0.68375732 132 135 142
0.18058430 0.27156965 0.67959100 116 118 124
0.18402536 0.27420899 0.68627711 121 126 132
0.19255546 0.37307061 1.92950769 150 150 153
0.18614884 0.37495965 1.94717228 169 170 172
0.18286106 0.37667423 1.96872290 173 174 179
0.18410726 0.37068301 1.98213995 184 185 185
0.18929805 0.39023235 1.95273008 161 162 166
0.19043075 0.39123291 1.96490383 166 168 172
0.18340494 0.40531952 1.95640188 179 180 182
0.19476930 0.40508051 1.97444598 164 164 171
0.20562655 -0.60333013 1.59172899 104 120 130
0.20531775 -0.58997192 1.59280082 104 121 128
0.21144168 -0.58747183 1.60911850 103 118 131
0.20800473 -0.57972324 1.61019444 107 117 134
0.21652783 0.17437293 0.53401705 154 157 156
0.21805826 0.18736726 0.53388047 159 160 158
0.20668039 0.37057939 1.93683386 153 152 154
0.20738100 0.37426189 1.94727542 146 146 148
0.20693201 0.38081142 1.95499036 147 147 150
0.21035226 0.39214979 1.97119701 154 154 156
0.21836695 0.39295182 1.98213995 168 168 168
0.20610444 0.40726997 1.97406297 165 166 168
0.21431982 0.40986031 1.98272121 169 170 170
0.22266062 0.16839647 0.53533953 153 157 158
0.22725918 0.19303267 0.53430983 149 152 153
0.23243236 0.20045465 0.53661553 147 149 150
0.22114629 0.39408349 1.97636104 154 153 155
0.22179292 0.39295182 1.98213995 173 172 170
0.22244461 0.41015132 1.98796403 164 164 166
0.25365773 0.16862971 0.93631649 173 176 179
0.25593485 0.17532439 0.94582869 165 169 175
0.25840529 0.18603404 0.95183207 157 160 166
0.26279254 0.17934581 0.94589601 171 178 186
0.26461414 0.19274406 0.95010225 162 166 173
0.26012442 0.19865145 0.96018672 154 157 164
0.27007683 0.20322337 0.95558049 167 168 173
0.27018698 0.20999507 0.96817221 150 152 158
0.27506335 0.22523487 0.97690989 154 156 161
0.27008398 0.22787771 0.99106265 168 170 174
0.26473537 0.23173292 1.00279856 159 162 170
0.29656091 -0.12136317 0.54514834 91 101 116
0.29699835 -0.11320875 0.54530400 89 100 112
0.29011508 0.13796959 0.59576729 157 161 163
0.29297020 0.14389459 0.59933243 165 171 173
0.29243635 0.14507487 0.60219343 165 173 174
0.28082165 0.20228782 0.95579103 171 174 180
0.28390766 0.21397650 0.96833385 165 169 174
0.28301096 0.22511330 0.97616655 146 148 157
0.29937312 0.27092773 0.73009542 146 147 148
0.30321506 -0.12181389 0.54823487 88 100 113
0.30664549 -0.11533621 0.54824615 86 101 113
0.31790400 0.07848925 0.47868459 146 150 151
0.31871360 0.08170299 0.47963244 168 170 169
0.31843996 0.08434241 0.48068184 177 178 179
0.30301824 0.14174027 0.59990430 172 177 175
0.30264954 0.14463056 0.60171540 180 186 185
0.31442744 0.15059538 0.77829245 173 175 177
0.31460726 0.15530327 0.78369990 171 174 176
0.31457862 0.16085615 0.78406162 160 163 167
0.30566800 0.27501151 0.71653685 155 156 155
0.30434656 0.27538540 0.72902632 147 149 149
0.30173059 0.27851606 0.74459668 140 140 141
0.30819396 0.28391343 0.71635052 171 173 173
0.30812846 0.29148968 0.72811178 163 167 167
0.30391805 0.29051189 0.74863255 143 148 150
0.30442482 0.28659850 0.76167625 125 124 129
0.30495725 0.30123003 0.73037489 151 155 155
0.30590591 0.30301877 0.75194122 145 153 156
0.30778405 0.30740252 0.76307067 144 149 152
0.32178589 0.07856429 0.47926912 132 137 143
0.32506579 0.07941046 0.48009336 134 139 146
0.32520370 0.08099198 0.47963032 129 136 141
0.32352805 0.08344248 0.48041802 142 146 149
0.32783455 0.15335685 0.78820251 141 144 150
0.33325409 0.16991578 0.78927206 164 166 169
0.33788519 0.49648526 1.89355266 148 153 159
0.33255970 0.50392969 1.85470074 156 159 161
0.33517188 0.50449337 1.86749337 150 154 158
0.33496028 0.50151376 1.89093012 129 129 139
0.33917728 0.51075208 1.94796503 136 138 148
0.35589135 0.05919093 0.78368998 160 165 164
0.34975918 0.07361490 0.77764583 146 150 154
0.35561115 0.06763873 0.78225847 151 154 156
0.35975277 0.08155818 0.77739888 121 129 138
0.35964644 0.08049143 0.78008264 103 107 123
0.34566965 0.17058876 0.77732167 158 160 166
0.34454411 0.17356557 0.78810256 159 163 166
0.34614715 0.18255522 0.79407858 167 171 174
0.34929794 0.18778976 0.80065991 164 169 171
0.35258508 0.20577168 0.45842372 134 141 142
0.35551952 0.20599148 0.46415634 129 138 137
0.34375468 0.49787596 1.89885676 162 169 170
0.34520581 0.49503157 1.90687251 136 143 150
0.35630709 0.49971041 1.93131578 154 157 162
0.35035104 0.50027281 1.84711671 177 181 182
0.35101604 0.50855313 1.87436805 170 173 174
0.35116685 0.50745126 1.88935068 164 167 169
0.35636507 0.50570013 1.90777659 171 173 175
0.35579704 0.50734143 1.92858542 170 175 176
0.34782825 0.50945079 1.94937655 138 138 148
0.34170181 0.51971263 1.98213995 136 137 148
0.35688278 0.52413213 1.89885676 147 148 151
0.35229733 0.52708779 1.90956457 137 142 145
0.34270385 0.52467275 1.98795259 130 129 143
0.36188863 0.05939701 0.78641850 157 161 161
0.36219153 0.07594880 0.77893043 134 137 142
0.36237980 0.06829036 0.78380997 146 147 151
0.36057982 0.08039891 0.77918601 110 116 132
0.36413984 0.16904624 0.45440171 150 153 154
0.36968631 0.19704049 0.47870798 139 144 143
0.37360923 0.19973183 0.48009336 142 152 149
0.36541831 0.20378609 0.47610476 153 158 155
0.37319434 0.20056163 0.48009336 133 143 143
0.37425217 0.49191397 1.79336464 112 111 120
0.36235280 0.49678196 1.89885676 178 185 184
0.36117649 0.49598324 1.90419054 176 181 182
0.37668845 0.50030792 1.81254506 100 99 113
0.36490020 0.50070930 1.87262940 170 174 177
0.36622490 0.50697331 1.89063545 173 175 176
0.36092678 0.50351763 1.92037344 175 179 180
0.36079341 0.52431315 1.89356744 143 143 146
0.37292203 0.52461402 1.90956205 170 171 171
0.37078932 0.53067484 1.92857242 144 145 149
0.36589989 0.54575896 1.96490383 118 120 129
0.39047992 0.35896612 1.13677164 150 150 152
0.39675575 0.35835701 1.16676736 170 171 171
0.39616557 0.36736257 1.13495699 170 173 174
0.39494604 0.37121645 1.15224397 165 169 171
0.39643540 0.36758450 1.16880861 165 167 169
0.39840006 0.37073749 1.19596662 168 172 172
0.39308138 0.37278122 1.21011790 159 164 166
0.39578398 0.37583877 1.22230864 165 169 171
0.39701158 0.38206780 1.17150088 168 174 174
0.39955297 0.38722229 1.18099630 167 174 176
0.39870826 0.38098603 1.22436905 142 142 146
0.39621991 0.40233511 1.19557643 144 152 156
0.38652274 0.51444495 1.85216355 102 104 125
0.38326159 0.51546878 1.86747062 112 115 122
0.38206869 0.51939523 1.89355266 151 151 153
0.38538492 0.52157021 1.87781680 107 115 123
0.38534155 0.52266806 1.89355266 118 121 124
0.38557680 0.52798799 1.90687251 128 132 136
0.38612029 0.53436661 1.93352301 147 150 152
0.38408181 0.53691694 1.94517428 163 163 164
0.39005149 0.54426167 1.95546087 145 147 153
0.40160237 0.37014230 1.13487279 176 177 177
0.40251594 0.37826675 1.14963267 179 181 182
0.40183023 0.37156733 1.19273367 168 170 171
0.40051076 0.37417790 1.21485996 178 179 179
0.40138907 0.37478992 1.22718065 172 175 177
0.40388316 0.38328243 1.15829515 178 181 181
0.40762129 0.39180293 1.16932567 168 171 173
0.40598913 0.39577377 1.19006023 170 176 178
0.40568037 0.39828900 1.20837873 165 171 174
0.40080556 0.38170660 1.22216165 146 145 148
0.40904662 0.40081280 1.17894232 152 156 159
0.40825850 0.40281021 1.19455132 154 160 163
0.40867549 0.40901139 1.21170804 148 153 157
0.40885736 0.41194426 1.22412584 147 153 156
0.41272736 0.42116192 1.23253059 142 143 143
0.41851124 0.44255763 1.26946032 151 151 150
0.42802786 0.10748806 0.48914303 148 152 154
0.43058462 0.11112388 0.50191610 150 151 152
0.43652070 0.19663819 0.47127670 139 145 144
0.43918733 0.21769157 0.45183535 142 150 148
0.43633365 0.20037116 0.47515178 135 139 138
0.43604717 0.20167710 0.48077434 139 142 143
0.43948354 0.22117395 0.45287738 143 147 146
0.42591177 0.42475589 1.23367959 144 145 148
0.43442418 0.43257401 1.24926414 146 147 149
0.43218935 0.43756337 1.26296380 138 139 142
0.43908536 0.44116291 1.25303483 130 131 133
0.42574190 0.44457476 1.26752742 119 120 125
0.43354142 0.45338529 1.28145909 101 103 111
0.45977229 0.13925675 0.45726268 140 141 144
0.45765124 0.13899820 0.46539525 153 155 154
0.45823032 0.14339805 0.45773865 161 166 165
0.45432198 0.14400595 0.46335593 148 152 149
0.44767743 0.15556366 0.79333593 175 176 176
0.44875476 0.15897796 0.80472608 178 180 180
0.45311921 0.16578234 0.79908689 154 155 155
0.45248462 0.16665005 0.80802655 171 175 175
0.45364305 0.16787197 0.82343702 173 179 179
0.44150365 0.21305807 0.45409049 156 160 157
0.44956986 0.21570771 0.46710071 151 158 155
0.44091997 0.22204028 0.45220758 93 98 94
0.44165969 0.43832074 1.25419503 144 144 144
0.44371164 0.44362295 1.26002204 134 135 137
0.46043571 0.13918765 0.45729653 139 140 143
0.46191468 0.13933876 0.46478836 165 167 161
0.46119564 0.14200843 0.45721945 166 171 169
0.46104577 0.14156033 0.46289227 152 155 156
0.46062273 0.17325170 0.83742076 168 172 174
0.46159597 0.17282764 0.84240577 169 174 174
0.46587039 0.23709760 0.49557728 128 132 135
0.46841271 0.23832462 0.50360826 133 133 128
0.46762994 0.24109631 0.49826945 158 165 162
0.47222085 0.24559387 0.50666067 72 72 68
0.48191261 0.25232625 0.51277751 0 0 0
0.51219330 0.23296219 0.57772421 149 154 152
0.51647611 0.23542374 0.58366715 151 155 153
0.51836231 0.24535877 0.59595408 120 127 126
0.52305864 0.23738101 0.59423080 140 142 141
0.52768021 0.23881990 0.60351851 138 141 140
0.52202686 0.24201330 0.59572102 140 144 142
0.53166381 0.24726001 0.61451549 118 121 121
0.53637067 0.24806909 0.62229243 116 116 117
0.54480720 0.23789952 0.62809318 145 154 154
0.54597079 0.24426445 0.63310969 154 156 155
0.54752744 0.24628706 0.64210572 171 174 172
0.61329962 -0.46257717 1.30868516 97 110 123
0.60933242 -0.44747705 1.29575121 98 110 121
0.61281223 -0.45678327 1.30543922 97 110 123
0.61288839 0.17584976 0.51004209 150 155 154
0.61302944 0.17157527 0.61231925 155 161 161
0.61754001 0.17232024 0.62364048 157 161 159
0.61338868 0.18474526 0.50994010 148 152 153
0.61963731 0.18251182 0.62593889 156 162 156
0.62529017 -0.46374394 1.31757528 96 109 124
0.63492824 -0.46683407 1.32622413 100 110 122
0.62440311 -0.45481438 1.31490607 99 112 121
0.63537902 -0.45648729 1.32516358 100 111 121
0.62107199 0.17919433 0.61945655 149 158 157
0.62218223 0.17733605 0.62624140 140 149 150
0.63344161 0.17935077 0.64438504 154 158 157
0.62251052 0.18121219 0.61964518 149 155 154
0.62340131 0.18242581 0.62746163 149 157 155
0.63227247 0.18190108 0.64357470 137 144 144
0.64753764 -0.46343760 1.32742225 100 108 119
0.65109907 -0.44552535 1.31757528 96 112 119
0.65078467 -0.45458071 1.32488219 98 110 120
0.69656066 0.11433374 0.67821241 150 154 155
0.69461129 0.11298528 0.68267501 151 157 157
0.69592314 0.12096385 0.67620285 164 165 166
0.70232446 0.11672640 0.67653943 142 146 149
0.70480886 0.12067349 0.67654012 150 156 154
0.77928275 -0.52507341 0.84314907 115 127 130
0.79095270 -0.52657762 0.85235562 112 128 129
0.79256946 -0.51971453 0.85592407 110 128 129
0.81966662 0.24546336 1.12981975 165 168 167
0.81946301 0.24836089 1.14315653 174 182 178
0.82752807 0.24787906 1.13417345 158 160 160
0.83046025 0.25259818 1.14606496 167 171 170
0.83395870 0.26291875 1.14849965 161 163 162
0.84097866 0.24786739 1.13487279 153 156 155
0.85002484 0.25537748 1.15289838 151 154 154
0.85562617 0.24860145 1.16276479 164 165 163
0.84883873 0.26482045 1.15613010 160 164 164
0.85637153 0.26759647 1.16463778 157 162 162
0.86276299 0.25888671 1.15485471 167 172 171
0.86017996 0.25218838 1.16077375 148 149 149
0.86689339 0.26295799 1.15813037 166 170 170
0.86768013 0.26834868 1.16702657 166 173 172
0.86970435 0.27832283 1.18375885 162 169 169
0.86933875 0.28290778 1.17587572 174 179 178
0.87258974 0.28327310 1.18625945 170 176 175
0.87769687 0.28656870 1.20407081 155 159 163
0.87109759 0.35588686 0.95680293 148 149 149
0.87832606 0.36647995 0.96291453 163 172 165
0.89434594 0.28864986 1.20407081 176 182 180
0.88209804 0.35519240 0.97072862 161 163 162
0.88615705 0.36823512 0.97371625 157 162 158
0.89726168 0.36458827 0.98867259 156 158 158
0.90372187 0.35942220 0.99642042 158 164 164
0.90950668 0.35826063 1.00279856 165 174 173
0.90337703 0.37127058 0.99589855 156 160 158
0.91396854 0.37049800 1.01071929 155 159 158
0.90429807 0.38296382 0.99642615 172 180 172
0.91392776 0.38305794 1.00936212 158 165 163
0.93846583 0.07917035 0.87753028 152 157 156
0.93876861 0.08193428 0.87734095 144 151 151
0.93959335 0.08203078 0.88383150 136 139 141
0.93334337 0.35750121 1.02973980 154 164 162
0.92094332 0.36287549 1.01735000 163 171 171
0.92852611 0.36897051 1.02814890 160 168 167
0.92102730 0.38092504 1.01938617 137 139 139
0.92869341 0.38483150 1.02984113 139 140 141
0.94074044 0.07992921 0.87753028 147 153 151
0.94439949 0.07338837 0.89053902 132 141 143
0.94846773 0.06652723 0.90145195 123 133 133
0.94088989 0.08139323 0.87696230 132 138 138
0.94342584 0.08401146 0.88805712 150 156 156
0.94228178 0.35817036 1.04291058 168 173 169
0.94154137 0.36549640 1.03811920 156 167 167
0.94534275 0.36728017 1.04705545 153 163 162
0.95933932 0.36973915 1.06586766 152 162 160
0.94088876 0.44728246 1.05755353 141 150 149
0.95103735 0.45435980 1.07209074 135 144 143
0.95841491 0.45686290 1.08463806 135 144 142
0.95663428 0.46213871 1.07944560 136 142 142
0.95969063 0.46548688 1.08289433 134 143 141
0.96369854 0.35769448 1.09381837 149 151 150
0.96452066 0.37249769 1.07248592 153 162 160
0.96746816 0.36067366 1.09809756 151 154 152
0.97342370 0.36510326 1.10505633 152 155 155
0.96615148 0.38245236 1.07467940 160 170 169
0.97124100 0.38065255 1.08116722 145 156 156
0.96431443 0.45550346 1.08811170 145 154 154
0.96680000 0.46785818 1.09565029 129 138 137
0.97009934 0.47361513 1.10822770 117 125 125
0.97264781 0.47667473 1.12802000 118 123 121
0.97139875 0.48312523 1.11496122 110 116 118
0.96798647 0.48349317 1.12405397 124 125 123
0.98190051 0.37894711 1.09514034 159 169 165
0.98336777 0.37409159 1.11450201 126 131 134
0.98296318 0.38536354 1.09632548 147 157 157
0.99181451 0.39055914 1.10810154 148 159 160
0.99286412 0.38441189 1.12660771 117 125 130
0.98458232 0.46664926 1.11588416 141 149 148
0.99333435 0.47148835 1.13353482 144 153 150
0.98774835 0.47747064 1.14412531 111 118 117
0.98400262 0.48445512 1.11358660 133 144 147
0.99294478 0.48164946 1.15533903 107 114 115
1.01556274 0.07382268 1.10380864 141 153 152
1.00932328 0.08427182 1.09383258 115 123 125
1.01726919 0.09010683 1.10451525 121 126 128
1.00531599 0.39601168 1.13138983 134 145 146
1.00858542 0.39573084 1.14364094 117 126 126
1.00718933 0.40169913 1.12989819 146 158 157
1.01898566 0.40371865 1.15093154 122 132 136
1.01861119 0.43958271 1.60258114 149 153 154
1.00320154 0.45155282 1.57192892 137 142 149
1.01228533 0.44851026 1.59077554 132 136 143
1.01849027 0.44547636 1.60384703 127 131 138
1.00182240 0.47012494 1.13664548 156 165 162
1.00251472 0.47083834 1.14123201 157 166 163
1.00032783 0.48374158 1.16276479 102 111 113
1.03076480 0.07346275 1.10983571 142 151 150
1.03851378 0.06623006 1.12048233 146 154 154
1.02771639 0.08691702 1.10511309 125 131 134
1.03722811 0.20232010 1.21052110 177 186 183
1.02544808 0.40858743 1.15484130 138 151 152
1.03293097 0.41217434 1.16781479 132 142 146
1.02424371 0.43862624 1.60925868 155 162 161
1.03585054 0.43140106 1.62843926 159 163 162
1.03154829 0.44655558 1.61315613 150 154 157
1.03033341 0.44559398 1.62930477 139 146 148
1.03404287 0.44682801 1.64588112 146 152 154
1.05580762 0.05643019 1.13765902 115 125 127
1.05537856 0.05598307 1.14187352 116 123 125
1.04452745 0.06997182 1.11532468 145 149 151
1.05039898 0.06288669 1.13024218 127 135 136
1.05281425 0.06055270 1.14123201 133 139 140
1.04195889 0.20435614 1.21850030 172 182 179
1.04927692 0.20885526 1.22893514 163 172 170
1.05953181 0.21609154 1.24156010 167 178 176
1.05137146 0.21457427 1.27503868 165 171 167
1.04986477 0.41871777 1.18928397 129 137 142
1.05597254 0.42672289 1.19348266 140 150 150
1.05895615 0.42524967 1.20193589 133 143 146
1.04358506 0.43640319 1.63741994 168 174 171
1.04985610 0.43386069 1.64838080 159 163 162
1.05307195 0.43089479 1.66313255 161 162 160
1.04368434 0.44460843 1.61480598 175 180 179
1.04807581 0.44416241 1.62956423 167 173 173
1.05000633 0.44297956 1.64751534 163 169 167
1.05613995 0.60304743 1.74714386 164 164 160
1.06460922 0.05480007 1.13681768 119 129 131
1.06267691 0.04871754 1.14123201 116 121 126
1.06400019 0.06116043 1.13423240 128 135 137
1.06369015 0.21278127 1.25149930 166 176 173
1.06885425 0.21525350 1.26920745 161 172 169
1.06670135 0.21922791 1.28510416 160 169 163
1.07045844 0.22374080 1.27284716 159 165 163
1.07307900 0.22694294 1.28894789 154 158 157
1.06224430 0.43427477 1.19628056 146 156 155
1.06988767 0.43468621 1.21088222 138 148 148
1.07736695 0.43715524 1.22363412 137 145 144
1.06549315 0.43314289 1.65139421 160 163 164
1.07293441 0.43004924 1.66765672 156 159 158
1.06969970 0.43386085 1.68525726 159 159 157
1.06255692 0.44302022 1.19663262 141 148 148
1.07184042 0.44926301 1.21228455 141 150 149
1.07723837 0.44738457 1.22268660 136 145 144
1.06364778 0.44293894 1.64594599 166 172 170
1.07903433 0.44712853 1.66149962 166 171 170
1.07081866 0.44364330 1.70324588 144 146 146
1.07097936 0.57735729 1.75165856 161 162 158
1.07399264 0.59076091 1.76911397 170 171 168
1.06693183 0.60722975 1.75425499 156 158 156
1.07479016 0.60663714 1.77058806 158 159 158
1.07654351 0.60578800 1.78942976 174 176 174
1.08029163 0.21860608 1.28145909 167 176 173
1.08125826 0.22394774 1.27823826 164 171 170
1.08576103 0.23024479 1.29077811 164 169 169
1.08181417 0.43953571 1.23029375 137 143 143
1.09504384 0.43685472 1.68840075 163 167 168
1.09142613 0.43481153 1.70324588 149 149 148
1.08442446 0.44898148 1.23353296 135 142 142
1.09883485 0.45166200 1.25211179 133 142 141
1.08531849 0.44741376 1.66969109 166 172 171
1.09617412 0.44856903 1.68490334 161 167 165
1.09953272 0.44219968 1.72053766 155 155 153
1.08677554 0.57291609 1.73818421 127 131 134
1.09112966 0.57616528 1.74805613 125 130 131
1.09155136 0.57881665 1.76534331 120 125 127
1.09459598 0.58341408 1.75166321 122 131 132
1.09054436 0.58952528 1.77207515 142 145 145
1.09995806 0.59570128 1.78392589 133 133 137
1.08591073 0.60756935 1.77531001 149 151 150
1.09679894 0.60466485 1.78580868 150 151 149
1.10745875 0.43947289 1.69475071 166 173 173
1.10681678 0.44651231 1.69426470 160 168 169
1.11368909 0.45043482 1.70668677 162 170 171
1.10233057 0.44034350 1.72491562 158 158 157
1.10372519 0.46236414 1.25768435 135 139 140
1.10990286 0.46932393 1.26472354 131 136 137
1.11778593 0.46246883 1.70753610 172 178 178
1.10475035 0.58462323 1.75528891 123 129 129
1.10316090 0.59090901 1.77334651 125 131 134
1.10507542 0.60213646 1.77112907 122 130 132
1.10710094 0.60768377 1.78839166 149 150 150
1.12351622 0.45609564 1.71370855 158 165 167
1.12613746 0.44766317 1.72639736 165 172 172
1.13100362 0.48047397 1.28876781 135 141 142
1.15648180 0.46673702 1.59598449 145 151 153
1.15784853 0.47101509 1.60856949 132 134 137
1.14842594 0.48883814 1.31120276 136 142 143
1.16585604 0.46625846 1.61020650 151 155 157
1.17320361 0.47052327 1.62720678 142 144 146
1.17946982 0.47691411 1.64536858 134 135 136
1.19838409 0.45317199 1.65420718 180 181 180
1.19964850 0.45574385 1.66149962 181 183 180
1.18646255 0.46655823 1.63151577 159 163 163
1.19061194 0.47009732 1.65087456 154 154 153
1.19359329 0.47215162 1.66783339 156 157 155
1.19854182 0.46866673 1.68211377 165 169 167
1.21895587 0.18623354 1.31885576 127 133 139
1.21680808 0.18563458 1.32271707 131 140 141
1.21585534 0.28656155 1.07841614 158 163 162
1.21850186 0.29043866 1.08305333 158 164 164
1.21297634 0.43995476 1.67795014 163 171 172
1.21610034 0.43338788 1.68630856 169 173 172
1.20620530 0.45382304 1.66970011 179 181 180
1.21632222 0.44645788 1.68690784 170 175 175
1.20670098 0.47267152 1.65541601 161 166 167
1.20591781 0.46716327 1.67153017 175 178 175
1.20910254 0.46759922 1.69052436 174 178 176
1.21474449 0.47241208 1.70969574 168 173 170
1.21739070 0.79356793 1.89048811 113 123 126
1.21503071 0.80723672 1.89444160 120 130 131
1.21010029 0.82377046 1.89355266 122 123 123
1.22232705 0.18491296 1.31757528 122 131 137
1.22824706 0.18498309 1.32791646 125 135 137
1.22612978 0.28889405 1.07493469 156 159 159
1.22596637 0.29368932 1.08800585 161 165 165
1.23395288 0.29995424 1.10047376 164 168 169
1.23357785 0.30743687 1.09479992 163 165 165
1.23795824 0.30903949 1.10380277 161 168 167
1.23726010 0.38092369 1.53369200 183 188 180
1.23674595 0.39377058 1.55301887 167 176 174
1.23753071 0.40992307 1.55569544 171 179 177
1.22572943 0.43567948 1.69897699 178 181 179
1.22986364 0.43830679 1.70539099 179 183 179
1.23484111 0.43922588 1.72053766 182 187 184
1.22294194 0.44976206 1.69579673 169 176 176
1.22808327 0.44990888 1.71090198 172 177 176
1.23511263 0.45016638 1.72412980 174 178 177
1.22083521 0.46308723 1.69897699 178 183 180
1.22480041 0.46398833 1.71315477 179 184 182
1.23083679 0.46793174 1.72572789 177 183 181
1.22618358 0.78909121 1.89515276 118 126 127
1.22686923 0.79023351 1.90741193 121 127 128
1.23561974 0.78962334 1.92828148 126 128 129
1.22005403 0.80638584 1.89885676 119 130 130
1.22377372 0.81432291 1.91494870 116 126 126
1.23073363 0.80728808 1.92583942 116 125 125
1.23794901 0.81815583 1.94238353 116 127 125
1.22032654 0.82413091 1.90955448 124 131 130
1.25780571 -0.29246526 1.34579056 85 99 104
1.25424641 -0.26919449 1.34411096 86 97 106
1.25489478 -0.25599468 1.34707022 87 98 104
1.25623783 0.15502023 1.34972435 136 139 149
1.25976479 0.17901591 1.35038751 117 126 127
1.24688420 0.18556998 1.33706894 119 131 135
1.25635265 0.18409559 1.34703834 119 131 133
1.24099404 0.28328389 1.07687414 149 155 155
1.24678061 0.31223564 1.09683998 160 161 162
1.24648083 0.31565235 1.10375369 163 167 167
1.25705129 0.31089052 1.12280434 161 169 167
1.25487399 0.32241926 1.11058567 162 167 167
1.25735676 0.32574290 1.12048233 162 166 166
1.24176896 0.37928399 1.51653659 181 185 180
1.25439876 0.38711342 1.53196096 174 178 171
1.25234069 0.38852811 1.54948123 178 183 177
1.25071855 0.39336766 1.57284053 158 164 163
1.25856829 0.39885896 1.58385944 162 166 165
1.24896499 0.40349592 1.55598919 170 179 175
1.24685712 0.40754521 1.56765296 170 179 177
1.25779156 0.41227701 1.58633520 169 179 177
1.25877178 0.42174491 1.58756876 171 178 175
1.24263585 0.45940071 1.72931588 170 179 178
1.24129419 0.76874542 1.91135255 136 138 140
1.24698792 0.77567817 1.92653829 132 134 136
1.25265670 0.77711864 1.94611530 136 137 139
1.24528766 0.79170570 1.91494870 123 130 130
1.24863145 0.78775039 1.93368737 124 127 128
1.25139171 0.78847378 1.94884608 130 132 133
1.25594958 0.79598502 1.97062691 140 141 142
1.24688345 0.81221805 1.95640188 126 130 131
1.25246183 0.81053440 1.96871738 130 131 132
1.25986123 0.80920696 1.98213995 130 131 133
1.24273431 0.83011675 1.95077731 117 127 126
1.24814229 0.83206939 1.97021733 132 135 133
1.25390346 0.82978490 1.98537682 137 139 137
1.24508417 0.84313107 1.95357883 119 125 124
1.25122540 0.84621620 1.97177153 127 132 130
1.25382022 0.84592947 1.98798696 142 145 141
1.27021401 -0.30191947 1.35578704 84 100 104
1.27694130 -0.30186546 1.36122859 83 100 103
1.27141311 -0.28737043 1.35005891 87 99 106
1.27788243 -0.28633715 1.36122859 87 99 107
1.27566485 -0.27212489 1.35480423 87 97 107
1.27929413 -0.26186833 1.36122859 90 98 106
1.26790965 -0.25749390 1.35309267 86 97 104
1.27676956 0.13360096 1.35140100 139 147 149
1.27529197 0.15633112 1.36424582 135 143 147
1.26505118 0.17168854 1.35443835 117 127 132
1.27503876 0.16423443 1.36328554 129 138 142
1.26227891 0.18171121 1.35307753 119 130 130
1.26175201 0.31789970 1.12700301 161 167 166
1.26678135 0.32683890 1.11429723 163 165 165
1.26594879 0.33106768 1.12813332 165 171 169
1.27142894 0.34147432 1.13740242 165 172 170
1.26520581 0.39379936 1.55070876 175 178 174
1.26669972 0.39426616 1.56885015 177 182 177
1.26790876 0.39799376 1.59354544 158 165 164
1.26772777 0.40498063 1.55480325 159 160 161
1.27371117 0.40626348 1.57102293 169 172 172
1.27036422 0.40802544 1.59057594 168 176 174
1.26635485 0.40766820 1.60312366 152 157 158
1.26172662 0.42548537 1.59129536 174 180 177
1.26068473 0.77789652 1.92582905 132 133 135
1.26273966 0.78290102 1.93407482 129 131 132
1.26274411 0.79505829 1.94610453 114 118 120
1.26355588 0.80470797 1.98795259 137 138 139
1.26303795 0.82491301 1.99527854 136 138 138
1.26396704 0.85658452 1.99674028 136 141 138
1.26355588 0.86140221 1.98795259 125 126 126
1.28291571 -0.26742434 1.35617805 87 97 105
1.28570954 -0.26320235 1.36372254 87 97 105
1.29089431 -0.25796295 1.36826250 81 99 105
1.28433645 0.13833223 1.35578732 139 145 146
1.28399968 0.13810316 1.36122859 138 143 145
1.29315960 0.14290663 1.35690375 140 145 148
1.29207798 0.15190192 1.36855687 137 142 145
1.29148456 0.16336897 1.35612604 133 141 140
1.28925657 0.16341629 1.36631550 127 135 136
1.28268766 0.39972863 1.57649267 178 182 180
1.28220975 0.39855050 1.58263453 174 180 175
1.28499931 0.40976363 1.58869149 171 176 174
1.28244722 0.40634353 1.60258114 173 180 178
1.30349824 0.14534019 1.35850072 139 145 147
1.30704654 0.15384377 1.36688041 135 142 144
1.30373305 0.16248101 1.35850072 134 139 139
1.30198438 0.16270304 1.36232417 137 143 142
1.32048643 0.15819600 1.37225068 131 139 141
1.59747803 0.23940909 1.95922494 118 124 126
1.59243518 0.24320472 1.94891681 132 137 143
1.59871221 0.24349921 1.96490383 126 131 135
1.59747458 0.25015885 1.99087608 126 130 129
1.59442503 0.29033704 1.99266458 110 121 126
1.60683509 0.23262268 1.97349397 123 129 135
1.61877656 0.23674172 1.99379957 114 122 126
1.60956361 0.25244642 1.97225971 124 131 136
1.60796254 0.25076323 1.99043953 123 129 130
1.60895362 0.26748589 1.97277859 127 136 139
1.61645673 0.26657658 1.99291856 117 126 129
1.60627019 0.29274064 1.99968100 132 142 147
1.62355173 0.23052750 1.99968100 123 130 136
1.62397532 0.24719636 1.97636104 130 136 142
1.63773024 0.25741845 1.99379957 116 124 132
1.62195659 0.26942530 1.99772052 114 122 125
1.65289271 0.13407581 1.90597852 130 131 136
1.64999855 0.14669983 1.89885676 112 118 123
1.65502298 0.14939658 1.91225159 116 119 124
1.65873778 0.15002175 1.92037344 123 127 128
1.65929437 0.17723089 1.90955448 163 164 164
1.64211679 0.19210999 1.89355266 146 147 147
1.65036750 0.19016548 1.90687251 146 147 148
1.64428937 0.25472149 1.99968100 112 120 127
1.66508492 0.15676927 1.91494870 109 112 117
1.66632028 0.15031930 1.92402089 118 122 127
1.67920339 0.15386069 1.94796503 126 127 129
1.67529167 0.17006386 1.93133143 160 163 163
1.67774916 0.17020608 1.94238353 140 144 144
1.66804312 0.18844081 1.92858283 150 151 150
1.67655599 0.18775064 1.94587600 156 160 159
1.68110645 0.15006258 1.94238353 116 122 122
1.68802005 0.16637212 1.93683386 139 145 146
1.68821470 0.17162663 1.94970229 163 167 167
1.69335318 0.17588447 1.96833768 165 168 169
1.68612655 0.18422980 1.94868694 168 170 168
1.68976334 0.18670890 1.96980933 160 169 166
1.69838512 0.18054177 1.98213995 168 174 174
1.70455265 0.17060113 1.95077839 154 159 159
1.71078598 0.16878331 1.96490383 168 174 174
1.70553291 0.18209186 1.94983629 144 145 145
1.74804401 0.17420356 1.98796403 153 155 156
1.74803400 0.18278923 1.98795259 150 151 151
1.76641150 0.17637901 1.99968100 127 127 129
1.76698756 0.18386763 1.99968100 155 157 157
