ply
format ascii 1.0
element vertex 1033
property float x
property float y
property float z
property uchar red
property uchar green
property uchar blue
end_header
0.28006339 -0.08232583 0.80318940 158 152 152
0.28452545 -0.08281645 0.80797595 160 153 151
0.66281843 -0.06997281 0.68267053 143 147 153
0.66266370 -0.06983216 0.68129832 145 149 154
0.66384131 -0.06983216 0.68129832 146 151 155
0.66435117 -0.06976205 0.68061429 153 158 162
0.66552758 -0.06976205 0.68061429 153 157 162
0.66603523 -0.06969208 0.67993164 151 156 161
0.66788036 -0.06976205 0.68061429 151 155 161
0.66838562 -0.06969208 0.67993164 153 155 161
0.66956085 -0.06969208 0.67993164 154 154 161
0.67140949 -0.06976205 0.68061429 154 154 161
0.67258590 -0.06976205 0.68061429 148 148 155
0.67308646 -0.06969208 0.67993164 143 143 150
0.67493868 -0.06976205 0.68061429 144 144 151
0.67611504 -0.06976205 0.68061429 145 145 151
0.67661208 -0.06969208 0.67993164 146 147 152
0.67778730 -0.06969208 0.67993164 149 149 155
0.67964417 -0.06976205 0.68061429 149 150 156
0.68013769 -0.06969208 0.67993164 149 149 155
0.68268239 -0.06983216 0.68129832 147 147 153
0.68523735 -0.06997281 0.68267053 146 146 153
0.26800478 -0.08065091 0.80034459 145 145 145
0.26938811 -0.08065091 0.80034459 140 140 141
0.27109149 -0.08074624 0.80129057 141 141 145
0.27215478 -0.08065091 0.80034459 143 142 148
0.27289373 -0.08046092 0.79845917 146 145 151
0.27427378 -0.08046092 0.79845917 148 145 148
0.28039560 -0.08103359 0.80414218 152 146 146
0.28588846 -0.08180997 0.81184649 150 144 144
0.66281843 -0.06879287 0.68267053 137 140 145
0.66266370 -0.06865460 0.68129832 142 144 150
0.66435117 -0.06858566 0.68061429 149 152 158
0.66552758 -0.06858566 0.68061429 150 153 160
0.66603523 -0.06851687 0.67993164 151 154 163
0.66788036 -0.06858566 0.68061429 155 158 167
0.66838562 -0.06851687 0.67993164 155 157 165
0.67023313 -0.06858566 0.68061429 153 153 160
0.67208427 -0.06865460 0.68129832 150 150 157
0.67258590 -0.06858566 0.68061429 142 142 149
0.67376226 -0.06858566 0.68061429 137 137 144
0.67493868 -0.06858566 0.68061429 146 146 153
0.67611504 -0.06858566 0.68061429 150 150 157
0.67661208 -0.06851687 0.67993164 151 151 158
0.67778730 -0.06851687 0.67993164 151 151 158
0.67964417 -0.06858566 0.68061429 147 147 154
0.68013769 -0.06851687 0.67993164 142 142 149
0.68268239 -0.06865460 0.68129832 143 143 150
0.68523735 -0.06879287 0.68267053 145 145 152
0.26895741 -0.07954933 0.80318940 145 146 147
0.27312213 -0.07954933 0.80318940 144 143 147
0.27386144 -0.07936127 0.80129057 147 146 150
0.27557212 -0.07945520 0.80223888 158 157 157
0.28761068 -0.08089113 0.81673717 146 142 144
0.66199839 -0.06740928 0.68061429 143 145 149
0.66486001 -0.06734166 0.67993164 145 148 155
0.66603523 -0.06734166 0.67993164 149 152 160
0.66788036 -0.06740928 0.68061429 153 156 164
0.66838562 -0.06734166 0.67993164 149 152 159
0.67023313 -0.06740928 0.68061429 143 146 152
0.67208427 -0.06747703 0.68129832 142 146 151
0.67258590 -0.06740928 0.68061429 138 141 146
0.67376226 -0.06740928 0.68061429 136 137 143
0.67561698 -0.06747703 0.68129832 150 152 157
0.67611504 -0.06740928 0.68061429 153 155 161
0.67661208 -0.06734166 0.67993164 150 152 158
0.67778730 -0.06734166 0.67993164 143 145 152
0.67964417 -0.06740928 0.68061429 135 138 144
0.68013769 -0.06734166 0.67993164 130 132 138
0.68268239 -0.06747703 0.68129832 136 138 145
0.68454796 -0.06754491 0.68198377 144 147 153
0.29423177 -0.09995145 1.02710891 168 167 167
0.29555923 -0.09980024 1.02555501 180 180 180
0.29688269 -0.09964948 1.02400577 178 179 179
0.26927644 -0.07825381 0.80414218 144 144 146
0.27344614 -0.07825381 0.80414218 133 129 134
0.27451038 -0.07816109 0.80318940 137 134 138
0.28865400 -0.07976779 0.81969994 142 138 141
0.66603523 -0.06616646 0.67993164 149 157 159
0.66788036 -0.06623289 0.68061429 149 158 159
0.66905671 -0.06623289 0.68061429 147 155 156
0.67090672 -0.06629945 0.68129832 143 152 153
0.67276043 -0.06636616 0.68198377 144 152 154
0.67326182 -0.06629945 0.68129832 141 147 149
0.67443943 -0.06629945 0.68129832 138 142 145
0.67561698 -0.06629945 0.68129832 147 151 154
0.67679453 -0.06629945 0.68129832 148 152 156
0.67661208 -0.06616646 0.67993164 144 148 152
0.67846781 -0.06623289 0.68061429 137 140 144
0.68032724 -0.06629945 0.68129832 133 137 140
0.68013769 -0.06616646 0.67993164 133 137 140
0.68268239 -0.06629945 0.68129832 140 144 147
0.68454796 -0.06636616 0.68198377 146 150 153
0.29467827 -0.09832516 1.02866745 140 139 141
0.29555923 -0.09802765 1.02555501 161 160 162
0.29733181 -0.09802765 1.02555501 156 155 158
0.29820213 -0.09773194 1.02246130 152 151 151
0.26927644 -0.07686391 0.80414218 146 146 148
0.27344614 -0.07686391 0.80414218 135 133 137
0.27418554 -0.07668199 0.80223888 136 136 138
0.66199839 -0.06505650 0.68061429 142 150 151
0.66552758 -0.06505650 0.68061429 154 163 163
0.66670394 -0.06505650 0.68061429 158 167 168
0.66855156 -0.06512189 0.68129832 157 166 167
0.66905671 -0.06505650 0.68061429 156 163 165
0.67090672 -0.06512189 0.68129832 157 161 163
0.67276043 -0.06518740 0.68198377 161 165 168
0.67326182 -0.06512189 0.68129832 157 161 163
0.67443943 -0.06512189 0.68129832 149 153 155
0.67561698 -0.06512189 0.68129832 148 152 154
0.67679453 -0.06512189 0.68129832 148 152 154
0.67661208 -0.06499125 0.67993164 148 152 154
0.67778730 -0.06499125 0.67993164 144 148 150
0.67964417 -0.06505650 0.68061429 141 145 146
0.68013769 -0.06499125 0.67993164 140 144 145
0.68268239 -0.06512189 0.68129832 144 148 149
0.68454796 -0.06518740 0.68198377 145 149 150
0.29512611 -0.09669392 1.03023076 137 126 134
0.29645622 -0.09654719 1.02866745 141 132 139
0.29733181 -0.09625506 1.02555501 142 134 140
0.29865259 -0.09610966 1.02400577 145 140 143
0.26927644 -0.07547402 0.80414218 152 152 156
0.66199839 -0.06388012 0.68061429 141 150 150
0.66486001 -0.06381604 0.67993164 153 162 162
0.66603523 -0.06381604 0.67993164 153 162 163
0.66788036 -0.06388012 0.68061429 157 166 167
0.66905671 -0.06388012 0.68061429 162 169 170
0.67090672 -0.06394432 0.68129832 167 171 172
0.67208427 -0.06394432 0.68129832 170 174 175
0.67326182 -0.06394432 0.68129832 164 168 168
0.67443943 -0.06394432 0.68129832 155 157 158
0.67561698 -0.06394432 0.68129832 151 153 153
0.67679453 -0.06394432 0.68129832 154 157 157
0.67661208 -0.06381604 0.67993164 161 165 166
0.67778730 -0.06381604 0.67993164 154 158 159
0.67964417 -0.06388012 0.68061429 150 154 155
0.68013769 -0.06381604 0.67993164 148 152 153
0.29557529 -0.09505771 1.03179884 143 134 140
0.29645622 -0.09476922 1.02866745 142 133 139
0.29778233 -0.09462563 1.02710891 147 138 145
0.29865259 -0.09433975 1.02400577 142 138 143
0.26895741 -0.07399634 0.80318940 154 157 158
1.32984304 -0.12824006 1.39197505 137 138 142
1.33224905 -0.12824006 1.39197505 132 133 137
1.33192003 -0.12797728 1.38912261 126 129 132
1.33706081 -0.12824006 1.39197505 132 135 138
0.66133440 -0.06264084 0.67993164 136 144 145
0.66486001 -0.06264084 0.67993164 143 149 151
0.66603523 -0.06264084 0.67993164 147 153 155
0.66788036 -0.06270373 0.68061429 156 162 164
0.66905671 -0.06270373 0.68061429 163 168 170
0.67023313 -0.06270373 0.68061429 167 171 172
0.67208427 -0.06276675 0.68129832 166 170 171
0.67258590 -0.06270373 0.68061429 161 164 165
0.67376226 -0.06270373 0.68061429 154 155 155
0.67561698 -0.06276675 0.68129832 155 156 156
0.67679453 -0.06276675 0.68129832 159 160 161
0.67661208 -0.06264084 0.67993164 163 165 167
0.67778730 -0.06264084 0.67993164 156 158 159
0.67964417 -0.06270373 0.68061429 151 153 155
0.29735869 -0.09327433 1.03179884 164 159 163
0.29823419 -0.09299125 1.02866745 146 142 147
0.29910442 -0.09270988 1.02555501 129 127 134
1.32984304 -0.12583415 1.39197505 137 138 142
1.33224905 -0.12583415 1.39197505 134 135 138
1.33465493 -0.12583415 1.39197505 129 130 132
0.66082203 -0.06152734 0.68061429 139 146 146
0.66199839 -0.06152734 0.68061429 140 146 147
0.66552758 -0.06152734 0.68061429 136 142 144
0.66670394 -0.06152734 0.68061429 139 145 147
0.66855156 -0.06158918 0.68129832 143 149 151
0.66972911 -0.06158918 0.68129832 148 154 155
0.67326182 -0.06158918 0.68129832 158 162 163
0.67679453 -0.06158918 0.68129832 157 160 161
0.67661208 -0.06146563 0.67993164 159 160 162
0.29735869 -0.09149095 1.03179884 173 172 174
0.29868743 -0.09135190 1.03023076 154 153 156
0.29955760 -0.09107508 1.02710891 142 142 147
0.30042249 -0.09079993 1.02400577 136 136 142
1.33257937 -0.12368221 1.39483917 138 139 143
1.33499026 -0.12368221 1.39483917 134 135 139
1.33465493 -0.12342824 1.39197505 123 124 126
1.34222293 -0.12368221 1.39483917 131 133 134
0.66215163 -0.06047239 0.68198377 145 151 151
0.66266370 -0.06041161 0.68129832 145 151 151
0.66686666 -0.06047239 0.68198377 124 130 132
0.66737401 -0.06041161 0.68129832 129 136 138
0.66989809 -0.06053329 0.68267053 133 140 141
0.29735869 -0.08970757 1.03179884 179 179 179
0.29868743 -0.08957123 1.03023076 166 166 166
0.29910442 -0.08916470 1.02555501 157 157 157
1.33499026 -0.12127134 1.39483917 137 136 142
1.33465493 -0.12102232 1.39197505 125 125 128
1.34257448 -0.12152138 1.39771509 128 129 131
1.34222293 -0.12127134 1.39483917 137 138 140
1.34187269 -0.12102232 1.39197505 147 148 150
1.33878052 -0.12052734 1.38628185 147 148 150
1.34117663 -0.12052734 1.38628185 146 148 150
0.66399837 -0.05935334 0.68267053 148 152 153
0.66753823 -0.05935334 0.68267053 138 145 145
0.29826665 -0.08819266 1.03494942 171 171 171
0.29914206 -0.08792418 1.03179884 169 169 169
0.29955760 -0.08752453 1.02710891 160 160 159
1.33499026 -0.11886048 1.39483917 143 143 150
1.33740115 -0.11886048 1.39483917 139 140 143
1.34257448 -0.11910555 1.39771509 144 145 147
1.34222293 -0.11886048 1.39483917 149 150 151
0.66348660 -0.05823205 0.68335873 150 154 154
0.66333038 -0.05811488 0.68198377 146 150 149
0.66384131 -0.05805647 0.68129832 135 141 141
0.66501886 -0.05805647 0.68129832 142 148 148
0.66686666 -0.05811488 0.68198377 147 155 155
0.94108337 -0.07880790 0.92481834 135 136 140
0.94011670 -0.07859346 0.92230183 137 138 142
0.93788278 -0.07827397 0.91855264 144 145 149
0.93693131 -0.07806242 0.91607004 150 151 155
0.94041055 -0.07795707 0.91483378 156 156 158
0.27470377 -0.08574925 1.02710891 161 161 162
0.28395605 -0.08640383 1.03494942 165 165 167
0.28618178 -0.08653595 1.03653193 168 167 169
0.29872271 -0.08653595 1.03653193 162 161 161
0.30005547 -0.08640383 1.03494942 165 164 164
0.30046812 -0.08600989 1.03023076 161 158 158
0.30133286 -0.08574925 1.02710891 161 157 158
1.33465493 -0.11621049 1.39197505 149 150 152
1.33706081 -0.11621049 1.39197505 153 154 156
0.66199839 -0.05682180 0.68061429 148 153 154
0.66317481 -0.05682180 0.68061429 143 152 153
0.93980122 -0.07710423 0.92355835 129 129 133
0.94011670 -0.07699933 0.92230183 132 132 136
0.93915534 -0.07679038 0.91979897 141 141 145
0.93693131 -0.07647906 0.91607004 149 149 153
0.94041055 -0.07637586 0.91483378 155 155 158
0.27364084 -0.08474439 1.03653193 159 158 160
0.27459267 -0.08448602 1.03337169 153 153 155
0.27637878 -0.08448602 1.03337169 161 161 163
0.27731940 -0.08422922 1.03023076 168 168 170
0.28123713 -0.08487416 1.03811920 169 169 171
0.28303143 -0.08487416 1.03811920 167 167 169
0.28482574 -0.08487416 1.03811920 165 165 167
0.28662005 -0.08487416 1.03811920 163 162 164
0.28797334 -0.08474439 1.03653193 162 161 163
0.29020864 -0.08487416 1.03811920 162 161 163
0.29155648 -0.08474439 1.03653193 162 161 161
0.29379725 -0.08487416 1.03811920 164 163 163
0.29559156 -0.08487416 1.03811920 162 158 160
0.29738587 -0.08487416 1.03811920 156 155 155
0.29918018 -0.08487416 1.03811920 165 163 163
0.30051428 -0.08474439 1.03653193 169 165 166
0.30046812 -0.08422922 1.03023076 163 160 161
0.30133286 -0.08397398 1.02710891 160 157 158
1.33192003 -0.11357137 1.38912261 153 155 158
1.33061719 -0.11264803 1.37782896 143 146 147
0.93980122 -0.07550794 0.92355835 129 130 134
0.93883938 -0.07530276 0.92104870 131 132 137
0.93915534 -0.07520058 0.91979897 138 138 143
0.93693131 -0.07489571 0.91607004 145 144 150
0.93598497 -0.07469384 0.91360086 150 150 155
0.93882930 -0.07479464 0.91483378 155 155 159
0.94168133 -0.07489571 0.91607004 152 153 157
0.94199175 -0.07479464 0.91483378 149 149 153
-0.06808772 -0.05231547 0.65370476 144 137 139
0.27322307 -0.08282617 1.03494942 148 144 147
0.27417472 -0.08257405 1.03179884 151 147 152
0.27637878 -0.08269992 1.03337169 159 157 161
0.27774149 -0.08257405 1.03179884 171 171 173
0.28123713 -0.08307986 1.03811920 170 170 172
0.28346553 -0.08320728 1.03971136 167 167 169
0.28526258 -0.08320728 1.03971136 162 162 164
0.28750059 -0.08333509 1.04130852 157 156 160
0.28841436 -0.08307986 1.03811920 162 160 164
0.29065377 -0.08320728 1.03971136 167 164 167
0.29200295 -0.08307986 1.03811920 172 168 169
0.29379725 -0.08307986 1.03811920 169 166 167
0.29559156 -0.08307986 1.03811920 164 161 162
0.29738587 -0.08307986 1.03811920 162 161 161
0.29963905 -0.08320728 1.03971136 167 166 166
0.30051428 -0.08295283 1.03653193 174 172 172
0.30092543 -0.08257405 1.03179884 166 165 165
0.30179012 -0.08232344 1.02866745 147 146 146
0.30402946 -0.08244855 1.03023076 131 127 128
1.32680011 -0.11094304 1.38628185 150 152 156
1.33192003 -0.11117038 1.38912261 155 157 160
1.33061719 -0.11026656 1.37782896 132 136 137
1.31958830 -0.10915723 1.36396754 137 142 143
1.30877900 -0.10807002 1.35038221 140 148 149
1.29190099 -0.10554698 1.31885576 152 162 167
1.29143500 -0.10513788 1.31374383 145 154 160
1.29621780 -0.10534203 1.31629479 137 145 152
0.93692845 -0.07381108 0.92230183 137 141 147
0.93724746 -0.07371080 0.92104870 133 136 144
0.93756551 -0.07361078 0.91979897 131 134 141
0.93788278 -0.07351104 0.91855264 138 138 146
0.93693131 -0.07331236 0.91607004 142 142 150
0.93598497 -0.07311475 0.91360086 146 145 153
0.93882930 -0.07321342 0.91483378 150 150 156
0.94041055 -0.07321342 0.91483378 148 149 154
0.94199175 -0.07321342 0.91483378 146 146 152
-0.07021206 -0.05108707 0.65244645 125 116 117
-0.06921759 -0.05118560 0.65370476 121 114 116
-0.06802212 -0.05113629 0.65307498 131 126 128
0.27364084 -0.08116126 1.03653193 165 161 162
0.27459267 -0.08091382 1.03337169 171 167 169
0.27680072 -0.08103735 1.03494942 173 171 173
0.27816489 -0.08091382 1.03337169 177 177 177
0.28166848 -0.08141022 1.03971136 173 173 175
0.28390095 -0.08153528 1.04130852 171 171 173
0.28570077 -0.08153528 1.04130852 167 167 171
0.28794289 -0.08166072 1.04291058 164 160 165
0.28885669 -0.08141022 1.03971136 163 159 164
0.29110023 -0.08153528 1.04130852 163 159 165
0.29245082 -0.08141022 1.03971136 163 161 165
0.29424787 -0.08141022 1.03971136 165 164 168
0.29604492 -0.08141022 1.03971136 163 163 164
0.29784200 -0.08141022 1.03971136 159 160 160
0.29963905 -0.08141022 1.03971136 170 171 171
0.30097449 -0.08128555 1.03811920 181 181 177
0.30184430 -0.08103735 1.03494942 171 171 167
0.30270883 -0.08079066 1.03179884 145 146 142
1.32409239 -0.10832544 1.38345277 140 139 146
1.32919621 -0.10854696 1.38628185 141 141 146
1.33432102 -0.10876939 1.38912261 141 141 145
1.33094096 -0.10810482 1.38063514 136 140 143
1.32255292 -0.10723124 1.36947846 140 146 148
1.31429935 -0.10637167 1.35850072 147 153 155
1.30877900 -0.10573599 1.35038221 146 153 158
1.30850637 -0.10552578 1.34769750 147 154 160
1.29489970 -0.10387371 1.32659853 146 155 161
1.29213536 -0.10346875 1.32142663 144 153 159
1.28689361 -0.10286718 1.31374383 151 161 166
1.28418684 -0.10247001 1.30867147 151 161 166
1.28644884 -0.10247001 1.30867147 146 156 161
1.29120338 -0.10266821 1.31120276 135 143 151
0.93565547 -0.07211884 0.92104870 133 137 142
0.93724746 -0.07211884 0.92104870 134 137 142
0.93756551 -0.07202099 0.91979897 136 138 144
0.93788278 -0.07192340 0.91855264 141 142 149
0.93566686 -0.07163221 0.91483378 144 145 151
0.93598497 -0.07153567 0.91360086 146 147 153
0.93756402 -0.07153567 0.91360086 149 149 156
0.94041055 -0.07163221 0.91483378 149 149 156
0.94072223 -0.07153567 0.91360086 149 149 156
-0.07021206 -0.04995937 0.65244645 125 121 121
-0.06921759 -0.05005572 0.65370476 111 105 110
-0.06802212 -0.05000750 0.65307498 100 92 100
0.27585420 -0.07949125 1.03811920 187 183 184
0.27764851 -0.07949125 1.03811920 188 185 186
0.27901554 -0.07936970 1.03653193 185 185 185
0.28210115 -0.07973546 1.04130852 188 188 190
0.28433773 -0.07985813 1.04291058 184 184 186
0.28658122 -0.07998118 1.04451752 175 175 179
0.28838658 -0.07998118 1.04451752 170 168 173
0.28930041 -0.07973546 1.04130852 165 162 168
0.29110023 -0.07973546 1.04130852 162 158 164
0.29245082 -0.07961316 1.03971136 162 160 166
0.29469985 -0.07973546 1.04130852 162 160 167
0.29649967 -0.07973546 1.04130852 160 160 164
0.29829949 -0.07973546 1.04130852 157 157 160
0.30009931 -0.07973546 1.04130852 177 177 179
0.30143610 -0.07961316 1.03971136 182 185 181
0.30184430 -0.07924853 1.03494942 168 171 167
1.32139564 -0.10571850 1.38063514 138 137 146
1.32648361 -0.10593425 1.38345277 140 140 147
1.33159232 -0.10615089 1.38628185 143 144 150
1.32285833 -0.10507648 1.37225068 148 151 157
1.31458569 -0.10423250 1.36122859 148 153 158
1.30644488 -0.10340196 1.35038221 148 153 158
1.30358541 -0.10299163 1.34502351 149 153 160
1.30591011 -0.10299163 1.34502351 151 155 162
1.30049384 -0.10238222 1.33706474 154 158 164
1.29260683 -0.10158079 1.32659853 150 157 162
1.29489970 -0.10158079 1.32659853 144 152 157
1.29213536 -0.10118476 1.32142663 140 148 153
1.28689361 -0.10059648 1.31374383 149 156 161
1.28667080 -0.10040190 1.31120276 149 156 161
1.28893709 -0.10040190 1.31120276 143 150 155
1.29120338 -0.10040190 1.31120276 136 144 148
0.93820494 -0.07071906 0.92355835 142 145 147
0.93852258 -0.07062284 0.92230183 142 145 146
0.93756551 -0.07043119 0.91979897 142 145 147
0.93788278 -0.07033575 0.91855264 143 145 150
0.93566686 -0.07005099 0.91483378 145 147 153
0.93472522 -0.06986243 0.91237128 148 149 156
0.93630219 -0.06986243 0.91237128 149 150 157
0.93914312 -0.06995659 0.91360086 149 149 156
0.94072223 -0.06995659 0.91360086 147 147 154
0.93976825 -0.06976853 0.91114497 149 149 157
-0.07027970 -0.04887871 0.65307498 130 121 124
-0.06921759 -0.04892585 0.65370476 115 107 110
-0.06802212 -0.04887871 0.65307498 110 102 107
-0.06463576 -0.04887871 0.65307498 150 148 146
0.27627730 -0.07781611 1.03971136 190 189 189
0.27807435 -0.07781611 1.03971136 190 190 190
0.27944282 -0.07769694 1.03811920 186 186 186
0.29154807 -0.07805555 1.04291058 164 163 167
0.29875842 -0.07805555 1.04291058 165 164 168
0.30056101 -0.07805555 1.04291058 176 175 177
0.30189914 -0.07793564 1.04130852 180 179 178
1.31603503 -0.10291298 1.37503421 148 148 157
1.32109141 -0.10312216 1.37782896 150 149 157
1.32887471 -0.10354307 1.38345277 152 152 159
1.32585430 -0.10312216 1.37782896 155 156 163
1.31752419 -0.10229053 1.36671746 152 154 160
1.31195128 -0.10167556 1.35850072 150 153 159
1.30644488 -0.10106794 1.35038221 151 153 159
1.30617702 -0.10086700 1.34769750 151 152 159
1.30850637 -0.10086700 1.34769750 152 153 159
1.30564439 -0.10046753 1.34236014 153 154 159
1.30024028 -0.09987422 1.33443272 148 150 156
1.30511594 -0.10007121 1.33706474 144 147 153
1.30203354 -0.09948256 1.32919967 144 147 153
1.29923594 -0.09909395 1.32400751 142 145 151
1.29898727 -0.09890079 1.32142663 137 141 146
1.29873967 -0.09870837 1.31885576 132 139 143
0.94076836 -0.06931162 0.92608178 151 152 154
0.93980122 -0.06912275 0.92355835 149 150 152
0.93883938 -0.06893492 0.92104870 146 147 149
0.93915534 -0.06884139 0.91979897 146 147 151
0.93566686 -0.06846978 0.91483378 147 147 153
0.93472522 -0.06828547 0.91237128 148 148 154
0.93756402 -0.06837749 0.91360086 147 147 153
0.93787915 -0.06828547 0.91237128 143 143 150
0.93945611 -0.06828547 0.91237128 139 139 146
0.93976825 -0.06819369 0.91114497 138 138 146
0.94007951 -0.06810215 0.90992194 121 121 130
-0.07027970 -0.04774993 0.65307498 121 112 118
-0.06928441 -0.04784211 0.65433574 124 118 121
-0.06808772 -0.04779597 0.65370476 130 129 129
-0.06463576 -0.04774993 0.65307498 137 133 132
-0.06350698 -0.04774993 0.65307498 123 115 117
0.27627730 -0.07601905 1.03971136 180 180 180
0.27764851 -0.07590264 1.03811920 187 187 187
0.27901554 -0.07578658 1.03653193 187 186 186
0.28658122 -0.07637045 1.04451752 178 179 181
0.28838658 -0.07637045 1.04451752 170 170 173
0.29875842 -0.07625296 1.04291058 163 162 166
0.30102411 -0.07637045 1.04451752 162 161 164
0.30189914 -0.07613582 1.04130852 166 165 168
0.30323315 -0.07601905 1.03971136 167 166 169
1.31603503 -0.10053635 1.37503421 150 150 159
1.32378197 -0.10094587 1.38063514 152 152 160
1.32887471 -0.10115188 1.38345277 153 153 160
1.32316494 -0.10053635 1.37503421 153 153 160
1.31223297 -0.09952695 1.36122859 153 153 160
1.30932736 -0.09912884 1.35578370 154 154 161
1.30644488 -0.09873391 1.35038221 154 155 161
1.30617702 -0.09853762 1.34769750 148 149 153
1.31111300 -0.09873391 1.35038221 145 146 149
1.30823493 -0.09834211 1.34502351 147 148 151
1.30537963 -0.09795340 1.33970726 149 150 154
1.31288445 -0.09834211 1.34502351 149 149 155
1.31260478 -0.09814737 1.34236014 145 146 151
1.30973792 -0.09776020 1.33706474 140 144 147
1.30919552 -0.09737608 1.33181107 131 137 139
1.30381286 -0.09680551 1.32400751 124 130 132
0.93852258 -0.06743459 0.92230183 149 150 152
0.93756551 -0.06725159 0.91979897 150 151 153
0.93661362 -0.06706958 0.91730964 146 147 150
0.93440586 -0.06679841 0.91360086 145 146 149
0.93472522 -0.06670851 0.91237128 145 146 149
0.93630219 -0.06670851 0.91237128 144 145 149
0.93661857 -0.06661884 0.91114497 143 144 149
0.93945611 -0.06670851 0.91237128 142 143 148
0.93976825 -0.06661884 0.91114497 138 140 147
-0.07366606 -0.04662114 0.65307498 119 117 113
-0.07154634 -0.04671114 0.65433574 60 52 62
-0.07027970 -0.04662114 0.65307498 102 91 103
-0.06928441 -0.04671114 0.65433574 133 123 132
-0.06808772 -0.04666610 0.65370476 137 129 132
-0.06695785 -0.04666610 0.65370476 142 138 137
-0.06589151 -0.04671114 0.65433574 144 140 140
-0.06469809 -0.04666610 0.65370476 120 116 117
-0.06356822 -0.04666610 0.65370476 122 116 118
-0.02633264 -0.03989509 0.55885559 153 148 150
0.27585420 -0.07410833 1.03811920 193 192 192
0.27764851 -0.07410833 1.03811920 194 193 193
0.27858955 -0.07388205 1.03494942 190 190 190
0.28210115 -0.07433601 1.04130852 187 187 187
0.28477585 -0.07456508 1.04451752 185 185 185
0.28658122 -0.07456508 1.04451752 180 181 181
0.30282947 -0.07456508 1.04451752 164 163 167
1.32109141 -0.09835923 1.37782896 149 155 157
1.32347286 -0.09835923 1.37782896 149 155 157
1.31251574 -0.09736970 1.36396754 148 154 156
1.30437529 -0.09659230 1.35307753 154 158 160
1.30411088 -0.09639988 1.35038221 154 158 159
1.30384767 -0.09620823 1.34769750 150 154 155
1.30617702 -0.09620823 1.34769750 137 139 141
1.30850637 -0.09620823 1.34769750 133 135 137
1.30823493 -0.09601735 1.34502351 143 145 147
1.30537963 -0.09563783 1.33970726 147 149 152
1.31001079 -0.09563783 1.33970726 145 146 150
1.30715966 -0.09526130 1.33443272 139 142 145
1.30919552 -0.09507415 1.33181107 129 133 136
1.30127132 -0.09433283 1.32142663 131 136 139
0.93470746 -0.06557282 0.91855264 146 148 149
0.93502814 -0.06548408 0.91730964 148 150 151
0.93534791 -0.06539559 0.91607004 145 148 149
0.93314826 -0.06513155 0.91237128 144 147 148
0.93346888 -0.06504401 0.91114497 144 147 148
0.93630219 -0.06513155 0.91237128 144 146 148
-0.17319781 -0.03503046 0.50288713 166 166 168
-0.17220086 -0.03500449 0.50251436 165 165 167
-0.17120539 -0.03497856 0.50214213 164 164 166
-0.17021140 -0.03495267 0.50177044 164 164 166
-0.07735050 -0.04566834 0.65560138 121 115 114
-0.07607020 -0.04558017 0.65433574 122 119 115
-0.07493924 -0.04558017 0.65433574 133 132 128
-0.07366606 -0.04549235 0.65307498 111 109 108
-0.07253727 -0.04549235 0.65307498 61 57 60
-0.07154634 -0.04558017 0.65433574 55 46 67
-0.07027970 -0.04549235 0.65307498 81 69 91
-0.06921759 -0.04553622 0.65370476 141 130 148
-0.06808772 -0.04553622 0.65370476 137 128 130
-0.06702247 -0.04558017 0.65433574 140 133 132
-0.06589151 -0.04558017 0.65433574 141 134 134
-0.06469809 -0.04553622 0.65370476 133 125 128
-0.06356822 -0.04553622 0.65370476 133 127 129
-0.06249861 -0.04558017 0.65433574 135 127 129
-0.02925457 -0.03896127 0.55931669 166 159 159
-0.02824123 -0.03889708 0.55839527 157 151 151
-0.02729858 -0.03892915 0.55885559 160 154 154
-0.02631095 -0.03889708 0.55839527 150 144 145
-0.02528333 -0.03880120 0.55701876 153 147 147
-0.02343483 -0.03892915 0.55885559 127 123 128
0.27774149 -0.07187376 1.03179884 195 194 194
1.30725515 -0.09463138 1.35850072 149 154 155
1.30177689 -0.09406586 1.35038221 146 151 151
1.30151820 -0.09387884 1.34769750 142 145 147
1.30126059 -0.09369258 1.34502351 137 140 141
1.30358541 -0.09369258 1.34502351 132 135 137
1.30850637 -0.09387884 1.34769750 134 137 138
1.30823493 -0.09369258 1.34502351 141 143 144
1.30796456 -0.09350705 1.34236014 143 144 147
1.31549454 -0.09387884 1.34769750 144 145 148
1.31260478 -0.09350705 1.34236014 144 145 147
1.30715966 -0.09295484 1.33443272 136 140 141
1.30946612 -0.09295484 1.33443272 133 139 139
1.30919552 -0.09277222 1.33181107 138 144 144
1.30127132 -0.09204885 1.32142663 141 147 147
1.29597640 -0.09151368 1.31374383 142 148 148
0.92743117 -0.06381224 0.91607004 149 158 159
0.92526346 -0.06355459 0.91237128 149 158 159
0.92966861 -0.06364024 0.91360086 145 148 149
0.93124771 -0.06364024 0.91360086 145 148 149
0.93282676 -0.06364024 0.91360086 145 147 149
0.93189400 -0.06346916 0.91114497 144 147 148
0.93221587 -0.06338397 0.90992194 144 146 148
0.93504369 -0.06346916 0.91114497 145 146 148
0.93536133 -0.06338397 0.90992194 145 146 148
0.93693405 -0.06338397 0.90992194 145 146 148
0.93724877 -0.06329901 0.90870219 149 152 153
0.93630916 -0.06312976 0.90627253 152 156 157
-0.17319781 -0.03416126 0.50288713 169 169 171
-0.17220086 -0.03413594 0.50251436 170 170 172
-0.17120539 -0.03411065 0.50214213 165 165 167
-0.17033748 -0.03411065 0.50214213 160 160 162
-0.16946957 -0.03411065 0.50214213 163 163 167
-0.07840782 -0.04449215 0.65496796 113 105 107
-0.07720117 -0.04444921 0.65433574 124 115 116
-0.07599685 -0.04440634 0.65370476 121 112 113
-0.07479485 -0.04436356 0.65307498 113 108 109
-0.07366606 -0.04436356 0.65307498 100 93 98
-0.07253727 -0.04436356 0.65307498 63 56 65
-0.07147735 -0.04440634 0.65370476 65 57 74
-0.07021206 -0.04432087 0.65244645 86 76 92
-0.06915091 -0.04436356 0.65307498 138 127 141
-0.06802212 -0.04436356 0.65307498 138 129 128
-0.06695785 -0.04440634 0.65370476 141 132 131
-0.06589151 -0.04444921 0.65433574 142 133 133
-0.06469809 -0.04440634 0.65370476 137 128 131
-0.06362958 -0.04444921 0.65433574 135 127 130
-0.06249861 -0.04444921 0.65433574 138 131 133
-0.06142693 -0.04449215 0.65496796 142 136 138
-0.02821798 -0.03790072 0.55793566 144 135 136
-0.02727609 -0.03793194 0.55839527 166 157 158
-0.02631095 -0.03793194 0.55839527 153 144 144
-0.02528333 -0.03783844 0.55701876 152 143 143
-0.02343483 -0.03796322 0.55885559 136 132 134
-0.02243191 -0.03790072 0.55793566 115 111 114
0.27731940 -0.06998385 1.03023076 193 192 192
1.31811464 -0.09321737 1.37225068 150 151 153
1.30464065 -0.09209876 1.35578370 144 145 147
1.30177689 -0.09173183 1.35038221 139 140 142
1.30151820 -0.09154946 1.34769750 136 137 139
1.30126059 -0.09136782 1.34502351 136 137 139
1.30617702 -0.09154946 1.34769750 139 140 142
1.30850637 -0.09154946 1.34769750 140 143 144
1.30823493 -0.09136782 1.34502351 142 145 146
1.30796456 -0.09118689 1.34236014 145 149 149
1.31549454 -0.09154946 1.34769750 147 150 150
1.31260478 -0.09118689 1.34236014 143 146 146
1.30973792 -0.09082717 1.33706474 133 137 136
1.31204891 -0.09082717 1.33706474 128 132 131
0.91929531 -0.06189433 0.91114497 151 157 157
0.91963410 -0.06181125 0.90992194 150 156 156
0.92493135 -0.06206116 0.91360086 149 156 156
0.92401981 -0.06189433 0.91114497 149 155 155
0.92684042 -0.06197763 0.91237128 147 151 152
0.92841738 -0.06197763 0.91237128 146 147 149
0.92999434 -0.06197763 0.91237128 145 146 148
0.93157130 -0.06197763 0.91237128 144 147 148
0.93189400 -0.06189433 0.91114497 142 146 147
0.93221587 -0.06181125 0.90992194 139 144 144
0.93504369 -0.06189433 0.91114497 142 145 146
0.93536133 -0.06181125 0.90992194 146 147 149
0.93693405 -0.06181125 0.90992194 146 147 149
0.93599403 -0.06164575 0.90748572 145 148 149
0.93630916 -0.06156334 0.90627253 145 149 150
-0.17332639 -0.03331678 0.50326043 168 167 167
-0.17232861 -0.03329206 0.50288713 169 169 171
-0.17133230 -0.03326738 0.50251436 170 170 170
-0.17033748 -0.03324274 0.50214213 171 170 170
-0.16946957 -0.03324274 0.50214213 171 171 172
-0.07833214 -0.04331824 0.65433574 116 107 111
-0.07720117 -0.04331824 0.65433574 121 112 115
-0.07599685 -0.04327647 0.65370476 124 115 118
-0.07479485 -0.04323478 0.65307498 129 120 121
-0.07366606 -0.04323478 0.65307498 130 121 124
-0.07253727 -0.04323478 0.65307498 80 71 79
-0.07147735 -0.04327647 0.65370476 84 73 81
-0.07027970 -0.04323478 0.65307498 102 92 98
-0.06915091 -0.04323478 0.65307498 135 126 131
-0.06802212 -0.04323478 0.65307498 133 127 129
-0.06702247 -0.04331824 0.65433574 124 120 121
-0.06595517 -0.04336010 0.65496796 141 136 137
-0.06476054 -0.04331824 0.65433574 144 136 139
-0.06369106 -0.04336010 0.65496796 141 135 137
-0.06255899 -0.04336010 0.65496796 140 134 135
-0.06148634 -0.04340203 0.65560138 141 135 135
-0.03204899 -0.03690600 0.55747682 146 143 141
-0.02923045 -0.03699728 0.55885559 90 81 83
-0.02821798 -0.03693638 0.55793566 110 101 105
-0.02727609 -0.03696680 0.55839527 150 141 144
-0.02628929 -0.03693638 0.55793566 154 145 148
-0.02528333 -0.03687568 0.55701876 157 148 151
-0.02434056 -0.03690600 0.55747682 156 150 150
-0.02341552 -0.03696680 0.55839527 151 147 148
-0.02241346 -0.03690600 0.55747682 145 141 142
1.31574285 -0.09084554 1.37225068 129 130 133
1.31811464 -0.09084554 1.37225068 133 134 136
1.30725515 -0.08993527 1.35850072 137 138 140
1.30437529 -0.08957624 1.35307753 140 142 143
1.30151820 -0.08922008 1.34769750 143 145 147
1.30384767 -0.08922008 1.34769750 145 148 149
1.30877900 -0.08939780 1.35038221 144 148 149
1.31111300 -0.08939780 1.35038221 143 147 148
1.31083584 -0.08922008 1.34769750 143 147 148
1.31316519 -0.08922008 1.34769750 147 150 151
1.32074606 -0.08957624 1.35307753 150 151 151
1.31520927 -0.08904305 1.34502351 143 145 144
1.31492496 -0.08886673 1.34236014 135 136 136
1.31464195 -0.08869110 1.33970726 131 132 132
0.91806138 -0.06023852 0.90992194 150 151 155
0.91840130 -0.06015777 0.90870219 148 152 154
0.92368650 -0.06040067 0.91237128 145 152 152
0.92401981 -0.06031949 0.91114497 143 150 150
0.92808956 -0.06048207 0.91360086 144 148 149
0.92841738 -0.06040067 0.91237128 144 146 147
0.92999434 -0.06040067 0.91237128 141 143 145
0.93157130 -0.06040067 0.91237128 138 142 143
0.93064314 -0.06023852 0.90992194 136 141 142
0.93221587 -0.06023852 0.90992194 135 139 140
0.93504369 -0.06031949 0.91114497 139 144 145
0.93536133 -0.06023852 0.90992194 143 149 151
0.93567812 -0.06015777 0.90870219 143 148 150
0.93599403 -0.06007724 0.90748572 141 144 146
0.93505907 -0.05991682 0.90506256 140 141 143
-0.17345516 -0.03247104 0.50363433 170 169 167
-0.17232861 -0.03242286 0.50288713 172 171 170
-0.17133230 -0.03239883 0.50251436 174 173 171
-0.17021140 -0.03235086 0.50177044 174 173 171
-0.07727576 -0.04222804 0.65496796 120 111 114
-0.07607020 -0.04218727 0.65433574 126 117 120
-0.07493924 -0.04218727 0.65433574 137 127 129
-0.07373710 -0.04214659 0.65370476 142 133 134
-0.07260722 -0.04214659 0.65370476 127 120 120
-0.07154634 -0.04218727 0.65433574 129 120 121
-0.07027970 -0.04210599 0.65307498 124 118 118
-0.06921759 -0.04214659 0.65370476 128 125 124
-0.06808772 -0.04214659 0.65370476 120 118 118
-0.06708723 -0.04222804 0.65496796 106 104 105
-0.06601896 -0.04226888 0.65560138 133 130 130
-0.06482311 -0.04222804 0.65496796 150 141 142
-0.06375265 -0.04226888 0.65560138 144 135 136
-0.06261950 -0.04226888 0.65560138 139 130 132
-0.03882580 -0.03597203 0.55793566 152 142 137
-0.03493965 -0.03594245 0.55747682 140 134 132
-0.03397610 -0.03594245 0.55747682 162 159 158
-0.03199637 -0.03588343 0.55656147 151 147 145
-0.03098352 -0.03582460 0.55564904 158 151 152
-0.03007243 -0.03588343 0.55656147 129 121 122
-0.02918233 -0.03597203 0.55793566 98 89 90
-0.02819478 -0.03594245 0.55747682 121 112 115
-0.02725364 -0.03597203 0.55793566 141 132 135
-0.02628929 -0.03597203 0.55793566 151 142 144
-0.02528333 -0.03591291 0.55701876 157 148 149
-0.02432057 -0.03591291 0.55701876 157 150 150
-0.02335780 -0.03591291 0.55701876 157 150 150
-0.02235830 -0.03585399 0.55610490 153 145 145
-0.02136207 -0.03579526 0.55519396 146 137 138
1.32078826 -0.08865318 1.37503421 124 126 129
1.30988014 -0.08776309 1.36122859 136 138 141
1.30437529 -0.08723756 1.35307753 141 144 147
1.30151820 -0.08689069 1.34769750 144 148 150
1.30644488 -0.08706377 1.35038221 144 148 150
1.30877900 -0.08706377 1.35038221 145 149 151
1.31111300 -0.08706377 1.35038221 147 151 152
1.31083584 -0.08689069 1.34769750 147 151 152
1.31578100 -0.08706377 1.35038221 147 149 149
1.32338750 -0.08741203 1.35578370 146 146 146
1.31520927 -0.08671828 1.34502351 145 145 145
1.31492496 -0.08654657 1.34236014 138 138 138
1.31464195 -0.08637553 1.33970726 132 132 132
1.31695747 -0.08637553 1.33970726 138 138 138
1.31407905 -0.08603547 1.33443272 143 144 144
1.31122327 -0.08569807 1.32919967 147 148 148
0.91737866 -0.05882371 0.91237128 147 148 151
0.92053258 -0.05882371 0.91237128 143 144 148
0.92087013 -0.05874465 0.91114497 144 145 148
0.93092322 -0.05898248 0.91483378 138 142 143
0.93124771 -0.05890299 0.91360086 135 139 140
0.93282676 -0.05890299 0.91360086 134 138 139
0.93189400 -0.05874465 0.91114497 134 138 139
0.93346888 -0.05874465 0.91114497 135 139 140
0.93630219 -0.05882371 0.91237128 138 143 144
0.93661857 -0.05874465 0.91114497 140 146 148
-0.17332639 -0.03157709 0.50326043 172 171 169
-0.17220086 -0.03153027 0.50251436 174 173 169
-0.17120539 -0.03150691 0.50214213 174 173 169
-0.17021140 -0.03148359 0.50177044 175 174 170
-0.07735050 -0.04113572 0.65560138 118 109 112
-0.07614370 -0.04109598 0.65496796 122 113 116
-0.07501164 -0.04109598 0.65496796 143 133 135
-0.07387958 -0.04109598 0.65496796 146 136 138
-0.07274753 -0.04109598 0.65496796 144 135 136
-0.07168473 -0.04113572 0.65560138 140 136 135
-0.07041538 -0.04105631 0.65433574 134 132 130
-0.06928441 -0.04105631 0.65433574 125 124 122
-0.06815344 -0.04105631 0.65433574 110 109 109
-0.06608286 -0.04117554 0.65623605 127 120 122
-0.06494862 -0.04117554 0.65623605 145 135 135
-0.03876199 -0.03495015 0.55701876 145 135 130
-0.03686676 -0.03497889 0.55747682 146 135 133
-0.03587370 -0.03495015 0.55701876 144 132 130
-0.03491094 -0.03495015 0.55701876 144 135 132
-0.03392031 -0.03492146 0.55656147 162 153 152
-0.03295834 -0.03492146 0.55656147 154 145 144
-0.03194391 -0.03486421 0.55564904 156 147 146
-0.03095814 -0.03483566 0.55519396 164 158 158
-0.03002313 -0.03486421 0.55564904 148 142 142
-0.02913437 -0.03495015 0.55701876 137 131 131
-0.02814848 -0.03492146 0.55656147 139 134 136
-0.02723123 -0.03497889 0.55747682 134 125 128
-0.02626767 -0.03497889 0.55747682 127 119 121
-0.02526257 -0.03492146 0.55656147 144 137 138
-0.02430060 -0.03492146 0.55656147 158 150 147
-0.02331948 -0.03489281 0.55610490 159 151 148
-0.02233997 -0.03486421 0.55564904 160 152 149
-0.02134459 -0.03480715 0.55473965 156 148 145
-0.02038576 -0.03480715 0.55473965 152 144 140
1.32347286 -0.08645190 1.37782896 132 135 140
1.31251574 -0.08558217 1.36396754 139 143 147
1.30698395 -0.08506867 1.35578370 141 145 148
1.30411088 -0.08472975 1.35038221 141 145 147
1.30905259 -0.08489887 1.35307753 142 146 148
1.31139135 -0.08489887 1.35307753 144 148 149
1.31111300 -0.08472975 1.35038221 145 149 150
1.31344700 -0.08472975 1.35038221 144 148 149
1.31578100 -0.08472975 1.35038221 144 146 146
1.32603955 -0.08523915 1.35850072 145 145 145
1.31782401 -0.08456130 1.34769750 146 146 146
0.91634768 -0.05747883 0.91607004 142 144 145
0.91669226 -0.05740126 0.91483378 147 148 150
0.91827351 -0.05740126 0.91483378 154 155 157
0.91985470 -0.05740126 0.91483378 151 152 155
0.92019409 -0.05732390 0.91360086 145 146 149
0.92177320 -0.05732390 0.91360086 142 143 147
0.93124771 -0.05732390 0.91360086 134 138 139
0.93282676 -0.05732390 0.91360086 134 138 139
-0.17332639 -0.03070724 0.50326043 172 172 170
-0.17220086 -0.03066172 0.50251436 172 172 170
-0.17120539 -0.03063900 0.50214213 176 175 173
-0.07621735 -0.04000257 0.65560138 121 112 113
-0.07508419 -0.04000257 0.65560138 135 126 127
-0.07387958 -0.03996392 0.65496796 137 128 130
-0.07281788 -0.04000257 0.65560138 138 129 130
-0.07168473 -0.04000257 0.65560138 135 126 128
-0.07041538 -0.03992534 0.65433574 129 121 123
-0.06935135 -0.03996392 0.65496796 125 118 120
-0.06821929 -0.03996392 0.65496796 109 100 103
-0.06501155 -0.04008009 0.65687191 137 124 126
-0.06400023 -0.04015792 0.65814739 142 128 130
-0.03869839 -0.03393163 0.55610490 148 138 133
-0.03776820 -0.03395949 0.55656147 146 136 131
-0.03677603 -0.03393163 0.55610490 146 136 132
-0.03581485 -0.03393163 0.55610490 146 136 133
-0.03485366 -0.03393163 0.55610490 144 132 130
-0.03386470 -0.03390381 0.55564904 151 142 139
-0.03290431 -0.03390381 0.55564904 153 145 141
-0.03191775 -0.03387605 0.55519396 155 146 144
-0.03093281 -0.03384833 0.55473965 159 151 153
-0.02999854 -0.03387605 0.55519396 150 143 144
-0.02906273 -0.03390381 0.55564904 149 143 145
-0.02812539 -0.03393163 0.55610490 146 144 144
-0.02718651 -0.03395949 0.55656147 137 132 134
-0.02622454 -0.03395949 0.55656147 121 114 116
-0.02522115 -0.03390381 0.55564904 140 134 136
-0.02426076 -0.03390381 0.55564904 173 165 161
-0.02330037 -0.03390381 0.55564904 163 157 152
-0.02232167 -0.03387605 0.55519396 151 146 141
-0.02134459 -0.03384833 0.55473965 154 146 143
-0.02038576 -0.03384833 0.55473965 152 143 141
1.32347286 -0.08407044 1.37782896 147 151 152
1.31516194 -0.08339245 1.36671746 147 151 152
1.30960321 -0.08289109 1.35850072 146 150 151
1.30671394 -0.08256019 1.35307753 145 149 150
1.30905259 -0.08256019 1.35307753 146 150 151
1.31139135 -0.08256019 1.35307753 146 150 151
1.31111300 -0.08239572 1.35038221 145 149 150
1.31344700 -0.08239572 1.35038221 143 147 148
1.31578100 -0.08239572 1.35038221 143 146 146
0.91634768 -0.05589548 0.91607004 146 151 152
0.91545683 -0.05574482 0.91360086 154 158 159
0.91827351 -0.05582005 0.91483378 156 160 161
0.91861504 -0.05574482 0.91360086 154 157 158
0.91895562 -0.05566979 0.91237128 149 150 152
0.92053258 -0.05566979 0.91237128 141 142 144
0.91963410 -0.05552034 0.90992194 133 134 136
-0.17807221 -0.02990400 0.50438380 183 183 185
-0.17220086 -0.02979316 0.50251436 168 168 167
-0.07742538 -0.03890704 0.65623605 118 109 112
-0.07621735 -0.03886941 0.65560138 124 113 115
-0.07508419 -0.03886941 0.65560138 131 121 124
-0.07395104 -0.03886941 0.65560138 134 124 128
-0.07281788 -0.03886941 0.65560138 140 131 133
-0.07168473 -0.03886941 0.65560138 133 124 127
-0.07041538 -0.03879438 0.65433574 136 127 130
-0.06935135 -0.03883186 0.65496796 134 125 128
-0.06815344 -0.03879438 0.65433574 126 117 120
-0.06501155 -0.03894474 0.65687191 136 127 127
-0.06400023 -0.03902036 0.65814739 143 134 133
-0.03866667 -0.03294342 0.55564904 153 141 136
-0.03773721 -0.03297045 0.55610490 151 139 134
-0.03674588 -0.03294342 0.55564904 150 138 134
-0.03578549 -0.03294342 0.55564904 150 138 135
-0.03482510 -0.03294342 0.55564904 148 135 135
-0.03383697 -0.03291644 0.55519396 146 134 133
-0.03287736 -0.03291644 0.55519396 140 128 127
-0.03189163 -0.03288950 0.55473965 151 142 143
-0.03090752 -0.03286261 0.55428606 159 150 153
-0.02999854 -0.03291644 0.55519396 154 145 148
-0.02903893 -0.03291644 0.55519396 153 144 147
-0.02810234 -0.03294342 0.55564904 152 150 150
-0.02718651 -0.03299752 0.55656147 158 156 156
-0.02620303 -0.03297045 0.55610490 145 142 142
-0.02522115 -0.03294342 0.55564904 151 142 143
-0.02426076 -0.03294342 0.55564904 167 158 156
-0.02330037 -0.03294342 0.55564904 162 154 151
-0.02232167 -0.03291644 0.55519396 150 142 138
-0.02134459 -0.03288950 0.55473965 150 142 138
-0.02038576 -0.03288950 0.55473965 150 141 140
1.32616830 -0.08185534 1.38063514 159 163 164
1.31781876 -0.08119389 1.36947846 155 159 160
1.30960321 -0.08054303 1.35850072 152 156 157
1.30671394 -0.08022150 1.35307753 149 153 154
1.31167066 -0.08038194 1.35578370 149 153 154
1.31401408 -0.08038194 1.35578370 147 150 151
1.31111300 -0.08006170 1.35038221 144 145 145
1.31344700 -0.08006170 1.35038221 140 141 141
1.31316519 -0.07990253 1.34769750 140 141 141
0.91634768 -0.05431212 0.91607004 150 155 155
0.91545683 -0.05416573 0.91360086 161 164 166
0.91703594 -0.05416573 0.91360086 161 165 166
0.91861504 -0.05416573 0.91360086 158 161 162
0.91895562 -0.05409283 0.91237128 152 154 155
0.92053258 -0.05409283 0.91237128 144 146 148
0.91840130 -0.05387530 0.90870219 140 142 144
-0.17981578 -0.02903221 0.50438380 179 180 180
-0.17881095 -0.02901063 0.50400883 188 188 188
-0.17780761 -0.02898907 0.50363433 185 185 185
-0.17667460 -0.02894606 0.50288713 172 172 172
-0.17593592 -0.02896755 0.50326043 167 167 168
-0.17480652 -0.02892460 0.50251436 170 169 169
-0.17207330 -0.02890318 0.50214213 169 169 168
-0.07848365 -0.03773626 0.65560138 114 107 110
-0.07742538 -0.03777279 0.65623605 114 105 108
-0.07621735 -0.03773626 0.65560138 116 107 108
-0.07168473 -0.03773626 0.65560138 126 118 121
-0.07041538 -0.03766341 0.65433574 134 128 130
-0.06928441 -0.03766341 0.65433574 134 127 129
-0.06815344 -0.03766341 0.65433574 133 127 127
-0.06494862 -0.03777279 0.65623605 126 117 116
-0.06393816 -0.03784606 0.65750909 125 115 115
-0.03869839 -0.03200926 0.55610490 152 140 135
-0.03776820 -0.03203554 0.55656147 151 139 134
-0.03677603 -0.03200926 0.55610490 151 139 135
-0.03581485 -0.03200926 0.55610490 152 140 137
-0.03482510 -0.03198303 0.55564904 164 156 152
-0.03386470 -0.03198303 0.55564904 158 147 145
-0.03290431 -0.03198303 0.55564904 145 133 132
-0.03191775 -0.03195683 0.55519396 153 140 140
-0.03093281 -0.03193068 0.55473965 171 161 162
-0.03002313 -0.03198303 0.55564904 162 153 154
-0.02906273 -0.03198303 0.55564904 158 149 151
-0.02812539 -0.03200926 0.55610490 154 149 149
-0.02720885 -0.03206187 0.55701876 148 143 144
-0.02622454 -0.03203554 0.55656147 143 137 139
-0.02524184 -0.03200926 0.55610490 144 135 136
-0.02428066 -0.03200926 0.55610490 157 148 147
-0.02333863 -0.03203554 0.55656147 152 143 142
-0.02235830 -0.03200926 0.55610490 150 142 138
-0.02137958 -0.03198303 0.55564904 149 141 137
-0.02043593 -0.03200926 0.55610490 145 136 135
1.33981204 -0.08028661 1.39483917 156 160 160
1.32855463 -0.07946903 1.38063514 150 154 154
1.32285833 -0.07898642 1.37225068 145 148 148
1.31723070 -0.07850964 1.36396754 142 143 144
1.32224870 -0.07866792 1.36671746 141 142 142
1.31929123 -0.07835199 1.36122859 139 140 140
1.31635749 -0.07803858 1.35578370 137 138 138
1.31606865 -0.07788282 1.35307753 135 136 136
1.31840730 -0.07788282 1.35307753 134 137 136
0.91511106 -0.05265762 0.91483378 145 150 150
0.91422474 -0.05251587 0.91237128 153 154 157
0.91580170 -0.05251587 0.91237128 156 157 159
0.91737866 -0.05251587 0.91237128 155 157 159
0.91772044 -0.05244529 0.91114497 152 156 157
0.91929531 -0.05244529 0.91114497 150 154 155
0.91594571 -0.05216483 0.90627253 146 150 151
-0.17981578 -0.02816042 0.50438380 186 186 186
-0.17867811 -0.02811858 0.50363433 186 186 186
-0.17780761 -0.02811858 0.50363433 183 183 183
-0.17667460 -0.02807686 0.50288713 173 174 174
-0.17593592 -0.02809771 0.50326043 164 164 164
-0.17480652 -0.02805605 0.50251436 161 160 160
-0.17319781 -0.02807686 0.50288713 171 170 170
-0.17207330 -0.02803527 0.50214213 164 163 162
-0.17120539 -0.02803527 0.50214213 168 167 165
-0.17021140 -0.02801452 0.50177044 169 168 166
-0.07848365 -0.03660310 0.65560138 113 107 111
-0.07742538 -0.03663854 0.65623605 119 109 112
-0.07614370 -0.03656774 0.65496796 124 110 111
-0.07034747 -0.03649721 0.65370476 136 125 129
-0.03873017 -0.03107357 0.55656147 153 138 135
-0.03776820 -0.03107357 0.55656147 154 143 139
-0.03680622 -0.03107357 0.55656147 157 147 144
-0.03584425 -0.03107357 0.55656147 156 148 144
-0.03485366 -0.03104808 0.55610490 156 148 142
-0.03389248 -0.03104808 0.55610490 145 135 131
-0.03295834 -0.03107357 0.55656147 140 128 127
-0.03197012 -0.03104808 0.55610490 155 142 142
-0.03098352 -0.03102263 0.55564904 161 150 152
-0.03004776 -0.03104808 0.55610490 162 151 153
-0.02908657 -0.03104808 0.55610490 160 151 152
-0.02814848 -0.03107357 0.55656147 156 150 150
-0.02723123 -0.03112468 0.55747682 149 143 142
-0.02624609 -0.03109911 0.55701876 146 139 139
-0.02526257 -0.03107357 0.55656147 146 136 136
-0.02432057 -0.03109911 0.55701876 144 133 133
-0.02335780 -0.03109911 0.55701876 136 124 124
-0.02237665 -0.03107357 0.55656147 150 138 138
-0.02143228 -0.03109911 0.55701876 154 142 141
-0.02046952 -0.03109911 0.55701876 152 140 140
0.15374224 -0.07554413 1.35307753 173 163 166
0.33904836 -0.02536703 0.45435110 156 157 157
1.34813380 -0.07835944 1.40350282 150 154 154
1.33126593 -0.07724002 1.38345277 145 149 149
1.32554162 -0.07677000 1.37503421 143 146 146
1.32255292 -0.07645982 1.36947846 144 145 145
1.32760191 -0.07661460 1.37225068 142 143 143
1.32728696 -0.07645982 1.36947846 138 140 140
1.32164407 -0.07599922 1.36122859 132 136 135
1.32134354 -0.07584692 1.35850072 132 136 135
0.91352987 -0.05107640 0.91483378 137 141 144
0.91387779 -0.05100756 0.91360086 138 141 144
0.91299593 -0.05087044 0.91114497 145 146 150
0.91580170 -0.05093891 0.91237128 150 152 156
0.91737866 -0.05093891 0.91237128 152 154 157
0.91772044 -0.05087044 0.91114497 148 152 154
0.91929531 -0.05087044 0.91114497 147 151 153
0.91594571 -0.05059841 0.90627253 142 147 148
-0.17994967 -0.02730896 0.50475937 187 188 189
-0.17780761 -0.02724809 0.50363433 181 183 183
-0.17680576 -0.02722786 0.50326043 170 172 172
-0.17593592 -0.02722786 0.50326043 153 154 154
-0.17207330 -0.02716735 0.50214213 168 167 166
-0.07840782 -0.03543568 0.65496796 119 109 113
-0.07735050 -0.03546995 0.65560138 122 109 111
-0.07614370 -0.03543568 0.65496796 126 111 114
-0.07493924 -0.03540147 0.65433574 125 109 112
-0.07027970 -0.03533326 0.65307498 135 122 128
-0.03879387 -0.03016112 0.55747682 153 141 140
-0.03783031 -0.03016112 0.55747682 157 147 146
-0.03686676 -0.03016112 0.55747682 168 159 158
-0.03491094 -0.03013634 0.55701876 141 137 134
-0.03394818 -0.03013634 0.55701876 121 110 111
-0.03298542 -0.03013634 0.55701876 129 107 114
-0.03199637 -0.03011160 0.55656147 142 119 125
-0.03100894 -0.03008690 0.55610490 157 139 143
-0.03007243 -0.03011160 0.55656147 162 147 150
-0.02911045 -0.03011160 0.55656147 161 149 151
-0.02814848 -0.03011160 0.55656147 165 155 154
-0.02723123 -0.03016112 0.55747682 159 149 148
-0.02626767 -0.03016112 0.55747682 156 145 145
-0.02528333 -0.03013634 0.55701876 153 140 140
-0.02432057 -0.03013634 0.55701876 143 129 129
-0.02335780 -0.03013634 0.55701876 145 130 131
-0.02237665 -0.03011160 0.55656147 152 136 139
-0.02143228 -0.03013634 0.55701876 155 139 142
-0.02046952 -0.03013634 0.55701876 154 139 141
0.15231562 -0.07364644 1.36122859 172 163 166
0.15374224 -0.07320544 1.35307753 176 169 171
0.15608092 -0.07320544 1.35307753 175 169 171
0.15810403 -0.07305962 1.35038221 175 170 171
0.33927575 -0.02459821 0.45465583 160 161 161
1.35373938 -0.07624933 1.40933859 148 150 151
1.33126593 -0.07484883 1.38345277 141 142 143
1.32554162 -0.07439336 1.37503421 133 134 135
1.32523012 -0.07424277 1.37225068 130 131 131
1.32760191 -0.07424277 1.37225068 130 130 130
1.32728696 -0.07409278 1.36947846 130 130 130
1.32430327 -0.07379463 1.36396754 129 129 129
0.91264778 -0.04936195 0.91237128 127 131 134
0.91177046 -0.04922943 0.90992194 133 137 140
0.91457081 -0.04929560 0.91114497 137 141 144
0.91737866 -0.04936195 0.91237128 139 144 146
0.91648865 -0.04922943 0.90992194 138 143 146
0.91806138 -0.04922943 0.90992194 140 145 148
0.91350317 -0.04890124 0.90385580 139 144 146
-0.18021806 -0.02647595 0.50551218 185 186 188
-0.17907724 -0.02643652 0.50475937 187 188 190
-0.17807221 -0.02641685 0.50438380 174 178 179
