ply
format ascii 1.0
element vertex 1014
property float x
property float y
property float z
property uchar red
property uchar green
property uchar blue
end_header
-0.72268635 0.59993440 1.94238353 84 86 87
-0.72009850 0.61014545 1.95357883 82 87 88
-0.73106533 0.61028636 1.96490383 88 93 94
-0.72508019 0.62067682 1.97636104 103 103 107
-0.73183405 0.62468656 1.98912885 98 101 102
-0.72326684 0.64182562 1.99968100 99 100 100
-0.70168811 0.17819856 1.41818380 144 140 132
-0.70230591 0.19061675 1.41266920 143 142 139
-0.70513009 0.18859845 1.42265284 135 133 132
-0.70124543 0.58157939 1.89355266 83 84 86
-0.70784044 0.59034693 1.91135255 79 82 83
-0.70988500 0.59981441 1.92584461 86 89 91
-0.70792472 0.61177379 1.94798118 85 86 89
-0.71408445 0.61707872 1.96490383 94 95 97
-0.70321548 0.62027526 1.95357883 75 76 78
-0.71275425 0.62568462 1.97061586 89 90 89
-0.71902478 0.63462520 1.98795259 93 94 94
-0.68122143 0.09840863 1.21922994 105 109 112
-0.68130371 0.09303897 1.22253042 88 91 96
-0.68690426 0.11346660 1.21629216 106 110 114
-0.69342152 0.11554706 1.22216165 110 112 117
-0.68534966 0.12393798 1.21813679 114 116 117
-0.69198552 0.13089692 1.22425454 129 130 131
-0.68189728 0.17804246 1.39771509 110 109 107
-0.68654196 0.17817524 1.40350878 110 109 105
-0.69045861 0.19609618 1.39660987 147 147 141
-0.68853158 0.18963131 1.40868436 124 124 120
-0.68835727 0.18989298 1.42215208 113 112 109
-0.69192842 0.20259342 1.39566255 155 156 148
-0.69121138 0.20312353 1.40694654 136 136 128
-0.68118532 0.20588170 1.42314728 114 113 106
-0.68769550 0.57436091 1.87005001 83 85 85
-0.69059541 0.58540201 1.88828790 80 82 83
-0.69066888 0.59969622 1.90955448 85 86 88
-0.69790125 0.59977472 1.92037344 79 81 83
-0.68406785 0.60629725 1.90955448 72 72 75
-0.67471145 0.09546407 1.21661028 103 107 109
-0.67596882 0.09400963 1.22230942 99 103 107
-0.67611108 0.10902367 1.21472311 100 104 107
-0.67189318 0.10280822 1.22142673 111 112 114
-0.67007405 0.13266106 1.19558018 117 122 120
-0.67900158 0.12759410 1.21225977 114 117 118
-0.67208478 0.17896668 1.40497077 121 121 119
-0.67261535 0.19054825 1.40815736 120 118 112
-0.67541850 0.20218348 1.41449523 119 116 105
-0.66088265 0.55804247 1.82720172 89 88 90
-0.67816663 0.57042581 1.85723794 83 84 84
-0.67544752 0.57356870 1.86747062 81 81 81
-0.66030711 0.58487386 1.85216355 74 75 77
-0.67346712 0.58539907 1.87091935 75 77 79
-0.67183477 0.63323534 1.93131578 93 101 98
-0.64864055 0.55833856 1.80773739 79 79 82
-0.64826751 0.56488197 1.81618956 75 75 78
-0.64966143 0.57009421 1.82783902 77 76 81
-0.64541292 0.58011878 1.83710527 93 92 98
-0.64529598 0.59481061 1.85318944 101 107 106
-0.65749741 0.58808744 1.86234021 84 84 90
-0.64644677 0.60817543 1.86894861 97 103 102
-0.65432388 0.61500517 1.88565552 95 103 101
-0.65634346 0.62336421 1.89620471 92 98 98
-0.63624531 0.55700737 1.79336464 67 67 74
-0.62830423 0.55373573 1.80829389 82 82 86
-0.63624531 0.56010705 1.79336464 71 71 78
-0.63098575 0.56538774 1.81180742 102 102 108
-0.63447535 0.57595742 1.82392720 115 115 118
-0.62278545 0.58332139 1.81740439 112 112 112
-0.62938804 0.58857896 1.83050510 116 116 116
-0.63615978 0.59605056 1.84711671 102 105 104
-0.62001061 0.60234582 1.83710527 123 119 116
-0.63239471 0.60437665 1.84915748 113 113 112
-0.61022531 -0.08789643 1.57429798 189 193 193
-0.60135859 -0.06007080 1.55837202 188 189 189
-0.60966343 -0.07096809 1.57284844 190 191 191
-0.61345446 -0.06921003 1.58262877 190 191 192
-0.60507286 -0.05501524 1.56799722 189 190 190
-0.61393148 -0.05831569 1.58385944 188 189 189
-0.60734240 0.55179714 1.79548163 122 125 124
-0.61395756 0.55342913 1.80530775 115 118 118
-0.60666981 0.56743308 1.79423411 129 131 133
-0.61628811 0.57190776 1.80450646 127 129 130
-0.60063809 0.58024019 1.79812157 133 133 131
-0.60944616 0.58936545 1.81367241 120 120 120
-0.61661299 0.59277268 1.82392720 124 121 120
-0.60403144 0.60384031 1.82721502 113 114 121
-0.59317684 -0.08183693 1.53716969 189 192 192
-0.59452498 -0.08734875 1.54066324 189 193 193
-0.58232647 -0.07008306 1.51857679 189 190 192
-0.58653537 -0.06524234 1.52816827 189 190 190
-0.59627151 -0.07023253 1.54518921 190 191 192
-0.58691732 -0.05265325 1.53271176 188 189 189
-0.59186208 -0.05406235 1.54066324 189 190 190
-0.58061683 0.53386009 1.73818421 124 125 122
-0.58210939 0.52770239 1.74265254 107 115 109
-0.59584355 0.53277147 1.77458596 96 97 97
-0.59897959 0.53865892 1.78392589 102 106 107
-0.58386299 0.55092147 1.74940898 137 138 137
-0.59517913 0.55056024 1.77260714 130 132 131
-0.59897959 0.54174227 1.78392589 110 114 114
-0.59226042 0.56601795 1.77304149 135 136 135
-0.59746583 0.57409485 1.78864113 133 133 132
-0.58977699 0.59325087 1.81040833 122 123 123
-0.59849069 0.59829342 1.82474583 121 121 125
-0.58422650 0.60298396 1.81147957 127 132 132
-0.58877254 0.60622511 1.82885673 123 126 127
-0.58028939 0.60882545 1.84713048 123 124 126
-0.57487708 -0.08613531 1.49644995 191 195 194
-0.57871243 -0.08280723 1.50643373 189 195 193
-0.56840136 -0.06736705 1.49735289 187 190 191
-0.57325698 -0.06742336 1.50576420 188 191 190
-0.56366628 -0.05492257 1.49167400 186 190 189
-0.57223046 -0.04235191 1.50308609 191 192 192
-0.56673803 -0.03691652 1.49316839 188 190 189
-0.56024301 0.52930117 1.69472957 149 151 144
-0.56809771 0.53088999 1.71401501 130 131 127
-0.57174844 0.53141397 1.72053766 131 132 130
-0.57583287 0.54776464 1.73463237 144 144 143
-0.57906252 0.56221932 1.75165856 142 142 140
-0.57877022 0.59909868 1.82720172 122 122 120
-0.57884562 0.60520619 1.80771160 126 132 130
-0.57649729 0.61064175 1.83003511 121 126 126
-0.57712060 0.61035043 1.84209740 123 125 127
-0.55114618 -0.04537076 1.47448054 190 191 190
-0.55955146 -0.04614146 1.48552537 189 191 190
-0.54336727 -0.02840037 1.45366963 188 189 189
-0.55029459 -0.03412708 1.47049503 187 189 189
-0.55883278 -0.03511607 1.48270419 187 189 189
-0.54372293 0.51354031 1.65340130 144 145 141
-0.55196577 0.51571401 1.66969109 133 134 131
-0.52673417 0.49594736 1.61020350 132 132 131
-0.53178376 0.50491315 1.62563992 148 149 144
-0.53900433 0.50900701 1.64337659 144 145 141
-0.51298177 0.48419866 1.57649267 143 142 144
-0.51417750 0.48805854 1.58016741 133 133 133
-0.49584350 0.47184378 1.53196096 134 134 135
-0.44041657 0.21293433 1.10540915 110 112 107
-0.42489417 0.20612011 1.09845312 108 109 111
-0.42990745 0.21231068 1.10294029 102 104 106
-0.42338273 0.22473531 1.09627161 102 104 105
-0.42932599 0.22175762 1.10379259 112 115 116
-0.40994096 0.21802221 1.09869015 108 110 111
-0.41215826 0.21093102 1.10328007 109 111 113
-0.40575886 0.23377293 1.07887355 78 78 85
-0.41105637 0.22627794 1.09034221 103 107 109
-0.41250890 0.22180386 1.10154743 96 102 105
-0.39724792 0.20367558 1.09620697 127 127 135
-0.36687630 0.29501763 1.33838600 84 84 88
-0.37346020 0.29648716 1.34682039 83 85 90
-0.36391238 0.30244216 1.33882642 126 127 126
-0.36302770 0.30519292 1.34413572 113 114 115
-0.34291173 0.15912574 0.73048745 105 106 103
-0.34070900 0.15918143 0.74452725 105 105 105
-0.34467348 0.16754154 0.73665880 115 115 112
-0.35173762 0.17021376 0.74464339 118 118 116
-0.34553567 0.27753469 1.30867147 78 81 85
-0.34735221 0.28978236 1.31353007 108 108 109
-0.35351913 0.29084043 1.32587060 107 107 108
-0.34111211 0.31296661 1.29616034 105 109 111
-0.34519980 0.30852940 1.31211080 87 88 93
-0.35524956 0.30794027 1.33071733 97 98 101
-0.32302975 -0.04086398 0.58045792 108 105 99
-0.32227351 -0.03261819 0.57946575 97 95 88
-0.32299310 -0.02804734 0.58101624 86 84 79
-0.33700508 0.15821268 0.74119140 105 103 105
-0.33764673 0.16686539 0.73764700 120 120 120
-0.33825905 0.16450585 0.74213499 123 124 124
-0.32542995 0.27936199 1.29616034 135 135 135
-0.33554426 0.28887135 1.30747613 115 117 116
-0.33928692 0.28536391 1.32400751 137 137 135
-0.32011729 0.30476324 1.25768435 103 107 107
-0.32579161 0.30879641 1.26937800 107 109 110
-0.33495621 0.31005593 1.29124843 103 105 109
-0.33742518 0.30269430 1.30292739 79 80 89
-0.33530461 0.32324168 1.29246718 98 97 99
-0.30851037 -0.18539312 0.54986537 140 105 86
-0.30889461 -0.17870155 0.54712844 134 98 83
-0.30489556 -0.16461306 0.73810525 43 46 50
-0.30534432 -0.16265178 0.74214655 44 46 50
-0.30527698 -0.15708108 0.73728665 43 43 47
-0.30922673 -0.15218996 0.74251577 42 44 46
-0.31835243 -0.03236149 0.57903206 101 100 94
-0.30431010 0.25892518 0.75281586 84 84 85
-0.31480962 0.25946429 0.76124880 100 100 102
-0.30715361 0.26591759 0.75184945 99 99 99
-0.31562788 0.26182771 0.76110631 96 97 100
-0.31618366 0.29983369 1.25072300 119 123 122
-0.31540585 0.30426204 1.24935958 99 101 103
-0.29014961 0.03362737 0.59706099 108 108 111
-0.28583670 0.04530929 0.59910596 105 106 108
-0.29114891 0.04446604 0.60076867 113 114 118
-0.28393280 0.25733393 0.73736413 111 113 109
-0.29233927 0.25752880 0.74652818 91 94 94
-0.28778976 0.26402336 0.73751556 99 99 99
-0.29377524 0.26401426 0.74298839 96 96 94
-0.26229894 -0.18833310 0.73833324 171 176 176
-0.26672823 -0.18667750 0.74245010 145 151 152
-0.26186613 -0.17213268 0.73721783 55 56 58
-0.26711572 -0.17363136 0.74467658 54 55 58
-0.26314774 -0.15693335 0.73338767 51 51 53
-0.26009551 -0.10233498 0.54668695 132 119 114
-0.27800594 0.04952052 0.59898609 128 122 115
-0.26459791 0.11449103 0.69221874 123 123 120
-0.27180527 0.11264579 0.70139003 127 126 123
-0.26221549 0.25045807 0.71167302 114 114 112
-0.27442012 0.25619784 0.72727885 113 114 116
-0.27605816 0.26194746 0.72995344 140 140 137
-0.25971359 -0.18054619 0.73924953 39 48 52
-0.25933950 -0.16459445 0.73151816 55 55 59
-0.25999713 -0.17818503 0.74005657 58 62 66
-0.25874596 -0.15568310 0.72754889 52 53 57
-0.24039728 -0.10313694 0.53854406 43 44 46
-0.25186700 -0.10206589 0.54475872 89 84 77
-0.24072748 -0.09565606 0.53886583 43 43 46
-0.24959163 -0.09737992 0.54418964 71 68 63
-0.25450508 0.11613080 0.67888034 139 139 136
-0.25358992 0.11036800 0.68422739 123 123 122
-0.25890380 0.24602170 0.70569769 91 92 93
-0.23731224 -0.10237969 0.53411307 43 44 47
-0.23741963 -0.09522637 0.53643827 43 43 45
-0.22858327 -0.04281227 0.51075160 180 184 183
-0.22967947 -0.03631549 0.51038549 175 175 174
-0.20191149 -0.02467185 0.57610810 188 190 190
-0.20676269 -0.02275200 0.58435459 186 189 188
-0.20455474 -0.01932970 0.57939476 188 189 189
-0.20557542 -0.01184328 0.58661548 187 189 189
-0.20767130 0.15689364 0.61458341 107 106 103
-0.20781968 0.16435990 0.61256305 115 115 113
-0.20274734 0.16801372 0.65207562 123 124 125
-0.20013884 0.18050872 0.61181575 96 100 101
-0.18071974 -0.17112830 0.51219639 188 192 191
-0.19799293 -0.02683080 0.57429516 187 190 190
-0.19825649 -0.01858651 0.57854812 185 187 188
-0.19977823 0.15907210 0.61071336 138 139 137
-0.19127961 0.15984392 0.64808077 126 126 126
-0.19308496 0.17286549 0.60884139 115 116 118
-0.19158549 0.16721611 0.64648889 106 107 105
-0.19154289 0.18177035 0.61139293 125 126 123
-0.17481441 -0.16678930 0.51005348 113 116 118
-0.16131054 -0.06727075 0.45865539 51 51 59
-0.16088641 -0.06864792 0.46021169 52 52 64
-0.17017074 0.09890319 0.68459111 105 106 112
-0.16791616 0.10581649 0.68571400 121 123 124
-0.16155344 0.15912478 0.68095630 111 112 118
-0.16383467 0.16297239 0.67854238 104 105 108
-0.16134036 0.16754649 0.68129902 112 113 116
-0.15472074 -0.06415988 0.45714152 143 145 150
-0.15194479 -0.05894103 0.45664668 184 187 189
-0.15701361 0.10628663 0.68664808 122 122 123
-0.14427668 0.15249647 0.49955225 114 118 118
-0.14733249 0.15478472 0.50120886 113 116 115
-0.15281248 0.15822912 0.67749556 125 126 125
-0.15323760 0.15728058 0.68061429 140 141 141
-0.15006506 0.17026990 0.49708974 116 119 119
-0.15205822 0.16552287 0.50155402 113 116 117
-0.15066808 0.16773646 0.67589359 120 120 121
-0.15625680 0.17069935 0.68095654 102 102 105
-0.13911019 0.17052983 0.67485517 156 158 157
-0.09176554 0.10729062 0.49052610 128 127 127
-0.06233220 -0.24912739 0.68444351 185 189 187
-0.06546483 -0.12565136 0.59110069 42 42 45
-0.06001559 -0.11883548 0.56679922 43 43 45
-0.06523609 -0.11577542 0.59299542 42 42 44
-0.06573794 -0.10838472 0.60121434 42 42 45
-0.06576665 -0.09088276 0.58903292 43 43 47
-0.06507691 -0.07708362 0.57692921 45 45 49
-0.06560766 -0.07922133 0.58163446 44 43 49
-0.06250824 -0.06726710 0.70628483 129 131 135
-0.06401973 0.01869811 0.71854129 111 111 116
-0.06686109 0.02936487 0.71756635 78 78 82
-0.06101318 0.04049859 0.71658754 200 200 200
-0.06485051 0.05875828 0.93657442 199 200 201
-0.06280609 0.05673480 0.94151886 199 200 200
-0.06383419 0.07324965 0.91731218 200 200 202
-0.06693426 0.07091084 0.93047996 200 200 201
-0.06100075 0.06577628 0.94086352 201 201 201
-0.06242638 0.08634248 0.93259436 201 202 204
-0.04588846 -0.34113470 0.65942788 192 196 192
-0.04982995 -0.34232756 0.66187891 191 195 192
-0.04470521 -0.33112457 0.65878701 195 198 196
-0.05144247 -0.33515773 0.66213922 175 177 175
-0.04297086 -0.26122042 0.52604135 192 195 191
-0.04719835 -0.24840636 0.52871309 116 118 119
-0.05319770 -0.24969998 0.68473554 55 57 59
-0.05318381 -0.23263087 0.53686652 58 59 61
-0.05440664 -0.22336981 0.54079993 57 57 59
-0.05399556 -0.23988427 0.68267053 50 50 50
-0.05444126 -0.21931723 0.54248769 58 57 57
-0.05558602 -0.12278804 0.55786523 46 46 51
-0.05495239 -0.12395725 0.56155514 47 47 54
-0.05491590 -0.11078756 0.55614188 46 46 51
-0.05536016 -0.11744050 0.56194403 47 47 51
-0.05323288 -0.08794683 0.55798807 54 54 59
-0.04963788 -0.08647391 0.56024116 133 133 142
-0.05344311 -0.07769431 0.55631538 49 49 54
-0.05483234 -0.06562410 0.70582183 46 46 54
-0.05396275 -0.05889137 0.70540378 49 44 54
-0.05724863 0.01851176 0.71821515 192 193 195
-0.05312987 0.01874961 0.72167462 194 194 195
-0.05617546 0.02883871 0.71713892 195 195 195
-0.05265151 0.02827699 0.72080782 195 196 197
-0.05537001 0.05850007 0.93502325 199 200 201
-0.05563692 0.07206087 0.93215746 201 201 202
-0.05892735 0.06126223 0.94021058 199 200 202
-0.05584260 0.08580493 0.93166213 201 203 204
-0.02516252 0.25068253 0.61085119 135 132 127
-0.02600773 0.24623317 0.62021214 141 138 133
-0.02036827 0.26087674 0.61181575 0 0 0
-0.00027241 -0.22554432 0.60328563 52 53 55
-0.00946350 0.13041292 0.47375921 166 164 157
-0.00770152 0.12548616 0.48109980 173 173 166
-0.00348176 0.17667581 0.59114522 145 142 137
-0.00774465 0.17780544 0.60054208 166 159 152
-0.00664153 0.18072333 0.59444228 167 161 153
-0.01844976 0.25107230 0.60921188 148 147 141
-0.01772625 0.26140607 0.61181713 0 0 0
0.01893899 -0.26673691 0.72904826 52 53 56
0.01978626 -0.25935635 0.72735178 53 49 52
0.00567629 -0.22866260 0.60317223 86 87 88
0.01918791 -0.18070183 0.75321317 192 192 192
0.01917844 -0.17345564 0.75284163 192 193 194
0.01807347 -0.17404416 0.76110631 192 193 195
0.01887176 -0.08058818 0.76684695 44 44 50
0.01848027 -0.07331027 0.76797576 43 42 46
0.01925243 0.03552112 0.75574589 197 198 198
0.01772410 0.02935437 0.76815563 197 197 198
0.00124070 0.12936145 0.47413781 148 144 138
0.01332345 0.17857644 0.47593832 152 151 146
0.01306931 0.17994401 0.48043361 156 156 152
0.00516636 0.17598008 0.57854919 141 137 137
0.00198344 0.17602186 0.58606039 140 137 136
0.01369328 0.18503715 0.47685076 147 147 144
0.00723081 0.18289230 0.48163980 136 134 131
0.01728504 0.43288159 1.89260707 157 156 155
0.01430768 0.43179255 1.90849380 158 156 154
0.00915535 0.43857841 1.93407482 162 159 157
0.01731487 0.44929009 1.89238383 164 163 161
0.01068725 0.44374884 1.90956205 146 146 148
0.00909049 0.44045264 1.92037344 151 150 147
0.00451711 0.44510833 1.95247545 152 149 147
0.03121207 -0.34767527 0.69125061 141 143 143
0.03315246 -0.33846149 0.69149826 125 127 129
0.03060877 -0.26686266 0.72635146 116 118 119
0.02573783 -0.25902546 0.72501802 55 55 59
0.02010992 -0.16521339 0.73924953 192 193 195
0.03020902 -0.17064706 0.74897031 131 132 134
0.03131160 -0.08146907 0.76832810 125 125 130
0.03023084 -0.07275537 0.76765678 116 116 119
0.02478086 0.01943725 0.76511496 195 195 197
0.02065039 0.03896598 0.75911742 199 200 200
0.02995620 0.02956149 0.76491167 132 133 136
0.03796241 0.04055051 0.76425236 47 47 51
0.02573543 0.17976429 0.46912929 121 121 120
0.03747545 0.17310468 0.48863431 150 148 141
0.03323681 0.17966195 0.50288740 149 149 143
0.02421380 0.18702257 0.47363886 143 141 134
0.03841593 0.18450867 0.49452327 145 141 134
0.03402362 0.18535931 0.50454878 143 142 137
0.02970796 0.19799072 0.72409463 138 136 138
0.03150956 0.20892406 0.72914144 147 146 143
0.03122576 0.22185345 0.72613279 164 162 159
0.03969616 0.41974241 1.80290389 157 157 154
0.03768240 0.41955182 1.85723794 136 134 134
0.03807591 0.43249989 1.72931588 138 139 139
0.03846844 0.43393883 1.74714386 139 136 139
0.03907266 0.43768740 1.77458596 138 137 138
0.03948613 0.43921933 1.79336464 139 136 136
0.03986587 0.43093039 1.81061168 167 162 152
0.03717328 0.42972212 1.83214545 166 164 158
0.03654392 0.42733826 1.85386419 154 152 149
0.03046711 0.43529880 1.87436330 167 164 162
0.02359035 0.43465765 1.88566041 161 158 158
0.03601653 0.45239753 1.71247656 160 156 151
0.03590009 0.45012985 1.72053766 169 166 160
0.02759847 0.45066467 1.82720172 126 122 121
0.03107469 0.44921209 1.84713048 154 149 141
0.02778004 0.44910715 1.87493809 162 159 153
0.02198332 0.45083228 1.88740393 165 163 158
0.02199351 0.46246493 1.88827813 150 141 141
0.04251931 -0.34664242 0.69106018 61 64 65
0.04282031 -0.33885548 0.69160970 62 62 64
0.04445268 -0.26282222 0.71963042 191 192 192
0.04249245 -0.26949013 0.72822375 191 193 192
0.04334690 -0.25929461 0.72192955 193 193 193
0.04340239 -0.16728260 0.74737147 45 44 49
0.04223053 -0.08172193 0.77285796 193 193 195
0.04237169 -0.07311742 0.77014770 194 194 195
0.04148179 0.03103874 0.76477705 44 44 50
0.04070955 0.17350721 0.48573290 146 143 137
0.04126176 0.18049141 0.48980623 135 130 122
0.05710350 0.21338714 0.67912710 153 145 140
0.05753503 0.21651307 0.68299887 156 151 144
0.05727812 0.23116085 0.67993164 164 161 145
0.05712728 0.22859373 0.68368589 158 157 147
0.05833965 0.27475842 0.71735596 143 142 132
0.05695137 0.27687622 0.72039515 148 146 136
0.05903615 0.28244475 0.71924926 127 121 120
0.05729747 0.28571916 0.72215512 121 117 116
0.05723782 0.39404275 1.55195796 158 158 152
0.05616176 0.39184657 1.56678363 159 159 157
0.05361203 0.39485691 1.58758612 157 157 154
0.05069831 0.39805925 1.60828662 153 154 152
0.05855376 0.40052110 1.55837202 155 152 144
0.05780664 0.40607069 1.57466376 152 149 145
0.05459434 0.40868775 1.59132261 155 153 148
0.05136430 0.41033288 1.60734174 160 159 154
0.04931488 0.41085958 1.63152048 160 159 157
0.04723966 0.41330745 1.65260973 154 154 153
0.04400438 0.41784412 1.67073026 150 151 151
0.04575881 0.41487986 1.68211377 142 142 142
0.04656767 0.41925481 1.71184814 141 138 139
0.04269877 0.41862902 1.79812157 157 157 154
0.04307994 0.41818340 1.81417346 136 137 138
0.04181023 0.41750388 1.82720172 128 127 127
0.05585286 0.41334649 1.87457825 131 128 127
0.05158276 0.41688113 1.89620471 134 128 127
0.05638831 0.42933463 1.59880149 121 121 119
0.05537521 0.42804456 1.60957356 128 126 124
0.05290565 0.42546996 1.63347435 153 149 144
0.05082420 0.43008768 1.64761647 148 145 141
0.04586764 0.43174966 1.66867223 159 156 151
0.04082209 0.43248777 1.68840599 158 157 154
0.04201992 0.42558353 1.70754701 143 144 144
0.04256009 0.42652311 1.72934407 140 138 138
0.05067825 0.42294973 1.75165856 135 131 128
0.04665683 0.42917611 1.77113506 140 136 132
0.04748913 0.42979945 1.79472736 150 146 138
0.04884733 0.42671605 1.80825725 162 160 150
0.05850696 0.42783681 1.83092555 161 161 151
0.05168368 0.42414533 1.84929538 144 144 145
0.05269130 0.42403904 1.86896489 133 134 135
0.05005997 0.42264501 1.88828399 123 119 120
0.05303344 0.44206348 1.63741994 117 117 115
0.05335571 0.45044626 1.64737022 114 115 118
0.05070956 0.44789060 1.66969788 123 120 119
0.04504226 0.44912341 1.68890536 139 134 131
0.04164673 0.45035085 1.70410392 156 152 147
0.05144595 0.46025616 1.67795014 115 116 119
0.04857950 0.46501419 1.71329272 122 120 121
0.06856476 0.17918544 0.49068430 115 112 110
0.07170078 0.18355834 0.49199259 135 134 129
0.07456296 0.21365108 0.67647312 147 146 145
0.06789393 0.21426112 0.68413557 118 116 117
0.07290074 0.22801093 0.67770761 135 134 132
0.06596728 0.22452239 0.68371855 133 131 126
0.06318303 0.25961247 0.69314092 122 122 112
0.06322181 0.26368821 0.69885874 122 120 116
0.06267522 0.27316885 0.70756118 123 122 116
0.06426933 0.28481187 0.71382896 105 104 106
0.06075136 0.28942771 0.72116154 94 93 97
0.06041399 0.39241496 1.53716969 156 150 145
0.06068953 0.39421085 1.54418075 153 149 145
0.06138840 0.40414369 1.56196272 146 143 140
0.07483430 0.40794084 1.85218358 147 143 138
0.06909251 0.41428775 1.86968763 149 147 145
0.06261579 0.41724226 1.88303292 130 129 129
0.06511535 0.43398029 1.83414221 138 137 132
0.07002349 0.42890438 1.85044247 160 159 155
0.07118256 0.42318355 1.86619986 165 166 162
0.07620342 0.44202241 1.85723794 115 112 114
0.07228701 0.44669567 1.87006426 117 114 118
0.08168605 0.20803094 0.65878701 160 160 153
0.08230880 0.21303016 0.67065774 154 154 147
0.08376037 0.22626905 0.65719420 170 163 156
0.08266808 0.22437992 0.67162999 135 135 133
0.09403659 0.39065632 1.76995254 143 142 140
0.09313064 0.39754392 1.79179577 145 141 141
0.09544896 0.40583645 1.79653593 134 128 131
0.08977431 0.41095182 1.81134638 139 135 134
0.08449503 0.41020205 1.82831396 147 143 141
0.08217394 0.41567223 1.84713048 154 151 150
0.08719040 0.42563449 1.81206430 146 143 139
0.08342577 0.42980493 1.82803812 140 137 136
0.08206168 0.42467131 1.84460706 168 168 162
0.08388188 0.44181044 1.84964013 121 121 122
0.08307882 0.44768557 1.86747062 126 126 126
0.08051647 0.45141628 1.88303292 127 127 127
0.09788562 0.67677540 1.97061586 173 166 153
0.09817100 0.68216449 1.97636104 170 163 151
0.09874678 0.68960148 1.98795259 170 163 152
0.11661211 -0.36139128 0.69741958 61 63 62
0.11760476 -0.35633523 0.69853850 60 61 60
0.11864788 -0.35322177 0.70054287 60 60 60
0.11936337 -0.28097344 0.74466473 189 191 191
0.11918102 -0.27396080 0.74827835 191 192 190
0.11805105 0.03075531 0.79443721 45 45 48
0.11818358 0.04236431 0.79518186 45 44 48
0.11077443 0.16648200 0.57791427 131 129 128
0.10819414 0.16382545 0.58178205 146 143 140
0.11207286 0.20405243 0.61907965 100 100 100
0.10998132 0.21251297 0.62817498 112 111 108
0.11141679 0.22463277 0.63687511 113 115 114
0.11639516 0.22873961 0.64459866 134 135 133
0.12842657 -0.36199226 0.69865209 131 133 133
0.13068505 -0.35450994 0.69888708 152 154 152
0.12899108 -0.35005537 0.70071455 136 137 135
0.12807936 -0.28255307 0.74241532 159 160 159
0.12942436 -0.27145022 0.74312638 141 143 144
0.12989047 -0.18469560 0.78292661 80 80 83
0.12981089 -0.17414307 0.78355150 78 78 81
0.13261132 -0.08325024 0.79873848 163 164 165
0.12989674 -0.08604448 0.80143192 187 188 189
0.13111634 -0.07154409 0.79802328 170 170 172
0.12313103 -0.07820745 0.80129096 194 194 196
0.12967501 0.01839626 0.79439065 85 85 89
0.13003538 0.02971968 0.79462393 85 85 90
0.12873937 0.04269878 0.79540622 72 72 76
0.13310672 0.18937979 0.53701703 113 113 112
0.12864155 0.19464516 0.55131423 124 123 116
0.12114419 0.22823455 0.64635040 143 142 140
0.14481666 -0.27399106 0.73924953 52 54 57
0.14254433 -0.27148297 0.74214272 53 54 57
0.14375366 -0.18455750 0.78437981 190 191 190
0.14762218 -0.17730271 0.77829196 192 192 192
0.14362427 -0.17514333 0.78398741 192 192 191
0.14472459 -0.08344855 0.79879925 49 47 54
0.14900380 -0.08410344 0.80122350 47 45 51
0.14621649 -0.07235481 0.79789417 45 44 52
0.14891761 -0.07083700 0.80043918 44 43 49
0.14128762 0.01883770 0.79564768 197 198 198
0.14422550 0.03054374 0.79517225 200 201 202
0.14722535 0.02244612 0.80176774 200 200 200
0.14275879 0.04239175 0.79720786 201 202 201
0.14605915 0.20871513 0.45619884 0 0 0
0.14849963 0.21570911 0.47148594 0 0 0
0.15154450 0.22443517 0.49055891 0 0 0
0.15436294 0.23251232 0.50821356 0 0 0
0.15634902 0.23820406 0.52065426 0 0 0
0.15745543 0.23836531 1.07716105 173 169 159
0.15712062 0.23319572 1.08965505 168 162 159
0.15791325 0.24268689 0.53045261 0 0 0
0.15953061 0.24732192 0.54058361 0 0 0
0.17624950 0.16951608 0.65799889 130 125 123
0.17044649 0.16775485 0.66802838 151 148 143
0.16404190 0.16819839 0.68543910 154 152 150
0.16992106 0.23681154 1.09447947 143 141 135
0.17770477 0.23363224 1.10466067 132 129 130
0.16121824 0.25215837 0.55115491 0 0 0
0.16296545 0.25716558 0.56209940 0 0 0
0.16703624 0.25542470 0.65708883 116 114 109
0.16704074 0.25828806 0.66211198 126 126 118
0.16808718 0.24417884 1.06900173 128 125 126
0.17322011 0.24273261 1.09152594 128 127 124
0.16479169 0.26239924 0.57353884 0 0 0
0.16733973 0.26970148 0.58949971 0 0 0
0.17003366 0.27742180 0.60637438 0 0 0
0.16848304 0.26521522 0.66698124 136 134 125
0.17215225 0.28349331 0.61964518 0 0 0
0.17437673 0.28986825 0.63357919 0 0 0
0.17669171 0.29650256 0.64808017 0 0 0
0.17829888 0.30110842 0.65814739 0 0 0
0.17995676 0.30585966 0.66853237 0 0 0
0.18057637 0.17423429 0.66232857 163 163 157
0.18513224 0.23673894 1.09276371 144 140 138
0.18079342 0.23375318 1.11587209 144 142 143
0.18180761 0.24249817 1.09869015 110 109 110
0.18166782 0.31076321 0.67925036 0 0 0
0.18343462 0.31582657 0.69031757 0 0 0
0.18620336 0.32376128 0.70766088 0 0 0
0.19010799 0.33495122 0.73211926 0 0 0
0.19320886 0.34383780 0.75154305 0 0 0
0.19649870 0.35326588 0.77215049 0 0 0
0.19995239 0.36316356 0.79378438 0 0 0
0.21128953 -0.34311487 0.66850313 145 147 147
0.21204191 -0.33400200 0.67238264 147 148 148
0.21582811 -0.32828467 0.68084230 182 183 183
0.21734243 -0.26751270 0.72692980 49 49 51
0.21825869 -0.25991413 0.72891593 48 48 48
0.21943176 -0.18375234 0.75237721 191 192 190
0.21055431 0.15926421 0.52098904 132 127 122
0.21254664 0.16747571 0.51703098 147 145 138
0.21002779 0.16255792 0.52095241 146 143 135
0.20237193 0.37009749 0.80894017 0 0 0
0.20488563 0.37730134 0.82468593 0 0 0
0.20885883 0.38868779 0.84957391 0 0 0
0.21305032 0.40069985 0.87582928 0 0 0
0.21600166 0.40915790 0.89431643 0 0 0
0.21908030 0.41798070 0.91360086 0 0 0
0.22291569 -0.34395775 0.66787860 57 59 62
0.22321511 -0.33323333 0.67156363 57 57 59
0.22814650 -0.32907818 0.68323687 54 54 57
0.23920141 -0.28110501 0.73325261 189 190 186
0.23658039 -0.26442122 0.71387112 188 189 187
0.22964327 -0.26806673 0.72621356 136 137 136
0.23045855 -0.25893749 0.72735620 151 152 151
0.22955779 -0.18230847 0.75784438 151 152 154
0.23030373 -0.17568720 0.75904999 149 149 151
0.23090475 -0.16856896 0.76287558 145 146 149
0.23350658 -0.08294017 0.79152300 47 47 50
0.23296327 -0.07203135 0.79170286 51 51 53
0.22525810 0.01666543 0.77866822 195 196 197
0.23262338 0.01716437 0.78212964 173 173 175
0.23115912 0.03376081 0.77830243 168 168 168
0.23075788 0.02623294 0.78113284 177 177 177
0.23242334 0.04130491 0.77847037 191 191 191
0.22229463 0.42719242 0.93373531 0 0 0
0.22565383 0.43681929 0.95477724 0 0 0
0.22916792 0.44689003 0.97678941 0 0 0
0.23284787 0.45743611 0.99984050 0 0 0
0.23670571 0.46849197 1.02400577 0 0 0
0.24138254 -0.28153676 0.73603892 188 189 186
0.24046934 -0.27266498 0.73325432 187 190 187
0.24298113 -0.18203169 0.75845763 52 52 58
0.25082493 -0.18055458 0.76082134 48 48 52
0.24514395 -0.17491175 0.75830366 49 48 51
0.24320850 -0.16782357 0.76247425 48 49 53
0.24714051 -0.08298470 0.79438553 187 187 187
0.25623496 -0.08551864 0.80489560 188 188 188
0.24751243 -0.07188403 0.79434846 188 189 188
0.25665375 -0.06818972 0.80523968 190 191 190
0.24529784 0.01773521 0.78494060 50 50 58
0.24250498 0.03392304 0.77889848 50 50 56
0.24799029 0.02781597 0.78253611 48 48 52
0.25052652 0.04027387 0.78459704 46 46 48
0.25277597 0.18771170 0.93018498 161 160 155
0.24886834 0.19221418 0.94737042 142 137 133
0.25452461 0.20926154 0.95190676 148 143 141
0.24754936 0.21169981 0.96291646 154 154 152
0.24075463 0.48009551 1.04936814 0 0 0
0.24500923 0.49228838 1.07601881 0 0 0
0.24948555 0.50511676 1.10405838 0 0 0
0.25420141 0.51863158 1.13359845 0 0 0
0.25917658 0.53288949 1.16476262 0 0 0
0.27246891 -0.26403503 0.59592326 107 101 86
0.27014472 -0.25823172 0.59613132 101 91 80
0.26737820 0.19625642 0.95016935 167 160 159
0.26682201 0.20785942 0.95505711 149 145 144
0.26926976 0.21217508 0.96266955 152 151 148
0.26443303 0.54795349 1.19768882 0 0 0
0.26999530 0.56389397 1.23253059 0 0 0
0.27589089 0.58078969 1.26946032 0 0 0
0.28335040 -0.26369323 0.59895430 92 95 94
0.28436944 -0.25907606 0.59884441 96 97 96
0.29873678 -0.25606602 0.69173288 189 189 187
0.29986656 -0.25031608 0.70030147 189 190 188
0.29470739 -0.10583610 0.67532932 97 87 77
0.29480853 -0.09565178 0.67768183 90 79 71
0.29638775 -0.08660439 0.68227528 100 91 84
0.29640302 -0.07556326 0.68451765 161 156 149
0.29405272 0.27164214 0.71483946 150 150 142
0.29160834 0.27480887 0.72205288 144 143 138
0.28855043 0.28859011 0.71376862 140 139 129
0.29026525 0.28676188 0.72577677 142 142 136
0.28215066 0.59872913 1.30867147 0 0 0
0.28880948 0.61781216 1.35038221 0 0 0
0.29590675 0.63815165 1.39483917 0 0 0
0.30666029 -0.26822439 0.63651872 91 95 94
0.31084177 -0.26569895 0.65053794 91 93 94
0.31293246 -0.26785251 0.66140172 92 93 93
0.31367534 -0.24996879 0.65500045 91 94 96
0.31547505 -0.25079275 0.66715703 92 95 96
0.30865185 -0.24942593 0.69303424 164 160 154
0.30101549 -0.24694751 0.70115471 189 190 187
0.31322093 -0.23062956 0.65488498 89 93 95
0.31419702 -0.23359992 0.66206031 91 93 95
0.30104281 -0.23904030 0.69742107 189 189 187
0.31155050 -0.21953708 0.65370476 91 93 94
0.31672242 -0.16830203 0.74332597 44 44 46
0.31720180 -0.15838504 0.74439108 43 43 43
0.30108388 -0.10665722 0.67586463 135 117 100
0.30575668 -0.09434778 0.67976132 93 83 73
0.30656046 -0.08633737 0.68297476 87 77 69
0.30998877 -0.07189797 0.68746011 79 71 68
0.31387971 -0.05868166 0.69144534 56 53 53
0.30348724 0.65987593 1.44232309 0 0 0
0.31160203 0.68313146 1.49315381 0 0 0
0.33783852 -0.18074812 0.74535125 105 95 90
0.33021187 -0.16922985 0.74371783 100 93 85
0.32939713 -0.15805485 0.74389433 106 95 86
0.33121698 -0.07463021 0.77901828 180 179 177
0.33171118 -0.06685010 0.78101241 181 181 179
0.32000110 -0.05936916 0.69670284 52 51 53
0.32706782 -0.05993970 0.78278506 181 182 181
0.33462859 0.01696424 0.79758792 42 41 45
0.33025464 0.01894891 0.80034459 42 41 43
0.33538155 0.03078620 0.79763236 39 37 38
0.33126341 0.02806903 0.80106174 37 36 37
0.32834078 0.17830144 0.45143979 131 128 125
0.32760281 0.18023298 0.45102714 129 130 121
0.32030967 0.70808607 1.54769826 0 0 0
0.32967764 0.73493290 1.60637879 0 0 0
0.33978394 0.76389581 1.66968429 0 0 0
0.34037843 -0.07447848 0.77918601 132 124 107
0.34078219 -0.06457599 0.78165801 134 125 118
0.34195063 -0.05993970 0.78278506 139 117 119
0.34549196 0.01755730 0.79732594 121 109 92
0.35415782 0.01794902 0.80200236 131 115 100
0.34642366 0.02942939 0.79650445 104 92 83
0.35188967 0.02623288 0.80213641 114 103 88
0.35071948 0.79523510 1.73818421 0 0 0
0.37374792 0.36311637 1.11039466 148 148 145
0.37800799 0.37011619 1.13031811 142 142 138
0.37750846 0.36951107 1.14508760 158 157 153
0.37221463 0.38701751 1.17417832 146 144 140
0.37378286 0.39247360 1.19257170 153 152 145
0.37075998 0.39250310 1.20987288 157 156 149
0.37167802 0.39415333 1.22363679 158 158 150
0.37347495 0.40846065 1.19552541 155 155 147
0.37141978 0.40700170 1.21361732 159 158 150
0.37043899 0.40515830 1.22554302 156 155 150
0.36259067 0.82925588 1.81254506 0 0 0
0.37552300 0.86631757 1.89355266 0 0 0
0.38092107 0.37692928 1.13170588 133 133 122
0.38206079 0.37759563 1.15407705 139 138 135
0.38249545 0.37796527 1.16880829 147 147 143
0.38639005 0.38531588 1.15387934 130 130 119
0.38739118 0.38767013 1.16856695 130 130 123
0.38609669 0.39195234 1.18913778 130 129 125
0.39426465 0.40605594 1.19568248 118 115 108
0.39020281 0.41338483 1.20711750 121 116 111
0.39441864 0.42254167 1.21548867 127 119 115
0.39706001 0.42743000 1.22363627 130 123 115
0.38966537 0.90684706 1.98213995 0 0 0
0.40706831 0.13236907 0.48957682 141 141 134
0.40657634 0.41041574 1.19275497 136 134 125
0.40651755 0.41851461 1.20407991 126 123 119
0.40832074 0.42239372 1.19874994 159 159 148
0.40905049 0.42570060 1.20966084 143 142 134
0.40623220 0.43384978 1.22750302 122 118 112
0.41276145 0.44414387 1.23422870 129 125 124
0.41674592 0.45061317 1.25008186 120 118 115
0.41909686 0.45448237 1.26296380 118 117 116
0.43927430 0.19933836 0.45162775 119 121 114
0.43800769 0.20093580 0.45112647 111 111 111
0.42151403 0.42458200 1.21487552 161 162 153
0.42171647 0.44942485 1.23703301 139 137 133
0.42356220 0.45584963 1.24843748 129 128 125
0.42008460 0.45963824 1.27423275 110 103 104
0.42504641 0.46249641 1.25635467 124 126 124
0.43035620 0.47054635 1.26755614 127 128 123
0.42582737 0.47232133 1.29016785 112 110 108
0.42752561 0.47700498 1.30363810 111 110 107
0.43381526 0.48247798 1.27389511 136 130 125
0.44294190 0.47374468 1.27663424 139 140 136
0.44796024 0.47673486 1.28469813 141 142 138
0.44073471 0.48036286 1.27663243 121 119 120
0.44585945 0.48607288 1.28663608 118 112 114
0.49741995 0.04777157 0.54745486 146 145 134
0.49809171 0.09124962 0.67108130 117 118 117
0.50784765 0.05025747 0.54925299 132 129 120
0.50305732 0.09388704 0.67056175 114 114 112
0.50270267 0.10063716 0.67418734 131 131 127
0.51637155 0.24823766 0.61860483 128 126 112
0.51768635 0.24709477 0.62371031 126 123 114
0.53051130 -0.06006836 0.55782114 52 51 48
0.52973687 -0.05616176 0.55796787 49 49 46
0.52938396 -0.05184042 0.56187488 50 50 48
0.53939998 0.21167856 0.56256586 157 156 139
0.52961757 0.23821668 0.61128723 122 121 108
0.53042309 0.23799806 0.63348050 147 147 127
0.52871626 0.24842399 0.61673057 111 112 101
0.52919557 0.24513038 0.62732432 106 104 98
0.53901893 0.55836689 1.40641463 159 156 150
0.53736399 0.56621611 1.39580174 151 147 141
0.53802693 0.56771433 1.43621159 159 160 151
0.53296411 0.61148545 1.49151301 137 132 123
0.53623358 0.61406664 1.50308609 137 133 124
0.53688246 0.62289083 1.50978136 130 125 118
0.54462358 0.21682880 0.56945628 144 143 132
0.54892200 0.22757423 0.57623459 135 135 126
0.54984198 0.23288956 0.58078489 143 142 133
0.54276608 0.23765924 0.63053210 132 130 116
0.54232629 0.24097630 0.63001178 115 115 100
0.54289975 0.56965524 1.41230321 154 152 145
0.54811790 0.57520998 1.43015579 155 153 145
0.54074878 0.57381564 1.44849673 158 159 149
0.54850254 0.58303456 1.43115942 152 149 144
0.54911300 0.58871902 1.45609392 151 148 142
0.55212313 0.59404325 1.46708477 151 148 142
0.54859790 0.59525950 1.48907336 155 156 147
0.55129664 0.59547544 1.50727628 152 152 144
0.55143979 0.60353534 1.47315900 153 151 148
0.54830011 0.60893871 1.49438928 150 147 143
0.54703939 0.61014685 1.50705265 146 143 137
0.55750632 0.60479289 1.52335250 150 151 144
0.54907111 0.62287686 1.50905412 144 140 135
0.56266814 0.59429896 1.53022993 154 155 147
0.56909132 0.59573305 1.54769826 151 153 144
0.56044559 0.60268577 1.53138395 151 151 143
0.56771237 0.60245866 1.55123997 154 155 148
0.57229674 0.60327092 1.56376642 152 154 145
0.59892690 0.29318434 0.66994471 100 99 96
0.60470175 0.29101569 0.67631166 130 128 119
0.61215378 0.28830576 0.68465703 149 150 139
0.62953435 0.09886272 0.69756516 96 98 97
0.62840300 0.10965303 0.69497851 127 129 122
0.63138235 0.11321794 0.70284295 162 163 150
0.62378269 0.28865773 0.68624120 141 142 130
0.65697032 0.31896673 0.85754853 139 142 128
0.65380581 0.32994330 0.85435811 117 118 108
0.65675192 0.32958567 0.86478599 112 111 101
0.67833719 -0.22537677 0.95666674 76 83 83
0.67648247 -0.22567230 0.97486379 75 82 82
0.67441821 -0.22942224 0.98103017 76 84 83
0.67925829 -0.21383397 0.95680293 76 82 83
0.67724600 -0.21637295 0.97367874 77 81 83
0.67807645 -0.21818432 0.98387784 79 81 84
0.66067538 0.31748547 0.85754853 148 150 136
0.66212451 0.31964120 0.86136192 146 148 134
0.66076233 0.32726499 0.85793675 107 107 105
0.66309838 0.32354280 0.86224198 136 138 123
0.67838451 0.38937825 0.92820207 122 121 108
0.68288091 -0.22390207 0.95641518 77 82 83
0.68304918 -0.22480859 0.96971955 76 83 83
0.68091285 -0.21631432 0.95679912 78 83 85
0.68218093 -0.21509971 0.96781964 76 82 83
0.68094212 0.37999725 0.92104870 115 114 107
0.68637741 0.39617454 0.91979897 117 112 109
0.68612510 0.39261784 0.93013959 112 111 100
0.68544734 0.40119445 0.91855264 117 119 107
0.69081243 0.40463660 0.93371131 121 118 104
0.69338125 0.41310858 0.94531441 122 121 111
0.69485749 0.42308193 0.95505641 111 112 111
0.70413748 0.42860172 0.96980762 114 115 114
0.77856065 0.17688148 0.66746368 139 140 134
0.77778441 0.41991803 1.21052110 138 135 128
0.77742019 0.42478157 1.21595893 154 155 140
0.77751399 0.42752099 1.22363325 160 162 145
0.78206159 0.17669252 0.67079136 138 139 133
0.78411001 0.18913853 0.67240635 141 142 132
0.79262038 0.41260699 1.21065676 146 146 136
0.78638958 0.42408332 1.21427430 121 118 113
0.78444517 0.43200786 1.22252911 146 146 128
0.80499380 0.41005751 1.21514717 148 145 135
0.80692911 0.40848824 1.22405751 142 140 132
0.80937052 0.42153413 1.21922994 140 141 133
0.81263008 0.42599076 1.22733633 135 135 129
0.83268864 0.41484732 1.23425464 122 121 114
0.83758078 0.41370109 1.24338763 128 127 119
0.83422682 0.42499141 1.23437567 134 136 122
0.83453056 0.42908172 1.24584682 146 147 132
0.83852100 0.44062608 1.25768435 130 129 126
0.84032106 0.41979486 1.23477566 111 111 109
0.84682845 0.41392887 1.25363063 125 123 114
0.84947894 0.41548754 1.26500689 125 124 117
0.84185445 0.43125141 1.23702896 125 126 119
0.84525050 0.43278324 1.25122179 135 135 122
0.85968018 0.43926725 1.26002204 120 121 113
0.84721619 0.44062608 1.25768435 133 130 122
0.85321953 0.44589113 1.26335414 143 139 129
0.87186182 0.41740057 1.27303743 136 130 114
0.86454129 0.41739026 1.29002321 137 135 127
0.86243284 0.43627846 1.25768435 122 123 113
0.87068790 0.43139000 1.26710167 126 124 112
0.87762845 0.42569906 1.28145909 140 134 118
0.87167529 0.44900436 1.26920044 131 132 119
0.87430614 0.45781508 1.28145909 137 138 123
0.87652099 0.46002999 1.28145909 140 141 129
0.89136366 0.11528900 1.27005027 122 119 109
0.89256774 0.11126681 1.28579122 130 129 118
0.89772201 0.12953158 1.25535524 94 94 87
0.89348734 0.12399642 1.27138424 109 107 102
0.89538346 0.12505807 1.28878644 107 102 95
0.89837343 0.14116473 1.26236844 76 76 74
0.88517706 0.43890011 1.27584755 134 134 121
0.88863034 0.42931338 1.29100236 137 132 114
0.88650167 0.45152511 1.27571712 141 142 128
0.89412853 0.45144015 1.28493677 138 139 128
0.88966987 0.46541728 1.29025376 159 160 147
0.90467050 0.11515280 1.26685130 100 99 92
0.91417426 0.11007607 1.28145909 96 99 76
0.90241581 0.13044865 1.26624120 95 96 89
0.90269053 0.12629843 1.28878641 104 103 100
0.90321562 0.12875680 1.30238706 91 90 82
0.91192260 0.16976260 0.78741388 140 140 130
0.91710191 0.36845290 1.02634607 136 133 122
0.90162895 0.43466539 1.30280407 132 127 108
0.90508183 0.45215252 1.29699115 144 144 133
0.91096989 0.45509962 1.30113602 146 147 136
0.90156794 0.46488127 1.28876781 165 167 144
0.90183228 0.47137581 1.30364299 161 162 148
0.92129230 0.11650054 1.27904117 101 101 98
0.92315459 0.16857415 0.78783519 128 126 118
0.92798218 0.35696593 1.02906739 155 155 144
0.93363506 0.35402054 1.04130852 149 150 141
0.92455113 0.36066288 1.01938617 148 148 139
0.92483650 0.36848570 1.02929399 145 144 133
0.93255006 0.37000606 1.04325949 143 140 132
0.93057795 0.38501305 1.03298651 159 160 144
0.93615352 0.38873602 1.04512693 156 157 143
0.94014454 0.36696550 1.05262709 144 143 137
0.95047575 0.36915872 1.06419444 154 149 145
0.94032401 0.39121868 1.05181110 152 153 140
0.95951158 0.39644509 1.58881096 134 129 123
0.94234574 0.40250854 1.04759911 150 149 136
0.95769745 0.42304176 1.56196272 60 51 50
0.97262102 0.37305193 1.08898920 154 153 143
0.96710327 0.39591036 1.58850473 128 120 117
0.96931118 0.40852027 1.55126515 136 135 129
0.97389579 0.40414369 1.56196272 149 149 139
0.97224537 0.41061668 1.59677111 124 121 114
0.97036650 0.41204643 1.60321409 139 138 127
0.97523761 0.42462711 1.57283485 100 101 97
0.97387057 0.42518358 1.59343107 109 107 101
0.96954386 0.42375453 1.60258114 126 124 111
0.98128539 0.37352896 1.09869015 146 146 139
0.98826981 0.37377217 1.10743196 146 146 135
0.98770253 0.39707255 1.59356066 139 135 130
0.99222655 0.39680597 1.60321409 144 141 133
0.98393507 0.40794493 1.57081972 148 147 139
0.98958809 0.40968707 1.59191831 144 142 135
0.98916378 0.40981348 1.60532122 139 135 129
0.99874794 0.43633959 1.13359845 132 132 127
0.98023045 0.42152736 1.57649267 115 116 113
0.98533135 0.42496100 1.59505721 105 104 101
0.98920679 0.42857548 1.60543389 103 102 99
0.98797184 0.45746092 1.11191638 132 130 119
0.99587925 0.45583724 1.12374425 135 134 122
0.99661784 0.46604472 1.12842387 132 132 121
1.00561410 0.37639543 1.12866282 146 146 135
1.01902425 0.37481552 1.14315653 159 157 147
1.00888705 0.38512869 1.13398325 145 145 137
1.01533616 0.38404715 1.14123201 135 135 128
1.00515521 0.39985839 1.59880149 135 135 126
1.01098912 0.39826953 1.61250567 140 139 130
1.00456232 0.40376663 1.59786102 147 147 139
1.01221810 0.40523439 1.60782099 151 151 143
1.01438938 0.45210522 1.15551049 143 145 131
1.01867795 0.44679980 1.16077375 133 133 126
1.00171320 0.46620276 1.13474534 131 131 122
1.01501948 0.46726388 1.15401769 141 142 130
1.01867795 0.47388490 1.16077375 132 133 125
1.02512614 0.37778793 1.15223591 158 157 147
1.03682226 0.37614650 1.16879120 151 153 144
1.02603667 0.38885490 1.15550419 146 146 137
1.03232721 0.38436822 1.16410124 154 155 144
1.03841794 0.38509536 1.19980860 132 125 120
1.03848151 0.38901077 1.20550418 117 116 111
1.02713239 0.40379291 1.63153461 145 143 137
1.02293453 0.43902332 1.16677603 147 148 140
1.02094233 0.44403315 1.15878952 138 138 134
1.02410676 0.44854867 1.16891025 137 138 130
1.03286248 0.45204721 1.18237031 131 131 126
1.02409846 0.47191075 1.16879433 139 141 129
1.03450942 0.46577287 1.18347533 138 139 127
1.02427252 0.48247986 1.16945191 119 121 113
1.03739126 0.48860963 1.19054646 114 115 111
1.05192041 0.37966174 1.18928397 139 139 128
1.04118955 0.38520902 1.17485583 156 156 146
1.05267156 0.38856285 1.19014788 147 147 140
1.04993857 0.39118435 1.21082478 115 111 107
1.05360957 0.39766372 1.22142673 103 101 96
1.04118955 0.41160738 1.17485583 152 152 143
1.05579526 0.40849324 1.19180391 144 144 137
1.05671382 0.40192693 1.22584414 104 103 97
1.04141456 0.48727908 1.19611013 124 123 121
1.04543558 0.49271633 1.20654343 110 111 109
1.06548318 0.39456635 1.21352454 140 138 132
1.07082246 0.39743044 1.22179419 132 131 126
1.06925423 0.40599064 1.21364025 145 145 137
1.07237038 0.40789383 1.22929585 122 122 116
1.07858944 0.41250533 1.24498147 97 96 94
1.08002043 0.39874879 1.22584414 153 154 146
1.08455329 0.41417606 1.23133001 138 139 131
1.08528044 0.41780825 1.24798272 113 114 104
1.08810341 0.42349944 1.23502870 141 142 134
1.09305578 0.42695684 1.24916751 128 130 123
1.09624676 0.42891061 1.26158728 119 120 114
1.10334833 0.43490090 1.26921452 124 125 118
1.11329436 0.43620785 1.28632224 114 115 109
1.10528314 0.44036347 1.26946032 135 136 129
1.11130023 0.44231081 1.28145909 128 129 122
1.13779843 0.40814857 1.59880149 154 154 145
1.13747573 0.43993288 1.61402822 136 127 125
1.13996339 0.43008029 1.62954772 169 169 158
1.14608860 0.41920218 1.59880149 145 146 133
1.14979408 0.41570454 1.61097212 149 150 140
1.15261316 0.41649880 1.63151103 165 165 156
1.14885199 0.42196557 1.59880149 147 147 134
1.15143341 0.42621489 1.61356495 154 153 138
1.15389223 0.42897636 1.63199466 165 165 148
1.15419882 0.43181293 1.64448754 163 164 150
1.15557051 0.45356651 1.61788034 143 144 139
1.15780119 0.45166265 1.62957283 140 137 134
1.15959191 0.44455236 1.64138460 151 143 137
1.15941370 0.44390890 1.66558194 148 148 136
1.16808479 0.41632718 1.65098886 157 157 148
1.17430125 0.41304925 1.66696286 162 162 152
1.16340347 0.42927513 1.63545030 162 162 146
1.16844495 0.43379685 1.64637911 162 163 145
1.16812081 0.45187854 1.63505638 147 149 142
1.17251579 0.44836279 1.64966817 148 148 136
1.18812120 0.44603533 1.65743732 147 149 138
1.19103324 0.45574384 1.66149962 150 152 144
1.18813384 0.48258446 1.41227877 156 156 147
1.19560289 0.48070374 1.42115688 157 156 147
1.21859527 0.45990494 1.44848680 139 134 132
1.21653674 0.47531909 1.44663637 147 145 133
1.20702982 0.48455957 1.43621796 156 156 146
1.21481305 0.48835813 1.44746615 155 155 145
1.22444504 0.45515682 1.45432414 134 129 126
1.23251287 0.45662428 1.47369179 142 139 131
1.23496914 0.45715526 1.48011315 149 145 136
1.22586141 0.46358497 1.45532923 143 141 135
1.23563547 0.46780331 1.47176547 144 139 131
1.23552026 0.46447687 1.48625142 147 144 136
1.22131097 0.48702216 1.45470357 157 157 146
1.23285294 0.48789689 1.46996919 155 155 144
1.23348910 0.50283536 1.47528321 156 156 147
1.23752737 0.50064564 1.48011315 159 159 148
1.24295521 0.45916033 1.48660493 148 143 134
1.24495207 0.47015824 1.48934601 145 140 132
1.25018462 0.47613987 1.50548477 149 146 138
1.24420820 0.48792737 1.48554931 158 157 145
1.25562108 0.48676015 1.50643003 157 155 141
1.24625788 0.50615793 1.49261173 158 158 148
1.26374558 0.48762838 1.51461085 152 150 140
1.26978211 0.49048614 1.52817554 153 151 140
1.26515704 0.50266656 1.51315898 157 157 147
1.27304490 0.51379206 1.52679900 160 160 148
1.28899462 0.51426924 1.54807993 160 161 149
1.29815435 0.51872742 1.56557012 161 162 148
1.28895986 0.52068195 1.55124801 159 160 147
1.30387151 0.52264041 1.56919408 165 166 151
1.31725776 0.52280688 1.58201343 158 159 150
1.32223594 0.52725106 1.59129536 161 161 150
