ply
format ascii 1.0
element vertex 1044
property float x
property float y
property float z
property uchar red
property uchar green
property uchar blue
end_header
0.89566523 -0.28575155 0.93245095 80 76 80
0.89727694 -0.28575155 0.93245095 83 73 81
0.89888859 -0.28575155 0.93245095 84 73 82
0.89926332 -0.28535903 0.93117011 87 77 86
0.90087277 -0.28535903 0.93117011 110 101 108
0.90124422 -0.28496760 0.92989278 135 127 133
0.90285146 -0.28496760 0.92989278 159 153 158
-0.86677343 -0.60577625 1.98795259 190 190 190
0.89537662 -0.28610760 0.93890840 135 138 139
0.89575875 -0.28571188 0.93760973 115 118 119
0.89367115 -0.28453127 0.93373531 114 112 116
0.89528507 -0.28453127 0.93373531 116 113 117
0.89689893 -0.28453127 0.93373531 120 117 121
0.89851284 -0.28453127 0.93373531 117 112 119
0.90136826 -0.28492370 0.93502325 119 114 121
0.90174061 -0.28453127 0.93373531 126 123 128
0.90211189 -0.28413987 0.93245095 141 140 143
0.90248221 -0.28374958 0.93117011 160 160 162
0.90409166 -0.28374958 0.93117011 173 175 176
0.89699942 -0.28448477 0.93890840 144 148 149
0.89490384 -0.28330761 0.93502325 150 151 153
0.89824355 -0.28325427 0.94021058 150 151 151
0.89824355 -0.28162920 0.94021058 163 166 166
0.89613986 -0.28046224 0.93631470 164 165 165
0.89911252 -0.28078300 0.94282591 166 170 169
0.89824355 -0.28000411 0.94021058 165 169 168
0.89613986 -0.27884388 0.93631470 167 168 168
0.89651996 -0.27845928 0.93502325 170 171 171
0.90062052 -0.27922955 0.93760973 173 174 174
0.89537662 -0.27799347 0.93890840 166 167 167
0.89575875 -0.27760896 0.93760973 169 170 170
0.89490384 -0.27684316 0.93502325 171 172 172
0.89651996 -0.27684316 0.93502325 172 172 172
0.89937657 -0.27722552 0.93631470 172 173 173
0.89975214 -0.27684316 0.93502325 171 172 172
0.90386170 -0.27760896 0.93760973 169 170 170
0.90460050 -0.27684316 0.93502325 172 173 173
0.90496838 -0.27646184 0.93373531 173 174 174
0.90533525 -0.27608156 0.93245095 172 173 173
0.90694690 -0.27608156 0.93245095 169 170 170
0.90981001 -0.27646184 0.93373531 162 163 163
0.89375377 -0.27637064 0.93890840 167 167 167
0.89290321 -0.27560720 0.93631470 169 169 169
0.89328772 -0.27522704 0.93502325 169 169 169
0.89367115 -0.27484795 0.93373531 168 168 168
0.89528507 -0.27484795 0.93373531 171 171 171
0.89689893 -0.27484795 0.93373531 174 174 174
0.89975214 -0.27522704 0.93502325 174 175 175
0.90261328 -0.27560720 0.93631470 172 173 173
0.90298438 -0.27522704 0.93502325 173 174 174
0.90460050 -0.27522704 0.93502325 172 173 173
0.90496838 -0.27484795 0.93373531 169 170 170
0.90533525 -0.27446988 0.93245095 166 167 167
0.90694690 -0.27446988 0.93245095 162 163 163
0.90855855 -0.27446988 0.93245095 157 158 158
0.91268104 -0.27522704 0.93502325 152 153 155
0.91556001 -0.27560720 0.93631470 153 154 156
0.89336830 -0.27512887 0.94021058 171 171 172
0.89375377 -0.27474782 0.93890840 170 171 172
0.89167160 -0.27361092 0.93502325 171 172 173
0.89205730 -0.27323407 0.93373531 171 172 173
0.89244193 -0.27285823 0.93245095 166 167 168
0.89405358 -0.27285823 0.93245095 170 172 173
0.89689893 -0.27323407 0.93373531 172 174 176
0.89975214 -0.27361092 0.93502325 172 174 176
0.90261328 -0.27398884 0.93631470 171 175 177
0.90298438 -0.27361092 0.93502325 173 174 176
0.90335447 -0.27323407 0.93373531 174 173 173
0.90372360 -0.27285823 0.93245095 172 171 172
0.90533525 -0.27285823 0.93245095 171 170 171
0.90570110 -0.27248341 0.93117011 169 169 169
0.90855855 -0.27285823 0.93245095 169 169 169
0.91429716 -0.27361092 0.93502325 166 167 167
0.89748293 -0.27426460 0.94282591 171 174 178
0.89413822 -0.27274722 0.93760973 170 175 180
0.89452153 -0.27237052 0.93631470 166 171 176
0.89490384 -0.27199483 0.93502325 159 164 169
0.89651996 -0.27199483 0.93502325 164 169 174
0.89937657 -0.27237052 0.93631470 167 171 175
0.90099490 -0.27237052 0.93631470 172 174 176
0.90386170 -0.27274722 0.93760973 174 175 178
0.90423161 -0.27237052 0.93631470 174 175 177
0.90335447 -0.27162018 0.93373531 174 174 176
0.90496838 -0.27162018 0.93373531 175 175 177
0.90533525 -0.27124655 0.93245095 170 169 169
0.90694690 -0.27124655 0.93245095 164 163 163
0.90855855 -0.27124655 0.93245095 165 164 164
0.91017026 -0.27124655 0.93245095 169 168 168
0.91429716 -0.27199483 0.93502325 168 167 167
0.89623642 -0.27225634 0.94151646 171 176 179
0.89290321 -0.27075216 0.93631470 173 179 181
0.89328772 -0.27037871 0.93502325 171 176 179
0.89367115 -0.27000630 0.93373531 166 170 175
0.89651996 -0.27037871 0.93502325 166 170 174
0.89937657 -0.27075216 0.93631470 171 173 176
0.90099490 -0.27075216 0.93631470 176 176 178
0.90386170 -0.27112666 0.93760973 174 174 176
0.90423161 -0.27075216 0.93631470 171 171 172
0.90460050 -0.27037871 0.93502325 169 169 169
0.90496838 -0.27000630 0.93373531 172 172 172
0.90533525 -0.26963490 0.93245095 162 161 161
0.90694690 -0.26963490 0.93245095 160 160 160
0.90855855 -0.26963490 0.93245095 170 170 170
0.91017026 -0.26963490 0.93245095 177 176 176
0.89748293 -0.27100539 0.94282591 177 179 181
0.89413822 -0.26950607 0.93760973 180 182 184
0.89452153 -0.26913381 0.93631470 180 181 184
0.89613986 -0.26913381 0.93631470 177 178 182
0.90024507 -0.26987934 0.93890840 177 178 182
0.90311879 -0.27025366 0.94021058 175 176 179
0.90600044 -0.27062902 0.94151646 170 170 173
0.90762776 -0.27062902 0.94151646 161 161 164
0.90925509 -0.27062902 0.94151646 157 157 159
0.90710282 -0.26950607 0.93760973 162 162 162
0.90746826 -0.26913381 0.93631470 169 169 169
0.90783274 -0.26876259 0.93502325 162 162 162
0.90819615 -0.26839241 0.93373531 163 163 162
0.89786375 -0.26900166 0.94151646 179 179 181
0.90362853 -0.26975098 0.94413906 177 177 180
0.90652293 -0.27012721 0.94545585 175 175 179
0.90815711 -0.27012721 0.94545585 172 172 175
0.90979123 -0.27012721 0.94545585 171 171 173
0.91142535 -0.27012721 0.94545585 175 175 177
0.91178787 -0.26975098 0.94413906 175 175 176
0.90872341 -0.26788548 0.93760973 173 173 173
0.90783274 -0.26714650 0.93502325 163 164 163
0.90944880 -0.26714650 0.93502325 162 163 161
0.90615261 -0.26886806 0.94677633 171 172 174
0.90778905 -0.26886806 0.94677633 172 174 175
0.90942550 -0.26886806 0.94677633 172 174 175
0.91106188 -0.26886806 0.94677633 173 174 176
0.91433477 -0.26886806 0.94677633 174 175 176
0.51820087 -0.21485768 0.81087542 169 169 171
0.51758170 -0.21320114 0.80990660 172 172 175
0.49920121 -0.21054354 0.80509722 173 173 175
0.50059277 -0.21054354 0.80509722 170 171 174
0.50258118 -0.21079390 0.80605453 168 169 173
0.50337583 -0.21054354 0.80509722 171 172 176
0.51539779 -0.21205463 0.81087542 171 172 176
0.51741821 -0.21230859 0.81184649 173 173 177
0.51820087 -0.21205463 0.81087542 175 175 179
0.51898158 -0.21180128 0.80990660 176 176 180
0.52038145 -0.21180128 0.80990660 176 176 180
0.49840158 -0.20940070 0.80605453 172 173 175
0.49979478 -0.20940070 0.80605453 174 175 177
0.50059277 -0.20915200 0.80509722 173 174 178
0.50258118 -0.20940070 0.80605453 170 171 175
0.50397438 -0.20940070 0.80605453 175 176 180
0.50936532 -0.20989986 0.80797595 175 176 180
0.51137131 -0.21015035 0.80894017 175 176 179
0.51338214 -0.21040142 0.80990660 173 174 177
0.51539779 -0.21065310 0.81087542 174 175 178
0.51803863 -0.21115826 0.81281996 173 174 177
0.51882142 -0.21090537 0.81184649 172 173 177
0.51960236 -0.21065310 0.81087542 173 174 178
0.52100390 -0.21065310 0.81087542 174 174 179
0.49899492 -0.20825513 0.80701411 171 174 177
0.49979478 -0.20800750 0.80605453 176 179 182
0.50118798 -0.20800750 0.80605453 171 173 177
0.50258118 -0.20800750 0.80605453 171 172 176
0.50397438 -0.20800750 0.80605453 177 178 182
0.50796878 -0.20850334 0.80797595 172 173 176
0.50936532 -0.20850334 0.80797595 175 176 177
0.51137131 -0.20875216 0.80894017 172 173 174
0.51338214 -0.20900156 0.80990660 170 171 173
0.51539779 -0.20925155 0.81087542 179 180 182
0.51803863 -0.20975336 0.81281996 173 174 176
0.51882142 -0.20950216 0.81184649 168 169 172
0.52022463 -0.20950216 0.81184649 168 169 174
0.52100390 -0.20925155 0.81087542 169 169 176
0.49202064 -0.20686026 0.80701411 167 167 168
0.49400359 -0.20710681 0.80797595 174 174 175
0.49422199 -0.20661430 0.80605453 175 176 176
0.49760005 -0.20686026 0.80701411 168 169 169
0.49899492 -0.20686026 0.80701411 168 169 172
0.50038975 -0.20686026 0.80701411 170 171 174
0.50118798 -0.20661430 0.80605453 166 167 170
0.50317949 -0.20686026 0.80701411 170 171 174
0.50397438 -0.20661430 0.80605453 174 174 175
0.50596923 -0.20686026 0.80701411 174 174 174
0.50796878 -0.20710681 0.80797595 175 175 176
0.50997317 -0.20735396 0.80894017 174 175 175
0.51137131 -0.20735396 0.80894017 167 168 168
0.51338214 -0.20760170 0.80990660 168 168 170
0.51539779 -0.20785002 0.81087542 164 164 166
0.51866055 -0.20859858 0.81379575 159 159 163
0.51882142 -0.20809895 0.81184649 158 158 162
0.52022463 -0.20809895 0.81184649 160 159 164
0.48389420 -0.20497736 0.80509722 177 176 176
0.48760214 -0.20595577 0.80894017 174 174 174
0.48900035 -0.20595577 0.80894017 174 174 174
0.49039853 -0.20595577 0.80894017 172 172 172
0.49062577 -0.20546541 0.80701411 169 169 169
0.49202064 -0.20546541 0.80701411 169 169 169
0.49400359 -0.20571031 0.80797595 173 173 173
0.49422199 -0.20522110 0.80605453 174 174 174
0.49561518 -0.20522110 0.80605453 170 171 171
0.49700838 -0.20522110 0.80605453 170 171 171
0.49899492 -0.20546541 0.80701411 170 170 172
0.50038975 -0.20546541 0.80701411 168 169 171
0.50118798 -0.20522110 0.80605453 168 168 170
0.50317949 -0.20546541 0.80701411 171 172 174
0.50397438 -0.20522110 0.80605453 173 174 175
0.50596923 -0.20546541 0.80701411 176 176 177
0.50796878 -0.20571031 0.80797595 176 175 176
0.50936532 -0.20571031 0.80797595 173 173 174
0.51137131 -0.20595577 0.80894017 172 172 174
0.51276952 -0.20595577 0.80894017 174 173 177
0.51478201 -0.20620184 0.80990660 168 167 171
0.51820087 -0.20644850 0.81087542 158 158 162
0.51960236 -0.20644850 0.81087542 159 159 163
-0.02924113 -0.19217406 0.75996846 90 67 61
-0.02535735 -0.19260591 0.76167625 91 65 60
0.48446959 -0.20382790 0.80605453 173 172 172
0.48876867 -0.20504697 0.81087542 174 174 174
0.49017021 -0.20504697 0.81087542 176 176 176
0.49098444 -0.20480198 0.80990660 177 177 177
0.49121055 -0.20431378 0.80797595 176 176 176
0.49260706 -0.20431378 0.80797595 173 173 173
0.49400359 -0.20431378 0.80797595 173 173 173
0.49422199 -0.20382790 0.80605453 172 173 173
0.49561518 -0.20382790 0.80605453 170 171 171
0.49760005 -0.20407055 0.80701411 170 170 171
0.49899492 -0.20407055 0.80701411 172 172 174
0.50038975 -0.20407055 0.80701411 172 172 174
0.50118798 -0.20382790 0.80605453 171 172 174
0.50317949 -0.20407055 0.80701411 165 166 168
0.50457436 -0.20407055 0.80701411 172 172 173
0.50596923 -0.20407055 0.80701411 175 175 176
0.50796878 -0.20431378 0.80797595 173 173 175
0.50936532 -0.20431378 0.80797595 172 172 174
0.51137131 -0.20455760 0.80894017 171 171 173
0.51276952 -0.20455760 0.80894017 171 171 175
0.51478201 -0.20480198 0.80990660 173 173 177
-0.03052045 -0.19064678 0.75911742 89 63 58
-0.02927394 -0.19107473 0.76082134 93 66 62
-0.02541446 -0.19172025 0.76339173 89 66 60
0.48389420 -0.20219427 0.80509722 185 185 187
0.48900035 -0.20315941 0.80894017 183 183 183
0.49039853 -0.20315941 0.80894017 179 179 179
0.49062577 -0.20267569 0.80701411 175 175 175
0.49202064 -0.20267569 0.80701411 173 173 173
0.49341547 -0.20267569 0.80701411 173 173 173
0.49363503 -0.20219427 0.80509722 173 173 173
0.49502656 -0.20219427 0.80509722 171 171 172
0.49641812 -0.20219427 0.80509722 169 169 170
0.49840158 -0.20243469 0.80605453 168 169 171
0.49979478 -0.20243469 0.80605453 162 163 165
0.50118798 -0.20243469 0.80605453 159 160 162
0.50258118 -0.20243469 0.80605453 159 160 162
0.50397438 -0.20243469 0.80605453 165 166 168
0.50536758 -0.20243469 0.80605453 171 171 173
0.50736409 -0.20267569 0.80701411 175 176 178
0.50875890 -0.20267569 0.80701411 178 179 181
0.51076186 -0.20291726 0.80797595 178 178 180
-0.03055467 -0.18954697 0.75996846 86 59 57
-0.02930684 -0.18997292 0.76167625 89 62 60
-0.02541446 -0.19040078 0.76339173 90 67 61
0.49260706 -0.20152074 0.80797595 175 175 176
0.49400359 -0.20152074 0.80797595 175 175 177
0.49700838 -0.20104149 0.80605453 172 173 175
0.49840158 -0.20104149 0.80605453 171 172 174
0.49979478 -0.20104149 0.80605453 179 180 182
0.50118798 -0.20104149 0.80605453 174 175 177
0.50258118 -0.20104149 0.80605453 162 163 165
0.50397438 -0.20104149 0.80605453 158 159 161
0.50596923 -0.20128083 0.80701411 171 172 174
0.50796878 -0.20152074 0.80797595 179 180 182
0.50936532 -0.20152074 0.80797595 176 177 180
0.51137131 -0.20176122 0.80894017 172 173 175
-0.03197575 -0.18886864 0.76253301 88 61 61
-0.03055467 -0.18823342 0.75996846 87 60 60
-0.02927394 -0.18844469 0.76082134 91 64 63
-0.02799034 -0.18865642 0.76167625 92 65 62
-0.02541446 -0.18908133 0.76339173 90 65 61
-0.02409500 -0.18908133 0.76339173 88 66 60
-0.02277554 -0.18908133 0.76339173 88 66 60
-0.01487553 -0.18929450 0.76425236 91 65 60
0.49840158 -0.19964829 0.80605453 177 178 180
0.49979478 -0.19964829 0.80605453 177 178 180
0.50118798 -0.19964829 0.80605453 172 173 176
0.50317949 -0.19988598 0.80701411 160 161 164
0.50517577 -0.20012422 0.80797595 157 157 161
0.50657225 -0.20012422 0.80797595 169 169 173
0.50918257 -0.20060241 0.80990660 172 173 177
0.51058245 -0.20060241 0.80990660 170 171 175
0.51259470 -0.20084237 0.81087542 164 165 169
-0.03201176 -0.18776186 0.76339173 87 60 60
-0.03062333 -0.18733993 0.76167625 87 60 60
-0.02937284 -0.18776186 0.76339173 91 62 63
-0.02805338 -0.18776186 0.76339173 91 64 62
-0.02676406 -0.18797354 0.76425236 90 63 61
-0.02544311 -0.18797354 0.76425236 91 64 62
-0.02412216 -0.18797354 0.76425236 89 65 62
-0.02280121 -0.18797354 0.76425236 90 65 62
-0.01755701 -0.18839835 0.76597947 91 64 64
-0.01621475 -0.18818571 0.76511496 90 64 62
-0.01487553 -0.18797354 0.76425236 91 65 61
0.49840158 -0.19825509 0.80605453 164 165 167
0.49979478 -0.19825509 0.80605453 166 167 169
0.50118798 -0.19825509 0.80605453 170 171 175
0.50377923 -0.19872770 0.80797595 162 162 166
0.50517577 -0.19872770 0.80797595 166 166 170
0.51119316 -0.19944084 0.81087542 166 167 172
0.51320863 -0.19967969 0.81184649 163 163 168
-0.02937284 -0.18644240 0.76339173 89 60 61
-0.02679427 -0.18686327 0.76511496 89 62 62
-0.02547183 -0.18686327 0.76511496 90 63 61
-0.02414939 -0.18686327 0.76511496 87 62 61
-0.02282695 -0.18686327 0.76511496 90 64 63
-0.01759678 -0.18749814 0.76771444 90 63 63
-0.01621475 -0.18686327 0.76511496 88 64 61
-0.01487553 -0.18665260 0.76425236 89 66 61
0.50317949 -0.19709626 0.80701411 165 165 167
0.51259470 -0.19803929 0.81087542 160 162 164
-0.02550061 -0.18575048 0.76597947 89 62 61
-0.02417668 -0.18575048 0.76597947 90 63 62
-0.02285274 -0.18575048 0.76597947 91 64 62
-0.02152881 -0.18575048 0.76597947 91 64 62
-0.01757687 -0.18596061 0.76684600 90 63 63
-0.01487553 -0.18533166 0.76425236 88 65 62
1.09418452 -0.31735361 1.30867147 163 164 164
-0.02682455 -0.18442655 0.76597947 89 62 60
-0.02550061 -0.18442655 0.76597947 90 63 61
-0.02417668 -0.18442655 0.76597947 90 63 61
-0.02285274 -0.18442655 0.76597947 91 64 62
-0.02152881 -0.18442655 0.76597947 92 65 63
-0.02022773 -0.18463518 0.76684600 92 65 63
-0.01757687 -0.18463518 0.76684600 89 64 61
-0.01623308 -0.18442655 0.76597947 89 64 61
-0.01489232 -0.18421839 0.76511496 89 63 61
1.10042000 -0.31754377 1.31885576 171 172 174
1.10484898 -0.31816274 1.32142663 172 173 173
1.10283351 -0.31692716 1.31629479 173 173 173
1.10510862 -0.31692716 1.31629479 172 172 172
1.11170101 -0.31816274 1.32142663 172 172 171
1.10750830 -0.31631297 1.31374383 168 168 167
1.11844909 -0.31878418 1.32400751 166 167 166
1.12073755 -0.31878418 1.32400751 166 167 165
1.12302601 -0.31878418 1.32400751 168 169 167
-0.02940596 -0.18268976 0.76425236 85 61 60
-0.02811671 -0.18289594 0.76511496 88 64 62
-0.02685489 -0.18330975 0.76684600 89 65 62
-0.02552946 -0.18330975 0.76684600 91 64 62
-0.02420403 -0.18330975 0.76684600 89 64 61
-0.02287859 -0.18330975 0.76684600 89 64 61
-0.02157757 -0.18351734 0.76771444 91 64 62
-0.02027360 -0.18372542 0.76858485 92 63 62
-0.01892371 -0.18351734 0.76771444 92 63 62
-0.01761673 -0.18372542 0.76858485 90 63 61
-0.01625144 -0.18330975 0.76684600 91 62 63
-0.01489232 -0.18289594 0.76511496 91 62 62
-0.01356988 -0.18289594 0.76511496 92 63 62
-0.01224744 -0.18289594 0.76511496 92 63 62
1.11111057 -0.31898782 1.33443272 172 173 175
1.11122966 -0.31836113 1.33181107 171 172 174
1.11353159 -0.31836113 1.33181107 169 170 172
1.11146617 -0.31711510 1.32659853 169 170 172
1.11594296 -0.31773689 1.32919967 174 175 176
1.12043738 -0.31836113 1.33181107 174 175 175
1.11398494 -0.31587878 1.32142663 174 175 175
1.12283528 -0.31773689 1.32919967 174 175 174
1.12734306 -0.31836113 1.33181107 171 172 170
1.12743008 -0.31773689 1.32919967 169 170 168
1.13194692 -0.31836113 1.33181107 171 171 169
-0.02555837 -0.18219040 0.76771444 92 65 63
-0.02423144 -0.18219040 0.76771444 91 64 62
-0.02287859 -0.18198431 0.76684600 90 63 61
-0.02160204 -0.18239698 0.76858485 85 58 56
-0.02029661 -0.18260400 0.76945728 83 56 54
-0.01894516 -0.18239698 0.76858485 87 60 58
-0.01761673 -0.18239698 0.76858485 89 62 60
-0.01625144 -0.18198431 0.76684600 91 62 61
-0.01489232 -0.18157351 0.76511496 91 62 61
-0.01355458 -0.18136880 0.76425236 90 62 60
-0.01223363 -0.18136880 0.76425236 92 63 62
-0.01090039 -0.18116456 0.76339173 91 62 61
1.11992896 -0.31919470 1.34502351 171 174 175
1.11781788 -0.31793305 1.33970726 170 174 175
1.11792421 -0.31730598 1.33706474 165 167 169
1.11364555 -0.31543946 1.32919967 169 170 172
1.11813545 -0.31605920 1.33181107 175 177 179
1.12264287 -0.31668136 1.33443272 173 174 174
1.11616075 -0.31420729 1.32400751 171 172 172
1.12504113 -0.31605920 1.33181107 171 172 172
1.12734306 -0.31605920 1.33181107 177 178 176
1.12743008 -0.31543946 1.32919967 170 171 169
1.13194692 -0.31605920 1.33181107 171 171 170
1.13872325 -0.31730598 1.33706474 171 171 171
1.14103425 -0.31730598 1.33706474 172 172 172
0.82482284 -0.19106191 0.80509722 172 173 175
0.82719684 -0.19128910 0.80605453 173 176 177
-0.02561639 -0.18127406 0.76945728 90 64 59
-0.02425891 -0.18106854 0.76858485 91 65 60
-0.02290451 -0.18086347 0.76771444 90 64 59
-0.02162656 -0.18127406 0.76945728 87 61 57
-0.02031968 -0.18148005 0.77033162 89 63 60
-0.01896667 -0.18127406 0.76945728 90 63 61
-0.01763672 -0.18127406 0.76945728 90 63 61
-0.01625144 -0.18065888 0.76684600 91 64 62
-0.01490914 -0.18045475 0.76597947 90 63 61
-0.01356988 -0.18025108 0.76511496 87 60 58
-0.01223363 -0.18004785 0.76425236 88 61 59
-0.01090039 -0.17984509 0.76339173 88 60 59
1.12215543 -0.31749991 1.34769750 170 176 178
1.11781788 -0.31561750 1.33970726 171 177 179
1.12013352 -0.31561750 1.33970726 165 169 171
1.11583352 -0.31375727 1.33181107 166 169 170
1.12033641 -0.31437489 1.33443272 169 171 172
1.12264287 -0.31437489 1.33443272 169 170 169
1.11616075 -0.31191885 1.32400751 166 167 165
1.12283528 -0.31314206 1.32919967 168 169 167
1.12734306 -0.31375727 1.33181107 176 176 174
1.12964499 -0.31375727 1.33181107 176 176 175
1.13417518 -0.31437489 1.33443272 174 174 174
0.81912130 -0.18899699 0.80223888 175 175 175
0.82148004 -0.18922091 0.80318940 174 175 175
0.82384443 -0.18944538 0.80414218 171 175 176
0.82621437 -0.18967037 0.80509722 167 171 173
0.82662421 -0.18944538 0.80414218 162 166 169
0.82899749 -0.18967037 0.80509722 157 165 168
-0.02567468 -0.18035355 0.77120799 90 64 60
-0.02431404 -0.18014860 0.77033162 91 64 61
-0.02293047 -0.17974010 0.76858485 91 64 61
-0.02167577 -0.18035355 0.77120799 90 63 61
-0.01896667 -0.17994411 0.76945728 91 64 62
-0.01763672 -0.17994411 0.76945728 91 64 62
-0.01625144 -0.17933345 0.76684600 90 63 61
-0.01490914 -0.17913081 0.76597947 88 61 59
-0.01356988 -0.17892863 0.76511496 90 63 61
-0.01224744 -0.17892863 0.76511496 90 63 61
-0.01091268 -0.17872691 0.76425236 87 60 58
1.12215543 -0.31517053 1.34769750 174 178 179
1.12003148 -0.31392232 1.34236014 172 176 177
1.12013352 -0.31330192 1.33970726 168 170 170
1.11802995 -0.31206843 1.33443272 169 170 170
1.12033641 -0.31206843 1.33443272 171 172 171
1.12264287 -0.31206843 1.33443272 169 170 169
1.11616075 -0.30963039 1.32400751 164 165 164
1.12283528 -0.31084463 1.32919967 166 167 167
1.12513268 -0.31084463 1.32919967 176 177 177
1.12743008 -0.31084463 1.32919967 184 185 186
1.12972748 -0.31084463 1.32919967 184 184 185
1.13648164 -0.31206843 1.33443272 180 180 181
1.13655078 -0.31145534 1.33181107 177 177 179
0.82050788 -0.18761037 0.80223888 175 176 177
0.82286829 -0.18783267 0.80318940 167 171 173
0.82523429 -0.18805549 0.80414218 165 169 172
0.82564479 -0.18783267 0.80318940 166 170 174
0.82801408 -0.18805549 0.80414218 165 170 175
0.82842129 -0.18783267 0.80318940 167 172 177
-0.02567468 -0.17902058 0.77120799 91 64 63
-0.02431404 -0.17881714 0.77033162 92 65 62
-0.02293047 -0.17841166 0.76858485 92 66 61
-0.02165113 -0.17881714 0.77033162 92 66 61
-0.02029661 -0.17861417 0.76945728 91 65 60
-0.01894516 -0.17841166 0.76858485 91 65 60
-0.01761673 -0.17841166 0.76858485 91 65 60
-0.01625144 -0.17800802 0.76684600 90 64 59
-0.01490914 -0.17780688 0.76597947 90 64 59
-0.01356988 -0.17760620 0.76511496 91 65 60
-0.01224744 -0.17760620 0.76511496 90 64 59
1.12003148 -0.31160215 1.34236014 159 162 163
1.12013352 -0.31098634 1.33970726 160 162 162
1.11802995 -0.30976197 1.33443272 165 166 167
1.12033641 -0.30976197 1.33443272 168 169 171
1.12264287 -0.30976197 1.33443272 168 169 170
1.11616075 -0.30734196 1.32400751 174 175 176
1.12283528 -0.30854723 1.32919967 180 181 183
1.12513268 -0.30854723 1.32919967 182 183 185
1.12743008 -0.30854723 1.32919967 182 183 185
1.12972748 -0.30854723 1.32919967 181 182 184
1.13202488 -0.30854723 1.32919967 179 179 181
1.13210249 -0.30794343 1.32659853 175 175 177
0.81718713 -0.18578404 0.80034459 173 174 174
0.81953800 -0.18600366 0.80129057 172 174 174
0.82189447 -0.18622378 0.80223888 166 170 172
0.82523429 -0.18666558 0.80414218 168 172 175
0.82564479 -0.18644442 0.80318940 171 175 178
0.82801408 -0.18666558 0.80414218 171 177 179
0.82842129 -0.18644442 0.80318940 172 178 180
-0.02162656 -0.17728423 0.76945728 93 67 62
-0.02027360 -0.17708322 0.76858485 93 66 62
-0.01892371 -0.17688268 0.76771444 92 65 61
-0.01759678 -0.17688268 0.76771444 91 65 61
-0.01623308 -0.17648295 0.76597947 91 64 61
-0.01489232 -0.17628375 0.76511496 91 64 61
1.11781788 -0.30867076 1.33970726 173 173 175
1.11792421 -0.30806196 1.33706474 168 169 171
1.11583352 -0.30685148 1.33181107 167 168 170
1.12254620 -0.30806196 1.33706474 165 166 168
1.12264287 -0.30745551 1.33443272 167 168 170
1.11834502 -0.30565050 1.32659853 176 177 179
1.12283528 -0.30624983 1.32919967 179 180 182
1.12513268 -0.30624983 1.32919967 179 180 182
1.12964499 -0.30685148 1.33181107 181 182 184
1.12972748 -0.30624983 1.32919967 184 184 186
1.13424885 -0.30685148 1.33181107 179 179 181
1.13210249 -0.30565050 1.32659853 170 170 172
0.81676805 -0.18461868 0.80129057 166 167 167
0.81912130 -0.18483716 0.80223888 169 171 171
0.82050788 -0.18483716 0.80223888 172 175 176
0.82286829 -0.18505616 0.80318940 169 175 177
0.82523429 -0.18527569 0.80414218 168 175 177
0.82564479 -0.18505616 0.80318940 168 175 177
0.82801408 -0.18527569 0.80414218 168 176 177
0.82940400 -0.18527569 0.80414218 169 177 178
0.83178055 -0.18549573 0.80509722 168 175 177
-0.89207512 -0.39046782 1.70753610 191 195 194
-0.88912380 -0.39046782 1.70753610 191 195 194
-0.88617241 -0.39046782 1.70753610 192 196 195
-0.88322109 -0.39046782 1.70753610 191 192 192
-0.02160204 -0.17575479 0.76858485 93 66 64
-0.02025064 -0.17555575 0.76771444 92 65 63
-0.01890230 -0.17535715 0.76684600 91 64 62
-0.01757687 -0.17535715 0.76684600 91 64 62
-0.01621475 -0.17496131 0.76511496 92 65 63
-0.01489232 -0.17496131 0.76511496 91 64 62
1.11781788 -0.30635518 1.33970726 173 173 175
1.11792421 -0.30575094 1.33706474 173 173 175
1.11583352 -0.30454955 1.33181107 168 169 171
1.12033641 -0.30514908 1.33443272 165 166 168
1.12264287 -0.30514908 1.33443272 164 165 167
1.11834502 -0.30335757 1.32659853 168 168 170
1.12283528 -0.30395240 1.32919967 170 170 172
1.12293077 -0.30335757 1.32659853 171 172 174
1.12522376 -0.30335757 1.32659853 176 177 179
1.12531447 -0.30276510 1.32400751 180 181 183
1.12980962 -0.30335757 1.32659853 179 180 182
1.12989140 -0.30276510 1.32400751 176 177 179
0.81303710 -0.18301739 0.80034459 172 173 173
0.81442046 -0.18301739 0.80034459 175 176 176
0.81676805 -0.18323372 0.80129057 175 179 180
0.81815302 -0.18323372 0.80129057 176 181 182
0.81953800 -0.18323372 0.80129057 175 180 181
0.82286829 -0.18366791 0.80318940 171 179 180
0.82523429 -0.18388580 0.80414218 168 177 178
0.82564479 -0.18366791 0.80318940 168 176 177
0.82801408 -0.18388580 0.80414218 169 176 178
0.82940400 -0.18388580 0.80414218 167 173 175
0.83178055 -0.18410419 0.80509722 165 171 173
0.83416283 -0.18432310 0.80605453 165 171 173
0.83357370 -0.18388580 0.80414218 165 171 173
0.83496356 -0.18388580 0.80414218 166 170 172
-0.92265803 -0.39046711 1.72053766 190 192 194
-0.91503936 -0.38849506 1.71184814 195 197 197
-0.90912175 -0.38849506 1.71184814 186 186 186
-0.90388048 -0.38751647 1.70753610 183 183 183
-0.90092915 -0.38751647 1.70753610 186 187 187
-0.89572155 -0.38654283 1.70324588 192 193 193
-0.89277762 -0.38654283 1.70324588 194 195 195
-0.88983369 -0.38654283 1.70324588 194 195 195
-0.88688982 -0.38654283 1.70324588 193 196 195
-0.88394588 -0.38654283 1.70324588 191 195 194
-0.88100195 -0.38654283 1.70324588 187 188 188
-0.02157757 -0.17422882 0.76771444 91 64 62
-0.02022773 -0.17403172 0.76684600 91 64 62
-0.01888094 -0.17383508 0.76597947 91 64 62
-0.01755701 -0.17383508 0.76597947 91 64 62
-0.01619647 -0.17344311 0.76425236 91 64 61
1.11550236 -0.30403960 1.33970726 162 162 164
1.11561322 -0.30343992 1.33706474 158 158 160
1.11353159 -0.30224764 1.33181107 161 161 163
1.10929537 -0.30047664 1.32400751 159 159 161
1.11605203 -0.30106467 1.32659853 170 169 171
1.10750830 -0.29814738 1.31374383 174 174 175
1.11193395 -0.29872629 1.31629479 172 172 174
0.81112182 -0.18120618 0.79845917 176 180 179
0.81250191 -0.18120618 0.79845917 180 184 183
0.81484175 -0.18141986 0.79940075 177 183 183
0.81622344 -0.18141986 0.79940075 172 178 178
0.81857044 -0.18163405 0.80034459 168 174 174
0.82189447 -0.18206395 0.80223888 167 174 175
0.82425654 -0.18227968 0.80318940 168 175 176
0.82466769 -0.18206395 0.80223888 168 174 176
0.82605428 -0.18206395 0.80223888 165 171 173
0.82744092 -0.18206395 0.80223888 165 171 173
0.82784778 -0.18184875 0.80129057 165 171 173
0.83119780 -0.18227968 0.80318940 165 171 173
0.82865876 -0.18141986 0.79940075 166 172 173
0.83004045 -0.18141986 0.79940075 165 170 171
0.83142215 -0.18141986 0.79940075 164 168 167
0.82889396 -0.18056813 0.79564768 168 172 171
-0.92983329 -0.38553628 1.71184814 184 188 187
-0.92265803 -0.38749331 1.72053766 188 189 191
-0.91735590 -0.38651231 1.71618187 191 192 193
-0.90320420 -0.38553628 1.71184814 192 192 192
-0.89797777 -0.38456514 1.70753610 192 193 193
-0.89277762 -0.38359889 1.70324588 192 193 193
-0.89207512 -0.38456514 1.70753610 193 194 194
-0.88912380 -0.38456514 1.70753610 192 194 193
-0.88394588 -0.38359889 1.70324588 187 190 189
-0.88100195 -0.38359889 1.70324588 181 184 183
-0.02025064 -0.17290188 0.76771444 86 64 61
-0.01888094 -0.17251115 0.76597947 85 63 60
-0.01755701 -0.17251115 0.76597947 88 64 61
-0.01619647 -0.17212217 0.76425236 89 64 61
-0.01490914 -0.17251115 0.76597947 89 64 60
-0.01358521 -0.17251115 0.76597947 88 62 57
1.11122966 -0.29994571 1.33181107 160 160 162
1.10700691 -0.29818821 1.32400751 164 164 166
0.81303710 -0.18025072 0.80034459 181 185 184
0.81442046 -0.18025072 0.80034459 178 183 181
0.81676805 -0.18046379 0.80129057 171 177 175
0.81815302 -0.18046379 0.80129057 167 173 171
0.81953800 -0.18046379 0.80129057 164 170 169
0.82286829 -0.18089142 0.80318940 160 166 167
0.82523429 -0.18110600 0.80414218 165 171 172
0.82564479 -0.18089142 0.80318940 169 175 176
0.82703304 -0.18089142 0.80318940 170 176 176
0.82744092 -0.18067735 0.80223888 170 176 176
0.82784778 -0.18046379 0.80129057 168 174 174
0.83021408 -0.18067735 0.80223888 167 173 173
0.82573748 -0.17940348 0.79658264 167 173 172
0.82614350 -0.17919292 0.79564768 165 171 170
0.82654864 -0.17898284 0.79471493 164 170 168
-0.92871517 -0.37970096 1.69897699 186 188 187
-0.92810470 -0.38065499 1.70324588 186 187 187
-0.92749119 -0.38161382 1.70753610 191 191 191
-0.92265803 -0.38451949 1.72053766 189 189 189
-0.91735590 -0.38354602 1.71618187 189 189 189
-0.90320420 -0.38257748 1.71184814 192 192 192
-0.90024543 -0.38257748 1.71184814 188 189 189
-0.89502645 -0.38161382 1.70753610 189 190 190
-0.89432782 -0.38257748 1.71184814 189 190 190
-0.88912380 -0.38161382 1.70753610 189 190 190
-0.88617241 -0.38161382 1.70753610 184 185 185
-0.88322109 -0.38161382 1.70753610 180 181 181
-0.02027360 -0.17176948 0.76858485 85 62 59
-0.01890230 -0.17138086 0.76684600 85 60 57
-0.01757687 -0.17138086 0.76684600 89 63 60
-0.01623308 -0.17118721 0.76597947 90 63 61
-0.01363142 -0.17176948 0.76858485 90 64 59
0.81634808 -0.17929074 0.80223888 172 173 175
0.81870353 -0.17950317 0.80318940 169 174 174
0.81912130 -0.17929074 0.80223888 167 172 172
0.82148004 -0.17950317 0.80318940 164 169 169
0.82384443 -0.17971611 0.80414218 156 161 162
0.82621437 -0.17992955 0.80509722 163 167 168
0.82662421 -0.17971611 0.80414218 168 173 173
0.82801408 -0.17971611 0.80414218 171 177 175
0.82842129 -0.17950317 0.80318940 168 174 172
0.82980955 -0.17950317 0.80318940 167 173 171
0.82751876 -0.17781770 0.79564768 169 175 173
-0.93693650 -0.37771106 1.70324588 185 189 189
-0.93399256 -0.37771106 1.70324588 187 191 192
-0.92871517 -0.37676442 1.69897699 192 196 195
-0.93044251 -0.37866247 1.70753610 192 196 195
-0.92983329 -0.37961867 1.71184814 189 190 189
-0.92922103 -0.38057974 1.71618187 189 189 188
-0.92563182 -0.38154569 1.72053766 186 186 185
-0.92265803 -0.38154569 1.72053766 185 185 186
-0.91735590 -0.38057974 1.71618187 188 188 188
-0.91438961 -0.38057974 1.71618187 186 186 187
-0.90912175 -0.37961867 1.71184814 187 187 188
-0.90616298 -0.37961867 1.71184814 191 191 193
-0.90320420 -0.37961867 1.71184814 190 190 192
-0.89797777 -0.37866247 1.70753610 185 186 186
-0.89502645 -0.37866247 1.70753610 185 186 186
-0.89432782 -0.37961867 1.71184814 181 184 184
-0.88912380 -0.37866247 1.70753610 179 182 181
-0.88617241 -0.37866247 1.70753610 180 181 181
-0.88322109 -0.37866247 1.70753610 174 175 175
-0.02029661 -0.17063451 0.76945728 87 60 60
-0.01892371 -0.17024802 0.76771444 86 59 57
-0.01759678 -0.17024802 0.76771444 86 59 57
-0.01625144 -0.17005543 0.76684600 85 58 56
0.81953800 -0.17769386 0.80129057 167 169 171
0.82286829 -0.17811494 0.80318940 163 165 167
0.82621437 -0.17853801 0.80509722 168 170 171
0.82662421 -0.17832622 0.80414218 171 173 174
0.82801408 -0.17832622 0.80414218 173 174 174
0.82744092 -0.17790414 0.80223888 171 172 172
0.83021408 -0.17790414 0.80223888 171 172 172
0.82476830 -0.17644249 0.79564768 170 171 171
0.82461518 -0.17582339 0.79285598 169 172 171
0.82309747 -0.17520863 0.79008371 169 172 171
-0.93693650 -0.37476712 1.70324588 180 181 183
-0.93399256 -0.37476712 1.70324588 186 188 189
-0.93104863 -0.37476712 1.70324588 189 193 194
-0.93044251 -0.37571114 1.70753610 192 196 196
-0.92749119 -0.37571114 1.70753610 181 182 183
-0.92922103 -0.37761346 1.71618187 180 180 181
-0.92625475 -0.37761346 1.71618187 183 183 184
-0.92328846 -0.37761346 1.71618187 186 187 188
-0.92032218 -0.37761346 1.71618187 188 188 190
-0.91503936 -0.37665990 1.71184814 188 188 190
-0.91208059 -0.37665990 1.71184814 175 175 177
-0.90912175 -0.37665990 1.71184814 172 173 175
-0.90388048 -0.37571114 1.70753610 179 180 182
-0.90092915 -0.37571114 1.70753610 184 185 187
-0.89797777 -0.37571114 1.70753610 183 184 185
-0.89502645 -0.37571114 1.70753610 180 182 182
-0.89432782 -0.37665990 1.71184814 185 189 188
-0.88912380 -0.37571114 1.70753610 186 190 189
-0.88617241 -0.37571114 1.70753610 184 185 187
-0.88322109 -0.37571114 1.70753610 181 182 184
-0.01892371 -0.16892108 0.76771444 85 58 55
-0.01759678 -0.16892108 0.76771444 86 59 56
-0.01625144 -0.16873001 0.76684600 87 60 57
-0.01499385 -0.16949695 0.77033162 87 60 58
0.81580377 -0.17610073 0.80034459 172 173 174
0.81622344 -0.17589307 0.79940075 172 173 174
0.81760514 -0.17589307 0.79940075 172 173 174
0.82092297 -0.17630889 0.80129057 171 172 173
0.82425654 -0.17672668 0.80318940 170 171 172
0.82466769 -0.17651753 0.80223888 168 169 169
0.82507789 -0.17630889 0.80129057 164 165 165
0.82548708 -0.17610073 0.80034459 170 171 171
0.82395208 -0.17547920 0.79751980 172 173 173
0.82533050 -0.17547920 0.79751980 169 170 170
0.82476830 -0.17506728 0.79564768 165 166 166
0.82420874 -0.17465729 0.79378438 163 164 164
0.82558078 -0.17465729 0.79378438 162 163 163
0.82502061 -0.17424920 0.79192972 167 168 168
0.83066940 -0.17486204 0.79471493 175 175 175
-0.93165171 -0.37089133 1.69897699 188 188 188
-0.92871517 -0.37089133 1.69897699 191 191 191
-0.92810470 -0.37182322 1.70324588 193 194 194
-0.92516077 -0.37182322 1.70324588 189 189 190
-0.92687452 -0.37370110 1.71184814 187 187 189
-0.92391574 -0.37370110 1.71184814 187 188 190
-0.92328846 -0.37464717 1.71618187 180 181 183
-0.91799814 -0.37370110 1.71184814 175 175 177
-0.91273445 -0.37275979 1.70753610 180 180 182
-0.90978312 -0.37275979 1.70753610 178 179 181
-0.89207512 -0.37275979 1.70753610 174 178 179
-0.88912380 -0.37275979 1.70753610 181 186 187
-0.88617241 -0.37275979 1.70753610 176 178 179
-0.88322109 -0.37275979 1.70753610 178 179 181
-0.01757687 -0.16740456 0.76684600 86 60 55
-0.01625144 -0.16740456 0.76684600 87 61 56
0.81346005 -0.17451136 0.79940075 173 173 173
0.81484175 -0.17451136 0.79940075 176 176 176
0.81622344 -0.17451136 0.79940075 178 178 178
0.81760514 -0.17451136 0.79940075 178 178 178
0.81995374 -0.17471740 0.80034459 175 176 176
0.82328111 -0.17513093 0.80223888 169 169 169
0.82466769 -0.17513093 0.80223888 166 166 166
0.82507789 -0.17492393 0.80129057 168 169 169
0.82451361 -0.17451136 0.79940075 173 174 174
0.82395208 -0.17410076 0.79751980 172 173 173
0.82436067 -0.17389616 0.79658264 168 169 169
0.82476830 -0.17369206 0.79564768 167 168 168
0.82517499 -0.17348844 0.79471493 165 166 166
0.82654864 -0.17348844 0.79471493 162 163 163
0.82598555 -0.17308262 0.79285598 164 165 165
0.83026916 -0.17369206 0.79564768 169 169 169
0.83360118 -0.17410076 0.79751980 173 173 173
0.84592694 -0.17638336 0.80797595 172 172 172
0.84732348 -0.17638336 0.80797595 171 171 171
-0.93929654 -0.36980847 1.70753610 190 190 190
-0.93104863 -0.36887929 1.70324588 184 184 184
-0.93044251 -0.36980847 1.70753610 185 185 185
-0.92749119 -0.36980847 1.70753610 187 187 187
-0.92687452 -0.37074232 1.71184814 190 190 190
-0.92391574 -0.37074232 1.71184814 192 192 193
-0.92328846 -0.37168092 1.71618187 186 186 188
-0.88688982 -0.36887929 1.70324588 175 175 176
-0.88394588 -0.36887929 1.70324588 178 178 179
0.81484175 -0.17312966 0.79940075 173 173 173
0.81622344 -0.17312966 0.79940075 176 176 176
0.81760514 -0.17312966 0.79940075 176 176 176
0.81995374 -0.17333406 0.80034459 171 171 171
0.82425654 -0.17395018 0.80318940 164 164 164
0.82466769 -0.17374432 0.80223888 164 165 165
0.82507789 -0.17353895 0.80129057 169 173 172
0.82354248 -0.17292574 0.79845917 174 178 177
0.82298386 -0.17251934 0.79658264 174 178 177
0.82533050 -0.17272229 0.79751980 172 174 174
0.82476830 -0.17231685 0.79564768 170 173 173
0.82614350 -0.17231685 0.79564768 165 167 168
0.82654864 -0.17211483 0.79471493 160 161 162
0.82695276 -0.17191330 0.79378438 159 160 162
0.83124483 -0.17251934 0.79658264 162 162 164
0.84833455 -0.17519565 0.80894017 167 167 169
0.85176563 -0.17561477 0.81087542 169 169 172
-0.93458825 -0.36501825 1.69897699 191 192 192
-0.92639339 -0.36410570 1.69472957 194 195 195
-0.92810470 -0.36593536 1.70324588 191 191 191
-0.92516077 -0.36593536 1.70324588 182 182 182
-0.88466704 -0.36501825 1.69897699 183 183 183
-0.87952614 -0.36410570 1.69472957 184 184 184
0.81622344 -0.17174797 0.79940075 174 174 174
0.81857044 -0.17195074 0.80034459 173 173 173
0.81995374 -0.17195074 0.80034459 170 170 170
0.82425654 -0.17256194 0.80318940 167 168 168
0.82466769 -0.17235772 0.80223888 168 170 170
0.82410377 -0.17195074 0.80034459 169 175 173
0.82257360 -0.17134385 0.79751980 175 181 179
0.82380140 -0.17074123 0.79471493 168 171 172
0.82420874 -0.17054130 0.79378438 165 167 169
0.82461518 -0.17034185 0.79285598 164 165 167
0.82502061 -0.17014284 0.79192972 165 166 168
-0.92761374 -0.35937959 1.68629813 193 194 194
-0.92469907 -0.35937959 1.68629813 189 190 190
-0.91949713 -0.35848781 1.68211377 190 191 191
-0.92346418 -0.36117649 1.69472957 190 191 191
0.81857044 -0.17056741 0.80034459 175 175 176
0.82369292 -0.17076902 0.80129057 171 172 173
0.82216239 -0.17016560 0.79845917 168 169 169
0.82064265 -0.16956642 0.79564768 172 173 173
0.82269073 -0.16857712 0.79100567 168 169 171
0.82309747 -0.16838065 0.79008371 167 168 170
0.82254571 -0.16798906 0.78824633 164 164 168
-0.94224787 -0.36095443 1.70753610 188 189 191
-0.93225181 -0.35824728 1.69472957 188 189 190
-0.92700505 -0.35735390 1.69050336 186 187 188
-0.92408317 -0.35735390 1.69050336 181 182 183
0.81857044 -0.16918407 0.80034459 174 175 177
0.81802219 -0.16878553 0.79845917 175 176 178
0.82175022 -0.16898456 0.79940075 166 167 168
0.82023019 -0.16838886 0.79658264 158 159 161
0.81968063 -0.16799404 0.79471493 164 165 167
0.82187438 -0.16760106 0.79285598 175 176 178
0.82228303 -0.16740528 0.79192972 173 174 175
0.82269073 -0.16720994 0.79100567 172 172 173
0.82309747 -0.16701505 0.79008371 168 168 169
0.82254571 -0.16662665 0.78824633 173 173 174
-0.93693650 -0.35710359 1.70324588 192 192 194
0.82272041 -0.16780074 0.80034459 170 171 173
0.82023019 -0.16701202 0.79658264 159 160 162
0.81968063 -0.16662043 0.79471493 162 163 165
0.82187438 -0.16623068 0.79285598 175 176 178
0.82228303 -0.16603649 0.79192972 177 178 179
0.82269073 -0.16584274 0.79100567 179 180 180
0.82213926 -0.16545661 0.78916395 177 178 178
0.82159042 -0.16507228 0.78733081 176 177 177
0.82390815 -0.16526422 0.78824633 171 172 173
0.82369292 -0.16661413 0.80129057 171 175 176
0.82283676 -0.16505334 0.79378438 174 175 177
0.82324475 -0.16486029 0.79285598 173 175 176
0.82269073 -0.16447556 0.79100567 168 171 171
0.82213926 -0.16409262 0.78916395 165 168 167
0.82254571 -0.16390181 0.78824633 164 168 168
0.82324475 -0.16348991 0.79285598 165 167 168
0.82269073 -0.16310836 0.79100567 155 159 158
0.82213926 -0.16272861 0.78916395 155 159 158
0.82254571 -0.16253938 0.78824633 160 164 164
0.82420874 -0.16230935 0.79378438 166 167 167
0.82269073 -0.16174118 0.79100567 164 165 165
0.82309747 -0.16155267 0.79008371 166 167 167
0.82324475 -0.16074914 0.79285598 168 170 170
0.82269073 -0.16037399 0.79100567 168 172 171
0.82213926 -0.16000059 0.78916395 166 170 169
0.58125144 -0.12016292 0.96154869 161 161 161
0.59042478 -0.12102123 0.96841693 165 168 168
0.57960719 -0.11816574 0.95882863 159 160 160
0.58126444 -0.11816574 0.95882863 167 168 168
0.58623844 -0.11883809 0.96428424 174 178 180
0.58874261 -0.11900737 0.96565789 162 166 169
0.57878852 -0.11634392 0.95747435 163 163 165
0.58044344 -0.11634392 0.95747435 164 164 166
0.58457541 -0.11683900 0.96154869 163 163 168
0.58707005 -0.11700496 0.96291453 151 151 158
0.57794994 -0.11485122 0.95882863 167 167 169
0.57715815 -0.11436594 0.95477724 165 164 166
0.58540696 -0.11501390 0.96018672 137 136 145
0.57713360 -0.11303408 0.95747435 167 167 169
0.57715815 -0.11271568 0.95477724 164 163 165
0.58623737 -0.11351508 0.96154869 132 131 140
0.58706659 -0.11335430 0.96018672 138 137 146
0.58872616 -0.11335430 0.96018672 152 151 160
0.59204543 -0.11335430 0.96018672 178 178 180
0.57708412 -0.11201201 0.96291453 167 167 169
0.57629269 -0.11153670 0.95882863 173 173 175
0.57794994 -0.11153670 0.95882863 168 168 169
0.57797217 -0.11122207 0.95612389 162 162 163
0.57962477 -0.11122207 0.95612389 160 160 161
0.58292168 -0.11153670 0.95882863 154 153 158
0.58707005 -0.11201201 0.96291453 154 153 158
0.58789933 -0.11185312 0.96154869 157 157 160
0.58956128 -0.11185312 0.96154869 164 164 166
0.59204543 -0.11169469 0.96018672 172 173 174
0.57785964 -0.11113701 0.96980232 184 184 184
0.57788241 -0.11081993 0.96703541 186 186 184
0.57790506 -0.11050465 0.96428424 191 191 189
0.57792753 -0.11019116 0.96154869 185 185 184
0.57876855 -0.11003508 0.96018672 171 171 170
0.57797217 -0.10956949 0.95612389 160 159 157
0.57962477 -0.10956949 0.95612389 154 153 151
0.58292168 -0.10987945 0.95882863 149 148 149
0.58707005 -0.11034768 0.96291453 148 148 150
0.58873439 -0.11034768 0.96291453 153 153 155
0.58956128 -0.11019116 0.96154869 160 161 163
0.59206301 -0.11034768 0.96291453 161 163 165
0.59288520 -0.11019116 0.96154869 162 166 167
0.59454715 -0.11019116 0.96154869 165 169 170
0.59705597 -0.11034768 0.96291453 165 168 169
0.57868749 -0.10961761 0.97119176 170 168 168
0.57870793 -0.10930441 0.96841693 163 163 162
0.57872826 -0.10899300 0.96565789 161 160 160
0.57874846 -0.10868336 0.96291453 163 163 163
0.57958949 -0.10852920 0.96154869 167 167 167
0.57797217 -0.10791691 0.95612389 172 172 172
0.58044344 -0.10806933 0.95747435 181 180 180
0.58790517 -0.10883796 0.96428424 162 162 164
0.58957183 -0.10883796 0.96428424 157 158 160
0.59123856 -0.10883796 0.96428424 160 161 164
0.59290522 -0.10883796 0.96428424 161 164 167
0.59372735 -0.10868336 0.96291453 164 168 171
0.57955384 -0.10747705 0.96703541 157 157 159
0.57957172 -0.10717127 0.96428424 166 166 168
0.57958949 -0.10686725 0.96154869 169 169 171
0.57878852 -0.10641441 0.95747435 170 170 172
0.58126444 -0.10656493 0.95882863 174 174 176
0.58457541 -0.10686725 0.96154869 169 169 171
0.58790517 -0.10717127 0.96428424 160 160 162
0.58957183 -0.10717127 0.96428424 160 160 163
0.59123856 -0.10717127 0.96428424 165 165 169
0.59374982 -0.10732394 0.96565789 166 168 172
0.59457189 -0.10717127 0.96428424 168 172 175
0.58121210 -0.10610834 0.96980232 166 166 168
0.58122528 -0.10580560 0.96703541 159 159 161
0.58123839 -0.10550459 0.96428424 165 165 167
0.57960719 -0.10490768 0.95882863 162 162 164
0.58126444 -0.10490768 0.95882863 160 160 162
0.58540577 -0.10535473 0.96291453 157 157 159
0.58874261 -0.10565488 0.96565789 154 154 156
0.58957183 -0.10550459 0.96428424 156 156 158
0.59123856 -0.10550459 0.96428424 164 164 166
0.59374982 -0.10565488 0.96565789 167 168 169
0.59372735 -0.10535473 0.96291453 168 171 171
0.59708792 -0.10565488 0.96565789 174 176 177
0.59875703 -0.10565488 0.96565789 175 176 177
0.60042608 -0.10565488 0.96565789 158 158 160
0.58121210 -0.10443211 0.96980232 174 174 176
0.58122528 -0.10413416 0.96703541 158 158 160
0.58123839 -0.10383790 0.96428424 163 163 165
0.57960719 -0.10325041 0.95882863 160 160 162
0.58126444 -0.10325041 0.95882863 163 163 165
0.58540577 -0.10369041 0.96291453 166 166 168
0.58790517 -0.10383790 0.96428424 162 162 164
0.58957183 -0.10383790 0.96428424 159 159 160
0.59208077 -0.10398582 0.96565789 160 161 161
0.59374982 -0.10398582 0.96565789 167 167 167
0.59457189 -0.10383790 0.96428424 172 174 173
0.59793973 -0.10413416 0.96703541 179 180 180
0.59875703 -0.10398582 0.96565789 178 178 178
0.60042608 -0.10398582 0.96565789 154 154 155
0.60123867 -0.10383790 0.96428424 153 153 155
0.60290533 -0.10383790 0.96428424 166 166 168
0.60371327 -0.10369041 0.96291453 178 177 181
0.58038175 -0.10260909 0.96841693 163 163 164
0.57958949 -0.10188137 0.96154869 167 167 168
0.57878852 -0.10144967 0.95747435 172 171 171
0.58044344 -0.10144967 0.95747435 180 179 179
0.58292168 -0.10159316 0.95882863 181 181 181
0.58623737 -0.10188137 0.96154869 182 182 182
0.58789933 -0.10188137 0.96154869 180 180 180
0.59039873 -0.10202608 0.96291453 177 178 178
0.59206301 -0.10202608 0.96291453 177 179 178
0.59288520 -0.10188137 0.96154869 178 180 179
0.59623861 -0.10217121 0.96428424 175 177 176
0.59705597 -0.10202608 0.96291453 166 166 166
0.59957194 -0.10217121 0.96428424 160 160 160
0.60038465 -0.10202608 0.96291453 153 153 155
0.60119498 -0.10188137 0.96154869 159 159 161
0.58041281 -0.10036176 0.96291453 162 161 161
0.58790517 -0.10050453 0.96428424 174 174 176
0.58873439 -0.10036176 0.96291453 174 175 177
0.59290522 -0.10050453 0.96428424 168 171 173
0.59372735 -0.10036176 0.96291453 158 162 161
0.59708792 -0.10064770 0.96565789 154 157 156
0.59790528 -0.10050453 0.96428424 161 161 161
0.59957194 -0.10050453 0.96428424 169 169 169
0.59290522 -0.09883784 0.96428424 159 162 164
0.59372735 -0.09869745 0.96291453 158 159 161
0.59623861 -0.09883784 0.96428424 165 167 169
0.59705597 -0.09869745 0.96291453 162 164 166
0.59872031 -0.09869745 0.96291453 156 158 160
0.59038579 -0.09675825 0.96018672 163 165 169
0.59454715 -0.09689549 0.96154869 168 171 173
0.59536463 -0.09675825 0.96018672 162 166 167
0.59702420 -0.09675825 0.96018672 158 162 163
0.59122324 -0.09523353 0.96154869 174 175 178
0.59454715 -0.09523353 0.96154869 165 166 169
0.59452254 -0.09496413 0.95882863 170 171 173
0.59617978 -0.09496413 0.95882863 163 164 166
0.59539169 -0.09370448 0.96291453 161 162 166
0.59536463 -0.09343904 0.96018672 172 173 175
0.52817994 -0.08517349 0.90748572 171 171 173
0.52833390 -0.08494606 0.90506256 170 170 172
0.52888799 -0.08371704 0.90870219 171 171 173
0.52904028 -0.08349320 0.90627253 165 165 167
0.52959788 -0.08225669 0.90992194 166 165 167
0.53045857 -0.08214643 0.90870219 164 163 164
0.51425499 -0.08025307 0.90506256 176 176 180
0.52103490 -0.08057581 0.90870219 176 175 177
0.52260548 -0.08057581 0.90870219 176 175 177
0.52574676 -0.08057581 0.90870219 163 162 164
0.52817994 -0.08046794 0.90748572 161 160 162
0.52904028 -0.08036036 0.90627253 162 161 161
0.53202921 -0.08057581 0.90870219 155 154 154
0.51425499 -0.07868875 0.90506256 177 178 181
0.51650888 -0.07879394 0.90627253 181 182 184
0.51946425 -0.07900519 0.90870219 185 185 187
0.52103490 -0.07900519 0.90870219 182 181 183
0.52260548 -0.07900519 0.90870219 182 182 184
0.52487969 -0.07911123 0.90992194 178 177 179
0.52574676 -0.07900519 0.90870219 178 177 179
0.52661145 -0.07889943 0.90748572 176 175 177
0.52817994 -0.07889943 0.90748572 162 161 163
0.52833390 -0.07868875 0.90506256 149 148 149
0.53060669 -0.07879394 0.90627253 153 152 154
0.53288549 -0.07889943 0.90748572 173 173 175
0.53517044 -0.07900519 0.90870219 172 172 174
0.51563185 -0.07733091 0.90748572 179 182 184
0.51789367 -0.07743457 0.90870219 182 183 186
0.52086067 -0.07764273 0.91114497 179 180 183
0.52173424 -0.07753851 0.90992194 179 179 181
0.52260548 -0.07743457 0.90870219 182 182 184
0.52487969 -0.07753851 0.90992194 172 172 176
0.52574676 -0.07743457 0.90870219 170 170 174
0.52731735 -0.07743457 0.90870219 175 174 179
0.52817994 -0.07733091 0.90748572 173 172 177
0.52904028 -0.07722753 0.90627253 166 166 171
0.53131700 -0.07733091 0.90748572 170 169 175
0.53359985 -0.07743457 0.90870219 176 176 179
0.53517044 -0.07743457 0.90870219 174 174 176
0.51632303 -0.07586395 0.90870219 179 183 185
0.51789367 -0.07586395 0.90870219 174 174 178
0.52086067 -0.07606789 0.91114497 176 176 180
0.52173424 -0.07596578 0.90992194 178 178 181
0.52330697 -0.07596578 0.90992194 178 178 182
0.52487969 -0.07596578 0.90992194 162 162 165
0.52574676 -0.07586395 0.90870219 163 163 166
0.52731735 -0.07586395 0.90870219 174 174 179
0.52817994 -0.07576240 0.90748572 179 179 184
0.52904028 -0.07566111 0.90627253 179 179 183
0.53131700 -0.07576240 0.90748572 175 174 179
0.53359985 -0.07586395 0.90870219 170 170 172
0.53517044 -0.07586395 0.90870219 170 170 172
0.51632303 -0.07429334 0.90870219 180 181 183
0.51858878 -0.07439306 0.90992194 174 174 176
0.52086067 -0.07449305 0.91114497 176 176 178
0.52173424 -0.07439306 0.90992194 175 175 177
0.52260548 -0.07429334 0.90870219 172 172 174
0.52417612 -0.07429334 0.90870219 161 161 163
0.52574676 -0.07429334 0.90870219 167 167 169
0.52731735 -0.07429334 0.90870219 176 177 179
0.52817994 -0.07419388 0.90748572 174 175 177
0.52904028 -0.07409469 0.90627253 169 169 171
0.53131700 -0.07419388 0.90748572 159 159 161
