ply
format ascii 1.0
element vertex 1060
property float x
property float y
property float z
property uchar red
property uchar green
property uchar blue
end_header
0.53007978 -0.57012992 1.02800142 160 160 161
0.53007293 -0.54994590 1.02577064 161 163 164
0.52987865 -0.52979566 1.02358643 163 165 165
0.53007578 -0.50990555 1.02133566 163 162 160
0.53052374 -0.48899911 1.01896319 161 160 159
0.52609163 -0.49873644 1.02018867 165 164 162
0.52992253 -0.47002833 1.01689522 152 152 152
0.52999030 -0.44943781 1.01468232 157 158 158
0.53014575 -0.42910062 1.01252084 148 150 154
0.52972269 -0.40961572 1.01045840 157 158 160
0.52997376 -0.38954393 1.00826379 156 158 160
0.53017295 -0.36949409 1.00605694 157 158 160
0.52998022 -0.34954615 1.00384968 164 164 164
0.53003836 -0.32935821 1.00151757 166 168 170
0.53066740 -0.30809412 0.99899147 166 167 170
0.52710918 -0.31771404 1.00022854 167 167 170
0.52986100 -0.29014010 0.99692529 166 167 168
0.52989834 -0.27042451 0.99461967 166 167 170
0.53012764 -0.24988322 0.99220815 164 165 167
0.53004432 -0.22978255 0.98992884 160 161 162
0.52979156 -0.20977972 0.98776194 161 161 164
0.53020372 -0.18960935 0.98560001 160 160 162
0.53007348 -0.16963530 0.98351159 159 159 160
0.52971985 -0.14985414 0.98141481 167 167 167
0.53045099 -0.12831905 0.97905957 165 166 168
0.52878759 -0.13837847 0.98021090 162 162 163
0.53012065 -0.10939669 0.97694032 168 168 172
0.52995214 -0.08979179 0.97459996 157 156 158
0.52980332 -0.07025804 0.97235901 150 150 152
0.53021278 -0.05004106 0.97017131 148 148 150
0.52997978 -0.02979059 0.96807762 150 148 149
0.52982699 -0.00957656 0.96600138 147 145 146
0.53014031 0.01025983 0.96394135 154 153 154
0.52999716 0.03023539 0.96191120 149 148 150
0.53029190 0.05447560 0.95937917 153 152 150
0.52924444 0.04461070 0.96047530 152 148 147
0.53007168 0.06984417 0.95766191 142 139 139
0.53009308 0.08937275 0.95535707 157 156 157
0.53005999 0.10977938 0.95284366 158 158 159
0.52992624 0.13016815 0.95033936 162 162 164
0.52990629 0.15043172 0.94788636 159 159 160
0.53001667 0.17040368 0.94536324 164 165 166
0.53003599 0.19019279 0.94275978 158 159 160
0.53043834 0.21509651 0.93938645 170 171 172
0.52970105 0.20552412 0.94072669 163 163 163
0.53000502 0.22946614 0.93751901 165 164 165
0.52997242 0.24974378 0.93483232 162 162 164
0.53000439 0.26997521 0.93215593 158 158 159
0.53000250 0.29013581 0.92953995 159 159 158
0.52997689 0.31029636 0.92699234 159 159 159
0.52998339 0.33046813 0.92461276 156 156 156
0.53011049 0.35038519 0.92237545 160 161 159
0.53179203 0.37741338 0.91974040 153 149 148
0.52924741 0.36758347 0.92068299 153 152 150
0.52991009 0.39011682 0.91864403 146 145 145
0.52975942 0.41007383 0.91802593 27 28 28
0.52959900 0.42959017 0.91784138 0 0 0
0.53016433 0.44987716 0.91704863 0 0 0
0.52987325 0.46935905 0.91553880 0 0 0
0.52997660 0.48985787 0.91346723 0 0 0
0.53009276 0.50909078 0.91109190 0 0 0
0.55046062 -0.70042028 1.03826668 0 0 0
0.55041275 -0.68959343 1.03817634 0 0 0
0.55027797 -0.66969086 1.03792228 1 1 1
0.54994548 -0.64971909 1.03641618 151 154 153
0.54978912 -0.62996694 1.03389211 173 174 174
0.55025897 -0.61027697 1.03176233 164 165 164
0.54973637 -0.58982990 1.02944749 155 156 157
0.55029433 -0.57000761 1.02717673 159 160 160
0.55001739 -0.54996000 1.02501343 154 156 155
0.55002076 -0.52989543 1.02290272 154 154 156
0.55236009 -0.50216350 1.01973493 171 172 173
0.54946002 -0.51227446 1.02097760 166 166 168
0.54994992 -0.49010414 1.01847246 165 165 164
0.54994521 -0.46932804 1.01618610 157 158 158
0.54981117 -0.44941948 1.01406494 152 152 154
0.55014317 -0.43043577 1.01203763 157 159 161
0.55003053 -0.41056492 1.00989313 156 157 158
0.54995185 -0.39069244 1.00774091 158 159 161
0.54987784 -0.37090663 1.00560505 159 160 163
0.54986988 -0.35016422 1.00331472 159 159 160
0.55455806 -0.32079737 0.99981838 164 165 166
0.54984868 -0.33027971 1.00105075 164 164 166
0.54992235 -0.30957294 0.99864279 170 170 173
0.54984365 -0.28990800 0.99636459 163 163 166
0.55014353 -0.27020564 0.99405599 166 167 168
0.55004979 -0.24986745 0.99168511 164 164 166
0.54991175 -0.22976342 0.98944747 167 169 170
0.54985508 -0.21035094 0.98736492 156 156 160
0.55024891 -0.19023015 0.98524593 161 161 162
0.54995714 -0.16961282 0.98310383 162 162 163
0.55679892 -0.14109213 0.97993769 163 162 166
0.54960627 -0.14992634 0.98102104 165 164 165
0.55030133 -0.12974146 0.97882963 163 162 164
0.54246787 -0.13941528 0.98005646 149 147 148
0.54997110 -0.11008439 0.97663586 167 167 169
0.55009413 -0.09047978 0.97433841 168 169 170
0.54983807 -0.07010726 0.97185999 155 154 155
0.55008934 -0.04994821 0.96960552 148 147 149
0.55005883 -0.02985755 0.96747747 153 151 151
0.54987635 -0.00959971 0.96541929 151 152 154
0.54992020 0.01031780 0.96343696 147 147 151
0.55016012 0.03005839 0.96145760 147 146 147
0.55049314 0.05233007 0.95916653 151 147 147
0.54824549 0.04269983 0.96024548 158 156 154
0.54992387 0.06996687 0.95726139 146 146 150
0.54996945 0.08939254 0.95497714 133 131 135
0.55006476 0.10964690 0.95250668 153 154 156
0.55004005 0.12990605 0.95000215 162 163 163
0.54995673 0.15011728 0.94750721 161 160 161
0.54996973 0.17017489 0.94492554 158 156 157
0.55002102 0.19009392 0.94231903 158 157 158
0.55046258 0.21347550 0.93922274 161 162 161
0.54921944 0.20418851 0.94049901 147 149 153
0.54998649 0.22965875 0.93712064 162 162 162
0.54997110 0.25005663 0.93444050 160 161 162
0.54999773 0.27027241 0.93174950 163 164 165
0.55004748 0.29038448 0.92911324 161 161 161
0.55006289 0.31034148 0.92654614 166 165 165
0.55003375 0.33020849 0.92412875 153 153 152
0.54997937 0.35001647 0.92188885 153 154 153
0.55070759 0.37407789 0.91950273 153 152 154
0.54873598 0.36460272 0.92042073 155 156 158
0.55016528 0.38994020 0.91809441 152 151 149
0.54990000 0.41027598 0.91755714 48 47 47
0.54984388 0.43005478 0.91746318 0 0 0
0.54978116 0.44933318 0.91677446 0 0 0
0.55010020 0.47004325 0.91516375 0 0 0
0.54999757 0.49036705 0.91305259 0 0 0
0.55001144 0.50879224 0.91073335 0 0 0
0.57000076 -0.70017469 1.03790263 0 0 0
0.56997081 -0.68937532 1.03784802 0 0 0
0.56959891 -0.66964897 1.03750350 29 30 30
0.57023313 -0.64986220 1.03550700 167 171 171
0.57000499 -0.62997636 1.03318739 169 172 172
0.57008726 -0.60975668 1.03094975 160 160 160
0.56997757 -0.59010076 1.02866554 161 163 163
0.56997298 -0.57006954 1.02641000 161 162 163
0.56979046 -0.54962206 1.02422420 159 160 160
0.57017285 -0.53043156 1.02223830 164 164 165
0.57114803 -0.50500927 1.01947809 168 168 168
0.56909203 -0.51478845 1.02060662 163 163 162
0.57002057 -0.48938632 1.01781230 165 165 166
0.56975613 -0.46982014 1.01562088 144 145 147
0.57013331 -0.45059630 1.01353762 153 154 155
0.57006899 -0.43039816 1.01137949 153 154 156
0.56996674 -0.41046798 1.00925501 157 159 161
0.56984898 -0.39060986 1.00711082 158 159 161
0.57005254 -0.37042691 1.00492225 162 163 164
0.57015281 -0.35048433 1.00272732 159 159 161
0.57085944 -0.32292177 0.99959275 169 169 170
0.56927586 -0.33349716 1.00084018 167 168 170
0.57002900 -0.30967696 0.99810986 163 164 167
0.57004069 -0.28961192 0.99579842 169 172 174
0.57014180 -0.27000368 0.99351248 168 169 170
0.57004040 -0.24978944 0.99118390 165 167 168
0.56975537 -0.22968659 0.98895005 165 166 169
0.57012902 -0.21032623 0.98688818 164 164 165
0.57007769 -0.19026470 0.98482861 161 162 163
0.56965792 -0.16989294 0.98272771 165 164 165
0.57135572 -0.14252683 0.97976181 171 171 173
0.56976359 -0.15205218 0.98082008 164 165 166
0.57015741 -0.12988255 0.97839973 170 171 172
0.57008437 -0.11018528 0.97619106 166 166 168
0.56999729 -0.09055307 0.97391052 168 171 172
0.56992540 -0.07014822 0.97139333 151 150 150
0.56989780 -0.04992182 0.96909151 150 150 151
0.57012688 -0.02986883 0.96689266 152 152 154
0.57003786 -0.00972406 0.96484696 151 152 154
0.56979692 0.01046474 0.96288492 145 144 146
0.57613299 0.03931940 0.95994326 147 147 148
0.56993009 0.02996282 0.96099546 154 152 153
0.57028700 0.05021642 0.95894287 150 147 149
0.56293767 0.04098427 0.96007656 162 163 163
0.56995216 0.06983740 0.95687325 143 140 143
0.57002140 0.08973527 0.95456350 151 151 150
0.56991966 0.11006278 0.95205651 161 160 161
0.56998685 0.13003200 0.94958317 163 163 164
0.56998912 0.15006117 0.94709076 165 165 165
0.56998922 0.17001103 0.94450704 165 165 166
0.57004985 0.18990657 0.94188962 158 157 158
0.57064668 0.21237160 0.93894550 154 154 155
0.56862548 0.20261556 0.94028900 158 159 160
0.56976513 0.22974864 0.93669179 159 160 160
0.57002877 0.24964854 0.93406114 162 162 164
0.56999699 0.26985699 0.93137126 162 163 163
0.57004683 0.28999745 0.92872406 163 163 162
0.56999713 0.30996143 0.92614024 161 160 159
0.57000603 0.32988639 0.92366054 140 138 140
0.56987559 0.34972436 0.92137057 141 141 143
0.57050939 0.37087770 0.91916712 155 156 157
0.56647459 0.36169332 0.92019008 157 162 159
0.57019157 0.38975016 0.91751056 149 150 151
0.57011063 0.40998409 0.91690411 64 64 64
0.57030673 0.43016711 0.91688906 0 0 0
0.56967656 0.44988796 0.91625180 0 0 0
0.57003192 0.47024577 0.91469956 0 0 0
0.57000281 0.49012068 0.91262911 0 0 0
0.57001594 0.50852518 0.91031936 0 0 0
0.58153696 -0.70002436 1.03767979 0 0 0
0.58963996 -0.68990116 1.03751857 0 0 0
0.58986659 -0.66977829 1.03685458 74 77 77
0.58978256 -0.64981107 1.03468610 160 163 164
0.59024990 -0.63005791 1.03247604 166 168 168
0.58989593 -0.61025560 1.03023776 159 161 164
0.59016304 -0.58987896 1.02786697 159 161 162
0.58986472 -0.56962423 1.02562916 163 165 167
0.59010696 -0.55020598 1.02355139 160 161 163
0.58996137 -0.53007647 1.02147737 167 167 167
0.59079600 -0.50765959 1.01911507 158 158 158
0.58712270 -0.51728601 1.02024592 162 161 161
0.58968017 -0.48983434 1.01726375 165 166 167
0.59024548 -0.47028104 1.01506333 153 156 159
0.59009556 -0.45026574 1.01288040 152 153 156
0.59003369 -0.43029709 1.01075973 154 156 158
0.58988518 -0.41037574 1.00862986 158 159 161
0.59003187 -0.39011040 1.00641151 158 157 158
0.59011798 -0.37011361 1.00426016 158 158 161
0.58994567 -0.35049027 1.00212473 162 163 165
0.59077964 -0.32640447 0.99939655 164 163 164
0.58886947 -0.33580830 1.00051836 162 163 166
0.59004429 -0.30996468 0.99759898 160 161 163
0.59014409 -0.28942902 0.99526221 162 162 164
0.59004586 -0.26997213 0.99300393 169 170 172
0.58978866 -0.25036376 0.99073182 165 168 169
0.59000309 -0.23011278 0.98847519 164 165 168
0.59023002 -0.21015550 0.98639285 163 163 165
0.59000496 -0.19021560 0.98435708 163 163 165
0.58985827 -0.17029837 0.98229952 163 163 165
0.59042797 -0.14444891 0.97953054 161 161 164
0.58966188 -0.15461484 0.98064148 161 162 163
0.59015218 -0.12981698 0.97790560 162 163 166
0.59003385 -0.11012974 0.97569883 171 171 170
0.58997178 -0.09052527 0.97342525 172 171 172
0.58997830 -0.07013188 0.97100870 166 165 165
0.58986467 -0.04978366 0.96862812 159 159 161
0.59001037 -0.02973820 0.96636872 150 148 148
0.59020329 -0.00982694 0.96431728 149 149 151
0.58992768 0.01035147 0.96236828 151 150 149
0.59118923 0.03760741 0.95974439 145 144 145
0.58943290 0.02784751 0.96071887 154 152 150
0.59004264 0.04991281 0.95852278 146 142 143
0.59007475 0.06961737 0.95645278 146 145 146
0.59001143 0.09017775 0.95411516 156 156 156
0.59002946 0.11051897 0.95158428 159 160 161
0.58996883 0.13000659 0.94916023 161 161 162
0.58998471 0.15013029 0.94662802 162 162 164
0.58996899 0.17014110 0.94401335 166 167 167
0.59908994 0.19934752 0.93999207 155 155 156
0.58999723 0.18991413 0.94142632 160 160 161
0.59023567 0.21094541 0.93868129 157 157 158
0.58477068 0.20122874 0.94010629 148 152 157
0.58999245 0.23020014 0.93617769 159 159 161
0.59003820 0.24968603 0.93357337 160 161 161
0.58999860 0.26984952 0.93087065 162 162 161
0.59003576 0.28985727 0.92821290 161 161 160
0.58997930 0.30983298 0.92560832 165 166 166
0.58997156 0.32973247 0.92309290 118 117 123
0.59245081 0.35732289 0.91977035 153 150 148
0.58942492 0.34809389 0.92094713 152 153 153
0.59010423 0.36956212 0.91860075 150 149 148
0.59020129 0.38947864 0.91679058 146 146 148
0.59007537 0.40972776 0.91607668 84 84 84
0.59018587 0.43020096 0.91608628 0 0 0
0.58979779 0.45048701 0.91548363 0 0 0
0.59015269 0.47035585 0.91404941 0 0 0
0.58997248 0.48980005 0.91208462 0 0 0
0.59003592 0.50825472 0.90985310 0 0 0
0.60994070 -0.69072547 1.03718241 0 0 0
0.60999584 -0.67054518 1.03619681 113 114 114
0.61004520 -0.65027858 1.03389466 169 172 173
0.60991078 -0.62981994 1.03172516 163 166 167
0.61010315 -0.60977160 1.02941445 161 163 162
0.60999323 -0.59007518 1.02713893 159 160 160
0.60998275 -0.57019533 1.02492542 166 167 166
0.61001549 -0.55013672 1.02279752 165 165 166
0.61409645 -0.52191670 1.01972735 162 164 165
0.60916681 -0.53140462 1.02089315 163 164 165
0.60969770 -0.50985239 1.01866185 163 165 166
0.61023033 -0.49014016 1.01660283 163 165 166
0.61005414 -0.47030563 1.01445165 159 160 163
0.60999225 -0.45025216 1.01226397 159 162 164
0.60995556 -0.43018264 1.01010986 152 155 157
0.61000716 -0.40980561 1.00792338 156 157 158
0.61010810 -0.38977996 1.00573802 155 155 157
0.60999594 -0.37005729 1.00362996 159 160 161
0.60986267 -0.35030340 1.00148035 157 158 160
0.61045696 -0.32881894 0.99906044 163 164 164
0.60767823 -0.33829913 1.00022751 156 156 160
0.60991801 -0.30992342 0.99701209 167 167 169
0.61021370 -0.28956068 0.99472403 161 164 167
0.60998380 -0.26987396 0.99244888 167 168 170
0.60984932 -0.25051890 0.99021598 164 167 169
0.61003638 -0.23019782 0.98798145 161 163 165
0.61020357 -0.21005541 0.98586159 163 164 165
0.61000957 -0.19011542 0.98380803 161 162 164
0.60988850 -0.17020250 0.98174653 158 158 160
0.61049937 -0.14704648 0.97927886 165 165 166
0.60891048 -0.15700736 0.98038263 158 157 160
0.61009926 -0.12974561 0.97736802 163 164 165
0.61001211 -0.11009498 0.97516653 164 164 165
0.60996773 -0.09047569 0.97289272 171 172 172
0.61001201 -0.07010157 0.97050765 168 168 171
0.60992075 -0.04980426 0.96813762 163 162 162
0.60993220 -0.02956831 0.96582570 145 143 143
0.61006223 -0.00966810 0.96374352 151 149 149
0.61012928 0.01010503 0.96179677 145 145 147
0.61102967 0.03446304 0.95944802 152 151 151
0.60849395 0.02500211 0.96043096 154 155 156
0.60993915 0.05014979 0.95797096 143 142 143
0.61002184 0.06965798 0.95596587 139 137 138
0.61001692 0.08997162 0.95367923 153 151 151
0.61005061 0.11029600 0.95119531 157 158 159
0.60998807 0.12973452 0.94874851 160 161 164
0.60993923 0.14980508 0.94617913 163 162 163
0.60998469 0.16973945 0.94357210 161 160 161
0.61215260 0.19842282 0.93978098 153 155 155
0.60972549 0.18819368 0.94116439 158 159 160
0.61002878 0.21028091 0.93827528 157 157 156
0.61002572 0.22994145 0.93569299 153 154 155
0.61001074 0.24948720 0.93308977 161 161 162
0.61003517 0.26972529 0.93037671 162 162 162
0.61000059 0.28982878 0.92768587 162 162 162
0.60998455 0.30982574 0.92503826 163 166 166
0.60998489 0.32969459 0.92253013 157 160 161
0.61127456 0.35491656 0.91943420 157 157 157
0.60924035 0.34516045 0.92066264 139 139 141
0.60993947 0.37019578 0.91784593 153 154 155
0.61005865 0.39050164 0.91593319 154 155 154
0.61010598 0.40996356 0.91509108 100 100 101
0.61011586 0.42974071 0.91510601 0 0 0
0.60978739 0.45005882 0.91461304 0 0 0
0.61017127 0.46988579 0.91328087 0 0 0
0.61001515 0.49013040 0.91133918 0 0 0
0.60992208 0.50862870 0.90924321 0 0 0
0.63041323 -0.69056805 1.03694626 7 7 7
0.62975692 -0.66983745 1.03537035 162 164 165
0.63022439 -0.64974243 1.03308716 165 168 168
0.62972119 -0.63028411 1.03104639 163 164 166
0.63025993 -0.61014655 1.02870669 158 159 160
0.62977860 -0.58984897 1.02638461 160 162 163
0.63028906 -0.56995435 1.02415047 166 169 169
0.62992787 -0.55004711 1.02203676 166 169 171
0.63099405 -0.52526339 1.01944197 170 173 174
0.62856540 -0.53460179 1.02049487 163 167 169
0.63019842 -0.50997029 1.01792842 165 167 169
0.63009728 -0.49037899 1.01593754 166 168 171
0.62993315 -0.47026753 1.01377670 164 166 169
0.62999481 -0.44999598 1.01157122 155 157 159
0.63009034 -0.42959602 1.00939725 157 158 160
0.63009159 -0.40957160 1.00725019 155 155 157
0.62999327 -0.38970544 1.00509098 154 157 158
0.62990415 -0.36992906 1.00295464 153 154 156
0.63374650 -0.34210192 0.99979266 161 161 161
0.62945814 -0.35117337 1.00092833 156 156 157
0.63008258 -0.33009105 0.99858022 160 161 163
0.62998126 -0.31052016 0.99644633 160 159 162
0.62997323 -0.29008560 0.99418319 166 168 170
0.62995976 -0.26971319 0.99185908 166 165 167
0.62986996 -0.25025228 0.98963040 168 168 170
0.63009599 -0.22999839 0.98740728 164 164 165
0.63012413 -0.20994488 0.98528139 167 168 171
0.63002605 -0.18999822 0.98320145 163 164 165
0.63896074 -0.16142090 0.97996110 168 169 171
0.62971176 -0.17022818 0.98114287 155 155 157
0.63023791 -0.14967715 0.97895375 163 162 164
0.62467426 -0.15919080 0.98013493 159 158 158
0.63004860 -0.12972993 0.97676760 160 161 163
0.63007301 -0.11008967 0.97456449 162 164 165
0.63003261 -0.09046571 0.97229032 168 169 171
0.63003174 -0.07010465 0.96991452 165 164 164
0.62997121 -0.04982631 0.96756340 169 169 169
0.63001738 -0.02965375 0.96528100 157 156 155
0.62994064 -0.00948218 0.96312750 149 146 147
0.63001681 0.01029344 0.96114980 149 148 149
0.63075545 0.03104625 0.95915818 142 141 143
0.62522443 0.02217959 0.96016704 147 144 146
0.62998442 0.04999669 0.95741582 147 145 145
0.62993632 0.06987621 0.95543908 147 146 148
0.62999646 0.09029449 0.95317037 152 152 153
0.63004239 0.11059629 0.95072087 142 138 140
0.62997530 0.12991557 0.94825750 162 162 163
0.62999410 0.15002502 0.94565698 158 158 158
0.62997269 0.17002896 0.94302982 150 149 152
0.63113638 0.19629985 0.93954646 144 143 148
0.62952522 0.18641878 0.94088747 163 164 164
0.63000713 0.21023984 0.93773672 158 159 160
0.63017810 0.23018356 0.93508303 154 155 156
0.62982737 0.24958477 0.93253674 158 159 159
0.63009529 0.26942476 0.92987761 165 164 163
0.63005090 0.28954043 0.92716669 160 161 162
0.62996984 0.30951365 0.92451168 162 164 165
0.63009876 0.32959947 0.92195443 151 154 154
0.63048992 0.35302156 0.91908146 162 165 164
0.62818993 0.34257307 0.92039063 117 115 121
0.63007315 0.37048489 0.91714430 154 156 156
0.63007792 0.39024745 0.91520524 158 158 157
0.63005132 0.41025885 0.91411484 119 120 120
0.62992116 0.43001528 0.91400850 0 0 0
0.62968368 0.44969674 0.91355619 0 0 0
0.63037895 0.46963675 0.91230681 0 0 0
0.62984134 0.49001761 0.91052492 0 0 0
0.62998720 0.50836397 0.90861242 0 0 0
0.65009285 -0.69036509 1.03674966 51 53 53
0.64997259 -0.67042166 1.03459201 163 168 169
0.64995362 -0.65007114 1.03240041 164 168 167
0.65002228 -0.62981555 1.03021754 163 166 166
0.65004194 -0.60980453 1.02790476 160 162 162
0.64994709 -0.59007034 1.02564689 158 159 159
0.64996329 -0.57036259 1.02350280 165 165 166
0.65713258 -0.54000558 1.01999819 165 168 169
0.64986830 -0.54964498 1.02126822 165 167 170
0.65075175 -0.52901197 1.01909698 168 169 169
0.64473751 -0.53736959 1.02016628 170 171 173
0.64992858 -0.51049845 1.01726394 161 161 161
0.64994732 -0.49027826 1.01518838 165 166 169
0.64999486 -0.46976918 1.01299773 161 164 165
0.65011397 -0.44937333 1.01080881 149 151 153
0.65008927 -0.42933311 1.00868742 156 157 158
0.64997474 -0.40945727 1.00656947 153 156 157
0.64992038 -0.38956574 1.00441881 155 157 157
0.65002248 -0.36950492 1.00224154 150 150 151
0.65115470 -0.34471153 0.99948364 162 165 165
0.64910560 -0.35411289 1.00058453 162 163 164
0.65003743 -0.32992196 0.99790800 157 160 162
0.64996082 -0.31033142 0.99575616 166 168 170
0.64995246 -0.28995184 0.99353825 166 167 170
0.64997657 -0.26956096 0.99125152 167 169 170
0.65001055 -0.25010398 0.98904417 163 164 166
0.65005389 -0.22987656 0.98683272 160 160 162
0.65009636 -0.20986047 0.98470224 168 168 171
0.65001631 -0.18988075 0.98259334 161 162 164
0.65235946 -0.16312203 0.97969584 157 158 165
0.64904647 -0.17220115 0.98076714 161 162 164
0.64990726 -0.15005447 0.97836611 156 156 159
0.64996208 -0.12958180 0.97613454 165 165 166
0.65011323 -0.10999634 0.97395695 166 166 168
0.65001627 -0.09040548 0.97170223 168 169 171
0.65004865 -0.07011008 0.96935401 165 165 166
0.64999269 -0.04985934 0.96698324 164 165 167
0.65005306 -0.02973787 0.96469649 163 163 162
0.64999587 -0.00963917 0.96254575 148 148 147
0.65248176 0.01764902 0.95976724 153 154 155
0.64913596 0.00836263 0.96076429 143 145 147
0.64998701 0.03021261 0.95864147 146 146 148
0.65004505 0.04975927 0.95682603 142 142 144
0.65002497 0.06955713 0.95486197 151 149 146
0.64995246 0.09005824 0.95262898 143 142 142
0.65001400 0.11033237 0.95021486 157 158 158
0.64995270 0.12970070 0.94773068 160 159 158
0.64999717 0.14969359 0.94515426 159 157 157
0.65005167 0.16961085 0.94254309 160 161 162
0.65067417 0.19443025 0.93924308 159 159 160
0.64942806 0.18412327 0.94064693 157 156 156
0.65001363 0.21010733 0.93719283 155 155 155
0.64998983 0.23057059 0.93446269 157 162 164
0.65003714 0.25013934 0.93187874 156 157 159
0.65004371 0.26939605 0.92930637 153 153 154
0.65007959 0.28934599 0.92663727 157 159 159
0.65015661 0.30944913 0.92398074 156 157 158
0.65785165 0.33978353 0.91992569 157 161 162
0.64973189 0.32994277 0.92137174 157 161 161
0.65016245 0.35077248 0.91877028 159 160 160
0.64366319 0.34143815 0.92009978 152 153 153
0.65005951 0.37023511 0.91652597 155 156 156
0.65001605 0.38993563 0.91449652 150 152 154
0.64985325 0.40988469 0.91315740 135 136 137
0.64963082 0.43025686 0.91284535 0 0 0
0.65001394 0.45048590 0.91227645 0 0 0
0.64999045 0.47039562 0.91113771 0 0 0
0.65011724 0.48990090 0.90954748 0 0 0
0.65000725 0.50793328 0.90786171 0 0 0
0.66992157 -0.68999282 1.03629264 103 108 108
0.67003115 -0.66948832 1.03375130 163 167 167
0.66977128 -0.64994103 1.03172564 157 163 163
0.67023645 -0.63008971 1.02952579 162 167 168
0.66982275 -0.61015669 1.02720628 168 170 171
0.67014871 -0.58999237 1.02493483 161 164 164
0.67006614 -0.56953574 1.02271290 163 166 167
0.67382962 -0.54288549 1.01973062 162 166 165
0.66920995 -0.55153682 1.02081162 162 165 166
0.66998244 -0.53060475 1.01860050 156 156 157
0.66998985 -0.51018996 1.01654511 163 164 164
0.67005497 -0.48960062 1.01443375 165 167 169
0.67006107 -0.46929688 1.01227382 164 166 167
0.66987036 -0.44942711 1.01015595 153 155 157
0.66982656 -0.42996968 1.00809233 158 161 163
0.66998432 -0.41006277 1.00597503 154 155 157
0.67004964 -0.38960026 1.00375525 151 152 153
0.67023906 -0.36925239 1.00155647 153 153 154
0.67078033 -0.34720047 0.99912629 157 159 161
0.66742645 -0.35679338 1.00028514 163 164 165
0.66996396 -0.32975224 0.99723420 160 161 163
0.66993049 -0.31017891 0.99509674 163 164 166
0.66971827 -0.29047939 0.99296588 168 169 172
0.67011710 -0.27014610 0.99069150 164 164 164
0.67010276 -0.24994677 0.98842234 168 169 171
0.67001864 -0.22978372 0.98620349 161 161 162
0.67006965 -0.20971950 0.98404080 166 167 170
0.67001327 -0.18975819 0.98192908 161 162 163
0.67091033 -0.16599270 0.97941439 157 157 160
0.66854628 -0.17515103 0.98045687 160 162 163
0.66999840 -0.15003844 0.97777320 161 162 163
0.66994975 -0.12938740 0.97553977 163 164 167
0.67001020 -0.10986965 0.97339581 163 163 166
0.66999666 -0.09042900 0.97115488 166 167 169
0.67004998 -0.07011628 0.96880494 164 164 165
0.67000081 -0.04993825 0.96642412 166 167 167
0.67009073 -0.02982310 0.96415011 167 168 169
0.67005370 -0.00978553 0.96200147 155 156 156
0.67128374 0.01476853 0.95949072 140 141 145
0.66868007 0.00532013 0.96050741 145 146 148
0.66989680 0.03027098 0.95807817 149 148 149
0.66996026 0.05005700 0.95619753 143 141 142
0.67000433 0.06959322 0.95421896 144 144 146
0.66994917 0.08992601 0.95198530 136 134 135
0.67002919 0.11025925 0.94968083 145 145 146
0.66999564 0.12965680 0.94721161 161 162 163
0.66998600 0.14979933 0.94461367 161 161 162
0.67018697 0.17036147 0.94190322 156 158 159
0.67048058 0.19215505 0.93901712 159 159 159
0.66799730 0.18273593 0.94033065 144 144 148
0.67000989 0.20988249 0.93667771 163 164 165
0.67006020 0.23025308 0.93397147 162 164 166
0.67003438 0.25062386 0.93124807 160 162 165
0.67018364 0.27043428 0.92860701 158 159 161
0.66995501 0.29010763 0.92600182 155 156 158
0.66984921 0.31035837 0.92332793 162 161 159
0.67152522 0.33849029 0.91975690 154 156 158
0.66967557 0.32861342 0.92101029 154 156 158
0.67002301 0.35027570 0.91834007 157 158 158
0.67002073 0.36998376 0.91599815 151 150 148
0.66998652 0.38966101 0.91387519 155 156 156
0.66974288 0.40949944 0.91230087 157 157 156
0.67006352 0.42970079 0.91166578 5 5 5
0.67023092 0.44975967 0.91108365 0 0 0
0.66982791 0.46995245 0.91001367 0 0 0
0.67018290 0.48986957 0.90846727 0 0 0
0.66989574 0.50774428 0.90691867 0 0 0
0.68967560 -0.69052011 1.03537747 145 149 151
0.69016283 -0.67031215 1.03312567 165 170 169
0.68999556 -0.65004668 1.03103185 160 165 167
0.68994758 -0.62978444 1.02875376 164 168 170
0.69011415 -0.60974166 1.02641648 165 167 167
0.68996114 -0.59005526 1.02424299 165 167 167
0.68971383 -0.57011929 1.02209719 164 166 166
0.69103006 -0.54566008 1.01945769 159 161 163
0.68938869 -0.55520752 1.02052353 164 166 167
0.68997805 -0.53002065 1.01785010 157 157 157
0.69009155 -0.50948358 1.01576237 164 163 164
0.68996689 -0.48937919 1.01372335 162 162 163
0.68979686 -0.46999294 1.01169005 165 165 166
0.69013472 -0.45071724 1.00963514 160 162 165
0.68992778 -0.43058349 1.00749864 153 154 156
0.69006088 -0.41046512 1.00537355 154 156 159
0.69006776 -0.39060489 1.00321467 151 154 156
0.69488291 -0.36172718 0.99990506 163 163 165
0.68940596 -0.37091940 1.00108923 162 162 163
0.69031304 -0.34962041 0.99874340 161 162 164
0.68056683 -0.35831587 1.00003123 156 156 158
0.68992951 -0.32953512 0.99653819 157 157 158
0.68985625 -0.30994929 0.99440428 165 167 169
0.68986909 -0.29036918 0.99228059 165 166 168
0.69000421 -0.27002813 0.99001369 157 158 161
0.69014177 -0.24977954 0.98776133 164 165 167
0.68980771 -0.22997371 0.98557314 166 168 170
0.69026067 -0.20998613 0.98338373 159 161 164
0.69911389 -0.18005865 0.97999448 170 172 175
0.68998530 -0.18970672 0.98126706 160 161 162
0.69058484 -0.16878504 0.97911713 165 166 167
0.68501285 -0.17738159 0.98017682 165 165 166
0.69000675 -0.14996066 0.97719051 162 162 164
0.68991984 -0.12945221 0.97498236 164 165 167
0.69000962 -0.10976553 0.97280334 164 165 166
0.69001690 -0.09014396 0.97056213 166 167 168
0.69003489 -0.06984563 0.96823349 168 168 169
0.69000906 -0.04964116 0.96585469 173 173 174
0.69003028 -0.02953762 0.96355324 171 173 175
0.69007625 -0.00959402 0.96140132 164 165 166
0.69070309 0.01189664 0.95920217 152 152 151
0.68703277 0.00258099 0.96023531 160 161 160
0.69004647 0.02997632 0.95753887 145 144 145
0.68994599 0.04990502 0.95566129 145 146 146
0.69000914 0.06963485 0.95364950 149 149 148
0.69002532 0.09005017 0.95146308 143 141 141
0.68999289 0.11032928 0.94918587 144 144 145
0.69004142 0.12970597 0.94672739 157 159 160
0.68991685 0.14964282 0.94412954 154 155 157
0.69815573 0.17984059 0.93993704 146 146 154
0.68987419 0.17007265 0.94141589 157 159 160
0.69024830 0.19042192 0.93872854 160 162 162
0.68283251 0.18149458 0.94008927 158 159 159
0.68992842 0.20995062 0.93614129 156 158 159
0.68998194 0.23028959 0.93343839 157 158 160
0.69007769 0.25043583 0.93073039 159 160 161
0.69000524 0.27056922 0.92805519 153 154 155
0.68990734 0.29065711 0.92543501 159 159 159
0.68999161 0.31060387 0.92283010 159 162 163
0.69031058 0.33672646 0.91957732 159 159 159
0.68980590 0.32705592 0.92078030 160 160 160
0.69009881 0.35007947 0.91792526 156 158 160
0.68999892 0.36975422 0.91552393 152 153 153
0.69013929 0.38961086 0.91332463 153 156 155
0.68976241 0.41011242 0.91155096 158 158 157
0.69061482 0.43015660 0.91055935 16 16 16
0.69003763 0.44977826 0.90999008 0 0 0
0.68998255 0.46998596 0.90889126 0 0 0
0.68979367 0.49033333 0.90736613 0 0 0
0.69009103 0.50761578 0.90589368 0 0 0
0.70996942 -0.68957308 1.03428882 169 174 173
0.70986155 -0.66971241 1.03239735 166 173 173
0.71024900 -0.64988795 1.03029663 164 168 169
0.70966035 -0.63025755 1.02809584 166 170 171
0.71027098 -0.61030096 1.02578545 169 170 170
0.70997235 -0.58973676 1.02352264 168 174 174
0.70992911 -0.56974387 1.02137105 163 165 166
0.71069270 -0.54831423 1.01905307 162 163 163
0.70713408 -0.55808041 1.02022546 166 167 166
0.71001158 -0.52960488 1.01710476 157 158 158
0.70975369 -0.50963522 1.01506162 157 157 155
0.71007180 -0.49042689 1.01310687 162 163 165
0.70998739 -0.47068379 1.01105825 164 165 167
0.70999224 -0.45030844 1.00889644 161 165 165
0.71005879 -0.43023499 1.00674676 155 159 160
0.70997494 -0.41027944 1.00462069 161 164 164
0.71001279 -0.39036010 1.00244892 149 150 152
0.71186922 -0.36445748 0.99959090 161 162 163
0.70889987 -0.37404913 1.00072410 153 153 153
0.70976106 -0.35034782 0.99813975 162 165 166
0.71016518 -0.32977397 0.99585751 162 164 166
0.70989522 -0.30967317 0.99368675 165 166 168
0.70993614 -0.29015916 0.99156295 166 168 168
0.71002418 -0.26983286 0.98929763 164 164 165
0.71012946 -0.24960394 0.98706724 165 167 168
0.71007606 -0.23039496 0.98495606 167 168 170
0.71000774 -0.21029791 0.98276656 166 168 170
0.71196305 -0.18253311 0.97980646 155 155 157
0.70933500 -0.19182280 0.98083566 163 164 167
0.71020884 -0.17017573 0.97861549 166 167 169
0.71002079 -0.14986854 0.97655192 162 162 163
0.70994361 -0.13013780 0.97445723 164 165 168
0.71003151 -0.11052044 0.97232335 163 164 165
0.71002248 -0.09013903 0.97001495 163 165 167
0.70999756 -0.06985264 0.96769591 160 163 165
0.71000056 -0.04964326 0.96532933 165 167 170
0.70995659 -0.02954997 0.96300650 168 168 169
0.71383959 -0.00168597 0.95977658 161 161 161
0.70940382 -0.01084891 0.96092696 168 171 171
0.70996879 0.01046187 0.95870275 138 139 141
0.71000106 0.03014569 0.95690127 144 144 144
0.70994286 0.04966884 0.95508718 148 147 148
0.71005224 0.06931916 0.95311212 154 154 153
0.70998889 0.08974637 0.95094955 150 149 150
0.71001945 0.11004371 0.94865995 144 144 145
0.70998587 0.13027626 0.94613319 150 149 148
0.70997448 0.15042845 0.94349183 159 160 160
0.71211699 0.17870060 0.93975225 153 154 156
0.70968322 0.16882539 0.94108733 162 164 166
0.70998351 0.19003895 0.93830723 157 160 161
0.71001412 0.20973880 0.93563630 132 136 143
0.70999111 0.23011862 0.93290899 157 158 160
0.70998044 0.25035620 0.93021540 155 155 155
0.70999717 0.27044748 0.92757103 154 154 155
0.71000706 0.29044022 0.92501990 153 153 153
0.71001019 0.31044959 0.92245869 161 164 164
0.71031287 0.33521807 0.91939961 158 158 158
0.70960178 0.32537100 0.92062688 160 161 162
0.70999898 0.35003376 0.91752957 154 154 153
0.71003319 0.36957881 0.91506591 151 151 151
0.71003810 0.38996784 0.91277507 150 151 152
0.70990717 0.41045302 0.91091983 150 152 152
0.71027693 0.43034014 0.90968746 36 36 36
0.70974231 0.45044078 0.90900297 0 0 0
0.71017820 0.47011800 0.90787701 0 0 0
0.71003114 0.48986240 0.90636396 0 0 0
0.70990978 0.50717978 0.90489547 0 0 0
0.73005904 -0.68940264 1.03365963 169 172 171
0.72997538 -0.67027398 1.03176940 161 164 165
0.72998255 -0.65005306 1.02961186 163 167 169
0.72998459 -0.62986542 1.02735475 165 170 172
0.72998776 -0.60980209 1.02505402 161 166 167
0.73006904 -0.59002889 1.02287573 164 170 170
0.73375042 -0.56218505 1.01977624 162 166 168
0.72926471 -0.57195418 1.02096537 164 168 169
0.72998813 -0.54988689 1.01857261 163 164 165
0.72968775 -0.52985442 1.01646645 158 158 159
0.73020516 -0.51037804 1.01440725 163 165 166
0.73000504 -0.49040581 1.01236408 162 165 166
0.73008182 -0.47008184 1.01025722 165 167 168
0.73002625 -0.45001134 1.00811024 160 163 164
0.73005405 -0.42995630 1.00596925 151 154 158
0.73000757 -0.41000294 1.00384551 156 157 159
0.73000099 -0.39008473 1.00167377 151 152 153
0.73091251 -0.36755196 0.99921527 159 160 162
0.72781511 -0.37689548 1.00032843 156 157 157
0.72996857 -0.35049263 0.99743387 163 165 166
0.72993561 -0.32998577 0.99517805 153 154 158
0.73003509 -0.30952171 0.99295210 163 165 166
0.72994804 -0.28993899 0.99081076 168 170 172
0.72989150 -0.27028117 0.98864616 160 163 166
0.73018200 -0.25009513 0.98642565 163 164 167
0.73007964 -0.23018358 0.98427174 161 162 163
0.72997634 -0.21019995 0.98211744 162 163 165
0.73110529 -0.18577046 0.97950496 159 160 163
0.72897399 -0.19496477 0.98051639 161 162 165
0.73000231 -0.17041278 0.97798054 169 170 173
0.72999143 -0.14979630 0.97589321 154 154 155
0.73001109 -0.13010858 0.97386296 159 160 162
0.72999822 -0.11051058 0.97178286 161 161 163
0.73004483 -0.09013893 0.96952058 160 161 163
0.72996163 -0.06986197 0.96719002 162 164 167
0.72998263 -0.04970245 0.96482657 167 169 171
0.72995492 -0.02963636 0.96250139 168 169 168
0.73101895 -0.00392900 0.95954598 172 173 173
0.72932850 -0.01365282 0.96068184 166 168 169
0.72996623 0.01021540 0.95806176 150 151 152
0.72995479 0.03014004 0.95622690 147 147 147
0.72990681 0.05000684 0.95434899 151 151 151
0.73004947 0.06965706 0.95238324 151 150 151
0.72996895 0.08998606 0.95026548 143 142 143
0.73004857 0.11024317 0.94802408 144 144 145
0.72998323 0.13029657 0.94554796 148 147 147
0.72994462 0.15018318 0.94297420 155 157 158
0.73098456 0.17678985 0.93950651 157 157 159
0.72954196 0.16646924 0.94086375 159 159 160
0.72992116 0.19000242 0.93778322 159 161 162
0.73000161 0.20959227 0.93511488 155 156 157
0.73006384 0.22992759 0.93241160 157 159 159
0.72993987 0.25019467 0.92972547 155 155 156
0.72991898 0.27035114 0.92710725 156 157 158
0.73003005 0.29038287 0.92459096 161 162 161
0.73007392 0.31024060 0.92209392 158 160 161
0.73043821 0.33363433 0.91917348 153 153 155
0.72925020 0.32374329 0.92044843 157 158 160
0.72991622 0.34986409 0.91711239 144 140 140
0.73027393 0.37001022 0.91451685 153 156 156
0.72991169 0.39027471 0.91214824 155 157 156
0.72996979 0.41021896 0.91025789 154 154 153
0.73004946 0.42994673 0.90885646 57 58 58
0.72968435 0.45016156 0.90816332 0 0 0
0.73014575 0.46983964 0.90702446 0 0 0
0.73007845 0.48991145 0.90538010 0 0 0
0.72991450 0.50704133 0.90381183 0 0 0
0.74994039 -0.68868771 1.03306941 163 169 167
0.75006509 -0.66959381 1.03104280 162 166 168
0.74972456 -0.65001853 1.02891336 162 165 167
0.75025447 -0.63002053 1.02662371 160 166 168
0.74972662 -0.60997159 1.02436374 161 167 169
0.75018479 -0.59027276 1.02219917 161 166 167
0.75125373 -0.56490117 1.01946592 156 159 161
0.74888033 -0.57463584 1.02057837 163 168 169
0.74978867 -0.54971583 1.01789339 162 165 166
0.75009059 -0.52999706 1.01577825 162 166 167
0.75007741 -0.51022079 1.01368169 164 165 167
0.75010583 -0.48996948 1.01157722 160 164 165
0.74997099 -0.46984234 1.00948035 161 164 165
0.75002741 -0.44971342 1.00732271 160 161 160
0.75001368 -0.42967508 1.00518625 154 155 156
0.75002018 -0.40973257 1.00308573 137 138 146
0.75586948 -0.38156261 0.99980135 155 160 160
0.74937260 -0.39068735 1.00103544 156 158 159
0.75013476 -0.36984976 0.99874899 154 156 159
0.74193171 -0.37905965 1.00003678 159 164 165
0.75001540 -0.35028463 0.99669236 161 162 164
0.74996536 -0.33063601 0.99455052 160 163 166
0.75006155 -0.31010229 0.99230971 162 165 168
0.74994903 -0.28972668 0.99008535 164 167 169
0.75005545 -0.27032422 0.98797142 162 163 167
0.75001449 -0.25019410 0.98577388 165 167 171
0.75006627 -0.23009420 0.98361639 161 163 165
0.75000444 -0.21007641 0.98148589 166 167 169
0.75067999 -0.18851503 0.97919092 162 162 166
0.74729325 -0.19761142 0.98024076 165 166 170
0.75001620 -0.17035625 0.97735829 160 160 164
0.74997470 -0.14974371 0.97528810 162 165 166
0.75000588 -0.13005896 0.97330312 164 166 167
0.74993878 -0.11046550 0.97123421 155 155 156
0.75000818 -0.09013433 0.96897685 164 166 166
0.74995928 -0.06989818 0.96666812 165 168 170
0.74996313 -0.04976287 0.96434911 160 160 163
0.74995745 -0.02972371 0.96202900 169 170 170
0.75052921 -0.00604686 0.95927552 168 170 171
0.74915516 -0.01592520 0.96044593 167 168 169
0.74993496 0.01016412 0.95748587 155 156 158
0.75000345 0.02993604 0.95555575 148 148 149
0.74994316 0.04957458 0.95365013 151 151 149
0.75025106 0.06962386 0.95160798 154 154 152
0.74975144 0.08992317 0.94953421 131 129 132
0.75000555 0.10989640 0.94738953 142 140 139
0.74997987 0.13014093 0.94493145 149 150 149
0.74992805 0.15025644 0.94238183 157 159 160
0.75069437 0.17411029 0.93925128 157 157 159
0.74891057 0.16424827 0.94058459 158 158 159
0.75004966 0.18976402 0.93720837 156 157 158
0.75002311 0.20952893 0.93457007 157 158 156
0.74997356 0.22984750 0.93188730 159 161 160
0.75004884 0.25006663 0.92921306 155 158 159
0.74999378 0.27019216 0.92662917 155 157 158
0.74998641 0.29022427 0.92411705 157 158 158
0.75001073 0.31016867 0.92165097 157 159 159
0.75037720 0.33166993 0.91893534 138 137 140
0.74863327 0.32203277 0.92024163 153 156 157
0.74997118 0.34965438 0.91658785 150 150 150
0.75005440 0.36997408 0.91387966 154 155 154
0.75006648 0.39018836 0.91137441 140 141 142
0.75001324 0.40982770 0.90947145 149 146 146
0.74979068 0.42955687 0.90803246 78 78 78
0.74991631 0.44968001 0.90737710 0 0 0
0.75016682 0.47003494 0.90615970 0 0 0
0.74980376 0.49012421 0.90438027 0 0 0
0.75007140 0.50660892 0.90270470 0 0 0
0.76985591 -0.68945585 1.03246565 165 170 170
0.77014997 -0.67027402 1.03045244 163 166 165
0.76994949 -0.65010545 1.02822165 165 167 169
0.76999215 -0.63002645 1.02591063 159 163 166
0.76997726 -0.61000326 1.02364419 154 158 161
0.77000015 -0.59008596 1.02151717 159 164 165
0.77054703 -0.56761754 1.01910551 155 159 160
0.76762532 -0.57755586 1.02025299 152 153 152
0.77006458 -0.54984650 1.01720770 164 168 169
0.76997329 -0.53038221 1.01514827 161 165 166
0.77001023 -0.51001087 1.01299501 161 167 168
0.77006881 -0.48975450 1.01088128 166 171 172
0.76995261 -0.46958639 1.00875689 164 167 169
0.76996554 -0.44948623 1.00660270 162 165 164
0.77000231 -0.42942755 1.00448247 154 156 159
0.76997087 -0.40950156 1.00238986 147 149 150
0.77116501 -0.38378916 0.99954036 161 164 165
0.76914826 -0.39334752 1.00064737 157 157 160
0.76995357 -0.36981607 0.99808272 155 158 160
0.76998373 -0.35004919 0.99598540 157 158 159
0.76998150 -0.33033880 0.99385372 166 170 173
0.76998393 -0.30989433 0.99164463 160 164 168
0.76997850 -0.28953638 0.98943494 164 167 169
0.77002961 -0.27014265 0.98730780 163 165 167
0.77002041 -0.24996169 0.98511287 166 167 167
0.77004289 -0.22987854 0.98296811 161 164 167
0.77418762 -0.20136664 0.97982662 158 165 166
0.76953934 -0.21094790 0.98099278 162 163 166
0.77005692 -0.19005121 0.97877268 163 165 168
0.77000844 -0.17023044 0.97673432 162 164 167
0.77001622 -0.14969963 0.97470053 157 158 161
0.77003903 -0.13008223 0.97273343 155 155 158
0.76998549 -0.11048796 0.97067913 157 158 159
0.76992841 -0.09012722 0.96840731 164 165 167
0.76997103 -0.06983393 0.96609274 163 164 166
0.77000272 -0.04964857 0.96377925 152 155 158
0.77002983 -0.02947041 0.96146102 168 169 169
0.77046953 -0.00833228 0.95900067 168 170 170
0.76695295 -0.01783497 0.96019154 165 165 163
0.76997492 0.01038629 0.95691583 161 163 164
0.77000848 0.03016134 0.95482191 153 154 155
0.76998392 0.04992029 0.95282840 153 154 155
0.77004189 0.07030355 0.95076205 147 146 146
0.76999157 0.09068004 0.94869674 147 148 149
0.76998704 0.11005394 0.94659750 147 148 147
0.77005097 0.13005013 0.94419840 146 147 148
0.77007144 0.15001665 0.94171531 153 155 155
0.77050307 0.17183636 0.93889476 162 163 164
0.76744592 0.16186974 0.94026925 157 157 159
0.77007363 0.19041368 0.93647997 160 161 160
0.77001718 0.20997565 0.93390270 158 158 159
0.76997801 0.22973486 0.93135288 156 157 158
0.76995724 0.24989545 0.92872204 156 158 159
0.77010683 0.26998636 0.92615460 156 158 158
0.76999495 0.29009641 0.92364900 160 163 163
0.77549369 0.31910543 0.91990299 123 123 127
0.76972922 0.30972157 0.92123137 147 147 147
0.77021425 0.32990965 0.91860710 125 123 125
0.76289942 0.32074816 0.92005430 138 137 139
0.77007603 0.34995197 0.91591888 139 139 137
0.76992254 0.37012627 0.91311515 156 157 154
0.77002793 0.38981694 0.91055049 145 150 152
0.77017024 0.40984739 0.90855103 147 152 152
0.76998355 0.43016430 0.90711342 91 92 92
0.77011121 0.44995039 0.90648752 0 0 0
0.76982422 0.47028606 0.90524240 0 0 0
0.77015626 0.49006452 0.90331539 0 0 0
0.76978534 0.50625149 0.90157378 0 0 0
0.78997899 -0.68866190 1.03166069 164 171 171
0.78992758 -0.66972682 1.02969804 160 165 165
0.79014191 -0.64974931 1.02749129 160 163 164
0.78974188 -0.62989745 1.02522769 157 160 160
0.79027340 -0.60999204 1.02295966 159 163 164
0.79437636 -0.58147060 1.01978643 162 162 163
0.78940150 -0.59108902 1.02096149 165 167 167
0.78980752 -0.57003688 1.01871258 159 159 160
0.79015907 -0.55046592 1.01662213 160 162 163
0.79000966 -0.53014937 1.01446853 161 164 165
0.78992957 -0.50982419 1.01232770 163 167 168
0.79002638 -0.48955295 1.01021409 164 168 170
0.78978720 -0.46962224 1.00811893 161 162 164
0.78991023 -0.44985984 1.00603946 146 148 151
0.78998819 -0.42985974 1.00396374 158 161 162
0.79015948 -0.40948489 1.00181787 154 158 160
0.79057467 -0.38628451 0.99927969 156 158 161
0.78874436 -0.39575327 1.00035306 153 155 157
0.78995929 -0.36940766 0.99748003 160 163 164
0.79000648 -0.34970060 0.99536726 154 154 153
0.79003360 -0.33006872 0.99323845 165 168 172
0.78977359 -0.31021485 0.99113093 160 161 165
0.79014380 -0.28984179 0.98891091 165 167 169
0.79001938 -0.26997598 0.98669835 164 168 170
0.79002350 -0.24973733 0.98448311 164 166 167
0.79001329 -0.22966927 0.98234591 164 168 169
0.79074573 -0.20337280 0.97955031 161 166 168
0.78955832 -0.21355586 0.98066471 160 164 167
0.79001903 -0.18980286 0.97814853 160 162 163
0.78999604 -0.17007337 0.97613333 161 163 167
0.79002784 -0.14951402 0.97409228 159 165 167
0.79002504 -0.12995108 0.97211834 163 164 165
0.79005913 -0.11038644 0.97008767 158 159 160
0.78999371 -0.09000783 0.96786245 158 158 161
0.79003567 -0.06970810 0.96552405 163 165 166
0.79000937 -0.04953367 0.96319897 165 167 168
0.79356200 -0.02133017 0.95981233 154 158 159
0.78954189 -0.03069967 0.96102195 161 161 162
0.79001023 -0.00966151 0.95858391 164 165 166
0.78992778 0.01015161 0.95631564 162 165 166
0.79004508 0.02987552 0.95413283 153 152 153
0.78999306 0.04955867 0.95208272 154 156 157
0.79004357 0.07005447 0.94997892 152 152 152
0.79003137 0.09040614 0.94792274 152 153 154
0.78998676 0.10985008 0.94582330 147 147 148
0.79000344 0.12999521 0.94343861 152 154 155
0.79453352 0.15795125 0.93982045 151 155 156
0.78959776 0.14919184 0.94111335 154 155 156
0.79009737 0.16976781 0.93849149 156 157 157
0.78990315 0.19039814 0.93581436 160 160 160
0.79004399 0.20997673 0.93326152 158 159 159
0.79011153 0.22953777 0.93078825 155 158 159
0.78989113 0.24981246 0.92819719 150 152 152
0.79004332 0.26991000 0.92562725 153 154 155
0.79006225 0.28989749 0.92313750 155 155 157
0.79144731 0.31697652 0.91965819 121 121 122
0.78942629 0.30742987 0.92093907 128 127 130
0.79017204 0.32968755 0.91797553 123 123 123
0.78987168 0.34998099 0.91516261 147 149 150
0.79013327 0.37007673 0.91223495 159 160 159
0.79012438 0.38990696 0.90955775 158 161 162
0.78982443 0.41012404 0.90746891 152 153 154
0.79012327 0.42999022 0.90598237 112 114 112
0.78995187 0.45026715 0.90549471 0 0 0
0.79007455 0.46978991 0.90427408 0 0 0
0.79005352 0.48996767 0.90222625 0 0 0
0.79402313 0.50939814 0.89965656 0 0 0
0.78862458 0.50484176 0.90060740 0 0 0
0.80983579 -0.68848702 1.03088294 162 168 169
0.81001846 -0.67036270 1.02902650 163 165 164
0.80997331 -0.65025144 1.02684915 161 164 164
0.80999542 -0.63026957 1.02460693 161 165 166
0.80997613 -0.61030743 1.02237211 161 164 164
0.81096715 -0.58432950 1.01952747 164 165 164
0.80907850 -0.59389028 1.02062750 165 167 169
0.81018251 -0.57020868 1.01806005 156 161 161
0.81001701 -0.55022158 1.01596762 159 162 163
0.81004464 -0.52977494 1.01380444 161 163 165
0.80992908 -0.50931059 1.01165799 160 163 164
0.80980829 -0.48966264 1.00962152 161 166 168
0.81021673 -0.47038729 1.00762511 160 161 162
0.80999675 -0.45058151 1.00561629 156 159 162
0.80998345 -0.43063027 1.00355046 163 165 166
0.81001931 -0.41068884 1.00145027 156 161 162
0.81028649 -0.38823146 0.99901493 156 159 161
0.80776875 -0.39879782 1.00022885 158 165 166
0.81009901 -0.36934498 0.99695630 153 154 155
0.81003444 -0.34951575 0.99480321 152 153 154
0.81003193 -0.32990056 0.99269300 158 161 164
0.81005144 -0.31037689 0.99061858 160 163 164
0.80991896 -0.29009924 0.98843646 164 167 168
0.80995251 -0.26975757 0.98613764 165 169 170
0.80991226 -0.24979342 0.98393112 160 162 164
0.81013079 -0.22975669 0.98179662 158 161 164
0.81045801 -0.20600191 0.97927816 169 170 174
0.80917143 -0.21618122 0.98038663 167 171 174
0.80998477 -0.18970448 0.97757587 164 166 168
0.81004295 -0.16987860 0.97554575 158 159 163
0.80990026 -0.14945982 0.97351141 156 159 161
0.81012583 -0.12980702 0.97151175 161 164 168
0.81008328 -0.11014325 0.96945372 160 162 163
0.81005507 -0.08986598 0.96725605 160 162 163
0.81007500 -0.06970687 0.96496320 165 165 167
0.80996541 -0.04963317 0.96260920 168 168 169
0.81110389 -0.02357431 0.95952193 156 156 157
0.80931528 -0.03337086 0.96073010 162 162 162
0.81005816 -0.00961067 0.95795955 163 164 165
0.80997505 0.01031576 0.95565571 164 166 167
0.81000532 0.03012326 0.95341742 156 156 157
0.81000434 0.04976499 0.95132199 153 154 156
0.80999882 0.07004412 0.94915922 150 151 151
0.80995987 0.09031885 0.94711908 153 154 156
0.81002645 0.10970659 0.94504871 148 150 151
0.81003999 0.12982076 0.94267473 151 152 152
0.81122528 0.15545535 0.93952105 148 150 149
0.80906431 0.14618456 0.94075229 148 148 148
0.81006767 0.16975406 0.93776300 153 156 158
0.81006323 0.19021490 0.93510413 160 162 162
0.81010262 0.21017371 0.93252183 156 158 159
0.80991736 0.22967336 0.93008597 156 158 159
0.80998991 0.24960811 0.92754481 157 158 158
0.80995808 0.26973669 0.92496926 154 158 160
0.81007901 0.28967269 0.92245215 150 151 151
0.81091695 0.31369907 0.91926837 124 123 123
0.80867463 0.30420711 0.92059581 125 123 125
0.81013008 0.32996581 0.91708142 124 124 124
0.81002799 0.35030535 0.91415523 157 161 159
0.81020636 0.36998958 0.91119074 159 160 160
0.80983569 0.39004459 0.90843162 154 155 156
0.81000443 0.41002944 0.90630439 151 152 152
0.81002555 0.42976585 0.90477163 131 132 131
0.80990690 0.44990062 0.90444019 0 0 0
0.81015178 0.47017990 0.90311390 0 0 0
0.81607522 0.49752861 0.89978371 0 0 0
0.80939700 0.48931227 0.90115679 0 0 0
0.81051921 0.50578955 0.89910540 0 0 0
0.80338814 0.50109965 0.90016209 0 0 0
0.82977747 -0.68792115 1.03008975 165 171 170
0.83020644 -0.66972480 1.02822630 164 168 168
0.82982718 -0.64966066 1.02611481 164 168 170
0.83021342 -0.62966058 1.02389937 160 164 166
0.82992386 -0.60963414 1.02168473 163 166 166
0.83058745 -0.58725450 1.01923964 160 166 167
0.82872879 -0.59649583 1.02031417 160 162 162
0.83001088 -0.57018361 1.01746187 155 160 161
0.83002477 -0.54968361 1.01532768 157 159 160
0.83002353 -0.52925973 1.01318396 161 166 166
0.82996982 -0.50991877 1.01115693 161 163 164
0.82996188 -0.49062000 1.00915150 165 170 172
0.83003286 -0.47048483 1.00712119 158 159 160
0.83002566 -0.45045969 1.00510345 165 168 170
0.83004074 -0.43045704 1.00302241 164 164 165
0.83529923 -0.40197957 0.99986532 158 159 161
0.82960153 -0.41124159 1.00101956 162 164 165
0.83006531 -0.39059139 0.99878211 152 154 156
0.82057608 -0.39980066 1.00003481 155 164 163
0.82997311 -0.36996581 0.99653066 154 155 156
0.82998993 -0.34931516 0.99427087 159 160 161
0.82999256 -0.32972641 0.99212932 162 163 165
0.82997587 -0.31021616 0.99006381 160 163 164
0.82995927 -0.28993815 0.98788793 159 161 162
0.82988143 -0.26967936 0.98561380 163 166 168
0.82998708 -0.25032222 0.98343831 165 170 170
0.83970255 -0.22071080 0.97999430 153 154 158
0.82994894 -0.23035227 0.98131427 157 160 163
0.83017830 -0.20903831 0.97904739 159 162 165
0.82601576 -0.21849113 0.98016815 165 169 171
0.83023679 -0.19002615 0.97704311 161 162 163
0.83005839 -0.16982347 0.97496391 152 156 158
0.83001574 -0.15010659 0.97296501 158 161 165
0.83007390 -0.13052114 0.97095723 156 159 161
0.83004152 -0.11017165 0.96880083 161 165 167
0.82994870 -0.08990574 0.96658343 157 160 161
0.82998678 -0.06969722 0.96428078 163 164 164
0.83002572 -0.04955245 0.96191141 163 164 165
0.83057391 -0.02650191 0.95916525 166 169 170
0.82862723 -0.03628317 0.96039644 165 166 167
0.83004984 -0.00957532 0.95722323 154 155 158
0.83000691 0.01014346 0.95496357 165 166 167
0.83004769 0.02987620 0.95272168 160 161 163
0.83003042 0.04958420 0.95057467 152 152 153
