ply
format ascii 1.0
element vertex 1061
property float x
property float y
property float z
property uchar red
property uchar green
property uchar blue
end_header
-0.40713458 0.22600354 1.07781353 123 123 128
-0.40689711 0.22640447 1.08930191 116 118 124
-0.40808610 0.22087495 1.10453227 120 125 129
-0.41107851 0.22019477 1.12048233 124 126 129
-0.39863938 0.21935469 1.09691238 128 132 136
-0.39975455 0.23451912 1.07944560 125 120 128
-0.39680828 0.22486085 1.08842103 125 126 131
-0.36075032 -0.46064854 1.25535524 146 103 91
-0.36585626 -0.46218668 1.26551155 146 102 91
-0.36141959 -0.45606866 1.25768435 149 106 94
-0.36332427 -0.45086869 1.26263336 145 103 90
-0.36141959 -0.43976513 1.25768435 134 91 81
-0.36572186 0.29300492 1.33276427 92 91 104
-0.37415200 0.29860011 1.34236014 102 103 112
-0.35933247 -0.46130684 1.25420368 149 106 94
-0.35538852 -0.46223697 1.26607945 153 109 100
-0.34402916 -0.44193894 1.25768435 153 107 105
-0.35152142 -0.45052056 1.26553300 151 110 99
-0.34393310 -0.43569884 1.25535741 152 105 106
-0.34679007 -0.43738030 1.26178402 150 103 104
-0.34448865 0.27852198 1.31332692 101 95 106
-0.34658989 0.29061794 1.31461820 124 123 128
-0.35571467 0.29070896 1.32753095 105 102 111
-0.34102827 0.31546527 1.27904117 107 113 116
-0.34628036 0.30982958 1.29511768 122 123 127
-0.34639006 0.30584803 1.30625016 105 107 112
-0.35407542 0.30333131 1.32453179 111 118 121
-0.33908077 -0.44290774 1.26354599 152 110 101
-0.33384407 -0.42822432 1.25480770 153 112 106
-0.33665861 -0.43398087 1.26060864 151 111 105
-0.32097756 0.26998984 0.76497183 107 107 109
-0.32222261 0.26204191 0.78575189 104 109 114
-0.32094932 0.27936199 1.29616034 125 126 129
-0.33219884 0.27889130 1.30868123 141 142 145
-0.32393867 0.29056234 1.29616557 107 108 112
-0.33222098 0.28943920 1.30772971 122 122 126
-0.33862555 0.28937561 1.32142663 139 139 139
-0.32946922 0.31153022 1.27051470 115 116 123
-0.33398355 0.30843490 1.29336240 113 115 123
-0.33607359 0.30300055 1.30364459 94 97 107
-0.33355303 0.32339687 1.28714983 102 102 108
-0.30147928 -0.22411337 1.79336464 45 44 53
-0.30147928 -0.21636416 1.79336464 47 46 55
-0.30107161 0.25998047 0.75321317 79 82 90
-0.30711112 0.25852832 0.76908666 97 101 104
-0.31562931 0.25786388 0.78152517 104 109 114
-0.30516575 0.26507120 0.75424789 111 112 115
-0.31332307 0.26356160 0.76506600 107 109 111
-0.31674920 0.26137135 0.78339811 101 111 114
-0.31045568 0.29864714 1.22806489 118 118 127
-0.31881836 0.28751843 1.28755432 103 104 108
-0.31045568 0.30183105 1.22806489 105 107 119
-0.31693120 0.30439523 1.24730185 117 117 128
-0.28694324 -0.24552725 1.81416484 132 131 144
-0.28114441 -0.24977587 1.82228994 184 185 197
-0.29709912 -0.22574381 1.79812157 48 46 57
-0.28874612 -0.22903728 1.80975693 100 99 112
-0.29761711 -0.21849203 1.79812157 48 46 59
-0.28880666 -0.21739136 1.81118252 98 97 107
-0.28429410 -0.21197970 1.82228994 192 192 199
-0.28920479 -0.06309863 0.46390675 70 82 105
-0.28774759 -0.05874209 0.46384963 69 76 96
-0.28838630 0.03634101 0.59644870 122 124 126
-0.28722706 0.04339780 0.59803685 124 127 130
-0.28440557 0.11459758 1.57388481 101 100 109
-0.28919007 0.11948711 1.58201343 114 114 122
-0.28737600 0.25950215 0.73810015 117 118 120
-0.29149794 0.25833204 0.75016747 108 111 112
-0.29833435 0.25753916 0.76285721 86 87 90
-0.28759885 0.26329525 0.73766111 108 109 112
-0.29496389 0.26244215 0.74740127 104 105 108
-0.29819934 0.26060957 0.76139128 94 97 97
-0.28125085 0.37468921 1.15191859 200 200 194
-0.27203010 -0.24470149 1.81578461 185 186 196
-0.26875007 -0.24861716 1.82369331 185 186 197
-0.27108416 -0.23053233 1.81370266 186 185 193
-0.26252906 -0.22796854 1.82425466 185 184 193
-0.27410820 -0.21769387 1.81740439 186 186 191
-0.27806755 0.03719307 0.59444848 123 126 128
-0.27767335 0.04293227 0.59568776 122 125 130
-0.26372457 0.11078638 1.53716969 131 129 136
-0.27127885 0.11272618 1.55164609 125 124 131
-0.27761694 0.11373523 1.56557012 115 114 124
-0.26365948 0.25304512 0.71696873 128 130 131
-0.27084898 0.25668349 0.72668636 125 127 127
-0.27649303 0.26177228 0.73202401 137 138 135
-0.26922321 0.37275698 1.13417661 199 199 195
-0.27369600 0.36937301 1.14468263 200 200 194
-0.26688696 0.38687973 1.13324415 198 198 193
-0.26346538 0.38174174 1.14171314 199 199 195
-0.25563903 -0.24389981 1.80675006 186 186 196
-0.25313798 -0.24222981 1.82474583 186 186 195
-0.25282083 -0.24657711 1.84545279 187 187 197
-0.25255245 -0.23403156 1.79812157 186 186 195
-0.25494600 -0.23411814 1.80565483 186 186 195
-0.25167724 -0.23910542 1.83710527 187 187 196
-0.24061900 0.07836232 1.47688854 139 139 141
-0.24717125 0.07882134 1.48553964 148 144 147
-0.24067655 0.08783998 1.47528321 133 134 140
-0.24447551 0.08753866 1.48092285 125 124 132
-0.24288810 0.10818458 1.49081598 106 106 121
-0.25132419 0.10885718 1.51048245 111 109 121
-0.25930372 0.10871837 1.52678347 121 119 127
-0.25330577 0.37531077 1.13597704 199 200 193
-0.24905373 0.37714331 1.14123201 200 200 193
-0.25312802 0.38876470 1.13369782 197 197 193
-0.24935528 0.38403064 1.14412532 197 197 192
-0.23678999 0.07836232 1.47688854 116 116 121
-0.23099578 0.07633832 1.48726887 112 113 119
-0.22945923 0.09113217 1.47294219 133 132 137
-0.23198973 0.08869950 1.48215344 129 129 135
-0.22454587 0.10534174 1.47049850 120 120 129
-0.23521224 0.10684932 1.48843205 122 124 132
-0.23892034 0.11508345 1.50643373 123 124 131
-0.21059707 0.09624701 1.45161287 123 122 127
-0.21691550 0.09471042 1.46334377 141 139 144
-0.20408322 0.10415516 1.43535137 106 106 119
-0.21319153 0.10470032 1.45028102 124 124 133
-0.21516584 0.10092289 1.46350086 126 126 132
-0.20115101 0.17649878 0.59703661 103 104 106
-0.20050734 0.18271576 0.60337803 118 120 121
-0.20178829 0.18525206 0.95024105 113 114 121
-0.19183519 0.10343647 1.41818380 141 138 140
-0.19654147 0.10274836 1.42564160 88 86 97
-0.19734763 0.17221884 0.59575468 118 118 122
-0.19737165 0.17161380 0.60336676 123 123 129
-0.18419802 0.17513510 0.93480389 125 126 132
-0.19421996 0.17773387 0.94726430 122 122 128
-0.19809901 0.18319006 0.60612407 118 119 124
-0.18262337 0.19203139 0.91669321 161 158 157
-0.18775831 0.18734310 0.93489637 130 129 134
-0.19467694 0.18535828 0.94723408 121 122 127
-0.17011395 0.15950707 0.93502325 93 95 110
-0.17505739 0.16654378 0.91855532 128 129 138
-0.17328074 0.16979349 0.93321536 124 124 132
-0.16695138 0.17420087 0.94457267 135 134 137
-0.17232437 0.18357322 0.93825907 134 133 142
-0.17126037 0.18339333 0.94378661 146 145 149
-0.14995852 -0.04200358 0.52720311 47 49 64
-0.15072456 -0.03607615 0.52705894 50 51 67
-0.15001399 0.15890084 0.67569390 138 138 142
-0.15227851 0.15929820 0.68422762 148 149 149
-0.14974400 0.17008990 0.67413801 127 128 131
-0.15453356 0.16810665 0.68328257 128 128 131
-0.06474283 0.33200849 0.81688882 195 195 188
-0.06584168 0.33638932 0.82146657 198 196 190
-0.06431043 0.35033574 0.82599065 107 106 104
-0.06691781 0.36119318 0.83690351 0 0 0
-0.06874628 0.36393891 0.84157929 0 0 0
-0.04281138 -0.28595777 0.76993177 191 192 194
-0.04269094 -0.27303344 0.76896490 192 193 195
-0.04098404 -0.24278546 0.79673883 46 47 53
-0.04122717 -0.23405060 0.79740063 45 45 51
-0.04096304 -0.22534122 0.80081797 44 44 52
-0.04121774 -0.02436905 0.81497136 44 41 51
-0.04004011 -0.01884603 0.81969994 40 39 48
-0.05953045 0.33342736 0.81498171 174 173 170
-0.05144829 0.34560457 0.81182841 51 48 49
-0.05825270 0.34765373 0.82124497 81 81 83
-0.03099814 -0.28488438 0.76672200 116 118 122
-0.02943007 -0.27181830 0.76678146 101 103 107
-0.03019797 -0.24429489 0.79770299 137 138 144
-0.02373472 -0.25019233 0.80166362 190 191 194
-0.03086340 -0.23386775 0.79790796 129 129 136
-0.02866296 -0.22456065 0.80182980 142 142 150
-0.02698175 -0.21882645 0.80406941 188 190 195
-0.02654540 -0.18357664 0.80525295 69 72 83
-0.02702223 -0.16492878 0.79562144 87 89 102
-0.02740397 -0.17536277 0.80263990 89 91 103
-0.02548775 -0.15926795 0.79306229 68 70 80
-0.02418709 -0.14245142 0.82615598 180 182 195
-0.02578085 -0.12834980 0.81969994 151 152 163
-0.02779152 -0.13057958 0.82147234 136 136 150
-0.02728905 -0.11773762 0.81969994 179 178 192
-0.02629299 -0.11907972 0.82078274 146 146 158
-0.02992357 -0.02523783 0.81651278 85 84 94
-0.02953454 -0.01756143 0.81894500 80 80 88
-0.03015908 -0.01603185 0.82069230 46 46 54
-0.02054476 0.13150707 0.47054073 202 199 199
-0.03084085 0.24424805 0.59955100 170 166 159
-0.02605755 0.24889260 0.60800860 155 153 149
-0.00051934 -0.24177048 0.64970169 49 49 56
-0.01746915 -0.24394443 0.79827218 190 190 193
-0.01825252 -0.24790456 0.80238370 191 191 195
-0.00053550 -0.23089082 0.65093351 47 47 54
-0.01753126 -0.23259339 0.79764950 191 191 196
-0.01786903 -0.22863227 0.80285044 190 191 196
-0.01794771 -0.21929927 0.80319015 189 190 193
-0.01840281 -0.18522382 0.80639589 43 45 54
-0.01793399 -0.16356751 0.79629954 44 44 54
-0.01731883 -0.17319638 0.80282176 42 43 52
-0.01701507 -0.15919269 0.79193836 45 45 54
-0.01798658 -0.14715721 0.83436467 150 149 162
-0.01520039 -0.12895136 0.81713624 189 191 201
-0.01795477 -0.13083972 0.82323043 189 191 202
-0.01493750 -0.02465300 0.81751910 189 189 199
-0.01706235 -0.01853573 0.81851293 188 188 199
-0.01242783 -0.01886885 0.82069230 189 189 200
-0.01084983 0.13082094 0.47062720 178 176 174
-0.00104696 0.12882920 0.48026349 177 177 172
-0.00310477 0.17578127 0.58923414 155 152 150
-0.00453460 0.17219831 0.67263182 156 152 153
-0.00400557 0.18093041 0.58854437 164 161 155
-0.00136515 0.18989447 0.91557922 198 195 191
-0.00467772 0.18817091 0.92412294 205 200 199
-0.01863693 0.24911911 0.60492618 164 163 163
-0.00413944 0.43879959 1.89885676 143 136 138
-0.00678406 0.43476620 1.90419054 145 140 140
-0.00086961 0.44336708 1.92584461 141 140 140
-0.00087707 0.44214353 1.94238353 144 139 140
0.01648265 -0.30237024 0.78791360 50 49 61
0.01496763 -0.29032925 0.78765880 52 52 60
0.01599747 -0.27949982 0.78842986 52 54 62
0.00288278 -0.24200099 0.64880518 50 50 55
0.01319020 -0.24876905 0.80950485 191 191 194
0.00308637 -0.23026969 0.64629018 48 48 55
0.01297065 -0.23544597 0.80870482 191 191 195
0.00194767 -0.21988845 0.64808017 48 48 51
0.01391976 -0.18778082 0.81797081 45 45 53
0.00814536 -0.18210581 0.82118970 44 43 51
0.01398741 -0.17390272 0.81744428 45 45 53
0.00814536 -0.17855870 0.82118970 43 42 49
0.01896283 -0.14223747 0.82871866 192 191 200
0.01422557 -0.13030900 0.82988433 191 191 201
0.01643470 -0.11874799 0.82927236 190 192 201
0.01459942 -0.08040206 0.83862938 45 44 52
0.01994726 -0.08174468 0.84001470 48 47 56
0.01592269 -0.07252631 0.83462469 44 44 52
0.00394314 -0.03033731 0.47884804 44 43 53
0.01190019 -0.02806950 0.48111657 91 90 101
0.01492399 -0.02858724 0.82989876 191 192 204
0.01603921 -0.01365288 0.82993578 192 193 206
0.00534321 0.13337008 0.47326254 151 149 149
0.01418011 0.17907043 0.47471609 162 162 160
0.00949988 0.17466076 0.57927127 164 162 162
0.00376700 0.17453315 0.58407580 155 153 154
0.00653767 0.17110739 0.65910745 168 167 167
0.00270696 0.17275235 0.66694614 173 169 169
0.01738972 0.17826394 0.89530768 175 174 176
0.01310353 0.17795645 0.90956949 153 152 154
0.01427470 0.18392929 0.47311777 156 156 156
0.01173556 0.18064886 0.57840604 171 167 163
0.00665889 0.18122032 0.58361322 169 167 166
0.01852635 0.18498193 0.87583453 173 171 171
0.01380387 0.18695509 0.89069326 177 175 176
0.00712342 0.18772302 0.91108724 159 156 159
0.00595590 0.18382305 0.92188525 143 140 142
0.01555268 0.43223557 1.89885676 164 164 165
0.01400477 0.43287654 1.91135255 167 167 168
0.01414256 0.43628900 1.93133923 170 170 171
0.01932180 0.43331337 1.94796503 174 174 172
0.01462948 0.45085660 1.91039368 167 166 170
0.01223373 0.44997440 1.92652854 162 161 164
0.00450747 0.44408458 1.94797795 159 157 158
0.01650323 0.46536146 1.91360015 175 174 173
0.01904812 0.46866591 1.92037344 178 174 173
0.02751354 -0.30426380 0.78880681 189 190 193
0.02686385 -0.28975431 0.78828593 189 190 193
0.02763043 -0.27692131 0.78858463 191 192 194
0.02565852 -0.26064241 0.81379691 58 59 65
0.02758666 -0.24957681 0.81025546 61 61 69
0.02622270 -0.23597930 0.80809465 63 63 73
0.02914128 -0.18788635 0.81773811 178 178 184
0.02746380 -0.17558164 0.81840778 169 169 175
0.02752256 -0.14124673 0.82883900 79 83 94
0.03006690 -0.13028072 0.82984247 70 70 79
0.02977084 -0.11827244 0.82914608 71 72 80
0.03150885 -0.08078176 0.83862938 171 171 180
0.03170853 -0.08419964 0.84222623 169 169 178
0.03083639 -0.07062846 0.83373746 164 164 174
0.03933689 -0.02981438 0.48178256 192 193 205
0.02961421 -0.03059943 0.82998028 109 110 122
0.02434564 -0.01209741 0.83085228 173 173 185
0.03380537 0.13581701 0.49770035 157 156 153
0.03211726 0.13109432 0.50353315 159 156 158
0.03608489 0.17456476 0.49059116 157 154 153
0.02020530 0.18637938 0.47253997 168 165 164
0.03831396 0.18517274 0.49339413 155 150 149
0.03695660 0.18738081 0.50028920 152 148 145
0.02065099 0.18668496 0.86964992 159 156 156
0.03466224 0.43800226 1.86747062 180 180 176
0.02467334 0.43332214 1.89356153 167 165 167
0.03768240 0.45004763 1.85723794 174 165 164
0.03472608 0.45012690 1.87090981 174 168 168
0.02710511 0.44902243 1.88997776 178 176 177
0.02217885 0.45319715 1.90419054 184 183 183
0.02585561 0.46299803 1.89268831 163 158 158
0.05997661 -0.29935780 0.77561998 191 192 194
0.05796225 -0.24358500 0.79286817 45 46 55
0.05758936 -0.23873883 0.79065666 45 45 53
0.04012466 -0.08144192 0.83690351 193 193 204
0.04065391 -0.07315479 0.83296796 193 193 205
0.04786252 -0.03167631 0.48244940 108 108 119
0.04198007 -0.02623449 0.82936755 48 48 57
0.04148502 0.17472206 0.48427789 163 158 156
0.04174663 0.18136803 0.48842126 139 135 136
0.05790614 0.23445097 0.67811894 155 147 140
0.05752159 0.23112472 0.68528565 172 164 163
0.05879482 0.39864679 1.07176644 152 144 148
0.05762446 0.41165175 1.07622603 136 134 134
0.05283814 0.41266769 1.08812526 145 144 142
0.05411483 0.42515654 1.07655622 162 160 158
0.05183568 0.42176417 1.08116722 163 163 161
0.05388112 0.43157786 1.81128397 165 160 159
0.04776595 0.43187751 1.82524233 173 169 167
0.04379829 0.43901628 1.84460706 180 176 172
0.05870546 0.44078404 1.81254506 139 130 139
0.04843770 0.44245045 1.82721772 157 149 150
0.04213182 0.44666670 1.85520818 173 167 163
0.04422373 0.44967456 1.86234021 166 157 157
0.07156524 -0.30059726 0.77426817 141 142 146
0.07018107 -0.29306605 0.77665300 151 152 156
0.06839571 -0.28405433 0.78091715 157 158 161
0.07019905 -0.27696451 0.78226349 152 153 157
0.07032542 -0.24791593 0.79847639 85 85 94
0.07412565 -0.25697238 0.80034459 94 95 102
0.07079142 -0.23012243 0.79857211 85 85 92
0.06605331 -0.23169318 0.80053935 73 72 80
0.06975993 -0.21751470 0.79544875 70 71 80
0.07179014 -0.18921879 0.81273809 167 167 173
0.06351962 -0.18429086 0.82143840 192 193 197
0.07523392 -0.16328557 0.79518789 182 184 189
0.07261565 -0.17555469 0.81593534 172 172 180
0.07284846 -0.14328704 0.82965306 68 69 78
0.07082473 -0.13013805 0.82970656 55 54 63
0.06977326 -0.11669871 0.82819483 55 54 63
0.07161742 -0.08711130 0.82925099 189 190 199
0.07245124 -0.07126722 0.83005545 191 191 200
0.07009211 0.17917975 0.48942679 127 126 126
0.07684600 0.18453400 0.47941431 172 169 164
0.07280095 0.18340026 0.48917229 153 149 150
0.07467760 0.21432941 0.67416721 155 154 156
0.06990241 0.21337326 0.68451884 125 123 128
0.07551510 0.23031624 0.65793503 172 171 170
0.07201939 0.22852005 0.67032356 146 144 146
0.06345422 0.22583639 0.68581248 156 152 150
0.07378714 0.24242634 0.65942788 130 121 126
0.06954492 0.24187516 0.66582366 156 150 146
0.07248779 0.41717280 1.05536230 144 145 140
0.06688341 0.41390166 1.07253777 141 140 139
0.06117924 0.41055191 1.08116722 140 137 135
0.07882424 0.41249312 1.77183495 171 170 168
0.07493952 0.41013128 1.79495657 171 171 170
0.07136043 0.41380941 1.80591193 175 175 175
0.07452542 0.42163288 1.05367488 128 125 124
0.06867030 0.42270952 1.06822328 135 134 134
0.07915384 0.42345980 1.77924371 125 124 130
0.07730067 0.42635343 1.79574311 145 144 147
0.07037153 0.42853472 1.81255916 157 156 156
0.06682317 0.43295651 1.82502760 147 145 147
0.06284653 0.42886722 1.84209740 177 177 177
0.06820937 0.44111760 1.83216150 127 122 134
0.07065713 0.44615245 1.85217273 127 124 137
0.08406043 -0.30052656 0.77517676 53 53 63
0.08443039 -0.29139814 0.77704114 51 52 62
0.08349023 -0.28341859 0.78019987 52 51 58
0.08716253 -0.27708572 0.77896237 48 48 54
0.08383143 -0.27596923 0.78183454 51 51 58
0.08709694 -0.26002154 0.80318940 199 197 203
0.08476376 -0.24657485 0.79849319 191 192 194
0.08803740 -0.25071647 0.80181321 192 193 195
0.08532875 -0.23005622 0.79854046 193 193 197
0.08789577 -0.23393577 0.80153761 193 193 198
0.08343066 -0.21893845 0.79658295 192 192 199
0.08691996 -0.18847962 0.81196660 47 48 56
0.08632543 -0.17722945 0.81485550 46 46 57
0.08737529 -0.14396783 0.83060924 193 193 200
0.08701435 -0.13248516 0.83099540 193 193 201
0.08130422 -0.11793581 0.82905676 193 193 202
0.08925357 -0.08674285 0.82904518 52 52 63
0.08814939 -0.07144583 0.82981698 48 48 61
0.08727748 0.15932211 0.55855022 161 151 150
0.08587432 0.15837525 0.56482479 158 151 149
0.08778875 0.16261915 0.55568822 130 127 129
0.09181606 0.16271955 0.56704765 124 125 128
0.09627486 0.17316621 0.81355658 173 171 171
0.09738537 0.18598619 0.77091508 172 170 171
0.09393923 0.19010218 0.78919626 166 164 165
0.09445935 0.18153968 0.80878174 176 175 176
0.08288762 0.21358158 0.66813736 164 158 158
0.08173503 0.20921445 0.68228027 179 176 176
0.08454437 0.22609228 0.65331942 173 171 166
0.08389519 0.22370174 0.66482337 141 140 143
0.09234876 0.39190640 1.73818421 150 144 148
0.09270547 0.39115050 1.74489820 148 144 146
0.09058189 0.39213013 1.76895779 149 145 149
0.08552887 0.39990720 1.78392589 142 141 143
0.08134583 0.41975576 1.07601881 162 161 151
0.08333583 0.40767902 1.73818421 174 172 169
0.08447881 0.40637696 1.74941053 160 157 156
0.08601075 0.40670390 1.76998580 154 151 153
0.08348884 0.40432046 1.78982201 150 149 152
0.08134604 0.42254506 1.07602149 142 142 135
0.08311108 0.42477289 1.77614665 128 128 132
0.08244550 0.43074092 1.78392589 136 137 141
0.09783786 0.68958329 1.99284802 176 173 167
0.11637163 -0.28555173 0.75296524 53 53 59
0.11530343 -0.27781910 0.75730162 53 53 57
0.11831262 -0.27547343 0.76147897 55 55 59
0.11637057 -0.24249002 0.77307327 192 193 195
0.11658636 -0.23179485 0.77648875 193 194 197
0.11805692 -0.22589542 0.78026239 193 194 197
0.11768299 -0.19011305 0.79788116 47 47 53
0.11619518 -0.18434506 0.80091641 46 45 51
0.11365984 -0.18216930 0.82468593 43 42 51
0.11755011 -0.17423855 0.79839016 45 45 53
0.11647320 -0.17413858 0.80155801 45 44 53
0.11900437 -0.14430979 0.81612436 194 194 201
0.11830977 -0.13059415 0.81339390 194 194 202
0.11904892 -0.11984018 0.81281996 194 194 203
0.11962265 -0.08230280 0.81673717 46 46 55
0.11939482 -0.07559927 0.81781238 45 44 54
0.10351953 0.15888985 0.80616140 146 146 150
0.10920203 0.16578979 0.57526667 145 142 143
0.10288657 0.16216836 0.58168266 139 138 142
0.10301135 0.16884026 0.81007542 168 164 164
0.10741335 0.19022565 0.77413289 156 152 153
0.10696083 0.19937237 0.78098240 163 156 150
0.11110776 0.20540981 0.77829260 140 138 140
0.10857360 0.20955668 0.78773834 129 126 131
0.10606871 0.21846372 0.80319466 117 117 125
0.10716193 0.22087535 0.80272090 94 94 105
0.10158698 0.68387246 1.97636104 177 174 168
0.10218280 0.69303745 1.98795259 174 171 167
0.12772240 -0.28514764 0.75448390 142 141 145
0.13742371 -0.28208023 0.76234391 195 195 196
0.12919971 -0.27352902 0.75855996 153 154 156
0.12788791 -0.27428813 0.76179171 134 135 139
0.12940754 -0.25989562 0.75826830 194 195 198
0.12983444 -0.24320161 0.77307587 110 111 116
0.12903394 -0.23279345 0.77705284 123 124 129
0.13250335 -0.22354998 0.78022760 93 93 100
0.12355008 -0.21992855 0.77918601 195 195 201
0.13183990 -0.20869146 0.79165758 132 132 137
0.13105503 -0.20100069 0.80034459 123 122 127
0.13040566 -0.19096084 0.79856605 116 116 121
0.12858180 -0.18213708 0.80034459 96 96 101
0.13386399 -0.17097662 0.79902071 164 164 170
0.12809068 -0.17400489 0.80048302 82 81 90
0.13025136 -0.14406948 0.81442358 147 148 155
0.13005559 -0.13014545 0.81137955 144 144 154
0.13018417 -0.11817128 0.81078760 141 141 150
0.12988045 -0.08425399 0.81440585 96 95 103
0.13027773 -0.07080305 0.81581375 97 98 107
0.13198593 0.31489424 1.73596150 177 177 176
0.13417334 0.31802329 1.74489820 171 170 171
0.13372493 0.33059395 1.74890735 178 176 177
0.13691552 0.33004288 1.76075804 176 173 175
0.13580196 0.34208849 1.75619650 181 178 178
0.13437162 0.34543068 1.77073689 181 178 178
0.13212715 0.35149825 1.78863287 183 179 178
0.13318136 0.35741892 1.80290389 174 168 169
0.13353652 0.36149654 1.80771160 171 167 168
0.15919718 -0.28276529 0.71702912 194 195 196
0.15877683 -0.27508053 0.71614304 193 194 196
0.14031320 -0.24241315 0.77297191 52 53 59
0.14154676 -0.23402822 0.77612492 50 50 57
0.14148963 -0.22597688 0.78192644 49 49 56
0.14593382 -0.20843488 0.78924017 133 133 139
0.14312398 -0.20212968 0.80208157 193 194 196
0.15991260 -0.19568687 0.77918601 195 195 199
0.15035516 -0.19066111 0.79069685 193 194 199
0.14305227 -0.18941868 0.80121564 194 194 199
0.15881150 -0.17403913 0.77873874 194 195 200
0.14486600 -0.17429653 0.79545510 193 193 200
0.14315708 -0.17508726 0.80097582 193 193 200
0.14331653 -0.14356385 0.81397306 51 51 61
0.14513687 -0.12986728 0.81125401 46 46 55
0.14419856 -0.11872632 0.81131851 45 45 55
0.14312753 -0.08345822 0.81423176 194 193 202
0.14347174 -0.07259035 0.81469457 194 194 202
0.15967991 0.17157056 0.69078670 136 135 138
0.15833365 0.23956433 1.09396466 178 176 177
0.15937608 0.25146956 0.65403642 145 146 141
0.15955337 0.25748414 0.66298267 148 144 145
0.15682258 0.24383007 1.07418342 163 155 154
0.15421156 0.24184234 1.08987936 180 179 176
0.15984030 0.26002568 0.66656029 158 154 153
0.15232664 0.31409923 1.73216724 159 157 158
0.14604288 0.31539464 1.74565842 173 171 171
0.14261176 0.31640893 1.76534331 182 181 178
0.15336000 0.32658133 1.73508143 152 144 147
0.14791342 0.32857746 1.74736774 167 161 162
0.14251964 0.32991935 1.76420298 180 175 177
0.14733533 0.34333068 1.77305766 168 167 166
0.17000851 -0.28720777 0.71677816 149 150 154
0.16154352 -0.29236242 0.72039515 194 195 195
0.17044490 -0.27021502 0.71768805 144 145 149
0.16181030 -0.26526776 0.72158911 192 193 195
0.17153319 -0.25594803 0.71689809 129 130 136
0.16188760 -0.25991851 0.72192955 191 192 194
0.17552425 -0.24301331 0.74210381 99 102 109
0.17181600 -0.22932715 0.74296325 77 78 84
0.17214075 -0.21242205 0.74347511 89 89 95
0.17474346 -0.18901388 0.75897962 190 190 195
0.16875983 -0.18650551 0.76773651 193 194 198
0.16186943 -0.19022930 0.78146796 194 195 199
0.17223481 -0.17104867 0.76678888 194 194 200
0.16075357 -0.17712365 0.78046811 194 194 200
0.17470124 -0.15933081 0.76808861 194 194 199
0.17775159 -0.14366214 0.78228691 71 71 78
0.17392775 -0.12949786 0.77792737 48 48 56
0.17312156 -0.11658911 0.77620048 48 48 55
0.17595629 -0.08318669 0.78508693 192 192 201
0.16962761 -0.06368689 0.77896237 193 193 202
0.17450665 -0.07005809 0.78340119 193 193 202
0.17049071 -0.05959562 0.77829146 191 191 200
0.17693500 -0.05767939 0.78325755 192 192 201
0.17289647 -0.02668241 0.78437894 46 45 54
0.17309653 -0.01306556 0.78543669 45 44 52
0.17736539 0.16867165 0.65126674 159 155 157
0.17029761 0.16705972 0.67154934 158 154 157
0.16370816 0.17039300 0.68714362 160 159 160
0.16183147 0.22705619 1.07944560 151 150 154
0.16937992 0.23638604 1.09122202 157 154 155
0.16453650 0.25178553 0.65101728 140 135 134
0.16270376 0.25834295 0.66297966 153 151 150
0.17146600 0.24754469 1.07480279 132 131 135
0.17327370 0.24366066 1.08765457 139 136 139
0.16731225 0.26466397 0.65789374 133 129 124
0.16422662 0.26601531 0.66741661 161 157 152
0.16518928 0.31366804 1.72751857 148 143 145
0.16773397 0.32318294 1.73080148 157 149 150
0.16443716 0.32803610 1.74866430 155 146 148
0.16623235 0.33681999 1.76996701 155 148 148
0.16833692 0.34042728 1.77924371 157 152 153
0.16656855 0.34623039 1.79337303 175 173 172
0.18366002 -0.28703522 0.71694797 56 59 67
0.18954971 -0.29179911 0.72177792 58 59 67
0.18373924 -0.27002667 0.71733188 53 54 60
0.18315091 -0.25615182 0.71543208 53 53 61
0.18459608 -0.24357735 0.74174929 192 194 197
0.18940955 -0.23612757 0.73924953 193 195 198
0.18600998 -0.22924885 0.74270534 194 194 198
0.18556653 -0.21140482 0.74319842 194 194 198
0.18911702 -0.18755634 0.75621685 56 57 66
0.18533702 -0.18081759 0.76082134 60 61 73
0.19445316 -0.17522774 0.73657461 47 46 55
0.19470741 -0.17661910 0.75561923 47 47 56
0.18543661 -0.17175753 0.76408676 67 67 79
0.18499600 -0.14046971 0.77918601 140 141 149
0.19035786 -0.14439251 0.78336498 161 162 168
0.18760909 -0.13012940 0.77836720 167 168 174
0.19551493 -0.13149915 0.78307559 194 194 200
0.18627442 -0.11744998 0.77665710 165 165 172
0.19496317 -0.11767453 0.78240583 193 193 201
0.18993545 -0.08364693 0.78557346 81 81 91
0.19917883 -0.06961135 0.76376280 45 44 52
0.18983640 -0.07004049 0.78324083 72 72 81
0.19012596 -0.05684904 0.78382183 67 67 76
0.18881088 -0.02741120 0.78547182 165 165 173
0.18882985 -0.01268655 0.78581883 167 167 176
0.18344161 0.17173955 0.65360164 172 172 173
0.19475531 0.25242151 0.63370073 117 117 119
0.19131219 0.25385316 0.64145170 128 127 128
0.18121054 0.24528856 1.08376199 158 156 156
0.19443189 0.26213061 0.63650160 102 103 105
0.19111873 0.26077709 0.64012450 128 128 127
0.21205828 -0.28117834 0.67028468 168 172 172
0.21166870 -0.27113763 0.67417059 99 100 106
0.21374299 -0.26111807 0.68238089 90 91 98
0.21593864 -0.25260930 0.68738883 98 100 105
0.21488128 -0.22566305 0.69455521 184 185 188
0.20995608 -0.22388324 0.70390584 194 195 199
0.21596648 -0.21913082 0.69860405 193 193 197
0.21411489 -0.21026352 0.70557309 193 194 198
0.21545022 -0.19205797 0.71080196 139 140 144
0.21469300 -0.18173366 0.72137159 53 53 57
0.21159303 -0.17447427 0.71861711 49 49 54
0.21480946 -0.16957483 0.72158906 50 49 56
0.21181168 -0.15258951 0.71668898 47 48 54
0.21687624 -0.15650580 0.72171502 50 50 58
0.21746087 -0.12801967 0.73453355 193 193 200
0.21967582 -0.12062428 0.74005657 194 194 202
0.21707749 -0.11514436 0.73774324 193 194 201
0.21985589 -0.11336065 0.74066320 193 194 201
0.21760410 -0.08171469 0.74921747 48 49 57
0.20249146 -0.08361779 0.79059878 49 48 58
0.21752695 -0.07128524 0.75052589 46 45 53
0.20263702 -0.07140823 0.77603797 44 43 51
0.20804103 -0.07309981 0.78918920 44 44 51
0.20104845 -0.05688569 0.78733081 44 44 51
0.21304761 -0.03360689 0.73924953 192 195 205
0.21582544 -0.02703284 0.74659104 193 194 203
0.21749678 -0.01503895 0.75182273 193 193 201
0.20214061 0.25689290 0.62986094 143 142 140
0.20298366 0.26296584 0.63143846 83 82 83
0.22214654 -0.28126784 0.67206786 184 186 190
0.23942607 -0.26197874 0.62440405 195 196 196
0.22360927 -0.27105662 0.67575806 193 194 196
0.22569423 -0.26214537 0.68365468 192 194 196
0.23884273 -0.25007903 0.62741478 190 191 194
0.22594886 -0.25183839 0.68832142 192 194 196
0.23986162 -0.23883411 0.63443330 191 192 195
0.22701933 -0.22543456 0.69521672 56 56 66
0.22790373 -0.21756314 0.69769111 54 55 63
0.22658418 -0.20917686 0.70503828 71 71 80
0.22669888 -0.19446962 0.70894169 99 101 108
0.22874799 -0.18349983 0.72073961 152 153 157
0.23478844 -0.17336800 0.71783759 193 194 198
0.22810035 -0.17002646 0.72116907 152 153 157
0.23027982 -0.15162446 0.71963042 192 194 201
0.22667574 -0.15607408 0.72142243 144 146 152
0.22936464 -0.12855744 0.73451940 109 109 118
0.22095495 -0.12062428 0.74005657 194 194 203
0.23942469 -0.11717054 0.71132410 47 46 54
0.23082274 -0.11705795 0.73897015 104 104 113
0.22892195 -0.11128629 0.74036354 121 121 130
0.23060395 -0.08349308 0.75120533 124 126 134
0.23953719 -0.06729401 0.71780503 197 198 207
0.23905377 -0.06667995 0.72039515 197 197 206
0.22994025 -0.07080951 0.75077078 121 122 129
0.22966535 -0.02549688 0.75200444 120 120 129
0.23023594 -0.01371996 0.75338982 112 112 122
0.23751196 0.10633359 0.45861182 149 149 149
0.23419286 0.10841472 0.46260082 153 150 149
0.24621524 -0.26290959 0.62335969 167 168 172
0.24958019 -0.24947696 0.62739602 129 130 136
0.25088813 -0.23312976 0.63517344 129 129 135
0.25222394 -0.22301755 0.64589481 122 122 127
0.25193607 -0.21026446 0.65245267 81 81 87
0.25197377 -0.19173322 0.65829034 71 72 77
0.25327595 -0.18196882 0.66284568 68 69 79
0.25480724 -0.16925890 0.67083000 188 190 194
0.25485690 -0.15221526 0.67458705 194 195 199
0.25002673 -0.13826298 0.67051619 194 194 200
0.25644403 -0.12443932 0.69129630 50 51 57
0.24230691 -0.12559538 0.73367554 49 48 56
0.24275067 -0.12364896 0.74142478 49 48 56
0.25535754 -0.11257045 0.68796963 50 50 55
0.24206864 -0.11698406 0.72414947 47 46 54
0.24214771 -0.11470273 0.74201519 48 47 56
0.24765374 -0.08205140 0.71734829 197 197 203
0.24260008 -0.08481982 0.75658494 192 193 201
0.24556485 -0.08916082 0.76082134 184 186 192
0.25863280 -0.07359294 0.69885885 193 194 202
0.24991676 -0.06926775 0.71280397 195 197 204
0.25067981 -0.06530645 0.72090626 196 197 205
0.24197094 -0.07141675 0.75339247 197 196 205
0.24424982 -0.06417548 0.76082134 197 199 207
0.25827942 -0.05841280 0.70383321 191 191 200
0.25774381 -0.02182031 0.71098516 45 43 51
0.24445902 -0.02474522 0.75508925 45 44 53
0.25787475 -0.01467183 0.71088518 42 41 49
0.24430093 -0.01468220 0.75399903 42 42 48
0.24196175 0.10346253 0.45666962 132 130 132
0.25855625 0.18743497 0.91360418 180 173 174
0.25912093 0.21864676 0.69814080 186 178 175
0.25941604 0.21890796 0.70721059 176 170 168
0.25854113 0.21359099 0.72564000 165 164 159
0.24949141 0.21210030 0.93890840 158 157 153
0.25651385 0.21120592 0.95170204 152 149 149
0.25731602 0.22116452 0.71208778 166 165 163
0.25875346 0.22121186 0.72296508 169 167 165
0.25421399 0.30423038 1.65743732 147 146 146
0.25525552 0.31267275 1.66422784 130 130 134
0.25480461 0.31400952 1.69474542 144 141 141
0.25548729 0.31757990 1.71401501 145 139 138
0.25146538 0.31851692 1.72713822 166 160 154
0.25864062 0.32264376 1.68629813 108 107 121
0.25960061 0.32457352 1.71184814 128 128 133
0.25422632 0.32460403 1.73129915 144 142 140
0.24989218 0.32820233 1.75091969 145 142 144
0.24838110 0.33323712 1.77169614 137 134 139
0.25081768 0.33868599 1.78627938 130 124 133
0.25219256 0.34173385 1.77645392 126 125 132
0.25231002 0.34688310 1.79140559 137 136 143
0.25159594 0.35118657 1.80290389 139 139 148
0.26365832 -0.24542823 0.63156121 52 52 58
0.26267704 -0.23191810 0.63544664 56 56 64
0.26316012 -0.22261395 0.64685991 159 160 164
0.27909516 -0.21171524 0.59051687 75 75 83
0.27821577 -0.20342842 0.60404899 193 195 197
0.26419371 -0.20974822 0.65249690 193 194 195
0.27843787 -0.19048582 0.61031594 194 196 198
0.26326039 -0.19321631 0.65840603 193 194 196
0.26730716 -0.19157983 0.66175787 193 194 197
0.27899791 -0.17943733 0.61319941 194 196 198
0.26889623 -0.16827990 0.67208715 69 69 76
0.26788661 -0.15284259 0.67589650 74 75 83
0.27727503 -0.14647377 0.68316158 49 48 59
0.26965195 -0.12646179 0.69305441 142 143 147
0.26872804 -0.11084615 0.68743806 159 160 166
0.27219799 -0.09925121 0.68464094 196 199 204
0.27105903 -0.07270206 0.69821037 93 94 101
0.26995595 -0.06544401 0.70192930 108 109 118
0.27005772 -0.05678232 0.70370207 105 105 113
0.27033780 -0.02445266 0.71319658 122 122 127
0.27001685 -0.01445673 0.71213708 122 122 130
0.26208229 0.18960029 0.91105908 180 175 174
0.26424048 0.19610625 0.92944652 175 171 172
0.26385233 0.19915275 0.94679016 162 159 162
0.26242094 0.21421022 0.71320983 169 165 163
0.26200995 0.21316648 0.72467025 158 157 155
0.26747875 0.20548298 0.93279220 177 175 174
0.26524660 0.20912554 0.94929596 154 152 154
0.26027880 0.22061588 0.72373307 170 167 166
0.26582579 0.31377232 1.68561293 134 133 136
0.27778284 0.31598015 1.70539099 134 132 135
0.27118556 0.32370953 1.69191909 121 122 127
0.27188910 0.32704823 1.70725880 128 127 134
0.26147401 0.33215576 1.73080524 108 105 118
0.26093113 0.33993369 1.76075804 114 112 122
0.28935978 -0.20866420 0.59523142 122 120 120
0.28741944 -0.20298494 0.60172003 158 154 155
0.29711115 -0.19763719 0.59679410 103 107 112
0.28981584 -0.19017891 0.60855023 153 152 155
0.28970360 -0.17726565 0.61331629 161 158 159
0.28235407 -0.16060318 0.62096973 49 51 58
0.28442942 -0.15633336 0.61964518 47 47 55
0.29007161 -0.14880956 0.62260267 72 70 74
0.28039666 -0.14663231 0.68525851 48 48 58
0.29822290 -0.12666878 0.61771950 94 95 102
0.29256857 -0.13485183 0.62268925 82 81 85
0.29389263 -0.12203004 0.64299577 192 193 196
0.28564577 -0.11003550 0.63888128 195 197 202
0.29438465 -0.10917423 0.64126661 182 182 187
0.28541137 -0.09323806 0.63861779 193 193 201
0.29223538 -0.09706716 0.64261029 188 188 194
0.28021047 -0.06445089 0.69957876 44 43 50
0.28150558 -0.05456281 0.70573034 45 44 52
0.29531721 -0.02530325 0.66863794 186 187 192
0.28239963 -0.02584767 0.71714425 189 189 196
0.28386952 -0.02966944 0.72116195 188 188 194
0.28758590 -0.00280522 0.65265755 191 192 200
0.29484429 -0.01400608 0.66789141 191 192 200
0.28188100 -0.01589991 0.71541386 192 192 200
0.28761892 0.00207812 0.64932472 191 193 200
0.29173967 0.13408111 0.75007846 167 164 162
0.29080303 0.14620155 0.73748282 161 157 159
0.29387218 0.14356237 0.75011879 166 159 158
0.29290551 0.14293988 0.76082134 180 179 176
0.29078632 0.31702668 1.69263756 154 155 155
0.28405541 0.31631867 1.70324588 155 155 156
0.28834204 0.32209398 1.67263493 169 169 164
0.28766456 0.32299088 1.68811233 164 164 160
0.28117880 0.32591748 1.71114033 144 142 148
0.30020817 -0.18241677 0.61431080 103 104 112
0.30178996 -0.14758083 0.62322487 96 96 104
0.30118452 -0.13118350 0.61779905 93 96 102
0.30151115 -0.13719386 0.62224571 94 95 104
0.30549676 -0.12204108 0.64465401 116 115 120
0.30667120 -0.11276223 0.63772082 104 104 110
0.30767208 -0.10995129 0.64369648 99 96 103
0.30669386 -0.09644558 0.64664827 85 79 84
0.31248153 -0.06093701 0.61814062 58 57 59
0.31640957 -0.06945435 0.62351174 58 57 59
0.30752384 -0.05319061 0.61239152 58 57 57
0.30715204 -0.02313182 0.66938040 158 155 156
0.30559223 -0.01429982 0.66870405 158 155 158
0.30435377 0.13763765 0.75697030 139 137 139
0.30565497 0.13516358 0.76146252 154 152 154
0.31015530 0.15038665 0.73924953 122 122 129
0.30927121 0.15233674 0.75322071 159 157 156
0.30605567 0.14491240 0.76082134 135 132 136
0.31178117 0.16106843 0.74934062 169 165 165
0.30255013 0.31472337 1.69389281 143 146 150
0.33741102 -0.20813282 0.45143276 106 110 112
0.33924218 -0.04530356 0.51808369 62 61 61
0.33979994 -0.05199671 0.52045447 62 61 61
0.32091131 0.15789235 0.75187783 148 146 147
0.32145163 0.16050349 0.75071079 173 173 171
0.34223353 -0.20678597 0.45165997 104 109 112
0.34391471 -0.04538612 0.51830178 61 61 61
0.34379531 -0.05221760 0.52073104 61 61 61
0.34575020 -0.03976090 0.51925907 61 58 57
0.35875028 0.39398770 1.16778016 174 172 170
0.37755157 0.36689308 1.11312586 156 156 154
0.37902281 0.37115827 1.12606621 161 161 159
0.36654751 0.38983431 1.16973473 166 163 160
0.36847421 0.38858373 1.18877093 162 159 157
0.36678391 0.39380183 1.20654121 172 169 165
0.36835030 0.40180507 1.17588282 165 164 160
0.37360587 0.41186214 1.18825104 166 165 162
0.36541252 0.40171455 1.20300335 169 169 164
0.36911944 0.40283320 1.22216165 167 166 162
0.38159194 0.37500623 1.12983437 150 147 146
0.38605560 0.37899844 1.15288061 156 156 155
0.38673174 0.38267908 1.14896917 147 143 144
0.38905262 0.38823929 1.17035127 144 142 143
0.38754771 0.39117536 1.18624190 143 143 143
0.38999988 0.40877215 1.19428898 129 125 125
0.39178990 0.41713686 1.20383696 129 124 125
0.38864924 0.42098829 1.19769625 144 143 139
0.39380643 0.42536784 1.20900134 139 138 135
0.40614307 0.13188542 0.49003587 153 151 146
0.41766318 0.13034649 0.53324053 168 168 163
0.41726074 0.14234505 0.55787135 137 135 136
0.41880019 0.23177550 0.75252009 158 150 147
0.40175102 0.41408860 1.19769128 137 134 133
0.40181112 0.41560194 1.20407840 123 120 120
0.40850975 0.42346015 1.19980860 166 165 160
0.40828507 0.42834464 1.21045699 148 147 144
0.40750904 0.43496441 1.22554246 137 135 135
0.40905480 0.44207642 1.23590639 138 137 135
0.41526189 0.44766024 1.25303483 138 137 135
0.42413163 0.12790961 0.53363760 171 169 162
0.43048645 0.13855953 0.55787455 161 162 157
0.42906557 0.13857773 0.56296131 145 140 137
0.42631363 0.14498443 0.55771638 160 160 156
0.42558432 0.14211408 0.56070503 151 149 147
0.43967892 0.18511277 0.59176088 172 172 166
0.42599047 0.23012188 0.75034041 141 137 135
0.43426907 0.48559013 1.23929036 129 131 130
0.43722454 0.48940302 1.25052981 131 133 133
0.43799222 0.49245089 1.26236844 142 145 142
0.44156744 0.18767233 0.59573469 168 167 160
0.44410041 0.19224188 0.60635032 165 164 157
0.44978943 0.20244503 0.61511376 158 156 154
0.45421198 0.20638638 0.62719874 164 162 159
0.45149130 0.25998816 0.73844427 135 135 136
0.45330149 0.25635736 0.74913373 133 133 132
0.45023932 0.26218338 0.73744247 129 129 131
0.45262215 0.26553837 0.74994983 131 129 126
0.45629809 0.26458632 0.76210527 132 129 128
0.45968005 0.28007376 0.75826830 158 158 154
0.44509718 0.45614282 1.23303404 174 170 167
0.44692233 0.45980492 1.25072300 174 174 168
0.44945724 0.47012952 1.23417942 165 160 156
0.44883052 0.47109290 1.24913520 159 154 151
0.45120972 0.47489284 1.26710902 156 151 148
0.45140517 0.48344812 1.23929036 167 168 159
0.44801992 0.48797373 1.25127743 149 149 147
0.44951249 0.48969864 1.26342593 137 135 135
0.45517162 0.49296536 1.28940246 118 116 117
0.44477735 0.50444238 1.26616501 127 126 132
0.44853231 0.51647536 1.28633156 125 124 131
0.44774044 0.52367627 1.29369303 135 133 134
0.46021199 0.21169554 0.63891786 154 150 151
0.47578216 0.24910415 0.89367087 155 154 155
0.47448496 0.25241284 0.90957764 154 152 151
0.47542953 0.25378141 0.92230183 152 150 144
0.46019480 0.27645117 0.75911742 144 143 138
0.46137252 0.27777719 0.76397036 145 145 137
0.46470881 0.28305956 0.77141483 154 154 149
0.47040618 0.28866274 0.78642873 155 153 149
0.47053094 0.47850748 1.33401128 158 156 156
0.47492457 0.47646937 1.35066135 174 169 164
0.46301785 0.48894488 1.30970651 154 150 147
0.46942990 0.49069068 1.33393865 160 160 157
0.47172674 0.49392959 1.34809170 165 163 160
0.46726415 0.50178091 1.33509848 142 139 138
0.47560060 0.50143719 1.36396754 166 164 160
0.48910382 0.23954409 0.91360086 152 144 138
0.49162137 0.23993033 0.92524864 159 159 152
0.48456124 0.24566317 0.91470036 147 141 139
0.49059370 0.24349553 0.92425032 153 149 144
0.51744572 0.22854220 0.61582968 152 151 143
0.51863470 0.23939536 0.62287867 139 138 137
0.51623469 0.24754382 0.61771820 138 135 129
0.51613661 0.24314716 0.62263764 138 137 133
0.52818422 0.21293756 0.73904821 125 116 120
0.53305016 0.21477901 0.74504375 135 130 131
0.52022934 0.22780098 0.61964518 161 161 150
0.53255521 0.23709522 0.62736320 154 152 146
0.52559551 0.24951189 0.61886819 120 115 113
0.53129179 0.24585042 0.62486967 123 121 119
0.55438226 0.19951417 0.76597947 160 157 155
0.54495694 0.21118658 0.75009377 168 167 160
0.55497382 0.20684488 0.76760951 159 159 158
0.54129326 0.23651832 0.62858102 151 147 143
0.54379341 0.25008780 0.62724601 158 158 152
0.55104334 0.24309010 0.64804323 161 160 151
0.57896799 -0.51693469 1.21922994 59 59 62
0.56115782 0.24465567 0.65623605 155 153 147
0.59126818 -0.52400747 1.21674539 99 98 96
0.58517289 -0.52597714 1.22714897 61 63 64
0.58898260 -0.51043501 1.21389515 102 101 94
0.58401207 -0.51411614 1.22659516 54 54 58
0.59886730 -0.43424049 0.86245781 103 109 113
0.60045190 -0.52372314 1.21835437 115 113 115
0.61242772 -0.44603231 0.86535852 107 113 114
0.61425569 -0.43248024 0.85896097 108 110 116
0.60988419 -0.43557987 0.86276031 105 111 114
0.61451453 0.13700031 0.81969994 172 172 160
0.61888474 0.13749909 0.82268429 161 161 149
0.61249012 0.16463969 0.61907965 162 163 154
0.61631806 0.16654104 0.62324028 160 160 153
0.62980520 0.12902713 0.81898083 147 147 145
0.62671549 0.12978101 0.82504242 142 141 139
0.62486362 0.17273488 0.63648305 146 145 142
0.63097198 0.17303940 0.64368286 147 147 144
0.63775650 0.19025547 0.63921922 150 150 146
0.63381330 0.18628994 0.64789249 153 153 149
0.63911152 0.20120452 0.63891786 139 133 133
0.63951421 0.20167951 0.64042702 140 135 135
0.64781606 0.11992045 0.83897507 108 108 105
0.64304680 0.12383035 0.83279850 129 129 127
0.65240151 0.12170931 0.84807893 117 119 115
0.64333540 0.16623144 0.65560138 147 147 145
0.64081979 0.18536662 0.63952059 131 130 128
0.64327390 0.19086867 0.64817479 147 147 142
0.64693391 0.20402040 0.65730790 152 153 145
0.65189419 0.20565532 0.66265466 149 150 141
0.65157379 0.31853729 0.85242969 151 152 154
0.64439172 0.32891172 0.83839907 141 138 134
0.64950805 0.32625722 0.84849619 129 127 127
0.65674928 0.33261405 0.86628538 127 125 122
0.66257638 0.31991053 0.85809094 164 162 150
0.66175423 0.32292728 0.85822757 154 153 149
0.66095241 0.33517380 0.87244849 129 125 122
0.66245091 0.34078109 0.87357193 134 128 122
0.77966646 0.39634901 1.19207323 158 157 154
0.77883183 0.40519436 1.19405304 162 163 160
0.77811132 0.42591446 1.21181776 153 153 143
0.77809924 0.43206366 1.22418663 178 176 166
0.78946750 0.39807599 1.19365006 141 140 138
0.79020850 0.40599268 1.19513003 164 164 159
0.79299399 0.41800168 1.20870772 156 155 149
0.78781991 0.42573286 1.21387443 135 133 131
0.78509456 0.43216115 1.22677709 163 162 154
0.79280603 0.43602541 1.25072300 174 175 164
0.78386815 0.44042060 1.22881321 166 166 159
0.80921807 0.11394040 0.77631740 109 117 117
0.80941500 0.11683207 0.78291881 109 114 114
0.81532977 0.12769252 0.78957853 152 154 148
0.80059099 0.39890572 1.19768882 128 122 123
0.80135250 0.39824283 1.20193589 124 119 121
0.80794239 0.40781040 1.19769067 139 140 135
0.81145260 0.41361788 1.20724879 150 150 144
0.81028014 0.42351395 1.21436680 151 151 146
0.80768004 0.42936704 1.22252911 134 131 133
0.82036853 0.12600826 0.79940075 131 132 131
0.82436677 0.12820835 0.80387931 148 149 147
0.82131213 0.41398282 1.21922994 140 140 135
0.82279193 0.41736767 1.22142673 153 155 146
0.82283698 0.42499966 1.21759021 159 156 151
0.82353358 0.42619652 1.22252911 159 157 152
0.94799209 0.41034074 1.04722730 164 163 160
0.95850259 0.41567731 1.06086361 164 163 160
0.95917678 0.45137253 1.07601881 169 166 155
0.96151203 0.41882181 1.06419444 160 160 158
0.97475785 0.41920218 1.59880149 123 121 120
0.97710262 0.41093404 1.60921403 143 140 138
0.97988153 0.41499999 1.62563992 158 158 154
0.97122074 0.43322254 1.07435695 147 146 139
0.96750358 0.43764819 1.08116722 147 144 141
0.96811185 0.43355424 1.55125618 146 146 143
0.97502038 0.43163256 1.56376642 135 135 133
0.97660011 0.42565010 1.59880149 103 103 102
0.97805368 0.42583794 1.60748190 131 130 126
0.97469193 0.44640695 1.07499028 140 139 136
0.97325249 0.44991976 1.08787906 143 142 138
0.97502945 0.45600663 1.10181728 141 141 136
0.98274104 0.41273033 1.61191252 139 136 135
0.99064605 0.41479835 1.62486584 136 134 132
0.99318051 0.43394029 1.59880149 115 112 113
0.99169905 0.42882403 1.60749999 123 121 121
0.98644527 0.42952727 1.62565241 149 147 143
0.98153656 0.44414452 1.07161117 130 130 126
0.98940207 0.44381652 1.59504969 148 148 147
0.99444428 0.44253982 1.60830474 123 123 124
0.99915813 0.44370268 1.62272310 109 108 110
1.01080314 0.37497567 1.13173958 162 162 151
1.01829499 0.37615705 1.14123201 170 168 156
1.01762104 0.38359527 1.14380022 155 155 150
1.01603556 0.39909834 1.62954772 170 165 161
1.00894877 0.41381600 1.61476980 162 159 153
1.01143389 0.41126740 1.62994141 156 151 147
1.01673533 0.41148430 1.64757620 155 148 143
1.00077891 0.42411723 1.61403433 148 146 147
1.00428516 0.42969451 1.63039857 132 132 132
1.01187593 0.42094637 1.64337659 147 144 141
1.00195277 0.44697952 1.62954772 110 113 113
1.02716335 0.37702368 1.15192399 172 171 160
1.03377627 0.37492734 1.17045921 148 148 139
1.03834993 0.37836741 1.18202680 133 130 121
1.02652147 0.38397106 1.15436703 165 165 155
1.03524935 0.39014638 1.16620546 159 159 153
1.03981829 0.38310081 1.18720114 135 134 125
1.02094388 0.39819619 1.63741994 168 163 156
1.03837389 0.39825192 1.64937186 147 141 138
1.02730978 0.41074421 1.63479271 153 148 145
1.03057575 0.40478277 1.64613572 155 151 148
1.03727543 0.42288029 1.64536858 173 169 162
1.05469802 0.37616750 1.15588743 144 144 132
1.05559993 0.37736198 1.16387851 160 161 147
1.04243779 0.37938805 1.18202680 139 139 130
1.05619073 0.38304446 1.15771152 155 151 142
1.05412195 0.38794455 1.16520928 168 165 154
1.04834775 0.38921239 1.18935763 158 159 151
1.04938834 0.39757702 1.20622089 127 126 125
1.04503131 0.40316822 1.17689562 156 157 157
1.05893087 0.40554309 1.19487480 153 153 153
1.05598586 0.40323800 1.21575103 111 111 110
1.05808228 0.40612356 1.22252911 97 96 96
1.04568398 0.40936870 1.65000580 162 159 159
1.05649147 0.40996455 1.66218001 167 166 166
1.04770152 0.42970515 1.19698966 137 137 137
1.05345553 0.43159144 1.20514965 139 139 138
1.04551020 0.42248929 1.64938658 162 162 156
1.06941897 0.37836719 1.16551612 123 123 117
1.06099987 0.38795269 1.15878952 153 151 144
1.06899656 0.39041326 1.16547172 149 147 139
1.06670660 0.40149017 1.16436443 175 172 160
1.06142461 0.40925628 1.19768882 146 147 147
1.07150213 0.40980729 1.21777328 152 155 152
1.07240026 0.41231413 1.23054835 131 131 130
1.07348043 0.41673657 1.24156010 111 110 111
1.06597362 0.43035297 1.21487358 150 151 148
1.07466600 0.42550871 1.23398565 140 140 138
1.07721217 0.42945588 1.24422350 134 133 131
1.06414831 0.42624384 1.66968429 162 163 161
1.08237104 0.38614026 1.16743791 139 138 131
1.08424627 0.41639778 1.23105349 147 148 146
1.08281153 0.41934562 1.24612474 123 123 124
1.08426737 0.42406477 1.23254025 151 152 151
1.08457079 0.42721047 1.25025685 132 132 131
1.09102082 0.43996635 1.71184814 166 165 161
1.09953272 0.43922588 1.72053766 158 159 158
1.08827257 0.44180948 1.70753610 169 164 159
1.10548043 0.43922588 1.72053766 158 159 158
1.11327422 0.44627958 1.73640604 160 161 158
1.11667764 0.45089552 1.74265254 164 165 161
1.12936269 0.44578978 1.74771695 162 162 162
1.13732016 0.45371529 1.76534331 164 165 163
1.15692019 0.39534932 1.36396754 159 159 153
1.14866471 0.40387772 1.35148180 172 171 162
1.15770912 0.40635055 1.36397119 174 172 164
1.14334893 0.45795915 1.76995254 170 170 168
1.14627552 0.46036315 1.77924371 169 169 165
1.15234989 0.46527100 1.78627938 171 171 167
1.16868154 0.40596018 1.37596579 175 175 167
1.17315939 0.41059193 1.38558474 171 170 163
1.18071330 0.41962621 1.39771509 171 169 161
1.18699663 0.41467825 1.40643620 172 171 164
1.19805932 0.41683853 1.42115688 172 172 167
1.18071330 0.42204204 1.39771509 164 164 158
1.18978127 0.42184775 1.41327381 176 174 166
1.19811475 0.42756030 1.42414248 173 173 164
1.18889077 0.45444512 1.39484389 148 145 139
1.19515991 0.46215835 1.39483917 134 133 129
1.19287992 0.46017724 1.40350282 146 146 139
1.18311739 0.49159503 1.39627713 163 163 152
1.19125410 0.48951196 1.41309321 172 171 166
1.19600790 0.48875135 1.42414790 170 169 167
1.20951223 0.41877370 1.43621796 161 161 157
1.20234966 0.42194816 1.43015579 174 174 168
1.21223280 0.42621984 1.44463283 170 170 163
1.20758367 0.45843676 1.40933859 127 125 122
1.20769378 0.46500764 1.41326153 134 134 129
1.21229072 0.46819380 1.43170377 153 152 144
1.21641624 0.47433241 1.44540495 162 161 151
1.20230493 0.48958977 1.43281156 170 169 167
1.21744004 0.48849608 1.45159185 166 165 161
1.21283559 0.50067637 1.45058115 167 166 164
1.22959751 0.13273142 1.35443062 152 152 146
1.23707545 0.13602352 1.36396754 148 149 145
1.23068237 0.42956822 1.46888983 166 167 161
1.23993659 0.44850123 1.47688854 159 159 152
1.22152044 0.46806868 1.42972507 134 133 129
1.22499910 0.46992829 1.45237726 168 168 159
1.23702872 0.47527762 1.46890354 174 174 165
1.22131097 0.48325066 1.45470357 159 159 151
1.23305315 0.48965695 1.47210027 169 170 161
1.23752737 0.49808735 1.48011315 175 176 168
1.22693253 0.51009566 1.47048128 164 164 161
1.23632032 0.50887373 1.48173255 165 163 162
1.24786075 0.13862142 1.37411388 147 148 145
1.25696516 0.13768573 1.38063514 159 159 155
1.25091927 0.14404390 1.37623196 124 123 124
