ply
format ascii 1.0
element vertex 1072
property float x
property float y
property float z
property uchar red
property uchar green
property uchar blue
end_header
0.24031197 -0.25494528 0.62420982 190 189 196
0.24139087 -0.25494528 0.62420982 190 190 197
0.24269323 -0.25518024 0.62478513 190 191 196
0.24354866 -0.25494528 0.62420982 189 190 195
0.24485302 -0.25518024 0.62478513 188 189 193
0.24593291 -0.25518024 0.62478513 188 189 193
0.24678534 -0.25494528 0.62420982 188 189 193
0.24786425 -0.25494528 0.62420982 192 192 196
0.24917258 -0.25518024 0.62478513 177 176 182
0.25025246 -0.25518024 0.62478513 90 89 96
0.25110093 -0.25494528 0.62420982 50 51 65
0.25217983 -0.25494528 0.62420982 74 75 89
0.25349215 -0.25518024 0.62478513 64 66 79
0.25457203 -0.25518024 0.62478513 63 65 77
0.25565192 -0.25518024 0.62478513 61 64 73
0.25673181 -0.25518024 0.62478513 58 59 68
0.25781170 -0.25518024 0.62478513 57 57 65
0.16154352 -0.29298499 0.72039515 193 194 195
0.16175726 -0.29112870 0.71583086 193 193 194
0.16299452 -0.29112870 0.71583086 195 195 195
0.16457936 -0.29174486 0.71734589 191 192 192
0.16564395 -0.29143646 0.71658754 192 193 193
0.16688251 -0.29143646 0.71658754 192 193 193
0.16812107 -0.29143646 0.71658754 192 193 193
0.16935964 -0.29143646 0.71658754 193 194 194
0.17041805 -0.29112870 0.71583086 194 195 195
0.17165531 -0.29112870 0.71583086 198 201 200
0.17289257 -0.29112870 0.71583086 171 175 175
0.17412983 -0.29112870 0.71583086 67 72 79
0.17536709 -0.29112870 0.71583086 64 66 75
0.17660433 -0.29112870 0.71583086 70 69 79
0.17802958 -0.29143646 0.71658754 67 66 75
0.17907885 -0.29112870 0.71583086 64 64 73
0.18031611 -0.29112870 0.71583086 62 64 72
0.18174528 -0.29143646 0.71658754 60 64 71
0.18298385 -0.29143646 0.71658754 58 62 69
0.18461271 -0.29205391 0.71810579 58 61 69
0.18506970 -0.29082161 0.71507579 59 62 70
0.18610933 -0.29051515 0.71432227 59 62 70
0.18913770 -0.29329669 0.72116154 59 62 68
0.20331490 -0.27378240 0.67317957 57 57 63
0.20366941 -0.27269918 0.67051619 57 57 64
0.20503116 -0.27296919 0.67118007 56 56 63
0.20660034 -0.27351078 0.67251176 60 60 67
0.20776272 -0.27351078 0.67251176 59 61 66
0.20913258 -0.27378240 0.67317957 57 60 65
0.21029612 -0.27378240 0.67317957 59 63 65
0.21124987 -0.27351078 0.67251176 62 66 67
0.21241225 -0.27351078 0.67251176 57 61 62
0.21357463 -0.27351078 0.67251176 36 40 40
0.21473701 -0.27351078 0.67251176 175 179 178
0.21589939 -0.27351078 0.67251176 191 196 194
0.21727733 -0.27378240 0.67317957 187 193 191
0.21844088 -0.27378240 0.67317957 191 196 194
0.21982270 -0.27405456 0.67384875 191 195 194
0.22098739 -0.27405456 0.67384875 192 196 195
0.22215208 -0.27405456 0.67384875 191 195 195
0.22376163 -0.27460048 0.67519110 192 196 195
0.22492865 -0.27460048 0.67519110 192 196 195
0.22632109 -0.27487427 0.67586422 193 196 195
0.23881388 -0.25456959 0.62593889 189 190 194
0.23989576 -0.25456959 0.62593889 190 190 195
0.24031197 -0.25386637 0.62420982 190 189 196
0.24139087 -0.25386637 0.62420982 189 190 194
0.24269323 -0.25410035 0.62478513 188 189 193
0.24377313 -0.25410035 0.62478513 188 189 193
0.24485302 -0.25410035 0.62478513 187 188 192
0.24593291 -0.25410035 0.62478513 188 189 192
0.24701279 -0.25410035 0.62478513 188 189 193
0.24809268 -0.25410035 0.62478513 193 192 198
0.24917258 -0.25410035 0.62478513 167 166 174
0.25025246 -0.25410035 0.62478513 81 80 89
0.25110093 -0.25386637 0.62420982 44 43 57
0.25241226 -0.25410035 0.62478513 74 74 87
0.25372598 -0.25433475 0.62536150 66 67 77
0.25480688 -0.25433475 0.62536150 64 64 73
0.25588775 -0.25433475 0.62536150 62 62 70
0.25696865 -0.25433475 0.62536150 56 56 63
0.25804955 -0.25433475 0.62536150 56 56 61
0.16012821 -0.29143015 0.71963042 194 195 195
0.16154352 -0.29173985 0.72039515 193 194 194
0.16192825 -0.29019788 0.71658754 193 194 194
0.16316682 -0.29019788 0.71658754 192 193 193
0.16457936 -0.29050496 0.71734589 192 193 193
0.16581923 -0.29050496 0.71734589 193 194 194
0.16688251 -0.29019788 0.71658754 193 194 194
0.16812107 -0.29019788 0.71658754 193 194 194
0.16935964 -0.29019788 0.71658754 193 194 194
0.17059821 -0.29019788 0.71658754 194 195 195
0.17165531 -0.28989145 0.71583086 197 201 200
0.17289257 -0.28989145 0.71583086 165 170 169
0.17412983 -0.28989145 0.71583086 67 70 78
0.17555246 -0.29019788 0.71658754 68 69 78
0.17679103 -0.29019788 0.71658754 68 68 79
0.17802958 -0.29019788 0.71658754 66 66 75
0.17926815 -0.29019788 0.71658754 61 61 70
0.18050671 -0.29019788 0.71658754 61 61 70
0.18174528 -0.29019788 0.71658754 59 61 70
0.18298385 -0.29019788 0.71658754 58 61 69
0.18480848 -0.29112110 0.71886730 57 60 68
0.18506970 -0.28958565 0.71507579 58 61 69
0.18630564 -0.28958565 0.71507579 58 61 69
0.20331490 -0.27261886 0.67317957 57 57 64
0.20366941 -0.27154025 0.67051619 57 57 64
0.20523435 -0.27207848 0.67184526 57 57 64
0.20660034 -0.27234840 0.67251176 56 58 63
0.20796904 -0.27261886 0.67317957 58 60 65
0.20913258 -0.27261886 0.67317957 59 60 66
0.21029612 -0.27261886 0.67317957 61 62 67
0.21145965 -0.27261886 0.67317957 64 65 68
0.21262319 -0.27261886 0.67317957 54 58 59
0.21378672 -0.27261886 0.67317957 42 45 49
0.21495026 -0.27261886 0.67317957 177 181 186
0.21611381 -0.27261886 0.67317957 193 197 199
0.21749331 -0.27288985 0.67384875 190 194 191
0.21865802 -0.27288985 0.67384875 191 195 193
0.21982270 -0.27288985 0.67384875 191 195 192
0.22098739 -0.27288985 0.67384875 192 196 195
0.22215208 -0.27288985 0.67384875 191 195 194
0.22398473 -0.27370608 0.67586422 192 196 195
0.22492865 -0.27343348 0.67519110 194 195 195
0.22632109 -0.27370608 0.67586422 194 195 196
0.22681086 -0.27288985 0.67384875 194 195 196
0.23751269 -0.25325388 0.62536150 188 190 194
0.23881388 -0.25348771 0.62593889 189 190 194
0.23967446 -0.25325388 0.62536150 191 192 196
0.24053346 -0.25302047 0.62478513 190 191 195
0.24139087 -0.25278747 0.62420982 189 190 194
0.24291712 -0.25325388 0.62536150 188 189 193
0.24377313 -0.25302047 0.62478513 188 189 193
0.24485302 -0.25302047 0.62478513 188 189 192
0.24593291 -0.25302047 0.62478513 188 189 191
0.24701279 -0.25302047 0.62478513 189 189 193
0.24809268 -0.25302047 0.62478513 196 196 200
0.24940245 -0.25325388 0.62536150 159 159 168
0.25025246 -0.25302047 0.62478513 72 72 83
0.25133237 -0.25302047 0.62478513 51 50 63
0.25264511 -0.25325388 0.62536150 74 74 85
0.25372598 -0.25325388 0.62536150 65 65 72
0.25504217 -0.25348771 0.62593889 63 63 70
0.25612405 -0.25348771 0.62593889 61 62 69
0.25696865 -0.25325388 0.62536150 58 59 64
0.25828782 -0.25348771 0.62593889 55 56 60
0.25960940 -0.25372201 0.62651742 54 55 59
0.16012821 -0.29018632 0.71963042 194 195 195
0.16154352 -0.29049471 0.72039515 194 194 194
0.16192825 -0.28895932 0.71658754 194 194 194
0.16316682 -0.28895932 0.71658754 194 194 194
0.16475371 -0.28957152 0.71810579 193 194 194
0.16581923 -0.28926510 0.71734589 193 194 194
0.16705911 -0.28926510 0.71734589 193 194 194
0.16812107 -0.28895932 0.71658754 193 194 194
0.16953886 -0.28926510 0.71734589 193 194 194
0.17059821 -0.28895932 0.71658754 194 195 195
0.17183676 -0.28895932 0.71658754 197 202 201
0.17289257 -0.28865418 0.71583086 163 168 168
0.17412983 -0.28865418 0.71583086 61 65 76
0.17555246 -0.28895932 0.71658754 64 66 78
0.17660433 -0.28865418 0.71583086 66 68 81
0.17802958 -0.28895932 0.71658754 66 66 75
0.17907885 -0.28865418 0.71583086 62 62 71
0.18050671 -0.28895932 0.71658754 61 61 70
0.18174528 -0.28895932 0.71658754 58 61 69
0.18298385 -0.28895932 0.71658754 58 61 69
0.18461271 -0.28957152 0.71810579 57 60 68
0.18506970 -0.28834972 0.71507579 57 60 68
0.18630564 -0.28834972 0.71507579 56 59 67
0.18913770 -0.29080373 0.72116154 56 59 67
0.20351700 -0.27172518 0.67384875 56 56 65
0.20366941 -0.27038133 0.67051619 56 56 65
0.20523435 -0.27091727 0.67184526 56 56 65
0.20680551 -0.27145532 0.67317957 56 56 63
0.20796904 -0.27145532 0.67317957 58 58 64
0.20913258 -0.27145532 0.67317957 59 60 65
0.21050516 -0.27172518 0.67384875 60 61 64
0.21166985 -0.27172518 0.67384875 62 63 66
0.21262319 -0.27145532 0.67317957 47 50 62
0.21378672 -0.27145532 0.67317957 46 48 61
0.21495026 -0.27145532 0.67317957 180 182 196
0.21611381 -0.27145532 0.67317957 191 195 200
0.21749331 -0.27172518 0.67384875 191 195 195
0.21865802 -0.27172518 0.67384875 191 194 194
0.22004144 -0.27199554 0.67451924 190 193 193
0.22120729 -0.27199554 0.67451924 193 195 196
0.22237313 -0.27199554 0.67451924 194 195 197
0.22398473 -0.27253792 0.67586422 193 194 197
0.22515291 -0.27253792 0.67586422 194 195 197
0.22654694 -0.27280989 0.67653877 194 195 197
0.22703654 -0.27199554 0.67451924 194 195 197
0.23773199 -0.25240582 0.62593889 192 194 197
0.23881388 -0.25240582 0.62593889 190 194 195
0.23989576 -0.25240582 0.62593889 190 192 195
0.24075535 -0.25217298 0.62536150 189 190 194
0.24161334 -0.25194058 0.62478513 189 190 193
0.24291712 -0.25217298 0.62536150 188 189 191
0.24399801 -0.25217298 0.62536150 188 189 191
0.24507889 -0.25217298 0.62536150 188 189 191
0.24615978 -0.25217298 0.62536150 188 189 192
0.24724066 -0.25217298 0.62536150 190 190 194
0.24832155 -0.25217298 0.62536150 197 197 201
0.24940245 -0.25217298 0.62536150 157 157 167
0.25048333 -0.25217298 0.62536150 67 66 77
0.25133237 -0.25194058 0.62478513 55 57 68
0.25264511 -0.25217298 0.62536150 68 70 80
0.25396028 -0.25240582 0.62593889 61 64 70
0.25504217 -0.25240582 0.62593889 60 63 69
0.25612405 -0.25240582 0.62593889 59 62 68
0.25720593 -0.25240582 0.62593889 57 60 65
0.25852653 -0.25263911 0.62651742 53 56 62
0.25984955 -0.25287282 0.62709701 54 54 61
0.26045159 -0.25240582 0.62593889 55 56 63
0.16012821 -0.28894252 0.71963042 194 195 195
0.16137204 -0.28894252 0.71963042 193 194 194
0.16192825 -0.28772077 0.71658754 193 194 194
0.16316682 -0.28772077 0.71658754 193 194 194
0.16475371 -0.28833035 0.71810579 193 194 194
0.16581923 -0.28802523 0.71734589 193 194 194
0.16705911 -0.28802523 0.71734589 193 194 194
0.16812107 -0.28772077 0.71658754 193 194 194
0.16953886 -0.28802523 0.71734589 193 194 195
0.17059821 -0.28772077 0.71658754 194 195 196
0.17183676 -0.28772077 0.71658754 197 202 202
0.17307533 -0.28772077 0.71658754 160 166 167
0.17412983 -0.28741693 0.71583086 53 55 68
0.17555246 -0.28772077 0.71658754 59 61 74
0.17679103 -0.28772077 0.71658754 69 71 84
0.17802958 -0.28772077 0.71658754 63 64 73
0.17926815 -0.28772077 0.71658754 60 61 70
0.18050671 -0.28772077 0.71658754 59 61 69
0.18193761 -0.28802523 0.71734589 58 61 69
0.18298385 -0.28772077 0.71658754 57 60 68
0.18480848 -0.28863609 0.71886730 56 59 67
0.18526512 -0.28741693 0.71583086 56 59 66
0.18650238 -0.28741693 0.71583086 55 58 66
0.18913770 -0.28955728 0.72116154 56 57 66
0.19119778 -0.29079470 0.72424340 54 54 63
0.20351700 -0.27056047 0.67384875 54 54 63
0.20387107 -0.26948896 0.67118007 54 54 63
0.20543796 -0.27002364 0.67251176 54 54 63
0.20701107 -0.27056047 0.67384875 55 53 64
0.20817578 -0.27056047 0.67384875 57 56 68
0.20934047 -0.27056047 0.67384875 59 59 68
0.21071462 -0.27082968 0.67451924 60 59 67
0.21188048 -0.27082968 0.67451924 60 60 67
0.21283455 -0.27056047 0.67384875 47 49 63
0.21399924 -0.27056047 0.67384875 51 53 67
0.21516393 -0.27056047 0.67384875 183 185 198
0.21632862 -0.27056047 0.67384875 191 195 202
0.21770974 -0.27082968 0.67451924 190 193 197
0.21887559 -0.27082968 0.67451924 191 192 195
0.22004144 -0.27082968 0.67451924 191 192 196
0.22120729 -0.27082968 0.67451924 193 194 198
0.22237313 -0.27082968 0.67451924 193 194 198
0.22420827 -0.27164057 0.67653877 193 194 198
0.22515291 -0.27136973 0.67586422 194 195 198
0.22654694 -0.27164057 0.67653877 194 195 198
0.22703654 -0.27082968 0.67451924 194 195 197
0.23491482 -0.24948107 0.62134910 191 192 195
0.23773199 -0.25132394 0.62593889 189 192 193
0.23903459 -0.25155622 0.62651742 188 192 193
0.23989576 -0.25132394 0.62593889 190 192 195
0.24097764 -0.25132394 0.62593889 189 190 193
0.24183623 -0.25109211 0.62536150 189 190 192
0.24314143 -0.25132394 0.62593889 188 189 191
0.24422331 -0.25132394 0.62593889 188 189 191
0.24507889 -0.25109211 0.62536150 188 189 191
0.24615978 -0.25109211 0.62536150 188 189 192
0.24724066 -0.25109211 0.62536150 189 189 193
0.24855085 -0.25132394 0.62593889 195 194 198
0.24963273 -0.25132394 0.62593889 151 149 159
0.25071460 -0.25132394 0.62593889 64 62 72
0.25156420 -0.25109211 0.62536150 43 48 56
0.25287840 -0.25132394 0.62593889 65 70 77
0.25419497 -0.25155622 0.62651742 59 64 69
0.25527787 -0.25155622 0.62651742 58 61 68
0.25636074 -0.25155622 0.62651742 57 60 68
0.25744364 -0.25155622 0.62651742 53 56 64
0.25876567 -0.25178894 0.62709701 54 57 65
0.26009017 -0.25202209 0.62767762 52 55 63
0.26093346 -0.25178894 0.62709701 54 57 65
0.16012821 -0.28769869 0.71963042 193 194 194
0.16137204 -0.28769869 0.71963042 193 194 194
0.16175726 -0.28617969 0.71583086 194 195 195
0.16316682 -0.28648219 0.71658754 194 195 195
0.16475371 -0.28708914 0.71810579 193 194 194
0.16581923 -0.28678536 0.71734589 193 194 195
0.16705911 -0.28678536 0.71734589 194 195 197
0.16829899 -0.28678536 0.71734589 194 195 197
0.16953886 -0.28678536 0.71734589 194 195 197
0.17059821 -0.28648219 0.71658754 194 195 197
0.17183676 -0.28648219 0.71658754 198 202 203
0.17307533 -0.28648219 0.71658754 156 160 163
0.17431389 -0.28648219 0.71658754 52 54 67
0.17555246 -0.28648219 0.71658754 58 60 73
0.17679103 -0.28648219 0.71658754 65 67 80
0.17821798 -0.28678536 0.71734589 61 64 72
0.17945784 -0.28678536 0.71734589 59 62 70
0.18069772 -0.28678536 0.71734589 57 60 68
0.18193761 -0.28678536 0.71734589 56 59 67
0.18317747 -0.28678536 0.71734589 56 59 67
0.18500467 -0.28769869 0.71963042 56 59 66
0.18546097 -0.28648219 0.71658754 56 58 66
0.18669952 -0.28648219 0.71658754 57 58 67
0.20371951 -0.26966384 0.67451924 54 54 63
0.20407313 -0.26859480 0.67184526 53 53 62
0.20564197 -0.26912826 0.67317957 52 52 61
0.20701107 -0.26939577 0.67384875 55 54 64
0.20838292 -0.26966384 0.67451924 57 56 65
0.20954877 -0.26966384 0.67451924 58 57 64
0.21071462 -0.26966384 0.67451924 59 59 66
0.21188048 -0.26966384 0.67451924 60 60 67
0.21304633 -0.26966384 0.67451924 42 44 55
0.21421218 -0.26966384 0.67451924 62 65 75
0.21537803 -0.26966384 0.67451924 185 188 198
0.21654388 -0.26966384 0.67451924 191 194 201
0.21792658 -0.26993242 0.67519110 191 193 198
0.21909358 -0.26993242 0.67519110 193 194 198
0.22026059 -0.26993242 0.67519110 193 194 198
0.22142760 -0.26993242 0.67519110 193 194 198
0.22259462 -0.26993242 0.67519110 193 194 198
0.22420827 -0.27047122 0.67653877 194 195 199
0.22537760 -0.27047122 0.67653877 194 195 199
0.22654694 -0.27047122 0.67653877 194 195 199
0.22726268 -0.26993242 0.67519110 194 195 197
0.23795171 -0.25047335 0.62651742 190 192 194
0.23903459 -0.25047335 0.62651742 190 193 194
0.24011748 -0.25047335 0.62651742 190 191 193
0.24120037 -0.25047335 0.62651742 189 190 192
0.24205954 -0.25024205 0.62593889 189 190 192
0.24336614 -0.25047335 0.62651742 188 189 191
0.24444902 -0.25047335 0.62651742 188 189 191
0.24530520 -0.25024205 0.62593889 186 187 189
0.24638708 -0.25024205 0.62593889 185 186 187
0.24746896 -0.25024205 0.62593889 189 188 191
0.24855085 -0.25024205 0.62593889 196 196 199
0.24986345 -0.25047335 0.62651742 148 146 155
0.25094634 -0.25047335 0.62651742 62 62 70
0.25179651 -0.25024205 0.62593889 53 56 64
0.25311211 -0.25047335 0.62651742 66 69 77
0.25443015 -0.25070506 0.62709701 58 61 69
0.25551403 -0.25070506 0.62709701 57 60 68
0.25659791 -0.25070506 0.62709701 57 60 68
0.25768179 -0.25070506 0.62709701 55 58 66
0.25900528 -0.25093719 0.62767762 53 55 63
0.26033121 -0.25116974 0.62825936 54 56 64
0.26117507 -0.25093719 0.62767762 56 58 66
0.26225993 -0.25093719 0.62767762 56 58 64
0.15995839 -0.28615108 0.71886730 192 193 194
0.16137204 -0.28645486 0.71963042 194 195 195
0.16175726 -0.28494242 0.71583086 194 195 196
0.16316682 -0.28524363 0.71658754 194 195 196
0.16457936 -0.28554547 0.71734589 194 195 196
0.16581923 -0.28554547 0.71734589 194 195 197
0.16705911 -0.28554547 0.71734589 194 195 197
0.16829899 -0.28554547 0.71734589 193 194 196
0.16953886 -0.28554547 0.71734589 194 195 197
0.17059821 -0.28524363 0.71658754 193 194 196
0.17183676 -0.28524363 0.71658754 199 201 203
0.17307533 -0.28524363 0.71658754 157 158 162
0.17431389 -0.28524363 0.71658754 56 58 70
0.17573823 -0.28554547 0.71734589 60 62 75
0.17679103 -0.28524363 0.71658754 61 63 76
0.17821798 -0.28554547 0.71734589 60 63 72
0.17945784 -0.28554547 0.71734589 60 63 72
0.18069772 -0.28554547 0.71734589 62 65 73
0.18213032 -0.28584796 0.71810579 60 63 72
0.18317747 -0.28554547 0.71734589 57 60 69
0.18500467 -0.28645486 0.71963042 55 58 66
0.18546097 -0.28524363 0.71658754 56 59 67
0.18669952 -0.28524363 0.71658754 55 57 65
0.20371951 -0.26849797 0.67451924 52 52 61
0.20407313 -0.26743358 0.67184526 51 51 60
0.20584638 -0.26823109 0.67384875 53 53 62
0.20721707 -0.26849797 0.67451924 56 56 65
0.20859046 -0.26876542 0.67519110 56 56 64
0.20975748 -0.26876542 0.67519110 56 56 63
0.21092449 -0.26876542 0.67519110 59 59 67
0.21209151 -0.26876542 0.67519110 55 55 63
0.21325852 -0.26876542 0.67519110 35 38 48
0.21442553 -0.26876542 0.67519110 68 71 80
0.21559255 -0.26876542 0.67519110 189 192 200
0.21675956 -0.26876542 0.67519110 192 193 199
0.21792658 -0.26876542 0.67519110 193 194 198
0.21909358 -0.26876542 0.67519110 193 194 198
0.22026059 -0.26876542 0.67519110 193 194 198
0.22142760 -0.26876542 0.67519110 193 194 198
0.22259462 -0.26876542 0.67519110 194 195 199
0.22443224 -0.26957092 0.67721462 194 195 199
0.22560276 -0.26957092 0.67721462 194 195 199
0.22654694 -0.26930186 0.67653877 194 195 199
0.23817183 -0.24962117 0.62709701 191 192 194
0.23925573 -0.24962117 0.62709701 191 192 194
0.24033961 -0.24962117 0.62709701 189 190 192
0.24164703 -0.24985230 0.62767762 189 190 192
0.24228325 -0.24939045 0.62651742 189 190 192
0.24359126 -0.24962117 0.62709701 189 190 192
0.24444902 -0.24939045 0.62651742 188 189 191
0.24553190 -0.24939045 0.62651742 188 188 189
0.24661478 -0.24939045 0.62651742 189 189 189
0.24769768 -0.24939045 0.62651742 191 191 193
0.24878056 -0.24939045 0.62651742 197 197 199
0.25009459 -0.24962117 0.62709701 143 142 151
0.25094634 -0.24939045 0.62651742 61 61 69
0.25202921 -0.24939045 0.62651742 46 49 57
0.25334623 -0.24962117 0.62709701 60 63 71
0.25443015 -0.24962117 0.62709701 59 61 69
0.25575060 -0.24985230 0.62767762 59 60 68
0.25683549 -0.24985230 0.62767762 58 58 67
0.25792038 -0.24985230 0.62767762 57 57 66
0.25924531 -0.25008386 0.62825936 56 56 66
0.26057270 -0.25031585 0.62884218 55 56 65
0.26141712 -0.25008386 0.62825936 55 57 64
0.26250300 -0.25008386 0.62825936 54 58 61
0.15995839 -0.28490859 0.71886730 194 195 197
0.16120090 -0.28490859 0.71886730 194 195 197
0.16175726 -0.28370517 0.71583086 194 195 197
0.16316682 -0.28400508 0.71658754 194 195 197
0.16457936 -0.28430560 0.71734589 194 195 197
0.16581923 -0.28430560 0.71734589 193 194 196
0.16705911 -0.28430560 0.71734589 193 194 196
0.16829899 -0.28430560 0.71734589 193 194 196
0.16953886 -0.28430560 0.71734589 194 195 197
0.17059821 -0.28400508 0.71658754 193 194 196
0.17183676 -0.28400508 0.71658754 201 202 204
0.17307533 -0.28400508 0.71658754 150 151 155
0.17431389 -0.28400508 0.71658754 56 57 67
0.17573823 -0.28430560 0.71734589 62 63 76
0.17679103 -0.28400508 0.71658754 63 63 77
0.17821798 -0.28430560 0.71734589 58 60 73
0.17945784 -0.28430560 0.71734589 54 56 68
0.18069772 -0.28430560 0.71734589 56 59 70
0.18193761 -0.28430560 0.71734589 56 59 70
0.18317747 -0.28430560 0.71734589 55 58 69
0.18500467 -0.28521103 0.71963042 54 57 67
0.18546097 -0.28400508 0.71658754 55 58 68
0.18669952 -0.28400508 0.71658754 54 57 67
0.20447843 -0.26680118 0.67317957 53 53 61
0.20605122 -0.26733214 0.67451924 55 55 63
0.20763026 -0.26786521 0.67586422 57 57 64
0.20879844 -0.26786521 0.67586422 57 57 64
0.20996661 -0.26786521 0.67586422 58 58 65
0.21113479 -0.26786521 0.67586422 60 60 67
0.21230297 -0.26786521 0.67586422 58 58 66
0.21347114 -0.26786521 0.67586422 53 56 64
0.21463932 -0.26786521 0.67586422 76 79 87
0.21580750 -0.26786521 0.67586422 189 192 200
0.21697567 -0.26786521 0.67586422 192 193 198
0.21814385 -0.26786521 0.67586422 193 194 198
0.21931203 -0.26786521 0.67586422 194 195 199
0.22048020 -0.26786521 0.67586422 194 195 199
0.22164838 -0.26786521 0.67586422 194 195 198
0.22281656 -0.26786521 0.67586422 194 195 198
0.22443224 -0.26840040 0.67721462 193 194 197
0.22560276 -0.26840040 0.67721462 194 195 197
0.22654694 -0.26813254 0.67653877 194 195 197
0.23839237 -0.24876741 0.62767762 191 192 194
0.23947726 -0.24876741 0.62767762 191 192 194
0.24033961 -0.24853727 0.62709701 189 190 192
0.24164703 -0.24876741 0.62767762 189 190 192
0.24250738 -0.24853727 0.62709701 189 190 192
0.24359126 -0.24853727 0.62709701 188 190 191
0.24467516 -0.24853727 0.62709701 187 190 191
0.24575904 -0.24853727 0.62709701 187 189 190
0.24684292 -0.24853727 0.62709701 188 189 189
0.24792682 -0.24853727 0.62709701 191 192 193
0.24901070 -0.24853727 0.62709701 195 195 197
0.25032616 -0.24876741 0.62767762 134 133 140
0.25117847 -0.24853727 0.62709701 59 59 66
0.25226235 -0.24853727 0.62709701 56 56 65
0.25358084 -0.24876741 0.62767762 62 62 71
0.25466570 -0.24876741 0.62767762 61 61 70
0.25598764 -0.24899796 0.62825936 59 61 69
0.25707352 -0.24899796 0.62825936 56 59 67
0.25815943 -0.24899796 0.62825936 55 57 67
0.25948581 -0.24922894 0.62884218 55 57 66
0.26057270 -0.24922894 0.62884218 54 57 66
0.26165962 -0.24922894 0.62884218 53 57 65
0.26250300 -0.24899796 0.62825936 51 56 63
0.15754642 -0.28157592 0.71357036 195 196 198
0.15995839 -0.28366607 0.71886730 194 195 197
0.16120090 -0.28366607 0.71886730 194 195 197
0.16158664 -0.28216994 0.71507579 193 194 196
0.16316682 -0.28276649 0.71658754 193 194 196
0.16457936 -0.28306574 0.71734589 194 195 197
0.16581923 -0.28306574 0.71734589 194 195 197
0.16705911 -0.28306574 0.71734589 193 194 196
0.16829899 -0.28306574 0.71734589 192 193 195
0.16953886 -0.28306574 0.71734589 193 194 196
0.17059821 -0.28276649 0.71658754 194 195 197
0.17183676 -0.28276649 0.71658754 202 203 205
0.17307533 -0.28276649 0.71658754 148 151 154
0.17431389 -0.28276649 0.71658754 55 60 69
0.17555246 -0.28276649 0.71658754 66 68 81
0.17679103 -0.28276649 0.71658754 62 63 78
0.17821798 -0.28306574 0.71734589 58 60 73
0.17945784 -0.28306574 0.71734589 54 56 69
0.18069772 -0.28306574 0.71734589 52 54 67
0.18193761 -0.28306574 0.71734589 54 57 68
0.18317747 -0.28306574 0.71734589 54 56 67
0.18500467 -0.28396723 0.71963042 51 52 62
0.18546097 -0.28276649 0.71658754 54 54 64
0.18650238 -0.28246790 0.71583086 55 56 65
0.20488536 -0.26616627 0.67451924 54 54 61
0.20783748 -0.26696318 0.67653877 57 57 64
0.20921561 -0.26722988 0.67721462 57 57 64
0.21017615 -0.26696318 0.67653877 58 58 63
0.21134549 -0.26696318 0.67653877 59 59 66
0.21251485 -0.26696318 0.67653877 60 60 67
0.21368419 -0.26696318 0.67653877 51 54 62
0.21485353 -0.26696318 0.67653877 79 81 89
0.21602286 -0.26696318 0.67653877 189 190 199
0.21719222 -0.26696318 0.67653877 192 193 197
0.21836156 -0.26696318 0.67653877 194 195 197
0.21953090 -0.26696318 0.67653877 195 196 198
0.22070023 -0.26696318 0.67653877 194 195 197
0.22186959 -0.26696318 0.67653877 194 195 197
0.22303893 -0.26696318 0.67653877 194 195 197
0.22465669 -0.26749712 0.67789185 193 194 196
0.22582836 -0.26749712 0.67789185 197 198 200
0.22654694 -0.26696318 0.67653877 195 196 198
0.23839237 -0.24768251 0.62767762 190 193 194
0.23947726 -0.24768251 0.62767762 190 193 194
0.24056214 -0.24768251 0.62767762 187 191 192
0.24187098 -0.24791206 0.62825936 187 191 192
0.24273193 -0.24768251 0.62767762 187 191 191
0.24381681 -0.24768251 0.62767762 186 190 191
0.24490170 -0.24768251 0.62767762 186 190 191
0.24598660 -0.24768251 0.62767762 187 189 190
0.24707149 -0.24768251 0.62767762 188 189 189
0.24815637 -0.24768251 0.62767762 190 191 192
0.24924126 -0.24768251 0.62767762 193 194 196
0.25032616 -0.24768251 0.62767762 127 127 129
0.25141105 -0.24768251 0.62767762 60 60 65
0.25249594 -0.24768251 0.62767762 63 63 72
0.25381583 -0.24791206 0.62825936 62 61 70
0.25490174 -0.24791206 0.62825936 62 61 70
0.25622511 -0.24814203 0.62884218 60 60 69
0.25731200 -0.24814203 0.62884218 58 58 67
0.25839889 -0.24814203 0.62884218 57 57 67
0.25972673 -0.24837244 0.62942606 56 56 66
0.26081464 -0.24837244 0.62942606 54 55 66
0.26190257 -0.24837244 0.62942606 54 54 64
0.26299047 -0.24837244 0.62942606 54 54 63
0.12927215 -0.29460779 0.74988037 191 192 192
0.15738074 -0.28004777 0.71281999 195 196 198
0.15978895 -0.28212440 0.71810579 194 195 197
0.16120090 -0.28242359 0.71886730 193 194 196
0.16158664 -0.28093401 0.71507579 192 193 195
0.16316682 -0.28152794 0.71658754 193 194 196
0.16457936 -0.28182584 0.71734589 194 195 197
0.16581923 -0.28182584 0.71734589 194 195 197
0.16705911 -0.28182584 0.71734589 193 194 196
0.16829899 -0.28182584 0.71734589 194 195 197
0.16935964 -0.28152794 0.71658754 193 194 196
0.17059821 -0.28152794 0.71658754 194 195 197
0.17183676 -0.28152794 0.71658754 199 205 205
0.17307533 -0.28152794 0.71658754 141 148 150
0.17431389 -0.28152794 0.71658754 54 61 72
0.17573823 -0.28182584 0.71734589 63 66 80
0.17679103 -0.28152794 0.71658754 59 61 76
0.17821798 -0.28182584 0.71734589 58 60 75
0.17945784 -0.28182584 0.71734589 57 59 72
0.18069772 -0.28182584 0.71734589 56 59 70
0.18213032 -0.28212440 0.71810579 56 58 70
0.18337151 -0.28212440 0.71810579 54 56 68
0.18500467 -0.28272340 0.71963042 52 54 67
0.18546097 -0.28152794 0.71658754 52 55 65
0.18650238 -0.28123066 0.71583086 52 55 64
0.20508942 -0.26526436 0.67519110 55 55 62
0.20921561 -0.26605937 0.67721462 56 57 62
0.21038613 -0.26605937 0.67721462 58 59 63
0.21155663 -0.26605937 0.67721462 58 58 65
0.21272714 -0.26605937 0.67721462 61 61 68
0.21389766 -0.26605937 0.67721462 50 52 60
0.21506816 -0.26605937 0.67721462 89 90 98
0.21623868 -0.26605937 0.67721462 190 191 196
0.21740919 -0.26605937 0.67721462 193 193 196
0.21857969 -0.26605937 0.67721462 191 192 194
0.21975021 -0.26605937 0.67721462 193 194 196
0.22209123 -0.26605937 0.67721462 194 195 198
0.22303893 -0.26579386 0.67653877 194 195 197
0.22488156 -0.26659203 0.67857039 193 194 196
0.22650789 -0.26712680 0.67993164 193 194 196
0.22654694 -0.26579386 0.67653877 193 194 196
0.23861331 -0.24682617 0.62825936 189 193 194
0.23969920 -0.24682617 0.62825936 189 193 194
0.24056214 -0.24659762 0.62767762 188 194 194
0.24187098 -0.24682617 0.62825936 188 193 193
0.24295689 -0.24682617 0.62825936 186 190 190
0.24404278 -0.24682617 0.62825936 186 190 190
0.24512868 -0.24682617 0.62825936 187 191 190
0.24621457 -0.24682617 0.62825936 186 190 189
0.24707149 -0.24659762 0.62767762 186 190 189
0.24815637 -0.24659762 0.62767762 188 189 192
0.24947226 -0.24682617 0.62825936 189 190 193
0.25055814 -0.24682617 0.62825936 118 118 122
0.25164405 -0.24682617 0.62825936 63 62 69
0.25272995 -0.24682617 0.62825936 66 65 74
0.25381583 -0.24682617 0.62825936 63 62 71
0.25513819 -0.24705513 0.62884218 61 60 69
0.25622511 -0.24705513 0.62884218 59 59 68
0.25731200 -0.24705513 0.62884218 59 59 68
0.25863883 -0.24728453 0.62942606 58 58 69
0.25972673 -0.24728453 0.62942606 56 56 67
0.26105705 -0.24751434 0.63001102 54 54 65
0.26214597 -0.24751434 0.63001102 54 54 64
0.26323488 -0.24751434 0.63001102 54 54 63
0.26580599 -0.24890228 0.63354379 54 54 61
0.26715070 -0.24913511 0.63413644 52 52 59
0.26849791 -0.24936838 0.63473016 51 51 58
0.02968635 -0.30903700 0.79008371 191 191 191
0.03101579 -0.30867726 0.78916395 192 192 192
0.03374381 -0.30867726 0.78916395 192 192 192
0.12797603 -0.29331169 0.74988037 191 192 192
0.12927215 -0.29331169 0.74988037 191 192 192
0.15754642 -0.27910921 0.71357036 194 195 197
0.15978895 -0.28088322 0.71810579 194 195 197
0.16120090 -0.28118107 0.71886730 193 194 196
0.16158664 -0.27969804 0.71507579 193 194 196
0.16316682 -0.28028938 0.71658754 194 195 197
0.16457936 -0.28058597 0.71734589 194 195 197
0.16581923 -0.28058597 0.71734589 194 195 197
0.16705911 -0.28058597 0.71734589 193 194 196
0.16829899 -0.28058597 0.71734589 193 194 196
0.16953886 -0.28058597 0.71734589 192 193 195
0.17059821 -0.28028938 0.71658754 194 195 197
0.17183676 -0.28028938 0.71658754 200 208 207
0.17307533 -0.28028938 0.71658754 136 143 145
0.17449835 -0.28058597 0.71734589 48 55 68
0.17573823 -0.28058597 0.71734589 60 64 78
0.17697810 -0.28058597 0.71734589 60 64 78
0.17821798 -0.28058597 0.71734589 57 60 74
0.17945784 -0.28058597 0.71734589 56 59 71
0.18069772 -0.28058597 0.71734589 56 58 69
0.18213032 -0.28088322 0.71810579 55 58 69
0.18337151 -0.28088322 0.71810579 54 57 67
0.18500467 -0.28147957 0.71963042 54 57 67
0.18546097 -0.28028938 0.71658754 53 56 65
0.18669952 -0.28028938 0.71658754 52 55 64
0.20473810 -0.26515377 0.67789185 55 56 60
0.20549878 -0.26462451 0.67653877 56 57 61
0.20825315 -0.26515377 0.67789185 56 56 62
0.20942482 -0.26515377 0.67789185 56 56 64
0.21059650 -0.26515377 0.67789185 58 58 66
0.21176820 -0.26515377 0.67789185 58 58 67
0.21293987 -0.26515377 0.67789185 59 59 68
0.21411155 -0.26515377 0.67789185 44 44 52
0.21528323 -0.26515377 0.67789185 105 106 113
0.21623868 -0.26488885 0.67721462 190 193 198
0.21762660 -0.26515377 0.67789185 193 197 200
0.21879828 -0.26515377 0.67789185 191 195 199
0.21996996 -0.26515377 0.67789185 192 193 196
0.22326174 -0.26488885 0.67721462 194 195 197
0.22510689 -0.26568511 0.67925036 192 193 195
0.22719151 -0.26675427 0.68198377 192 193 195
0.22677328 -0.26488885 0.67721462 193 194 196
0.23666085 -0.24596822 0.62884218 188 192 193
0.23883465 -0.24596822 0.62884218 189 191 192
0.23969920 -0.24574026 0.62825936 189 190 192
0.24078509 -0.24574026 0.62825936 189 192 193
0.24209537 -0.24596822 0.62884218 189 192 194
0.24318226 -0.24596822 0.62884218 186 190 191
0.24426916 -0.24596822 0.62884218 186 190 191
0.24535607 -0.24596822 0.62884218 186 190 191
0.24621457 -0.24574026 0.62825936 186 187 189
0.24730046 -0.24574026 0.62825936 188 189 191
0.24838637 -0.24574026 0.62825936 188 189 193
0.24970368 -0.24596822 0.62884218 184 185 189
0.25079060 -0.24596822 0.62884218 113 112 119
0.25187749 -0.24596822 0.62884218 61 60 69
0.25296438 -0.24596822 0.62884218 62 61 71
0.25405130 -0.24596822 0.62884218 62 62 72
0.25537509 -0.24619661 0.62942606 59 59 70
0.25646299 -0.24619661 0.62942606 59 59 70
0.25755093 -0.24619661 0.62942606 57 57 69
0.25863883 -0.24619661 0.62942606 56 56 67
0.25996813 -0.24642542 0.63001102 54 54 65
0.26105705 -0.24642542 0.63001102 54 54 65
0.26214597 -0.24642542 0.63001102 54 54 63
0.26347977 -0.24665466 0.63059705 56 56 62
0.26580599 -0.24780725 0.63354379 54 54 59
0.26715070 -0.24803905 0.63413644 52 52 55
0.26849791 -0.24827130 0.63473016 52 52 54
0.02283176 -0.30731323 0.78916395 189 189 192
0.02422396 -0.30767140 0.79008371 189 190 192
0.02558956 -0.30767140 0.79008371 190 190 192
0.02695516 -0.30767140 0.79008371 190 191 192
0.02832075 -0.30767140 0.79008371 193 193 193
0.02965179 -0.30731323 0.78916395 194 194 194
0.03101579 -0.30731323 0.78916395 192 192 192
0.03241754 -0.30767140 0.79008371 192 192 192
0.03370457 -0.30695590 0.78824633 192 192 192
0.06124713 -0.30169380 0.77473354 191 192 194
0.07062057 -0.30169380 0.77473354 192 192 192
0.07195964 -0.30169380 0.77473354 192 192 193
0.07329871 -0.30169380 0.77473354 181 181 182
0.07472317 -0.30203897 0.77561998 57 59 65
0.07597683 -0.30169380 0.77473354 68 71 80
0.12797603 -0.29201555 0.74988037 191 192 194
0.12927215 -0.29201555 0.74988037 191 192 194
0.15754642 -0.27787587 0.71357036 194 195 197
0.15995839 -0.27993858 0.71886730 195 196 198
0.16120090 -0.27993858 0.71886730 194 195 197
0.16158664 -0.27846211 0.71507579 193 195 197
0.16316682 -0.27905083 0.71658754 193 195 197
0.16457936 -0.27934611 0.71734589 193 195 197
0.16599488 -0.27964202 0.71810579 192 195 196
0.16705911 -0.27934611 0.71734589 191 195 196
0.16829899 -0.27934611 0.71734589 190 194 195
0.16953886 -0.27934611 0.71734589 191 194 195
0.17059821 -0.27905083 0.71658754 193 194 196
0.17201860 -0.27934611 0.71734589 203 206 207
0.17325848 -0.27934611 0.71734589 133 136 140
0.17449835 -0.27934611 0.71734589 49 53 65
0.17573823 -0.27934611 0.71734589 65 69 81
0.17697810 -0.27934611 0.71734589 61 64 77
0.17821798 -0.27934611 0.71734589 59 62 74
0.17945784 -0.27934611 0.71734589 57 60 71
0.18069772 -0.27934611 0.71734589 55 58 68
0.18213032 -0.27964202 0.71810579 54 57 67
0.18337151 -0.27964202 0.71810579 54 57 67
0.18500467 -0.28023574 0.71963042 54 57 66
0.18546097 -0.27905083 0.71658754 55 57 66
0.18669952 -0.27905083 0.71658754 55 56 65
0.20473810 -0.26398206 0.67789185 53 54 61
0.20728876 -0.26424631 0.67857039 55 56 66
0.20846161 -0.26424631 0.67857039 56 56 66
0.20963447 -0.26424631 0.67857039 57 57 67
0.21080731 -0.26424631 0.67857039 58 58 67
0.21198016 -0.26424631 0.67857039 59 59 68
0.21315302 -0.26424631 0.67857039 57 58 67
0.21432588 -0.26424631 0.67857039 43 46 54
0.21549873 -0.26424631 0.67857039 110 113 120
0.21667159 -0.26424631 0.67857039 191 194 200
0.21784444 -0.26424631 0.67857039 196 198 204
0.21901730 -0.26424631 0.67857039 194 196 200
0.22019015 -0.26424631 0.67857039 192 193 193
0.22231331 -0.26398206 0.67789185 195 195 195
0.22370870 -0.26424631 0.67857039 195 195 195
0.22533268 -0.26477641 0.67993164 194 194 195
0.22787927 -0.26637948 0.68404830 194 195 197
0.22677328 -0.26371837 0.67721462 194 195 198
0.23666085 -0.24488133 0.62884218 189 192 193
0.23796850 -0.24510869 0.62942606 189 191 193
0.23905641 -0.24510869 0.62942606 189 190 192
0.23992155 -0.24488133 0.62884218 188 189 191
0.24100846 -0.24488133 0.62884218 189 189 191
0.24232015 -0.24510869 0.62942606 189 190 192
0.24340805 -0.24510869 0.62942606 188 189 191
0.24449597 -0.24510869 0.62942606 188 189 191
0.24558388 -0.24510869 0.62942606 188 189 191
0.24644297 -0.24488133 0.62884218 188 189 191
0.24752988 -0.24488133 0.62884218 188 189 191
0.24861677 -0.24488133 0.62884218 189 190 194
0.24993552 -0.24510869 0.62942606 181 182 187
0.25102344 -0.24510869 0.62942606 109 109 118
0.25211135 -0.24510869 0.62942606 63 63 74
0.25319928 -0.24510869 0.62942606 60 59 74
0.25428718 -0.24510869 0.62942606 61 60 75
0.25537509 -0.24510869 0.62942606 59 58 74
0.25646299 -0.24510869 0.62942606 58 57 71
0.25755093 -0.24510869 0.62942606 56 55 69
0.25887918 -0.24533650 0.63001102 54 54 65
0.26020995 -0.24556471 0.63059705 54 54 63
0.26105705 -0.24533650 0.63001102 54 55 57
0.26238981 -0.24556471 0.63059705 54 55 57
0.26347977 -0.24556471 0.63059705 55 55 57
0.26580599 -0.24671222 0.63354379 52 50 51
0.26690102 -0.24671222 0.63354379 54 50 51
0.26774582 -0.24648187 0.63295221 53 52 53
0.01873974 -0.30594924 0.78916395 46 46 55
0.02146775 -0.30594924 0.78916395 191 191 194
0.02283176 -0.30594924 0.78916395 189 189 191
0.02419576 -0.30594924 0.78916395 190 190 192
0.02555977 -0.30594924 0.78916395 190 190 192
0.02692378 -0.30594924 0.78916395 190 190 192
0.02832075 -0.30630583 0.79008371 193 193 193
0.02965179 -0.30594924 0.78916395 190 190 190
0.03097973 -0.30559349 0.78824633 191 192 192
0.03241754 -0.30630583 0.79008371 191 192 192
0.03370457 -0.30559349 0.78824633 192 192 192
0.06117721 -0.30001187 0.77384913 191 192 194
0.06223059 -0.29864818 0.77033162 189 190 193
0.06518982 -0.30001187 0.77384913 189 190 193
0.06652735 -0.30001187 0.77384913 192 192 196
0.06786489 -0.30001187 0.77384913 192 192 196
0.06920242 -0.30001187 0.77384913 191 192 194
0.07053996 -0.30001187 0.77384913 190 190 192
0.07187749 -0.30001187 0.77384913 192 192 194
0.07321503 -0.30001187 0.77384913 182 182 183
0.07455257 -0.30001187 0.77384913 62 63 69
0.07589010 -0.30001187 0.77384913 62 62 71
0.07722764 -0.30001187 0.77384913 57 57 68
0.07865496 -0.30035472 0.77473354 55 55 66
0.07999402 -0.30035472 0.77473354 53 53 63
0.08133309 -0.30035472 0.77473354 54 53 64
0.08267216 -0.30035472 0.77473354 53 53 63
0.08544794 -0.30069840 0.77561998 54 54 64
0.08678854 -0.30069840 0.77561998 54 53 64
0.11346782 -0.29007769 0.74822497 57 58 60
0.11501496 -0.29071945 0.74988037 56 57 59
0.11631107 -0.29071945 0.74988037 55 56 58
0.11760718 -0.29071945 0.74988037 56 56 60
0.11890329 -0.29071945 0.74988037 59 59 64
0.12033250 -0.29104140 0.75071079 61 60 68
0.12163004 -0.29104140 0.75071079 60 60 68
0.12279160 -0.29071945 0.74988037 49 49 58
0.12797603 -0.29071945 0.74988037 192 193 194
0.12927215 -0.29071945 0.74988037 192 193 194
0.15754642 -0.27664250 0.71357036 193 194 196
0.15995839 -0.27869606 0.71886730 193 195 197
0.16120090 -0.27869606 0.71886730 192 196 198
0.16175726 -0.27751890 0.71583086 192 196 198
0.16316682 -0.27781224 0.71658754 192 196 198
0.16457936 -0.27810624 0.71734589 191 195 198
0.16599488 -0.27840084 0.71810579 190 194 197
0.16705911 -0.27810624 0.71734589 190 194 197
0.16829899 -0.27810624 0.71734589 191 194 196
0.16953886 -0.27810624 0.71734589 191 193 196
0.17059821 -0.27781224 0.71658754 193 194 196
0.17183676 -0.27781224 0.71658754 205 206 208
0.17325848 -0.27810624 0.71734589 135 135 140
0.17449835 -0.27810624 0.71734589 57 56 70
0.17573823 -0.27810624 0.71734589 68 69 81
0.17679103 -0.27781224 0.71658754 61 63 75
0.17821798 -0.27810624 0.71734589 60 62 73
0.17945784 -0.27810624 0.71734589 58 61 70
0.18069772 -0.27810624 0.71734589 55 58 66
0.18193761 -0.27810624 0.71734589 54 57 65
0.18317747 -0.27810624 0.71734589 55 57 65
0.18500467 -0.27899191 0.71963042 55 57 65
0.18546097 -0.27781224 0.71658754 55 55 63
0.18650238 -0.27751890 0.71583086 54 54 62
0.20494305 -0.26307347 0.67857039 51 53 65
0.20749646 -0.26333708 0.67925036 51 52 63
0.20867048 -0.26333708 0.67925036 52 52 63
0.20984451 -0.26333708 0.67925036 55 55 65
0.21101855 -0.26333708 0.67925036 57 57 66
0.21219258 -0.26333708 0.67925036 60 60 69
0.21336660 -0.26333708 0.67925036 62 62 71
0.21454063 -0.26333708 0.67925036 49 52 60
0.21571466 -0.26333708 0.67925036 117 120 128
0.21688870 -0.26333708 0.67925036 190 193 201
0.21806271 -0.26333708 0.67925036 190 191 194
0.21923675 -0.26333708 0.67925036 191 192 194
0.22041078 -0.26333708 0.67925036 192 193 195
0.22253585 -0.26307347 0.67857039 194 195 197
0.22393286 -0.26333708 0.67925036 195 195 197
0.22555892 -0.26386586 0.68061429 195 195 197
0.22834010 -0.26573345 0.68543160 194 195 197
0.22677328 -0.26254785 0.67721462 194 195 198
0.23818965 -0.24424757 0.63001102 190 191 193
0.23927858 -0.24424757 0.63001102 190 190 192
0.24014433 -0.24402079 0.62942606 189 189 191
0.24100846 -0.24379443 0.62884218 189 189 191
0.24232015 -0.24402079 0.62942606 189 189 191
0.24363427 -0.24424757 0.63001102 189 189 191
0.24472320 -0.24424757 0.63001102 188 189 191
0.24581212 -0.24424757 0.63001102 188 189 191
0.24667180 -0.24402079 0.62942606 188 189 191
0.24775970 -0.24402079 0.62942606 188 189 191
0.24884762 -0.24402079 0.62942606 187 191 192
0.25016782 -0.24424757 0.63001102 175 177 181
0.25125673 -0.24424757 0.63001102 105 105 114
0.25234565 -0.24424757 0.63001102 53 54 66
0.25319928 -0.24402079 0.62942606 54 55 70
0.25428718 -0.24402079 0.62942606 60 60 76
0.25561243 -0.24424757 0.63001102 58 57 72
0.25670135 -0.24424757 0.63001102 57 56 69
0.25779027 -0.24424757 0.63001102 55 54 66
0.25912002 -0.24447478 0.63059705 55 55 64
0.26045224 -0.24470241 0.63118422 55 56 61
0.26129988 -0.24447478 0.63059705 54 55 57
0.26238981 -0.24447478 0.63059705 54 54 56
0.26372507 -0.24470241 0.63118422 52 53 55
0.26580599 -0.24561718 0.63354379 49 48 49
0.26690102 -0.24561718 0.63354379 50 50 50
0.26699793 -0.24470241 0.63118422 50 50 51
0.01871795 -0.30423105 0.78824633 45 45 55
0.02008037 -0.30423105 0.78824633 171 170 179
0.02144279 -0.30423105 0.78824633 191 190 197
0.02280521 -0.30423105 0.78824633 189 188 194
0.02419576 -0.30458522 0.78916395 189 189 193
0.02555977 -0.30458522 0.78916395 190 190 192
0.02692378 -0.30458522 0.78916395 190 190 192
0.02828778 -0.30458522 0.78916395 192 192 194
0.02961731 -0.30423105 0.78824633 191 192 192
0.03097973 -0.30423105 0.78824633 191 192 192
0.03241754 -0.30494022 0.79008371 191 192 192
0.03370457 -0.30423105 0.78824633 192 192 192
0.05997661 -0.29935780 0.77561998 191 192 194
0.06117721 -0.29867432 0.77384913 192 192 194
0.06230139 -0.29765496 0.77120799 191 192 195
0.06377947 -0.29833376 0.77296674 191 192 196
0.06518982 -0.29867432 0.77384913 189 190 194
0.06652735 -0.29867432 0.77384913 191 192 196
0.06786489 -0.29867432 0.77384913 191 192 195
0.06920242 -0.29867432 0.77384913 191 191 192
0.07053996 -0.29867432 0.77384913 188 188 189
0.07187749 -0.29867432 0.77384913 192 192 192
0.07321503 -0.29867432 0.77384913 184 184 186
0.07455257 -0.29867432 0.77384913 61 61 67
0.07589010 -0.29867432 0.77384913 57 57 66
0.07722764 -0.29867432 0.77384913 61 61 70
0.07856517 -0.29867432 0.77384913 61 60 69
0.07999402 -0.29901567 0.77473354 60 59 68
0.08124024 -0.29867432 0.77384913 55 54 63
0.08267216 -0.29901567 0.77473354 53 52 61
0.08544794 -0.29935780 0.77561998 54 53 64
0.08668935 -0.29901567 0.77473354 54 53 64
0.11359320 -0.28910354 0.74905175 56 57 59
0.11514233 -0.28974387 0.75071079 55 56 58
0.11643987 -0.28974387 0.75071079 56 56 60
0.11773742 -0.28974387 0.75071079 57 57 63
0.11903496 -0.28974387 0.75071079 59 58 65
0.12033250 -0.28974387 0.75071079 61 59 68
0.12163004 -0.28974387 0.75071079 61 59 68
0.12292759 -0.28974387 0.75071079 52 50 59
0.12422513 -0.28974387 0.75071079 53 54 61
0.12811776 -0.28974387 0.75071079 193 193 193
0.12941530 -0.28974387 0.75071079 192 193 193
0.15754642 -0.27540916 0.71357036 191 192 196
0.15995839 -0.27745357 0.71886730 192 193 197
0.16120090 -0.27745357 0.71886730 192 195 199
0.16175726 -0.27628163 0.71583086 193 195 200
0.16316682 -0.27657369 0.71658754 193 194 200
0.16457936 -0.27686635 0.71734589 193 193 200
0.16599488 -0.27715966 0.71810579 192 193 198
0.16705911 -0.27686635 0.71734589 192 193 197
0.16812107 -0.27657369 0.71658754 192 193 195
0.16935964 -0.27657369 0.71658754 192 193 195
0.17059821 -0.27657369 0.71658754 193 194 196
0.17183676 -0.27657369 0.71658754 206 207 209
0.17307533 -0.27657369 0.71658754 131 132 136
0.17431389 -0.27657369 0.71658754 54 54 65
0.17573823 -0.27686635 0.71734589 66 69 79
0.17679103 -0.27657369 0.71658754 61 64 74
0.17802958 -0.27657369 0.71658754 58 61 69
0.17926815 -0.27657369 0.71658754 57 60 68
0.18050671 -0.27657369 0.71658754 55 58 66
0.18193761 -0.27686635 0.71734589 56 56 65
0.18317747 -0.27686635 0.71734589 56 56 65
0.18480848 -0.27745357 0.71886730 56 56 65
0.18526512 -0.27628163 0.71583086 54 54 61
0.18650238 -0.27628163 0.71583086 54 53 60
0.20514840 -0.26216304 0.67925036 49 52 60
0.20770457 -0.26242599 0.67993164 50 52 61
0.20887978 -0.26242599 0.67993164 53 53 62
0.21005499 -0.26242599 0.67993164 55 55 64
0.21123020 -0.26242599 0.67993164 56 56 65
0.21240540 -0.26242599 0.67993164 60 60 69
0.21379505 -0.26268947 0.68061429 60 61 70
0.21475582 -0.26242599 0.67993164 37 40 50
0.21593103 -0.26242599 0.67993164 130 131 142
0.21710624 -0.26242599 0.67993164 191 191 203
0.21828143 -0.26242599 0.67993164 189 190 192
0.21945664 -0.26242599 0.67993164 192 193 195
0.22063185 -0.26242599 0.67993164 192 193 195
0.22180706 -0.26242599 0.67993164 192 194 196
0.22275884 -0.26216304 0.67925036 193 194 197
0.22438253 -0.26268947 0.68061429 193 194 196
0.22578561 -0.26295349 0.68129832 193 195 196
0.22880280 -0.26508480 0.68682051 194 195 197
0.22745496 -0.26216304 0.67925036 194 195 197
0.23841123 -0.24338484 0.63059705 191 192 194
0.23950116 -0.24338484 0.63059705 191 191 193
0.24036750 -0.24315865 0.63001102 190 190 192
0.24123223 -0.24293287 0.62942606 190 190 190
0.24254535 -0.24315865 0.63001102 190 190 191
0.24386092 -0.24338484 0.63059705 189 190 192
0.24495085 -0.24338484 0.63059705 188 189 191
0.24581212 -0.24315865 0.63001102 188 189 191
0.24690105 -0.24315865 0.63001102 188 189 191
0.24798997 -0.24315865 0.63001102 188 189 191
0.24907888 -0.24315865 0.63001102 189 190 192
0.25040051 -0.24338484 0.63059705 170 171 174
0.25149047 -0.24338484 0.63059705 95 95 100
0.25234565 -0.24315865 0.63001102 47 47 57
0.25343457 -0.24315865 0.63001102 58 57 71
0.25452352 -0.24315865 0.63001102 61 60 74
0.25561243 -0.24315865 0.63001102 57 57 70
0.25694016 -0.24338484 0.63059705 56 56 67
0.25779027 -0.24315865 0.63001102 54 54 64
0.25912002 -0.24338484 0.63059705 53 54 58
0.26069495 -0.24383850 0.63177246 54 54 58
0.26129988 -0.24338484 0.63059705 54 55 57
0.26238981 -0.24338484 0.63059705 53 53 56
0.26372507 -0.24361145 0.63118422 51 51 53
0.26580599 -0.24452215 0.63354379 50 50 52
0.26665181 -0.24429384 0.63295221 48 48 51
0.26600721 -0.24270752 0.62884218 49 49 52
0.01599311 -0.30286863 0.78824633 57 57 66
0.01735553 -0.30286863 0.78824633 49 48 60
0.01871795 -0.30286863 0.78824633 46 45 60
0.02008037 -0.30286863 0.78824633 178 177 190
0.02144279 -0.30286863 0.78824633 190 189 198
0.02280521 -0.30286863 0.78824633 188 188 195
0.02416763 -0.30286863 0.78824633 188 188 195
0.02553005 -0.30286863 0.78824633 189 190 195
0.02689247 -0.30286863 0.78824633 190 190 195
0.02828778 -0.30322123 0.78916395 191 192 195
0.02961731 -0.30286863 0.78824633 191 192 193
0.03097973 -0.30286863 0.78824633 191 192 193
0.03241754 -0.30357462 0.79008371 192 192 192
0.03370457 -0.30286863 0.78824633 192 192 192
0.06004531 -0.29835856 0.77650839 191 192 194
0.06117721 -0.29733679 0.77384913 191 192 194
0.06244346 -0.29699776 0.77296674 191 192 195
0.06385228 -0.29733679 0.77384913 191 192 196
0.06526432 -0.29767659 0.77473354 191 192 196
0.06660338 -0.29767659 0.77473354 191 192 195
0.06794245 -0.29767659 0.77473354 191 192 194
0.06928151 -0.29767659 0.77473354 191 192 193
0.07053996 -0.29733679 0.77384913 191 191 193
0.07187749 -0.29733679 0.77384913 193 193 195
0.07321503 -0.29733679 0.77384913 184 184 186
0.07455257 -0.29733679 0.77384913 63 63 69
0.07589010 -0.29733679 0.77384913 48 48 57
0.07722764 -0.29733679 0.77384913 59 58 69
0.07856517 -0.29733679 0.77384913 57 57 67
0.07999402 -0.29767659 0.77473354 55 55 65
0.08124024 -0.29733679 0.77384913 54 54 64
0.08267216 -0.29767659 0.77473354 53 53 63
0.08401122 -0.29767659 0.77473354 51 51 62
0.08544794 -0.29801720 0.77561998 51 51 62
0.08668935 -0.29767659 0.77473354 52 52 63
0.11371885 -0.28812724 0.74988037 52 53 56
0.11526998 -0.28876612 0.75154305 53 53 58
0.11656897 -0.28876612 0.75154305 53 52 60
0.11786795 -0.28876612 0.75154305 56 55 64
0.11916693 -0.28876612 0.75154305 59 57 66
0.12046591 -0.28876612 0.75154305 61 59 68
0.12176489 -0.28876612 0.75154305 61 59 66
0.12306387 -0.28876612 0.75154305 60 59 65
0.12436285 -0.28876612 0.75154305 58 59 61
0.12825979 -0.28876612 0.75154305 193 193 193
0.12955877 -0.28876612 0.75154305 194 194 194
0.15754642 -0.27417582 0.71357036 194 195 199
0.15978895 -0.27591845 0.71810579 193 194 198
0.16120090 -0.27621105 0.71886730 193 194 198
0.16158664 -0.27475426 0.71507579 193 193 200
0.16316682 -0.27533513 0.71658754 192 192 199
0.16457936 -0.27562648 0.71734589 192 193 199
0.16599488 -0.27591845 0.71810579 193 193 198
0.16705911 -0.27562648 0.71734589 193 194 198
0.16812107 -0.27533513 0.71658754 193 194 196
0.16935964 -0.27533513 0.71658754 193 194 196
0.17059821 -0.27533513 0.71658754 194 195 197
0.17183676 -0.27533513 0.71658754 202 203 205
0.17307533 -0.27533513 0.71658754 130 131 135
0.17431389 -0.27533513 0.71658754 48 48 58
0.17573823 -0.27562648 0.71734589 63 63 73
0.17679103 -0.27533513 0.71658754 63 63 72
0.17802958 -0.27533513 0.71658754 59 59 68
0.17926815 -0.27533513 0.71658754 57 57 66
0.18050671 -0.27533513 0.71658754 56 56 65
0.18193761 -0.27562648 0.71734589 57 56 65
0.18317747 -0.27562648 0.71734589 57 57 66
0.18480848 -0.27621105 0.71886730 56 55 64
0.18526512 -0.27504438 0.71583086 55 54 61
0.18650238 -0.27504438 0.71583086 55 54 61
0.20535417 -0.26125079 0.67993164 48 51 59
0.20791312 -0.26151308 0.68061429 53 53 62
0.20929964 -0.26177591 0.68129832 54 54 63
0.21047722 -0.26177591 0.68129832 55 55 62
0.21165478 -0.26177591 0.68129832 57 57 62
0.21283235 -0.26177591 0.68129832 61 61 64
0.21400993 -0.26177591 0.68129832 58 59 63
0.21518749 -0.26177591 0.68129832 37 39 52
0.21636505 -0.26177591 0.68129832 135 136 150
0.21754263 -0.26177591 0.68129832 190 191 205
0.21872020 -0.26177591 0.68129832 190 193 195
