ply
format ascii 1.0
element vertex 1068
property float x
property float y
property float z
property uchar red
property uchar green
property uchar blue
end_header
-0.45020461 0.33000333 0.95030459 46 46 51
-0.44990667 0.34710143 0.95732209 48 48 52
-0.45028826 0.35676280 0.96113079 51 49 53
-0.44991868 0.36952678 0.96602838 53 52 55
-0.45003366 0.39012730 0.97370446 62 61 64
-0.44916261 0.40446391 0.97872751 75 72 72
-0.45045651 0.41429019 0.98219510 77 75 75
-0.45005517 0.43033265 0.98720180 88 87 88
-0.44990952 0.44969882 0.99233327 99 97 98
-0.45001739 0.46972208 0.99656389 109 106 106
-0.45030328 0.48989185 0.99594053 26 26 26
-0.44974740 0.50991962 0.99471045 0 0 0
-0.44971006 0.52964087 0.99587689 0 0 0
-0.45004024 0.54979128 0.99800632 0 0 0
-0.44606912 0.56327573 0.99942682 0 0 0
-0.45403914 0.56621203 1.00060766 0 0 0
-0.43046374 -0.54323911 0.80947717 0 0 0
-0.43028431 -0.52983734 0.80857593 0 0 0
-0.42977805 -0.51000398 0.80700304 0 0 0
-0.42995473 -0.48997931 0.80465333 0 0 0
-0.42845892 -0.46213969 0.79948755 0 0 0
-0.43034906 -0.47220148 0.80152457 0 0 0
-0.42962276 -0.45090967 0.79639572 1 2 2
-0.43575579 -0.42405562 0.75575143 121 145 156
-0.43214473 -0.42869436 0.76585952 108 133 142
-0.43231440 -0.43711246 0.78253657 80 95 101
-0.43098027 -0.40443760 0.72372602 136 167 182
-0.43575867 -0.41782672 0.74337577 130 160 173
-0.42991455 -0.38998455 0.72102190 139 166 179
-0.42504926 -0.36344731 0.71987617 137 163 176
-0.43152761 -0.37100431 0.72029509 139 164 176
-0.42966890 -0.35007611 0.71957057 136 160 173
-0.43881255 -0.35796916 0.72003622 137 161 178
-0.42974931 -0.33036753 0.71910010 134 157 170
-0.42967694 -0.31042837 0.71897940 131 154 166
-0.42965693 -0.29053164 0.71894576 127 149 163
-0.42964482 -0.27002043 0.71892530 121 143 158
-0.42962965 -0.24950849 0.71889973 115 137 154
-0.42961377 -0.22961922 0.71887322 110 132 151
-0.42958420 -0.20972456 0.71882394 109 128 147
-0.42954754 -0.18982968 0.71876272 107 125 144
-0.42946735 -0.16992078 0.71862861 98 121 141
-0.42946038 -0.15004452 0.71861696 97 116 139
-0.42948000 -0.13017731 0.71864970 94 112 135
-0.42955708 -0.11032262 0.71877870 89 109 135
-0.42974441 -0.09048475 0.71909196 68 75 96
-0.42984036 -0.06999209 0.71925237 66 72 91
-0.42969095 -0.05258172 0.71965223 65 68 88
-0.43089857 -0.04279800 0.72081037 83 94 127
-0.42992921 -0.03005011 0.72980365 104 112 126
-0.43014240 -0.01954509 0.73899459 111 112 115
-0.43001941 -0.00940197 0.74769342 116 117 120
-0.43006133 0.00291313 0.75772356 125 124 125
-0.42997841 0.01281490 0.76535414 129 129 130
-0.43000200 0.02641873 0.77561078 135 135 137
-0.43006569 0.03616432 0.78282385 142 143 143
-0.42998438 0.04957922 0.79251043 119 124 128
-0.42999636 0.07005260 0.80706414 122 125 127
-0.42991953 0.08425856 0.81694153 147 146 147
-0.42998276 0.09425817 0.82372452 152 152 150
-0.43001861 0.10986936 0.83393608 149 148 146
-0.42999069 0.12975206 0.84651635 154 154 152
-0.42998261 0.14616063 0.85665339 127 128 131
-0.43008116 0.15612842 0.86262680 127 127 130
-0.43007910 0.17037537 0.87087113 111 112 117
-0.42913530 0.18364989 0.87837310 100 99 106
-0.43017973 0.19303384 0.88355596 97 95 101
-0.42983438 0.20995311 0.89260536 85 84 88
-0.42967511 0.22212963 0.89903868 70 71 78
-0.43026735 0.23212071 0.90425774 66 65 69
-0.42999728 0.25057566 0.91359003 59 59 64
-0.42862519 0.26221933 0.91928196 60 58 64
-0.43048520 0.27126795 0.92367048 56 56 60
-0.42986608 0.28948725 0.93199839 55 56 61
-0.42967708 0.30375443 0.93835005 57 57 60
-0.43022482 0.31414698 0.94283203 59 59 64
-0.43003210 0.33017673 0.94955964 63 63 66
-0.42975923 0.34786875 0.95680997 70 70 73
-0.43097220 0.35747799 0.96063823 70 71 71
-0.42999391 0.36999397 0.96550179 79 79 80
-0.42995399 0.39069367 0.97338702 93 95 94
-0.42997081 0.40449984 0.97838549 103 102 103
-0.42996985 0.41443690 0.98191969 110 108 108
-0.43008202 0.43026273 0.98699099 119 118 116
-0.42993763 0.44960193 0.99215436 125 124 122
-0.42993552 0.46960841 0.99626780 128 128 126
-0.42994953 0.48926288 0.99356300 5 5 5
-0.42936689 0.50986391 0.99299003 0 0 0
-0.43023189 0.53023740 0.99423600 0 0 0
-0.42962918 0.55018383 0.99634683 0 0 0
-0.43062754 0.56425002 0.99836160 0 0 0
-0.41069581 -0.54329397 0.80854881 0 0 0
-0.41004843 -0.53016300 0.80767950 0 0 0
-0.41017317 -0.51003968 0.80615759 0 0 0
-0.40979265 -0.48979605 0.80378788 0 0 0
-0.40970021 -0.46392932 0.79924805 0 0 0
-0.41048087 -0.47354784 0.80111471 0 0 0
-0.40968259 -0.45026802 0.79589660 0 0 0
-0.40687231 -0.42090864 0.75792674 79 98 111
-0.40328910 -0.42736507 0.77168372 37 39 52
-0.40811019 -0.43675166 0.78739340 8 7 12
-0.41071243 -0.40365825 0.72495401 140 165 177
-0.40506553 -0.41614105 0.74933862 134 159 165
-0.40339858 -0.38237394 0.71990276 140 163 175
-0.41069665 -0.39082298 0.72088113 140 164 176
-0.40905321 -0.36923206 0.71963882 138 162 174
-0.41630773 -0.37689220 0.72006493 140 163 174
-0.40989058 -0.35027763 0.71914783 138 161 173
-0.40973064 -0.33026062 0.71886802 136 158 170
-0.40970356 -0.31035991 0.71882073 133 156 168
-0.40966444 -0.29045342 0.71875192 131 151 163
-0.40978357 -0.27027579 0.71869991 125 144 161
-0.40946891 -0.24978668 0.71866808 121 139 155
-0.40962008 -0.22955563 0.71867454 115 134 151
-0.40962336 -0.20968261 0.71868045 112 131 147
-0.40959293 -0.18979384 0.71862699 108 127 145
-0.40953048 -0.16989440 0.71851749 103 123 144
-0.40951909 -0.15001969 0.71849747 100 118 139
-0.40952440 -0.13015138 0.71850663 95 113 135
-0.40959918 -0.11030099 0.71863789 92 109 134
-0.40978553 -0.09046874 0.71896500 70 77 100
-0.40986615 -0.06997781 0.71910650 67 74 93
-0.40988071 -0.05158064 0.71945640 66 69 90
-0.41073572 -0.04176015 0.72071431 87 104 136
-0.40998792 -0.02997120 0.72980676 102 110 125
-0.40975284 -0.01954734 0.73907954 110 112 113
-0.41000799 -0.00950073 0.74756452 117 118 121
-0.40976172 0.00295357 0.75763763 123 125 125
-0.41013213 0.01290121 0.76522304 129 129 131
-0.40998143 0.02639961 0.77534827 134 136 138
-0.41005666 0.03609661 0.78255461 141 141 143
-0.40997054 0.04959802 0.79233173 125 127 132
-0.41007097 0.06999900 0.80684710 128 131 134
-0.41001436 0.08503935 0.81726299 148 147 149
-0.40990196 0.09500830 0.82394793 157 156 153
-0.40998638 0.10977621 0.83359034 148 147 146
-0.40108774 0.12006449 0.83998275 137 135 135
-0.40997196 0.12976024 0.84614208 150 149 147
-0.40975215 0.14631077 0.85628112 135 137 139
-0.41030661 0.15618796 0.86216547 137 138 140
-0.41010352 0.17029055 0.87029122 126 128 130
-0.40972806 0.18391357 0.87793897 106 108 113
-0.41000865 0.19333583 0.88306668 122 123 123
-0.40993325 0.20991626 0.89184714 132 131 129
-0.40976868 0.22313436 0.89873667 126 124 121
-0.41004618 0.23302509 0.90391948 102 101 103
-0.41000357 0.25033267 0.91270257 96 96 98
-0.40914003 0.26282251 0.91890073 87 88 93
-0.41031606 0.27294498 0.92376107 78 79 85
-0.40999522 0.29011492 0.93162492 84 85 89
-0.40992374 0.30422654 0.93790766 82 83 87
-0.40996177 0.31464174 0.94240114 83 84 87
-0.40997445 0.33003986 0.94894922 90 91 95
-0.41003414 0.34839430 0.95664349 89 90 92
-0.40967985 0.35810777 0.96054675 87 87 90
-0.41001832 0.36988854 0.96525935 90 92 97
-0.41001914 0.39062094 0.97336436 104 105 107
-0.41012365 0.40452287 0.97844130 119 120 120
-0.40990147 0.41442424 0.98194646 115 116 117
-0.40994577 0.43020850 0.98696616 121 121 123
-0.40998163 0.44964718 0.99202622 133 134 134
-0.40986719 0.47029858 0.99566246 98 98 99
-0.40997671 0.48970288 0.99139823 0 0 0
-0.41013425 0.51013171 0.99158053 0 0 0
-0.41020395 0.52986769 0.99271553 0 0 0
-0.40986622 0.54960732 0.99485476 0 0 0
-0.41030091 0.56382632 0.99687526 0 0 0
-0.39055000 -0.54276970 0.80767745 0 0 0
-0.39022057 -0.52973761 0.80681823 0 0 0
-0.38986213 -0.50996726 0.80534309 0 0 0
-0.38994961 -0.49036154 0.80311386 0 0 0
-0.38945124 -0.46590504 0.79889048 0 0 0
-0.39075127 -0.47590101 0.80090447 0 0 0
-0.38998345 -0.44995427 0.79544739 0 0 0
-0.38989437 -0.42662320 0.77399814 44 38 37
-0.38917565 -0.43672318 0.79080158 7 5 5
-0.38626425 -0.40292183 0.73056764 78 86 98
-0.38413238 -0.41193748 0.74767871 50 45 52
-0.39097740 -0.41996679 0.76096433 49 41 43
-0.38949090 -0.38383117 0.71958546 138 161 171
-0.39051120 -0.39374957 0.72156105 134 155 166
-0.38989379 -0.37006172 0.71894567 140 161 171
-0.38974692 -0.35004734 0.71867617 138 161 171
-0.38968658 -0.33012122 0.71856521 136 158 169
-0.38970453 -0.31026398 0.71859875 135 156 168
-0.38967044 -0.29036624 0.71853618 133 153 164
-0.38963948 -0.27047365 0.71847898 130 147 161
-0.38964716 -0.24998819 0.71849337 124 141 156
-0.38969177 -0.22952400 0.71857590 119 136 150
-0.38971045 -0.20966218 0.71861044 114 132 149
-0.38968712 -0.18977811 0.71856748 109 129 146
-0.38962451 -0.16987896 0.71845192 108 124 143
-0.38959574 -0.14999918 0.71839884 102 119 140
-0.38961415 -0.13013790 0.71843308 95 115 139
-0.38968987 -0.11029106 0.71857280 92 112 137
-0.38987270 -0.09046180 0.71890999 71 79 100
-0.38995928 -0.06997409 0.71906967 68 75 96
-0.39020110 -0.05136336 0.71951623 65 70 90
-0.38980704 -0.04150745 0.72068805 93 107 140
-0.39006469 -0.03003526 0.72971716 104 112 126
-0.38931379 -0.01946741 0.73908011 113 112 115
-0.39006581 -0.00940552 0.74747985 121 122 123
-0.39004399 0.00353766 0.75787413 121 123 124
-0.39003804 0.01348447 0.76543780 129 129 131
-0.38999368 0.02639236 0.77513116 138 139 140
-0.39007052 0.03608672 0.78234673 140 140 140
-0.38998680 0.04956396 0.79215827 122 124 128
-0.38888508 0.06041893 0.79994867 126 128 132
-0.39015311 0.07060216 0.80711916 131 132 134
-0.39013872 0.08501763 0.81705464 146 146 146
-0.39006064 0.09493407 0.82368653 149 149 148
-0.38997508 0.10976981 0.83331372 148 146 146
-0.39012370 0.12004116 0.83981950 139 138 138
-0.38994277 0.13052068 0.84628505 153 153 152
-0.39002698 0.14677578 0.85612491 134 134 137
-0.38983086 0.15672874 0.86203547 124 125 130
-0.39006775 0.17015860 0.86976175 124 125 129
-0.38974625 0.18466082 0.87787861 105 107 111
-0.39011388 0.19414717 0.88306173 143 144 143
-0.39002346 0.20981895 0.89141345 147 146 145
-0.39013488 0.22312155 0.89833761 145 146 144
-0.39001713 0.23299105 0.90346493 137 136 135
-0.39009284 0.25029107 0.91229980 111 112 117
-0.38996410 0.26315485 0.91869724 101 104 110
-0.39002248 0.27323262 0.92355286 102 105 109
-0.39000564 0.29010697 0.93140904 106 108 112
-0.38991604 0.30432606 0.93780882 94 94 99
-0.38997523 0.31473190 0.94237244 95 98 101
-0.38995858 0.33000444 0.94892447 108 109 111
-0.39031277 0.34814967 0.95661523 105 107 111
-0.38810143 0.35769683 0.96055724 90 93 96
-0.39001462 0.36993284 0.96547279 104 104 106
-0.39002192 0.39077022 0.97364818 107 111 115
-0.39016974 0.40458811 0.97872977 110 113 115
-0.38993606 0.41452143 0.98223370 115 117 118
-0.39004736 0.43027603 0.98712246 115 117 122
-0.38970093 0.44992016 0.99199835 130 132 132
-0.38992915 0.47054700 0.99387724 88 88 87
-0.39011986 0.48991562 0.98979522 0 0 0
-0.38963088 0.50993090 0.99029811 0 0 0
-0.39005330 0.52979814 0.99149853 0 0 0
-0.39004639 0.55013344 0.99375155 0 0 0
-0.39055097 0.56319754 0.99565780 0 0 0
-0.37130441 -0.54247843 0.80687063 0 0 0
-0.37006144 -0.53012060 0.80600893 0 0 0
-0.36986563 -0.51001503 0.80453852 0 0 0
-0.36997720 -0.48988453 0.80229601 0 0 0
-0.36953691 -0.46734081 0.79846302 0 0 0
-0.37149091 -0.47742307 0.80051494 0 0 0
-0.37018112 -0.44998696 0.79473557 0 0 0
-0.36797327 -0.42284503 0.77176056 51 39 40
-0.36886837 -0.43635591 0.79077294 0 0 0
-0.37291451 -0.40169385 0.73794306 48 44 46
-0.36883065 -0.40641783 0.74359066 51 41 44
-0.36811897 -0.41835880 0.76403317 57 45 45
-0.37683062 -0.38322527 0.71916385 138 159 165
-0.37024020 -0.39070368 0.73415364 57 57 62
-0.37133390 -0.36856282 0.71840580 137 159 169
-0.36401040 -0.37423842 0.73071775 68 71 82
-0.36969607 -0.34988107 0.71833494 137 159 169
-0.36964934 -0.32997342 0.71824394 138 158 169
-0.36969743 -0.31015105 0.71833746 137 156 168
-0.36969480 -0.29028384 0.71833252 135 152 164
-0.36968288 -0.27040984 0.71830968 132 148 160
-0.36971225 -0.24994406 0.71836697 126 143 156
-0.36978251 -0.22950081 0.71850370 122 137 155
-0.36982415 -0.20965463 0.71858484 113 134 149
-0.36981117 -0.18977608 0.71855969 113 128 146
-0.36973661 -0.16987024 0.71841487 109 125 143
-0.36970705 -0.14999044 0.71835729 104 120 140
-0.36976003 -0.13014268 0.71846052 99 116 139
-0.36984331 -0.11029876 0.71862224 96 112 137
-0.37000569 -0.09046520 0.71893757 72 80 99
-0.37008053 -0.06997548 0.71908301 70 75 94
-0.37041574 -0.05195220 0.71964078 67 71 93
-0.36962686 -0.04210073 0.72062187 88 98 128
-0.37001412 -0.03002776 0.72958608 104 110 123
-0.36998341 -0.01893593 0.73935916 113 112 114
-0.37005665 -0.00879456 0.74782620 125 124 124
-0.37005450 0.00357161 0.75774243 127 128 133
-0.37005415 0.01350405 0.76530450 136 136 137
-0.36997555 0.02635633 0.77495904 138 139 140
-0.37012628 0.03609957 0.78222211 143 143 143
-0.36994142 0.04954027 0.79204696 123 125 128
-0.37016900 0.06041072 0.79983996 129 132 133
-0.37003028 0.07074870 0.80709358 128 129 132
-0.37004423 0.08503280 0.81688501 144 144 144
-0.37013696 0.09494194 0.82350038 141 140 139
-0.36985203 0.11002385 0.83325992 144 143 141
-0.37405467 0.12000862 0.83959190 138 136 136
-0.36994736 0.13041560 0.84595489 150 148 146
-0.37006040 0.14669169 0.85571588 145 144 142
-0.36992121 0.15662670 0.86162831 128 130 133
-0.36999383 0.17014056 0.86942602 125 128 132
-0.36987922 0.18459036 0.87754351 124 126 130
-0.37013316 0.19407452 0.88273116 129 130 132
-0.37006341 0.20980074 0.89114374 148 149 148
-0.36981757 0.22388397 0.89846140 143 144 140
-0.37011619 0.23371437 0.90358104 149 149 147
-0.37005080 0.25017201 0.91199084 132 132 134
-0.37002911 0.26298892 0.91841365 116 118 121
-0.36999892 0.27331236 0.92344393 107 108 112
-0.37003659 0.29013205 0.93140612 120 123 125
-0.36987834 0.30425569 0.93791422 120 124 126
-0.36996931 0.31470178 0.94254594 97 100 103
-0.37006346 0.33007521 0.94920465 107 109 111
-0.37001009 0.34759177 0.95671467 119 118 120
-0.36991444 0.35735608 0.96075670 115 116 117
-0.37021355 0.36968241 0.96568461 121 123 125
-0.36971333 0.39037856 0.97376767 116 118 121
-0.37066783 0.40407060 0.97876494 97 99 105
-0.36970316 0.41395153 0.98219749 105 108 111
-0.37009179 0.43032840 0.98714301 138 139 140
-0.36996337 0.45040222 0.99185718 185 186 181
-0.36988138 0.47082771 0.99165369 50 51 49
-0.36996225 0.48971512 0.98866655 0 0 0
-0.36978584 0.50988932 0.98928347 0 0 0
-0.37002529 0.53041932 0.99058956 0 0 0
-0.36993120 0.55010208 0.99275696 0 0 0
-0.37010405 0.56341762 0.99473468 0 0 0
-0.34999100 -0.54226982 0.80589730 0 0 0
-0.35034994 -0.52992254 0.80512207 0 0 0
-0.34998773 -0.50992801 0.80369580 0 0 0
-0.34254309 -0.48016323 0.79989429 0 0 0
-0.35006663 -0.49022805 0.80158364 0 0 0
-0.34985417 -0.46921421 0.79811972 0 0 0
-0.35565426 -0.47852082 0.80015327 0 0 0
-0.34988408 -0.45005117 0.79393130 0 0 0
-0.35609783 -0.42507503 0.77813810 36 24 25
-0.34949832 -0.43439722 0.78929290 1 0 0
-0.34956444 -0.40102405 0.73941446 64 48 49
-0.35006323 -0.40541765 0.74381193 69 50 51
-0.34427116 -0.41548211 0.76238894 68 45 45
-0.34994574 -0.38965064 0.73734488 63 48 48
-0.35863819 -0.36188394 0.71874690 134 159 161
-0.34985530 -0.36991832 0.73407053 65 54 58
-0.35265641 -0.34783385 0.71828392 139 156 168
-0.34542225 -0.35348195 0.73175714 69 67 78
-0.34966020 -0.32985407 0.71798449 138 157 169
-0.34973053 -0.31006108 0.71812942 136 156 167
-0.34976503 -0.29023049 0.71820094 136 152 164
-0.34976955 -0.27037237 0.71821022 133 148 161
-0.34982681 -0.24993040 0.71832803 129 144 158
-0.34990320 -0.22949472 0.71848487 124 139 154
-0.34995399 -0.20965587 0.71858926 116 134 151
-0.34995306 -0.18978338 0.71858747 114 129 147
-0.34989815 -0.16988436 0.71847496 108 125 143
-0.34986839 -0.15000230 0.71841390 105 120 140
-0.34993339 -0.13015830 0.71854736 100 118 138
-0.35001370 -0.11031275 0.71871216 96 111 136
-0.35013484 -0.09046808 0.71896086 72 80 102
-0.35020711 -0.06997799 0.71910917 69 75 93
-0.35048299 -0.05207300 0.71969580 67 74 90
-0.34917852 -0.04232344 0.72057246 80 94 121
-0.35002748 -0.02997462 0.72944625 108 113 126
-0.35008159 -0.01889074 0.73920401 123 123 124
-0.34998123 -0.00878391 0.74764694 127 127 127
-0.35007047 0.00351889 0.75753192 132 132 134
-0.35003430 0.01352001 0.76521967 137 137 138
-0.34994321 0.02639648 0.77495779 130 131 134
-0.34998941 0.03610039 0.78224052 134 135 137
-0.34994023 0.04955687 0.79205375 121 123 128
-0.35010399 0.06040740 0.79979595 126 127 132
-0.34997732 0.07075609 0.80701174 129 129 131
-0.34998122 0.08498258 0.81671837 148 147 144
-0.35003539 0.09490660 0.82331907 144 144 144
-0.35001793 0.11046202 0.83337960 148 147 145
-0.34991812 0.13038106 0.84570270 141 140 141
-0.35001848 0.14747796 0.85591445 148 148 147
-0.35020242 0.15749415 0.86187161 136 138 142
-0.34992015 0.17006497 0.86916166 125 126 130
-0.34992327 0.18454489 0.87732752 132 132 133
-0.35022236 0.19403245 0.88253972 121 123 125
-0.34996558 0.20975631 0.89095504 123 123 124
-0.34994877 0.22394575 0.89834268 121 122 123
-0.34999041 0.23380127 0.90351866 130 132 132
-0.35001771 0.25007433 0.91184137 119 121 123
-0.34987490 0.26305816 0.91836365 116 117 123
-0.35002889 0.27316573 0.92332620 111 112 115
-0.35006211 0.29000073 0.93131731 106 107 109
-0.34996471 0.30424601 0.93796720 119 119 123
-0.34992818 0.31479868 0.94270358 109 110 114
-0.35005361 0.33011883 0.94942514 113 115 117
-0.34986480 0.34765982 0.95699476 136 137 137
-0.35009055 0.35746104 0.96103889 116 117 120
-0.34989069 0.36918821 0.96574168 116 117 118
-0.35000437 0.38997238 0.97381670 112 116 118
-0.34979926 0.40383080 0.97881518 132 132 135
-0.35002253 0.41372526 0.98216486 157 157 156
-0.35006527 0.43025093 0.98696575 188 189 183
-0.35004543 0.45004924 0.99125950 192 192 188
-0.35021445 0.46966198 0.98939417 19 19 18
-0.35009347 0.49035492 0.98761850 0 0 0
-0.34987232 0.51019968 0.98837795 0 0 0
-0.35004124 0.52960429 0.98967399 0 0 0
-0.35002152 0.54993755 0.99189496 0 0 0
-0.35001326 0.56290491 0.99382944 0 0 0
-0.33022583 -0.54177764 0.80488662 0 0 0
-0.33022185 -0.53017795 0.80413751 0 0 0
-0.32977375 -0.51018311 0.80274857 0 0 0
-0.32785926 -0.48278891 0.79966299 0 0 0
-0.33074769 -0.49223971 0.80099995 0 0 0
-0.32985287 -0.47043490 0.79756829 0 0 0
-0.32999535 -0.45010752 0.79324269 0 0 0
-0.33415383 -0.42304310 0.77873278 24 19 13
-0.32956928 -0.43316486 0.78861541 0 0 0
-0.33517889 -0.40041194 0.73942621 94 62 62
-0.33192892 -0.40593308 0.74822253 104 67 61
-0.32630858 -0.41551420 0.76664804 82 57 42
-0.32995141 -0.38996131 0.73783723 93 63 61
-0.33017965 -0.37028331 0.73549743 87 61 61
-0.32974398 -0.35010831 0.73389857 74 57 61
-0.33344803 -0.32697707 0.71794994 137 155 163
-0.32673545 -0.33269989 0.73089984 65 64 69
-0.32975091 -0.30994812 0.71786799 136 155 165
-0.32987070 -0.29020141 0.71812974 135 152 163
-0.32990465 -0.27036995 0.71820398 133 149 162
-0.32996690 -0.24993437 0.71833942 131 144 159
-0.33004591 -0.22950320 0.71851150 123 139 154
-0.33010735 -0.20967218 0.71864538 119 134 151
-0.33011549 -0.18980329 0.71866320 112 129 145
-0.33007326 -0.16990721 0.71857128 107 123 142
-0.33003410 -0.15001732 0.71848592 102 118 139
-0.33009515 -0.13017134 0.71861882 99 114 136
-0.33017364 -0.11032458 0.71878976 95 110 135
-0.33029888 -0.09048088 0.71906268 71 78 101
-0.33035352 -0.06998525 0.71918146 69 73 91
-0.32994383 -0.05247817 0.71971776 67 71 92
-0.33000357 -0.04261588 0.72044334 81 84 112
-0.33003056 -0.02998218 0.72921069 111 114 127
-0.33019464 -0.01892600 0.73897173 112 112 116
-0.32997396 -0.00879398 0.74748042 123 122 124
-0.32999819 0.00351878 0.75744155 127 127 129
-0.32999956 0.01347164 0.76518552 128 129 131
-0.32987749 0.02639861 0.77501918 125 126 129
-0.33000350 0.03612235 0.78231585 132 134 136
-0.32999577 0.04957164 0.79206904 126 129 133
-0.33004432 0.06040461 0.79975902 116 121 125
-0.32998773 0.07063728 0.80685304 132 132 133
-0.33004232 0.08494072 0.81655578 149 148 145
-0.32995744 0.09490675 0.82319491 142 141 142
-0.33000518 0.11049150 0.83324036 146 146 146
-0.32998431 0.13034932 0.84549822 135 135 137
-0.33004521 0.14744147 0.85570346 145 145 144
-0.33001429 0.15737196 0.86160559 122 123 128
-0.32993776 0.16998287 0.86893637 118 120 124
-0.32968457 0.18473956 0.87729632 125 127 130
-0.33050198 0.19413886 0.88247717 115 115 118
-0.32995486 0.20969259 0.89079012 114 115 120
-0.33007523 0.22385878 0.89811550 118 118 119
-0.33009989 0.23373427 0.90339511 141 142 142
-0.32999421 0.25011514 0.91178245 132 133 136
-0.33003344 0.26295104 0.91828510 121 121 123
-0.32997965 0.27323236 0.92335988 114 115 118
-0.33009990 0.29018258 0.93140086 94 95 100
-0.33004987 0.30442657 0.93811774 117 119 122
-0.32989860 0.31491289 0.94291422 114 115 121
-0.33001354 0.33030086 0.94965964 101 103 109
-0.33017642 0.34737441 0.95699367 114 116 119
-0.32913999 0.35701415 0.96099133 112 113 117
-0.32991126 0.36926234 0.96590127 127 130 133
-0.33005574 0.38994959 0.97385631 149 150 151
-0.32976563 0.40388191 0.97882197 191 191 185
-0.33010599 0.41358892 0.98203825 193 193 187
-0.33009131 0.42989479 0.98660504 194 195 188
-0.32970086 0.45005171 0.99042015 173 173 166
-0.33026523 0.46931076 0.98690380 0 0 0
-0.33026701 0.48962997 0.98655922 0 0 0
-0.32985697 0.50981551 0.98748410 0 0 0
-0.32986222 0.52970506 0.98891101 0 0 0
-0.33017811 0.54935696 0.99105034 0 0 0
-0.32998352 0.56243594 0.99300145 0 0 0
-0.30946161 -0.54151154 0.80373820 0 0 0
-0.31013604 -0.52996266 0.80304771 0 0 0
-0.31021985 -0.50988323 0.80168575 0 0 0
-0.30866014 -0.48669067 0.79923945 0 0 0
-0.31172621 -0.49558865 0.80043590 0 0 0
-0.30997752 -0.46993481 0.79668190 0 0 0
-0.30999222 -0.44980250 0.79266800 0 0 0
-0.31983081 -0.42233456 0.77990991 0 0 0
-0.30981314 -0.43136628 0.78795676 3 2 2
-0.30481733 -0.40207147 0.74646253 135 93 82
-0.31276661 -0.41744537 0.77300156 67 46 40
-0.31042584 -0.38928727 0.73749161 123 81 73
-0.30959523 -0.39950889 0.74059569 130 86 75
-0.30992179 -0.37036809 0.73559242 112 75 71
-0.31011419 -0.35002847 0.73435183 101 68 67
-0.31011796 -0.32981289 0.73304395 77 58 59
-0.31421914 -0.30638279 0.71798395 134 151 158
-0.30730729 -0.31265150 0.73068407 67 61 67
-0.31005391 -0.29017145 0.71814543 136 149 160
-0.30108391 -0.29862982 0.72564863 79 88 94
-0.31004858 -0.27037472 0.71821674 134 147 161
-0.31011617 -0.24994632 0.71837380 131 143 158
-0.31018699 -0.22951157 0.71853772 122 138 153
-0.31024378 -0.20967908 0.71866931 116 131 149
-0.31025890 -0.18981419 0.71870429 108 126 143
-0.31022139 -0.16991809 0.71861741 102 117 139
-0.31019738 -0.15003317 0.71856214 96 112 135
-0.31024377 -0.13018064 0.71866928 92 109 133
-0.31032654 -0.11033528 0.71886118 89 104 132
-0.31045786 -0.09049387 0.71916543 67 74 95
-0.31045382 -0.06995527 0.71924567 64 68 87
-0.30951234 -0.05178970 0.71970881 65 69 87
-0.31045476 -0.04182092 0.72039321 84 92 119
-0.31001399 -0.03000737 0.72897424 106 111 125
-0.31000373 -0.01890149 0.73881903 101 104 110
-0.31000662 -0.00876891 0.74741761 120 119 120
-0.30997542 0.00353593 0.75747632 131 130 130
-0.30999194 0.01345113 0.76524368 120 121 125
-0.30987841 0.02637978 0.77505426 122 120 122
-0.31013045 0.03606552 0.78227850 130 129 132
-0.31003342 0.04952688 0.79200507 126 128 130
-0.30996076 0.06039681 0.79965579 119 119 123
-0.30998758 0.07069830 0.80678228 140 139 139
-0.30965883 0.08548655 0.81678619 146 143 143
-0.31033756 0.09535717 0.82336628 131 132 133
-0.30999940 0.11042483 0.83303829 139 139 141
-0.30743637 0.12151332 0.83996191 137 136 140
-0.31018405 0.13089342 0.84569435 138 138 140
-0.31002532 0.14747028 0.85558699 135 136 138
-0.30984287 0.15742402 0.86148778 130 131 135
-0.30999057 0.16999946 0.86882589 127 130 133
-0.31019445 0.18531875 0.87753033 128 130 132
-0.30998735 0.19489959 0.88280993 101 103 107
-0.30997628 0.20970264 0.89072732 117 119 121
-0.31007592 0.22383156 0.89806761 111 112 115
-0.31009114 0.23374143 0.90328747 125 127 127
-0.30997578 0.25003478 0.91165567 129 128 130
-0.30994248 0.26301730 0.91836666 140 141 140
-0.30992818 0.27320282 0.92334341 107 108 112
-0.31005002 0.29006823 0.93152849 140 140 141
-0.31044476 0.30372182 0.93798162 138 138 139
-0.30971047 0.31416406 0.94270363 129 131 133
-0.31005113 0.33033534 0.94983620 114 115 121
-0.30997023 0.34687461 0.95696862 121 125 127
-0.31020306 0.35660617 0.96097182 131 131 136
-0.31001018 0.36936161 0.96606949 166 168 166
-0.31002056 0.39005444 0.97392560 187 187 185
-0.31002429 0.40380833 0.97876075 194 195 188
-0.31006295 0.41353783 0.98191569 198 197 190
-0.30994988 0.43002326 0.98634806 194 195 188
-0.30997935 0.45070080 0.98873655 120 120 116
-0.31005834 0.47051476 0.98518663 0 0 0
-0.30962103 0.49007726 0.98554785 0 0 0
-0.30976467 0.50995767 0.98662631 0 0 0
-0.31029205 0.53015436 0.98816315 0 0 0
-0.30973299 0.55038259 0.99038630 0 0 0
-0.31097906 0.56228690 0.99225015 0 0 0
-0.29123437 -0.54100215 0.80263912 0 0 0
-0.28988519 -0.53011351 0.80189806 0 0 0
-0.28509809 -0.50327557 0.79969960 0 0 0
-0.29131923 -0.51180722 0.80075835 0 0 0
-0.28985823 -0.48974706 0.79856548 0 0 0
-0.29802947 -0.49929697 0.80009238 0 0 0
-0.28987272 -0.46962908 0.79575870 0 0 0
-0.29008202 -0.44948130 0.79211530 0 0 0
-0.28982136 -0.43044133 0.78783385 0 0 0
-0.29251526 -0.40529933 0.75471860 137 96 86
-0.28565494 -0.41132300 0.76727171 102 79 69
-0.28638363 -0.41866052 0.78059977 59 47 44
-0.29056494 -0.38743499 0.73571823 137 98 84
-0.29017716 -0.39795832 0.74200016 143 97 91
-0.28986411 -0.37009927 0.73488360 135 93 83
-0.29019330 -0.34990514 0.73421513 125 82 76
-0.28999520 -0.32998084 0.73343107 109 73 68
-0.28970621 -0.31011273 0.73218689 93 66 67
-0.29508156 -0.28553919 0.71830242 138 146 157
-0.28821988 -0.29167754 0.72989481 74 64 70
-0.29054373 -0.27001724 0.71824263 133 145 157
-0.28150220 -0.27778856 0.72690413 83 83 90
-0.29027115 -0.24996453 0.71842602 129 142 154
-0.29033422 -0.22952578 0.71858231 122 134 149
-0.29038266 -0.20968878 0.71870232 111 126 145
-0.29039023 -0.18981862 0.71872112 103 118 139
-0.29036757 -0.16992927 0.71866526 95 110 133
-0.29035773 -0.15004964 0.71864086 89 105 130
-0.29038439 -0.13018753 0.71870686 87 102 130
-0.29046592 -0.11034244 0.71890887 84 99 127
-0.28998233 -0.09050449 0.71925070 62 66 85
-0.28999106 -0.07003730 0.71935815 58 62 79
-0.28951183 -0.05079298 0.71972959 58 62 78
-0.29009030 -0.04089758 0.72035940 89 96 126
-0.28998612 -0.02998331 0.72882728 105 109 119
-0.28983810 -0.01887812 0.73871097 96 97 101
-0.29000376 -0.00880633 0.74731994 121 121 122
-0.28995247 0.00355325 0.75751704 124 123 125
-0.28997184 0.01351801 0.76534239 118 119 124
-0.28993342 0.02641057 0.77507873 120 120 123
-0.29011654 0.03612190 0.78231028 132 131 131
-0.28996953 0.04954501 0.79196929 136 135 137
-0.28988484 0.06038957 0.79955990 147 147 148
-0.29006732 0.07069306 0.80672227 154 152 152
-0.29000953 0.08566064 0.81684291 151 147 146
-0.29002035 0.09565085 0.82349308 126 128 132
-0.28997388 0.11040350 0.83293800 132 132 137
-0.28998741 0.12150185 0.83988266 161 161 160
-0.29002928 0.13112251 0.84577322 143 143 143
-0.28997496 0.14736020 0.85551106 131 131 136
-0.28998325 0.15737703 0.86143460 126 129 132
-0.29001275 0.16995254 0.86875610 127 129 134
-0.29005810 0.18532523 0.87742428 114 118 125
-0.28996154 0.19482241 0.88266994 122 124 127
-0.28992937 0.20967894 0.89062628 128 128 131
-0.29007292 0.22379927 0.89799897 109 112 116
-0.29001144 0.23371732 0.90326100 139 140 141
-0.28999511 0.25010371 0.91169886 123 124 127
-0.28982954 0.26306714 0.91839091 105 108 115
-0.29001580 0.27329181 0.92348002 126 125 128
-0.29001773 0.29021247 0.93164142 125 127 128
-0.28999416 0.30340819 0.93787551 126 130 131
-0.29011048 0.31392452 0.94269106 129 131 134
-0.28997121 0.33026615 0.94988645 128 130 134
-0.28992911 0.34690419 0.95710390 161 162 161
-0.29031487 0.35665937 0.96111516 192 190 186
-0.29000179 0.36939791 0.96616489 197 197 190
-0.28997795 0.39004601 0.97393678 188 187 186
-0.28962782 0.40423309 0.97886676 191 192 187
-0.29021248 0.41400722 0.98195583 195 195 189
-0.28967641 0.43027358 0.98610060 194 194 189
-0.29027309 0.45014532 0.98755285 91 91 89
-0.29025045 0.46970207 0.98431112 0 0 0
-0.28960115 0.48987631 0.98464673 0 0 0
-0.29026965 0.51002696 0.98582046 0 0 0
-0.28978519 0.53030088 0.98736789 0 0 0
-0.29007321 0.55006151 0.98959660 0 0 0
-0.29006774 0.56243966 0.99149565 0 0 0
-0.26974825 -0.54057099 0.80131438 0 0 0
-0.26316518 -0.52315434 0.79977060 0 0 0
-0.27082051 -0.53068046 0.80077349 0 0 0
-0.26926320 -0.50903004 0.79918467 0 0 0
-0.27698340 -0.51631756 0.80021628 0 0 0
-0.26967292 -0.48998546 0.79736329 0 0 0
-0.27013619 -0.47033386 0.79481857 0 0 0
-0.26997019 -0.45049968 0.79148744 0 0 0
-0.26991268 -0.43015096 0.78673740 0 0 0
-0.27887688 -0.40352631 0.75481430 134 110 90
-0.26897436 -0.41221091 0.77145136 85 87 89
-0.26158225 -0.41756552 0.78107527 0 0 0
-0.27086210 -0.38569260 0.73248745 140 107 98
-0.27533157 -0.39561508 0.74001598 142 107 90
-0.27011281 -0.37005144 0.73327194 143 103 93
-0.26978154 -0.34971502 0.73361385 144 102 91
-0.26968950 -0.32993929 0.73325848 131 90 81
-0.27020599 -0.30979239 0.73249130 116 78 77
-0.27019647 -0.28984433 0.73131445 104 72 72
-0.27574644 -0.26530104 0.71844749 130 140 150
-0.26800090 -0.27141404 0.72963355 78 62 68
-0.27093594 -0.24934861 0.71837554 126 136 148
-0.26252195 -0.25730455 0.72671034 77 74 84
-0.27043926 -0.22950646 0.71852189 113 128 142
-0.27049135 -0.20967616 0.71865979 106 118 137
-0.27050761 -0.18981403 0.71870371 93 110 132
-0.27049529 -0.16993058 0.71867119 87 102 128
-0.27050130 -0.15005929 0.71868739 84 98 126
-0.27036673 -0.13008271 0.71876150 83 97 127
-0.27000174 -0.11035798 0.71901139 80 93 124
-0.26953219 -0.09052533 0.71941692 58 62 83
-0.26956707 -0.07001765 0.71950983 55 58 78
-0.26948525 -0.05047535 0.71974352 56 59 76
-0.27139898 -0.04065844 0.72021233 89 95 123
-0.26995302 -0.02998857 0.72872666 106 108 119
-0.27005066 -0.01891809 0.73866347 101 100 108
-0.26995646 -0.00880379 0.74738047 124 124 125
-0.26994581 0.00350190 0.75754065 130 129 131
-0.27001039 0.01348317 0.76535269 115 117 124
-0.26998680 0.02636930 0.77504473 116 119 125
-0.27010401 0.03610311 0.78229837 141 139 140
-0.27001135 0.04957704 0.79195804 142 141 143
-0.26983064 0.06038611 0.79951407 134 134 137
-0.27005505 0.07069912 0.80670100 151 149 149
-0.27003589 0.08570511 0.81686029 149 146 146
-0.26996498 0.09560192 0.82343171 127 126 130
-0.26998227 0.11038472 0.83291871 131 132 137
-0.26966109 0.12150065 0.83987432 133 135 140
-0.26997457 0.13116143 0.84583470 142 142 145
-0.26995410 0.14750865 0.85566979 137 137 139
-0.27014139 0.15733837 0.86142667 123 124 129
-0.26996490 0.16993662 0.86867060 127 129 133
-0.26993670 0.18533887 0.87735341 127 127 135
-0.26973609 0.19502432 0.88266781 113 115 120
-0.27010341 0.20980312 0.89059651 112 113 118
-0.27008290 0.22381258 0.89799121 126 129 131
-0.26994583 0.23370369 0.90327574 120 121 122
-0.27002855 0.25007997 0.91173655 109 111 116
-0.27001424 0.26298110 0.91838614 134 135 136
-0.27008909 0.27326268 0.92354493 135 138 138
-0.26998523 0.29014182 0.93164237 117 120 124
-0.27013939 0.30353861 0.93797179 108 110 115
-0.26999911 0.31406105 0.94281713 134 135 138
-0.26989398 0.33042726 0.95006201 174 174 171
-0.26998644 0.34693842 0.95719823 194 195 188
-0.27039966 0.35668460 0.96118319 195 195 189
-0.26996911 0.36927580 0.96613666 197 198 191
-0.26991783 0.39001273 0.97388619 193 193 189
-0.27031496 0.40472250 0.97892455 190 191 186
-0.26972677 0.41456887 0.98197602 195 195 189
-0.27015185 0.43038886 0.98584130 197 196 192
-0.27002649 0.45035774 0.98577916 49 49 48
-0.26988020 0.46950999 0.98350194 0 0 0
-0.26996907 0.49007146 0.98382559 0 0 0
-0.27029556 0.51024374 0.98501542 0 0 0
-0.26993390 0.52969969 0.98649976 0 0 0
-0.26990996 0.54997514 0.98876869 0 0 0
-0.27011829 0.56193643 0.99060852 0 0 0
-0.25843038 -0.54007923 0.80058542 0 0 0
-0.24850125 -0.52904017 0.79920171 0 0 0
-0.25601189 -0.53643049 0.80023388 0 0 0
-0.24996652 -0.51004224 0.79800510 0 0 0
-0.25028522 -0.48997530 0.79611471 0 0 0
-0.24979116 -0.46989428 0.79354692 0 0 0
-0.25000355 -0.44967703 0.79023403 0 0 0
-0.25016341 -0.42977025 0.78551124 0 0 0
-0.25975784 -0.40393095 0.75802195 134 148 161
-0.25849293 -0.41451557 0.77788517 90 100 104
-0.24861835 -0.41789297 0.78197542 5 6 6
-0.25157392 -0.38397971 0.72679300 140 145 150
-0.24546950 -0.39428563 0.74202489 135 150 153
-0.25016072 -0.37003763 0.72752222 140 128 124
-0.24970006 -0.35033983 0.73214581 144 110 102
-0.24986824 -0.33025805 0.73273159 147 108 98
-0.25035395 -0.30990532 0.73242526 136 94 85
-0.25012820 -0.29002318 0.73176799 124 84 80
-0.24985346 -0.27012343 0.73096834 107 74 73
-0.25674493 -0.24383130 0.71864800 117 128 137
-0.24869810 -0.25074096 0.72977907 80 61 65
-0.25145749 -0.22865657 0.71852133 107 119 136
-0.24324364 -0.23534079 0.72755146 70 66 73
-0.25035892 -0.20949820 0.71849943 97 110 131
-0.25000647 -0.18981017 0.71869031 90 103 126
-0.25001951 -0.16994422 0.71872860 86 97 123
-0.25003067 -0.15007451 0.71876077 82 94 121
-0.24991825 -0.13032720 0.71886455 81 93 124
-0.24954902 -0.11038113 0.71916357 80 89 118
-0.24971145 -0.09055244 0.71963213 55 59 77
-0.24972691 -0.07003403 0.71967620 53 56 75
-0.24975744 -0.05013783 0.71976319 54 57 74
-0.24990992 -0.04020984 0.72020191 84 94 124
-0.24997341 -0.02998026 0.72878198 104 107 118
-0.24999013 -0.01890189 0.73883550 102 101 107
-0.24995094 -0.00874426 0.74762338 123 123 124
-0.24995199 0.00355395 0.75770054 117 116 118
-0.25005501 0.01347544 0.76540842 113 115 123
-0.24998233 0.02640167 0.77511518 118 119 126
-0.25008876 0.03608371 0.78227528 141 140 142
-0.25006013 0.04955548 0.79192592 144 142 144
-0.24978802 0.06038487 0.79949774 138 138 141
-0.24998231 0.07067856 0.80663860 149 148 148
-0.25005838 0.08568683 0.81682196 146 140 140
-0.24991622 0.09564548 0.82344672 135 135 137
-0.25005052 0.11045555 0.83296789 129 129 133
-0.25006583 0.12150156 0.83988063 127 128 132
-0.24990778 0.13110898 0.84580996 135 136 139
-0.24999177 0.14740053 0.85560722 131 132 136
-0.25002909 0.15741980 0.86146996 113 113 119
-0.24994588 0.17005206 0.86873399 120 121 127
-0.24997801 0.18532327 0.87737062 120 121 126
-0.25016603 0.19560563 0.88293267 110 111 118
-0.24996521 0.21046743 0.89098806 127 128 130
-0.25011993 0.22377434 0.89802123 109 110 114
-0.24987363 0.23368448 0.90326862 116 116 119
-0.25005435 0.25006365 0.91175873 114 115 120
-0.24989724 0.26308282 0.91844960 134 134 135
-0.25012660 0.27330768 0.92353392 119 119 123
-0.24992974 0.29015757 0.93163415 139 140 145
-0.24988859 0.30342934 0.93793500 164 165 164
-0.24998632 0.31404964 0.94283829 193 193 188
-0.24994923 0.33039806 0.95007501 196 196 190
-0.25001200 0.34691052 0.95717516 195 195 190
-0.25045833 0.35667670 0.96116189 197 197 193
-0.24992340 0.36939622 0.96616073 199 200 193
-0.24992672 0.38991953 0.97378352 197 198 190
-0.24997153 0.40465840 0.97876954 196 196 191
-0.25002463 0.41432849 0.98172362 198 198 195
-0.25000251 0.43046691 0.98555955 197 196 192
-0.25011758 0.45018387 0.98453440 20 20 19
-0.25013937 0.46999968 0.98274891 0 0 0
-0.25013256 0.48974182 0.98302289 0 0 0
-0.24965016 0.50980419 0.98416693 0 0 0
-0.24983680 0.52963715 0.98569318 0 0 0
-0.25027481 0.54938028 0.98788327 0 0 0
-0.25018828 0.56139840 0.98966008 0 0 0
-0.23018730 -0.52974949 0.79799377 0 0 0
-0.22969564 -0.51005296 0.79664273 0 0 0
-0.23000383 -0.49022347 0.79484748 0 0 0
-0.23007203 -0.46992531 0.79239384 0 0 0
-0.23003628 -0.45047280 0.78937489 0 0 0
-0.22988497 -0.43036664 0.78489202 0 0 0
-0.22522691 -0.40048300 0.75645873 132 146 147
-0.23138443 -0.41281606 0.77721681 33 37 40
-0.22994368 -0.41771831 0.78136008 0 0 0
-0.23049972 -0.38171399 0.72358082 138 148 152
-0.23487698 -0.39634286 0.74701766 128 142 146
-0.22978279 -0.36999435 0.72229525 139 147 152
-0.23007981 -0.35017077 0.72289365 139 142 145
-0.23029200 -0.32999541 0.72874005 142 122 121
-0.23005105 -0.30975528 0.73213768 150 111 103
-0.22993014 -0.29007031 0.73188969 142 99 92
-0.22983341 -0.27035013 0.73158449 131 89 85
-0.22969278 -0.24996649 0.73114032 115 76 77
-0.23769011 -0.22185989 0.71841753 97 107 126
-0.22924223 -0.23022159 0.73040358 89 66 69
-0.23172757 -0.20821008 0.71840346 90 99 124
-0.22467553 -0.21504138 0.72838460 70 62 72
-0.22947339 -0.18977899 0.71857403 87 96 121
-0.22953660 -0.16995450 0.71877351 85 94 120
-0.22957214 -0.15010054 0.71888601 82 91 119
-0.22963622 -0.13025606 0.71908755 80 90 120
-0.22974996 -0.11042397 0.71944394 78 85 115
-0.23315632 -0.09092345 0.71988155 53 56 71
-0.22395979 -0.08822213 0.72006614 51 54 69
-0.23152509 -0.06859584 0.71988414 51 52 67
-0.22267212 -0.07316758 0.72003895 50 51 64
-0.23012159 -0.05051036 0.71982719 51 53 70
-0.22779176 -0.04078449 0.72020613 70 73 99
-0.23002464 -0.02995711 0.72896198 104 106 116
-0.22996448 -0.01888936 0.73915176 97 99 106
-0.23000868 -0.00882463 0.74783690 121 120 120
-0.23008240 0.00348502 0.75781005 107 106 109
-0.22998594 0.01342534 0.76547774 107 109 118
-0.22998552 0.02636325 0.77516695 117 119 125
-0.23008835 0.03606636 0.78229742 142 142 142
-0.22996935 0.04950301 0.79189098 142 141 143
-0.22975052 0.06038476 0.79949625 132 131 134
-0.22997963 0.07069377 0.80664154 145 144 144
-0.22998747 0.08571653 0.81683317 147 145 144
-0.22998338 0.09564245 0.82342083 127 129 132
-0.23004722 0.11041440 0.83289889 133 134 138
-0.23045239 0.12149312 0.83982232 141 142 145
-0.22995825 0.13113259 0.84577489 134 134 137
-0.23008239 0.14745353 0.85556092 125 126 130
-0.22992995 0.15733090 0.86138565 140 140 141
-0.22999622 0.16990469 0.86867732 126 126 130
-0.23001746 0.18530641 0.87738162 119 117 123
-0.22998815 0.19480927 0.88261067 122 121 126
-0.23005963 0.20960316 0.89049394 111 113 119
-0.23012567 0.22382080 0.89802437 106 107 115
-0.22991286 0.23372449 0.90328969 131 130 133
-0.23000433 0.25015278 0.91183778 133 134 137
-0.23006536 0.26297886 0.91838222 123 124 126
-0.23007116 0.27320336 0.92347852 145 147 152
-0.22997723 0.29016246 0.93168777 190 191 186
-0.22983996 0.30350941 0.93803505 199 200 194
-0.22997829 0.31397681 0.94284624 198 198 194
-0.23007806 0.33038018 0.95006277 196 196 191
-0.22990996 0.34686691 0.95710851 196 196 190
-0.23050848 0.35665444 0.96110189 200 199 194
-0.22995547 0.36930258 0.96608130 200 199 195
-0.23001465 0.38982275 0.97367208 199 199 193
-0.22963340 0.40459252 0.97861024 197 196 190
-0.23018393 0.41421816 0.98151677 193 193 190
-0.22978104 0.43051712 0.98524921 182 182 178
-0.23022130 0.45002273 0.98328380 0 0 0
-0.23042284 0.47047520 0.98196923 0 0 0
-0.23040589 0.49004581 0.98220062 0 0 0
-0.22973660 0.51000905 0.98334120 0 0 0
-0.23010706 0.53057709 0.98493254 0 0 0
-0.22968670 0.55023350 0.98710555 0 0 0
-0.23208618 0.56128731 0.98884416 0 0 0
-0.21033019 -0.52912383 0.79658827 0 0 0
-0.21004584 -0.50978187 0.79533821 0 0 0
-0.21000333 -0.48974923 0.79358469 0 0 0
-0.20987830 -0.47014408 0.79128552 0 0 0
-0.20994223 -0.44992176 0.78833169 0 0 0
-0.21004614 -0.42999942 0.78423442 0 0 0
-0.21180603 -0.40081250 0.75757656 96 106 110
-0.20805688 -0.41105914 0.77511433 12 13 13
-0.20973448 -0.41742357 0.78075108 0 0 0
-0.20964349 -0.38151832 0.72414596 137 147 151
-0.20311883 -0.39560821 0.74969849 130 146 144
-0.20992876 -0.36988419 0.72226500 137 147 150
-0.21048932 -0.35023568 0.72162203 138 146 151
-0.21033227 -0.33003286 0.72108412 138 144 150
-0.21002637 -0.30980873 0.72407454 137 131 133
-0.20991175 -0.29018211 0.73075237 150 115 107
-0.20960820 -0.27035557 0.73160128 148 107 96
-0.20960634 -0.25012202 0.73159834 131 88 85
-0.20960878 -0.22989407 0.73160989 120 82 81
-0.21783599 -0.20143020 0.71859752 88 92 116
-0.20938997 -0.21005184 0.73091908 98 70 75
-0.21164657 -0.18771746 0.71837047 86 94 116
-0.20508042 -0.19470231 0.72884509 82 66 74
-0.20962279 -0.16992374 0.71864650 82 92 117
-0.20974252 -0.15013631 0.71906068 82 90 116
-0.20986475 -0.13032738 0.71948253 81 89 117
-0.21189524 -0.11271686 0.71975041 80 87 117
-0.20577649 -0.10550389 0.72020180 68 74 96
-0.21023849 -0.08987594 0.72038165 50 53 66
-0.21903734 -0.06104277 0.71999370 47 48 65
-0.20994365 -0.06960083 0.72024332 49 51 63
-0.21729701 -0.05025695 0.71995180 50 51 67
-0.20844320 -0.04938310 0.72023248 51 52 69
-0.21006057 -0.03002129 0.72932381 99 101 111
-0.21160275 -0.01934731 0.73915176 101 102 106
-0.20993181 -0.00928659 0.74780378 115 114 116
-0.21001528 0.00284812 0.75756518 100 100 106
-0.20997230 0.01284420 0.76520168 110 111 119
-0.20999030 0.02640781 0.77529995 127 128 131
-0.21008710 0.03614370 0.78239029 140 139 140
-0.20998454 0.04957893 0.79198042 137 136 139
-0.20972918 0.06038932 0.79955669 121 122 132
-0.20999195 0.07068282 0.80669167 145 144 144
-0.20992760 0.08565788 0.81681697 150 147 148
-0.21005142 0.09563923 0.82339340 142 142 145
-0.21004587 0.11041616 0.83285258 131 131 136
-0.21011423 0.12148369 0.83975712 127 127 131
-0.21000200 0.13115166 0.84570837 124 124 129
-0.21010182 0.14741162 0.85545784 121 122 127
-0.21005181 0.15740369 0.86137655 133 135 139
-0.21003017 0.16994402 0.86866296 123 125 132
-0.20990840 0.18521595 0.87726688 114 114 121
-0.21018428 0.19500112 0.88267615 127 128 132
-0.20997251 0.20985088 0.89065267 119 119 127
-0.20995655 0.22383070 0.89806403 121 122 127
-0.20995959 0.23377481 0.90334948 126 126 132
-0.21002709 0.25013610 0.91185930 154 153 156
-0.20996121 0.26304264 0.91845515 179 179 177
-0.21003497 0.27338118 0.92362215 196 196 191
-0.20993787 0.29027031 0.93176634 201 199 194
-0.21017307 0.30356497 0.93805329 199 198 194
-0.20994873 0.31396164 0.94280417 198 198 193
-0.21011175 0.33028623 0.94996602 198 198 193
-0.20981021 0.34682234 0.95703896 200 199 193
-0.21056113 0.35663232 0.96104228 200 200 192
-0.20998974 0.36935592 0.96605529 200 201 194
-0.21003015 0.38999835 0.97365930 199 198 193
-0.20914888 0.40525676 0.97871025 191 191 188
-0.21041827 0.41474310 0.98153769 189 189 188
-0.20990734 0.43030138 0.98470657 144 144 143
-0.21019531 0.44966941 0.98198325 0 0 0
-0.20986527 0.47004816 0.98107826 0 0 0
-0.20970669 0.48994542 0.98126963 0 0 0
-0.21035594 0.51003844 0.98246478 0 0 0
-0.21018648 0.52991287 0.98394656 0 0 0
-0.21002325 0.55013093 0.98619349 0 0 0
-0.20959469 0.56119330 0.98779387 0 0 0
-0.19012039 -0.52893111 0.79533831 0 0 0
-0.18993616 -0.51047081 0.79420237 0 0 0
-0.19007897 -0.49012536 0.79252305 0 0 0
-0.19015035 -0.46982367 0.79020733 0 0 0
-0.18978483 -0.45010716 0.78741476 0 0 0
-0.18998625 -0.42971825 0.78346266 0 0 0
-0.18929914 -0.41150872 0.77590152 20 22 23
-0.19186050 -0.41779715 0.78047999 0 0 0
-0.19030786 -0.38415903 0.73039406 135 145 147
-0.18973668 -0.36990147 0.72251637 135 144 148
-0.19000872 -0.35041946 0.72200091 134 143 148
-0.19027500 -0.33031615 0.72141517 134 141 147
-0.19035214 -0.31002937 0.72093933 128 135 141
-0.18051955 -0.31769165 0.76648355 29 30 40
-0.19035528 -0.29003742 0.72225467 124 125 130
-0.18959491 -0.27023021 0.72917477 145 115 110
-0.18995708 -0.25005402 0.73140351 151 110 102
-0.19004245 -0.22993230 0.73173366 131 90 90
-0.18996739 -0.20965091 0.73192981 136 93 97
-0.19866432 -0.18091004 0.71869870 81 90 109
-0.18960275 -0.19000234 0.73162942 110 74 81
-0.19312280 -0.16765974 0.71863755 83 90 114
-0.18602940 -0.17321537 0.72921828 83 67 79
-0.19003846 -0.15028722 0.71933152 80 90 115
-0.18078281 -0.14225286 0.72004279 83 85 114
-0.19316321 -0.13466974 0.71984425 81 89 116
-0.18776412 -0.12716903 0.72012174 82 88 115
-0.19026009 -0.10997632 0.72058970 74 80 104
-0.19037999 -0.08948452 0.72104527 51 51 64
-0.19031929 -0.06952302 0.72081473 48 48 61
-0.19024528 -0.04954094 0.72068943 49 51 65
-0.18999977 -0.03006821 0.72971273 98 97 107
-0.19010036 -0.01955430 0.73934294 123 123 128
-0.18999631 -0.00943386 0.74799229 102 101 105
-0.19009959 0.00291352 0.75783789 93 93 100
-0.18992369 0.01283780 0.76531860 110 110 116
-0.18997654 0.02640952 0.77535038 134 134 136
-0.19007717 0.03612570 0.78239466 142 141 143
-0.19000065 0.04953593 0.79198972 134 133 137
-0.18970487 0.06039386 0.79961679 117 117 123
-0.19000320 0.07067247 0.80673665 130 130 133
-0.18995608 0.08573242 0.81684909 150 148 148
-0.19000101 0.09566290 0.82338106 139 138 142
-0.19004634 0.11038265 0.83278081 127 128 133
-0.18978086 0.12147548 0.83970032 125 125 129
-0.19005769 0.13105579 0.84559321 126 127 132
-0.19004600 0.14739154 0.85541192 122 125 130
-0.18995902 0.15731498 0.86129370 127 126 129
-0.19005865 0.16998038 0.86863246 118 120 127
-0.18994611 0.18530620 0.87733453 128 129 134
-0.18971145 0.19474956 0.88254925 116 117 122
-0.19005869 0.20964632 0.89059138 126 127 131
-0.18978291 0.22383706 0.89808949 135 136 139
-0.19000403 0.23376495 0.90337703 162 162 162
-0.19006074 0.25013484 0.91193595 195 194 191
-0.18986175 0.26311736 0.91856620 198 196 193
-0.18998908 0.27315861 0.92354253 198 197 193
-0.19003806 0.29008110 0.93164045 200 200 195
-0.18990239 0.30342263 0.93791436 201 200 194
-0.19013916 0.31406754 0.94277677 201 200 193
-0.19006831 0.33036040 0.94994619 200 199 193
-0.18983293 0.34687873 0.95703363 201 199 193
-0.19062177 0.35662051 0.96101048 200 199 195
-0.18994253 0.36933608 0.96600350 201 201 196
-0.18997238 0.38995112 0.97357343 201 200 195
-0.19024297 0.40535585 0.97862453 191 191 191
-0.18959148 0.41510592 0.98147087 191 191 191
-0.19007927 0.43062565 0.98399120 114 114 112
-0.18952602 0.44950042 0.98078787 0 0 0
-0.18378789 0.47186032 0.97986047 0 0 0
-0.19250557 0.46882197 0.98032332 0 0 0
-0.18357443 0.48504226 0.97986661 0 0 0
-0.19132168 0.49127834 0.98047778 0 0 0
-0.18959590 0.51011239 0.98148724 0 0 0
-0.18988276 0.52957412 0.98297227 0 0 0
-0.19024410 0.54944962 0.98521392 0 0 0
-0.18977755 0.56065387 0.98684438 0 0 0
-0.16991471 -0.52829994 0.79431489 0 0 0
-0.16986708 -0.50955479 0.79313078 0 0 0
-0.17019143 -0.48981631 0.79152810 0 0 0
-0.16981644 -0.47015492 0.78927347 0 0 0
-0.17019145 -0.45004420 0.78650384 0 0 0
-0.16210803 -0.42097206 0.77988307 0 0 0
-0.16997622 -0.43053675 0.78263328 0 0 0
-0.16894004 -0.41338995 0.77696706 7 7 7
-0.17566396 -0.41942128 0.78022210 0 0 0
-0.16860958 -0.38464193 0.73229243 128 141 144
-0.16432124 -0.39414239 0.74998410 123 139 141
-0.16971222 -0.36958460 0.72309304 133 141 145
-0.16956581 -0.35009820 0.72270887 132 139 145
-0.16889445 -0.34349339 0.75191590 158 154 148
-0.16926733 -0.34576677 0.76917682 103 100 98
-0.17203987 -0.33204990 0.72298076 130 136 141
-0.17598611 -0.33079949 0.74974436 80 85 88
-0.16990652 -0.32995255 0.76987169 47 49 55
-0.17567795 -0.31061075 0.72280184 116 124 130
-0.17674262 -0.30777245 0.74726999 53 56 63
-0.17044217 -0.30981208 0.77047951 43 43 50
-0.17562346 -0.28984619 0.72266469 111 120 125
-0.17632453 -0.28862950 0.75145638 109 112 116
-0.16994155 -0.28980440 0.77066276 136 136 144
-0.17196090 -0.27648542 0.71958182 118 121 130
-0.17506718 -0.26963914 0.72470020 120 118 127
-0.17570806 -0.26958385 0.75604695 186 182 187
-0.16892510 -0.26967261 0.77080465 187 188 192
-0.17521686 -0.24991260 0.73048114 149 114 112
-0.17413026 -0.24811489 0.75267698 183 174 176
-0.16844070 -0.24968264 0.77057892 186 187 190
-0.17502742 -0.22976597 0.73149989 144 108 110
-0.17261678 -0.22995536 0.74756494 100 90 93
-0.16804817 -0.22995048 0.77018598 59 58 63
-0.17462350 -0.20967326 0.73175762 125 83 88
-0.17147470 -0.21123720 0.74597348 78 60 64
-0.16764230 -0.21057296 0.76880665 42 39 44
-0.17342470 -0.18975999 0.73334887 127 88 92
-0.17142740 -0.18729004 0.75612982 73 59 65
-0.16690176 -0.19050007 0.76772666 71 70 79
-0.17341000 -0.16990073 0.73271772 115 82 91
-0.16921826 -0.17048953 0.75121193 185 167 176
-0.16612396 -0.17016018 0.76731033 186 187 190
-0.17853805 -0.15437348 0.71969024 85 90 111
-0.17102266 -0.14888294 0.72362395 85 86 107
-0.16786178 -0.15536775 0.74721617 141 134 147
-0.16550848 -0.15036067 0.76707935 187 187 193
-0.17062153 -0.13011459 0.72169957 83 90 115
-0.16644883 -0.12481402 0.75376466 46 47 62
-0.16483307 -0.13096091 0.76695480 99 99 107
-0.17007410 -0.10980434 0.72151941 73 77 98
-0.16472771 -0.10971859 0.75046081 44 44 56
-0.16380037 -0.11083868 0.76684898 37 36 46
-0.17001720 -0.08959140 0.72190528 50 50 63
-0.16192924 -0.09016518 0.74200385 50 49 59
