ply
format ascii 1.0
element vertex 1039
property float x
property float y
property float z
property uchar red
property uchar green
property uchar blue
end_header
0.31216007 -0.26263133 0.85700613 146 145 147
0.31364134 -0.26263133 0.85700613 154 154 154
0.52918392 -0.22954848 0.74905175 178 178 182
0.53047860 -0.22954848 0.74905175 173 173 177
0.53177327 -0.22954848 0.74905175 168 169 173
0.53306800 -0.22954848 0.74905175 168 170 173
0.53436267 -0.22954848 0.74905175 167 170 172
0.53506607 -0.22929512 0.74822497 165 168 170
0.53635931 -0.22929512 0.74822497 160 164 166
0.53646833 -0.22879006 0.74657691 154 157 160
0.53775871 -0.22879006 0.74657691 151 154 159
0.53727400 -0.22803664 0.74411839 153 155 162
0.57933110 -0.20032920 0.65370476 162 167 166
0.58046097 -0.20032920 0.65370476 164 168 166
0.58159083 -0.20032920 0.65370476 163 166 163
0.58272070 -0.20032920 0.65370476 156 159 156
0.58385062 -0.20032920 0.65370476 151 153 150
0.58554512 -0.20052256 0.65433574 149 149 148
0.58667612 -0.20052256 0.65433574 155 156 154
0.58780706 -0.20052256 0.65433574 160 161 160
0.58893800 -0.20052256 0.65433574 162 163 163
0.58949995 -0.20032920 0.65370476 162 163 163
0.59119993 -0.20052256 0.65433574 149 150 150
0.59290320 -0.20071630 0.65496796 151 152 152
0.59403527 -0.20071630 0.65496796 161 163 163
-0.06250781 -0.40424597 1.32659853 169 168 168
-0.06009728 -0.40345645 1.32400751 170 169 169
-0.05354571 -0.40583438 1.33181107 173 173 174
-0.04673174 -0.40663326 1.33443272 172 172 176
0.09355737 -0.17228499 0.56538099 166 165 165
0.09543221 -0.17214142 0.56490988 161 160 160
0.09648902 -0.17228499 0.56538099 157 156 159
0.09738501 -0.17214142 0.56490988 153 153 157
0.09827951 -0.17199808 0.56443948 152 151 157
0.10112208 -0.17185499 0.56396991 155 154 156
0.10201199 -0.17171213 0.56350112 148 147 150
0.10298596 -0.17171213 0.56350112 143 142 146
0.10413305 -0.17199808 0.56443948 143 142 146
0.10502119 -0.17185499 0.56396991 147 146 150
0.10590785 -0.17171213 0.56350112 149 148 152
0.10864912 -0.17142713 0.56256586 165 164 164
0.11059382 -0.17142713 0.56256586 161 158 159
0.11165883 -0.17156951 0.56303310 163 159 160
0.29142991 -0.25983611 0.85269415 154 153 149
0.29327261 -0.26016334 0.85376805 156 155 151
0.29437754 -0.25983611 0.85269415 153 152 148
0.29622394 -0.26016334 0.85376805 146 146 146
0.29769960 -0.26016334 0.85376805 166 167 168
0.30030996 -0.26115006 0.85700613 175 176 178
0.30179122 -0.26115006 0.85700613 172 174 176
0.30365637 -0.26148063 0.85809094 161 165 166
0.30552626 -0.26181203 0.85917848 154 155 158
0.30584836 -0.26082033 0.85592407 151 151 155
0.30732775 -0.26082033 0.85592407 154 154 158
0.31176594 -0.26082033 0.85592407 160 160 160
0.31364134 -0.26115006 0.85700613 164 164 164
0.52918392 -0.22825381 0.74905175 175 175 179
0.53047860 -0.22825381 0.74905175 168 168 172
0.53177327 -0.22825381 0.74905175 163 164 167
0.53306800 -0.22825381 0.74905175 164 166 168
0.53436267 -0.22825381 0.74905175 166 168 169
0.53506607 -0.22800188 0.74822497 167 168 170
0.53635931 -0.22800188 0.74822497 170 171 174
0.53646833 -0.22749966 0.74657691 169 170 173
0.53835160 -0.22775050 0.74740005 165 165 169
0.53786439 -0.22699967 0.74493611 165 165 168
0.53915197 -0.22699967 0.74493611 171 171 174
0.53866369 -0.22625378 0.74248832 172 172 176
0.57933110 -0.19919932 0.65370476 162 171 170
0.58102125 -0.19939160 0.65433574 160 168 167
0.58159083 -0.19919932 0.65370476 159 166 164
0.58272070 -0.19919932 0.65370476 153 161 159
0.58385062 -0.19919932 0.65370476 150 156 155
0.58498049 -0.19919932 0.65370476 149 153 152
0.58667612 -0.19939160 0.65433574 149 153 153
0.58724022 -0.19919932 0.65370476 153 156 156
0.58893800 -0.19939160 0.65433574 154 156 156
0.58893204 -0.19900741 0.65307498 150 153 153
0.59062988 -0.19919932 0.65370476 143 147 146
0.59233093 -0.19939160 0.65433574 156 160 159
0.09551181 -0.17130777 0.56538099 159 158 158
0.09656956 -0.17145076 0.56585294 157 157 159
0.10201199 -0.17073816 0.56350112 138 138 139
0.10307164 -0.17088021 0.56396991 141 141 142
0.10421982 -0.17116500 0.56490988 148 147 151
0.10510863 -0.17102249 0.56443948 147 146 150
0.10590785 -0.17073816 0.56350112 138 137 141
0.10873936 -0.17059636 0.56303310 165 164 164
0.29069859 -0.25771394 0.85055441 154 153 149
0.29253575 -0.25803772 0.85162294 163 162 158
0.29400769 -0.25803772 0.85162294 157 156 152
0.29585135 -0.25836229 0.85269415 138 137 137
0.29769960 -0.25868767 0.85376805 152 152 154
0.30030996 -0.25966880 0.85700613 165 169 172
0.30179122 -0.25966880 0.85700613 161 163 167
0.30327249 -0.25966880 0.85700613 152 153 157
0.30513951 -0.25999749 0.85809094 153 154 158
0.30584836 -0.25934091 0.85592407 148 148 152
0.30732775 -0.25934091 0.85592407 159 159 161
0.30989525 -0.25901389 0.85484469 161 161 161
0.31176594 -0.25934091 0.85592407 161 161 161
0.31364134 -0.25966880 0.85700613 153 153 153
0.53106546 -0.22721019 0.74988037 161 161 164
0.53177327 -0.22695912 0.74905175 162 162 164
0.53306800 -0.22695912 0.74905175 164 164 166
0.53436267 -0.22695912 0.74905175 165 165 167
0.53565735 -0.22695912 0.74905175 169 169 171
0.53635931 -0.22670862 0.74822497 171 171 173
0.53705978 -0.22645867 0.74740005 169 169 171
0.53845608 -0.22596040 0.74575561 165 165 167
0.53866369 -0.22497045 0.74248832 173 174 176
0.58045059 -0.19845219 0.65496796 160 169 170
0.58158261 -0.19845219 0.65496796 159 167 168
0.58215225 -0.19826064 0.65433574 162 169 168
0.58328319 -0.19826064 0.65433574 164 171 171
0.58441418 -0.19826064 0.65433574 169 174 175
0.58554512 -0.19826064 0.65433574 166 170 171
0.58667612 -0.19826064 0.65433574 159 163 164
0.58724022 -0.19806944 0.65370476 156 160 160
0.58893800 -0.19826064 0.65433574 154 158 158
0.58893204 -0.19787863 0.65307498 154 158 159
0.59062988 -0.19806944 0.65370476 166 170 169
0.59175974 -0.19806944 0.65370476 170 174 173
0.10430674 -0.17033055 0.56538099 167 167 169
0.10510863 -0.17004691 0.56443948 151 151 153
0.10599596 -0.16990544 0.56396991 136 136 138
0.30069008 -0.25851434 0.85809094 156 156 160
0.30694020 -0.25753635 0.85484469 164 164 164
0.30802929 -0.25721201 0.85376805 172 172 172
0.30989525 -0.25753635 0.85484469 162 162 161
0.31176594 -0.25786152 0.85592407 149 149 149
0.31324533 -0.25786152 0.85592407 138 138 138
0.53224295 -0.22641501 0.75154305 158 158 161
0.53295112 -0.22616427 0.75071079 163 163 165
0.53424865 -0.22616427 0.75071079 163 163 165
0.53554618 -0.22616427 0.75071079 160 160 162
0.53684372 -0.22616427 0.75071079 161 161 163
0.53904915 -0.22491887 0.74657691 165 166 168
0.58045059 -0.19732013 0.65496796 157 164 166
0.58214509 -0.19751096 0.65560138 159 165 167
0.58271468 -0.19732013 0.65496796 161 166 168
0.58384675 -0.19732013 0.65496796 160 164 167
0.58441418 -0.19712967 0.65433574 155 159 161
0.58611089 -0.19732013 0.65496796 155 159 160
0.58667612 -0.19712967 0.65433574 158 162 164
0.30802929 -0.25573635 0.85376805 168 168 169
0.30950496 -0.25573635 0.85376805 160 160 159
0.31137279 -0.25605884 0.85484469 155 155 155
0.31285033 -0.25605884 0.85484469 150 150 150
0.53224295 -0.22511601 0.75154305 164 164 167
0.53295112 -0.22486672 0.75071079 165 165 167
0.53424865 -0.22486672 0.75071079 162 163 165
0.53554618 -0.22486672 0.75071079 161 162 164
0.53684372 -0.22486672 0.75071079 160 161 163
0.53754598 -0.22461797 0.74988037 165 166 168
0.53824669 -0.22436978 0.74905175 164 165 167
0.53964347 -0.22387503 0.74740005 159 160 162
0.58101195 -0.19637780 0.65560138 157 161 163
0.58214509 -0.19637780 0.65560138 154 158 161
0.58271468 -0.19618806 0.65496796 153 157 160
0.58441138 -0.19637780 0.65560138 155 159 162
0.58554453 -0.19637780 0.65560138 156 160 163
0.58667773 -0.19637780 0.65560138 159 163 165
0.53424865 -0.22356918 0.75071079 168 169 172
0.53495377 -0.22332187 0.74988037 164 165 168
0.53624988 -0.22332187 0.74988037 160 161 163
0.53695202 -0.22307511 0.74905175 161 162 165
0.53765261 -0.22282888 0.74822497 161 162 165
0.53894585 -0.22282888 0.74822497 159 160 162
0.53904915 -0.22233808 0.74657691 154 156 158
0.54033953 -0.22233808 0.74657691 151 153 155
0.53984630 -0.22160590 0.74411839 149 153 155
0.58101195 -0.19524466 0.65560138 157 161 162
0.58214509 -0.19524466 0.65560138 154 158 159
0.58271468 -0.19505601 0.65496796 153 157 159
0.58441138 -0.19524466 0.65560138 155 159 160
0.58554453 -0.19524466 0.65560138 156 160 161
0.58667773 -0.19524466 0.65560138 157 161 162
0.58781087 -0.19524466 0.65560138 155 158 160
0.53424865 -0.22227164 0.75071079 171 171 176
0.53495377 -0.22202577 0.74988037 166 166 170
0.53684372 -0.22227164 0.75071079 159 160 164
0.53695202 -0.22178043 0.74905175 160 160 164
0.53824669 -0.22178043 0.74905175 159 159 163
0.53894585 -0.22153564 0.74822497 151 154 155
0.53845608 -0.22080450 0.74575561 150 154 155
0.54033953 -0.22104767 0.74657691 151 156 156
0.53984630 -0.22031975 0.74411839 153 159 159
0.57989031 -0.19373676 0.65433574 165 170 171
0.58158261 -0.19392395 0.65496796 163 167 168
0.58215225 -0.19373676 0.65433574 163 167 168
0.58384675 -0.19392395 0.65496796 164 168 169
0.58497882 -0.19392395 0.65496796 162 166 167
0.58611089 -0.19392395 0.65496796 160 164 165
0.58724290 -0.19392395 0.65496796 162 165 166
0.53695202 -0.22048576 0.74905175 159 160 164
0.53765261 -0.22024240 0.74822497 157 158 162
0.53835160 -0.21999957 0.74740005 148 151 153
0.53845608 -0.21951552 0.74575561 149 152 153
0.57933110 -0.19242007 0.65370476 169 175 175
0.58102125 -0.19260579 0.65433574 169 173 174
0.58159083 -0.19242007 0.65370476 169 173 174
0.58384675 -0.19279189 0.65496796 169 173 174
0.58441418 -0.19260579 0.65433574 164 168 169
0.58554512 -0.19260579 0.65433574 166 169 170
0.58724290 -0.19279189 0.65496796 166 168 170
0.58724022 -0.19242007 0.65370476 164 164 166
0.53695202 -0.21919107 0.74905175 158 159 159
0.53705978 -0.21870774 0.74740005 167 168 168
0.53775871 -0.21846688 0.74657691 168 169 171
0.53727400 -0.21774745 0.74411839 159 160 162
0.57989031 -0.19147484 0.65433574 168 174 174
0.58158261 -0.19165984 0.65496796 167 170 171
0.58215225 -0.19147484 0.65433574 164 166 167
0.58384675 -0.19165984 0.65496796 161 162 164
0.58497882 -0.19165984 0.65496796 162 163 165
0.58611089 -0.19165984 0.65496796 162 163 165
0.58724290 -0.19165984 0.65496796 159 160 162
0.58780706 -0.19147484 0.65433574 155 156 158
0.53635931 -0.21765590 0.74822497 165 166 168
0.53646833 -0.21717648 0.74657691 171 172 174
0.53716713 -0.21693756 0.74575561 170 170 172
0.53668487 -0.21622396 0.74330246 158 158 160
0.57707131 -0.19016032 0.65370476 169 176 176
0.57989031 -0.19034387 0.65433574 170 174 175
0.58158261 -0.19052777 0.65496796 167 168 170
0.58215225 -0.19034387 0.65433574 165 166 168
0.58384675 -0.19052777 0.65496796 165 166 168
0.58497882 -0.19052777 0.65496796 168 169 171
0.58611089 -0.19052777 0.65496796 166 168 170
0.58724290 -0.19052777 0.65496796 162 164 166
0.58780706 -0.19034387 0.65433574 159 160 162
0.53576797 -0.21612410 0.74740005 165 166 168
0.57762831 -0.18921290 0.65433574 174 179 180
0.57989031 -0.18921290 0.65433574 163 167 169
0.58158261 -0.18939571 0.65496796 157 160 161
0.58215225 -0.18921290 0.65433574 161 165 166
0.58441138 -0.18957888 0.65560138 167 171 172
0.58554453 -0.18957888 0.65560138 171 175 176
0.58611089 -0.18939571 0.65496796 167 171 172
0.58724290 -0.18939571 0.65496796 163 166 167
0.58780706 -0.18921290 0.65433574 160 164 165
0.58950704 -0.18939571 0.65496796 159 163 164
0.59063911 -0.18939571 0.65496796 158 162 163
0.57649738 -0.18808194 0.65433574 168 172 174
0.57762831 -0.18808194 0.65433574 170 174 177
0.57931846 -0.18826365 0.65496796 166 170 172
0.58045059 -0.18826365 0.65496796 162 166 167
0.58158261 -0.18826365 0.65496796 158 162 163
0.58215225 -0.18808194 0.65433574 163 167 168
0.58441138 -0.18844573 0.65560138 166 170 171
0.58554453 -0.18844573 0.65560138 165 169 170
0.58667773 -0.18844573 0.65560138 162 166 167
0.58837992 -0.18862815 0.65623605 161 165 166
0.58894402 -0.18844573 0.65560138 161 165 166
0.59064841 -0.18862815 0.65623605 162 166 167
0.59178263 -0.18862815 0.65623605 161 163 164
0.59291691 -0.18862815 0.65623605 164 164 166
0.57762831 -0.18695097 0.65433574 166 170 171
0.57989031 -0.18695097 0.65433574 165 169 170
0.58102125 -0.18695097 0.65433574 164 168 169
0.58215225 -0.18695097 0.65433574 166 170 171
0.58441138 -0.18731257 0.65560138 167 170 171
0.58611137 -0.18749391 0.65623605 168 172 172
0.59235609 -0.18767558 0.65687191 165 167 168
0.59291691 -0.18749391 0.65623605 165 168 169
0.57540667 -0.18510531 0.65181905 163 165 167
0.57764417 -0.18546197 0.65307498 166 168 169
0.57877296 -0.18546197 0.65307498 168 169 171
0.57990175 -0.18546197 0.65307498 167 168 170
0.58103055 -0.18546197 0.65307498 166 167 169
0.58384675 -0.18599954 0.65496796 168 171 171
0.58611137 -0.18635966 0.65623605 169 173 172
0.57320207 -0.18327379 0.64932168 161 161 163
0.57597947 -0.18380196 0.65119290 166 166 168
0.57710505 -0.18380196 0.65119290 168 168 170
0.57767564 -0.18362556 0.65056801 168 168 170
0.57935613 -0.18380196 0.65119290 166 166 168
0.58215934 -0.18433318 0.65307498 166 166 167
0.58441418 -0.18468903 0.65433574 165 166 167
0.57098591 -0.18180321 0.64808017 164 165 167
0.57210606 -0.18180321 0.64808017 163 163 166
0.57377476 -0.18197718 0.64870036 168 168 171
0.57489604 -0.18197718 0.64870036 170 170 173
0.57601726 -0.18197718 0.64870036 169 169 171
0.57769132 -0.18215150 0.64932168 165 165 168
0.57881361 -0.18215150 0.64932168 162 163 166
0.57322621 -0.18068306 0.64808017 158 158 162
0.57434642 -0.18068306 0.64808017 155 155 159
0.57491696 -0.18051049 0.64746118 156 156 160
0.57603604 -0.18051049 0.64746118 159 160 164
0.01390107 -0.15814859 0.58539885 159 159 161
0.01288925 -0.15713678 0.58539885 163 164 166
0.01388907 -0.15700120 0.58489376 163 163 165
0.01488717 -0.15686585 0.58438951 165 165 168
0.01589724 -0.15686585 0.58438951 169 169 173
0.01692190 -0.15700120 0.58489376 171 172 175
0.01793284 -0.15700120 0.58489376 174 174 176
0.01892745 -0.15686585 0.58438951 173 173 173
0.61660081 -0.22492509 0.83793801 172 176 179
0.01288925 -0.15612496 0.58539885 166 167 169
0.01387710 -0.15585579 0.58438951 167 168 170
0.01488717 -0.15585579 0.58438951 172 173 175
0.01588355 -0.15572155 0.58388615 176 177 179
0.01689275 -0.15572155 0.58388615 175 176 178
0.01791738 -0.15585579 0.58438951 166 167 168
0.01891115 -0.15572155 0.58388615 159 159 159
0.01990321 -0.15558752 0.58338368 155 155 157
0.02087560 -0.15532020 0.58238131 159 159 161
0.60710794 -0.22265112 0.83484215 161 165 168
0.61583954 -0.22320087 0.83690351 169 174 176
0.61804909 -0.22347677 0.83793801 167 172 175
0.01287813 -0.15497932 0.58489376 163 163 165
0.01387710 -0.15484571 0.58438951 168 168 170
0.01487435 -0.15471233 0.58388615 178 179 181
0.01586988 -0.15457919 0.58338368 184 185 187
0.01689275 -0.15471233 0.58388615 176 177 179
0.01790195 -0.15471233 0.58388615 163 164 166
0.01889487 -0.15457919 0.58338368 160 160 162
0.01988609 -0.15444629 0.58288205 152 152 154
0.02085769 -0.15418114 0.58188140 156 156 159
0.60785651 -0.22148092 0.83587158 169 173 173
0.60855091 -0.22120817 0.83484215 166 170 169
0.60999388 -0.22120817 0.83484215 173 177 176
0.61219072 -0.22148092 0.83587158 168 171 170
0.61439306 -0.22175436 0.83690351 164 166 168
0.61583954 -0.22175436 0.83690351 163 165 168
0.61728609 -0.22175436 0.83690351 163 164 168
0.61873263 -0.22175436 0.83690351 158 162 167
0.61941445 -0.22148092 0.83587158 157 161 166
0.01287813 -0.15396838 0.58489376 162 162 164
0.01387710 -0.15383564 0.58438951 159 159 161
0.01487435 -0.15370314 0.58388615 168 168 170
0.01586988 -0.15357086 0.58338368 174 175 177
0.01687821 -0.15357086 0.58338368 165 166 168
0.01788654 -0.15357086 0.58338368 160 161 163
0.01889487 -0.15357086 0.58338368 157 157 160
0.01988609 -0.15343882 0.58288205 152 151 153
0.02083980 -0.15304403 0.58138239 156 155 157
0.60710794 -0.21976520 0.83484215 162 163 163
0.60855091 -0.21976520 0.83484215 160 161 161
0.60999388 -0.21976520 0.83484215 172 172 173
0.61294651 -0.22030784 0.83690351 166 167 168
0.61439306 -0.22030784 0.83690351 160 160 164
0.61583954 -0.22030784 0.83690351 159 159 166
0.61728609 -0.22030784 0.83690351 167 168 174
0.61873263 -0.22030784 0.83690351 168 170 176
0.61941445 -0.22003619 0.83587158 155 157 163
0.01286703 -0.15282558 0.58438951 164 164 167
0.01386515 -0.15269394 0.58388615 162 162 165
0.01486155 -0.15256253 0.58338368 165 165 167
0.01586988 -0.15256253 0.58338368 164 164 166
0.01687821 -0.15256253 0.58338368 161 161 163
0.01788654 -0.15256253 0.58338368 159 159 163
0.01889487 -0.15256253 0.58338368 156 155 163
0.01988609 -0.15243135 0.58288205 158 157 161
0.02085769 -0.15216967 0.58188140 164 163 167
0.60487318 -0.21751861 0.83176911 157 158 160
0.60631084 -0.21751861 0.83176911 156 156 159
0.60774845 -0.21751861 0.83176911 165 166 169
0.61068475 -0.21805371 0.83381528 162 163 166
0.61287975 -0.21832225 0.83484215 163 164 168
0.61508024 -0.21859145 0.83587158 171 172 176
0.61576569 -0.21832225 0.83484215 176 177 182
0.61796969 -0.21859145 0.83587158 172 172 179
0.01184675 -0.15168475 0.58388615 171 171 171
0.01285595 -0.15168475 0.58388615 168 167 168
0.01385322 -0.15155420 0.58338368 166 165 166
0.01486155 -0.15155420 0.58338368 166 165 167
0.01586988 -0.15155420 0.58338368 163 163 165
0.01687821 -0.15155420 0.58338368 161 161 162
0.01788654 -0.15155420 0.58338368 159 158 160
0.01891115 -0.15168475 0.58388615 160 159 162
0.01988609 -0.15142389 0.58288205 159 159 161
0.02085769 -0.15116394 0.58188140 171 171 173
0.59902555 -0.21450181 0.82569045 166 168 170
0.60339248 -0.21555200 0.82973295 159 161 163
0.60556781 -0.21581616 0.83074981 155 157 159
0.60700369 -0.21581616 0.83074981 157 159 165
0.60993451 -0.21634641 0.83279097 160 162 168
0.61212593 -0.21661253 0.83381528 169 171 176
0.61356711 -0.21661253 0.83381528 175 176 180
0.61500829 -0.21661253 0.83381528 170 171 176
0.61720866 -0.21687929 0.83484215 159 159 166
0.61789066 -0.21661253 0.83381528 151 151 158
0.00880398 -0.15041643 0.58288205 140 140 144
0.00981145 -0.15041643 0.58288205 148 144 146
0.01182638 -0.15041643 0.58288205 172 168 169
0.01284488 -0.15054587 0.58338368 172 168 169
0.01384130 -0.15041643 0.58288205 171 167 168
0.01484877 -0.15041643 0.58288205 167 165 166
0.01585623 -0.15041643 0.58288205 165 164 165
0.01686370 -0.15041643 0.58288205 163 161 163
0.01788654 -0.15054587 0.58338368 171 168 171
0.01889487 -0.15054587 0.58338368 178 178 180
0.01988609 -0.15041643 0.58288205 179 179 181
0.02087560 -0.15028720 0.58238131 181 182 183
0.59902555 -0.21307467 0.82569045 165 169 171
0.60265481 -0.21385612 0.82871866 162 166 167
0.60482657 -0.21411787 0.82973295 160 164 166
0.60626072 -0.21411787 0.82973295 155 160 165
0.60918611 -0.21464331 0.83176911 156 161 166
0.61212593 -0.21517135 0.83381528 162 165 169
0.61356711 -0.21517135 0.83381528 162 164 167
0.61500829 -0.21517135 0.83381528 156 158 162
0.61720866 -0.21543634 0.83484215 156 156 162
0.61713159 -0.21490701 0.83279097 162 163 168
0.44905373 -0.12173577 0.47174102 148 149 150
0.45018238 -0.12182055 0.47206953 155 156 157
0.00980302 -0.14928061 0.58238131 160 153 156
0.01081891 -0.14940897 0.58288205 167 161 163
0.01182638 -0.14940897 0.58288205 171 168 168
0.01283384 -0.14940897 0.58288205 170 169 168
0.01384130 -0.14940897 0.58288205 169 168 167
0.01483601 -0.14928061 0.58238131 166 165 166
0.01585623 -0.14940897 0.58288205 165 164 164
0.01686370 -0.14940897 0.58288205 165 164 165
0.01787116 -0.14940897 0.58288205 172 171 173
0.01889487 -0.14953755 0.58338368 179 179 181
0.01986901 -0.14928061 0.58238131 180 180 182
0.02085769 -0.14915247 0.58188140 179 180 183
0.60482657 -0.21268375 0.82973295 161 165 169
0.60626072 -0.21268375 0.82973295 159 164 167
0.60993451 -0.21346760 0.83279097 158 162 165
0.61212593 -0.21373016 0.83381528 156 160 163
0.61356711 -0.21373016 0.83381528 154 158 161
0.61500829 -0.21373016 0.83381528 157 160 164
0.61720866 -0.21399337 0.83484215 166 167 171
0.44723010 -0.12108894 0.47239849 163 164 166
0.44804659 -0.12108894 0.47239849 158 159 162
0.44886309 -0.12108894 0.47239849 149 151 155
0.44936645 -0.12100461 0.47206953 155 158 161
0.45049611 -0.12108894 0.47239849 161 164 166
0.45131260 -0.12108894 0.47239849 165 166 168
0.45944548 -0.12151232 0.47405025 156 157 159
0.01181622 -0.14827400 0.58238131 168 168 166
0.01282281 -0.14827400 0.58238131 169 169 167
0.01382941 -0.14827400 0.58238131 169 169 167
0.01483601 -0.14827400 0.58238131 167 167 167
0.01584261 -0.14827400 0.58238131 164 163 166
0.01684921 -0.14827400 0.58238131 164 164 166
0.01785581 -0.14827400 0.58238131 164 164 166
0.01887863 -0.14840150 0.58288205 176 176 180
0.01985195 -0.14814673 0.58188140 179 180 184
0.02083980 -0.14801967 0.58138239 175 176 180
0.60780239 -0.21228898 0.83381528 158 162 168
0.60774845 -0.21176803 0.83176911 161 167 169
0.61143678 -0.21255042 0.83484215 161 167 169
0.61363548 -0.21281250 0.83587158 162 167 170
0.61508024 -0.21281250 0.83587158 161 165 168
0.61576569 -0.21255042 0.83484215 160 163 166
0.61796969 -0.21281250 0.83587158 162 163 167
0.61865157 -0.21255042 0.83484215 164 165 168
0.44917610 -0.12035631 0.47272792 154 160 163
0.45081025 -0.12035631 0.47272792 161 166 169
0.45162734 -0.12035631 0.47272792 162 166 170
0.45212910 -0.12027244 0.47239849 161 165 170
0.45457861 -0.12027244 0.47239849 163 163 168
0.45571268 -0.12035631 0.47272792 164 165 170
0.45716739 -0.12052440 0.47338817 165 166 171
0.45798558 -0.12052440 0.47338817 164 165 171
0.45912442 -0.12060863 0.47371897 162 163 167
0.45994321 -0.12060863 0.47371897 161 162 166
2.20075154 -0.50911784 1.99968100 161 163 165
0.01181622 -0.14726740 0.58238131 168 167 168
0.01282281 -0.14726740 0.58238131 165 165 166
0.01381754 -0.14714099 0.58188140 157 157 159
0.01482328 -0.14714099 0.58188140 158 158 161
0.01582901 -0.14714099 0.58188140 160 158 163
0.01683475 -0.14714099 0.58188140 165 164 168
0.01784048 -0.14714099 0.58188140 165 164 167
0.01886241 -0.14726740 0.58238131 174 174 178
0.01983493 -0.14701480 0.58138239 173 174 178
0.02082194 -0.14688882 0.58088416 172 173 177
0.60631084 -0.21033038 0.83176911 152 159 161
0.60700369 -0.21007262 0.83074981 151 160 161
0.61068475 -0.21084780 0.83381528 157 166 167
0.61212593 -0.21084780 0.83381528 162 169 171
0.61356711 -0.21084780 0.83381528 159 166 168
0.61500829 -0.21084780 0.83381528 157 163 166
0.61720866 -0.21110746 0.83484215 156 161 164
0.61789066 -0.21084780 0.83381528 155 161 163
0.44948956 -0.11962266 0.47305781 156 161 166
0.45112485 -0.11962266 0.47305781 161 166 171
0.45194250 -0.11962266 0.47305781 160 164 169
0.45244440 -0.11953923 0.47272792 157 160 166
0.45326146 -0.11953923 0.47272792 157 158 165
0.45376211 -0.11945593 0.47239849 160 161 168
0.45457861 -0.11945593 0.47239849 165 166 173
0.45571268 -0.11953923 0.47272792 170 171 178
0.45684835 -0.11962266 0.47305781 169 171 177
0.45766598 -0.11962266 0.47305781 162 165 171
0.45880380 -0.11970619 0.47338817 153 156 162
0.45962203 -0.11970619 0.47338817 153 156 162
0.46011892 -0.11962266 0.47305781 161 165 170
0.46125844 -0.11970619 0.47338817 158 162 166
0.46207666 -0.11970619 0.47338817 156 161 165
2.18738651 -0.50417429 1.99379957 134 138 139
0.01283384 -0.14638656 0.58288205 163 162 166
0.01381754 -0.14613526 0.58188140 145 144 148
0.01482328 -0.14613526 0.58188140 146 145 149
0.01582901 -0.14613526 0.58188140 158 154 159
0.01683475 -0.14613526 0.58188140 168 165 170
0.01785581 -0.14626081 0.58238131 169 168 172
0.01886241 -0.14626081 0.58238131 173 173 177
0.01985195 -0.14613526 0.58188140 169 170 174
0.60478026 -0.20787250 0.82770675 146 154 155
0.60918611 -0.20889273 0.83176911 153 159 161
0.61062378 -0.20889273 0.83176911 154 162 163
0.61206144 -0.20889273 0.83176911 156 163 165
0.61349905 -0.20889273 0.83176911 157 164 166
0.44835904 -0.11872216 0.47272792 164 169 174
0.44917610 -0.11872216 0.47272792 169 174 179
0.44999319 -0.11872216 0.47272792 171 176 181
0.45112485 -0.11880501 0.47305781 168 172 177
0.45162734 -0.11872216 0.47272792 163 167 172
0.45244440 -0.11872216 0.47272792 159 163 168
0.45294562 -0.11863943 0.47239849 164 167 173
0.45376211 -0.11863943 0.47239849 170 173 179
0.45457861 -0.11863943 0.47239849 174 177 183
0.45539513 -0.11863943 0.47239849 174 177 183
0.45684835 -0.11880501 0.47305781 170 173 179
0.45734683 -0.11872216 0.47272792 164 167 173
0.45880380 -0.11888798 0.47338817 164 168 173
0.45930126 -0.11880501 0.47305781 165 170 175
0.46011892 -0.11880501 0.47305781 163 168 173
0.46125844 -0.11888798 0.47338817 155 160 165
2.18738651 -0.50072819 1.99379957 147 150 151
0.01382941 -0.14525421 0.58238131 141 140 144
0.01482328 -0.14512953 0.58188140 153 152 156
0.01582901 -0.14512953 0.58188140 163 162 166
0.01683475 -0.14512953 0.58188140 169 168 171
0.01784048 -0.14512953 0.58188140 174 173 175
0.60838431 -0.20669425 0.82871866 158 161 166
0.60981667 -0.20669425 0.82871866 157 158 164
0.61124909 -0.20669425 0.82871866 159 162 167
0.44816703 -0.11806976 0.47338817 161 169 173
0.44867194 -0.11798736 0.47305781 167 174 178
0.44980344 -0.11806976 0.47338817 170 176 180
0.45143989 -0.11806976 0.47338817 167 174 176
0.45225808 -0.11806976 0.47338817 167 173 176
0.45276013 -0.11798736 0.47305781 171 177 179
0.45326146 -0.11790509 0.47272792 175 179 183
0.45407856 -0.11790509 0.47272792 176 179 184
0.45457861 -0.11782292 0.47239849 176 180 184
0.45539513 -0.11782292 0.47239849 172 176 180
0.45684835 -0.11798736 0.47305781 169 172 176
0.45702812 -0.11782292 0.47239849 165 169 173
0.45848364 -0.11798736 0.47305781 167 172 176
0.45898098 -0.11790509 0.47272792 164 169 174
0.45979804 -0.11790509 0.47272792 160 165 170
0.46093655 -0.11798736 0.47305781 154 159 164
2.16142297 -0.49293265 1.97636104 148 149 151
2.17459488 -0.49437398 1.98213995 160 160 162
2.19083261 -0.49728206 1.99379957 157 157 158
2.20075154 -0.49874896 1.99968100 152 151 152
0.01582901 -0.14412379 0.58188140 168 167 170
0.60690045 -0.20476124 0.82669735 160 162 168
0.60832936 -0.20476124 0.82669735 156 159 165
0.60975820 -0.20476124 0.82669735 161 166 171
0.61118710 -0.20476124 0.82669735 168 174 178
0.61261594 -0.20476124 0.82669735 172 178 181
0.61180651 -0.20401484 0.82368392 168 174 177
0.61248600 -0.20376725 0.82268429 167 172 174
0.45489562 -0.11708802 0.47272792 170 175 177
0.45571268 -0.11708802 0.47272792 172 177 178
0.45684835 -0.11716972 0.47305781 168 172 174
0.45734683 -0.11708802 0.47272792 157 161 163
0.45816392 -0.11708802 0.47272792 156 160 165
0.45866114 -0.11700642 0.47239849 158 163 168
0.45947763 -0.11700642 0.47239849 161 167 171
0.46061513 -0.11708802 0.47272792 160 167 171
0.46143219 -0.11708802 0.47272792 159 165 170
0.46160546 -0.11692494 0.47206953 157 164 168
2.14151549 -0.48809364 1.97061586 159 160 162
2.13870454 -0.48667890 1.96490383 151 152 154
2.12975430 -0.48387381 1.95357883 136 137 139
2.14549685 -0.48667890 1.96490383 144 145 147
2.15513968 -0.48809364 1.97061586 156 156 158
2.17459488 -0.49094799 1.98213995 158 157 159
2.18440795 -0.49238774 1.98795259 152 151 152
2.19772506 -0.49383593 1.99379957 157 156 156
0.60399842 -0.20283763 0.82468593 159 162 168
0.60542381 -0.20283763 0.82468593 160 165 170
0.60611182 -0.20259118 0.82368392 164 169 174
0.60827464 -0.20283763 0.82468593 168 174 177
0.60970002 -0.20283763 0.82468593 171 178 179
0.61112541 -0.20283763 0.82468593 170 176 178
0.61106408 -0.20234531 0.82268429 165 167 171
0.61174357 -0.20210004 0.82168710 159 161 165
0.45521307 -0.11635208 0.47305781 167 170 170
0.45603070 -0.11635208 0.47305781 172 175 176
0.45716739 -0.11643334 0.47338817 169 173 174
0.45734683 -0.11627094 0.47272792 163 167 168
0.45848364 -0.11635208 0.47305781 155 163 164
0.45866114 -0.11618992 0.47239849 159 168 168
0.45979804 -0.11627094 0.47272792 163 171 172
0.46061513 -0.11627094 0.47272792 161 169 171
0.46143219 -0.11627094 0.47272792 161 169 170
0.46160546 -0.11610901 0.47206953 163 172 172
0.46209961 -0.11602821 0.47174102 166 175 174
2.12575054 -0.48188594 1.95922494 157 160 162
2.12913680 -0.48188594 1.95922494 158 161 163
2.12637758 -0.48049721 1.95357883 155 158 160
2.12363434 -0.47911647 1.94796503 151 152 154
2.13313079 -0.48049721 1.95357883 151 152 154
2.17167091 -0.48610067 1.97636104 146 146 147
0.60395432 -0.20092337 0.82268429 163 171 175
0.60537630 -0.20092337 0.82268429 165 173 177
0.60679823 -0.20092337 0.82268429 163 172 174
0.60822016 -0.20092337 0.82268429 162 171 172
0.61038285 -0.20116751 0.82368392 159 166 167
0.61032337 -0.20067982 0.82168710 158 159 161
0.61100298 -0.20043688 0.82069230 158 159 161
0.61168092 -0.20019451 0.81969994 161 161 163
0.45734683 -0.11545388 0.47272792 165 169 170
0.45816392 -0.11545388 0.47272792 161 167 167
0.45866114 -0.11537342 0.47239849 159 165 165
0.45947763 -0.11537342 0.47239849 157 164 164
0.46061513 -0.11545388 0.47272792 154 162 161
0.46143219 -0.11545388 0.47272792 158 167 166
0.46128425 -0.11521284 0.47174102 162 170 169
0.46177825 -0.11513272 0.47141296 165 171 171
2.11962438 -0.47712061 1.95357883 161 165 167
2.12300110 -0.47712061 1.95357883 158 162 164
2.12026739 -0.47574958 1.94796503 154 158 159
2.11149931 -0.47303101 1.93683386 155 159 160
2.12700105 -0.47574958 1.94796503 152 156 157
2.13650751 -0.47712061 1.95357883 149 152 153
2.14606857 -0.47849959 1.95922494 148 148 150
2.15568542 -0.47988653 1.96490383 148 148 150
2.15908146 -0.47988653 1.96490383 148 148 149
0.60464251 -0.19925961 0.82168710 153 161 165
0.60606271 -0.19925961 0.82168710 158 166 168
0.60748291 -0.19925961 0.82168710 159 167 170
0.60964209 -0.19950143 0.82268429 159 165 168
0.60958445 -0.19901837 0.82069230 159 163 164
0.61100298 -0.19901837 0.82069230 161 165 166
0.61094218 -0.19853765 0.81870997 167 168 170
0.45734683 -0.11463680 0.47272792 159 163 164
0.45848364 -0.11471680 0.47305781 161 166 166
0.45866114 -0.11455692 0.47239849 162 167 168
0.45979804 -0.11463680 0.47272792 160 167 167
0.46125844 -0.11479691 0.47338817 154 162 162
0.46175420 -0.11471680 0.47305781 155 164 164
0.46160546 -0.11447714 0.47206953 159 167 167
0.46209961 -0.11439747 0.47174102 165 171 171
0.46162999 -0.11407993 0.47043154 168 174 174
2.10145617 -0.46968335 1.93683386 162 164 165
2.10480380 -0.46968335 1.93683386 160 162 162
2.10214543 -0.46834522 1.93131578 160 161 162
2.09950209 -0.46701470 1.92582905 165 167 167
2.12090659 -0.47102916 1.94238353 161 162 162
2.12426376 -0.47102916 1.94238353 158 159 160
2.13373494 -0.47238269 1.94796503 159 159 161
2.14326072 -0.47374400 1.95357883 158 158 159
2.15284133 -0.47511321 1.95922494 155 154 155
2.15961409 -0.47511321 1.95922494 143 142 141
0.60391045 -0.19759987 0.82069230 152 159 161
0.60532898 -0.19759987 0.82069230 159 167 171
0.60748291 -0.19783938 0.82168710 161 169 173
0.60958445 -0.19759987 0.82069230 159 163 166
0.61100298 -0.19759987 0.82069230 161 165 169
0.61094218 -0.19712257 0.81870997 164 167 170
0.46011892 -0.11389916 0.47305781 163 168 169
0.46190354 -0.11413810 0.47405025 154 163 164
0.46207666 -0.11397870 0.47338817 154 163 164
0.46224928 -0.11381973 0.47272792 158 166 167
0.46242139 -0.11366121 0.47206953 169 175 175
2.09213114 -0.46500710 1.93131578 150 150 150
2.08951616 -0.46368605 1.92582905 153 154 154
2.08691597 -0.46237251 1.92037344 154 155 155
2.09023523 -0.46237251 1.92037344 157 158 158
2.08175969 -0.45976758 1.90955448 159 160 160
2.10283065 -0.46368605 1.92582905 159 160 160
2.10615921 -0.46368605 1.92582905 160 160 160
2.11549783 -0.46500710 1.93131578 162 160 160
2.13097835 -0.46767190 1.94238353 160 158 158
2.14046884 -0.46901578 1.94796503 155 153 152
2.13769293 -0.46767190 1.94238353 149 147 145
2.14105010 -0.46767190 1.94238353 147 144 143
2.14440727 -0.46767190 1.94238353 150 148 147
0.60532898 -0.19618137 0.82069230 166 170 175
0.46222678 -0.11339805 0.47438198 159 166 168
0.46207666 -0.11316048 0.47338817 163 170 171
0.46224928 -0.11300266 0.47272792 167 174 175
2.07109118 -0.45775652 1.91494870 145 144 145
2.08027768 -0.45905328 1.92037344 146 145 146
2.08359671 -0.45905328 1.92037344 145 146 146
2.08102083 -0.45775652 1.91494870 150 151 151
2.07845926 -0.45646706 1.90955448 156 156 156
2.07591224 -0.45518488 1.90419054 158 158 158
2.09095025 -0.45775652 1.91494870 150 150 150
2.08836079 -0.45646706 1.90955448 147 145 145
2.09166121 -0.45646706 1.90955448 149 145 144
2.11883593 -0.46166897 1.93131578 151 147 146
2.12823749 -0.46298802 1.93683386 150 147 146
2.12551236 -0.46166897 1.93131578 148 146 144
2.12885046 -0.46166897 1.93131578 148 146 144
2.13218856 -0.46166897 1.93131578 150 149 147
0.45979804 -0.11218558 0.47272792 163 169 170
0.46190354 -0.11249939 0.47405025 164 170 170
0.46207666 -0.11234227 0.47338817 165 171 171
0.46224928 -0.11218558 0.47272792 163 168 170
0.46209961 -0.11195138 0.47174102 158 163 168
2.07109118 -0.45444670 1.91494870 160 160 161
2.08027768 -0.45573407 1.92037344 154 154 155
2.07771087 -0.45444670 1.91494870 147 147 148
2.07515883 -0.45316657 1.90955448 152 152 152
2.07262087 -0.45189363 1.90419054 155 155 155
2.07009721 -0.45062780 1.89885676 152 152 152
2.08506036 -0.45316657 1.90955448 143 143 143
2.08249450 -0.45189363 1.90419054 142 141 141
2.07994342 -0.45062780 1.89885676 146 143 142
2.10683131 -0.45573407 1.92037344 145 142 142
2.11614513 -0.45702878 1.92582905 142 141 140
2.11346960 -0.45573407 1.92037344 139 139 138
2.11678886 -0.45573407 1.92037344 141 141 140
0.45834172 -0.11121341 0.47206953 167 173 173
0.45883814 -0.11113601 0.47174102 163 169 169
0.46061513 -0.11136851 0.47272792 160 165 166
0.46111065 -0.11129090 0.47239849 160 164 165
0.46128425 -0.11113601 0.47174102 160 164 167
0.46113691 -0.11090448 0.47075823 163 166 172
2.08027768 -0.45241487 1.92037344 155 155 155
2.07771087 -0.45113686 1.91494870 151 152 152
2.07515883 -0.44986606 1.90955448 152 153 153
2.06681514 -0.44734579 1.89885676 150 151 151
2.06431484 -0.44609624 1.89355266 145 146 146
2.07920337 -0.44860238 1.90419054 143 144 144
2.07666135 -0.44734579 1.89885676 141 142 142
2.11614513 -0.45370013 1.92582905 142 142 142
2.11947393 -0.45370013 1.92582905 146 146 147
2.11678886 -0.45241487 1.92037344 149 149 150
0.46143219 -0.11055144 0.47272792 167 171 172
0.46160546 -0.11039747 0.47206953 168 172 175
0.46145734 -0.11016732 0.47108537 168 173 178
2.08618760 -0.45037150 1.92582905 152 152 152
2.08359671 -0.44909567 1.92037344 150 151 151
2.08102083 -0.44782704 1.91494870 147 148 148
2.06681514 -0.44406378 1.89885676 146 147 147
2.07666135 -0.44406378 1.89885676 143 144 144
2.13158512 -0.45294505 1.93683386 156 156 158
0.36954197 -0.19793595 0.85269415 165 165 168
2.07515883 -0.44326502 1.90955448 146 147 147
0.36751893 -0.19695763 0.85484469 165 166 171
0.36853173 -0.19670957 0.85376805 161 161 166
0.36954197 -0.19646214 0.85269415 159 159 163
0.37054968 -0.19621533 0.85162294 160 160 164
0.36853173 -0.19523391 0.85376805 163 164 168
0.36907771 -0.19474338 0.85162294 163 164 168
0.37054968 -0.19474338 0.85162294 170 168 170
0.36344206 -0.19498612 0.85917848 160 160 166
0.36400437 -0.19449310 0.85700613 148 149 154
0.36548564 -0.19449310 0.85700613 155 156 160
0.36604139 -0.19400258 0.85484469 162 163 167
0.36751893 -0.19400258 0.85484469 161 162 166
0.36853173 -0.19375823 0.85376805 155 156 158
0.36954197 -0.19351453 0.85269415 162 163 165
0.37054968 -0.19327141 0.85162294 165 161 163
0.37202165 -0.19327141 0.85162294 163 158 160
0.37496558 -0.19327141 0.85162294 169 165 167
0.37596521 -0.19302891 0.85055441 161 160 162
0.36195704 -0.19350110 0.85917848 164 165 168
0.36344206 -0.19350110 0.85917848 175 176 178
0.36354479 -0.19276814 0.85592407 178 178 180
0.36548564 -0.19301184 0.85700613 179 180 180
0.36604139 -0.19252504 0.85484469 179 179 180
0.36751893 -0.19252504 0.85484469 163 162 164
0.36853173 -0.19228257 0.85376805 152 150 152
0.36954197 -0.19204071 0.85269415 162 159 162
0.37101579 -0.19204071 0.85269415 166 160 164
0.37202165 -0.19179945 0.85162294 168 163 166
0.37396342 -0.19204071 0.85269415 171 167 170
0.37543723 -0.19204071 0.85269415 164 162 166
0.37643754 -0.19179945 0.85162294 161 160 164
0.36149886 -0.19177301 0.85809094 166 166 167
0.36252311 -0.19153057 0.85700613 171 170 170
0.36308634 -0.19104752 0.85484469 170 168 168
0.36456385 -0.19104752 0.85484469 171 167 166
0.36604139 -0.19104752 0.85484469 173 170 169
0.36705604 -0.19080691 0.85376805 164 161 160
0.36806816 -0.19056690 0.85269415 158 155 157
0.36954197 -0.19056690 0.85269415 165 163 165
0.37054968 -0.19032750 0.85162294 170 168 172
0.37202165 -0.19032750 0.85162294 171 171 175
0.37396342 -0.19056690 0.85269415 170 169 173
0.37543723 -0.19056690 0.85269415 164 164 168
0.37643754 -0.19032750 0.85162294 166 166 170
0.36149886 -0.19028987 0.85809094 165 164 164
0.36298200 -0.19028987 0.85809094 167 163 164
0.36308634 -0.18956999 0.85484469 164 158 159
0.36456385 -0.18956999 0.85484469 161 153 154
0.36604139 -0.18956999 0.85484469 161 155 156
0.36705604 -0.18933123 0.85376805 164 158 161
0.36853173 -0.18933123 0.85376805 163 162 166
0.37000740 -0.18933123 0.85376805 167 167 171
0.37101579 -0.18909308 0.85269415 168 168 172
0.37248960 -0.18909308 0.85269415 170 170 174
0.37591007 -0.18933123 0.85376805 165 166 170
0.37643754 -0.18885553 0.85162294 167 168 172
0.36195704 -0.18904603 0.85917848 167 166 166
0.36354479 -0.18832995 0.85592407 155 150 151
0.36604139 -0.18809246 0.85484469 163 162 165
0.36751893 -0.18809246 0.85484469 163 164 168
0.36899644 -0.18809246 0.85484469 168 169 173
0.37000740 -0.18785557 0.85376805 168 169 173
0.37148306 -0.18785557 0.85376805 167 168 172
0.37248960 -0.18761927 0.85269415 169 170 174
0.37443441 -0.18785557 0.85376805 173 174 178
0.37591007 -0.18785557 0.85376805 165 167 171
0.37691104 -0.18761927 0.85269415 164 168 171
0.37790948 -0.18738356 0.85162294 167 170 173
0.37938142 -0.18738356 0.85162294 148 150 154
0.36604139 -0.18661493 0.85484469 163 164 167
0.36705604 -0.18637989 0.85376805 160 161 165
0.36853173 -0.18637989 0.85376805 162 163 168
0.37000740 -0.18637989 0.85376805 168 168 174
0.37101579 -0.18614545 0.85269415 168 169 173
0.37248960 -0.18614545 0.85269415 165 166 170
0.37443441 -0.18637989 0.85376805 167 167 171
0.37591007 -0.18637989 0.85376805 168 168 172
0.37691104 -0.18614545 0.85269415 161 161 165
0.37790948 -0.18591161 0.85162294 145 144 148
0.37938142 -0.18591161 0.85162294 120 119 123
0.01637849 -0.43307951 1.99968100 155 154 159
0.36558038 -0.18490423 0.85376805 163 164 168
0.36705604 -0.18490423 0.85376805 161 161 166
0.37101579 -0.18467164 0.85269415 162 161 168
0.37248960 -0.18467164 0.85269415 163 162 169
0.37443441 -0.18490423 0.85376805 166 165 171
0.37591007 -0.18490423 0.85376805 166 165 169
0.37691104 -0.18467164 0.85269415 157 156 159
0.37790948 -0.18443964 0.85162294 150 149 153
0.37938142 -0.18443964 0.85162294 139 138 142
0.01284641 -0.42710346 1.98795259 159 158 159
0.01633031 -0.42835963 1.99379957 162 159 160
0.01977644 -0.42835963 1.99379957 161 157 158
0.36705604 -0.18342856 0.85376805 158 158 163
0.37101579 -0.18319783 0.85269415 165 165 168
0.37248960 -0.18319783 0.85269415 168 167 170
0.37443441 -0.18342856 0.85376805 165 164 166
0.37543723 -0.18319783 0.85269415 160 159 161
0.37691104 -0.18319783 0.85269415 163 162 164
0.37790948 -0.18296768 0.85162294 174 174 177
0.37938142 -0.18296768 0.85162294 168 167 172
0.38037553 -0.18273811 0.85055441 171 172 176
0.01280885 -0.42242864 1.98213995 164 162 163
0.01628242 -0.42366743 1.98795259 168 164 164
0.01966078 -0.42242864 1.98213995 166 162 162
0.02329106 -0.42616695 1.99968100 161 157 159
0.02674735 -0.42616695 1.99968100 154 150 154
0.37202165 -0.18149573 0.85162294 164 166 168
0.37396342 -0.18172401 0.85269415 156 156 159
0.37543723 -0.18172401 0.85269415 148 147 153
0.37691104 -0.18172401 0.85269415 158 157 166
0.37790948 -0.18149573 0.85162294 166 165 173
0.37890542 -0.18126799 0.85055441 164 164 171
0.38037553 -0.18126799 0.85055441 171 172 176
0.01280885 -0.41900268 1.98213995 164 162 163
0.01623482 -0.41900268 1.98213995 165 163 163
0.01966078 -0.41900268 1.98213995 164 162 162
0.02322256 -0.42146739 1.99379957 165 164 165
0.02666868 -0.42146739 1.99379957 160 159 161
0.03020363 -0.42271066 1.99968100 143 142 149
0.03365992 -0.42271066 1.99968100 141 140 147
0.03711621 -0.42271066 1.99968100 169 168 174
0.04045316 -0.42146739 1.99379957 170 170 172
0.09633379 -0.09521522 0.45042646 163 164 165
0.37591007 -0.18047722 0.85376805 152 153 159
0.37738574 -0.18047722 0.85376805 158 157 166
0.37838483 -0.18025021 0.85269415 158 158 165
0.37985864 -0.18025021 0.85269415 166 165 173
1.83107686 -0.34950954 1.65339470 87 81 98
1.82947254 -0.34865916 1.64937186 93 87 104
0.01277150 -0.41436511 1.97636104 161 161 163
0.01618748 -0.41436511 1.97636104 163 163 165
0.01960346 -0.41436511 1.97636104 163 164 165
0.02315445 -0.41679540 1.98795259 164 165 166
0.02659047 -0.41679540 1.98795259 145 146 149
0.03011480 -0.41802126 1.99379957 137 136 145
0.03346250 -0.41679540 1.98795259 140 139 148
0.03689852 -0.41679540 1.98795259 164 163 172
0.04021659 -0.41557670 1.98213995 176 176 179
1.81365657 -0.34496900 1.64536858 149 149 156
1.82092011 -0.34580836 1.64937186 141 139 148
1.83107686 -0.34665179 1.65339470 122 120 127
1.82947254 -0.34580836 1.64937186 124 122 133
1.87277210 -0.35180008 1.67795014 131 131 136
0.01273438 -0.40975451 1.97061586 162 162 165
0.01618748 -0.41094914 1.97636104 164 164 166
0.01954648 -0.40975451 1.97061586 169 169 171
0.02301944 -0.41094914 1.97636104 161 161 164
0.02651272 -0.41215074 1.98213995 135 134 141
0.03002648 -0.41335937 1.98795259 128 126 138
0.03336466 -0.41215074 1.98213995 142 139 152
0.03679062 -0.41215074 1.98213995 166 163 176
0.04009935 -0.41094914 1.97636104 175 174 178
0.08938646 -0.09372044 0.45072597 157 156 158
1.81365657 -0.34212512 1.64536858 156 156 163
1.81650043 -0.34212512 1.64536858 156 155 162
1.82377088 -0.34295756 1.64937186 157 157 164
1.82662177 -0.34295756 1.64937186 164 164 171
1.82503211 -0.34212512 1.64536858 166 166 174
1.86814797 -0.34803841 1.67380702 141 142 144
1.84372652 -0.34295756 1.64937186 152 152 154
0.01269747 -0.40517065 1.96490383 163 164 166
0.01614043 -0.40634847 1.97061586 163 163 165
0.01948982 -0.40517065 1.96490383 173 173 175
0.02301944 -0.40753314 1.97636104 167 167 170
0.02643542 -0.40753314 1.97636104 149 147 154
0.02993869 -0.40872476 1.98213995 138 136 144
0.03326738 -0.40753314 1.97636104 154 152 158
0.03668336 -0.40753314 1.97636104 175 174 177
0.03998278 -0.40634847 1.97061586 174 174 177
0.08866637 -0.09300324 0.45102584 172 171 175
0.08938646 -0.09294140 0.45072597 155 154 157
0.09082377 -0.09281798 0.45012739 157 153 154
1.81521857 -0.34010673 1.64937186 166 167 170
1.81365657 -0.33928123 1.64536858 168 168 170
1.81650043 -0.33928123 1.64536858 164 165 167
1.82377088 -0.34010673 1.64937186 161 161 164
1.82662177 -0.34010673 1.64937186 164 164 166
1.85896790 -0.34344932 1.66558194 155 155 156
1.84372652 -0.34010673 1.64937186 156 156 157
0.01266077 -0.40061325 1.95922494 164 165 167
0.01614043 -0.40294242 1.97061586 163 164 164
0.01948982 -0.40177447 1.96490383 174 174 174
0.02295253 -0.40294242 1.97061586 172 173 173
0.02635858 -0.40294242 1.97061586 166 167 169
0.02985140 -0.40411717 1.97636104 168 168 169
0.03317067 -0.40294242 1.97061586 171 171 172
0.03657673 -0.40294242 1.97061586 176 176 177
0.03986688 -0.40177447 1.96490383 170 170 172
0.08860742 -0.09216236 0.45072597 163 162 166
0.08932707 -0.09210112 0.45042646 160 157 162
0.09004576 -0.09203997 0.45012739 158 154 159
0.09082377 -0.09203997 0.45012739 161 157 160
1.81964588 -0.33807850 1.65339470 163 164 165
1.81806934 -0.33725592 1.64937186 162 163 164
1.82092011 -0.33725592 1.64937186 154 154 156
1.82377088 -0.33725592 1.64937186 148 148 150
1.82662177 -0.33725592 1.64937186 150 150 152
1.85441160 -0.33973575 1.66149962 157 157 157
1.84822345 -0.33807850 1.65339470 155 155 155
-0.13674366 -0.12505960 0.61682606 123 116 125
-0.13530816 -0.12471915 0.61514688 125 117 126
0.01266077 -0.39722690 1.95922494 165 165 167
0.01614043 -0.39953637 1.97061586 166 167 168
0.01948982 -0.39837828 1.96490383 171 172 173
0.02288600 -0.39837828 1.96490383 172 173 174
0.02628217 -0.39837828 1.96490383 172 173 175
0.02967835 -0.39837828 1.96490383 171 171 171
0.03307453 -0.39837828 1.96490383 170 170 170
0.03647071 -0.39837828 1.96490383 172 172 172
0.03975166 -0.39722690 1.95922494 173 173 175
0.08848974 -0.09126196 0.45012739 169 167 176
0.08926775 -0.09126196 0.45012739 149 146 154
0.09633379 -0.09132259 0.45042646 165 165 169
1.82409489 -0.33604035 1.65743732 160 160 162
1.81806934 -0.33440512 1.64937186 161 162 164
1.82536137 -0.33522075 1.65339470 156 157 159
1.82821918 -0.33522075 1.65339470 151 151 153
1.83107686 -0.33522075 1.65339470 151 151 153
1.82947254 -0.33440512 1.64937186 156 156 158
1.84987760 -0.33604035 1.65743732 151 152 153
1.84822345 -0.33522075 1.65339470 150 150 151
-0.13674366 -0.12399347 0.61682606 118 109 116
-0.13518550 -0.12354381 0.61458915 125 115 121
0.01266077 -0.39384055 1.95922494 163 163 165
0.01609364 -0.39498210 1.96490383 165 164 166
0.01948982 -0.39498210 1.96490383 163 164 166
0.02288600 -0.39498210 1.96490383 159 160 162
0.02628217 -0.39498210 1.96490383 158 159 161
0.02967835 -0.39498210 1.96490383 161 161 163
0.03297894 -0.39384055 1.95922494 165 165 168
0.03636530 -0.39384055 1.95922494 171 171 174
0.03963710 -0.39270556 1.95357883 173 173 176
0.09626983 -0.09048395 0.45012739 163 163 167
1.82409489 -0.33317563 1.65743732 161 164 166
1.81806934 -0.33155432 1.64937186 161 165 167
1.82536137 -0.33236298 1.65339470 161 163 165
1.82821918 -0.33236298 1.65339470 162 163 165
1.83107686 -0.33236298 1.65339470 163 164 166
1.82947254 -0.33155432 1.64937186 167 169 171
1.83232331 -0.33155432 1.64937186 167 168 170
1.83517420 -0.33155432 1.64937186 162 163 165
1.83802497 -0.33155432 1.64937186 150 151 153
1.84987760 -0.33317563 1.65743732 145 145 147
1.84822345 -0.33236298 1.65339470 145 145 147
-0.13989426 -0.12382873 0.62134910 116 103 107
-0.13818701 -0.12326382 0.61851448 112 101 109
-0.13686819 -0.12303930 0.61738783 109 96 105
0.01609364 -0.39158592 1.96490383 162 161 163
0.01948982 -0.39158592 1.96490383 159 158 160
0.02288600 -0.39158592 1.96490383 153 154 156
0.02628217 -0.39158592 1.96490383 154 155 159
0.02959258 -0.39045417 1.95922494 161 161 166
0.03288390 -0.38932896 1.95357883 165 164 170
0.03636530 -0.39045417 1.95922494 170 168 174
0.03963710 -0.38932896 1.95357883 171 171 177
1.81964588 -0.32950523 1.65339470 161 165 168
1.81806934 -0.32870352 1.64937186 162 166 169
1.82536137 -0.32950523 1.65339470 163 167 169
1.82821918 -0.32950523 1.65339470 164 168 171
1.83107686 -0.32950523 1.65339470 164 168 171
1.82947254 -0.32870352 1.64937186 163 165 167
1.83232331 -0.32870352 1.64937186 159 160 162
1.83517420 -0.32870352 1.64937186 153 154 156
1.83802497 -0.32870352 1.64937186 145 145 147
1.84987760 -0.33031088 1.65743732 141 141 143
1.84822345 -0.32950523 1.65339470 140 140 142
-0.14058165 -0.12241816 0.61964518 114 98 110
-0.13951065 -0.12241816 0.61964518 111 93 107
-0.13806105 -0.12208337 0.61795062 112 92 109
-0.13661934 -0.12175042 0.61626530 112 90 108
-0.13506305 -0.12130930 0.61403245 117 93 112
0.01609364 -0.38818976 1.96490383 162 158 160
0.01948982 -0.38818976 1.96490383 163 160 162
0.02288600 -0.38818976 1.96490383 155 155 157
0.02628217 -0.38818976 1.96490383 149 149 152
0.02959258 -0.38706782 1.95922494 161 160 165
0.03288390 -0.38595235 1.95357883 164 163 170
0.03626050 -0.38595235 1.95357883 166 165 172
0.03963710 -0.38595235 1.95357883 171 171 177
1.82250369 -0.32664746 1.65339470 158 162 165
1.82536137 -0.32664746 1.65339470 156 160 162
1.83268917 -0.32744613 1.65743732 153 157 158
1.83555388 -0.32744613 1.65743732 151 155 156
1.83393466 -0.32664746 1.65339470 149 151 153
1.83679247 -0.32664746 1.65339470 147 148 151
1.83965015 -0.32664746 1.65339470 148 149 151
1.85896790 -0.32905519 1.66558194 147 147 149
1.85274231 -0.32744613 1.65743732 143 143 145
-0.13938324 -0.12123633 0.61907929 111 90 107
-0.13793531 -0.12090509 0.61738783 112 90 108
-0.13649526 -0.12057564 0.61570555 112 90 108
-0.13481881 -0.12003054 0.61292207 113 91 109
0.01943349 -0.38368145 1.95922494 162 158 161
