ply
format ascii 1.0
element vertex 1068
property float x
property float y
property float z
property uchar red
property uchar green
property uchar blue
end_header
-0.92465766 -0.69781311 1.64138460 27 26 33
-0.90771659 -0.70470936 1.63217177 28 26 32
-0.91457417 -0.71250117 1.64297819 28 26 32
-0.90924124 -0.68897742 1.61403433 27 25 32
-0.90725943 -0.69524262 1.62806641 27 25 32
-0.90997898 -0.68633666 1.64905131 29 29 34
-0.90649134 -0.67946970 1.60258114 30 26 34
-0.90419964 -0.67671878 1.64594599 31 31 35
-0.88577104 -0.70254900 1.61531226 27 26 32
-0.89644634 -0.70482071 1.62453142 28 27 32
-0.88618258 -0.69306630 1.61435688 28 26 33
-0.89674740 -0.69204999 1.62565033 28 26 34
-0.87260818 -0.69806397 1.59130418 26 25 31
-0.87879205 -0.69885927 1.60258114 27 26 33
-0.64705904 -0.28073164 1.24843819 71 80 83
-0.65081687 -0.27536060 1.23450728 68 79 85
-0.64816064 -0.27354541 1.24869152 71 78 86
-0.64142799 -0.25850776 1.24841964 74 80 88
-0.63809508 -0.30218598 1.24612474 70 78 82
-0.63281218 -0.28523484 1.23713359 71 79 85
-0.63575774 -0.29464127 1.24156010 73 80 86
-0.62787018 -0.27828345 1.23658319 73 82 87
-0.63238801 -0.27037471 1.24405462 73 80 88
-0.62902628 -0.25297597 1.23929036 74 82 88
-0.63270319 -0.25282334 1.24346063 73 82 88
-0.52294463 0.39697155 1.22363150 103 104 102
-0.50239456 0.37887403 1.19980860 124 127 128
-0.50120789 0.37954581 1.20193589 124 126 128
-0.50276417 0.39165503 1.19452678 87 90 91
-0.51005310 0.38987957 1.20880628 103 106 107
-0.51989126 0.39625630 1.22142673 102 104 103
-0.48039177 0.37929285 1.15681207 85 91 93
-0.48203695 0.37858549 1.16077375 81 85 84
-0.48226976 0.37701601 1.18099630 86 87 87
-0.48890342 0.38420013 1.17485946 85 88 91
-0.49670136 0.38605487 1.18948071 89 93 93
-0.46463405 0.21576049 1.13588212 129 129 131
-0.46879348 0.21477139 1.14315653 108 106 113
-0.46442625 0.36975961 1.12774422 91 92 97
-0.46785432 0.36951686 1.15251372 101 101 103
-0.47957337 0.38064274 1.15484130 98 98 104
-0.44134377 0.16551474 0.87895244 96 99 100
-0.44805259 0.16884025 0.88518438 94 95 96
-0.44450129 0.21764985 1.01799602 142 145 143
-0.44263262 0.21223467 1.03451444 115 117 121
-0.44919608 0.21251280 1.04613105 122 124 127
-0.45090528 0.21496565 1.11679252 125 127 127
-0.45106244 0.21548509 1.13086681 120 121 123
-0.44337918 0.22257231 1.01538326 161 161 155
-0.44646542 0.22516371 1.13421111 123 126 127
-0.45274273 0.35668539 1.13266003 120 123 124
-0.44686619 0.37313972 1.11515496 100 102 105
-0.45318616 0.36814412 1.12525374 111 113 116
-0.44713604 0.38030919 1.11863339 93 94 97
-0.45349882 0.38241291 1.12482127 104 104 109
-0.42753270 0.15009210 0.85809231 132 133 135
-0.43083807 0.15634322 0.86805340 127 128 127
-0.43149817 0.16435810 0.87428600 121 122 124
-0.43206950 0.16855471 0.88095143 138 137 135
-0.43490746 0.21628594 1.01668633 131 132 132
-0.43439656 0.21267474 1.02962653 129 131 132
-0.43534912 0.21014117 1.04184335 126 127 128
-0.42461455 0.21773824 1.11618628 117 120 120
-0.42654370 0.21642440 1.12278194 116 118 119
-0.43777405 0.22237208 1.01092557 145 145 142
-0.43214462 0.22073437 1.02180203 138 138 137
-0.42017445 0.22920519 1.09869015 124 125 125
-0.42506246 0.22529872 1.10933350 117 119 122
-0.43320732 0.22392656 1.12420746 114 117 117
-0.41788653 0.16265573 0.86576223 159 159 152
-0.41730624 0.21337214 1.11771196 122 122 128
-0.41647126 0.21741043 1.12110174 123 124 127
-0.41408297 0.23216654 1.09482158 108 110 112
-0.41392952 0.22662414 1.10628297 118 119 120
-0.41570087 0.22168244 1.12101325 122 125 126
-0.38400502 -0.68210386 1.38628912 135 96 80
-0.38597785 -0.67181352 1.38812326 126 85 72
-0.38057882 -0.66747087 1.41818380 122 84 72
-0.38082325 -0.65829819 1.38345277 119 77 68
-0.37601505 -0.68400508 1.38577484 138 96 81
-0.37689373 -0.67110175 1.37782896 133 92 81
-0.37341761 -0.66886791 1.38684982 127 86 77
-0.36260495 -0.65681294 1.37782896 126 89 75
-0.37281027 -0.65874894 1.38742750 116 76 65
-0.36276740 0.17216387 0.75797003 121 120 118
-0.36476701 0.17505433 0.76207812 114 112 111
-0.36025420 0.18087240 0.75996846 127 127 127
-0.36444698 0.18470055 0.76442455 90 90 95
-0.36530805 0.28643212 1.33970726 96 97 99
-0.36781840 0.29361436 1.34493600 98 98 102
-0.36296668 0.30584769 1.35158968 114 117 121
-0.36681069 0.31299625 1.36466885 111 114 119
-0.35949281 -0.65666896 1.37503421 132 93 80
-0.34244651 -0.50576779 1.11771196 103 66 65
-0.34415117 -0.50245613 1.12327582 80 59 54
-0.34023389 -0.49859563 1.11679053 82 62 55
-0.34220733 -0.49857455 1.12326813 72 63 55
-0.35121275 0.15526106 0.75225961 109 109 113
-0.35229803 0.16915747 0.75034446 124 124 119
-0.35985079 0.18263797 0.75911742 116 115 116
-0.35934350 0.18107541 0.76082134 131 131 130
-0.34975010 0.29207451 1.33773318 117 117 118
-0.35265962 0.29207479 1.34553372 131 131 131
-0.34181254 0.30633366 1.27783680 117 116 118
-0.34389509 0.31174786 1.28878877 111 110 112
-0.34049974 0.31333919 1.30238706 117 117 119
-0.34653555 0.30838595 1.33206296 88 91 98
-0.35374370 0.30559455 1.34591769 96 99 104
-0.34625477 0.32029998 1.29864335 102 103 105
-0.34197768 0.32375281 1.30804840 111 111 113
-0.33096471 -0.50003368 1.08636510 118 88 80
-0.33854100 -0.50381780 1.10496479 106 69 62
-0.32085985 -0.49485582 1.05920601 135 94 87
-0.32286320 -0.49135422 1.07195995 125 86 80
-0.32614296 -0.49405571 1.09173476 117 76 77
-0.33238344 -0.49447934 1.10656018 93 65 65
-0.33942199 -0.49830723 1.12048233 83 62 59
-0.32702244 0.05867114 0.61311256 127 128 126
-0.32576162 0.06863033 0.61568382 152 152 149
-0.33640817 0.07422109 0.62257493 146 146 146
-0.32292209 0.26805900 0.77365232 107 108 111
-0.33233182 0.28939468 1.31459415 126 125 122
-0.33635371 0.28993372 1.32748596 133 132 130
-0.32916406 0.30662738 1.26990111 120 119 120
-0.33453179 0.31134712 1.29110294 125 124 125
-0.33826283 0.31100304 1.30680472 123 126 128
-0.33632376 0.32265971 1.30364299 114 113 115
-0.30939041 -0.50721239 1.03536664 136 97 83
-0.31283851 -0.50408942 1.05119496 142 101 85
-0.31136854 -0.50557370 1.06974120 142 105 85
-0.31285396 -0.50698460 1.08652533 145 108 87
-0.31619347 -0.49373099 1.05025895 136 96 86
-0.31500259 -0.49444868 1.07310775 136 99 87
-0.31323408 -0.49245165 1.08347555 131 89 85
-0.31879684 0.05884795 0.61496129 117 118 118
-0.31680782 0.06557824 0.61339374 147 147 145
-0.30389830 0.25819656 0.77422636 85 86 89
-0.30625491 0.26583208 0.75479453 112 114 113
-0.31056672 0.26465183 0.76614027 103 104 109
-0.31779629 0.30462265 1.25710207 111 110 113
-0.30364366 0.37612555 1.21777066 198 199 192
-0.30273856 0.38129752 1.21414069 199 200 191
-0.28143426 -0.40284471 0.79585863 96 68 59
-0.28415895 -0.40169577 0.80374224 81 57 57
-0.28084594 -0.39558327 0.79940075 65 53 45
-0.28293326 -0.39892599 0.80335534 74 55 51
-0.28339947 -0.32692177 0.65632807 25 23 29
-0.28474476 -0.32550330 0.66230442 25 23 31
-0.28909208 -0.30687194 0.65882902 28 27 34
-0.28690628 -0.31336566 0.66122630 26 25 33
-0.28137037 0.11225803 1.57649267 120 116 127
-0.28202623 0.11661649 1.58016741 116 114 122
-0.28181833 0.25833304 0.73857877 122 122 123
-0.28837921 0.25788823 0.74625335 123 123 123
-0.29851319 0.25734426 0.76670451 89 89 92
-0.28271279 0.26027170 0.73924953 117 118 118
-0.29257601 0.26497732 0.74788029 117 118 118
-0.29909127 0.26624137 0.76310903 101 104 107
-0.28419687 0.34702169 1.16857331 189 190 185
-0.28895949 0.35603206 1.18680743 192 192 187
-0.28410299 0.37525919 1.17010314 200 201 192
-0.28953626 0.36871348 1.19129551 200 200 192
-0.29795109 0.37373480 1.20664635 198 199 191
-0.28092557 0.38494839 1.15878952 196 197 188
-0.28477067 0.38138351 1.16629559 201 200 191
-0.29427052 0.38289421 1.18840488 202 201 192
-0.27484296 -0.40198246 0.79295947 111 75 65
-0.27794976 -0.40020031 0.80034459 95 66 64
-0.26206633 -0.39230779 0.77650839 127 85 70
-0.26658342 -0.39276777 0.79156243 112 78 70
-0.27685586 -0.39744383 0.80156202 92 65 62
-0.27868389 -0.32814612 0.64979466 24 23 27
-0.27369961 -0.32500104 0.66735696 26 24 32
-0.26158480 -0.33081327 0.68496161 34 31 35
-0.27672560 -0.31701767 0.66491181 26 25 33
-0.26180613 -0.31787279 0.68088819 30 29 34
-0.26475467 0.07881465 1.53543085 162 158 163
-0.26411342 0.08449882 1.53427422 128 125 134
-0.26658595 0.11094140 1.54859985 136 134 141
-0.27757000 0.11318399 1.57040767 125 122 131
-0.27815505 0.25645818 0.73564132 118 118 119
-0.27807166 0.26263743 0.73788838 147 148 143
-0.26432719 0.33267358 1.13285281 196 196 188
-0.27281127 0.33710289 1.14706687 195 195 189
-0.27276277 0.34267803 1.15387517 197 198 190
-0.27669691 0.35091145 1.16629396 197 198 190
-0.27516348 0.36979848 1.15420371 200 200 191
-0.27907225 0.36934368 1.16420266 200 200 191
-0.25636757 -0.38949177 0.78793832 129 91 80
-0.25951749 -0.37960556 0.78916395 112 69 66
-0.25836397 -0.34075097 0.68382029 52 40 42
-0.25625474 -0.32602336 0.67855500 29 27 32
-0.25513705 -0.33012937 0.68444434 37 32 36
-0.25890873 -0.31802744 0.67963966 29 29 34
-0.25802981 -0.31785679 0.68259746 29 28 35
-0.24495487 0.07675954 1.51241593 117 117 127
-0.25600868 0.07771124 1.52678734 142 142 147
-0.24580462 0.08822634 1.51466266 137 136 140
-0.25368973 0.08937826 1.52658711 121 118 128
-0.24826463 0.10707861 1.53417049 128 127 133
-0.25160710 0.11408980 1.54309784 134 133 139
-0.24468897 0.12252522 1.55123997 150 153 159
-0.25810751 0.32918755 1.12420404 195 195 186
-0.23581067 0.07801934 1.51993692 125 124 135
-0.23265279 0.07828271 1.52506799 136 137 146
-0.22570057 0.09491918 1.49644995 136 136 136
-0.23180606 0.08886317 1.51196210 138 138 141
-0.23765707 0.08806837 1.52335250 132 132 141
-0.22881663 0.10429589 1.51461085 132 131 139
-0.23709652 0.10683308 1.52990087 126 125 131
-0.20245499 0.16876889 0.65779815 132 133 133
-0.20642941 0.17199782 0.66271697 126 127 130
-0.19284223 0.16710560 0.65527149 117 116 116
-0.19830789 0.16415536 0.66092817 136 137 136
-0.16148493 0.15844683 0.68566285 113 114 122
-0.16388900 0.16666774 0.68797111 123 124 127
-0.14064095 -0.22833478 0.58663846 87 89 93
-0.15198024 0.15859258 0.67918521 135 136 136
-0.15541272 0.15822707 0.68123665 143 144 144
-0.15017033 0.16876382 0.67703047 127 128 130
-0.15670587 0.16946582 0.68426177 128 127 128
-0.13456509 -0.22670061 0.58941679 82 85 90
-0.12676244 -0.21574579 0.58946321 101 105 110
-0.12774734 -0.14550052 0.71635297 106 111 121
-0.12489509 -0.14220907 0.72072429 105 111 120
-0.12761349 -0.13526961 0.71686047 104 111 125
-0.11443078 -0.26281525 0.52337928 99 100 100
-0.11295253 -0.25351573 0.52419623 134 105 96
-0.11905592 -0.21392503 0.58993307 98 106 109
-0.10117303 0.11319865 0.49918466 127 128 130
-0.10419679 0.11717200 0.50473381 115 115 118
-0.10126115 0.11668418 1.38628185 130 130 133
-0.10515510 0.12040163 0.50588942 114 113 118
-0.10263464 0.13143808 1.39017474 143 144 145
-0.10240977 0.14687488 1.39541907 129 129 132
-0.08266899 -0.10587737 0.86724344 65 64 72
-0.08152617 -0.09479096 0.86245941 64 63 68
-0.09429949 0.10948401 0.49442315 138 137 137
-0.09487272 0.11801652 1.39172743 128 124 132
-0.09205133 0.13114327 1.39596887 138 138 143
-0.08682627 0.13315163 1.40167194 143 142 148
-0.09599948 0.14658001 1.39585489 164 162 163
-0.09080830 0.14270308 1.40060294 166 163 164
-0.07107721 -0.28438404 0.69422456 158 119 104
-0.06471388 -0.29076141 0.70297045 158 115 106
-0.06594005 -0.27624137 0.68962783 152 109 98
-0.07210131 -0.10369436 0.86724954 64 64 69
-0.07810402 -0.09202469 0.85917848 61 61 67
-0.06978317 -0.09514165 0.86462296 63 61 69
-0.07349449 0.03478773 0.54417737 129 131 135
-0.07039999 0.04204174 0.54443614 132 132 136
-0.07788447 0.13687762 1.39675645 194 193 190
-0.07826065 0.13147579 1.40350282 190 190 189
-0.06718222 0.33609951 0.83716667 196 196 187
-0.06348280 0.33497598 0.84522565 189 187 181
-0.06468740 0.34756439 0.83299329 142 141 137
-0.05196791 -0.36050501 1.23929036 103 103 112
-0.04565078 -0.36619110 1.24962924 95 98 108
-0.04345547 -0.35136672 1.25220078 98 103 112
-0.04194803 -0.34257945 1.26002204 111 110 119
-0.05909867 -0.28349573 0.69410193 159 120 105
-0.05893679 -0.27552981 0.68800668 161 118 107
-0.05870076 -0.09539716 0.86502888 63 61 69
-0.05527567 0.33890934 0.83858617 175 170 161
-0.05358478 0.33649899 0.84668404 168 164 160
-0.05727429 0.34559639 0.83266203 134 129 126
-0.05596607 0.34216478 0.84079634 172 165 155
-0.03528333 -0.38036668 1.25535524 85 90 98
-0.03593807 -0.36912465 1.25561054 90 92 105
-0.02611132 -0.36384288 1.27016689 89 92 107
-0.02281395 -0.36863160 1.28632694 88 91 106
-0.03488258 -0.34955239 1.25445509 97 100 110
-0.02819488 -0.34877356 1.26185043 96 97 112
-0.03582997 -0.33859916 1.25536174 103 106 114
-0.03977019 -0.33822379 1.26002204 105 109 121
-0.02013662 -0.28012413 0.76339173 137 92 92
-0.02843405 -0.27461194 0.75871720 113 71 74
-0.02699201 -0.27351889 0.76454852 106 69 69
-0.01734924 -0.36277806 1.26591438 86 89 104
-0.01477321 -0.34807554 1.25557092 92 93 111
-0.01581388 -0.35782439 1.26002204 86 89 107
-0.01582674 -0.32433048 1.23670937 100 107 119
-0.01677934 -0.33472623 1.25098050 98 100 118
-0.01478825 -0.27633993 0.75972531 142 94 91
-0.01607077 -0.27501937 0.76357328 138 88 85
-0.01138140 0.13127320 0.47687675 177 173 169
-0.00638724 0.12724602 0.48160285 176 171 169
-0.00200573 0.17702181 0.59730516 144 142 141
-0.00485180 0.17358630 0.60352002 157 153 149
-0.00390492 0.18166768 0.59632546 161 156 151
-0.00858162 0.18177499 0.60096821 177 172 166
-0.00187150 0.19113445 0.93283856 193 186 183
0.01300049 0.17960705 0.48400425 153 156 151
0.00242356 0.17490806 0.59098010 152 150 148
0.00076668 0.16781092 0.60043561 148 144 143
0.01425930 0.17889166 0.92898391 158 153 161
0.01359691 0.18434845 0.47947095 165 164 160
0.01387742 0.18584496 0.48350933 161 161 157
0.00156904 0.18098767 0.59060448 159 160 159
0.01761087 0.18704965 0.89354254 173 169 170
0.01288308 0.18826239 0.91159708 178 176 176
0.00748846 0.18806604 0.92960726 159 158 158
0.00609003 0.18318144 0.94250496 133 129 133
0.00518198 0.20039845 0.92608866 186 183 182
0.03716197 -0.20232426 0.67937435 42 33 39
0.03353759 -0.20394923 0.68234801 53 43 48
0.03741414 -0.19232517 0.67900829 94 92 99
0.03588838 -0.19116842 0.68390958 114 112 120
0.03757675 0.17369663 0.49491746 160 157 154
0.03329176 0.17539755 0.50179659 148 144 143
0.02642801 0.18469249 0.47714834 141 140 138
0.02405597 0.18978341 0.48263988 163 160 155
0.03457721 0.18683216 0.51017205 159 156 153
0.02391803 0.18646298 0.87923717 131 131 131
0.02211487 0.18651379 0.89005871 155 154 153
0.02157833 0.18485866 0.90870219 187 182 179
0.03856810 0.46382152 1.75167018 163 158 152
0.03897091 0.46254714 1.76996464 176 171 167
0.03622677 0.47123612 1.78549488 171 166 160
0.03364277 0.47837809 1.81254506 172 167 161
0.04116830 -0.20245006 0.67913771 47 39 47
0.04135073 -0.19866663 0.67891061 43 40 47
0.04045116 0.17065356 0.48769481 164 162 158
0.05642358 0.21526069 0.68935054 160 154 149
0.05821356 0.22929041 0.69597053 170 166 160
0.05531631 0.23738226 0.70358458 175 169 162
0.05668332 0.41220138 1.61250200 171 163 159
0.05546169 0.41219020 1.62563992 174 171 169
0.05265745 0.41457140 1.65111273 171 170 169
0.05060606 0.41214639 1.66783984 161 161 160
0.04866621 0.41778728 1.68211377 167 167 167
0.05572897 0.42264664 1.63347435 163 156 150
0.05238066 0.42417197 1.65260196 172 168 161
0.04991973 0.42924975 1.67016045 167 165 159
0.04669314 0.42911510 1.68947306 174 172 169
0.04458962 0.42838865 1.70701072 167 166 164
0.04208765 0.42895621 1.72229331 159 159 160
0.04138159 0.42981127 1.74265254 155 154 154
0.05377416 0.44633723 1.66928825 133 130 135
0.05103287 0.44415223 1.68842176 143 137 138
0.04932724 0.45292949 1.70496197 136 130 133
0.04537868 0.45229366 1.72812403 161 156 153
0.04145287 0.45770150 1.74565454 170 163 160
0.04927759 0.46130684 1.70324588 127 123 130
0.04444272 0.46333448 1.72807477 134 132 132
0.07671293 -0.10077853 0.45343941 109 111 116
0.07764115 -0.09623931 0.45349584 111 111 121
0.07932922 0.16231380 0.56846285 112 111 111
0.07237338 0.18432617 0.49755778 149 149 145
0.06542313 0.18478514 0.50264530 127 124 121
0.07699395 0.21517165 0.67903443 173 171 169
0.07068662 0.21403489 0.68842090 142 141 141
0.07656790 0.23043443 0.67811445 168 167 165
0.06941418 0.22778473 0.68853337 144 142 142
0.06949268 0.24293131 0.68951703 143 143 142
0.07941350 0.40671149 1.85723794 149 139 138
0.07573098 0.41081023 1.87026378 153 149 146
0.06978720 0.41747377 1.88653950 144 143 142
0.07979620 0.42964309 1.86618802 169 165 163
0.07294635 0.42920289 1.89168153 170 168 166
0.06514795 0.42476916 1.90955448 150 150 151
0.06237455 0.42506072 1.92582905 142 140 139
0.06131011 0.45437599 1.71041079 149 148 148
0.07441792 0.44466892 1.89356252 144 141 139
0.07291670 0.45159808 1.91135255 138 137 138
0.07079923 0.45733570 1.92857242 129 128 129
0.09685526 -0.28842714 1.19893618 211 211 219
0.09813610 -0.28939272 1.20193589 209 209 218
0.09588863 -0.27747478 1.19980860 213 214 222
0.09746181 -0.27153812 1.20385958 164 165 172
0.09883551 -0.25483625 1.21052504 76 77 87
0.09876098 -0.18341435 1.22252911 129 130 142
0.09902878 -0.17861669 1.22584414 215 215 225
0.08168163 -0.09138059 0.45421490 151 151 158
0.08413119 0.15691488 0.57047325 152 149 143
0.08348256 0.16249679 0.56428961 138 136 135
0.09972220 0.16616638 0.58731228 122 121 121
0.09644020 0.17296661 0.82954512 173 171 169
0.09417056 0.18211187 0.82588104 174 173 172
0.08274936 0.21405217 0.67559492 168 164 160
0.08202440 0.20980910 0.68452579 181 178 173
0.08280486 0.22498938 0.67569624 141 141 141
0.09493763 0.39618796 1.81062459 147 147 147
0.08692314 0.39672419 1.82969761 149 142 142
0.08239784 0.39919761 1.85216355 168 160 156
0.09540683 0.40410614 1.79574311 152 149 150
0.09405536 0.40632255 1.81255983 147 146 147
0.08899146 0.41083588 1.82631836 139 137 140
0.08349502 0.41206476 1.84813985 151 149 149
0.08784244 0.42464681 1.83214545 165 162 159
0.08521521 0.42895663 1.85161503 163 161 158
0.08029343 0.43069190 1.87781680 183 181 178
0.08051647 0.43514293 1.88303292 182 176 173
0.08515394 0.44390386 1.87058301 130 128 133
0.08051647 0.44816163 1.88303292 128 126 135
0.10919533 -0.28525142 1.19980860 141 142 152
0.11038726 -0.28689844 1.20302817 145 146 155
0.10383809 -0.27712915 1.19980860 191 193 200
0.10925022 -0.27146271 1.20397791 129 131 137
0.10591472 -0.25068713 1.20961929 107 108 119
0.10481647 -0.18608229 1.21922994 80 80 89
0.10693281 -0.18230601 1.22407989 151 152 159
0.11559309 -0.17572531 1.23291838 104 104 115
0.11961181 -0.16159323 1.24156010 76 75 89
0.11663588 -0.15182003 1.23844233 165 164 176
0.11963924 -0.15197013 1.24184486 165 165 177
0.11682273 -0.12574039 1.23929036 200 200 208
0.11644777 -0.12624267 1.24212962 203 203 211
0.11030274 0.16834577 0.58721946 147 144 142
0.10370048 0.17585606 0.81920496 166 163 163
0.10248647 0.17025056 0.82533067 169 165 164
0.11223307 0.18106973 0.59036987 158 158 152
0.11854634 0.33830497 1.81740439 164 164 164
0.11822937 0.34053323 1.81254506 152 150 157
0.10256519 0.39692432 1.81254506 138 138 142
0.11000741 0.39488196 1.83214009 161 161 161
0.10771406 0.39810988 1.84711671 151 151 151
0.10256519 0.40005714 1.81254506 152 152 154
0.10940637 0.40486938 1.84881276 165 165 166
0.11051127 0.41541101 1.86748481 174 174 172
0.10132888 0.42365062 1.84711671 144 143 146
0.10980850 0.42212427 1.88303292 173 173 170
0.11924129 0.62218547 1.87781680 167 162 162
0.11957251 0.62716848 1.88303292 167 165 164
0.11795612 0.63600183 1.90955448 155 156 154
0.11262411 0.63657343 1.93131578 142 141 143
0.11828934 0.64110827 1.91494870 153 155 152
0.11729582 0.64781624 1.93499450 152 153 150
0.11307626 0.65235814 1.95358691 152 151 149
0.10779043 0.65783286 1.96490383 164 160 159
0.11151077 0.66486478 1.97063243 155 152 146
0.10873596 0.67045522 1.98213995 157 151 149
0.12500609 -0.28456203 1.20346190 76 76 88
0.12364255 -0.27669720 1.20193589 80 79 96
0.13280443 -0.18379246 1.23599212 120 119 126
0.12808771 -0.17081212 1.23802688 75 74 87
0.13463337 -0.16957611 1.24156010 74 73 87
0.12873206 -0.15414822 1.23876850 143 144 154
0.13171455 -0.14897960 1.24380355 187 188 198
0.12951677 -0.12758272 1.24766281 178 179 187
0.13067936 -0.11814348 1.24728166 75 74 85
0.13351566 0.17938598 1.10766637 139 138 144
0.13395411 0.19283149 1.10954695 161 158 157
0.12783407 0.19403227 1.12420759 142 140 141
0.13286904 0.20559662 1.11115530 166 163 162
0.12720989 0.20544749 1.12678831 140 138 138
0.12636463 0.21549819 1.14702511 126 127 129
0.13097832 0.33419800 1.81218519 174 173 173
0.13467248 0.33306458 1.82310857 175 174 175
0.12015703 0.33971757 1.84209740 169 169 169
0.13008329 0.34726461 1.81497708 173 171 171
0.13301366 0.35505712 1.82509668 178 174 173
0.12797005 0.36029360 1.81740439 171 168 166
0.13436485 0.36193373 1.82967091 172 168 167
0.12172798 0.67336935 1.97061586 141 139 135
0.14277446 -0.18363758 1.23772540 163 165 171
0.15410976 -0.17149569 1.23903909 212 214 223
0.14964743 -0.16799029 1.24215072 175 177 186
0.14938132 -0.15487176 1.23929036 172 172 181
0.15026504 -0.15040229 1.24602811 123 123 136
0.15027431 -0.12974554 1.25006697 127 126 137
0.15570688 -0.11617009 1.24536479 216 216 224
0.15108791 0.17439779 0.77795801 172 172 167
0.15071674 0.17481248 0.78473985 154 150 151
0.15991260 0.19689365 0.77918601 167 159 159
0.15500935 0.19159748 0.78558150 161 158 156
0.14328494 0.19524360 1.10694922 161 155 156
0.14684765 0.21029213 0.45619884 0 0 0
0.14888808 0.21612072 0.46884314 0 0 0
0.15538277 0.20015190 0.78581699 132 130 132
0.14161253 0.20257181 1.10361105 134 133 133
0.15059397 0.22099367 0.47941431 0 0 0
0.15239239 0.22613095 0.49055891 0 0 0
0.15524135 0.23426913 0.50821356 0 0 0
0.15830304 0.24301501 0.52718649 0 0 0
0.15875033 0.26327738 0.67789489 160 156 151
0.15582713 0.33250477 1.79456016 145 140 142
0.15411747 0.33501273 1.81093822 153 148 148
0.14572141 0.33443507 1.82797582 175 169 170
0.15582342 0.34366608 1.81254506 154 149 148
0.14591305 0.34664090 1.82572952 175 172 170
0.15836403 0.35245323 1.84209740 165 157 157
0.17607197 -0.20419534 1.21238063 211 210 214
0.17782215 -0.19155338 1.21052307 209 208 215
0.16269929 -0.16563438 1.24506106 210 210 219
0.16534704 -0.14970565 1.24558216 100 100 113
0.16496547 -0.12964283 1.24534806 108 108 119
0.16392816 -0.11777480 1.24566743 214 214 223
0.16842815 0.07860674 0.59842221 122 118 123
0.17148550 0.07907865 0.60043561 118 112 123
0.16764572 0.08588321 0.59597116 134 132 134
0.17496621 0.16940824 0.67163685 157 154 152
0.16788533 0.16840130 0.69099731 155 154 155
0.16417757 0.17020251 0.70261927 155 152 152
0.16225534 0.19647105 0.77751251 159 153 152
0.16144493 0.19914268 0.78008264 173 172 172
0.16160223 0.25243930 0.54763114 0 0 0
0.16393699 0.25910866 0.56209940 0 0 0
0.16591984 0.25875614 0.67052220 137 134 130
0.16578300 0.26438186 0.57353884 0 0 0
0.16835863 0.27173927 0.58949971 0 0 0
0.17038153 0.27751780 0.60203540 0 0 0
0.16809633 0.26752765 0.67623981 145 141 135
0.16460563 0.27062505 0.68184795 166 161 154
0.17250258 0.28357670 0.61517927 0 0 0
0.17547181 0.29205844 0.63357919 0 0 0
0.17781186 0.29874289 0.64808017 0 0 0
0.17101592 0.28303151 0.67891037 0 0 0
0.16796505 0.28693304 0.68953518 45 42 40
0.17943643 0.30338353 0.65814739 0 0 0
0.16208909 0.33740041 1.81254506 152 144 146
0.16611023 0.33921438 1.82228994 152 146 145
0.19077500 -0.20103266 1.21197001 210 210 219
0.19005167 -0.18900090 1.21473066 186 186 194
0.19092675 -0.17575584 1.21548450 68 68 79
0.19335479 -0.05287131 0.53042985 59 57 58
0.18513245 0.17244566 0.66891949 168 167 166
0.18197706 0.31064096 0.67389137 0 0 0
0.18462779 0.31821290 0.69031757 0 0 0
0.18742650 0.32620756 0.70766088 0 0 0
0.19035272 0.33456644 0.72579426 0 0 0
0.19239406 0.34039766 0.73844427 0 0 0
0.19450784 0.34643576 0.75154305 0 0 0
0.19783330 0.35593507 0.77215049 0 0 0
0.20922735 -0.18829776 1.21144069 111 111 122
0.20375590 -0.17664962 1.21232702 102 103 110
0.21323360 0.15848516 0.51892742 133 130 132
0.21283842 0.15829472 0.52125609 130 127 128
0.21009365 0.16464962 0.51914029 158 156 151
0.21010839 0.16518422 0.52289232 162 159 154
0.20132439 0.36590755 0.79378438 0 0 0
0.20377010 0.37289384 0.80894017 0 0 0
0.20631103 0.38015214 0.82468593 0 0 0
0.21032725 0.39162463 0.84957391 0 0 0
0.21456411 0.40372744 0.87582928 0 0 0
0.21754742 0.41224942 0.89431643 0 0 0
0.22065939 0.42113888 0.91360086 0 0 0
0.22390851 0.43042019 0.93373531 0 0 0
0.22730409 0.44011980 0.95477724 0 0 0
0.23085622 0.45026663 0.97678941 0 0 0
0.23457602 0.46089241 0.99984050 0 0 0
0.23847562 0.47203180 1.02400577 0 0 0
0.25270212 0.11941203 0.45422959 170 166 165
0.25394143 0.12465934 0.45537922 162 160 156
0.24631035 0.17847604 0.91896808 174 173 168
0.24532473 0.17765721 0.92685708 168 168 167
0.24950430 0.18522068 0.93062132 167 164 164
0.24906336 0.19183894 0.94807394 146 143 143
0.25194208 0.21690803 0.54358336 170 171 163
0.25378347 0.20998249 0.95619218 156 151 151
0.25409924 0.21020006 0.96808703 162 159 157
0.25038697 0.21630637 0.98388615 165 164 163
0.24919091 0.22672078 0.54471041 145 145 142
0.24256839 0.48372298 1.04936814 0 0 0
0.24686904 0.49600801 1.07601881 0 0 0
0.25139382 0.50893331 1.10405838 0 0 0
0.25616077 0.52255023 1.13359845 0 0 0
0.27545419 0.13776294 0.47828892 141 138 135
0.27670286 0.13682742 0.48189327 138 134 129
0.27748750 0.13616191 0.59609130 165 165 163
0.27666598 0.14347932 0.47824983 139 139 135
0.27811814 0.14087407 0.59748872 166 164 165
0.26800925 0.19077332 0.93556280 180 176 174
0.26719658 0.19590229 0.94687755 174 171 169
0.27307737 0.20989604 0.93631470 184 176 174
0.27084676 0.20768699 0.95137600 176 172 169
0.26626154 0.21072058 0.96589720 153 150 150
0.26118979 0.53691590 1.16476262 0 0 0
0.26650313 0.55209374 1.19768882 0 0 0
0.27212563 0.56815463 1.23253059 0 0 0
0.27808502 0.58517802 1.26946032 0 0 0
0.28062255 0.13561275 0.47930138 160 159 156
0.28128502 0.13551729 0.48043385 152 148 147
0.28693912 0.13490951 0.59755578 169 169 162
0.29286191 0.12971463 0.60140518 147 144 143
0.29834643 0.13523547 0.77361297 169 166 164
0.28188975 0.14490587 0.47785957 134 134 135
0.28310575 0.14059952 0.59508196 174 173 166
0.29924893 0.14249415 0.77267663 168 164 163
0.29675334 0.27378184 0.71495861 170 167 160
0.29621512 0.27441539 0.72377765 164 164 156
0.29787699 0.28125920 0.71886891 173 168 162
0.29366124 0.29114898 0.72965146 157 153 150
0.29469216 0.29379799 0.74706958 156 155 151
0.28441259 0.60325301 1.30867147 0 0 0
0.29114351 0.62248015 1.35038221 0 0 0
0.29831761 0.64297336 1.39483917 0 0 0
0.30123087 0.13494282 0.77686542 164 160 157
0.31454419 0.13324164 0.79187881 164 160 159
0.31748313 0.15007849 0.75599945 154 149 151
0.31372214 0.15034533 0.77176380 151 148 148
0.31362955 0.14385412 0.78809786 144 142 141
0.31485717 0.16259588 0.77617668 175 170 167
0.31919715 0.16476079 0.78008264 159 158 153
0.30041702 0.27218208 0.71678436 169 169 158
0.30181252 0.28427034 0.72309184 168 165 158
0.30598018 0.66486180 1.44232309 0 0 0
0.31418282 0.68829304 1.49315381 0 0 0
0.32084983 0.13403353 0.79314413 156 155 152
0.32626869 0.14970748 0.75647555 171 170 163
0.32555390 0.15661010 0.76423473 159 156 154
0.32551596 0.16316338 0.76860317 170 168 164
0.32298476 0.71343619 1.54769826 0 0 0
0.33245412 0.74048591 1.60637879 0 0 0
0.34266984 0.76966763 1.66968429 0 0 0
0.35372379 0.80124372 1.73818421 0 0 0
0.36861345 0.33635771 1.09514034 157 156 151
0.37040865 0.33989790 1.10047376 161 158 153
0.37456955 0.34764075 1.11031546 168 166 161
0.37463886 0.35224756 1.12264872 170 169 163
0.37815047 0.36562391 1.12839496 167 165 162
0.37546703 0.38300361 1.17587927 142 142 142
0.37254043 0.39167859 1.19385530 163 160 155
0.37200570 0.39105558 1.20989459 164 159 154
0.37309910 0.39505414 1.22919041 173 168 162
0.37658869 0.39804980 1.24689249 171 169 162
0.36931804 0.40408124 1.19769128 170 167 162
0.37403980 0.41295504 1.21072784 166 163 157
0.37167696 0.40918312 1.23001335 171 168 165
0.37336659 0.40715953 1.24744935 168 167 163
0.37884599 0.40274188 1.26158631 171 168 162
0.37673795 0.42066923 1.21268666 166 165 161
0.36572352 0.83552152 1.81254506 0 0 0
0.37879586 0.87286329 1.89355266 0 0 0
0.39990687 0.14071825 0.48839471 174 173 161
0.38535249 0.35297756 1.11373852 170 167 161
0.38397169 0.35673959 1.12233994 177 174 166
0.38611662 0.36332220 1.11102080 153 152 150
0.38520600 0.36724934 1.12622690 159 154 153
0.38253224 0.37383096 1.15028294 163 160 158
0.38534670 0.37722814 1.16276705 164 161 158
0.38737796 0.38131540 1.15385932 147 144 143
0.39004005 0.38591993 1.16678349 148 145 143
0.38952634 0.38944720 1.19234758 149 148 146
0.39112573 0.39727784 1.20278986 143 142 140
0.39899004 0.40097585 1.19768882 142 138 136
0.39131920 0.40365914 1.21111766 140 138 136
0.39440056 0.41452644 1.22826132 128 122 124
0.38019425 0.42217970 1.21704102 166 163 157
0.39030112 0.42325128 1.23101008 152 148 146
0.39838538 0.42633575 1.24766028 139 135 135
0.39309132 0.91369897 1.98213995 0 0 0
0.41937710 0.10968088 0.50753077 170 169 160
0.41240898 0.13407086 0.45198690 145 144 140
0.40665520 0.13380328 0.49207301 158 157 151
0.40998325 0.14105341 0.45238294 145 141 131
0.40164331 0.14078580 0.48804318 172 171 160
0.41826297 0.21686507 0.69192470 117 115 115
0.41641990 0.22641919 0.69652656 151 148 138
0.40030128 0.39610639 1.18928397 146 144 140
0.40336687 0.40190245 1.19839541 146 141 139
0.40803429 0.41180015 1.21253234 141 136 135
0.40569246 0.41569510 1.22454775 127 124 125
0.41385114 0.42007613 1.21704102 162 162 156
0.41148419 0.42871881 1.23043712 144 142 140
0.41019683 0.43385846 1.24879223 123 121 121
0.41825446 0.44309772 1.23627786 160 156 151
0.41799186 0.44385801 1.25150780 151 149 147
0.41628100 0.44655276 1.26563440 137 133 131
0.41360733 0.45117038 1.28145909 148 140 138
0.42538868 0.10338972 0.49973604 145 144 140
0.42539885 0.10647005 0.50664847 150 149 143
0.43574561 0.14735801 0.79788229 169 169 163
0.43640298 0.15352201 0.80403781 175 173 166
0.43890275 0.16095302 0.80255572 172 171 166
0.43849349 0.20584278 0.45162681 163 160 147
0.42299008 0.21778572 0.69379480 129 125 123
0.42311574 0.22582056 0.69737281 129 127 124
0.42211840 0.22356115 0.70030147 127 126 124
0.43434640 0.23477880 0.77125153 135 131 130
0.43199980 0.23670697 0.78518256 157 152 147
0.43478724 0.24102072 0.77762535 138 135 134
0.43207300 0.24149035 0.78776740 165 159 154
0.43229522 0.24552183 0.80619185 171 169 162
0.43834441 0.25016282 0.82143900 169 168 163
0.42040314 0.41819607 1.22696263 147 138 139
0.42164804 0.42475889 1.23058958 166 163 157
0.42557043 0.43479380 1.24307883 176 173 167
0.42293501 0.44207253 1.23590639 167 162 157
0.42615135 0.45318983 1.25127409 153 153 151
0.42326470 0.45599286 1.26581982 140 139 139
0.42487642 0.45819867 1.28876781 138 137 137
0.42742042 0.46552245 1.25292934 142 143 139
0.42678134 0.46920943 1.26381381 137 137 136
0.42827359 0.46966912 1.29230804 129 129 128
0.43123925 0.47298509 1.30806792 125 125 124
0.43269160 0.48137096 1.31247330 127 126 124
0.43892109 0.48741058 1.33838600 126 126 125
0.43964541 0.48613825 1.34769750 125 124 123
0.45110990 -0.30547046 0.48785100 110 118 118
0.45283204 -0.29818643 0.48973796 109 118 116
0.44364744 0.13936569 0.79285598 185 183 170
0.44756909 0.14926555 0.79575491 165 163 158
0.44647355 0.15339284 0.80447173 159 155 151
0.44397491 0.17875225 0.59884533 159 160 159
0.44549991 0.17824360 0.60343610 149 149 148
0.45145473 0.16124161 0.79940075 169 168 165
0.44975165 0.16296811 0.80765164 165 164 159
0.45854472 0.16864546 0.82201950 182 180 172
0.44387851 0.18553766 0.59623119 170 168 161
0.44621943 0.18817224 0.60641667 163 163 158
0.45336512 0.19861613 0.62284067 175 175 166
0.45320566 0.20449448 0.61879689 147 147 143
0.45629204 0.20661248 0.62567610 149 149 145
0.44306495 0.25198722 0.83298311 166 165 161
0.44831595 0.25282624 0.84505532 163 160 158
0.44128129 0.49205022 1.34986448 122 122 120
0.44240535 0.49582079 1.36580817 115 115 117
0.44499764 0.50194031 1.37503982 125 123 123
0.46601687 0.11909425 0.45050184 165 166 157
0.47141831 0.12487200 0.45162197 161 161 152
0.46368850 0.17307984 0.82964405 184 181 173
0.46843785 0.17618478 0.84105819 184 181 174
0.46262525 0.21221784 0.63717400 149 149 144
0.46651791 0.21391248 0.64800257 157 157 149
0.46760130 0.22416935 0.64977310 171 171 161
0.47682662 0.23477591 0.66642878 157 157 151
0.47928464 0.24002397 0.67184526 156 153 147
0.47361137 0.25453039 0.89550327 169 168 161
0.47534105 0.25706544 0.90996456 168 166 163
0.47878851 0.25903854 0.93119743 157 153 152
0.47740696 0.26143593 0.93161692 151 150 150
0.49912161 0.07104853 0.50191911 109 112 115
0.48576855 0.25203895 0.91475428 159 159 157
0.48739877 0.25157790 0.93121800 148 144 144
0.48957120 0.25105070 0.94458753 157 151 148
0.48022538 0.26006472 0.93631470 152 150 149
0.48227140 0.26036428 0.94722510 139 130 134
0.50348568 0.07021859 0.49930732 118 122 122
0.50634494 0.06631505 0.50526093 121 122 122
0.50305853 0.24715455 0.94681092 139 136 133
0.51197345 0.24818888 0.96567590 165 158 150
0.53034674 0.25138747 0.63078387 121 120 114
0.53342964 0.24678343 0.64296665 133 132 128
0.55978262 -0.38092135 0.70909190 110 116 115
0.55830405 -0.37457828 0.70388404 110 113 115
0.54638252 0.24979990 0.63554169 131 132 126
0.54819603 0.24743037 0.65226823 139 137 131
0.55425314 0.24707592 0.66260198 166 164 154
0.56821424 -0.38387622 0.70821211 111 115 115
0.56919747 -0.37341935 0.70443590 110 115 115
0.57832126 0.05388727 0.53900790 155 155 149
0.57743282 0.05746394 0.54052246 153 153 148
0.57766098 0.06040276 0.54015285 131 137 133
0.56307640 0.23943141 0.65539106 155 157 147
0.56276569 0.24370319 0.65786929 148 147 139
0.56303534 0.24749842 0.66386633 153 152 141
0.58521548 -0.38332614 0.70852712 110 116 115
0.58511373 -0.37864724 0.70838652 110 116 113
0.58192834 0.05366527 0.53868899 157 158 153
0.58477861 0.05065041 0.54069163 161 162 153
0.59611130 0.25447781 0.55606718 151 152 148
0.59610942 0.25769790 0.56184640 161 162 153
0.59662625 0.26220217 0.55609371 140 140 136
0.59830154 0.26225537 0.56444829 155 155 147
0.61148855 -0.22540464 0.75828706 97 104 105
0.60850984 -0.22658021 0.76082134 91 97 98
0.61414472 -0.21951239 0.75911742 96 103 103
0.60279698 0.25399906 0.55770739 135 135 134
0.60052395 0.26083224 0.55747721 131 130 128
0.61735540 0.30277015 0.69207121 109 108 110
0.62334012 -0.46318985 0.79834230 108 116 117
0.62296741 -0.46355686 0.80034459 110 118 118
0.62403014 -0.45633761 0.79893033 109 115 116
0.63132281 -0.45523341 0.80261287 109 116 115
0.62884432 -0.22107202 0.75996846 97 98 103
0.62481904 -0.22191030 0.76140275 94 101 103
0.62884432 -0.21975848 0.75996846 97 98 102
0.62713679 -0.21650573 0.76191312 97 101 102
0.63664888 -0.18680553 0.63173878 91 99 98
0.63583651 -0.17747027 0.63068646 89 97 97
0.62274224 0.29976073 0.69456130 137 138 131
0.63310263 0.29781733 0.70943728 167 166 151
0.62289799 0.30099481 0.69742532 127 127 124
0.62994332 0.30187488 0.70896684 151 152 143
0.64460266 -0.46137358 0.80382484 108 117 116
0.64449655 -0.45473063 0.80469499 111 117 116
0.64055323 -0.19176839 0.63243862 90 99 99
0.65336558 0.19173389 0.66951820 151 152 145
0.65802473 0.20267968 0.67058674 158 158 148
0.67771510 0.03771085 0.57173176 117 121 119
0.67448504 0.04351442 0.56643051 153 155 149
0.66251540 0.20687804 0.67547133 154 154 145
0.67125005 0.21482559 0.68404830 153 153 144
0.67184608 0.33907159 0.87696597 130 130 125
0.67633490 0.33728064 0.89116316 120 120 118
0.66852105 0.34297974 0.87791041 148 148 136
0.67372673 0.34257572 0.88859902 129 130 121
0.68858988 0.03686834 0.57443214 127 127 126
0.69825995 0.03016889 0.58121657 113 109 111
0.68534697 0.04159013 0.57099408 152 153 148
0.68514489 0.33525092 0.89457805 142 142 137
0.68384778 0.34242925 0.88962185 121 121 117
0.70290637 0.39419989 0.95747626 126 127 127
0.70556223 0.39628492 0.96052721 121 122 122
0.70997932 0.41087676 0.95585532 131 128 128
0.71366312 0.41085596 0.97162877 128 125 121
0.71714506 0.42581977 0.97274924 146 145 139
0.71776794 0.42847333 0.98374107 142 139 131
0.72103417 0.42996622 0.97668564 151 150 144
0.72257774 0.42999145 0.98625375 144 140 133
0.77602063 -0.46162627 0.88671942 113 114 116
0.77453705 -0.45115341 0.87873121 108 114 114
0.77519569 -0.44857161 0.88322921 107 113 114
0.77717777 -0.43458373 0.87923717 103 112 117
0.77717044 -0.43771520 0.88095143 103 112 117
0.77522233 -0.16139430 1.62955713 59 58 57
0.77374202 -0.16201233 1.64536858 58 58 57
0.77945805 -0.15045049 1.61788034 56 56 56
0.77638573 -0.15183240 1.62874386 56 56 56
0.77569577 -0.15081167 1.64382033 56 56 56
0.77945805 -0.12248674 1.61788034 54 54 55
0.77433480 -0.13608741 1.62999867 55 56 56
0.77760220 -0.11801053 1.61402822 54 53 55
0.78072375 -0.45028719 0.87923717 105 115 116
0.78329212 -0.44665643 0.88273250 107 115 115
0.78173685 -0.43556835 0.87866771 105 113 117
0.78218394 -0.43719873 0.88195540 105 113 116
0.78426881 -0.14406896 1.62704360 55 55 55
0.78037596 -0.14625195 1.64937186 57 57 57
0.78395628 -0.12410542 1.61467330 55 54 55
0.78491979 -0.13166618 1.62689867 56 56 56
0.87854763 0.44341376 1.30867473 139 139 137
0.88314685 0.44431114 1.31693503 139 140 136
0.89425784 0.44492765 1.32996186 120 120 120
0.89729601 0.44709039 1.34236014 130 130 130
0.90815281 0.43789550 1.35219342 153 151 149
0.91709865 0.43774116 1.36594605 156 152 146
0.90782218 0.44807529 1.33445047 128 129 125
0.91022761 0.44549930 1.34787833 133 133 130
0.91576426 0.44177347 1.37087578 150 148 147
0.93738669 -0.74944962 1.27567799 106 113 114
0.93987668 -0.74992478 1.28632224 104 110 110
0.93747625 -0.72673212 1.27759774 103 113 113
0.93853813 -0.73380011 1.28145909 104 112 112
0.93192607 0.43560799 1.37605252 157 154 146
0.93958503 0.43358889 1.38063514 159 159 149
0.92794015 0.45004949 1.35257957 141 139 132
0.92971939 0.44418058 1.36695295 149 145 137
0.94306177 -0.74829075 1.27783680 107 113 113
0.95051334 -0.74931854 1.29052034 108 113 115
0.94427799 -0.72973609 1.27766475 106 113 115
0.94881880 -0.72992734 1.28535707 105 113 116
0.94005680 0.43270764 1.37782896 156 156 150
0.94173697 0.43642010 1.38204396 160 160 151
0.94705415 0.45083973 1.35714221 146 142 132
0.95190929 0.45421749 1.37088587 148 143 134
0.94165883 0.44294002 1.38251356 152 147 136
0.96202791 -0.75421825 1.29368675 107 115 114
0.96098536 -0.72372466 1.29781568 108 112 117
0.99872519 0.01087156 0.87385374 133 140 136
0.99686503 0.42196557 1.59880149 153 154 154
0.99816215 0.42145060 1.60384703 141 141 141
1.01104422 0.01133603 0.87643949 127 132 131
1.01696400 0.01078011 0.88181267 118 124 124
1.00841158 0.41213764 1.66866680 142 138 135
1.01373264 0.41175568 1.68421116 159 157 150
1.00536944 0.42312089 1.61022166 154 154 154
1.01362922 0.42696581 1.63021473 147 147 147
1.01737229 0.43425293 1.64537501 128 128 128
1.01033297 0.42622003 1.67084416 141 135 130
1.01647457 0.43069131 1.68999606 154 151 142
1.01973689 0.44104645 1.68211377 124 123 122
1.02311895 0.00881164 0.87772124 129 131 130
1.02624494 0.01259904 0.88820263 124 130 129
1.03159936 0.02206201 0.89609547 143 144 143
1.03637917 0.39182710 1.67052507 163 162 158
1.03538489 0.39404376 1.68630856 173 172 168
1.03229875 0.41540557 1.67087672 148 145 141
1.03094639 0.41107237 1.68736778 160 154 149
1.02413046 0.42264664 1.63347435 164 164 164
1.02585735 0.42375898 1.64805697 160 161 156
1.02779682 0.43061618 1.67138842 142 140 138
1.03033100 0.43153272 1.68962924 143 137 134
1.02600518 0.44330663 1.67691436 113 113 113
1.02726361 0.44349709 1.68925647 129 128 126
1.03294865 0.44945213 1.71041079 135 135 133
1.04460200 0.38776717 1.67382061 155 155 152
1.04644805 0.39486312 1.68771032 164 162 160
1.04706279 0.39622681 1.70611330 170 169 168
1.04389254 0.41631257 1.67039514 155 153 149
1.04630757 0.41042543 1.68823688 162 157 150
1.04809875 0.41046695 1.70811975 171 167 160
1.05492556 0.40354016 1.72053766 174 174 172
1.04491790 0.42143330 1.66969109 167 166 163
1.04803930 0.42576138 1.69262693 155 152 148
1.05094423 0.43028454 1.71185406 154 150 144
1.05433080 0.43149397 1.72053766 150 144 139
1.04170597 0.44840452 1.69897699 108 108 108
1.04828912 0.44088979 1.70971388 160 155 153
1.06845686 0.41315280 1.71006052 147 143 141
1.06921595 0.42209297 1.70539099 153 149 145
1.07871604 0.42286992 1.72053766 156 153 150
1.08986405 0.39624263 1.24613008 134 127 125
1.08804178 0.40624961 1.23253059 165 165 157
1.09525434 0.40311956 1.25403176 146 143 141
1.09747383 0.41321908 1.26695917 125 125 123
1.08283367 0.41624006 1.72141325 156 154 155
1.09094363 0.43018237 1.23702896 160 160 156
1.09594530 0.43000337 1.24269915 159 159 155
1.08168995 0.42286992 1.72053766 163 161 158
1.10490617 0.40962218 1.25594401 163 163 156
1.10470861 0.41427663 1.26645207 148 149 144
1.10022569 0.41794693 1.28145909 121 120 119
1.10731053 0.41992214 1.75165856 150 150 150
1.10540823 0.42757792 1.25343154 155 156 151
1.11526404 0.42679903 1.27030544 153 153 148
1.11703434 0.42762760 1.28878725 130 130 128
1.10791196 0.42442330 1.74941287 164 164 162
1.11712058 0.42717576 1.76075804 165 165 163
1.12203479 0.43161931 1.27603704 151 152 146
1.12650409 0.43474958 1.29017396 142 143 139
1.12832266 0.43827900 1.30238706 129 130 130
1.12495796 0.43183678 1.77150508 163 163 161
1.12894714 0.44262474 1.29535613 142 143 141
1.13274386 0.44378233 1.30531915 137 137 137
1.13686693 0.44115195 1.78863287 168 167 163
1.13934147 0.61943460 1.66149962 135 129 127
1.13934147 0.62230635 1.66149962 129 123 123
1.14312315 0.40270773 1.61019444 173 170 168
1.15965021 0.41276500 1.63347435 169 167 164
1.14600587 0.43727645 1.79812157 174 174 170
1.14156878 0.44891289 1.31374383 141 141 141
1.15567970 0.44620449 1.80910364 168 166 162
1.15361063 0.61888756 1.67011080 151 149 146
1.15634656 0.61993599 1.68629813 153 145 139
1.14801478 0.62078482 1.65743732 153 154 150
1.15120570 0.62563310 1.67038330 142 140 137
1.15470042 0.62843087 1.68450781 139 134 130
1.17956543 0.41943890 1.66558194 170 169 166
1.17237824 0.42300925 1.65140295 168 161 160
1.17764215 0.42293230 1.66422117 167 164 162
1.16181386 0.45778468 1.33970726 139 139 139
1.16960866 0.44501948 1.81448879 168 167 163
1.16928005 0.45445554 1.82969761 162 161 160
1.17723227 0.46515432 1.84711671 156 153 153
1.16223454 0.61610544 1.67587858 161 161 154
1.16509044 0.61993599 1.68629813 161 160 153
1.16512305 0.63426822 1.67795014 154 155 148
1.16465439 0.63190627 1.69051836 148 147 141
1.16648814 0.63478461 1.70862499 144 136 131
1.17687255 0.63562402 1.72492677 150 142 136
1.17150166 0.64741412 1.69643278 142 142 136
1.17386990 0.65326307 1.71049331 140 138 133
1.17407714 0.64957242 1.72684635 140 135 127
1.17993033 0.65119576 1.74265254 156 149 138
1.17645709 0.66388953 1.71131727 155 155 146
1.17487866 0.66295188 1.72491934 151 150 141
1.18249750 0.41861716 1.67380702 168 169 162
1.18539498 0.42843182 1.67450094 171 168 163
1.19431391 0.43178995 1.69146352 176 174 168
1.19650429 0.44352873 1.69158092 173 173 165
1.19463646 0.44108018 1.71618187 175 175 166
1.19766843 0.44517350 1.72053766 174 174 165
1.18352067 0.44871596 1.83214009 172 171 164
1.18361735 0.45238394 1.84711671 175 174 170
1.18524641 0.46963005 1.85217732 165 162 160
1.19161476 0.47565006 1.86462355 167 165 163
1.18719280 0.65300345 1.71185899 144 145 142
1.18444836 0.64215967 1.74265254 148 141 133
1.20641363 0.41925481 1.71184814 180 177 169
1.20344651 0.42969702 1.71099877 173 173 165
1.21193490 0.43294166 1.72893431 172 171 163
1.20208478 0.44324559 1.69051035 171 169 166
1.20637349 0.44741229 1.70987136 176 175 166
1.20943697 0.45097322 1.73051101 174 175 164
1.21216289 0.45608085 1.74715165 170 171 160
1.21122287 0.46695689 1.73415522 163 158 150
1.21629840 0.46824301 1.75121872 161 157 149
1.20734906 0.47509849 1.87190061 167 165 162
1.20967579 0.48128915 1.87262940 169 168 164
1.20771706 0.48287810 1.88303292 168 167 164
1.22222896 0.43394594 1.74715165 171 169 161
1.23496032 0.43540779 1.76534331 177 176 167
1.22307462 0.45823324 1.72492120 171 167 158
1.22640783 0.46566877 1.73596150 173 168 157
1.22852535 0.47424066 1.77367384 160 156 148
1.23742974 0.47424129 1.79099876 161 159 150
1.24124396 0.43348539 1.76995254 179 179 169
1.25766253 0.43611965 1.79336464 179 179 170
1.27390969 0.51907063 1.52678347 169 169 165
1.29741244 0.49600104 1.54534793 169 171 157
1.30235910 0.50593573 1.55123997 152 152 139
1.31624568 0.50831059 1.57101446 169 170 156
1.31538570 0.53052098 1.57649267 176 173 165
1.31572068 0.53722000 1.58016741 169 169 163
1.31879485 0.54121274 1.58385944 169 169 165
1.32083547 0.49782288 1.57649267 150 148 139
1.32970511 0.49312351 1.59532089 155 153 145
1.33171703 0.49350354 1.60830676 162 162 153
1.33632958 0.49249297 1.62175083 162 162 153
1.32083547 0.51144707 1.57649267 156 155 144
1.32948904 0.50892863 1.59155571 163 163 152
1.33305680 0.50951425 1.60746323 159 156 149
1.33632958 0.51351598 1.62175083 164 157 154
1.33386160 0.53064746 1.59739299 169 168 157
1.33646716 0.52822736 1.60748708 170 170 157
1.33933347 0.52395085 1.62369537 160 159 149
1.33793950 0.55021155 1.61019444 166 166 162
1.34688723 0.30713633 1.95922494 178 180 171
1.35471797 0.30551594 1.97061586 163 164 162
1.34132725 0.51866314 1.61595428 163 167 154
1.34102276 0.52778684 1.60972431 171 171 158
1.35069519 0.53077252 1.62995733 168 167 155
1.35392648 0.53249937 1.64138460 168 165 154
1.34325886 0.54680856 1.61659630 167 167 159
1.35186617 0.54842114 1.62695503 173 174 164
1.35469421 0.54188581 1.64404058 171 171 162
1.35402048 0.56245774 1.62954772 165 165 158
1.37856030 0.29870385 1.97061586 175 176 169
1.36208355 0.30640668 1.97636104 167 168 166
1.36663628 0.30476776 1.98795259 154 154 155
1.36267072 0.53740799 1.64337659 170 168 157
1.36529732 0.55001808 1.64938105 171 171 160
1.36764193 0.56217328 1.64937186 165 165 158
1.37786682 0.57203913 1.66286039 164 164 156
1.39445662 0.29833381 1.99087608 157 157 152
1.38613715 0.30374997 1.99030514 166 167 161
1.38159895 0.57631135 1.66968429 160 161 155
1.39755785 0.71488583 1.59880149 146 147 142
1.40167093 0.29877189 1.99379957 156 156 152
1.41820824 0.72688633 1.62563992 144 145 139
1.43826342 0.73286390 1.64536858 137 138 135
1.44308352 0.74396890 1.65743732 144 145 136
1.44830871 0.75186139 1.67176604 136 137 131
1.45655334 0.75983822 1.68629813 135 137 130
1.45726383 0.76173306 1.69050336 134 136 129
1.45794445 0.77925044 1.70324588 141 141 136
1.45647252 0.78219438 1.70324588 149 150 140
1.47240897 0.75715506 1.69335592 140 140 134
1.46689030 0.77530708 1.70754233 131 132 129
1.46642488 0.78293505 1.70970300 137 137 132
1.47387052 0.78444396 1.72272664 133 133 131
1.48345286 0.76936477 1.71401501 137 139 131
1.49007777 0.77286664 1.72580686 135 137 130
1.49920595 0.77920723 1.74265254 136 137 130
1.48325473 0.78071758 1.72932720 136 136 133
1.48715770 0.78523129 1.74265254 133 133 133
1.51125407 0.77619517 1.74265254 135 136 131
1.50392616 0.78626174 1.75165856 138 140 136
1.51187089 0.79088683 1.76536134 133 134 132
1.52437067 0.78528070 1.76305068 130 131 125
1.53210491 0.79871443 1.78627938 134 135 131
1.54786104 0.81094879 1.81012833 127 127 125
1.56142521 0.80204862 1.80771160 129 130 125
1.56562734 0.81385422 1.82720172 129 130 128
1.56458724 0.82461596 1.83710527 129 130 130
1.57865822 0.85027164 1.87262940 131 132 128
1.58475840 0.81412107 1.84209740 125 124 120
1.59457374 0.82402259 1.85723794 127 127 123
1.59484172 0.83732486 1.87262940 120 124 123
1.58742857 0.85825002 1.88303292 150 151 142
1.58303130 0.86236387 1.87781680 159 159 148
1.58742857 0.86150467 1.88303292 161 162 151
1.60217333 0.81984854 1.86234021 124 123 119
1.61466750 0.82837898 1.87435853 126 125 121
1.60748756 0.84510815 1.89003630 118 121 121
1.61513853 0.85801953 1.90419054 106 106 106
1.61040550 0.86330673 1.91225159 110 109 109
1.61558807 0.87194991 1.92037344 136 137 132
1.62475204 0.83639297 1.89620471 120 119 116
1.62374246 0.84248805 1.89885676 120 121 119
1.62616843 0.85134276 1.91135760 114 115 114
1.63882256 0.84871548 1.92037344 116 116 114
1.62878579 0.87065664 1.93408266 102 102 101
1.63499399 0.87466121 1.94610453 91 88 89
1.63532908 0.87360043 1.96898622 83 75 80
1.62479377 0.88359455 1.93131578 156 156 145
