ply
format ascii 1.0
element vertex 1108
property float x
property float y
property float z
property uchar red
property uchar green
property uchar blue
end_header
0.58974244 0.41383425 1.04235667 127 123 114
0.58985426 0.42929577 1.04944025 124 114 109
0.58958477 0.44674727 1.05711473 99 88 86
0.59108641 0.45663001 1.06113946 90 83 79
0.58956455 0.46980307 1.06783012 27 26 24
0.59039744 0.48755671 1.07671360 0 0 0
0.58979770 0.49725559 1.08075043 0 0 0
0.58992672 0.50994284 1.08578400 0 0 0
0.58996009 0.53051681 1.09354281 0 0 0
0.58939467 0.54475013 1.09863994 0 0 0
0.59029784 0.55391597 1.10195542 0 0 0
0.58993537 0.56995205 1.10769952 0 0 0
0.59003332 0.58991521 1.11452289 0 0 0
0.58951713 0.60254552 1.11882199 0 0 0
0.59032047 0.61309462 1.12239352 0 0 0
0.59001794 0.63015895 1.12804780 0 0 0
0.58944602 0.64219730 1.13209584 0 0 0
0.60824180 -0.62807532 0.93384570 4 4 4
0.61088493 -0.61652561 0.91508150 55 56 56
0.60004321 -0.61855859 0.92641348 70 72 65
0.60991855 -0.46387408 0.69294912 101 103 98
0.60991855 -0.45010045 0.69294912 99 103 101
0.60991855 -0.43033830 0.69294912 101 104 103
0.60991855 -0.40997729 0.69294912 103 104 102
0.60991855 -0.38961628 0.69294912 103 102 100
0.60991855 -0.36985412 0.69294912 100 101 99
0.60991855 -0.35009196 0.69294912 97 98 98
0.60991855 -0.32973095 0.69294912 93 96 96
0.60991855 -0.30996880 0.69294912 91 93 93
0.60991855 -0.29020664 0.69294912 88 91 91
0.60991855 -0.26984563 0.69294912 88 90 89
0.60991855 -0.25008347 0.69294912 86 88 89
0.60991855 -0.23032132 0.69294912 84 87 87
0.61002265 -0.20999477 0.69306683 83 85 86
0.60996177 -0.18999744 0.69427778 81 83 83
0.61000974 -0.16989272 0.69591004 78 80 81
0.60992471 -0.14981812 0.69755116 76 78 80
0.60935723 -0.13528827 0.69927165 76 79 80
0.61055293 -0.12546729 0.70105901 75 77 79
0.61010864 -0.10996504 0.70814238 61 59 59
0.60994370 -0.08982253 0.71283487 49 48 47
0.61002391 -0.07017559 0.71482641 51 49 48
0.61002174 -0.04994344 0.71678646 49 48 47
0.60990670 -0.03764690 0.71881424 78 77 73
0.60998131 -0.02807384 0.72767548 114 110 104
0.60910249 -0.01861450 0.73831480 143 140 132
0.61009992 -0.00859572 0.74936829 118 117 114
0.60986813 0.00091601 0.75923555 125 126 119
0.60990993 0.01094816 0.76914761 130 128 123
0.60841450 0.02149483 0.77913538 105 105 103
0.61014147 0.03111897 0.78804780 101 100 98
0.61000360 0.04234484 0.79804305 91 91 90
0.60991561 0.05193374 0.80638462 128 125 119
0.61004287 0.06383164 0.81646176 119 118 111
0.61004642 0.07444797 0.82526760 120 115 108
0.60996194 0.08692229 0.83530122 115 111 102
0.61005006 0.09644515 0.84289622 101 94 89
0.60998869 0.10854309 0.85248434 90 87 83
0.61003914 0.11851359 0.86034281 77 75 74
0.61000431 0.12943430 0.86868593 82 79 79
0.60989468 0.14224823 0.87834026 90 89 88
0.61002733 0.15271461 0.88613972 86 84 82
0.61005115 0.16600408 0.89585882 125 118 110
0.60994454 0.17585341 0.90288955 138 130 123
0.61022546 0.19047089 0.91291592 133 129 122
0.60992267 0.21002375 0.92600863 130 128 121
0.61016585 0.22515323 0.93580199 126 122 117
0.60985975 0.23580532 0.94283124 129 121 112
0.61002439 0.25034520 0.95182692 127 121 112
0.61033264 0.26220359 0.95893154 109 101 95
0.60988947 0.27225296 0.96498720 106 99 92
0.60992639 0.28839648 0.97438855 91 87 84
0.60985076 0.29870234 0.98081624 130 127 117
0.61006404 0.31017645 0.98783179 124 119 113
0.61000795 0.32587088 0.99652628 91 90 89
0.60986372 0.33652324 1.00246479 128 126 117
0.61013745 0.35041517 1.01026850 136 133 126
0.60983718 0.36447690 1.01789300 132 128 120
0.61014565 0.37443680 1.02313974 112 107 102
0.60985809 0.38966787 1.03068692 91 87 84
0.60989104 0.40397549 1.03786020 94 90 81
0.60973052 0.41394975 1.04264739 91 84 82
0.60985189 0.42953753 1.04989354 109 104 100
0.60967106 0.44607694 1.05738469 76 69 70
0.61081486 0.45589974 1.06144161 91 89 89
0.60993462 0.46910770 1.06760261 46 47 45
0.60971259 0.48651472 1.07692813 0 0 0
0.61085293 0.49671793 1.08116031 0 0 0
0.60999731 0.51015439 1.08640306 0 0 0
0.60985989 0.52998134 1.09391752 0 0 0
0.60956043 0.54313826 1.09869795 0 0 0
0.61022695 0.55322391 1.10235693 0 0 0
0.60995231 0.57041926 1.10852659 0 0 0
0.60998638 0.59023403 1.11530516 0 0 0
0.60899473 0.60192965 1.11927589 0 0 0
0.61002820 0.61211819 1.12275277 0 0 0
0.61031244 0.63023906 1.12877240 0 0 0
0.60946368 0.64267237 1.13293331 0 0 0
0.62081902 -0.63143990 0.93601374 0 0 0
0.62968071 -0.46387408 0.69294912 101 104 101
0.62968071 -0.45010045 0.69294912 103 105 102
0.62968071 -0.43033830 0.69294912 103 106 103
0.62968071 -0.40997729 0.69294912 102 105 103
0.62968071 -0.38961628 0.69294912 102 103 103
0.62968071 -0.36985412 0.69294912 99 101 102
0.62968071 -0.35009196 0.69294912 97 99 97
0.62968071 -0.32973095 0.69294912 94 96 96
0.62968071 -0.30996880 0.69294912 90 92 92
0.62968071 -0.29020664 0.69294912 87 93 91
0.62968071 -0.26984563 0.69294912 88 90 90
0.62968071 -0.25008347 0.69294912 86 88 88
0.62968071 -0.23032132 0.69294912 82 85 86
0.62986056 -0.21017171 0.69329450 82 84 85
0.62999207 -0.19007411 0.69465057 81 83 83
0.63002538 -0.17012007 0.69620429 77 80 81
0.62994726 -0.15005614 0.69795534 77 79 80
0.62880180 -0.13715112 0.69957726 75 78 79
0.63049696 -0.12747011 0.70139217 76 77 79
0.62995693 -0.10991067 0.70860375 58 58 58
0.63004383 -0.08971540 0.71301400 48 47 47
0.62998484 -0.07019037 0.71500152 51 49 48
0.63002097 -0.04993646 0.71694770 50 48 47
0.63000474 -0.03765993 0.71906394 86 78 76
0.63010533 -0.02813928 0.72841682 111 109 102
0.62936061 -0.01894840 0.73887395 144 142 131
0.62997936 -0.00893321 0.74992560 119 117 113
0.62283337 0.00091675 0.75984620 126 127 119
0.63018188 0.01037170 0.76948836 133 131 125
0.62761463 0.02115413 0.77965213 107 107 105
0.63015076 0.03081755 0.78860181 103 101 100
0.62902031 0.04204376 0.79849582 94 94 95
0.63021081 0.05147173 0.80670180 130 127 119
0.62966334 0.06329386 0.81662861 121 118 115
0.63030847 0.07391196 0.82541243 111 106 100
0.62978648 0.08633304 0.83532306 106 102 100
0.63029321 0.09582432 0.84284316 95 93 92
0.62998126 0.10869453 0.85296951 84 81 79
0.63035260 0.11855843 0.86066830 88 87 87
0.63000495 0.12944950 0.86898053 90 86 85
0.62940152 0.14219796 0.87853707 95 91 91
0.63025367 0.15254065 0.88624425 104 101 97
0.62997477 0.16604009 0.89610884 117 110 100
0.63009635 0.17595974 0.90318480 135 127 118
0.63007294 0.19046308 0.91315421 122 116 108
0.63002030 0.21004639 0.92633463 129 124 114
0.63017085 0.22518348 0.93606310 117 112 107
0.62997545 0.23576686 0.94289029 127 125 111
0.62990299 0.25039758 0.95203029 121 118 109
0.62867618 0.26197423 0.95910360 118 115 106
0.63019364 0.27183911 0.96529791 123 119 113
0.62999853 0.28852044 0.97495648 102 98 95
0.62991786 0.29881776 0.98107426 121 118 112
0.63003747 0.31049752 0.98833040 133 128 124
0.62975101 0.32539824 0.99689074 121 117 113
0.63036505 0.33586241 1.00250544 88 83 84
0.63003232 0.35056702 1.01036308 111 105 100
0.62986233 0.36460683 1.01798520 116 111 102
0.63008302 0.37443711 1.02331299 110 102 97
0.62990009 0.38971121 1.03103743 97 92 90
0.62910108 0.40362451 1.03805129 113 110 107
0.63039468 0.41351812 1.04289716 111 113 110
0.63008483 0.42974486 1.05049084 125 122 114
0.62958646 0.44541091 1.05769758 105 100 95
0.63041219 0.45534699 1.06192007 111 105 104
0.63000907 0.46920809 1.06781021 79 79 74
0.62981265 0.48620996 1.07733476 0 0 0
0.63057276 0.49643470 1.08157613 0 0 0
0.62998304 0.51047800 1.08705187 0 0 0
0.63002928 0.53004374 1.09446166 0 0 0
0.62905754 0.54224050 1.09893752 0 0 0
0.63037681 0.55266182 1.10277319 0 0 0
0.62975605 0.56987350 1.10899051 0 0 0
0.63019233 0.58985756 1.11585933 0 0 0
0.62748878 0.60128312 1.11967365 0 0 0
0.63037690 0.61057224 1.12290558 0 0 0
0.63008557 0.62990699 1.12934032 0 0 0
0.62951798 0.64315488 1.13378392 0 0 0
0.65004172 -0.46387408 0.69294912 103 106 103
0.65004172 -0.45010045 0.69294912 103 106 103
0.65004172 -0.43033830 0.69294912 103 105 103
0.65004172 -0.40997729 0.69294912 101 104 102
0.65004172 -0.38961628 0.69294912 98 101 100
0.65004172 -0.36985412 0.69294912 98 100 98
0.65004172 -0.35009196 0.69294912 96 98 95
0.65004172 -0.32973095 0.69294912 93 96 95
0.65004172 -0.30996880 0.69294912 90 93 93
0.65004172 -0.29020664 0.69294912 88 92 91
0.65004172 -0.26984563 0.69294912 87 89 89
0.65004172 -0.25008347 0.69294912 86 88 87
0.65004172 -0.23032132 0.69294912 83 86 86
0.65001489 -0.21014720 0.69352066 81 85 84
0.65002854 -0.19010854 0.69493269 81 82 82
0.64998986 -0.17003199 0.69644438 78 80 80
0.65003010 -0.14996011 0.69831857 76 78 80
0.64887050 -0.13871921 0.69981593 73 78 80
0.65017676 -0.12888188 0.70175009 76 77 78
0.64998640 -0.10997613 0.70908394 57 57 55
0.65000693 -0.08971875 0.71311503 49 47 47
0.64993629 -0.07020747 0.71515483 52 49 48
0.65005951 -0.04996711 0.71726015 53 50 49
0.64981903 -0.03825094 0.71921493 85 79 76
0.65004912 -0.02870850 0.72858681 117 113 107
0.64994254 -0.01954908 0.73914543 139 135 128
0.64970057 -0.00964912 0.75005557 120 118 115
0.65661852 -0.00039677 0.76018782 123 121 119
0.64998786 0.01027830 0.77031531 130 128 123
0.65000696 0.03026563 0.78889485 99 98 98
0.65004499 0.04170105 0.79893926 102 103 102
0.64996735 0.05118840 0.80709930 118 117 110
0.64985785 0.06308809 0.81707611 112 110 106
0.64985108 0.07356580 0.82568747 109 104 100
0.65021503 0.08597940 0.83563058 99 98 96
0.65001779 0.09574496 0.84332180 106 105 101
0.64976371 0.10852920 0.85329605 97 93 93
0.65155309 0.11831427 0.86091920 93 88 88
0.64998282 0.12956808 0.86945757 84 82 80
0.65012160 0.14148709 0.87833331 77 75 74
0.65004764 0.15196080 0.88612096 108 104 100
0.64996950 0.16609207 0.89644241 121 117 109
0.65009805 0.17592124 0.90336746 116 109 103
0.65003393 0.19054558 0.91348992 123 120 112
0.65000674 0.21007487 0.92660960 124 120 112
0.65023177 0.22530525 0.93643419 121 119 111
0.64997366 0.23593272 0.94334032 134 133 123
0.64991655 0.25060630 0.95258591 136 133 123
0.65030598 0.26145281 0.95921950 132 129 118
0.64994123 0.27153126 0.96552899 135 130 123
0.64978890 0.28832735 0.97555298 123 117 109
0.65033987 0.29836526 0.98120789 91 87 83
0.65005425 0.31012504 0.98801420 108 104 101
0.64997229 0.32512732 0.99685276 116 113 106
0.64961493 0.33565564 1.00285300 92 87 84
0.65013045 0.35038046 1.01055956 86 83 80
0.64997039 0.36463171 1.01810738 93 89 85
0.64996210 0.37439973 1.02338238 102 98 93
0.64989753 0.38993245 1.03152844 106 99 94
0.64999379 0.40319484 1.03816247 118 110 102
0.65009156 0.41323771 1.04311990 119 116 108
0.65002721 0.43008718 1.05100837 122 120 113
0.64971607 0.44461955 1.05778640 119 116 105
0.64999438 0.45480102 1.06221962 126 120 116
0.65001485 0.46937554 1.06809809 109 106 102
0.65021374 0.48537337 1.07717303 0 0 0
0.65017640 0.49584971 1.08175522 0 0 0
0.64965822 0.51037622 1.08749627 0 0 0
0.65023121 0.52990477 1.09492144 0 0 0
0.64944143 0.54179755 1.09932423 0 0 0
0.65024758 0.55207592 1.10312594 0 0 0
0.64990969 0.56992125 1.10960285 0 0 0
0.64985021 0.58961826 1.11638521 0 0 0
0.65866741 0.59954367 1.12003946 0 0 0
0.64994389 0.61006854 1.12336535 0 0 0
0.64979116 0.63001028 1.13000949 0 0 0
0.65065206 0.64315581 1.13446138 0 0 0
0.67040273 -0.46387408 0.69294912 101 107 103
0.67040273 -0.45010045 0.69294912 104 107 103
0.67040273 -0.43033830 0.69294912 103 104 103
0.67040273 -0.40997729 0.69294912 100 102 101
0.67040273 -0.38961628 0.69294912 98 101 100
0.67040273 -0.36985412 0.69294912 97 99 97
0.67040273 -0.35009196 0.69294912 94 98 95
0.67040273 -0.32973095 0.69294912 92 95 94
0.67040273 -0.30996880 0.69294912 92 94 91
0.67040273 -0.29020664 0.69294912 88 92 91
0.67040273 -0.26984563 0.69294912 86 88 87
0.67040273 -0.25008347 0.69294912 83 87 87
0.67040284 -0.23032135 0.69294923 83 85 86
0.66999451 -0.21013115 0.69362222 81 83 84
0.67003320 -0.19019765 0.69508638 80 82 82
0.67000154 -0.17019410 0.69666813 77 80 80
0.67002154 -0.15018112 0.69863684 76 77 80
0.67966602 -0.14071754 0.70002270 76 76 76
0.66382637 -0.13948435 0.69990597 78 78 80
0.67012068 -0.12992283 0.70195046 76 76 78
0.67002111 -0.10999819 0.70949831 56 55 54
0.67003751 -0.08973663 0.71324002 48 47 46
0.66993006 -0.07020310 0.71530487 51 50 48
0.66999974 -0.04995711 0.71737530 55 51 49
0.67010163 -0.03827625 0.71931357 84 78 72
0.66988730 -0.02882128 0.72901526 120 117 108
0.66519282 -0.01956554 0.73976790 131 131 123
0.66998842 -0.01051404 0.75004372 124 123 118
0.67032316 -0.00039710 0.76082733 115 116 112
0.66980546 0.00966861 0.77070719 136 133 126
0.67206692 0.01982592 0.78041403 135 131 126
0.67003603 0.03031999 0.78979051 105 104 101
0.66957562 0.04111438 0.79917564 96 97 97
0.67003155 0.05057487 0.80721078 118 117 114
0.66952993 0.06263328 0.81729350 109 106 101
0.67013083 0.07243018 0.82531818 99 99 95
0.66970874 0.08491914 0.83534065 100 98 94
0.67020827 0.09515649 0.84343612 96 94 88
0.66998808 0.10798492 0.85337730 87 87 84
0.67005872 0.11786532 0.86103459 83 81 82
0.67007343 0.12954842 0.86986698 92 91 88
0.67018962 0.14155730 0.87876919 92 90 89
0.66995885 0.15201733 0.88651779 108 105 99
0.66962085 0.16558206 0.89645060 126 121 113
0.67050231 0.17541728 0.90341313 118 114 108
0.66992852 0.18981088 0.91324909 126 123 117
0.67070967 0.19990298 0.92011422 133 129 122
0.67001438 0.21023156 0.92698161 137 132 123
0.66986543 0.22537591 0.93672875 134 127 120
0.66987242 0.23599900 0.94339531 119 115 107
0.66994283 0.25056485 0.95268337 120 114 108
0.67033559 0.26150527 0.95941193 91 83 86
0.67010860 0.27156972 0.96583067 123 113 109
0.67004854 0.28793068 0.97560535 104 97 88
0.67004302 0.29701115 0.98082999 113 108 97
0.67012086 0.30939602 0.98793704 98 94 88
0.66994503 0.32520357 0.99708707 104 105 97
0.66986549 0.33480796 1.00274289 115 115 108
0.67000459 0.34972661 1.01069299 109 106 100
0.67003820 0.36375555 1.01817555 93 89 89
0.66985283 0.37354029 1.02327330 97 93 92
0.66997649 0.39005861 1.03205050 132 126 117
0.66999769 0.40335469 1.03857393 113 105 98
0.67010787 0.41342596 1.04362958 122 117 111
0.67000756 0.43007349 1.05138556 109 105 100
0.66967650 0.44475934 1.05822046 111 104 100
0.67030621 0.45477681 1.06263217 128 119 113
0.67022263 0.46989404 1.06847976 123 116 109
0.66923659 0.48555332 1.07730284 0 0 0
0.67044499 0.49579473 1.08209772 0 0 0
0.66990436 0.50997410 1.08782100 0 0 0
0.66997386 0.52955534 1.09529612 0 0 0
0.66946285 0.54109465 1.09961264 0 0 0
0.66992827 0.55160507 1.10351386 0 0 0
0.67000226 0.57034810 1.11034293 0 0 0
0.67004709 0.58911501 1.11681500 0 0 0
0.67055196 0.59978353 1.12048756 0 0 0
0.66991794 0.61036201 1.12406014 0 0 0
0.67006761 0.62947018 1.13046329 0 0 0
0.67004307 0.64282762 1.13493487 0 0 0
0.69016489 -0.46387408 0.69294912 105 107 106
0.69016489 -0.45010045 0.69294912 104 106 106
0.69016489 -0.43033830 0.69294912 103 104 102
0.69016489 -0.40997729 0.69294912 100 102 99
0.69016489 -0.38961628 0.69294912 98 100 99
0.69016489 -0.36985412 0.69294912 96 99 98
0.69016489 -0.35009196 0.69294912 94 96 94
0.69016489 -0.32973095 0.69294912 92 94 91
0.69016489 -0.30996880 0.69294912 90 93 91
0.69016489 -0.29020664 0.69294912 87 92 89
0.69016489 -0.26984563 0.69294912 86 89 89
0.69016489 -0.25008347 0.69294912 83 86 87
0.69016489 -0.23032132 0.69294912 82 85 86
0.68993005 -0.21018435 0.69356153 80 83 83
0.69002119 -0.19021730 0.69514565 78 80 81
0.69001094 -0.17021160 0.69684591 77 79 79
0.68978421 -0.15137587 0.69879664 75 77 78
0.69199443 -0.14155586 0.70017995 75 76 76
0.69003940 -0.13022081 0.70229187 75 76 77
0.68997501 -0.11015371 0.70980483 56 55 53
0.69005215 -0.08976849 0.71337856 49 47 46
0.68991962 -0.07026730 0.71539524 50 50 47
0.68996550 -0.04997005 0.71742982 55 53 51
0.69013656 -0.03832189 0.71944051 86 78 73
0.69001329 -0.02874895 0.72956110 125 121 114
0.68973454 -0.01132237 0.74990696 131 129 121
0.69022379 -0.00105430 0.76102218 110 108 103
0.68979614 0.00932765 0.77132120 134 132 123
0.69201948 0.01934862 0.78092958 130 128 122
0.69000673 0.03030112 0.79067151 113 112 108
0.68528579 0.04105312 0.79977813 88 88 84
0.69024531 0.05017766 0.80765605 119 117 113
0.68965325 0.06238033 0.81776244 117 110 107
0.69003459 0.07225129 0.82578899 100 97 92
0.69009325 0.08479431 0.83585163 111 109 100
0.68996957 0.09512361 0.84398554 105 102 94
0.69003166 0.10803165 0.85397164 93 91 85
0.68986761 0.11794429 0.86161151 87 86 82
0.69012090 0.12970433 0.87040484 90 90 85
0.68933402 0.14151801 0.87914069 85 83 82
0.68997470 0.15120936 0.88628381 104 100 97
0.69034575 0.16471012 0.89620378 137 133 122
0.69008103 0.17526059 0.90366784 133 128 118
0.68998674 0.18980036 0.91362489 130 127 119
0.68683810 0.19996849 0.92041573 133 126 118
0.69026965 0.20998421 0.92709264 122 115 108
0.68969485 0.22469902 0.93665499 124 119 111
0.68998138 0.23508456 0.94320278 120 116 109
0.69005881 0.25062397 0.95296147 121 118 110
0.68633073 0.26159727 0.95974948 125 118 115
0.69030383 0.27131917 0.96595584 132 126 121
0.69009441 0.28785882 0.97591903 111 108 98
0.69033948 0.29712852 0.98133934 130 130 121
0.69027563 0.30957927 0.98854692 126 123 117
0.69023099 0.32431051 0.99711083 119 116 113
0.69020097 0.33397627 1.00272945 138 133 124
0.68998972 0.34995856 1.01131791 115 110 103
0.68904338 0.36332371 1.01842760 111 107 105
0.69027493 0.37310510 1.02370427 121 118 112
0.69006323 0.39031970 1.03250615 108 99 94
0.68931313 0.40257313 1.03857289 117 110 104
0.69022552 0.41261039 1.04362799 119 115 109
0.68996767 0.43035261 1.05197846 104 102 96
0.69003281 0.44393621 1.05828845 84 79 75
0.69008620 0.45409364 1.06282204 82 79 76
0.68996374 0.47074921 1.06922856 88 81 79
0.69017915 0.48532839 1.07707679 6 5 5
0.68982435 0.49499309 1.08224359 0 0 0
0.69008616 0.51012051 1.08846577 0 0 0
0.68998375 0.52984811 1.09598510 0 0 0
0.68013728 0.54127137 1.09997177 0 0 0
0.69000486 0.54987817 1.10348317 0 0 0
0.69004411 0.56965270 1.11068418 0 0 0
0.69005459 0.58833599 1.11712701 0 0 0
0.68908734 0.59798947 1.12042476 0 0 0
0.69016059 0.60980211 1.12446224 0 0 0
0.69015456 0.62996125 1.13119382 0 0 0
0.69008376 0.64322319 1.13563324 0 0 0
0.70992704 -0.46387408 0.69294912 107 109 106
0.70992704 -0.45010045 0.69294912 105 109 106
0.70992704 -0.43033830 0.69294912 102 104 103
0.70992704 -0.40997729 0.69294912 99 102 100
0.70992704 -0.38961628 0.69294912 96 99 98
0.70992704 -0.36985412 0.69294912 94 98 95
0.70992704 -0.35009196 0.69294912 92 96 94
0.70992704 -0.32973095 0.69294912 88 92 92
0.70992704 -0.30996880 0.69294912 88 91 90
0.70992704 -0.29020664 0.69294912 86 90 88
0.70992704 -0.26984563 0.69294912 84 88 87
0.70992704 -0.25008347 0.69294912 82 86 86
0.70992704 -0.23032132 0.69294912 81 84 84
0.71001079 -0.21014998 0.69354665 79 81 82
0.71005834 -0.19021924 0.69521445 77 79 83
0.71000282 -0.17017756 0.69689955 75 78 78
0.70985037 -0.15228838 0.69882323 76 77 78
0.71077472 -0.14237410 0.70030459 74 76 75
0.71004745 -0.13031876 0.70258064 73 75 78
0.70997581 -0.11012927 0.71009167 53 53 52
0.71001198 -0.08977614 0.71349566 47 47 45
0.70994891 -0.07025843 0.71552763 51 49 47
0.71002704 -0.04998529 0.71765327 56 53 51
0.70796701 -0.03857987 0.71965435 81 73 70
0.71014280 -0.02910740 0.72967781 128 124 113
0.70988413 -0.01147473 0.75030140 132 130 125
0.70979566 -0.00105505 0.76155790 123 121 115
0.70995769 0.00894406 0.77159413 130 128 124
0.71008171 0.01917691 0.78142771 137 138 127
0.70993967 0.03033696 0.79150548 111 110 105
0.71866642 0.03968207 0.80000591 103 104 102
0.71001817 0.04984877 0.80818504 114 113 109
0.70987535 0.06182209 0.81805156 121 118 112
0.70995721 0.07173516 0.82604257 104 101 99
0.70999877 0.08414972 0.83596664 111 109 99
0.71014833 0.09444230 0.84405080 101 96 90
0.71001822 0.10735098 0.85403572 86 86 85
0.70990789 0.11719010 0.86153455 81 82 81
0.71011168 0.12978343 0.87093604 83 83 82
0.70998133 0.14085687 0.87914088 82 82 88
0.71004639 0.15040309 0.88614315 99 95 92
0.70994712 0.16450925 0.89648728 126 122 110
0.71012564 0.17525184 0.90409811 128 124 116
0.70990158 0.18980908 0.91407171 123 121 111
0.71914354 0.19829301 0.92002314 140 130 125
0.71001790 0.20945293 0.92709429 119 115 106
0.70999903 0.22460940 0.93691582 130 127 117
0.70988068 0.23415318 0.94295532 136 130 122
0.71003255 0.24990077 0.95301851 133 129 118
0.70985546 0.27065939 0.96598263 138 133 125
0.70999705 0.28726081 0.97605505 123 116 106
0.71111515 0.29657846 0.98147703 106 100 95
0.71025276 0.30981321 0.98905621 130 125 114
0.71001457 0.32453745 0.99769339 137 133 125
0.71010358 0.33412594 1.00317928 125 119 110
0.71012613 0.35003538 1.01180559 116 109 101
0.70998590 0.36305486 1.01868079 88 83 82
0.70998381 0.37295691 1.02397092 113 111 104
0.71011075 0.39047216 1.03295664 100 93 91
0.70979314 0.40262828 1.03901765 100 91 91
0.71003631 0.41269367 1.04407971 100 93 90
0.70999769 0.43066159 1.05264013 104 102 94
0.70890328 0.44369933 1.05877173 93 88 82
0.71018657 0.45287146 1.06297894 86 82 76
0.70998479 0.46982631 1.06973037 99 95 95
0.71080409 0.48449717 1.07623489 46 43 44
0.70994053 0.49431995 1.08240070 0 0 0
0.70995214 0.50945714 1.08884134 0 0 0
0.70977106 0.52927805 1.09637695 0 0 0
0.71171277 0.53952541 1.10028839 0 0 0
0.71005075 0.54995638 1.10415085 0 0 0
0.70995596 0.56994792 1.11142455 0 0 0
0.70994956 0.58766041 1.11750326 0 0 0
0.70991961 0.59707764 1.12076504 0 0 0
0.71006228 0.61005753 1.12513207 0 0 0
0.71013706 0.63034351 1.13188026 0 0 0
0.71012280 0.64359531 1.13629024 0 0 0
0.73028805 -0.46387408 0.69294912 109 110 106
0.73028805 -0.45010045 0.69294912 105 109 105
0.73028805 -0.43033830 0.69294912 100 104 102
0.73028805 -0.40997729 0.69294912 95 99 97
0.73028805 -0.38961628 0.69294912 95 97 95
0.73028805 -0.36985412 0.69294912 92 96 95
0.73028805 -0.35009196 0.69294912 89 95 92
0.73028805 -0.32973095 0.69294912 89 92 90
0.73028805 -0.30996880 0.69294912 87 90 89
0.73028805 -0.29020664 0.69294912 86 89 88
0.73028805 -0.26984563 0.69294912 83 86 86
0.73028805 -0.25008347 0.69294912 81 85 85
0.73028805 -0.23032132 0.69294912 80 82 83
0.73006275 -0.21019003 0.69356646 78 81 81
0.72999645 -0.19022668 0.69525633 76 79 80
0.72999815 -0.17020099 0.69690847 76 79 79
0.72981503 -0.15274827 0.69884856 75 77 77
0.73061971 -0.14283528 0.70038211 71 77 78
0.73000034 -0.13037943 0.70276804 72 76 76
0.72996524 -0.11024644 0.71017514 52 51 51
0.72998786 -0.08982408 0.71350299 48 46 45
0.73000154 -0.07027722 0.71559728 51 50 47
0.73004320 -0.05001412 0.71774682 56 53 51
0.72632870 -0.03894810 0.71988894 77 70 70
0.73003629 -0.02968302 0.72956512 128 125 115
0.73831582 -0.02085100 0.74001008 128 127 119
0.72991589 -0.01142625 0.75067366 140 137 130
0.72989897 -0.00105557 0.76193322 127 126 118
0.72971374 0.00867834 0.77170453 123 122 118
0.73111712 0.01889318 0.78164192 133 132 121
0.73002345 0.02963975 0.79146396 108 106 103
0.73004619 0.03969929 0.80035309 98 96 94
0.73001471 0.04991868 0.80893179 103 102 99
0.72874398 0.06147664 0.81847891 106 106 101
0.73024578 0.07122142 0.82636091 93 92 89
0.72987742 0.08410164 0.83657180 124 123 112
0.73007587 0.09436040 0.84457350 100 98 91
0.73002007 0.10735087 0.85463510 90 89 86
0.73007907 0.11719858 0.86214357 86 79 79
0.73011690 0.12983913 0.87157282 83 82 79
0.72789168 0.14094123 0.87966742 73 72 75
0.72999942 0.15036744 0.88660043 90 90 86
0.73004361 0.16375832 0.89647996 142 138 128
0.72964112 0.17437900 0.90397060 138 134 126
0.73018165 0.18882965 0.91384447 132 128 121
0.73046903 0.19834550 0.92026668 138 129 125
0.73001930 0.20952758 0.92758436 125 119 111
0.72992440 0.22464843 0.93730013 133 129 119
0.72991154 0.23431641 0.94339777 126 123 112
0.73003066 0.24994544 0.95338162 127 121 114
0.72999592 0.26992870 0.96582163 124 121 112
0.72994264 0.28615904 0.97573243 128 125 115
0.73013039 0.29647002 0.98184252 129 125 118
0.73016917 0.30983168 0.98935367 103 98 92
0.72961179 0.32467103 0.99798879 111 106 100
0.72971735 0.33421482 1.00344633 122 116 108
0.72975481 0.34998292 1.01202715 107 102 95
0.73051948 0.36284594 1.01898301 118 106 98
0.73012000 0.37299404 1.02432095 102 93 92
0.73000636 0.39060974 1.03331962 109 105 93
0.72902518 0.40206160 1.03916039 120 115 107
0.73005463 0.41200594 1.04420673 122 111 102
0.72985354 0.43037310 1.05306283 107 104 90
0.72981956 0.44249734 1.05884269 109 105 99
0.73046196 0.45211149 1.06331475 96 88 88
0.73012146 0.46927393 1.07038869 123 120 115
0.73043920 0.48435638 1.07641996 102 97 96
0.72950402 0.49461652 1.08294122 0 0 0
0.72989537 0.50982550 1.08984717 0 0 0
0.72983966 0.52855401 1.09686683 0 0 0
0.72974382 0.53867281 1.10061822 0 0 0
0.73015933 0.55012112 1.10490985 0 0 0
0.73000551 0.57037944 1.11222609 0 0 0
0.72982704 0.58688996 1.11783936 0 0 0
0.73028457 0.59630746 1.12111153 0 0 0
0.72978381 0.61022528 1.12576840 0 0 0
0.73030668 0.63043667 1.13243269 0 0 0
0.73014938 0.64393646 1.13689253 0 0 0
0.75005021 -0.46387408 0.69294912 104 106 105
0.75005021 -0.45010045 0.69294912 104 106 103
0.75005021 -0.43033830 0.69294912 99 102 99
0.75005021 -0.40997729 0.69294912 93 96 94
0.75005021 -0.38961628 0.69294912 92 94 94
0.75005021 -0.36985412 0.69294912 90 94 93
0.75005021 -0.35009196 0.69294912 88 91 89
0.75005021 -0.32973095 0.69294912 87 91 90
0.75005021 -0.30996880 0.69294912 85 90 88
0.75005021 -0.29020664 0.69294912 84 86 85
0.75005021 -0.26984563 0.69294912 82 84 84
0.75005021 -0.25008347 0.69294912 81 83 83
0.75005021 -0.23032132 0.69294912 78 81 82
0.74995253 -0.21010637 0.69361388 78 80 81
0.75000604 -0.19029967 0.69535239 76 78 80
0.75001033 -0.17024071 0.69707124 74 76 79
0.74973372 -0.15343496 0.69896255 74 77 78
0.75039213 -0.14355009 0.70049732 72 76 77
0.74996900 -0.13038466 0.70300968 73 75 76
0.74993596 -0.11022456 0.71034015 51 50 49
0.74997400 -0.08978970 0.71352946 46 46 46
0.75000855 -0.07021810 0.71555274 49 48 47
0.74996602 -0.05006116 0.71777260 54 52 51
0.75002015 -0.03058361 0.72913864 126 123 113
0.74997966 -0.02085521 0.74015975 125 124 112
0.74981330 -0.01189422 0.75033546 141 141 131
0.75032573 -0.00161808 0.76147260 133 131 124
0.74973647 0.00825059 0.77143673 121 120 112
0.74994032 0.01850297 0.78144552 132 133 122
0.75004993 0.02965141 0.79171915 104 104 101
0.75040108 0.03971502 0.80067012 98 95 94
0.75004225 0.04995751 0.80942863 102 99 96
0.74972104 0.06113718 0.81882032 108 107 103
0.75002546 0.07101408 0.82680682 103 102 99
0.75006439 0.08342534 0.83671174 116 116 105
0.74992956 0.09370285 0.84473626 106 105 96
0.74999026 0.10661627 0.85467924 87 86 84
0.74996299 0.11653930 0.86221886 88 84 85
0.75008085 0.12997052 0.87232299 89 87 82
0.74993640 0.14973142 0.88676581 93 92 89
0.74991386 0.16392594 0.89712725 131 124 115
0.74989497 0.17371639 0.90402765 126 119 111
0.74996242 0.18832200 0.91399130 125 119 111
0.74994011 0.19844712 0.92073817 111 102 100
0.75002116 0.20962521 0.92806792 125 120 112
0.74999395 0.22386941 0.93721401 108 103 93
0.74984746 0.23348267 0.94331572 118 110 102
0.74974927 0.24983580 0.95360958 106 100 90
0.75618243 0.26000049 0.95997864 115 109 101
0.75007225 0.26975529 0.96598111 114 112 103
0.75000994 0.28633137 0.97604183 114 111 105
0.74987676 0.29656144 0.98214491 121 118 112
0.75009530 0.30998236 0.98981212 111 109 104
0.74948094 0.32380941 0.99781494 104 98 93
0.75007467 0.33340826 1.00331594 107 101 98
0.74986596 0.34937779 1.01217456 126 122 114
0.74998856 0.36122074 1.01858165 111 103 99
0.75011155 0.37207968 1.02429973 118 110 105
0.74994488 0.39077466 1.03395114 130 127 119
0.74976747 0.40197917 1.03966241 143 137 128
0.74978469 0.41161544 1.04450955 119 116 106
0.75029644 0.42980882 1.05334135 103 102 93
0.74990487 0.44144112 1.05888670 122 121 110
0.75004782 0.45180226 1.06375858 107 104 101
0.75004044 0.46983626 1.07131186 115 112 107
0.74992286 0.48564942 1.07762786 126 118 115
0.74984958 0.49591671 1.08394386 8 7 7
0.75000475 0.51045942 1.09098359 0 0 0
0.74971727 0.52792532 1.09746175 0 0 0
0.75098561 0.53705924 1.10086334 0 0 0
0.74990059 0.54960704 1.10545346 0 0 0
0.75003251 0.56971717 1.11272161 0 0 0
0.74979129 0.58510563 1.11791287 0 0 0
0.75055940 0.59565727 1.12154368 0 0 0
0.74988398 0.60966138 1.12620016 0 0 0
0.75012426 0.62986142 1.13276931 0 0 0
0.75017038 0.64425483 1.13745465 0 0 0
0.76981237 -0.46387408 0.69294912 100 104 104
0.76981237 -0.45010045 0.69294912 102 103 99
0.76981237 -0.43033830 0.69294912 96 99 97
0.76981237 -0.40997729 0.69294912 91 94 93
0.76981237 -0.38961628 0.69294912 87 91 89
0.76981237 -0.36985412 0.69294912 88 90 90
0.76981237 -0.35009196 0.69294912 87 89 90
0.76981237 -0.32973095 0.69294912 84 88 88
0.76981237 -0.30996880 0.69294912 84 86 86
0.76981237 -0.29020664 0.69294912 83 86 85
0.76981237 -0.26984563 0.69294912 79 83 84
0.76981237 -0.25008347 0.69294912 78 80 83
0.76981237 -0.23032132 0.69294912 76 79 80
0.76994273 -0.21019883 0.69366696 75 78 79
0.76998338 -0.19024441 0.69549538 74 76 77
0.77002050 -0.17035573 0.69727771 73 77 77
0.76969538 -0.15422461 0.69910293 74 75 77
0.77027218 -0.14426051 0.70064041 73 74 77
0.77000055 -0.13042544 0.70325545 74 74 76
0.76996705 -0.11024574 0.71057651 51 49 49
0.77001962 -0.08978069 0.71360760 46 45 44
0.77006466 -0.07022019 0.71554969 49 47 46
0.76994170 -0.05060844 0.71773761 51 50 50
0.76960468 -0.04021055 0.72021458 73 68 66
0.77000487 -0.03064009 0.72968388 127 125 118
0.77018695 -0.02086545 0.74052304 127 127 120
0.77002537 -0.01200549 0.75045669 143 142 133
0.76956385 -0.00171194 0.76143781 141 139 126
0.76972830 0.00829258 0.77152215 126 124 116
0.76955326 0.01850365 0.78147435 135 135 126
0.77001721 0.02977821 0.79185580 108 109 104
0.76985727 0.03971926 0.80075570 82 85 83
0.77009369 0.04991561 0.80958896 99 100 96
0.76988493 0.06116506 0.81919355 106 104 98
0.77002287 0.07111707 0.82733611 95 94 92
0.77008159 0.08352532 0.83728610 123 122 114
0.76989700 0.09383486 0.84536914 114 113 107
0.77004019 0.10679548 0.85538617 95 92 92
0.76989018 0.11662320 0.86283962 82 81 79
0.76985265 0.12982190 0.87277592 83 80 77
0.77690437 0.13948539 0.88007498 82 78 77
0.77005382 0.14979919 0.88743192 102 100 96
0.76991034 0.16320089 0.89722050 131 128 118
0.77009120 0.17305562 0.90414533 130 123 116
0.76978288 0.18790214 0.91426565 130 127 118
0.77106699 0.19784204 0.92088276 128 126 114
0.77000107 0.20973817 0.92851854 121 121 112
0.77002788 0.22400376 0.93770713 121 120 106
0.76983247 0.23360992 0.94383019 121 115 109
0.76998509 0.24925931 0.95375488 124 120 111
0.77002354 0.26936151 0.96647956 131 129 117
0.76972634 0.28585238 0.97620845 101 101 94
0.77040318 0.29597932 0.98213392 122 118 111
0.76999557 0.31012585 0.99031599 116 113 105
0.76999342 0.32387768 0.99832155 113 111 107
0.77005422 0.33340033 1.00379269 128 125 118
0.77008687 0.34964805 1.01295834 134 129 119
0.76893196 0.36121236 1.01918093 109 105 99
0.77062512 0.37080428 1.02422669 116 111 108
0.76969951 0.38948454 1.03393064 135 129 121
0.77469410 0.40006329 1.03935347 120 110 105
0.77013459 0.41018605 1.04433461 127 121 112
0.76998336 0.42916908 1.05362879 122 119 112
0.76858118 0.44115931 1.05923589 109 104 99
0.77024674 0.45128003 1.06404958 116 111 106
0.77004462 0.47002874 1.07215279 123 117 108
0.76963101 0.48508286 1.07813026 131 124 116
0.77019583 0.49471140 1.08290318 74 71 65
0.76997625 0.50998805 1.09172748 0 0 0
0.76986117 0.52583069 1.09763959 0 0 0
0.77052827 0.53581833 1.10128887 0 0 0
0.76990670 0.55022473 1.10648738 0 0 0
0.77011974 0.57011573 1.11359243 0 0 0
0.76965786 0.58450289 1.11839174 0 0 0
0.77034836 0.59500080 1.12195362 0 0 0
0.76986814 0.61007232 1.12695937 0 0 0
0.77014685 0.63022419 1.13342208 0 0 0
0.77023042 0.64458961 1.13804570 0 0 0
0.79017338 -0.46387408 0.69294912 96 99 98
0.79017338 -0.45010045 0.69294912 95 99 94
0.79017338 -0.43033830 0.69294912 94 95 93
0.79017338 -0.40997729 0.69294912 88 91 90
0.79017338 -0.38961628 0.69294912 86 89 88
0.79017338 -0.36985412 0.69294912 84 87 87
0.79017338 -0.35009196 0.69294912 83 86 87
0.79017338 -0.32973095 0.69294912 82 85 84
0.79017338 -0.30996880 0.69294912 82 85 83
0.79017338 -0.29020664 0.69294912 79 83 83
0.79017338 -0.26984563 0.69294912 78 81 83
0.79017338 -0.25008347 0.69294912 77 80 80
0.79017460 -0.23032165 0.69295018 76 78 80
0.79001828 -0.21023338 0.69386489 75 77 78
0.78995291 -0.19035622 0.69563653 73 75 77
0.78998370 -0.17035959 0.69750784 72 75 77
0.78961947 -0.15553201 0.69929666 73 75 77
0.79041728 -0.14563732 0.70078418 73 74 77
0.79006083 -0.12993930 0.70365909 73 73 74
0.78996404 -0.10979759 0.71098724 49 47 46
0.79003971 -0.08974077 0.71359129 46 44 43
0.79000832 -0.07024382 0.71554730 47 45 44
0.79000887 -0.05067367 0.71778724 51 50 50
0.78987634 -0.04022860 0.72053801 72 64 65
0.78999481 -0.03064144 0.73023622 128 126 116
0.78988168 -0.02087856 0.74098822 124 124 116
0.79010258 -0.01206423 0.75080131 144 142 132
0.78960655 -0.00171261 0.76172811 134 133 122
0.78985813 0.00829339 0.77164535 125 124 115
0.78977070 0.01850262 0.78143139 131 127 122
0.78990743 0.02972501 0.79174910 108 105 103
0.78985539 0.03971572 0.80068430 85 86 83
0.79004700 0.04995891 0.80956126 94 94 91
0.78970367 0.06116483 0.81919037 104 101 93
0.79012394 0.07099169 0.82737793 95 95 90
0.78966035 0.08276012 0.83696378 126 126 116
0.79007018 0.09306967 0.84510465 128 122 118
0.79005116 0.10598217 0.85514714 96 94 92
0.79004066 0.11591065 0.86273685 87 85 82
0.78999725 0.12931214 0.87286269 83 81 79
0.78939062 0.13954127 0.88042753 83 85 80
0.79000502 0.14997049 0.88811594 101 99 94
0.78969485 0.16315364 0.89774458 139 135 123
0.79017243 0.17293900 0.90464494 135 131 124
0.79004564 0.18766789 0.91467042 135 132 123
0.78982937 0.19781335 0.92134185 134 133 123
0.78997239 0.20998247 0.92917192 134 130 119
0.78948775 0.22353460 0.93785084 134 132 119
0.79019562 0.23306505 0.94392911 128 126 115
0.78998694 0.24927973 0.95423569 137 132 119
0.79934678 0.25834899 0.96000743 133 125 119
0.78993171 0.26938146 0.96686033 134 129 117
0.78973967 0.28531034 0.97660512 135 131 121
0.79027038 0.29549506 0.98243198 112 110 105
0.78996310 0.31035877 0.99091639 119 120 107
0.78935805 0.32332902 0.99847310 136 134 123
0.79021356 0.33289906 1.00394065 133 130 122
0.79008703 0.34967394 1.01333290 132 127 119
0.79074502 0.36070829 1.01951451 132 128 124
0.79006763 0.37043621 1.02471882 121 119 115
0.78999387 0.38914535 1.03417469 116 111 101
0.79026057 0.40021337 1.03974337 119 113 105
0.78987499 0.41023353 1.04472063 118 111 102
0.78999552 0.42940272 1.05415280 129 124 116
0.78981008 0.44083604 1.05963306 108 101 103
0.78996884 0.45106209 1.06444370 97 95 93
0.79012444 0.47052680 1.07293215 113 105 96
0.78960494 0.48422363 1.07850640 115 108 98
0.79016212 0.49347252 1.08252803 91 81 81
0.79016618 0.51003388 1.09245573 0 0 0
0.78965047 0.52463228 1.09821307 0 0 0
0.79054828 0.53496173 1.10195370 0 0 0
0.78961198 0.55015292 1.10729640 0 0 0
0.79029673 0.56988116 1.11431287 0 0 0
0.78953272 0.58350068 1.11884829 0 0 0
0.78996641 0.59364335 1.12223274 0 0 0
0.79018260 0.61015728 1.12770103 0 0 0
0.78971579 0.63000262 1.13397117 0 0 0
0.79077059 0.64418538 1.13842278 0 0 0
0.80993553 -0.46387408 0.69294912 93 94 92
0.80993553 -0.45010045 0.69294912 91 93 91
0.80993553 -0.43033830 0.69294912 89 91 90
0.80993553 -0.40997729 0.69294912 85 88 87
0.80993553 -0.38961628 0.69294912 83 85 86
0.80993553 -0.36985412 0.69294912 80 83 83
0.80993553 -0.35009196 0.69294912 80 83 83
0.80993553 -0.32973095 0.69294912 79 83 83
0.80993553 -0.30996880 0.69294912 78 82 82
0.80993553 -0.29020664 0.69294912 76 80 83
0.80993553 -0.26984563 0.69294912 77 79 80
0.80993553 -0.25008347 0.69294912 76 78 78
0.80994602 -0.23032418 0.69295809 75 76 77
0.81004001 -0.21024638 0.69397694 74 75 76
0.80997731 -0.19033756 0.69577275 71 75 76
0.81008352 -0.17043622 0.69780811 72 74 76
0.80973908 -0.15726354 0.69957633 72 72 73
0.81030234 -0.14737402 0.70103782 70 72 73
0.80997399 -0.12996203 0.70408959 71 73 73
0.80999195 -0.10972715 0.71116022 47 46 46
0.81004660 -0.08979882 0.71365603 45 43 42
0.80994057 -0.07027728 0.71556881 46 44 44
0.81005126 -0.05116088 0.71774807 49 48 48
0.81095154 -0.04080881 0.72052672 68 60 60
0.80988361 -0.03114387 0.73030536 132 128 119
0.81087550 -0.02139009 0.74098024 132 127 117
0.81000737 -0.01209678 0.75113432 140 137 130
0.80970964 -0.00171336 0.76206175 136 136 129
0.81014520 0.00829591 0.77191285 125 123 114
0.81013624 0.01850502 0.78153344 129 125 120
0.80995605 0.02959009 0.79162796 110 110 105
0.80983126 0.03971124 0.80059406 97 96 96
0.80995277 0.04994054 0.80938358 96 96 95
0.81002793 0.06114927 0.81898191 109 109 102
0.81009838 0.07110487 0.82730329 97 94 91
0.81010028 0.08293907 0.83704287 116 115 109
0.80996093 0.09320611 0.84525765 112 107 100
0.81004638 0.10600211 0.85530757 98 94 90
0.81005432 0.11591085 0.86290994 80 79 77
0.80996634 0.12933490 0.87315643 90 86 85
0.80959262 0.13961367 0.88088434 76 77 76
0.81001060 0.15009448 0.88865865 86 84 81
0.80979733 0.16240649 0.89767888 123 119 114
0.81001479 0.17226470 0.90469567 124 119 111
0.80982732 0.18707675 0.91474554 127 122 112
0.81054137 0.19715597 0.92145964 117 116 108
0.81000721 0.20999186 0.92964133 112 109 103
0.80998850 0.22326009 0.93806213 120 114 106
0.80990660 0.23289462 0.94415012 123 117 108
0.81008694 0.24852878 0.95410228 115 110 104
0.81026737 0.25839193 0.96016699 114 107 100
0.80993040 0.26941647 0.96691076 114 108 102
0.81048019 0.28531562 0.97667940 119 112 105
0.80935915 0.29545588 0.98261616 104 100 98
0.80987270 0.31048239 0.99128721 108 103 93
0.81028057 0.32312680 0.99855393 111 109 94
0.81004064 0.33260550 1.00393835 124 119 110
0.80998541 0.34984430 1.01357476 117 114 103
0.80946794 0.36080672 1.01979271 121 118 111
0.81012658 0.37077324 1.02538820 129 124 118
0.81015644 0.38938447 1.03481240 98 93 87
0.80122282 0.40030341 1.03997731 99 98 88
0.80991560 0.40942719 1.04469153 95 93 83
0.81008630 0.42979742 1.05470823 112 101 95
0.80285217 0.44095807 1.05992639 118 109 109
0.81027886 0.45062370 1.06466865 108 104 100
0.80999125 0.47061855 1.07350442 89 86 83
0.80936194 0.48361211 1.07884223 98 95 87
0.81037544 0.49293169 1.08282276 89 79 76
0.81024994 0.51041316 1.09304206 10 9 9
0.80957608 0.52366978 1.09880718 0 0 0
0.81029145 0.53391046 1.10249526 0 0 0
0.81007233 0.55012114 1.10818608 0 0 0
0.80998181 0.56994819 1.11514361 0 0 0
0.80843262 0.58260071 1.11933422 0 0 0
0.81032410 0.59166282 1.12237698 0 0 0
0.80992704 0.60979546 1.12832691 0 0 0
0.80993133 0.62992344 1.13464810 0 0 0
0.80992946 0.64290689 1.13854929 0 0 0
0.81053827 0.64785234 1.14032824 0 0 0
0.82969769 -0.46387408 0.69294912 88 91 88
0.82969769 -0.45010045 0.69294912 88 89 87
0.82969769 -0.43033830 0.69294912 83 87 87
0.82969769 -0.40997729 0.69294912 81 85 85
0.82969769 -0.38961628 0.69294912 81 83 82
0.82969769 -0.36985412 0.69294912 78 81 84
0.82969769 -0.35009196 0.69294912 78 79 81
0.82969769 -0.32973095 0.69294912 77 80 81
0.82969769 -0.30996880 0.69294912 77 79 81
0.82969769 -0.29020664 0.69294912 75 78 79
0.82969769 -0.26984563 0.69294912 74 76 78
0.82969769 -0.25008347 0.69294912 73 76 78
0.82973942 -0.23037461 0.69301146 74 75 77
0.82996010 -0.21032590 0.69416952 73 75 76
0.82992264 -0.19047736 0.69596756 71 74 76
0.83014013 -0.17036226 0.69811323 70 72 74
0.82734607 -0.15832714 0.69968806 71 72 74
0.83052392 -0.14842508 0.70132011 70 71 73
0.82979043 -0.12964121 0.70453192 70 72 73
0.82998335 -0.10974666 0.71125579 46 46 46
0.83002766 -0.08983221 0.71373181 43 42 42
0.82991736 -0.07027087 0.71559867 45 44 43
0.82999826 -0.05124574 0.71771944 51 49 48
0.83016199 -0.04083733 0.72065282 71 69 67
0.83000422 -0.03133524 0.73067351 135 132 121
0.82984897 -0.02155338 0.74148317 131 128 117
0.82984639 -0.01226415 0.75152033 139 137 128
0.83049485 -0.00192846 0.76226643 138 138 133
0.83004675 0.00817388 0.77209929 127 127 119
0.82991423 0.01850924 0.78171318 129 130 121
0.82991716 0.02987715 0.79193570 105 104 101
0.82985358 0.03970923 0.80055343 91 92 90
0.82997295 0.04997420 0.80931905 96 97 94
0.83037634 0.06113619 0.81880682 96 92 88
0.83001442 0.07107485 0.82706229 91 91 90
0.82981553 0.08349885 0.83723543 114 111 109
0.83005754 0.09377336 0.84547476 119 113 107
0.83001952 0.10593942 0.85517305 98 92 88
0.83000414 0.11580718 0.86279986 87 87 81
0.83001981 0.12925757 0.87318216 89 89 85
0.82955073 0.13964153 0.88106011 75 73 71
0.83002045 0.15000509 0.88882926 84 83 83
0.83012063 0.16253341 0.89815442 131 129 122
0.83003462 0.17250797 0.90531508 130 128 118
0.83004453 0.18698115 0.91519294 132 129 120
0.82982990 0.19712182 0.92197660 131 127 118
0.83014328 0.21019430 0.93037895 113 112 105
0.82897985 0.22309628 0.93847419 119 118 109
0.83031933 0.23254716 0.94439383 121 119 110
0.83000121 0.24870524 0.95459815 123 118 107
0.82979814 0.25853063 0.96068240 104 101 95
0.83009062 0.26950673 0.96739141 117 115 108
0.82942482 0.28528275 0.97672825 98 92 88
0.83038072 0.29544752 0.98283656 109 108 102
0.82969560 0.30999681 0.99170917 125 119 111
0.83072454 0.32234430 0.99838286 95 92 86
0.82994856 0.33268753 1.00405876 99 97 92
0.82980504 0.34985228 1.01407397 115 113 106
0.83798609 0.35917969 1.02017784 110 108 99
0.82996747 0.36971854 1.02491910 82 78 78
0.83007929 0.38950312 1.03512416 99 95 89
0.83014914 0.40956204 1.04522269 102 98 92
0.83005818 0.42973863 1.05512055 90 83 80
0.82994004 0.45043975 1.06503446 94 89 85
0.83002879 0.46991952 1.07375701 96 91 90
0.82895632 0.48190730 1.07879896 103 98 96
0.83043917 0.49206803 1.08311457 94 89 83
0.83007080 0.51038465 1.09309724 29 27 26
0.82867975 0.52267880 1.09935421 0 0 0
0.83005421 0.53177771 1.10259504 0 0 0
0.83018256 0.54956639 1.10884575 0 0 0
0.82981507 0.57024752 1.11607291 0 0 0
0.82820817 0.58135384 1.11980551 0 0 0
0.83021114 0.59079205 1.12295290 0 0 0
0.82984565 0.61033636 1.12932918 0 0 0
0.83023838 0.63031070 1.13556624 0 0 0
0.82902480 0.64256105 1.13909992 0 0 0
0.83099483 0.64719116 1.14079714 0 0 0
0.84480444 -0.46394826 0.69305970 86 88 88
0.84467205 -0.45010209 0.69295159 85 87 87
0.84466902 -0.43033830 0.69294912 80 84 84
0.84466902 -0.40997729 0.69294912 80 83 82
0.84466902 -0.38961628 0.69294912 80 81 81
0.84466902 -0.36985412 0.69294912 78 80 82
0.84466902 -0.35009196 0.69294912 77 78 79
0.84466902 -0.32973095 0.69294912 76 78 80
0.84466902 -0.30996880 0.69294912 75 78 78
0.84466911 -0.29020667 0.69294919 75 77 77
0.84474143 -0.26986838 0.69300825 73 76 79
0.84491210 -0.24998170 0.69310247 73 75 77
0.84523676 -0.23011657 0.69344584 73 73 77
0.84610755 -0.20994679 0.69485186 72 73 75
0.84712757 -0.18975136 0.69656860 71 73 75
0.84814864 -0.17002153 0.69864128 71 70 73
0.85030260 -0.16056546 0.70017669 69 72 75
0.85302867 -0.15881772 0.69980814 68 69 70
0.84996212 -0.14936245 0.70184871 69 69 71
0.84996803 -0.12960393 0.70541433 67 70 71
0.84993391 -0.10979031 0.71142021 45 45 44
0.84989667 -0.08981865 0.71368061 43 40 41
0.84993114 -0.07028663 0.71568895 44 42 42
0.85006919 -0.05125870 0.71797751 51 49 48
0.84977860 -0.04089144 0.72089898 70 69 66
0.84987837 -0.03144182 0.73104583 136 135 125
0.85086958 -0.02169183 0.74178068 132 133 119
0.85002978 -0.01271575 0.75158157 137 134 126
0.85028789 -0.00237179 0.76242547 133 132 124
0.84993466 0.00842641 0.77282845 123 123 117
0.84991379 0.01851809 0.78208825 126 124 117
0.84998059 0.02958390 0.79188583 109 106 101
0.84998469 0.03971237 0.80061678 97 97 95
0.84996102 0.04998734 0.80930488 93 92 89
0.85006346 0.06112712 0.81868539 97 95 93
0.85003224 0.07105442 0.82693216 95 95 93
0.84979724 0.08344048 0.83707136 123 121 112
0.84995930 0.09381006 0.84533038 121 116 109
0.85021582 0.10609453 0.85507680 92 89 90
0.84980535 0.11599690 0.86272285 84 84 83
0.85000285 0.12940252 0.87312335 81 80 79
0.84994070 0.13961401 0.88088648 82 82 77
0.84997116 0.15010070 0.88881711 93 91 89
0.85040139 0.16255259 0.89826038 121 115 110
0.84994494 0.17244999 0.90541860 122 117 110
0.84999179 0.18699644 0.91545804 126 122 111
0.84984567 0.19715642 0.92233955 136 130 122
0.85012156 0.21022914 0.93090328 124 121 110
0.84984097 0.22262377 0.93880119 132 128 125
0.85011042 0.23220778 0.94474341 127 125 115
0.84978778 0.24816953 0.95475799 129 124 113
0.85102185 0.25790859 0.96083771 129 121 119
0.85024472 0.26974697 0.96817383 134 129 121
0.84979526 0.28483692 0.97727128 125 118 112
0.85009365 0.29511347 0.98334954 124 122 115
0.84993625 0.30987009 0.99215674 132 126 119
0.84898188 0.32163087 0.99871416 120 117 111
0.85029290 0.33216269 1.00466124 129 126 117
0.85004535 0.34929028 1.01435326 128 122 118
0.84982967 0.35934099 1.02063599 135 132 122
0.85011675 0.37013405 1.02597066 109 108 104
0.84997099 0.38824221 1.03524503 123 123 115
0.85201514 0.39829822 1.04068654 117 114 110
0.85015725 0.40986841 1.04600627 103 98 97
0.84981930 0.42937054 1.05558913 103 101 96
0.85264388 0.43929466 1.06033331 85 85 79
0.84970471 0.45049333 1.06553877 108 104 98
0.85027270 0.46983896 1.07422993 107 103 100
0.84926936 0.48153456 1.07921811 121 119 113
0.85017147 0.49189403 1.08366625 101 99 97
0.84981955 0.51039276 1.09308885 43 43 43
0.84910313 0.52163593 1.09965937 0 0 0
0.85030073 0.53098314 1.10310353 0 0 0
0.85013147 0.54991575 1.10980935 0 0 0
0.84980853 0.56959969 1.11669315 0 0 0
0.85809534 0.57826932 1.12007922 0 0 0
0.84154458 0.58013980 1.11995280 0 0 0
0.85009354 0.58983702 1.12349086 0 0 0
0.84995262 0.60972367 1.12999179 0 0 0
0.85006370 0.62979237 1.13621843 0 0 0
0.84858283 0.64168881 1.13956484 0 0 0
0.85031502 0.64650660 1.14131031 0 0 0
0.86081617 -0.14309589 0.70306937 68 67 68
0.86310856 -0.12827407 0.70649675 67 70 71
0.86657219 -0.10932677 0.71205092 44 44 44
0.86767569 -0.08957236 0.71395947 43 39 39
0.86896126 -0.07003330 0.71600449 43 41 41
0.86998876 -0.05148160 0.71833558 49 48 47
0.87082052 -0.04121062 0.72096979 79 79 76
0.87008857 -0.03198037 0.73088512 136 133 123
0.87011900 -0.02217896 0.74169812 133 133 120
0.86992905 -0.01268515 0.75188281 138 136 126
0.87035823 -0.00237259 0.76269223 132 129 118
0.86993511 0.00756442 0.77248006 125 125 119
0.87029638 0.01787994 0.78207460 104 104 100
0.87007386 0.02974980 0.79247261 108 106 100
0.86970125 0.03972802 0.80093231 96 94 93
0.86998346 0.04996814 0.80948623 91 91 89
0.86995060 0.06113246 0.81875699 82 83 80
0.86993769 0.07104132 0.82688616 93 94 91
0.86987020 0.08348217 0.83706782 120 119 111
0.87002434 0.09386570 0.84535092 122 118 111
0.86996482 0.10682692 0.85553095 104 99 94
0.87001698 0.11665111 0.86304565 88 89 88
0.87002678 0.12922390 0.87273870 81 80 78
0.87021508 0.13956909 0.88060305 82 80 78
0.86988016 0.15009063 0.88850462 93 91 88
0.87033231 0.16250560 0.89800060 124 121 114
0.87002529 0.17240908 0.90524049 128 127 117
0.87002244 0.18697821 0.91540515 120 115 107
0.86977149 0.19725399 0.92239831 130 123 120
0.87006418 0.21032992 0.93108016 113 108 101
0.87005882 0.22274771 0.93918681 121 116 109
0.87012359 0.23231983 0.94519853 120 112 106
0.87001515 0.24791676 0.95503639 114 109 100
0.87009432 0.25783306 0.96117499 127 123 117
0.87008827 0.26988047 0.96857825 129 122 116
0.87021959 0.28413024 0.97739609 135 131 124
0.87000327 0.29439697 0.98344701 115 114 104
0.87007017 0.30991616 0.99230316 120 115 108
0.86785912 0.32115222 0.99915063 136 129 119
0.87024230 0.33150350 1.00490346 124 116 112
0.87005670 0.34930738 1.01463122 126 121 114
0.86991615 0.35925887 1.02040275 129 127 118
0.87010066 0.37010006 1.02651585 127 126 113
0.86990695 0.38786738 1.03542185 119 117 109
0.87032015 0.39796987 1.04092470 129 124 114
0.86992498 0.41023820 1.04695040 113 113 108
0.86951470 0.42902588 1.05601175 117 113 109
0.87155410 0.43893374 1.06072583 101 95 93
0.87011815 0.44975849 1.06571443 86 85 82
0.86997020 0.46934313 1.07446587 93 88 85
0.86979286 0.48074882 1.07933950 91 88 87
0.86991604 0.49122844 1.08386984 114 112 108
0.87031543 0.50987902 1.09249868 80 79 77
0.86506319 0.52009213 1.09940968 0 0 0
0.87008972 0.53058789 1.10351096 0 0 0
0.87010329 0.55039788 1.11069689 0 0 0
0.86977773 0.56881283 1.11721554 0 0 0
0.87163193 0.57805930 1.12053781 0 0 0
0.87000695 0.59019717 1.12446986 0 0 0
0.87004566 0.61040752 1.13107585 0 0 0
0.86971594 0.62959552 1.13700688 0 0 0
0.86956903 0.63989682 1.14020056 0 0 0
0.87056136 0.64532511 1.14174816 0 0 0
0.88052051 -0.04603908 0.71892060 55 55 53
0.88199825 -0.04104805 0.72127245 68 69 66
0.88832965 -0.03062075 0.73262697 138 134 125
0.88998029 -0.02221632 0.74201675 134 134 125
