ply
format ascii 1.0
element vertex 1039
property float x
property float y
property float z
property uchar red
property uchar green
property uchar blue
end_header
-1.40420866 -0.53481692 1.94238353 155 151 145
-1.38437521 -0.52064335 1.91494870 154 154 143
-1.39620745 -0.53176954 1.93131578 154 151 146
-1.38829696 -0.51713946 1.92037344 154 152 143
-1.36563444 -0.52137184 1.89355266 154 151 146
-1.36563444 -0.51809895 1.89355266 157 150 144
-1.35804760 -0.51196599 1.88303292 155 152 143
-1.32018375 -0.52260822 1.85723794 143 144 135
-1.32745743 -0.53032929 1.86747062 146 147 138
-1.32446769 -0.50804646 1.85092250 150 148 140
-1.31215852 -0.52260822 1.85723794 89 89 88
-1.31032792 -0.52597941 1.86490896 47 47 48
-1.31698632 -0.50265431 1.83710527 152 151 144
-1.30947202 -0.51061895 1.85199118 99 100 95
-1.30449720 -0.51814262 1.86234021 39 40 42
-1.30732955 -0.49274446 1.83173971 148 149 137
-1.31260526 -0.49606042 1.84209740 148 153 138
-1.29196179 -0.52872384 1.86748481 44 39 43
-1.29634690 -0.50265431 1.83710527 68 68 67
-1.29089667 -0.50854350 1.85109389 42 42 44
-1.29484046 -0.51706966 1.86234021 37 38 40
-1.28472698 -0.48437706 1.81618956 115 119 112
-1.29111462 -0.49289545 1.82766035 100 102 96
-1.28633499 -0.47505100 1.81255368 140 141 132
-1.29744136 -0.47865265 1.82228994 152 153 144
-1.26750970 -0.50446248 1.83214009 37 37 39
-1.27613455 -0.51267967 1.84460706 35 35 37
-1.27026194 -0.48579152 1.81287419 42 43 44
-1.27304089 -0.49460484 1.82580216 40 40 42
-1.26728747 -0.46627048 1.79242835 109 109 103
-1.27163855 -0.47516273 1.80504065 64 66 62
-1.26456457 -0.44827069 1.77575648 145 147 141
-1.26807117 -0.45418669 1.78392589 149 149 144
-1.25754535 -0.50489998 1.82228994 34 34 36
-1.24086714 -0.48887998 1.79812157 35 35 37
-1.25313293 -0.48787493 1.80820010 39 38 41
-1.24629128 -0.46324552 1.77924371 58 57 59
-1.24953191 -0.47143957 1.79243331 42 41 43
-1.25507385 -0.47771549 1.80290389 41 41 42
-1.24973346 -0.45155719 1.77323247 79 83 81
-1.24957097 -0.45418668 1.78392589 53 49 52
-1.24068058 -0.42210770 1.71618187 151 151 147
-1.24283767 -0.42767452 1.73266122 150 152 145
-1.24529060 -0.42944840 1.75188906 141 144 136
-1.25055194 -0.43152958 1.76442626 132 135 127
-1.24641010 -0.41064660 1.72877716 149 151 143
-1.24352998 -0.41667353 1.74940121 143 147 139
-1.23440388 -0.48384984 1.79099876 36 36 38
-1.22935408 -0.46867918 1.77846742 39 38 40
-1.23426672 -0.47351838 1.78706388 39 39 40
-1.22822326 -0.45200743 1.76696617 40 38 40
-1.22224283 -0.42561895 1.69472957 150 151 145
-1.23722613 -0.42683445 1.72932343 149 150 142
-1.22905438 -0.42975434 1.75150929 52 53 51
-1.23131390 -0.43611485 1.76075804 42 43 45
-1.22346816 -0.40551625 1.69642854 150 151 145
-1.23170584 -0.40601859 1.71401501 149 151 142
-1.23433620 -0.40951412 1.73191469 146 147 139
-1.23219263 -0.41568992 1.74618644 93 97 93
-1.22624028 -0.39014697 1.69756118 151 152 144
-1.22956669 -0.39768543 1.70897345 152 153 144
-1.20582384 -0.46170671 1.75392753 39 38 40
-1.21672577 -0.46472293 1.76535529 40 39 40
-1.21053108 -0.44839704 1.75102358 39 37 39
-1.21919489 -0.42455755 1.69050336 150 149 146
-1.20587917 -0.42625795 1.73762853 43 37 41
-1.21270370 -0.43388288 1.74565065 41 37 41
-1.21717302 -0.41509990 1.68769987 149 149 145
-1.21463656 -0.41807623 1.74265254 37 36 43
-1.20418745 -0.38326097 1.66969448 152 153 145
-1.21773392 -0.39241669 1.69050336 151 152 143
-1.19346522 -0.44521214 1.73540863 37 35 37
-1.19807035 -0.45422064 1.74265254 39 36 39
-1.19692190 -0.42956764 1.73227201 43 36 40
-1.18133056 -0.41808295 1.71184814 43 36 40
-1.19332969 -0.41531169 1.72491562 42 38 43
-1.19129150 -0.37219169 1.65260196 152 153 145
-1.16122627 -0.36437318 1.61788034 152 153 146
-1.16819371 -0.36970223 1.63152235 149 150 144
-1.17811191 -0.37625176 1.64536858 147 148 142
-1.16127586 -0.35150984 1.61019444 151 150 146
-1.16540581 -0.35823722 1.62175083 152 152 146
-1.16590667 -0.33255743 1.61275029 152 153 143
-1.14091742 -0.40192953 1.65743732 42 38 41
-1.15129038 -0.40491070 1.66971135 42 37 41
-1.14510030 -0.38882303 1.64938655 38 37 42
-1.14945734 -0.39717111 1.66149962 38 36 43
-1.15563345 -0.36437318 1.61788034 149 151 144
-1.14682103 -0.37182816 1.62721429 76 78 76
-1.15540028 -0.37817773 1.64138460 50 51 50
-1.14490819 -0.34531931 1.59130859 152 152 147
-1.15364128 -0.35456891 1.60828662 149 149 144
-1.14842287 -0.33111663 1.59237266 152 152 143
-1.15855515 -0.32491845 1.60258114 151 152 143
-1.14228308 -0.31838509 1.58385944 152 152 143
-1.12861201 -0.38387316 1.63544714 35 35 39
-1.13544004 -0.38952595 1.64617310 35 35 40
-1.12991529 -0.36552463 1.61646114 43 46 47
-1.13140966 -0.37532614 1.62695346 39 39 42
-1.13075874 -0.34446332 1.59164696 130 133 128
-1.12822627 -0.35399982 1.60655714 66 66 65
-1.12607076 -0.32507877 1.57649267 150 152 140
-1.13078106 -0.33228621 1.58254271 148 150 141
-1.12120795 -0.31326166 1.55837202 153 154 145
-1.12732574 -0.31297740 1.56875999 152 152 143
-1.13962042 -0.31491175 1.58016741 152 153 144
-1.12325704 -0.29558653 1.55747846 152 152 145
-1.11762440 -0.38157460 1.62563992 36 36 40
-1.10941942 -0.36789649 1.60953281 37 37 39
-1.10740429 -0.34639721 1.59416483 41 39 40
-1.11435850 -0.35448137 1.60521306 40 40 41
-1.11041720 -0.32429443 1.57266299 111 112 105
-1.10933750 -0.33302333 1.58386660 54 54 54
-1.10329652 -0.30102900 1.53716969 150 150 140
-1.10883033 -0.30836864 1.55125615 151 151 142
-1.11633641 -0.31416631 1.56286457 149 150 141
-1.10204548 -0.29670615 1.53543085 153 152 143
-1.10740701 -0.29460533 1.54535866 153 152 145
-1.09366681 -0.34517605 1.58652135 38 37 40
-1.08802612 -0.32666359 1.57177201 39 38 39
-1.09470209 -0.33425400 1.58122228 39 35 37
-1.08703116 -0.30235262 1.53617607 127 127 126
-1.09026451 -0.31041129 1.54923152 89 92 88
-1.09358162 -0.31692700 1.56316519 46 47 47
-1.08257314 -0.28325237 1.51317155 151 151 145
-1.09117181 -0.29196979 1.52844260 150 150 142
-1.09781528 -0.29905024 1.54066324 154 153 144
-1.07014918 -0.32366570 1.55658489 37 37 38
-1.07565129 -0.33230292 1.56557426 36 35 36
-1.06899408 -0.30337922 1.53369646 42 44 46
-1.07007837 -0.31262676 1.54741792 38 40 41
-1.07789600 -0.31938294 1.56196272 39 39 39
-1.06089318 -0.28074199 1.49976075 152 154 139
-1.06838713 -0.28787934 1.51486449 102 104 97
-1.07173105 -0.29635773 1.52564369 66 70 70
-1.06520515 -0.27015142 1.49645414 150 150 140
-1.07103932 -0.27876651 1.50308609 152 152 143
-1.06563589 -0.25388567 1.49233884 151 151 142
-1.05283499 -0.30028132 1.51993692 38 39 41
-1.05229968 -0.30559231 1.52678347 39 40 42
-1.05787170 -0.31236479 1.54066324 38 39 41
-1.04705679 -0.28192547 1.49777427 60 60 62
-1.05176221 -0.29093366 1.51047141 40 41 45
-1.05146047 -0.27171744 1.48924307 112 113 107
-1.04662120 -0.24213563 1.45470357 151 152 145
-1.05335890 -0.24960871 1.46913687 149 150 141
-1.05788982 -0.25415313 1.48824215 151 151 142
-1.04326427 -0.23760094 1.45003766 152 153 145
-1.03451854 -0.30118202 1.50475621 39 40 42
-1.03191939 -0.28756457 1.49554325 36 37 40
-1.03726578 -0.29435429 1.50308609 38 39 41
-1.03592867 -0.26723672 1.47528321 44 42 44
-1.03203233 -0.27483827 1.48620455 40 38 44
-1.03448558 -0.24261348 1.45003766 148 150 142
-1.03035001 -0.22614336 1.43322619 150 150 144
-1.03771377 -0.23010315 1.44232309 151 151 146
-1.02860936 -0.21203760 1.42966884 150 150 143
-1.01796380 -0.28840823 1.48254225 36 36 39
-1.00031972 -0.26500428 1.44232309 43 39 44
-1.01398916 -0.27370648 1.47304411 37 35 40
-1.00388372 -0.24102935 1.43317509 42 42 43
-1.01929045 -0.25917980 1.45158851 59 57 54
-1.01310294 -0.22554989 1.41719687 149 149 143
-1.00799733 -0.22966878 1.42449670 126 126 119
-1.00171034 -0.21156799 1.39675645 150 151 143
-1.00461208 -0.21377886 1.40735462 149 149 142
-1.00148964 -0.19560573 1.39197505 149 149 146
-1.00978363 -0.19965148 1.40350282 153 153 149
-0.98386791 -0.26484625 1.43469334 36 32 38
-0.99670988 -0.26670668 1.45158851 36 33 38
-0.98699766 -0.24706596 1.42586962 40 37 39
-0.98863529 -0.22426773 1.41700032 55 54 54
-0.98960391 -0.23244672 1.42366379 40 40 41
-0.99439243 -0.20313579 1.39412706 142 141 139
-0.98996904 -0.21020264 1.40382743 110 112 109
-0.98626449 -0.18912616 1.37411010 150 150 146
-0.99101476 -0.19421522 1.38772847 142 141 136
-0.97951865 -0.26276797 1.43015158 36 33 38
-0.96849751 -0.24785742 1.41354879 36 34 36
-0.97634343 -0.25116927 1.42243823 37 34 36
-0.97138627 -0.22899709 1.41247655 37 36 38
-0.97827089 -0.23041090 1.42115688 36 36 39
-0.96757990 -0.20624789 1.39501181 40 40 41
-0.97240098 -0.21585940 1.40370333 39 38 39
-0.96604123 -0.18591070 1.35354473 148 149 140
-0.97310078 -0.18868106 1.36789954 138 138 130
-0.97022753 -0.19579893 1.39067290 48 47 49
-0.96839393 -0.17152504 1.34824084 149 148 141
-0.95730275 -0.22057071 1.39771509 38 37 37
-0.95928067 -0.22707852 1.40060294 36 36 38
-0.94176847 -0.20035502 1.37503421 37 35 36
-0.95423073 -0.20808499 1.39065326 37 35 36
-0.95228235 -0.18455705 1.34985489 125 124 116
-0.94851149 -0.18827145 1.37257185 40 37 40
-0.95371946 -0.19379483 1.38472172 38 36 40
-0.94204360 -0.16025582 1.31885576 146 146 140
-0.94701119 -0.16987066 1.33299274 145 144 137
-0.94955188 -0.17935300 1.34236014 148 145 135
-0.94066298 -0.15963468 1.31374383 148 148 142
-0.94781151 -0.15874977 1.32531315 146 146 140
-0.92837870 -0.18263504 1.35377029 36 35 37
-0.93623887 -0.18800683 1.36581560 36 35 38
-0.93055434 -0.16732880 1.33453477 62 61 62
-0.92879000 -0.17479274 1.34825904 39 37 39
-0.93049535 -0.15556224 1.31449488 133 134 128
-0.92150421 -0.15895750 1.32704733 37 36 44
-0.91797520 -0.16572147 1.33932975 38 35 39
-0.91938978 -0.17587275 1.34236014 37 36 38
-0.91716657 -0.15512080 1.31783137 37 37 42
-0.91604606 -0.15756465 1.33077061 38 36 43
-0.90034026 -0.06035699 1.27904117 45 43 52
-0.88861416 -0.06104616 1.27663408 128 125 120
-0.88366581 -0.04242469 1.25536174 40 39 45
-0.88909729 -0.05353722 1.27069135 93 90 92
-0.88104790 0.51132774 1.73818421 32 32 34
-0.88595715 0.51782671 1.74489820 30 30 32
-0.88033313 0.50341702 1.77924371 35 34 36
-0.88215514 0.51258916 1.79337303 35 34 37
-0.89367712 0.51910496 1.81254506 35 34 38
-0.88129568 0.53740815 1.73670240 30 29 31
-0.88787387 0.53099997 1.74965979 30 30 32
-0.89553344 0.52709836 1.76075804 31 31 32
-0.88345772 0.52118999 1.79812157 34 33 35
-0.89367712 0.52223778 1.81254506 36 33 36
-0.89012891 0.54114133 1.74715555 30 29 31
-0.89857674 0.54079330 1.76075804 30 29 31
-0.87933624 -0.06013008 1.27423275 148 147 138
-0.87481621 -0.04328559 1.25407090 115 114 115
-0.87828801 -0.05436958 1.27306513 148 148 142
-0.87989324 -0.05825618 1.28145909 150 151 145
-0.86578555 -0.02940397 1.23253634 63 60 65
-0.87271357 -0.03939878 1.24547744 85 83 83
-0.86701446 -0.00971582 1.23174973 49 44 50
-0.86768121 0.00147630 1.22363150 42 38 41
-0.87362541 0.49487288 1.77343369 35 35 37
-0.87763935 0.49151626 1.78627938 35 35 37
-0.86692911 0.50633836 1.71618187 32 31 32
-0.86912948 0.51109295 1.72053766 31 31 32
-0.86651876 0.51276701 1.77614462 36 35 36
-0.86753112 0.51369378 1.78824892 38 37 39
-0.86349461 0.53312131 1.71329272 32 31 33
-0.87060076 0.53086494 1.72429339 31 30 32
-0.86062932 0.52588814 1.75165856 33 32 34
-0.86791953 0.52424667 1.77273259 33 33 34
-0.87706119 0.52512684 1.78510264 33 33 33
-0.85513166 -0.02866093 1.23227439 141 138 137
-0.85373725 -0.01118884 1.23000645 137 132 130
-0.85277608 0.00671838 1.21595049 47 40 48
-0.85726875 0.00401901 1.22630281 88 83 89
-0.84322110 0.02588594 1.19287438 41 37 42
-0.84208353 0.06347473 1.19628056 39 38 40
-0.84691611 0.47467017 1.73596150 39 38 39
-0.84542075 0.47303413 1.74972701 44 44 44
-0.84800053 0.48879540 1.73818421 40 38 40
-0.85171901 0.48961336 1.75072157 39 37 40
-0.85105389 0.49224417 1.76464157 42 39 42
-0.84397754 0.51075011 1.75165856 38 36 36
-0.85327446 0.50749736 1.77203067 39 38 40
-0.85489947 0.51399195 1.78392589 40 39 41
-0.84220134 0.53125405 1.66865870 31 29 31
-0.85103683 0.52992894 1.69051035 31 30 32
-0.85764647 0.52838178 1.70754337 32 31 33
-0.82569577 0.01767629 1.17588454 43 35 45
-0.83276910 0.01414094 1.18595726 42 38 44
-0.82335540 0.02990486 1.17690029 47 37 46
-0.83405597 0.03131927 1.18555847 44 39 44
-0.82172805 0.04013880 1.17894232 59 49 59
-0.82908410 0.05088655 1.18949246 80 72 77
-0.82923188 0.06658776 1.19570132 105 100 103
-0.83267383 0.07541999 1.20359805 118 114 115
-0.83234961 0.45458579 1.73374441 54 48 50
-0.83813232 0.45993161 1.74265254 53 46 49
-0.83070420 0.46876862 1.73447969 48 47 48
-0.83791740 0.47078174 1.74377537 47 45 46
-0.82997465 0.48428896 1.73818421 45 40 44
-0.83632840 0.49121703 1.74895442 43 40 42
-0.83857542 0.50448471 1.75619650 44 37 40
-0.82818704 0.53051605 1.65140181 31 28 30
-0.83836192 0.52479386 1.67106533 32 31 33
-0.80499586 0.01777378 1.15807045 120 113 118
-0.80943352 0.01487953 1.16508272 110 102 104
-0.80567852 0.02222795 1.15878952 116 109 115
-0.81005971 0.03155664 1.16957457 124 119 120
-0.81159250 0.03748705 1.18099630 147 142 139
-0.80745792 0.04439673 1.17616811 144 142 137
-0.81317392 0.05006635 1.18409730 147 146 140
-0.81451987 0.06405649 1.19208018 148 147 139
-0.80629605 0.47364631 1.69472957 46 42 45
-0.81034780 0.47897038 1.70324588 41 40 42
-0.81444049 0.48434821 1.71184814 42 41 43
-0.80049384 0.51508677 1.61788034 32 29 31
-0.80930458 0.51708098 1.62857547 33 30 32
-0.81779730 0.51831436 1.64138460 32 31 32
-0.80417417 0.53199308 1.61404192 33 28 34
-0.81320758 0.52893165 1.63387270 31 29 32
-0.81779730 0.53533638 1.64138460 30 28 34
-0.79966992 0.01742106 1.15878952 149 146 138
-0.79591274 0.03779500 1.16945308 152 149 140
-0.78564978 0.04946704 1.15878952 151 152 143
-0.79547787 0.04965618 1.17008520 147 148 139
-0.79516459 0.06222890 1.17282331 152 152 140
-0.78690898 0.51315773 1.59880149 32 31 33
-0.79242990 0.51360244 1.60638651 32 29 31
-0.78540422 0.52955503 1.58999246 31 28 31
-0.79774300 0.52916810 1.60911201 32 28 31
-0.78001606 0.54686999 1.57649267 29 25 28
-0.78459893 0.54326025 1.58907863 28 27 28
-0.78184363 0.57538992 1.59130418 26 25 27
-0.78552729 0.58224273 1.59880149 25 24 26
-0.79300845 0.59057760 1.61402822 25 25 29
-0.76782876 0.51556392 1.56829643 35 28 33
-0.77772513 0.51717627 1.58571410 34 29 34
-0.76623971 0.53109005 1.57012252 29 28 30
-0.77808555 0.52998777 1.58303899 31 28 31
-0.76870124 0.55021007 1.56896705 27 26 29
-0.77594305 0.55092736 1.58189036 28 26 29
-0.76788653 0.56653603 1.57285007 26 25 28
-0.77493308 0.57290366 1.58280705 25 24 27
-0.76189518 0.58094186 1.57283485 27 26 30
-0.77434583 0.58446919 1.58832798 26 25 29
-0.75593482 0.51205944 1.54947317 34 28 32
-0.75639534 0.52691709 1.55777631 29 28 30
-0.75409847 0.55302289 1.55599138 27 26 29
-0.74871515 0.56515696 1.55337794 26 25 28
-0.75611634 0.56972161 1.56276437 26 25 28
-0.68187746 0.43099771 1.41522300 34 32 35
-0.68105197 0.43648937 1.42115688 35 32 34
-0.68378220 0.45413378 1.42514189 32 31 32
-0.66482713 0.41635390 1.39484310 34 33 36
-0.66609001 0.41700004 1.41103206 38 38 39
-0.67570096 0.41777264 1.42714492 40 38 38
-0.66559039 0.42385392 1.39771509 33 31 34
-0.66955646 0.42778550 1.40751465 35 33 36
-0.67510119 0.42140578 1.42414880 38 36 39
-0.66382025 0.44887972 1.39627949 31 30 34
-0.67001031 0.44850752 1.40552428 31 30 33
-0.64569964 0.39408116 1.40568820 68 66 67
-0.64123648 0.41484664 1.37782896 38 37 38
-0.64678688 0.40913758 1.38915074 42 41 42
-0.65043087 0.40888961 1.40513525 49 46 48
-0.65223554 0.42523035 1.39627713 39 38 40
-0.65771457 0.42464318 1.40060294 38 37 40
-0.63753649 0.39492700 1.39579781 80 69 70
-0.63524690 0.40387969 1.39341882 65 54 60
-0.63973129 0.40233697 1.40060294 71 62 65
-0.56590003 0.37814357 1.22659512 39 38 40
-0.56222347 0.37429271 1.27287822 82 80 77
-0.57006319 0.37370965 1.28853999 95 92 88
-0.56840198 0.38703467 1.23046858 37 36 39
-0.56545478 0.38106784 1.27663243 64 64 64
-0.57545371 0.38331320 1.29164108 62 63 63
-0.54299416 0.37123258 1.18992648 43 40 43
-0.54988794 0.37307581 1.20625940 43 42 44
-0.54133144 0.37153390 1.22697866 71 69 69
-0.54961826 0.37091507 1.25227567 80 73 72
-0.55606147 0.36965731 1.26592326 100 93 90
-0.54587216 0.38226782 1.19209661 39 38 40
-0.54213697 0.40186563 1.21922994 57 48 57
-0.54311383 0.40047857 1.22142673 54 49 56
-0.52879179 0.35910314 1.18929857 62 60 58
-0.53222346 0.37373247 1.19304175 59 55 58
-0.53236315 0.36980798 1.20958531 74 72 71
-0.53921068 0.36728284 1.22697866 81 74 76
-0.53441143 0.38043576 1.17894232 42 40 43
-0.52912754 0.38518957 1.19384253 56 53 54
-0.53162447 0.39470831 1.20972206 67 63 65
-0.53531712 0.40070386 1.20622849 63 55 60
-0.50933921 0.35616276 1.17282331 62 61 60
-0.51607317 0.35914903 1.19629049 70 69 63
-0.51488102 0.37116302 1.19089133 67 65 65
-0.51840277 0.37060785 1.20327115 65 65 64
-0.51460135 0.38354098 1.19299776 67 64 64
-0.51816846 0.38785550 1.20514584 72 69 69
-0.48298818 0.00880198 1.16710844 32 30 33
-0.49950230 0.35796480 1.16877902 67 65 66
-0.46747913 -0.00126708 1.15289283 32 31 33
-0.47401172 -0.00060584 1.16077375 32 31 33
-0.46172723 0.01805219 1.13549721 32 29 32
-0.46689425 0.00775332 1.15211362 31 29 31
-0.47688216 0.00692046 1.16227044 31 30 32
-0.46344895 0.02393890 1.13550201 31 29 30
-0.46741261 0.02111995 1.14219427 32 29 31
-0.46198452 0.38047981 1.03494942 42 42 44
-0.44070537 -0.25462591 0.59770153 37 36 38
-0.44029165 -0.22237816 0.59481601 37 32 35
-0.45094981 -0.00157537 1.13740563 30 29 31
-0.45613234 -0.00059732 1.14444391 30 29 31
-0.44962476 0.01350833 1.13262679 32 29 32
-0.45075813 0.00540637 1.14619643 32 30 32
-0.45171279 0.02371218 1.12454391 33 29 33
-0.44047832 0.36616853 0.99836797 47 47 50
-0.44612597 0.36876864 1.00885538 45 44 46
-0.45717557 0.37087000 1.02815735 44 42 46
-0.43442814 -0.24719433 0.59105769 37 36 37
-0.42364231 -0.22547952 0.57791412 38 35 37
-0.43298083 -0.23006055 0.58803640 37 34 38
-0.42442273 -0.20340310 0.57742261 37 35 38
-0.43278954 -0.21073604 0.58660775 37 35 37
-0.42392178 -0.19346598 0.57606299 39 34 37
-0.43090424 -0.19640581 0.58322125 37 32 35
-0.43398588 0.00828417 1.13060767 34 30 32
-0.43527961 0.35879217 1.00428641 63 59 60
-0.42941307 0.36694671 0.99685374 55 54 55
-0.43450847 0.36228091 1.00365193 59 58 60
-0.40980950 -0.18092184 0.55885559 40 35 38
-0.41513873 -0.18539101 0.56545756 38 34 36
-0.40649434 -0.17460173 0.55498713 37 37 39
-0.41213450 -0.17958215 0.56070459 37 36 38
-0.40188552 -0.00977811 0.55198570 34 32 36
-0.38861902 -0.04498065 0.53597379 36 34 36
-0.38589224 -0.03107181 0.53316683 34 33 35
-0.39666123 -0.02720509 0.54436723 34 32 34
-0.39849375 -0.01654343 0.54805584 32 32 34
-0.36309915 -0.04985533 0.50534652 41 37 44
-0.36205316 0.27728047 0.66567730 23 22 26
-0.36415932 0.28792315 0.66629488 24 23 26
-0.36818863 0.30183196 0.67398552 22 22 25
-0.34847284 -0.04367586 0.49752129 100 96 95
-0.35734421 -0.04913001 0.50110755 42 40 45
-0.34995879 -0.03454274 0.49860105 86 82 83
-0.35305546 -0.02741036 0.50063577 49 45 51
-0.35732136 0.27795887 0.66322961 23 22 26
-0.35829864 0.28219932 0.66343374 26 23 28
-0.32388470 -0.36091241 0.69765900 162 159 152
-0.32623196 -0.35244939 0.69731528 161 159 150
-0.33989155 -0.04228857 0.49626049 153 153 146
-0.31803985 -0.35204273 0.69381490 161 159 149
-0.30159445 -0.15020344 0.52940132 115 114 110
-0.29706942 -0.15020049 0.52953567 124 123 114
-0.22165872 -0.22893182 0.71831377 164 158 155
-0.22133847 -0.22699232 0.72039515 163 160 154
-0.21362281 -0.22878207 0.71862137 163 159 155
-0.21262659 -0.22655399 0.72142171 162 160 155
-0.21333213 -0.21899471 0.72173876 161 160 153
-0.14260763 -0.30288263 0.71583086 40 38 40
-0.14584701 -0.30584386 0.72579426 39 38 39
-0.14224736 -0.29656569 0.71402246 41 40 40
-0.14415391 0.05222261 0.72807509 32 29 33
-0.14463925 0.06729129 0.71669236 26 25 27
-0.14433285 0.06765010 0.72888897 28 25 28
-0.14388695 0.07811099 0.74542913 29 24 28
-0.14585222 0.08793583 0.71963042 27 23 26
-0.14462885 0.08603169 0.72971509 27 24 27
-0.14210095 0.08062325 0.74796454 30 25 28
-0.12602020 -0.30481629 0.67826333 74 63 57
-0.12677505 -0.30285986 0.68317707 92 73 67
-0.13046489 -0.29449159 0.67842342 40 39 39
-0.12656692 -0.29004833 0.68734759 87 73 66
-0.13900146 -0.29354475 0.70383583 41 40 40
-0.12702612 -0.27938212 0.68793565 80 70 68
-0.12185174 -0.16544492 0.65290259 139 129 126
-0.12444077 -0.16254842 0.66763149 111 104 99
-0.12496008 -0.15150075 0.67257348 96 86 85
-0.12319642 -0.14302573 0.68160702 127 110 103
-0.12871217 -0.13057483 0.67827657 56 51 54
-0.12365168 -0.13110729 0.68274744 123 103 96
-0.12650340 -0.11035447 0.67127230 61 50 54
-0.12389016 -0.11864198 0.68095630 124 103 99
-0.12568106 -0.08882414 0.66873606 62 53 54
-0.12102486 -0.07722175 0.65894723 107 89 86
-0.12414606 -0.07271621 0.66990537 77 63 61
-0.12097576 0.05621834 0.71963042 113 95 87
-0.13104397 0.05163609 0.72504957 83 67 62
-0.12252747 0.06321038 0.71899556 99 74 71
-0.13185150 0.06279245 0.72505288 58 45 45
-0.13650061 0.07754948 0.74740753 57 47 49
-0.12084348 0.09429362 0.65182549 31 25 30
-0.12816596 0.08995781 0.71520227 58 44 45
-0.13330896 0.08469799 0.72367909 53 43 42
-0.13556291 0.08087207 0.74331856 60 46 49
-0.11551049 -0.30599423 0.67810333 112 105 100
-0.11665723 -0.30192711 0.68167115 115 104 99
-0.11087838 -0.29814526 0.67911463 104 105 112
-0.11561547 -0.29061305 0.68701833 107 106 108
-0.11649182 -0.27852352 0.69092186 106 105 109
-0.11456209 -0.16676071 0.65862766 110 99 100
-0.11268182 -0.16330027 0.66401847 102 97 105
-0.11455547 -0.15304589 0.67445591 96 93 101
-0.11243249 -0.14564662 0.68249456 84 88 103
-0.11447266 -0.13237789 0.68425007 88 86 97
-0.11098432 -0.08550367 0.67910932 67 70 84
-0.10913816 -0.08854143 0.68307952 70 73 90
-0.11319419 -0.06922029 0.67407000 69 60 61
-0.10857654 -0.07735640 0.68273146 47 47 55
-0.11106885 -0.05567322 0.67886870 48 47 56
-0.11151739 -0.05125287 0.68087098 50 47 54
-0.11834034 0.05281654 0.71873001 102 98 98
-0.11966115 0.05567946 0.72070171 99 92 87
-0.11758010 0.06264729 0.71636361 90 82 80
-0.11923660 0.06063609 0.72039515 80 75 73
-0.11089368 0.09541103 0.64895524 73 62 61
-0.11203682 0.09195990 0.66136010 93 76 70
-0.11692682 0.08798664 0.71412078 86 72 71
-0.11867712 0.08122383 0.72077835 100 84 78
-0.10766546 0.10690186 0.63695145 74 61 60
-0.10810937 0.10213156 0.64137897 72 58 57
-0.09838102 0.10687659 0.63217574 63 59 59
-0.09810920 0.10303899 0.64311638 78 69 71
-0.02159741 0.21148326 0.66442335 162 156 149
-0.00823583 0.19906792 0.65554205 125 119 114
-0.00878935 0.20699033 0.65610892 134 128 121
-0.01500450 0.21289474 0.66247538 152 146 136
-0.00054906 0.47119656 1.21595830 100 99 99
-0.00161634 0.47950378 1.22917932 111 111 111
-0.00615819 0.48484517 1.23534411 112 108 107
-0.00654820 0.49433603 1.25056800 121 113 113
-0.00919680 0.50858836 1.26703640 111 100 101
-0.01611338 0.51637858 1.28388608 84 77 77
-0.00856848 0.52482838 1.27543485 115 112 107
-0.01195939 0.52926458 1.28823053 111 107 102
0.00524206 0.47382949 1.21868271 113 111 110
0.00579422 0.47820509 1.22585016 117 115 112
0.00711387 0.48479293 1.23344007 128 121 115
0.00509140 0.49353321 1.24786599 129 122 116
0.00681562 0.50267365 1.25628688 125 115 113
0.00286677 0.50560666 1.26642227 126 117 114
0.07892188 -0.07048279 0.60403344 45 44 47
0.07927972 0.23968221 0.71963042 87 80 77
0.07294007 0.23935542 0.72374913 110 101 95
0.07658419 0.25085405 0.71797094 112 103 97
0.07298139 0.24939121 0.72302210 123 112 108
0.07697247 0.26995907 0.71363393 97 84 81
0.06896532 0.26301220 0.72565401 130 120 110
0.07868497 0.28273324 0.71564750 78 68 67
0.07933449 0.29176680 0.72154637 82 76 74
0.08218839 -0.08094996 0.60391268 73 76 85
0.08475890 -0.07060696 0.60412836 47 45 50
0.09422363 0.23455286 0.69771366 137 129 126
0.08816505 0.23774070 0.71121535 110 104 105
0.08430068 0.23902679 0.72216225 66 63 67
0.08482719 0.25068557 0.71398030 95 89 90
0.08202276 0.25369148 0.72088300 98 87 87
0.08927127 0.26880053 0.69885821 102 97 92
0.08480737 0.26947303 0.70638022 101 93 90
0.09139204 0.28320417 0.69813782 125 125 114
0.08468895 0.28617307 0.70987012 96 90 86
0.08063770 0.29171472 0.72065061 82 77 77
0.11367676 -0.22233647 0.45951011 87 91 92
0.11740439 -0.22158253 0.46080801 90 92 93
0.11158024 -0.21754389 0.45918341 88 90 91
0.11301930 -0.21776048 0.46061169 89 91 92
0.12142719 -0.22209834 0.46154762 88 91 91
0.12094519 -0.21943274 0.46115091 90 90 92
0.13337369 0.07533150 0.49556620 84 80 80
0.13391670 0.08228513 0.49362382 111 106 102
0.17971326 0.32161471 1.71184814 99 98 96
0.17656209 0.34937672 1.69579142 104 91 90
0.17553345 0.35010023 1.70519995 117 109 105
0.17601145 0.36151676 1.70467595 104 98 95
0.19296969 -0.04767921 0.49755824 46 41 43
0.19528639 -0.03984371 0.49786466 46 41 42
0.19060060 0.11370570 0.57609667 127 121 116
0.18518492 0.11509197 0.58361903 116 107 103
0.18651540 0.12159684 0.57876016 102 99 97
0.18550098 0.12072480 0.58158268 124 116 113
0.19139396 0.30541384 1.67174906 136 131 122
0.19378299 0.31507602 1.69261646 126 118 110
0.19401229 0.31981993 1.70755788 119 115 106
0.18758596 0.32547944 1.71401862 99 94 90
0.18616282 0.33321480 1.72173368 94 91 90
0.18129858 0.35296682 1.69897699 113 96 96
0.18992684 0.35226845 1.70808395 109 98 95
0.18878873 0.34397405 1.72382954 105 98 96
0.18994979 0.36489728 1.69756118 131 121 120
0.18901485 0.36270867 1.70682288 114 105 101
0.20051147 -0.04419820 0.49844989 46 45 45
0.21565597 0.17471122 0.51664321 119 112 108
0.21644220 0.17180891 0.52125579 108 100 101
0.20185439 0.35590336 1.69897699 126 122 117
0.20067851 0.35312659 1.71401501 99 91 89
0.20144218 0.34852467 1.72053766 99 90 88
0.22345196 0.17434954 0.51208506 126 123 118
0.22492284 0.18073912 0.51084542 136 126 121
0.25163603 0.11533126 0.47132399 114 110 105
0.24898119 0.12300573 0.47198136 128 125 118
0.25436205 0.23245816 1.17091952 113 111 106
0.25719744 0.22869007 1.18752590 104 91 93
0.25826827 0.23207249 1.20758106 112 99 100
0.25171626 0.29335191 0.75364886 91 78 74
0.25071289 0.29815575 0.76326140 112 105 100
0.24955538 0.30739333 0.76584523 123 116 111
0.26814665 0.03052341 0.53617772 106 102 101
0.26961103 0.17953886 0.91360086 109 94 92
0.27317469 0.19360615 0.91608585 134 127 124
0.26968492 0.19237925 0.92741540 135 130 128
0.26588881 0.19505865 0.95217500 127 122 120
0.26482194 0.19736261 0.96782991 110 107 101
0.27564642 0.20180766 0.91793451 138 133 131
0.27233057 0.20494055 0.93024591 134 129 128
0.27057044 0.21112996 0.95145142 116 108 109
0.26789828 0.21239744 0.96697903 110 99 97
0.27648149 0.21639043 1.20898860 127 117 115
0.27698851 0.22252920 0.95653017 89 86 89
0.27235209 0.22285215 0.96632089 91 88 87
0.27414817 0.22867846 0.99374909 119 110 105
0.27453371 0.23411183 1.00831923 123 117 116
0.26151670 0.23209074 1.17894232 76 75 76
0.26662366 0.22740835 1.19013655 106 101 97
0.27096462 0.22458747 1.20838387 117 109 104
0.26215536 0.23216104 1.23574253 120 105 107
0.27838364 0.24324394 0.99788002 130 128 118
0.27604111 0.24431193 1.01093299 124 123 120
0.27309212 0.24929927 1.02202267 123 116 116
0.26179150 0.24250967 1.23402731 124 117 115
0.29895541 0.14098130 0.73683894 135 127 119
0.28112378 0.20896455 0.93214218 142 134 133
0.28270151 0.21650426 0.94870751 133 127 124
0.28581161 0.21747359 1.21502020 133 125 120
0.28392249 0.22238081 0.95612643 118 111 114
0.28833771 0.22520512 0.96018672 134 126 128
0.28910530 0.22476252 1.21215790 126 119 112
0.29369482 0.22962844 1.22593429 125 118 115
0.29768956 0.24008392 1.23253059 145 138 136
0.30876216 -0.28042945 0.54757050 93 92 92
0.31154703 -0.27301567 0.54621689 88 89 90
0.31536959 0.07823580 0.46724766 91 88 84
0.31623040 0.08336958 0.46835827 110 105 102
0.30969677 0.13751938 0.73876637 140 132 125
0.31078959 0.13913698 0.74228568 137 129 122
0.30152090 0.14256495 0.73844513 117 109 105
0.31132524 0.14846578 0.74967258 120 112 109
0.31193060 0.16098876 0.75911742 126 116 114
0.31703845 0.19041195 0.48796171 121 116 108
0.30025908 0.22234181 1.21704102 133 127 122
0.32403173 0.08509565 0.47086786 102 98 91
0.32678580 0.15586548 0.75775186 112 107 102
0.32743727 0.15490295 0.76468951 86 82 79
0.33200129 0.16501740 0.75726914 112 106 104
0.33247448 0.17327510 0.76421012 125 118 114
0.32644426 0.18986148 0.48880003 111 104 99
0.33352228 0.18213999 0.76771932 127 120 112
0.34590502 -0.26228415 0.76716759 81 82 84
0.35847706 -0.24671047 0.75896803 82 83 89
0.35110646 -0.25270658 0.76303049 82 84 86
0.34345831 0.17579046 0.76963500 110 104 101
0.34359108 0.18325545 0.77278068 136 130 125
0.35881798 0.20779683 0.46383384 114 109 106
0.36172476 -0.26120902 0.76082134 81 85 87
0.36256787 -0.25098739 0.75889633 81 83 89
0.36258705 -0.25864056 0.76118800 82 84 89
0.36495788 0.19762066 0.46649595 95 90 88
0.36281502 0.20391066 0.45958769 123 123 115
0.36321873 0.20464089 0.46511112 107 104 100
0.39760926 0.23575670 0.65045559 130 123 114
0.39659983 0.38669023 1.13740242 137 133 128
0.39821427 0.39151356 1.14963925 138 131 128
0.39941415 0.39732257 1.16276479 136 128 122
0.39482752 0.41642021 1.19363565 111 110 104
0.39600454 0.42148322 1.19910200 127 122 116
0.39572124 0.42996275 1.20712261 135 127 120
0.40891630 0.19347807 0.57567752 118 113 105
0.40917835 0.19797198 0.58116130 128 121 116
0.41380988 0.20166897 0.57883886 103 100 97
0.41178857 0.20178576 0.58207787 114 109 102
0.40516219 0.23629100 0.65507081 115 108 101
0.41452819 0.23449149 0.66535773 108 101 95
0.40262091 0.24138234 0.65419634 94 85 82
0.40648181 0.39728286 1.15513527 138 133 126
0.40142390 0.39933231 1.16276479 137 129 124
0.41055444 0.40380889 1.15703327 126 124 114
0.40822983 0.40857732 1.16857247 117 111 107
0.40543241 0.41444618 1.18549857 105 102 101
0.40969866 0.42696586 1.19380374 96 89 87
0.40974907 0.43337278 1.20657455 104 94 90
0.41159246 0.44153846 1.19822061 71 67 67
0.41448655 0.44331488 1.21054500 79 74 72
0.41629740 0.44367139 1.22216165 88 78 77
0.43399400 -0.24035000 0.49699787 93 97 97
0.43581042 -0.23372827 0.49480665 93 95 95
0.43758679 0.07532697 0.48911501 79 79 76
0.43852452 0.08020912 0.49004252 81 73 73
0.42688693 0.23467759 0.67195424 81 78 76
0.43005283 0.24108165 0.67891106 105 95 87
0.43369181 0.24585446 0.68418925 89 81 78
0.42208311 0.40597856 1.15878952 119 111 99
0.42337716 0.41120321 1.16678677 115 108 101
0.42639972 0.41949556 1.18374916 110 103 97
0.42481844 0.42577290 1.19118198 106 99 90
0.42757173 0.43478292 1.20676997 105 98 88
0.44054335 -0.23063909 0.49333892 92 95 96
0.44449510 0.07259238 0.49127527 81 80 77
0.44144906 0.08064913 0.49065736 84 76 74
0.45289676 0.17615997 0.82634008 130 123 119
0.45766431 0.18291043 0.83148666 140 135 128
0.44087232 0.21918754 0.46314695 87 87 85
0.44508887 0.22978615 0.46700950 25 24 24
0.45823561 0.25793591 0.66356192 110 100 94
0.45573658 0.26553304 0.65878748 113 105 96
0.45723242 0.26382743 0.66194144 121 114 104
0.46567035 0.17709569 0.81885649 137 128 125
0.46440007 0.17469476 0.82546861 137 130 126
0.47737876 0.19360875 0.74700522 139 133 125
0.46941683 0.18334879 0.79940075 140 136 128
0.47308132 0.18629616 0.81121812 144 138 132
0.46986532 0.18640581 0.82856978 130 123 118
0.46522469 0.25738738 0.66785434 106 98 89
0.46421667 0.26680164 0.65910745 100 93 78
0.46504731 0.26405865 0.66537036 121 111 98
0.47905061 0.50305206 1.26708758 131 116 114
0.47693780 0.53653717 1.27904117 114 106 105
0.49158118 0.07354125 0.47657652 81 80 78
0.49054389 0.07261633 0.48043373 82 79 79
0.48908304 0.08154382 0.47912793 94 89 87
0.49082183 0.08248357 0.48309307 98 93 88
0.48942400 0.19342279 0.74836811 115 109 103
0.48218502 0.19356610 0.83571807 140 135 131
0.48575784 0.19799387 0.84210515 137 133 130
0.49212465 0.20105576 0.75979825 123 116 106
0.48976190 0.20271427 0.76335846 127 121 111
0.48816812 0.20388447 0.83838356 142 135 128
0.49325480 0.21054238 0.85217237 141 135 128
0.49659520 0.21457769 0.86773037 137 133 126
0.49699300 0.22209412 0.85836488 130 124 116
0.49828104 0.22234236 0.86707288 138 133 126
0.49844754 0.22432540 0.89079088 112 111 107
0.48641115 0.51147617 1.26915052 122 112 107
0.49137854 0.51636024 1.28938150 123 112 108
0.48927894 0.52081639 1.27663243 118 116 108
0.48801631 0.53246986 1.28902537 121 116 111
0.49012512 0.53267835 1.30858784 101 97 94
0.49080616 0.53548974 1.32854939 81 78 78
0.49024103 0.53667392 1.34591484 101 100 97
0.48424718 0.54363766 1.29864335 108 100 98
0.48923841 0.54344162 1.30899276 109 103 99
0.49155259 0.54485862 1.33182347 83 76 79
0.48882317 0.55428584 1.35411924 93 84 86
0.49130633 0.55427153 1.36890303 101 95 91
0.49290138 0.55640968 1.38440738 108 102 95
0.48680717 0.56169933 1.35578370 102 94 94
0.48696975 0.56129815 1.36719062 106 98 96
0.49334398 0.56006366 1.38063514 112 104 95
0.51717666 -0.08065819 1.10316080 44 42 43
0.51648619 -0.07411795 1.10520745 45 42 43
0.50762351 0.21244961 0.51960650 107 104 97
0.50767771 0.21111332 0.52069700 115 113 100
0.50204372 0.21465500 0.88267867 132 128 116
0.50923091 0.22121594 0.51985568 122 117 106
0.50791848 0.22116652 0.52093039 117 114 106
0.51673894 0.23195695 0.59177577 113 109 100
0.51966888 0.23941943 0.60043561 139 135 121
0.50065032 0.22678890 0.87520695 142 135 127
0.50438920 0.22701846 0.88988258 135 133 127
0.50558303 0.23039487 0.90386473 132 128 125
0.51355369 0.24462984 0.59511605 90 88 80
0.51715785 0.24321401 0.60083508 109 108 94
0.51758405 0.27529829 0.95515678 126 123 112
0.51748881 0.27908426 0.96429305 142 140 130
0.50218731 0.28314127 0.93502501 118 114 109
0.51108672 0.28485691 0.95323168 112 106 103
0.51139844 0.28730901 0.97194478 112 108 104
0.51078542 0.29474936 0.98388615 112 104 102
0.51440865 0.30052856 0.98962313 113 103 101
0.50124377 0.51907498 1.29616034 120 116 108
0.50374803 0.55756217 1.38628185 83 79 80
0.53055621 -0.08210688 1.10696795 45 44 44
0.53029361 -0.07311032 1.10635114 46 42 44
0.53557142 0.13756249 0.57720692 117 112 106
0.53305002 0.13821062 0.58071840 127 121 116
0.52810229 0.14432893 0.57393427 116 110 103
0.52836927 0.14647055 0.58294318 129 126 118
0.52359092 0.23569707 0.59557669 108 103 97
0.52392843 0.23868919 0.60121161 132 128 116
0.52238347 0.24622910 0.59499791 83 79 74
0.52355027 0.24816449 0.60226336 88 84 78
0.54116058 -0.08317394 1.11129808 45 45 45
0.54110322 0.13844222 0.57611215 125 121 115
0.54071165 0.14255049 0.57616758 127 122 116
0.61923798 0.30344580 0.77844121 104 101 92
0.61847589 0.30755949 0.78590998 79 75 69
0.62290293 0.30448817 0.77905822 111 108 101
0.62545705 0.31401187 0.79185940 97 94 87
0.62495032 0.31950934 0.80129173 71 69 68
0.63132303 0.32539560 0.79727327 88 84 81
0.63099615 0.32854223 0.80478893 88 81 77
0.83897801 0.04969730 0.93664116 84 83 81
0.83892431 0.07625555 1.08404938 139 135 131
0.83433305 0.42928426 1.19817328 86 84 82
0.83731904 0.43130382 1.20622767 102 101 93
0.83464795 0.44535646 1.17282331 100 102 88
0.83988625 0.44822024 1.18305731 103 103 86
0.83798577 0.44246023 1.20923882 127 126 115
0.84624048 0.03829921 0.93502442 94 95 92
0.84772524 0.03880305 0.94733714 95 96 93
0.85807666 0.03874493 0.96635059 100 101 100
0.84744314 0.04820540 0.93631869 98 99 97
0.84684484 0.04436207 0.94626342 101 103 99
0.85320812 0.04184785 0.96086770 110 111 110
0.85505174 0.05833590 1.07751700 120 119 117
0.85292030 0.05760040 1.08733736 95 95 96
0.85627262 0.06639375 1.07687896 130 127 118
0.84992120 0.06793036 1.08645029 130 128 119
0.84484625 0.43121523 1.19734667 98 88 90
0.84854039 0.43101523 1.20873623 102 94 91
0.85011930 0.42744982 1.22674294 104 98 89
0.85938776 0.43147540 1.24383819 104 96 88
0.84430171 0.45182697 1.19348881 111 108 91
0.85000416 0.44999181 1.21265955 114 109 100
0.85114676 0.45319717 1.22197792 124 116 110
0.85075162 0.46104362 1.21415110 119 113 97
0.86125886 0.05517868 1.09337389 88 88 89
0.86017111 0.06721843 1.07432431 138 134 128
0.86098707 0.06857797 1.08116722 138 135 129
0.86135155 0.43136838 1.21922994 116 101 93
0.86357605 0.43683138 1.25303483 95 90 83
0.86839157 0.43708938 1.26002204 102 94 87
0.86325394 0.45066374 1.21766755 96 92 86
0.86632717 0.45293730 1.22627981 93 88 85
0.89643112 0.29774525 0.91715890 94 94 83
0.89744848 0.29880738 0.92104870 90 91 82
0.89915524 0.30451273 0.91905117 106 106 99
0.89943004 0.30547267 0.92242884 101 100 93
0.90417975 0.29999176 0.91979897 94 97 84
0.90421566 0.30763236 0.91809099 101 99 92
0.90668027 0.31171325 0.92289955 96 91 83
0.90631181 0.32159573 0.91793451 96 87 84
0.90738153 0.32280958 0.92566224 89 81 76
0.95882082 0.27934569 0.97538394 96 96 88
0.95782852 0.28038983 0.97609070 92 93 84
0.94513146 0.37805620 1.03812083 116 116 114
0.94852473 0.37814597 1.04957469 97 97 95
0.95224723 0.38657219 1.05232252 111 111 107
0.95812540 0.38647012 1.06503630 97 97 93
0.96404922 0.27813935 0.97855331 106 106 98
0.97180804 0.27897688 0.98964769 106 105 97
0.96994651 0.28178008 0.98989449 101 101 93
0.97224553 0.37341978 1.09279839 100 92 90
0.97876102 0.37855405 1.10226321 92 88 87
0.96051753 0.38199398 1.06923008 96 96 96
0.97772136 0.39062621 1.09206766 87 87 86
0.96051753 0.40786707 1.06923008 93 92 90
0.96712404 0.43279430 1.49315381 105 99 100
0.97520187 0.42987134 1.50642929 117 108 105
0.97964793 0.44481426 1.51653659 92 82 85
0.98891805 0.28381543 1.01241224 102 99 91
0.99718258 0.28980173 1.03054683 122 122 109
0.99645954 0.30375076 1.03473021 124 125 114
0.99894053 0.30197969 1.04184254 125 123 115
0.98349108 0.39378143 1.09691429 91 91 88
0.98874793 0.39189842 1.10859924 80 79 79
0.99575919 0.39697195 1.13105830 93 88 86
0.99405053 0.39709765 1.14284013 130 121 117
0.98349193 0.41747832 1.09691525 93 92 89
0.99129388 0.40731074 1.10939156 97 97 94
0.99206495 0.40649003 1.13024596 106 102 96
0.99584211 0.40835189 1.14897913 126 119 113
0.99665302 0.42484201 1.11374116 92 92 90
0.99877012 0.42293363 1.12919311 94 92 84
0.99809474 0.42112494 1.15091991 134 129 112
0.98915154 0.43158849 1.52852356 122 114 110
0.99643907 0.43115799 1.54636711 121 114 107
0.98184448 0.44055745 1.51993692 93 88 88
0.99045739 0.44654484 1.53601046 85 80 82
0.99499571 0.45109779 1.54984106 73 69 70
1.00301437 0.28588530 1.03527617 106 104 98
1.00466246 0.29139171 1.04644958 119 116 107
1.01624564 0.29650353 1.06308417 121 121 110
1.00930199 0.30320126 1.05550343 126 125 118
1.01482151 0.30353444 1.06443644 129 129 118
1.00213306 0.39713818 1.13021498 77 76 74
1.00273593 0.39817051 1.15550717 140 133 127
1.00103092 0.41801180 1.11863339 99 101 95
1.00241472 0.41321643 1.13073220 93 90 87
1.00126307 0.41314687 1.15641792 136 132 120
1.00792453 0.41131425 1.16597235 134 132 122
1.00628948 0.42394233 1.12946294 94 93 89
1.00291646 0.42200154 1.15878952 135 129 112
1.00492450 0.42168170 1.16343300 137 131 116
1.00590361 0.42629555 1.55416276 115 111 103
1.01029209 0.42989819 1.57085971 119 113 102
1.01414764 0.43607493 1.58479109 113 108 96
1.00128567 0.44900444 1.55837202 70 69 71
1.00343874 0.44450788 1.56340568 108 97 97
1.01399382 0.45044954 1.58884589 98 92 89
1.00747883 0.46239996 1.57649267 66 63 66
1.01373816 0.46675363 1.58201343 72 69 72
1.02209270 0.29213491 1.06840143 117 111 108
1.02013409 0.30157530 1.06586766 132 132 115
1.02665794 0.41230950 1.18859454 137 131 127
1.02283382 0.43553686 1.55837202 126 128 119
1.02803274 0.43799546 1.57041895 126 125 118
1.03508420 0.43420495 1.58497397 123 121 112
1.02299468 0.44766583 1.60511291 99 93 85
1.05868495 0.25353030 0.93213383 122 118 111
1.05483587 0.26859671 0.92848655 126 122 113
1.04268050 0.29801905 1.09337389 111 104 101
1.04281425 0.43123374 1.58884013 125 123 108
1.07052875 0.25431598 0.93191950 114 110 104
1.06646721 0.25686622 0.94238943 109 107 99
1.06708267 0.26333563 0.93219052 120 112 107
1.06997720 0.26902148 0.94597264 125 125 115
1.08147113 0.25091576 0.93389986 105 105 96
1.09877932 0.73792255 1.66968429 96 96 96
1.09877932 0.74225143 1.66968429 90 91 91
1.10544693 0.73736441 1.67629290 95 93 92
1.11319089 0.73455540 1.68715594 84 79 80
1.10302532 0.74316600 1.67174566 88 89 89
1.10760014 0.74578869 1.68752059 86 85 86
1.11689492 0.75044330 1.70467595 85 82 84
1.11778593 0.76055396 1.70753610 81 82 84
1.13612509 0.42013758 1.55123997 135 129 117
1.13419471 0.46736882 1.55226924 98 92 88
1.13857913 0.48243573 1.56196272 90 86 87
1.13793540 0.70929569 1.73373878 104 102 101
1.12099266 0.73324931 1.69897699 74 69 68
1.12546659 0.73625876 1.71023928 75 72 68
1.13582993 0.73793153 1.72712699 76 76 70
1.12273639 0.75057964 1.71509844 80 76 77
1.13161562 0.74490763 1.72997028 76 73 70
1.13776183 0.74908686 1.74265254 76 75 71
1.14226977 0.42533587 1.55718060 132 130 117
1.15221253 0.43466248 1.56981348 134 131 121
1.15689861 0.43441645 1.58875297 132 128 119
1.15212274 0.45977852 1.55837202 129 129 119
1.15556788 0.44366151 1.57285182 143 137 129
1.15891153 0.44668994 1.59074359 142 137 129
1.15987778 0.44512258 1.60258114 142 138 131
1.14412621 0.46340921 1.55378595 120 116 109
1.14790976 0.46902968 1.56981352 104 99 93
1.15683153 0.46492983 1.58730215 126 120 112
1.15986377 0.47338539 1.60447997 117 110 99
1.14517730 0.48522834 1.57101446 91 85 88
1.14085317 0.71411872 1.73818421 97 91 90
1.14423567 0.71447816 1.74640310 104 102 99
1.14966846 0.72361824 1.75392753 91 88 82
1.15693976 0.72833796 1.76536739 94 91 86
1.14686179 0.74115753 1.73818421 77 76 72
1.14364171 0.74993050 1.75165856 78 77 71
1.15411389 0.75121358 1.76535529 79 77 74
1.15706015 0.77763328 1.77691483 72 69 72
1.15857661 0.78326738 1.77924371 77 76 78
1.17593431 0.36862221 1.41522300 141 135 118
1.16006994 0.43515155 1.57649267 131 131 122
1.16006994 0.44332609 1.57649267 134 129 120
1.16436121 0.45387144 1.59181212 143 138 130
1.16290951 0.45290113 1.60562648 143 138 132
1.17095134 0.45660128 1.62370005 141 135 132
1.16300409 0.46212796 1.58871119 137 133 121
1.16372423 0.46901469 1.60944400 130 124 113
1.17275877 0.46949192 1.63066375 131 127 118
1.16645491 0.73363003 1.77407924 93 90 85
1.16469049 0.73793662 1.78863287 95 93 85
1.17089224 0.74195808 1.74714386 86 81 75
1.16535311 0.74949553 1.77644906 77 75 73
1.16965670 0.74930081 1.79234798 85 82 78
1.17399397 0.75668716 1.81135607 89 85 82
1.16513295 0.76913797 1.78931238 78 75 72
1.17650223 0.76869752 1.81158869 83 78 75
1.17715764 0.76127154 1.82228994 97 90 89
1.16162550 0.78841197 1.78392589 77 78 80
1.18837917 0.37206389 1.43318158 140 134 117
1.18837380 0.39806944 1.43317509 128 120 111
1.19598508 0.39729534 1.44386071 127 122 104
1.18837380 0.40054658 1.43317509 136 131 129
1.19549503 0.40461834 1.44417617 138 133 127
1.18601745 0.75035004 1.79284448 85 80 76
1.19115430 0.75885555 1.80530775 80 74 69
1.18485481 0.76205277 1.79812157 72 70 64
1.19377776 0.76455486 1.80771160 75 72 64
1.18453379 0.77211495 1.82557333 81 76 75
1.19403398 0.77268915 1.84966767 92 87 83
1.19981027 0.77800280 1.86234021 95 89 82
1.18028414 0.79535484 1.81740439 68 64 68
1.18666022 0.78837953 1.82820008 78 75 73
1.19861809 0.78407466 1.85386419 84 79 77
1.18729179 0.81114174 1.82819471 73 73 75
1.20368475 0.37849538 1.45315933 139 134 118
1.21582504 0.38978297 1.46730296 133 129 111
1.21607304 0.38806602 1.48987222 141 137 120
1.20287255 0.40823959 1.45470357 141 136 126
1.21026626 0.40815517 1.46492150 137 132 118
1.21342884 0.41391895 1.48716138 131 125 111
1.21135879 0.40018907 1.50642633 123 125 115
1.20279989 0.76494033 1.81159387 81 75 70
1.21435046 0.77463752 1.82968426 77 73 66
1.20294333 0.79513180 1.85723794 80 77 72
1.20574720 0.79070821 1.86955693 89 84 80
1.21407542 0.79128484 1.88828546 90 85 81
1.21210679 0.81062304 1.87263656 76 72 72
1.21706798 0.81005393 1.88828790 86 81 78
1.21712202 0.81016456 1.91360015 121 112 112
1.21741247 0.81784016 1.92582905 119 109 108
1.21291616 0.83085757 1.87263513 75 72 73
1.21689435 0.83189217 1.88886744 87 81 78
1.21815509 0.84105697 1.88828546 81 76 73
1.21702600 0.84063345 1.90955448 130 116 101
1.22528410 0.39403968 1.47505387 131 127 115
1.22981139 0.39321036 1.48914361 138 133 120
1.23276786 0.39611774 1.50778028 139 138 120
1.22717321 0.40255296 1.47688854 117 110 102
1.22836900 0.40488849 1.49336502 132 128 118
1.23066959 0.40780403 1.50957569 137 133 122
1.23932735 0.41274641 1.52717849 140 135 126
1.22585611 0.42053065 1.51092470 133 126 117
1.23603813 0.42111488 1.52563981 137 129 123
1.22165620 0.77698660 1.83710527 83 78 71
1.22005403 0.79982179 1.89885676 87 83 80
1.22169501 0.81130886 1.89885676 87 83 81
1.22370860 0.81624207 1.91255463 108 100 96
1.22993736 0.81467745 1.92721632 110 102 101
1.23794901 0.81815583 1.94238353 116 107 107
1.22251549 0.83592403 1.89885676 88 82 81
1.22821872 0.82960217 1.90848775 86 81 81
1.22815840 0.82684651 1.93133003 116 107 101
1.23138925 0.82863194 1.94727138 124 114 110
1.23891222 0.83685970 1.97061586 127 117 112
1.22018981 0.84156334 1.90419054 112 98 89
1.23331046 0.84734818 1.92858803 113 102 96
1.23820404 0.84936190 1.94985783 128 120 106
1.24363679 0.39456107 1.50979139 143 138 123
1.24650978 0.40546348 1.51275466 133 129 121
1.24656834 0.40925035 1.53289299 137 136 122
1.24820983 0.40795282 1.54066324 132 134 113
1.24521267 0.42068663 1.53369200 140 132 124
1.24298495 0.81479856 1.94238353 100 95 90
1.24100846 0.83638251 1.93407482 93 88 85
1.25206912 0.82186329 1.95922494 99 95 91
1.24252427 0.83588356 1.97636104 119 110 110
1.24090958 0.84019893 1.93131578 90 85 82
1.24534598 0.84679113 1.94937655 109 101 96
1.24743301 0.85049111 1.97063243 128 119 112
1.25080148 0.85171910 1.98407749 135 125 116
1.26024985 0.86438701 1.99087608 130 121 114
1.33366919 -1.00024521 1.84711671 89 91 90
1.33731318 -0.98857227 1.85216355 92 93 89
1.35532677 -1.02053416 1.87262940 89 90 91
1.34189280 -1.00267009 1.85554647 93 94 92
1.35343266 -1.00555074 1.86644454 94 95 90
1.34226098 -0.99288572 1.85723794 92 93 89
1.35054709 -0.99254848 1.86490896 93 94 91
1.37504993 -1.04745363 1.89741287 92 95 96
1.37487805 -1.04925352 1.90419054 90 94 95
1.36962947 -1.02336112 1.87781680 93 93 94
1.37160684 -1.03205909 1.88711904 93 94 95
1.36793055 -1.00602922 1.87100331 92 94 91
1.37120205 -0.99633566 1.85470074 92 97 101
1.36891222 -0.99662410 1.87028968 92 93 91
1.38792666 -1.04699995 1.89594098 94 96 97
1.38556662 -1.03631300 1.88959676 92 93 93
1.40120804 -1.05254477 1.90419054 95 97 98
