ply
format ascii 1.0
element vertex 1054
property float x
property float y
property float z
property uchar red
property uchar green
property uchar blue
end_header
0.39816925 0.13981169 0.48524827 169 178 173
0.40101734 0.14051577 0.48769197 168 177 172
0.40128291 0.14031389 0.48699126 166 175 170
1.28895307 0.44694951 1.55123997 166 175 174
1.28282773 0.44390213 1.54066324 166 175 173
1.27390969 0.43990302 1.52678347 165 175 172
1.24295521 0.42832661 1.48660493 164 174 171
1.23738396 0.42552710 1.47688854 162 172 169
1.22382534 0.41913506 1.45470357 160 169 166
0.41635722 0.14143153 0.49087027 152 161 158
0.41750798 0.14153402 0.49122596 149 158 155
0.41957319 0.14194545 0.49265397 143 151 149
0.42103666 0.14215207 0.49337107 132 140 139
0.42219669 0.14225560 0.49373040 123 131 130
0.42243472 0.14204869 0.49301225 116 123 124
-0.49122044 0.35467258 1.22363150 110 115 120
-0.48910549 0.35467258 1.22363150 108 115 120
-0.48611307 0.35403353 1.22142673 101 112 120
-0.48400193 0.35403353 1.22142673 99 110 118
-0.47844258 0.35150021 1.21268666 95 106 116
-0.19381775 0.17450143 0.60203540 104 112 118
-0.24651544 0.24138650 0.83279097 150 159 158
-0.27780804 0.32748103 1.12981975 147 157 162
-0.27493876 0.32639304 1.12606621 151 162 163
-0.27253973 0.32585177 1.12419879 162 173 172
-0.27059665 0.32585177 1.12419879 170 181 179
-0.26715350 0.32639304 1.12606621 190 195 195
-0.26564848 0.32693613 1.12793982 197 201 199
-0.26282430 0.32585177 1.12419879 196 201 196
-0.26088122 0.32585177 1.12419879 192 198 192
-0.25850943 0.32531229 1.12233746 192 198 192
-0.25488159 0.32317206 1.11495364 192 198 192
-0.25378931 0.32423863 1.11863339 192 198 192
-0.01394805 0.13550939 0.46751162 169 175 173
-0.01314000 0.13550939 0.46751162 168 174 172
-0.01233194 0.13550939 0.46751162 174 179 178
-0.01149218 0.13513660 0.46622548 179 183 182
-0.01063515 0.13448913 0.46399167 183 184 180
-0.00982645 0.13439713 0.46367431 181 182 178
-0.00903121 0.13448913 0.46399167 178 179 175
-0.00822923 0.13448913 0.46399167 178 179 175
-0.00850575 0.17266135 0.59568703 173 175 171
-0.00748273 0.17281321 0.59621096 171 174 170
-0.00643525 0.17235844 0.59464198 169 171 168
-0.00540272 0.17220737 0.59412080 160 162 159
-0.00437967 0.17235844 0.59464198 151 152 151
-0.00335482 0.17250976 0.59516406 131 140 139
-0.00232205 0.17220737 0.59412080 129 137 140
-0.00129290 0.17190605 0.59308124 133 140 144
-0.00026757 0.17175579 0.59256279 140 145 152
0.00075334 0.17100836 0.58998418 151 156 161
0.00175929 0.16967928 0.58539885 159 164 168
0.07961077 0.16333218 0.56350112 134 143 146
0.08038428 0.16292588 0.56209940 137 146 149
0.08115394 0.16252160 0.56070459 138 147 148
0.08191980 0.16211931 0.55931669 144 151 151
0.08288654 0.16211931 0.55931669 141 147 147
0.08385327 0.16211931 0.55931669 136 142 142
0.08475008 0.16198567 0.55885559 135 141 141
0.08543429 0.16145326 0.55701876 135 140 140
0.10059526 0.16581318 0.57206064 144 151 148
0.10661874 0.16750948 0.57791293 153 159 159
0.10770945 0.16765240 0.57840604 153 159 159
0.10880201 0.16779557 0.57889998 152 155 156
0.10980259 0.16779557 0.57889998 144 147 148
0.11061425 0.16750948 0.57791293 140 143 144
0.11151805 0.16736679 0.57742065 140 143 144
0.11261199 0.16750948 0.57791293 138 143 143
0.11361087 0.16750948 0.57791293 139 145 145
0.26114637 0.13485835 0.46526551 113 113 116
0.26303372 0.13541600 0.46718940 116 116 119
0.26420540 0.13560291 0.46783426 126 126 129
0.26501402 0.13560291 0.46783426 129 129 131
0.26600620 0.13569656 0.46815735 134 134 135
0.26699975 0.13579033 0.46848089 135 136 136
0.26762456 0.13569656 0.46815735 135 136 136
0.26899102 0.13597828 0.46912929 134 135 135
0.27092683 0.13654526 0.47108537 133 134 134
0.27193004 0.13664021 0.47141296 129 133 132
0.27293465 0.13673529 0.47174102 135 139 139
0.27375001 0.13673529 0.47174102 138 144 142
0.27475658 0.13683051 0.47206953 140 147 145
0.27595684 0.13702135 0.47272792 148 157 154
0.27696705 0.13711697 0.47305781 159 168 165
0.27759099 0.13702135 0.47272792 166 175 172
0.27821404 0.13692586 0.47239849 163 172 169
1.29516315 0.45273876 1.56196272 168 177 175
1.29190946 0.45066196 1.55479777 169 178 177
1.28282773 0.44656503 1.54066324 169 178 177
1.27390969 0.44254193 1.52678347 170 179 175
1.24568689 0.43184310 1.48987222 170 179 174
1.24008572 0.42901444 1.48011315 170 179 174
1.23993659 0.42807978 1.47688854 171 180 174
1.23175502 0.42438146 1.46412921 171 180 173
1.21332121 0.41717330 1.43926084 171 180 173
0.41726366 0.14258970 0.49193892 163 172 167
0.41841757 0.14269325 0.49229619 157 166 163
0.42018390 0.14300482 0.49337107 154 163 160
0.42165041 0.14321327 0.49409026 145 154 151
0.42281258 0.14331774 0.49445066 137 146 143
0.42305005 0.14310896 0.49373040 128 137 136
-0.49512282 0.35808024 1.22806489 108 112 113
-0.49210873 0.35743272 1.22584414 101 116 122
-0.48998994 0.35743272 1.22584414 103 118 124
-0.48787117 0.35743272 1.22584414 103 117 125
-0.48575240 0.35743272 1.22584414 102 117 123
-0.48189080 0.35614470 1.22142673 102 116 121
-0.47891676 0.35550413 1.21922994 104 115 120
-0.24742734 0.24372417 0.83587158 148 157 156
-0.28211176 0.33220220 1.13931406 143 151 157
-0.27873716 0.33053562 1.13359845 151 159 165
-0.27539623 0.32888567 1.12793982 162 173 173
-0.27344668 0.32888567 1.12793982 170 181 181
-0.27044758 0.32998380 1.13170588 188 194 193
-0.26759803 0.32888567 1.12793982 194 200 198
-0.26282430 0.32779485 1.12419879 195 201 195
-0.26088122 0.32779485 1.12419879 195 201 195
-0.25850943 0.32725215 1.12233746 195 201 197
-0.25404590 0.32403329 1.11129808 194 200 195
-0.25337121 0.32563475 1.11679053 194 200 194
-0.01146066 0.13556948 0.46494639 183 184 180
-0.00951028 0.17323427 0.59412080 175 176 172
-0.00849829 0.17353845 0.59516406 174 175 171
-0.00747616 0.17369094 0.59568703 172 173 169
-0.00642961 0.17323427 0.59412080 171 171 167
-0.00539799 0.17308258 0.59360057 166 167 162
-0.00437583 0.17323427 0.59412080 164 165 158
-0.00335188 0.17338623 0.59464198 144 145 144
-0.00232002 0.17308258 0.59360057 138 138 142
-0.00129177 0.17277998 0.59256279 138 138 144
-0.00026757 0.17277998 0.59256279 141 145 151
0.00075268 0.17187852 0.58947116 158 162 165
0.00175778 0.17054383 0.58489376 169 173 174
0.00275920 0.16995727 0.58288205 174 178 177
0.08038428 0.16389742 0.56209940 148 158 161
0.08108687 0.16335562 0.56024116 150 158 159
0.08191980 0.16308606 0.55931669 151 158 158
0.08295498 0.16322072 0.55977857 145 150 150
0.08392251 0.16322072 0.55977857 139 143 144
0.08475008 0.16295160 0.55885559 134 138 139
0.08536414 0.16228268 0.55656147 131 134 136
0.10051044 0.16666129 0.57157826 133 140 139
0.10552990 0.16836482 0.57742065 151 155 156
0.10661874 0.16850835 0.57791293 152 157 158
0.10770945 0.16865213 0.57840604 154 158 159
0.10870917 0.16865213 0.57840604 155 157 158
0.10980259 0.16879615 0.57889998 154 155 157
0.11070862 0.16865213 0.57840604 150 151 152
0.11161312 0.16850835 0.57791293 150 151 153
0.11270808 0.16865213 0.57840604 147 150 151
0.11361087 0.16850835 0.57791293 145 151 151
0.11451212 0.16836482 0.57742065 142 148 149
0.26240706 0.13631745 0.46751162 135 136 139
0.26376083 0.13660006 0.46848089 132 138 140
0.26457056 0.13660006 0.46848089 134 140 141
0.26538029 0.13660006 0.46848089 132 142 137
0.26655847 0.13678913 0.46912929 138 146 142
0.26755446 0.13688387 0.46945420 141 145 143
0.26818016 0.13678913 0.46912929 141 144 142
0.26992503 0.13726410 0.47075823 140 141 141
0.27130389 0.13755067 0.47174102 136 137 138
0.27230877 0.13764645 0.47206953 129 130 132
0.27312469 0.13764645 0.47206953 133 134 136
0.27413154 0.13774237 0.47239849 134 137 138
0.27634224 0.13803093 0.47338817 141 147 145
0.27735415 0.13812739 0.47371897 149 155 153
0.27778471 0.13793461 0.47305781 155 164 161
1.30816340 0.46290469 1.58756876 166 176 173
1.30479598 0.46074662 1.58016741 168 177 175
1.30145979 0.45860857 1.57283485 169 178 177
1.29218578 0.45439148 1.55837202 170 179 177
1.28895307 0.45231190 1.55123997 172 181 178
1.26535988 0.44219306 1.51653659 174 183 179
1.23738396 0.43063247 1.47688854 175 184 177
1.23724115 0.42969629 1.47367787 175 184 177
1.23175502 0.42691210 1.46412921 176 185 178
1.21332121 0.41966093 1.43926084 176 185 177
-0.49512282 0.36020285 1.22806489 101 110 114
-0.49122044 0.35890248 1.22363150 100 115 121
-0.48910549 0.35890248 1.22363150 104 119 125
-0.48699054 0.35890248 1.22363150 104 119 125
-0.48575240 0.35955149 1.22584414 104 119 123
-0.48102409 0.35761148 1.21922994 106 121 125
-0.47805694 0.35696945 1.21704102 113 123 126
-0.47510043 0.35632971 1.21485996 118 127 129
-0.47384983 0.35696945 1.21704102 114 125 125
-0.47259474 0.35761148 1.21922994 119 129 128
-0.47303978 0.35955149 1.22584414 118 127 126
-0.24712263 0.24486697 0.83484215 141 150 149
-0.28402114 0.33643314 1.14702511 146 155 159
-0.27967250 0.33361071 1.13740242 161 169 173
-0.27631575 0.33193988 1.13170588 170 181 181
-0.27435970 0.33193988 1.13170588 179 188 188
-0.27285916 0.33249494 1.13359845 188 195 194
-0.27089983 0.33249494 1.13359845 195 201 197
-0.26804402 0.33138663 1.12981975 196 202 198
-0.26326087 0.33028567 1.12606621 195 201 196
-0.26131457 0.33028567 1.12606621 196 201 196
-0.25850943 0.32919201 1.12233746 195 201 196
-0.25488159 0.32702628 1.11495364 195 200 195
-0.25337121 0.32756504 1.11679053 197 201 196
-0.25185585 0.32810557 1.11863339 197 201 198
-0.00952698 0.17456715 0.59516406 172 173 172
-0.00851323 0.17487422 0.59621096 172 173 171
-0.00748273 0.17487422 0.59621096 171 171 167
-0.00642961 0.17426115 0.59412080 169 169 166
-0.00539799 0.17410856 0.59360057 166 166 162
-0.00437583 0.17426115 0.59412080 162 162 157
-0.00335188 0.17441402 0.59464198 148 149 147
-0.00232205 0.17426115 0.59412080 137 138 140
-0.00129290 0.17395623 0.59308124 140 141 147
-0.00026757 0.17380418 0.59256279 150 153 159
0.00075399 0.17319860 0.59049815 160 164 167
0.00176234 0.17199998 0.58641165 172 176 177
0.00276395 0.17125924 0.58388615 172 176 177
0.00375697 0.17052485 0.58138239 174 175 175
0.08198745 0.16418825 0.55977857 158 163 164
0.08309221 0.16445987 0.56070459 150 154 155
0.08399187 0.16432396 0.56024116 140 144 145
0.08482000 0.16405278 0.55931669 131 134 138
0.08536414 0.16324465 0.55656147 123 125 130
0.10017259 0.16708569 0.56965703 128 133 135
0.10661874 0.16950724 0.57791293 154 158 159
0.10761762 0.16950724 0.57791293 155 159 160
0.10870917 0.16965187 0.57840604 162 163 162
0.10970890 0.16965187 0.57840604 162 163 161
0.11061425 0.16950724 0.57791293 158 159 157
0.11161312 0.16950724 0.57791293 153 154 153
0.11261199 0.16950724 0.57791293 149 150 151
0.11361087 0.16950724 0.57791293 146 147 149
0.11451212 0.16936284 0.57742065 150 151 153
0.26376083 0.13740981 0.46848089 140 145 144
0.26475355 0.13750483 0.46880487 141 147 145
0.26556385 0.13750483 0.46880487 146 156 151
0.26674306 0.13769528 0.46945420 145 156 150
0.26773989 0.13779069 0.46977952 148 154 150
0.26836589 0.13769528 0.46945420 147 153 149
0.26992503 0.13807777 0.47075823 144 146 145
0.27168202 0.13855886 0.47239849 139 140 140
0.27470583 0.13884915 0.47338817 128 129 133
0.27629581 0.13923807 0.47471419 130 130 134
0.27769974 0.13953121 0.47571358 132 136 139
0.27813160 0.13933566 0.47504684 135 141 143
0.27875733 0.13923807 0.47471419 144 152 154
0.27957785 0.13923807 0.47471419 146 155 156
0.44538397 0.17752856 0.60526055 138 143 141
0.44484138 0.17689678 0.60310662 143 150 147
1.30604887 0.46783996 1.59503961 159 170 167
1.30880570 0.46783996 1.59503961 161 171 168
1.30848384 0.46674174 1.59129536 164 175 172
1.30510700 0.46456069 1.58385944 166 177 174
1.29874122 0.46132711 1.57283485 168 178 176
1.23483133 0.43318513 1.47688854 174 183 177
1.22934902 0.43037224 1.46729839 174 183 177
1.22393751 0.42759565 1.45783186 174 183 176
1.22120476 0.42576441 1.45158851 174 182 175
1.21075058 0.42125419 1.43621159 172 180 173
1.20303774 0.41771424 1.42414248 172 180 170
-0.49512282 0.36232546 1.22806489 95 111 116
-0.49122044 0.36101744 1.22363150 99 117 120
-0.48822421 0.36036697 1.22142673 102 120 124
-0.48611307 0.36036697 1.22142673 104 121 124
-0.48487559 0.36101744 1.22363150 108 122 125
-0.48102409 0.35971880 1.21922994 113 125 128
-0.47720021 0.35842949 1.21485996 116 127 129
-0.47088104 0.35524628 1.20407081 117 128 131
-0.46879992 0.35524628 1.20407081 119 130 129
-0.46921906 0.35714939 1.21052110 119 129 129
-0.47048739 0.35971880 1.21922994 118 127 128
-0.26284701 0.24752928 0.83897507 142 148 144
-0.26075149 0.24691810 0.83690351 148 153 150
-0.25866628 0.24630992 0.83484215 150 154 153
-0.24651544 0.24570474 0.83279097 131 140 141
-0.28648844 0.33898926 1.14896917 135 147 152
-0.28547025 0.34014228 1.15287733 155 166 168
-0.28108740 0.33727431 1.14315653 169 180 180
-0.27724144 0.33501449 1.13549721 170 179 180
-0.27620414 0.33614060 1.13931406 187 195 195
-0.27423492 0.33614060 1.13931406 194 203 200
-0.27226570 0.33614060 1.13931406 197 201 198
-0.26894048 0.33445427 1.13359845 197 201 198
-0.26653543 0.33389592 1.13170588 197 201 198
-0.26369891 0.33278480 1.12793982 197 201 198
-0.26131457 0.33223200 1.12606621 197 201 198
-0.25893813 0.33168104 1.12419879 196 201 199
-0.25530151 0.32949531 1.11679053 196 202 198
-0.25378931 0.33003905 1.11863339 196 202 198
-0.25227213 0.33058456 1.12048233 196 202 196
-0.00851323 0.17590472 0.59621096 169 172 171
-0.00747616 0.17575014 0.59568703 168 169 168
-0.00642961 0.17528805 0.59412080 168 168 167
-0.00539327 0.17498133 0.59308124 164 164 163
-0.00437200 0.17513455 0.59360057 161 161 158
-0.00334601 0.17513455 0.59360057 147 148 148
-0.00232002 0.17513455 0.59360057 136 137 138
-0.00129177 0.17482838 0.59256279 138 139 143
-0.00026757 0.17482838 0.59256279 143 146 152
0.00075399 0.17421922 0.59049815 152 155 158
0.00176386 0.17316334 0.58691937 164 168 169
0.00276633 0.17241696 0.58438951 166 168 168
0.00376666 0.17197220 0.58288205 169 173 172
0.08475008 0.16488348 0.55885559 124 128 132
0.10961537 0.17050610 0.57791293 158 159 157
0.11052003 0.17036086 0.57742065 157 157 156
0.11151805 0.17036086 0.57742065 148 148 148
0.11261199 0.17050610 0.57791293 143 143 143
0.11361087 0.17050610 0.57791293 145 145 147
0.11441467 0.17021587 0.57692921 147 147 150
0.26493675 0.13841084 0.46912929 142 147 145
0.26574761 0.13841084 0.46912929 143 148 146
0.26711303 0.13869879 0.47010529 144 149 147
0.26792556 0.13869879 0.47010529 146 152 150
0.26855186 0.13860267 0.46977952 148 154 152
0.27011260 0.13898794 0.47108537 145 148 147
0.27427068 0.13986270 0.47405025 134 135 137
0.27547532 0.14005859 0.47471419 131 131 136
0.27746162 0.14064956 0.47671717 129 129 136
0.27867755 0.14084765 0.47738862 127 129 136
0.27891341 0.14055070 0.47638217 129 132 138
0.27914831 0.14025502 0.47537997 131 137 143
0.27996996 0.14025502 0.47537997 132 140 146
0.44459006 0.17825638 0.60418171 134 136 137
0.44405127 0.17762314 0.60203540 145 147 148
0.44430268 0.17730822 0.60096794 155 163 160
1.30604887 0.47059685 1.59503961 153 164 161
1.30573344 0.46949217 1.59129536 157 168 165
1.30236936 0.46729827 1.58385944 162 173 170
1.29602265 0.46404561 1.57283485 165 176 174
1.28976381 0.46083793 1.56196272 168 178 177
1.23214686 0.43479058 1.47367787 173 182 177
1.22405005 0.43104237 1.46097374 171 180 175
1.22131097 0.42919239 1.45470357 170 179 173
1.22382534 0.42919239 1.45470357 170 178 170
1.21332121 0.42463621 1.43926084 170 177 169
1.20303774 0.42017576 1.42414248 168 177 168
-0.49422750 0.36378905 1.22584414 99 114 120
-0.49033535 0.36247811 1.22142673 101 118 121
-0.48647118 0.36117655 1.21704102 99 115 118
-0.48263463 0.35988432 1.21268666 101 116 118
-0.48226404 0.36117655 1.21704102 105 120 123
-0.47844258 0.35988432 1.21268666 110 126 128
-0.47464833 0.35860133 1.20836341 105 122 123
-0.46755913 0.35480660 1.19557643 109 128 128
-0.46549270 0.35480660 1.19557643 111 127 126
-0.46506667 0.35606256 1.19980860 109 125 124
-0.46880105 0.36052927 1.21485996 112 125 125
-0.26462463 0.24928790 0.84001470 127 136 136
-0.26284701 0.24897939 0.83897507 137 142 140
-0.26075149 0.24836461 0.83690351 144 149 147
-0.25866628 0.24775289 0.83484215 150 154 153
-0.25785846 0.24836461 0.83690351 148 152 151
-0.25641191 0.24836461 0.83690351 146 150 150
-0.25591323 0.24928790 0.84001470 141 145 146
-0.25383225 0.24867162 0.83793801 140 144 144
-0.25207236 0.24836461 0.83690351 138 142 142
-0.25062585 0.24836461 0.83690351 134 140 142
-0.24825984 0.24744815 0.83381528 127 134 136
-0.24621297 0.24684091 0.83176911 123 131 135
-0.28396052 0.34271780 1.15484130 175 184 185
-0.28100702 0.34155408 1.15091991 183 192 191
-0.27901775 0.34155408 1.15091991 195 204 201
-0.27655894 0.34097517 1.14896917 195 204 199
-0.27364543 0.33982322 1.14508760 197 202 198
-0.26984298 0.33754253 1.13740242 197 201 197
-0.26698115 0.33641362 1.13359845 196 202 197
-0.25893813 0.33362412 1.12419879 196 202 196
-0.25614548 0.33252123 1.12048233 196 202 196
-0.25462967 0.33307177 1.12233746 196 202 197
-0.25310886 0.33362412 1.12419879 196 202 197
-0.00850575 0.17677973 0.59568703 167 170 169
-0.00746304 0.17646959 0.59464198 166 167 167
-0.00641836 0.17600642 0.59308124 161 161 161
-0.00538855 0.17585257 0.59256279 155 155 155
-0.00436817 0.17600642 0.59308124 157 157 157
-0.00334308 0.17600642 0.59308124 139 140 140
-0.00231799 0.17600642 0.59308124 133 133 136
-0.00129177 0.17585257 0.59256279 133 133 140
-0.00026734 0.17569900 0.59204525 132 132 139
0.00075268 0.17493507 0.58947116 145 146 150
0.00175929 0.17372654 0.58539885 154 157 157
0.00276157 0.17312852 0.58338368 161 163 162
0.00374733 0.17209183 0.57989037 162 166 166
0.00472939 0.17135890 0.57742065 162 168 167
0.08468027 0.16571280 0.55839527 120 121 128
0.11151805 0.17135890 0.57742065 138 137 138
0.26785603 0.13989940 0.47141296 143 144 144
0.26848412 0.13980219 0.47108537 145 145 145
0.26892459 0.13960814 0.47043154 145 145 145
0.27263197 0.14068206 0.47405025 142 142 142
0.27460352 0.14127482 0.47604764 138 139 139
0.27600780 0.14157307 0.47705266 137 137 138
0.27644324 0.14137410 0.47638217 136 136 138
0.27785242 0.14167278 0.47738862 135 135 139
0.27848142 0.14157307 0.47705266 130 131 136
0.27891341 0.14137410 0.47638217 124 128 133
0.27895269 0.14097781 0.47504684 123 127 133
0.27977377 0.14097781 0.47504684 121 130 136
0.28177962 0.14157307 0.47705266 123 131 137
0.28300247 0.14177261 0.47772506 125 133 139
0.44459006 0.17930067 0.60418171 120 129 128
0.44444600 0.17882253 0.60257053 135 143 142
0.44430268 0.17834693 0.60096794 151 161 159
1.30573344 0.47224259 1.59129536 156 167 161
1.30236936 0.47003585 1.58385944 159 170 165
1.29602265 0.46676412 1.57283485 161 172 169
1.28976381 0.46353766 1.56196272 164 175 172
1.28949225 0.46247205 1.55837202 166 176 173
1.25413716 0.44606507 1.50308609 168 177 174
1.23752737 0.43924746 1.48011315 168 177 173
1.22934902 0.43544447 1.46729839 167 176 171
1.22910047 0.43356755 1.46097374 162 171 165
1.21590269 0.42803264 1.44232309 163 172 165
1.20811379 0.42442057 1.43015158 164 173 166
-0.49244648 0.36458924 1.22142673 106 121 126
-0.48857471 0.36328012 1.21704102 104 121 124
-0.48300257 0.36068988 1.20836341 103 120 123
-0.48005828 0.36004809 1.20621324 102 120 122
-0.47882545 0.36068988 1.20836341 101 120 122
-0.47588861 0.36004809 1.20621324 103 122 124
-0.47212362 0.35877132 1.20193589 97 119 120
-0.46673599 0.35624477 1.19347155 100 122 123
-0.46467316 0.35624477 1.19347155 102 122 122
-0.46342623 0.35687307 1.19557643 104 121 121
-0.46546438 0.36004809 1.20621324 105 118 117
-0.26640663 0.25105089 0.84105688 121 129 130
-0.26528206 0.25136277 0.84210169 124 131 133
-0.26349923 0.25105089 0.84105688 133 137 138
-0.26107380 0.25011992 0.83793801 138 142 143
-0.25930497 0.24981114 0.83690351 142 146 147
-0.25817719 0.25011992 0.83793801 141 144 145
-0.25641191 0.24981114 0.83690351 137 140 142
-0.25591323 0.25073981 0.84001470 130 132 135
-0.25383225 0.25011992 0.83793801 117 119 124
-0.25207236 0.24981114 0.83690351 119 119 128
-0.25062585 0.24981114 0.83690351 118 123 132
-0.24825984 0.24888933 0.83381528 119 124 133
-0.24591124 0.24797429 0.83074981 119 127 133
-0.24387762 0.24736799 0.82871866 122 128 134
-0.28140661 0.34648463 1.16077375 196 203 200
-0.27844670 0.34530208 1.15681207 197 203 200
-0.27503920 0.34354332 1.15091991 197 203 198
-0.27120811 0.34122601 1.14315653 197 203 198
-0.26742837 0.33893973 1.13549721 196 202 198
-0.25936824 0.33612463 1.12606621 197 203 199
-0.25699502 0.33556721 1.12419879 197 203 199
-0.25547561 0.33612463 1.12606621 197 203 199
-0.25395116 0.33668390 1.12793982 196 202 198
-0.00849083 0.17749739 0.59464198 170 174 173
-0.00745650 0.17734182 0.59412080 171 172 172
-0.00641836 0.17703152 0.59308124 166 167 167
-0.00538385 0.17672229 0.59204525 162 163 163
-0.00436436 0.17687677 0.59256279 157 158 158
-0.00334016 0.17687677 0.59256279 141 142 142
-0.00231596 0.17687677 0.59256279 138 139 141
-0.00128839 0.17641415 0.59101295 133 135 140
-0.00026687 0.17641415 0.59101295 122 124 130
0.00075007 0.17534404 0.58742791 140 141 147
0.00175626 0.17443709 0.58438951 143 144 149
0.00275446 0.17368843 0.58188140 154 154 156
0.00373137 0.17235692 0.57742065 153 154 156
0.00471734 0.17191760 0.57594889 151 152 154
0.00667992 0.17119038 0.57351255 157 161 160
0.00766471 0.17104566 0.57302779 155 158 158
0.11070862 0.17265104 0.57840604 138 137 138
0.11161312 0.17250386 0.57791293 132 131 134
0.26785603 0.14071420 0.47141296 141 141 141
0.26848412 0.14061642 0.47108537 142 142 142
0.26855186 0.14022663 0.46977952 142 142 142
0.27048853 0.14081213 0.47174102 139 140 140
0.27364269 0.14160043 0.47438198 137 138 140
0.27561986 0.14219749 0.47638217 135 136 138
0.27644324 0.14219749 0.47638217 135 136 138
0.27707192 0.14209762 0.47604764 135 136 139
0.27789474 0.14209762 0.47604764 131 132 136
0.27813160 0.14179890 0.47504684 128 132 135
0.27836746 0.14150141 0.47405025 128 132 135
0.27938220 0.14160043 0.47438198 124 134 138
0.28098866 0.14199790 0.47571358 124 134 138
0.28260416 0.14239763 0.47705266 126 136 139
0.44498667 0.18050581 0.60472065 115 124 125
0.44444600 0.17986402 0.60257053 129 138 139
0.44430268 0.17938566 0.60096794 144 154 153
0.44142804 0.17780933 0.59568703 154 165 163
0.44052210 0.17703152 0.59308124 159 170 168
0.44077593 0.17672229 0.59204525 163 171 168
0.44141373 0.17656808 0.59152865 163 171 168
1.30573344 0.47499302 1.59129536 154 163 157
1.30541945 0.47388062 1.58756876 157 166 160
1.29602265 0.46948266 1.57283485 158 167 161
1.28976381 0.46623737 1.56196272 162 171 165
1.28653479 0.46409866 1.55479777 165 173 168
1.27678525 0.45676529 1.53022993 162 171 168
1.24295521 0.44374347 1.48660493 160 169 166
1.23978829 0.43988484 1.47367787 160 167 164
1.22109890 0.43236545 1.44848680 159 166 162
-0.49067828 0.36538368 1.21704102 113 128 134
-0.48509112 0.36277843 1.20836341 112 130 134
-0.47958308 0.36021009 1.19980860 112 131 134
-0.47750932 0.36021009 1.19980860 108 128 130
-0.47627851 0.36084875 1.20193589 103 124 125
-0.47420105 0.36084875 1.20193589 96 118 119
-0.47128800 0.36021009 1.19980860 100 121 122
-0.46591571 0.35767788 1.19137406 100 120 121
-0.46304274 0.35705036 1.18928397 104 119 119
-0.46017981 0.35642505 1.18720114 100 112 112
-0.26561201 0.25313273 0.84314907 123 128 134
-0.26382655 0.25281826 0.84210169 132 136 139
-0.26139691 0.25187957 0.83897507 132 136 138
-0.25962549 0.25156823 0.83793801 132 136 138
-0.25817719 0.25156823 0.83793801 132 134 137
-0.25641191 0.25125766 0.83690351 129 132 135
-0.25559652 0.25187957 0.83897507 118 120 132
-0.25383225 0.25156823 0.83793801 112 115 127
-0.25207236 0.25125766 0.83690351 115 119 131
-0.25062585 0.25125766 0.83690351 119 124 133
-0.24825984 0.25033051 0.83381528 121 127 135
-0.24591124 0.24941018 0.83074981 123 131 137
-0.24387762 0.24880037 0.82871866 128 135 137
-0.24185391 0.24819355 0.82669735 134 140 140
-0.24042504 0.24819355 0.82669735 133 139 139
-0.28586033 0.35150036 1.17079771 197 204 202
-0.28188929 0.34908870 1.16276479 197 204 202
-0.27892271 0.34789523 1.15878952 197 203 201
-0.27550697 0.34612024 1.15287733 197 203 199
-0.27212590 0.34436330 1.14702511 197 203 199
-0.26832727 0.34204823 1.13931406 197 203 199
-0.26023281 0.33919784 1.12981975 197 203 199
-0.00849083 0.17852518 0.59464198 174 178 177
-0.00744997 0.17821252 0.59360057 173 175 174
-0.00641275 0.17790097 0.59256279 172 174 173
-0.00537446 0.17743567 0.59101295 167 168 167
-0.00434915 0.17728110 0.59049815 159 160 160
-0.00333433 0.17759049 0.59152865 147 150 150
-0.00231394 0.17774560 0.59204525 137 140 140
-0.00128391 0.17681903 0.58895904 131 135 136
-0.00026571 0.17666554 0.58844781 122 125 131
0.00074748 0.17575018 0.58539885 132 134 140
0.00175324 0.17514518 0.58338368 134 134 141
0.00274503 0.17409641 0.57989037 146 146 150
0.00372502 0.17306012 0.57643867 150 150 154
0.00470934 0.17261976 0.57497185 151 152 154
0.00568865 0.17218165 0.57351255 153 156 156
0.00666864 0.17189080 0.57254380 155 158 158
0.00767119 0.17218165 0.57351255 156 160 159
0.11089787 0.17394762 0.57939476 135 135 137
0.26766989 0.14143065 0.47108537 135 136 137
0.26811150 0.14123435 0.47043154 139 140 141
0.26836589 0.14094093 0.46945420 142 143 144
0.26955065 0.14113641 0.47010529 143 145 145
0.27168202 0.14182489 0.47239849 138 140 142
0.27268857 0.14192379 0.47272792 138 140 142
0.27509004 0.14232077 0.47405025 135 136 138
0.27590939 0.14232077 0.47405025 127 131 134
0.27692240 0.14242037 0.47438198 122 126 129
0.27774233 0.14242037 0.47438198 127 131 134
0.27797869 0.14212200 0.47338817 127 131 134
0.27879688 0.14212200 0.47338817 125 132 135
0.27981052 0.14222132 0.47371897 125 132 135
0.28141591 0.14261997 0.47504684 128 138 140
0.44538397 0.18171313 0.60526055 125 133 136
0.44484138 0.18106647 0.60310662 132 140 144
0.44430268 0.18042438 0.60096794 142 151 154
0.44259480 0.17931163 0.59726155 150 159 160
0.44052210 0.17805661 0.59308124 156 165 166
0.44077593 0.17774560 0.59204525 156 166 164
0.44141373 0.17759049 0.59152865 155 164 163
1.30573344 0.47774345 1.59129536 157 166 160
1.30236936 0.47551098 1.58385944 158 166 160
1.29602265 0.47220117 1.57283485 157 164 158
1.28679883 0.46785909 1.55837202 160 168 161
1.28066015 0.46465456 1.54769826 163 169 164
1.27104688 0.45734540 1.52335250 156 165 161
1.25118661 0.44926867 1.49644995 155 164 162
1.24826205 0.44729385 1.48987222 154 163 162
1.24248934 0.44339588 1.47688854 157 165 164
1.22897696 0.43767464 1.45783186 160 166 165
-0.48080587 0.36164379 1.19768882 120 140 141
-0.47621167 0.35973707 1.19137406 118 138 139
-0.47498724 0.36037040 1.19347155 115 135 135
-0.47292444 0.36037040 1.19347155 113 131 132
-0.46962559 0.36100596 1.19557643 108 124 124
-0.46428376 0.35847703 1.18720114 110 125 125
-0.45427600 0.35230702 1.16676736 109 120 119
-0.26415470 0.25459003 0.84314907 121 126 131
-0.26139691 0.25332969 0.83897507 121 126 130
-0.25930497 0.25270417 0.83690351 125 129 132
-0.25785846 0.25270417 0.83690351 125 131 133
-0.25609577 0.25239259 0.83587158 116 121 125
-0.25559652 0.25332969 0.83897507 107 109 124
-0.25383225 0.25301653 0.83793801 106 110 124
-0.25176156 0.25239259 0.83587158 109 116 127
-0.25031680 0.25239259 0.83587158 116 123 130
-0.24795486 0.25146240 0.83279097 119 126 133
-0.24561025 0.25053903 0.82973295 122 130 136
-0.24417612 0.25053903 0.82973295 128 137 138
-0.24185391 0.24962242 0.82669735 132 141 142
-0.24071859 0.24992721 0.82770675 134 141 141
-0.28487632 0.35230702 1.16676736 197 204 200
-0.28140661 0.35049725 1.16077375 198 204 199
-0.27844670 0.34930101 1.15681207 198 204 198
-0.27503920 0.34752187 1.15091991 197 203 197
-0.27212590 0.34634584 1.14702511 197 203 197
-0.26877901 0.34459659 1.14123201 197 203 197
-0.26546574 0.34286496 1.13549721 197 203 199
-0.26306248 0.34229162 1.13359845 197 203 199
-0.26023281 0.34115064 1.12981975 196 202 198
-0.00848339 0.17939560 0.59412080 175 179 178
-0.00744345 0.17908171 0.59308124 171 175 172
-0.00640715 0.17876889 0.59204525 171 173 171
-0.00536044 0.17799164 0.58947116 169 170 168
-0.00432279 0.17722112 0.58691937 160 163 161
-0.00332562 0.17814656 0.58998418 153 157 156
-0.00230991 0.17845719 0.59101295 143 147 147
-0.00127946 0.17722112 0.58691937 139 143 144
-0.00026456 0.17691477 0.58590478 138 142 145
0.00074619 0.17645723 0.58438951 140 141 146
0.00175173 0.17600206 0.58288205 143 143 150
0.00274035 0.17479965 0.57889998 144 144 151
0.00372502 0.17405646 0.57643867 144 145 151
0.00470934 0.17361356 0.57497185 145 147 153
0.00568865 0.17317292 0.57351255 150 152 154
0.00666301 0.17273450 0.57206064 152 156 155
0.00767119 0.17317292 0.57351255 155 159 158
0.07336525 0.20759673 0.68751711 115 123 130
0.07432742 0.20696703 0.68543160 126 134 140
0.07513229 0.20592594 0.68198377 140 148 154
0.07608142 0.20530631 0.67993164 147 158 162
0.07733420 0.20551243 0.68061429 156 169 171
0.26792556 0.14194895 0.47010529 142 144 146
0.26818016 0.14165425 0.46912929 142 148 149
0.26899102 0.14165425 0.46912929 147 153 153
0.27111524 0.14234380 0.47141296 142 150 150
0.27211925 0.14244285 0.47174102 142 151 151
0.27312469 0.14254205 0.47206953 140 146 148
0.27634224 0.14294021 0.47338817 122 125 132
0.27735415 0.14304011 0.47371897 123 126 133
0.27759099 0.14274086 0.47272792 125 128 135
0.27840805 0.14274086 0.47272792 126 129 135
0.27922514 0.14274086 0.47272792 126 130 134
0.28062928 0.14304011 0.47371897 126 134 136
0.28085926 0.14274086 0.47272792 129 140 140
0.44633037 0.18357882 0.60797477 139 148 149
0.44618073 0.18308622 0.60634333 136 145 147
0.44523752 0.18227105 0.60364366 136 144 148
0.44469690 0.18162411 0.60150117 140 148 151
0.44168139 0.17955297 0.59464198 151 160 161
0.44116125 0.17892516 0.59256279 152 161 160
0.44179925 0.17876889 0.59204525 151 160 159
1.30573344 0.48049387 1.59129536 162 171 167
1.29933357 0.47713375 1.58016741 161 170 166
1.29003644 0.47272608 1.56557012 158 167 162
1.28090954 0.46839905 1.55123997 158 167 161
1.27483892 0.46520543 1.54066324 159 168 162
1.27702308 0.46310043 1.53369200 155 164 160
1.26819706 0.45894706 1.51993692 155 164 159
1.24843073 0.45085987 1.49315381 155 164 159
1.24826205 0.44986898 1.48987222 158 167 165
-0.45945588 0.35678002 1.17485583 115 126 124
-0.44963261 0.35070199 1.15484130 112 121 120
-0.44087696 0.34540614 1.13740242 107 116 116
-0.73017943 0.60726273 1.99968100 90 102 109
-0.26415470 0.25604734 0.84314907 114 119 124
-0.26172081 0.25509551 0.84001470 117 123 128
-0.25930497 0.25415069 0.83690351 118 125 131
-0.25785846 0.25415069 0.83690351 110 118 124
-0.25609577 0.25383732 0.83587158 102 110 118
-0.25559652 0.25477979 0.83897507 97 105 115
-0.25383225 0.25446486 0.83793801 98 107 114
-0.25176156 0.25383732 0.83587158 106 116 121
-0.25031680 0.25383732 0.83587158 114 124 129
-0.24765062 0.25259149 0.83176911 115 125 130
-0.24561025 0.25197315 0.82973295 117 127 133
-0.24417612 0.25197315 0.82973295 121 131 137
-0.24214922 0.25135782 0.82770675 127 137 142
-0.28635490 0.35616276 1.17282331 195 204 199
-0.27351430 0.35010555 1.15287733 198 204 197
-0.26968706 0.34773996 1.14508760 198 203 196
-0.26635808 0.34598666 1.13931406 197 203 197
-0.26350313 0.34482759 1.13549721 197 203 197
-0.26066726 0.34367624 1.13170588 196 202 196
-0.00744345 0.18010679 0.59308124 171 175 170
-0.00640156 0.17963532 0.59152865 172 174 169
-0.00534649 0.17854473 0.58793741 168 169 165
-0.00431159 0.17777380 0.58539885 165 166 162
-0.00330835 0.17823556 0.58691937 158 160 158
-0.00230188 0.17885497 0.58895904 151 154 153
-0.00127615 0.17777380 0.58539885 148 149 151
-0.00026365 0.17731445 0.58388615 144 145 147
0.00074491 0.17716184 0.58338368 147 148 152
0.00174872 0.17670564 0.58188140 148 148 155
0.00274035 0.17580023 0.57889998 141 143 149
0.00372819 0.17520176 0.57692921 144 147 153
0.00471333 0.17475557 0.57545996 147 152 157
0.00568384 0.17401697 0.57302779 146 155 156
0.00666864 0.17386998 0.57254380 148 155 155
0.00768419 0.17445938 0.57448459 151 157 157
0.06749211 0.20899703 0.68821508 99 104 113
0.06854246 0.20857352 0.68682051 97 103 119
0.06972957 0.20857352 0.68682051 96 102 119
0.07217693 0.20878506 0.68751711 101 106 123
0.07329091 0.20857352 0.68682051 125 132 143
0.07425234 0.20794149 0.68473923 138 146 153
0.07498142 0.20668882 0.68061429 151 161 164
0.07600519 0.20627461 0.67925036 158 169 170
0.07717922 0.20627461 0.67925036 165 177 177
0.07858948 0.20689654 0.68129832 169 180 178
0.08033220 0.20836242 0.68612534 173 181 180
0.26818016 0.14246510 0.46912929 147 155 155
0.26880500 0.14236657 0.46880487 153 162 161
0.27092683 0.14305912 0.47108537 154 163 161
0.27211925 0.14325823 0.47174102 153 163 160
0.27293465 0.14325823 0.47174102 148 156 155
0.27355963 0.14315860 0.47141296 139 146 145
0.27735415 0.14385888 0.47371897 118 121 129
0.27778471 0.14365810 0.47305781 119 122 130
0.27860233 0.14365810 0.47305781 122 125 133
0.27941999 0.14365810 0.47305781 123 127 134
0.28085926 0.14355792 0.47272792 127 134 137
0.44593045 0.18446422 0.60742998 156 166 165
0.44538397 0.18380542 0.60526055 156 165 165
0.44444600 0.18298851 0.60257053 146 154 157
0.44430268 0.18250184 0.60096794 143 151 154
0.44455317 0.18217883 0.59990430 139 147 149
0.44129428 0.18042250 0.59412080 144 153 154
0.44141373 0.17963532 0.59152865 155 164 164
0.44307193 0.17947870 0.59101295 157 166 164
1.31189251 0.48552373 1.59880149 169 178 175
1.30848384 0.48324430 1.59129536 164 173 170
1.30206478 0.47986495 1.58016741 162 171 167
1.28679883 0.47324613 1.55837202 160 169 165
1.27774298 0.46893409 1.54417276 158 167 163
1.26819706 0.46157414 1.51993692 151 160 159
1.25118661 0.45444164 1.49644995 153 162 161
1.24826205 0.45244411 1.48987222 157 166 163
-0.44433394 0.34854168 1.14123201 110 119 118
-0.43793780 0.34505624 1.12981975 103 113 113
-0.43453652 0.34390989 1.12606621 98 108 108
-0.72803181 0.60892278 1.99379957 79 92 100
-0.71824819 0.60359693 1.97636104 82 94 101
-0.26448366 0.25782534 0.84419906 111 118 124
-0.26139691 0.25622988 0.83897507 109 115 121
-0.25930497 0.25559723 0.83690351 104 110 117
-0.25754049 0.25528204 0.83587158 96 103 114
-0.25578037 0.25496766 0.83484215 100 107 115
-0.25559652 0.25622988 0.83897507 102 110 114
-0.25351888 0.25559723 0.83690351 101 111 114
-0.25176156 0.25528204 0.83587158 108 118 121
-0.25031680 0.25528204 0.83587158 114 124 129
-0.24765062 0.25402912 0.83176911 115 126 132
-0.24561025 0.25340727 0.82973295 118 130 137
-0.24417612 0.25340727 0.82973295 122 132 138
-0.24214922 0.25278845 0.82770675 124 134 140
-0.28835040 0.36068597 1.18099630 194 203 198
-0.27398026 0.35269803 1.15484130 198 205 196
-0.27060124 0.35090464 1.14896917 198 204 195
-0.26725641 0.34912941 1.14315653 197 203 197
-0.26438886 0.34795588 1.13931406 196 202 196
-0.26110315 0.34621027 1.13359845 197 203 197
-0.00744997 0.18129049 0.59360057 173 174 169
-0.00641275 0.18097356 0.59256279 169 170 164
-0.00536044 0.18002935 0.58947116 167 169 162
-0.00230789 0.18034299 0.59049815 155 156 155
-0.00127615 0.17878562 0.58539885 153 154 154
-0.00026342 0.17817017 0.58338368 148 151 152
0.00074363 0.17786404 0.58238131 152 156 157
0.00174423 0.17725492 0.58038688 154 159 162
0.00273801 0.17664996 0.57840604 153 161 165
0.00372502 0.17604910 0.57643867 152 160 163
0.00466973 0.17412426 0.57013613 149 157 161
0.00564567 0.17383187 0.56917870 145 153 157
0.00663502 0.17397794 0.56965703 152 159 162
0.00767119 0.17515546 0.57351255 154 160 163
0.06735535 0.20976064 0.68682051 94 99 108
0.06847309 0.20954832 0.68612534 93 97 114
0.06965900 0.20954832 0.68612534 91 95 113
0.07203082 0.20954832 0.68612534 122 126 138
0.07321674 0.20954832 0.68612534 135 140 150
0.07410263 0.20870337 0.68335873 145 153 159
0.07490622 0.20765671 0.67993164 156 166 166
0.07592911 0.20724098 0.67857039 164 174 173
0.07702486 0.20703375 0.67789185 168 178 176
0.07851058 0.20786521 0.68061429 170 180 178
0.08016992 0.20912500 0.68473923 174 180 180
0.08118942 0.20870337 0.68335873 176 181 182
0.08203974 0.20786521 0.68061429 179 183 184
0.08439252 0.20786521 0.68061429 179 183 184
0.27778471 0.14447574 0.47305781 110 120 125
0.27860233 0.14447574 0.47305781 115 125 130
0.44553122 0.18534803 0.60688615 163 174 170
0.44459006 0.18452206 0.60418171 166 177 173
0.44405127 0.18386656 0.60203540 163 172 170
0.44390914 0.18337798 0.60043561 157 166 165
0.44259480 0.18240859 0.59726155 154 163 162
0.44000736 0.18050021 0.59101295 167 176 175
0.43949622 0.17987293 0.58895904 164 173 173
0.43860883 0.17909494 0.58641165 162 171 171
0.44000304 0.17925000 0.58691937 161 170 169
1.30912912 0.48828715 1.59880149 169 175 173
1.31189251 0.48828715 1.59880149 171 178 176
1.31156266 0.48713824 1.59503961 171 177 175
1.30510700 0.48372370 1.58385944 167 175 173
1.28679883 0.47593966 1.55837202 164 173 170
1.28066015 0.47267979 1.54769826 161 170 167
1.28333521 0.47267979 1.54769826 154 163 160
1.28016484 0.47053126 1.54066324 151 160 157
1.27414036 0.46734479 1.53022993 155 164 161
1.26535988 0.46316275 1.51653659 160 169 168
1.24843073 0.45602146 1.49315381 160 169 168
-0.44062495 0.34758836 1.13170588 110 119 120
-0.43720910 0.34643167 1.12793982 107 115 118
-0.43381590 0.34528264 1.12419879 108 116 120
-0.72803181 0.61236888 1.99379957 73 86 100
-0.71824819 0.60701293 1.97636104 73 84 92
-0.70863426 0.60174978 1.95922494 75 86 92
-0.26107380 0.25736147 0.83793801 118 126 129
-0.25866628 0.25641063 0.83484215 109 118 122
-0.25690693 0.25609523 0.83381528 97 106 108
-0.25483885 0.25546679 0.83176911 103 111 113
-0.25289446 0.25641063 0.83484215 107 117 122
-0.25114220 0.25609523 0.83381528 112 122 129
-0.24970102 0.25609523 0.83381528 114 127 134
-0.24704437 0.25484142 0.82973295 118 132 138
-0.24501047 0.25421908 0.82770675 119 133 139
-0.24357983 0.25421908 0.82770675 121 132 138
-0.24185391 0.25390905 0.82669735 122 132 137
-0.24013218 0.25359979 0.82569045 123 131 136
-0.27398026 0.35469410 1.15484130 198 204 198
-0.27060124 0.35289055 1.14896917 197 203 197
-0.26725641 0.35110527 1.14315653 196 203 197
-0.26394525 0.34933797 1.13740242 196 203 197
-0.26110315 0.34816962 1.13359845 198 204 199
0.00764532 0.17555264 0.57157826 162 166 172
0.06616823 0.21094775 0.68682051 94 95 100
0.06721914 0.21052116 0.68543160 90 95 104
0.06819698 0.20988451 0.68335873 86 94 110
0.06937812 0.20988451 0.68335873 85 94 110
0.07048819 0.20967314 0.68267053 105 115 126
0.07181277 0.21009630 0.68404830 122 129 137
0.07299509 0.21009630 0.68404830 145 151 158
0.07387921 0.20925169 0.68129832 153 158 163
0.07475625 0.20841384 0.67857039 158 167 166
0.07585318 0.20820543 0.67789185 167 175 174
0.07694791 0.20799743 0.67721462 171 177 177
0.07835325 0.20862268 0.67925036 172 178 178
0.07984731 0.20946220 0.68198377 174 180 180
0.08094463 0.20925169 0.68129832 176 182 182
0.08179338 0.20841384 0.67857039 178 184 184
0.08296623 0.20841384 0.67857039 178 184 184
0.08422339 0.20862268 0.67925036 176 182 181
0.27739754 0.14509089 0.47239849 133 144 142
0.27821404 0.14509089 0.47239849 134 144 143
0.44315082 0.18540110 0.60364366 165 174 172
0.44261762 0.18474306 0.60150117 167 176 173
0.44169766 0.18392706 0.59884441 166 175 172
0.44001177 0.18279669 0.59516406 166 175 172
0.43911284 0.18199775 0.59256279 166 175 173
0.43936890 0.18168013 0.59152865 169 178 177
0.43885952 0.18104820 0.58947116 176 185 184
0.43797415 0.18026444 0.58691937 169 178 177
0.43747354 0.17964230 0.58489376 166 175 174
0.43886313 0.17979744 0.58539885 164 173 172
0.43911654 0.17948744 0.58438951 164 173 172
0.44088677 0.17979744 0.58539885 164 173 172
0.43962073 0.17887065 0.58238131 163 172 171
0.43761966 0.17764968 0.57840604 163 172 171
1.31222403 0.49221140 1.60258114 171 177 171
1.31189251 0.49105054 1.59880149 170 176 171
1.31465590 0.49105054 1.59880149 170 176 173
1.30510700 0.48646128 1.58385944 171 177 174
1.28384745 0.47753540 1.55479777 168 175 171
-0.43915865 0.34838122 1.12793982 117 126 130
-0.43648285 0.34780252 1.12606621 120 129 133
-0.43309766 0.34665084 1.12233746 123 131 135
-0.74400455 0.61763161 1.99968100 75 92 100
-0.72034836 0.61221379 1.98213995 86 98 104
-0.71275425 0.60865438 1.97061586 86 98 103
-0.70664448 0.61221379 1.98213995 81 93 98
-0.70321852 0.61221379 1.98213995 71 85 89
-0.70046282 0.61581504 1.99379957 79 92 97
-0.69294059 0.61221379 1.98213995 101 113 117
-0.67568481 0.59993440 1.94238353 114 122 127
-0.65359980 0.58322316 1.88827813 130 139 141
-0.26139691 0.25913009 0.83897507 133 142 142
-0.25866628 0.25785360 0.83484215 120 129 129
-0.25690693 0.25753641 0.83381528 96 105 106
-0.25483885 0.25690442 0.83176911 104 112 115
-0.25258338 0.25753641 0.83381528 114 123 130
-0.24471167 0.25533795 0.82669735 120 132 139
-0.24155933 0.25502694 0.82569045 121 131 135
-0.27691981 0.35790959 1.15878952 198 204 198
-0.27351430 0.35608351 1.15287733 198 204 198
-0.26877901 0.35248673 1.14123201 197 204 198
-0.26546574 0.35071543 1.13549721 196 205 198
-0.26262331 0.34954444 1.13170588 195 204 197
0.05353770 0.20916794 0.67721462 152 152 149
0.05465361 0.20895919 0.67653877 153 153 149
0.05587872 0.20916794 0.67721462 154 155 150
0.06471884 0.21127862 0.68404830 125 126 127
0.06596772 0.21149203 0.68473923 119 120 122
0.06701586 0.21106564 0.68335873 108 116 122
0.06792310 0.21021798 0.68061429 99 113 120
0.06903018 0.21000713 0.67993164 108 125 130
0.07027587 0.21021798 0.68061429 119 135 139
0.07145226 0.21021798 0.68061429 130 141 144
0.07262865 0.21021798 0.68061429 145 155 158
0.07365713 0.20979670 0.67925036 152 160 163
0.07468150 0.20937711 0.67789185 158 167 167
0.07577740 0.20916794 0.67721462 164 173 172
0.07679448 0.20875086 0.67586422 166 175 174
0.07811842 0.20916794 0.67721462 169 178 177
0.07952727 0.20979670 0.67925036 170 179 178
0.08070131 0.20979670 0.67925036 172 181 180
0.08171158 0.20937711 0.67789185 175 182 181
0.08280046 0.20916794 0.67721462 175 182 180
0.08405495 0.20937711 0.67789185 173 179 177
0.08488708 0.20854294 0.67519110 173 178 177
0.44197014 0.18594770 0.60203540 168 177 176
0.44144252 0.18528947 0.59990430 168 177 176
0.43859801 0.18366413 0.59464198 168 176 174
0.43808866 0.18302195 0.59256279 168 176 173
0.43834651 0.18270254 0.59152865 168 177 174
0.43860346 0.18238424 0.59049815 168 177 176
0.43809763 0.18175097 0.58844781 169 178 177
0.43759528 0.18112206 0.58641165 171 178 177
0.43747354 0.18065324 0.58489376 172 178 176
0.43848446 0.18065324 0.58489376 172 179 177
0.43911654 0.18049751 0.58438951 171 178 176
0.44050634 0.18065324 0.58489376 169 177 175
0.43999875 0.18003191 0.58288205 166 173 172
0.43799335 0.17880197 0.57889998 164 172 171
1.31499386 0.49498135 1.60258114 171 177 170
1.31465590 0.49381393 1.59880149 169 175 169
1.30816340 0.49034452 1.58756876 169 175 169
1.28384745 0.48022273 1.55479777 164 170 166
1.27726197 0.47477803 1.53716969 156 158 158
1.27414036 0.47263455 1.53022993 151 154 153
1.25972354 0.46631873 1.50978136 146 149 149
-0.44184339 0.35091466 1.12981975 114 127 131
-0.43989059 0.35091466 1.12981975 123 134 137
-0.43720910 0.35033077 1.12793982 128 137 141
-0.43381590 0.34916881 1.12419879 129 138 142
-0.72326684 0.62108785 1.99968100 92 104 106
-0.70944166 0.62108785 1.99968100 73 87 91
-0.69701672 0.61926115 1.99379957 112 120 125
-0.68154335 0.60852253 1.95922494 117 125 129
-0.65910763 0.59142917 1.90419054 129 138 139
-0.14980090 0.15447454 0.49735278 117 125 132
-0.14916013 0.15470153 0.49808365 115 130 134
-0.27351430 0.35807618 1.15287733 196 205 198
-0.26832727 0.35386351 1.13931406 196 205 198
-0.26502183 0.35208827 1.13359845 196 205 198
0.05348427 0.21012853 0.67653877 155 156 149
0.05465361 0.21012853 0.67653877 155 156 149
0.05587872 0.21033846 0.67721462 156 157 150
0.05710628 0.21054879 0.67789185 155 156 151
0.05827796 0.21054879 0.67789185 146 147 147
0.05974839 0.21160683 0.68129832 146 147 148
0.06117187 0.21246094 0.68404830 146 147 148
0.06254353 0.21310607 0.68612534 136 137 137
0.06360069 0.21267554 0.68473923 135 136 138
0.06445866 0.21160683 0.68129832 132 133 135
0.06563623 0.21160683 0.68129832 127 128 130
0.06681380 0.21160683 0.68129832 123 132 133
0.06778698 0.21097073 0.67925036 125 138 141
0.06889198 0.21075955 0.67857039 129 144 148
0.07006484 0.21075955 0.67857039 128 143 146
0.07123769 0.21075955 0.67857039 137 148 151
0.07241055 0.21075955 0.67857039 148 159 161
0.07350981 0.21054879 0.67789185 155 164 165
0.07453243 0.21012853 0.67653877 163 172 171
0.07562630 0.20991904 0.67586422 164 173 172
0.07656547 0.20929304 0.67384875 166 175 174
0.07788500 0.20970996 0.67519110 168 177 176
0.07920980 0.21012853 0.67653877 168 177 176
0.08053990 0.21054879 0.67789185 170 179 178
0.08138604 0.20970996 0.67519110 172 179 179
0.08214397 0.20867075 0.67184526 173 179 177
0.08372007 0.20970996 0.67519110 172 176 174
0.44250152 0.18765490 0.60418171 171 177 176
0.44157797 0.18682235 0.60150117 170 177 175
0.44105220 0.18616162 0.59937388 169 176 174
0.43821362 0.18453005 0.59412080 168 175 174
0.43808866 0.18404615 0.59256279 169 175 173
0.43834651 0.18372495 0.59152865 169 175 173
0.43898585 0.18356477 0.59101295 170 176 174
0.43809763 0.18276805 0.58844781 170 176 174
0.43721706 0.18197821 0.58590478 171 177 175
0.43709639 0.18150757 0.58438951 172 178 176
0.43810648 0.18150757 0.58438951 172 178 176
0.43836075 0.18119517 0.58338368 174 180 178
0.44012660 0.18150757 0.58438951 175 181 179
0.43924338 0.18072857 0.58188140 171 177 175
1.31465590 0.49657732 1.59880149 167 176 169
1.30816340 0.49308851 1.58756876 163 172 165
1.28384745 0.48291007 1.55479777 160 167 163
1.27726197 0.47743490 1.53716969 153 155 154
1.27127075 0.47420898 1.52678347 151 152 152
1.25692415 0.46788621 1.50642633 148 150 149
1.24568689 0.46274459 1.48987222 144 147 146
-0.44406372 0.35464066 1.13549721 117 132 136
-0.44136178 0.35404763 1.13359845 125 137 142
-0.43793780 0.35286745 1.12981975 130 142 143
-0.43453652 0.35169515 1.12606621 134 147 147
-0.69907284 0.62454414 1.99968100 114 122 126
-0.68550581 0.61546648 1.97061586 120 129 132
-0.66659749 0.60147864 1.92582905 132 141 141
-0.15110397 0.15579137 0.49881667 112 122 127
-0.15002103 0.15556243 0.49808365 116 128 133
-0.14937964 0.15579137 0.49881667 120 132 137
-0.14840828 0.15567681 0.49844989 123 134 139
-0.14754674 0.15567681 0.49844989 121 132 137
-0.14679316 0.15579137 0.49881667 126 135 135
-0.27304995 0.35945752 1.15091991 196 205 200
-0.26787707 0.35523570 1.13740242 196 205 200
-0.26457939 0.35345656 1.13170588 196 205 200
0.05353770 0.21150896 0.67721462 153 154 152
0.05465361 0.21129787 0.67653877 155 156 153
0.05587872 0.21150896 0.67721462 153 154 151
0.05710628 0.21172047 0.67789185 156 157 154
0.05833630 0.21193241 0.67857039 147 148 150
0.05968840 0.21257076 0.68061429 138 139 141
0.06111021 0.21342790 0.68335873 139 140 142
0.06241718 0.21385907 0.68473923 137 139 141
0.06347246 0.21342790 0.68335873 136 137 139
0.06432936 0.21235755 0.67993164 132 133 135
0.06550456 0.21235755 0.67993164 131 133 135
0.06667977 0.21235755 0.67993164 132 141 142
0.06778698 0.21214476 0.67925036 130 140 142
0.06882309 0.21172047 0.67789185 132 143 145
0.06999477 0.21172047 0.67789185 138 150 152
0.07109535 0.21150896 0.67721462 141 154 154
0.07226587 0.21150896 0.67721462 148 161 161
0.07343638 0.21150896 0.67721462 158 170 170
0.07438396 0.21087697 0.67519110 166 176 175
0.07540077 0.21045773 0.67384875 170 179 178
0.07633782 0.20983198 0.67184526 169 178 177
0.07742231 0.20962423 0.67118007 169 178 177
0.07866028 0.20983198 0.67184526 168 177 176
0.08013920 0.21066713 0.67451924 167 176 175
0.08090255 0.20962423 0.67118007 171 177 177
0.08165839 0.20859160 0.66787374 171 177 176
0.08297625 0.20900343 0.66919231 169 175 173
0.44264075 0.18920507 0.60580146 173 179 176
0.44250152 0.18869917 0.60418171 174 180 176
0.44157797 0.18786199 0.60150117 172 178 175
0.44144252 0.18736325 0.59990430 169 175 173
0.43936884 0.18604611 0.59568703 168 174 172
0.43924052 0.18555695 0.59412080 168 174 172
0.43872935 0.18490870 0.59204525 168 174 172
0.43936890 0.18474735 0.59152865 169 175 173
0.43847823 0.18394481 0.58895904 169 175 173
0.43721706 0.18299089 0.58590478 170 176 174
0.43709639 0.18251765 0.58438951 170 176 174
0.43735242 0.18220350 0.58338368 171 177 175
