ply
format ascii 1.0
element vertex 1065
property float x
property float y
property float z
property uchar red
property uchar green
property uchar blue
end_header
0.65647513 0.22416978 0.64622670 104 114 121
0.65808171 0.22395629 0.64561129 89 101 107
0.65483207 0.22247313 0.64133573 98 108 116
0.65285230 0.22142570 0.63831621 108 118 126
0.65334040 0.22121739 0.63771576 117 127 135
0.03413968 0.24824136 0.71207124 142 152 157
0.03522244 0.24720269 0.70909190 149 159 165
0.03610812 0.24489717 0.70247859 152 162 168
0.03701543 0.24288364 0.69670284 149 159 166
0.03790795 0.24090293 0.69102126 156 166 171
0.03890404 0.23968132 0.68751711 160 169 175
0.10962666 0.22169398 0.63592106 141 149 154
0.11062203 0.22148620 0.63532507 134 142 148
0.11182494 0.22169398 0.63592106 128 134 144
0.11303011 0.22190213 0.63651818 121 126 139
0.11456055 0.22273871 0.63891786 113 118 132
0.11566487 0.22273871 0.63891786 108 113 126
0.11665923 0.22252898 0.63831621 104 111 124
0.11765172 0.22231963 0.63771576 103 112 125
0.11864235 0.22211069 0.63711637 101 112 127
0.11963113 0.22190213 0.63651818 99 111 128
0.12039216 0.22127882 0.63473016 99 111 129
0.12103593 0.22045314 0.63236177 100 106 130
0.12201509 0.22024770 0.63177246 109 114 135
0.12310705 0.22024770 0.63177246 114 119 139
0.12466376 0.22107182 0.63413644 118 134 147
0.21830252 0.18520829 0.53126317 127 131 140
0.21870656 0.18477386 0.53001708 121 126 136
0.22019443 0.18448538 0.52918959 117 123 134
0.22076441 0.18419780 0.52836466 106 121 133
0.22116052 0.18376809 0.52713209 111 127 139
0.22189906 0.18362531 0.52672249 115 131 143
0.22298272 0.18376809 0.52713209 120 134 147
0.22389382 0.18376809 0.52713209 124 137 151
0.22463027 0.18362531 0.52672249 126 134 147
0.22554065 0.18362531 0.52672249 123 130 143
0.87594062 0.45100340 1.29368675 155 170 174
0.87650394 0.45014432 1.29122257 150 171 173
0.87209123 0.44674060 1.28145909 138 161 162
0.86611974 0.44255763 1.26946032 127 152 155
0.86346298 0.44008523 1.26236844 121 147 153
0.86725986 0.44090629 1.26472354 110 135 145
0.86944586 0.44090629 1.26472354 89 114 128
0.87000871 0.44008523 1.26236844 85 110 124
0.87381780 0.44090629 1.26472354 82 103 117
0.87764114 0.44173041 1.26708758 93 113 127
0.87818974 0.44090629 1.26472354 108 123 131
1.08696353 0.43522242 1.24841964 112 124 131
1.07330823 0.42890340 1.23029375 109 123 131
1.06961107 0.42658082 1.22363150 106 122 131
1.04900396 0.41753671 1.19768882 111 127 137
1.04004884 0.41315696 1.18512559 111 127 139
1.04209721 0.41315696 1.18512559 109 124 137
1.03869784 0.41100135 1.17894232 107 122 135
0.97685587 0.38426957 1.10226321 118 131 144
0.96930438 0.38055679 1.09161329 124 131 144
0.96497554 0.37812123 1.08462691 131 139 151
0.97151351 0.37994498 1.08985829 133 144 154
0.97653723 0.38117060 1.09337389 133 145 153
0.97528094 0.37994498 1.08985829 132 143 151
0.97559619 0.37933511 1.08810890 134 143 150
0.97124100 0.37691513 1.08116722 135 143 150
0.96541107 0.37393320 1.07261372 134 142 149
0.95816845 0.37041658 1.06252635 130 138 149
0.94665092 0.36526394 1.04774630 137 145 155
0.95140284 0.36639655 1.05099511 137 147 158
0.95469958 0.36696550 1.05262709 134 148 159
0.65027052 0.22507216 0.64561129 108 120 134
0.65625226 0.22636569 0.64932168 114 127 140
0.65611768 0.22593287 0.64808017 117 130 140
0.65661007 0.22571707 0.64746118 112 125 134
0.65835798 0.22593287 0.64808017 103 116 125
0.66328281 0.22723633 0.65181905 91 104 114
0.66059828 0.22593287 0.64808017 85 98 107
0.65794438 0.22464427 0.64438391 90 101 113
0.65470177 0.22315937 0.64012450 103 111 128
0.03410386 0.24921034 0.71132410 150 161 166
0.03518564 0.24816871 0.70835096 154 164 169
0.03610812 0.24611135 0.70247859 159 169 173
0.03709168 0.24459058 0.69813782 161 171 175
0.03802423 0.24283993 0.69314092 160 170 174
0.03898311 0.24135920 0.68891448 162 172 176
0.11072580 0.22279312 0.63592106 125 133 141
0.11182494 0.22279312 0.63592106 117 124 135
0.11292407 0.22279312 0.63592106 113 118 130
0.11456055 0.22384304 0.63891786 111 115 127
0.11566487 0.22384304 0.63891786 102 106 120
0.11665923 0.22363226 0.63831621 94 100 116
0.11765172 0.22342187 0.63771576 92 98 116
0.11853095 0.22300231 0.63651818 91 99 118
0.11963113 0.22300231 0.63651818 93 108 124
0.12039216 0.22237590 0.63473016 101 118 133
0.12103593 0.22154613 0.63236177 110 127 142
0.12190148 0.22113357 0.63118422 119 135 147
0.12310705 0.22133966 0.63177246 122 138 148
0.22076441 0.18511103 0.52836466 107 125 133
0.22116052 0.18467921 0.52713209 108 126 134
0.22189906 0.18453571 0.52672249 111 128 138
0.22315624 0.18482292 0.52754229 114 130 141
0.22389382 0.18467921 0.52713209 122 135 149
0.87761545 0.45410603 1.29616034 162 177 180
0.87985575 0.45410603 1.29616034 156 176 178
0.87540084 0.45065930 1.28632224 149 173 174
0.86774474 0.44558623 1.27184212 141 167 167
0.86507392 0.44309226 1.26472354 132 159 159
0.87050807 0.44475180 1.26946032 122 149 150
0.87107098 0.44392049 1.26708758 97 122 137
0.87163180 0.44309226 1.26472354 93 117 134
0.87709051 0.44475180 1.26946032 71 91 109
0.87928468 0.44475180 1.26946032 82 101 119
1.07901490 0.43418181 1.23929036 115 126 136
1.06942654 0.42947099 1.22584414 114 127 137
1.05815101 0.42410260 1.21052110 114 129 142
1.04531026 0.41812932 1.19347155 116 132 144
1.03823364 0.41448072 1.18305731 115 130 142
1.04209721 0.41520536 1.18512559 113 128 141
1.03869784 0.41303906 1.17894232 111 126 139
1.03176367 0.40947837 1.16877902 114 126 140
0.98128539 0.38492295 1.09869015 124 135 146
0.98159343 0.38430008 1.09691238 125 136 147
0.98031682 0.38306043 1.09337389 128 138 148
0.97904843 0.38182870 1.08985829 130 140 148
0.96847588 0.37698010 1.07601881 133 142 151
0.95967263 0.37283745 1.06419444 130 142 150
0.94811636 0.36764312 1.04936814 133 145 154
0.95288020 0.36878487 1.05262709 138 150 159
0.95469958 0.36878487 1.05262709 136 150 159
0.95355761 0.36764312 1.04936814 137 151 160
0.65213376 0.22683616 0.64746118 115 131 141
0.65512997 0.22748798 0.64932168 114 132 142
0.65625226 0.22748798 0.64932168 111 130 139
0.65674549 0.22727029 0.64870036 111 129 138
0.65723783 0.22705302 0.64808017 107 126 135
0.66088527 0.22792463 0.65056801 102 119 129
0.66249835 0.22770609 0.64994425 88 104 116
0.65982598 0.22640368 0.64622670 89 104 118
0.65843225 0.22554365 0.64377195 104 114 135
0.03406811 0.25017729 0.71057844 157 168 173
0.03518564 0.24939305 0.70835096 159 169 174
0.03614558 0.24758209 0.70320731 162 172 176
0.03709168 0.24579726 0.69813782 166 176 179
0.03798539 0.24378870 0.69243294 165 175 178
0.10972960 0.22410248 0.63651818 129 135 144
0.11072580 0.22389226 0.63592106 124 133 141
0.11172013 0.22368242 0.63532507 110 124 133
0.11292407 0.22389226 0.63592106 106 117 125
0.11477690 0.22537218 0.64012450 104 112 120
0.11577398 0.22515957 0.63952059 95 102 113
0.11676919 0.22494735 0.63891786 90 96 111
0.11765172 0.22452413 0.63771576 90 96 113
0.11853095 0.22410248 0.63651818 92 97 123
0.11963113 0.22410248 0.63651818 102 111 134
0.12039216 0.22347298 0.63473016 110 124 144
0.12103593 0.22263913 0.63236177 113 132 145
0.12190148 0.22222452 0.63118422 122 140 149
0.22076441 0.18602426 0.52836466 114 126 134
0.22116052 0.18559031 0.52713209 114 127 135
0.22189906 0.18544610 0.52672249 113 128 137
0.22315624 0.18573473 0.52754229 114 128 138
0.22389382 0.18559031 0.52713209 118 130 143
0.87427217 0.45460787 1.29122257 165 177 180
0.88154131 0.45722058 1.29864335 160 175 178
0.87873572 0.45460787 1.29122257 154 174 176
0.86774474 0.44778451 1.27184212 152 172 174
0.86669087 0.44611055 1.26708758 145 170 170
0.87050807 0.44694597 1.26946032 131 156 156
0.87270218 0.44694597 1.26946032 110 135 143
0.87163180 0.44527826 1.26472354 104 129 141
0.87873608 0.44778451 1.27184212 99 120 135
1.08099115 0.43712297 1.24156010 120 134 143
1.06942654 0.43158975 1.22584414 114 128 137
1.06004393 0.42695731 1.21268666 120 135 147
1.04715383 0.42093322 1.19557643 120 135 148
1.04187024 0.41798449 1.18720114 116 132 144
1.04575372 0.41871777 1.18928397 111 128 140
1.04414558 0.41725373 1.18512559 121 138 150
1.03533387 0.41292238 1.17282331 126 144 156
0.98287839 0.38744989 1.10047376 129 143 154
0.98318434 0.38682196 1.09869015 133 147 158
0.98190051 0.38557211 1.09514034 133 147 156
0.98220664 0.38495022 1.09337389 133 146 153
0.97001559 0.37944219 1.07772946 138 151 159
0.96118158 0.37526593 1.06586766 139 156 161
0.94811636 0.36945686 1.04936814 139 159 163
0.95436209 0.37118062 1.05426419 140 160 164
0.95618433 0.37118062 1.05426419 140 160 162
0.95503598 0.37002966 1.05099511 141 161 163
0.65226060 0.22839151 0.64870036 119 135 145
0.65400767 0.22861029 0.64932168 116 131 142
0.65575808 0.22882947 0.64994425 111 126 139
0.65688151 0.22882947 0.64994425 111 126 139
0.65674549 0.22839151 0.64870036 110 127 139
0.65786678 0.22839151 0.64870036 106 125 136
0.66535503 0.23059820 0.65496796 99 117 128
0.66907287 0.23149286 0.65750909 95 113 127
0.66633153 0.23015346 0.65370476 91 109 123
0.66108644 0.22795524 0.64746118 87 105 120
0.66031349 0.22730394 0.64561129 95 110 128
0.65954494 0.22665635 0.64377195 97 111 132
0.03399684 0.25087953 0.70909190 155 169 173
0.03511226 0.25009471 0.70687366 156 166 170
0.03607074 0.24828242 0.70175141 157 165 169
0.03705351 0.24674982 0.69741958 163 171 175
0.03786935 0.24423708 0.69031757 166 175 176
0.11082976 0.22520265 0.63651818 108 123 132
0.11182494 0.22499138 0.63592106 104 118 128
0.11543091 0.22776906 0.64377195 98 113 120
0.11621252 0.22712199 0.64194304 90 99 112
0.11710029 0.22669265 0.64072955 87 94 114
0.11787350 0.22605167 0.63891786 89 94 122
0.11864235 0.22541431 0.63711637 97 103 130
0.11974356 0.22541431 0.63711637 105 112 137
0.12050500 0.22478053 0.63532507 115 124 146
0.12103593 0.22373211 0.63236177 121 137 149
0.22071131 0.18766887 0.53043181 126 136 143
0.22128183 0.18737563 0.52960300 122 131 140
0.22150500 0.18679191 0.52795315 121 130 140
0.22241752 0.18679191 0.52795315 118 130 141
0.22420311 0.18752214 0.53001708 116 128 139
0.22441736 0.18693751 0.52836466 117 128 140
0.22497988 0.18664655 0.52754229 118 130 142
0.22642030 0.18708332 0.52877676 122 136 150
0.22698015 0.18679191 0.52795315 126 140 154
0.87540084 0.45510593 1.28632224 149 166 169
0.86774474 0.44998276 1.27184212 151 168 171
0.86669087 0.44830060 1.26708758 150 170 172
0.87050807 0.44914010 1.26946032 139 160 162
0.87433952 0.44998276 1.27184212 130 150 153
0.87326103 0.44830060 1.26708758 123 142 147
0.35607848 0.16315702 0.46115091 160 175 177
0.35566577 0.16260394 0.45958769 161 176 178
0.35597748 0.16238376 0.45896536 162 177 179
0.35993880 0.16382569 0.46304089 163 178 181
0.36073911 0.16382569 0.46304089 165 179 181
0.36129266 0.16371387 0.46272480 167 179 182
0.36184546 0.16360220 0.46240917 169 181 183
0.36141205 0.16304611 0.46083742 167 176 179
0.36147138 0.16271426 0.45989949 148 157 161
0.36031073 0.16183591 0.45741689 132 140 145
1.08297467 0.44007489 1.24383819 125 140 144
1.07136393 0.43449423 1.22806489 118 133 137
1.06768382 0.43214563 1.22142673 118 133 143
1.05272377 0.42524967 1.20193589 119 134 147
1.04553235 0.42151287 1.19137406 118 134 146
1.04759157 0.42151287 1.19137406 114 133 145
1.04597425 0.42003646 1.18720114 118 138 149
1.04073560 0.41711447 1.17894232 122 142 153
1.03736091 0.41494951 1.17282331 121 143 153
1.05233920 0.41930214 1.18512559 122 142 152
0.98159343 0.38809195 1.09691238 141 159 165
0.98031682 0.38684005 1.09337389 143 161 167
0.98062497 0.38621709 1.09161329 140 158 161
0.97001559 0.38130495 1.07772946 145 163 166
0.96118158 0.37710822 1.06586766 148 167 169
0.94811636 0.37127063 1.04936814 147 167 169
0.95584863 0.37358382 1.05590630 147 167 168
0.95767373 0.37358382 1.05590630 145 165 167
0.95651895 0.37242362 1.05262709 148 168 170
0.65792698 0.23150659 0.65433574 118 134 144
0.66033274 0.23195437 0.65560138 111 126 136
0.66146588 0.23195437 0.65560138 104 118 129
0.66131985 0.23150659 0.65433574 104 119 130
0.66181201 0.23128334 0.65370476 103 119 131
0.66358179 0.23150659 0.65433574 101 119 131
0.66988564 0.23330820 0.65942788 98 116 128
0.67102540 0.23330820 0.65942788 95 111 126
0.66891170 0.23217891 0.65623605 93 108 125
0.66810566 0.23150659 0.65433574 91 107 124
0.66347289 0.22951275 0.64870036 93 110 127
0.66142935 0.22841983 0.64561129 96 113 131
0.03277123 0.25210512 0.70909190 142 157 161
0.03392586 0.25157881 0.70761150 147 157 162
0.03500276 0.25053275 0.70466930 148 158 163
0.03603344 0.24923733 0.70102566 151 162 167
0.03693951 0.24719231 0.69527370 156 164 168
0.03779238 0.24493140 0.68891448 163 172 174
0.11082976 0.22630282 0.63651818 100 119 129
0.11192993 0.22630282 0.63651818 97 111 124
0.11464482 0.22953571 0.64561129 93 108 121
0.11598162 0.22997376 0.64684337 90 105 118
0.11665440 0.22909933 0.64438391 84 99 119
0.11765632 0.22888176 0.64377195 82 96 118
0.11820774 0.22780010 0.64072955 86 98 124
0.11897782 0.22715598 0.63891786 93 103 128
0.11996906 0.22694209 0.63831621 104 115 138
0.22123064 0.18902941 0.53167987 132 140 148
0.22180167 0.18873335 0.53084719 129 137 146
0.22219720 0.18829101 0.52960300 124 131 142
0.22381200 0.18888126 0.53126317 122 131 141
0.22490649 0.18902941 0.53167987 121 131 141
0.22511920 0.18843824 0.53001708 123 134 148
0.22603530 0.18843824 0.53001708 126 136 150
0.22748497 0.18888126 0.53126317 127 138 153
0.22804578 0.18858568 0.53043181 133 143 158
0.22896259 0.18858568 0.53043181 135 143 158
0.87763274 0.45388418 1.27663243 142 160 163
0.87653780 0.45218104 1.27184212 137 154 158
0.35552326 0.16406569 0.46146482 148 163 164
0.35583642 0.16384262 0.46083742 157 173 172
0.35542482 0.16328759 0.45927632 161 177 177
0.35597748 0.16317704 0.45896536 163 178 178
0.35993880 0.16462603 0.46304089 163 179 179
0.36098570 0.16473855 0.46335739 165 180 181
0.36153945 0.16462603 0.46304089 167 182 184
0.36209247 0.16451365 0.46272480 167 182 184
0.36190411 0.16406569 0.46146482 165 177 179
0.36294878 0.16417745 0.46177918 153 162 166
0.36085784 0.16251686 0.45710847 127 137 142
1.08696353 0.44385359 1.24841964 133 148 151
1.07525980 0.43820456 1.23253059 123 138 142
1.07172608 0.43504062 1.22363150 119 131 142
1.04922032 0.42506614 1.19557643 120 133 144
1.05128670 0.42506614 1.19557643 118 137 147
1.04965079 0.42357206 1.19137406 119 141 151
1.04619396 0.42135054 1.18512559 122 145 154
1.04824233 0.42135054 1.18512559 124 146 152
1.05768728 0.42431778 1.19347155 126 149 154
1.05418217 0.42208844 1.18720114 130 153 158
1.04344237 0.41697663 1.17282331 135 157 160
0.97842699 0.38872984 1.09337389 143 163 166
0.97716469 0.38747990 1.08985829 142 162 165
0.97591043 0.38623798 1.08636510 148 167 169
0.96847588 0.38255954 1.07601881 150 169 171
0.95967263 0.37835556 1.06419444 152 171 173
0.94665092 0.37250772 1.04774630 153 173 173
0.95618433 0.37482503 1.05426419 155 175 175
0.65983772 0.23331317 0.65623605 119 135 145
0.66225415 0.23376577 0.65750909 110 126 136
0.66339058 0.23376577 0.65750909 105 118 131
0.66388315 0.23353924 0.65687191 94 107 121
0.66437471 0.23331317 0.65623605 86 101 114
0.66679996 0.23376577 0.65750909 87 106 120
0.67447841 0.23605534 0.66394889 95 115 129
0.67298937 0.23513414 0.66135788 96 114 129
0.67085999 0.23399273 0.65814739 91 106 123
0.67069525 0.23353924 0.65687191 89 104 121
0.66923666 0.23263755 0.65433574 91 108 124
0.03157865 0.25359601 0.70983440 136 147 158
0.03280554 0.25359601 0.70983440 136 147 157
0.03389048 0.25253826 0.70687366 138 147 157
0.03493014 0.25122839 0.70320731 142 154 161
0.03599621 0.25019026 0.70030147 144 158 164
0.03690166 0.24813953 0.69456130 151 162 167
0.03779238 0.24612214 0.68891448 154 166 170
0.03874685 0.24463049 0.68473923 154 167 170
0.11103829 0.22783084 0.63771576 100 116 130
0.11203513 0.22761671 0.63711637 96 110 127
0.11598162 0.23109178 0.64684337 87 100 117
0.11676539 0.23043214 0.64499700 82 96 116
0.11788021 0.23043214 0.64499700 81 96 117
0.11843161 0.22934107 0.64194304 85 99 122
0.11909007 0.22847565 0.63952059 90 104 125
0.12008214 0.22826031 0.63891786 104 117 137
0.29856056 0.46844137 1.31120276 131 139 147
0.29966763 0.46663618 1.30614996 130 137 145
0.30327907 0.45183617 1.26472354 141 149 155
0.30489621 0.45099476 1.26236844 134 142 148
0.22083127 0.19039637 0.53293383 143 150 157
0.22157821 0.19024681 0.53251517 138 146 153
0.22232397 0.19009748 0.53209722 132 140 148
0.22289374 0.18979952 0.53126317 128 135 146
0.22451580 0.19039637 0.53293383 123 130 141
0.22543694 0.19039637 0.53293383 122 129 140
0.22582546 0.18994838 0.53167987 129 140 149
0.22692241 0.19009748 0.53209722 140 152 160
0.22784209 0.19009748 0.53209722 138 148 156
0.22858235 0.18994838 0.53167987 138 148 156
0.22968146 0.19009748 0.53209722 139 147 156
0.23060115 0.19009748 0.53209722 141 148 158
0.88374770 0.46042621 1.28876781 153 170 172
0.88597524 0.46042621 1.28876781 152 169 171
0.88316572 0.45781508 1.28145909 146 163 165
0.35528141 0.16475114 0.46115091 148 160 163
0.35559466 0.16452730 0.46052435 155 170 170
0.35542482 0.16408142 0.45927632 160 176 175
0.35549608 0.16374861 0.45834473 163 179 178
0.36123261 0.16565265 0.46367431 167 184 182
0.36178657 0.16553943 0.46335739 169 183 185
0.36209247 0.16531344 0.46272480 167 181 184
0.36239749 0.16508806 0.46209395 163 174 178
0.36369202 0.16531344 0.46272480 157 165 169
0.36085784 0.16330694 0.45710847 135 144 149
1.08896899 0.44683430 1.25072300 135 149 153
1.07918406 0.44194195 1.23702896 128 143 149
1.07935250 0.44113696 1.23477566 122 136 143
1.06614316 0.43402183 1.21485996 120 130 141
1.06063986 0.43093270 1.20621324 121 136 146
1.05521429 0.42788726 1.19768882 121 144 152
1.04986477 0.42488453 1.18928397 125 148 156
1.07279706 0.43247175 1.21052110 132 153 155
0.97685146 0.38999063 1.09161329 142 160 162
0.97559619 0.38873866 1.08810890 141 159 162
0.97279251 0.38687569 1.08289433 147 164 167
0.96694106 0.38381010 1.07431352 151 168 171
0.95666897 0.37900499 1.06086361 149 166 169
0.94373369 0.37316516 1.04451752 149 166 168
0.66339058 0.23490222 0.65750909 112 128 138
0.66388315 0.23467459 0.65687191 110 123 135
0.66373217 0.23422068 0.65560138 101 115 127
0.66615385 0.23467459 0.65687191 91 112 125
0.67580217 0.23766848 0.66525203 91 114 128
0.67430508 0.23673917 0.66265088 94 116 130
0.67151195 0.23535877 0.65878701 88 107 122
0.67069525 0.23467459 0.65687191 87 105 121
0.66988325 0.23399438 0.65496796 87 107 122
0.02801532 0.25589469 0.71281999 120 133 144
0.02921665 0.25562590 0.71207124 124 140 150
0.03154562 0.25455633 0.70909190 133 147 158
0.03273698 0.25429034 0.70835096 134 148 159
0.03381995 0.25323191 0.70540255 137 148 160
0.03489394 0.25218225 0.70247859 142 154 164
0.03599621 0.25140068 0.70030147 144 156 166
0.03686389 0.24908482 0.69385040 146 160 166
0.03779238 0.24731287 0.68891448 148 163 169
0.03878603 0.24606255 0.68543160 148 163 168
0.11609240 0.23243158 0.64746118 93 105 126
0.11698801 0.23198843 0.64622670 88 101 122
0.11810496 0.23198843 0.64622670 88 102 122
0.11876903 0.23110718 0.64377195 85 99 119
0.11931518 0.23001499 0.64072955 83 98 113
0.12008214 0.22936462 0.63891786 103 118 131
0.29856056 0.47070765 1.31120276 135 140 145
0.29966763 0.46889377 1.30614996 132 144 149
0.30076617 0.46709380 1.30113602 141 150 156
0.30327907 0.45402214 1.26472354 139 147 153
0.30489621 0.45317665 1.26236844 133 141 147
0.22135334 0.19176979 0.53419375 150 156 162
0.22210161 0.19161879 0.53377312 143 151 156
0.22267354 0.19131750 0.53293383 138 146 152
0.22341903 0.19116722 0.53251517 132 139 149
0.22522405 0.19192103 0.53461504 124 132 141
0.22579196 0.19161879 0.53377312 124 132 140
0.22635807 0.19131750 0.53293383 130 138 145
0.22745802 0.19146803 0.53335315 139 147 153
0.22837988 0.19146803 0.53335315 141 151 156
0.22894149 0.19116722 0.53251517 146 156 161
0.23004261 0.19131750 0.53293383 147 155 159
0.23096374 0.19131750 0.53293383 144 152 156
0.23170272 0.19116722 0.53251517 144 152 158
0.89447790 0.46709380 1.30113602 153 168 170
0.89672679 0.46709380 1.30113602 148 163 165
0.35503989 0.16543567 0.46083742 142 150 157
0.35511220 0.16509895 0.45989949 151 161 165
0.35494387 0.16465214 0.45865482 160 172 175
0.35501602 0.16431861 0.45772576 163 175 178
0.35749689 0.16509895 0.45989949 161 174 176
0.36073911 0.16622669 0.46304089 165 179 181
0.36129266 0.16611321 0.46272480 166 179 181
0.36159879 0.16588674 0.46209395 165 177 180
0.36092132 0.16521104 0.46021169 161 172 175
0.36024937 0.16454081 0.45834473 153 161 167
0.36006775 0.16409701 0.45710847 149 157 163
0.36012933 0.16376573 0.45618564 141 149 155
0.36043268 0.16354561 0.45557249 135 143 149
1.08896899 0.44899607 1.25072300 132 144 147
1.07918406 0.44408005 1.23702896 126 138 143
1.08132219 0.44408005 1.23702896 126 138 143
1.08148670 0.44327116 1.23477566 123 133 141
1.07968771 0.44166219 1.23029375 123 133 142
1.07595599 0.43927050 1.22363150 124 137 145
1.07419288 0.43769041 1.21922994 120 143 150
1.06291819 0.43224841 1.20407081 123 146 153
1.08246183 0.43847904 1.22142673 128 150 153
1.06349480 0.42995736 1.19768882 132 154 157
1.05438757 0.42544731 1.18512559 133 155 158
0.97371548 0.39061937 1.08810890 138 157 159
0.97092080 0.38874739 1.08289433 141 160 162
0.96969444 0.38750935 1.07944560 144 162 165
0.96694106 0.38566697 1.07431352 147 164 168
0.95517421 0.38024354 1.05920601 148 165 168
0.93508881 0.37153566 1.03494942 148 165 168
0.92002225 0.36485136 1.01632965 148 165 168
0.91492039 0.36213669 1.00876760 149 166 169
0.90494120 0.35682678 0.99397629 152 169 172
0.66245085 0.23489948 0.65433574 105 128 136
0.67713118 0.23928797 0.66656029 88 113 127
0.67430508 0.23788452 0.66265088 89 114 128
0.67151195 0.23649743 0.65878701 86 106 121
0.67069525 0.23580995 0.65687191 88 106 122
0.66988325 0.23512644 0.65496796 92 110 126
0.66907597 0.23444688 0.65307498 95 117 128
0.02804481 0.25739741 0.71357036 118 134 143
0.02921665 0.25685665 0.71207124 122 138 148
0.03038357 0.25631818 0.71057844 126 142 152
0.03151266 0.25551468 0.70835096 131 145 156
0.03263468 0.25471619 0.70613736 134 148 159
0.03374971 0.25392267 0.70393753 137 151 162
0.03485782 0.25313410 0.70175141 141 155 165
0.03595906 0.25235042 0.69957876 142 156 165
0.03678858 0.24977277 0.69243294 144 159 165
0.03779238 0.24850360 0.68891448 148 163 169
0.03878603 0.24724726 0.68543160 148 163 169
0.11620338 0.23377395 0.64808017 101 111 128
0.11709964 0.23332781 0.64684337 102 110 127
0.11821765 0.23332781 0.64684337 103 111 128
0.11888193 0.23244064 0.64438391 97 110 126
0.11942807 0.23134109 0.64133573 92 106 121
0.12019542 0.23068637 0.63952059 101 116 131
0.29856056 0.47297397 1.31120276 135 140 145
0.29966763 0.47115135 1.30614996 132 143 149
0.30076617 0.46934271 1.30113602 136 148 153
0.30128026 0.46665561 1.29368675 142 153 158
0.30271432 0.45535856 1.26236844 140 148 152
0.30432948 0.45451215 1.26002204 136 144 148
0.30537212 0.45282879 1.25535524 131 139 145
0.22205326 0.19330241 0.53588289 153 162 166
0.22280337 0.19314972 0.53545958 148 157 160
0.22319995 0.19269310 0.53419375 140 149 153
0.22412327 0.19269310 0.53419375 135 144 149
0.22611567 0.19360851 0.53673148 127 136 140
0.22650535 0.19314972 0.53545958 129 138 143
0.22707213 0.19284506 0.53461504 135 145 149
0.22817612 0.19299728 0.53503698 139 149 152
0.22892021 0.19284506 0.53461504 140 151 154
0.22948229 0.19254138 0.53377312 144 154 157
0.23040487 0.19254138 0.53377312 155 164 167
0.23132746 0.19254138 0.53377312 147 155 159
0.23188487 0.19223863 0.53293383 140 148 154
0.23298916 0.19238989 0.53335315 144 152 158
0.23427968 0.19269310 0.53419375 140 147 153
0.23594671 0.19330241 0.53588289 139 147 153
0.23649903 0.19299728 0.53503698 138 146 153
0.23667659 0.19238989 0.53335315 137 144 151
0.23722516 0.19208762 0.53251517 133 140 148
0.33033684 0.18059641 0.50065869 136 135 147
0.33046997 0.18019716 0.49955183 133 133 144
0.35552326 0.16645850 0.46146482 128 136 146
0.35559466 0.16611926 0.46052435 131 139 147
0.35494387 0.16544488 0.45865482 138 146 152
0.35501602 0.16510975 0.45772576 154 162 168
0.35628831 0.16533302 0.45834473 153 165 169
0.36024699 0.16679914 0.46240917 158 170 174
0.36080012 0.16668545 0.46209395 157 169 173
0.36110649 0.16645850 0.46146482 155 167 170
0.35994390 0.16555691 0.45896536 159 171 174
0.36006775 0.16488709 0.45710847 151 160 166
0.36012933 0.16455421 0.45618564 147 155 161
0.36067510 0.16444354 0.45587885 140 148 154
0.36194986 0.16466501 0.45649281 138 146 152
0.36273885 0.16466501 0.45649281 128 142 147
0.36851010 0.16477597 0.45680043 144 160 165
0.36707345 0.16378269 0.45404679 147 163 167
1.09300220 0.45282879 1.25535524 126 138 142
1.08313715 0.44785264 1.24156010 122 134 139
1.08528304 0.44785264 1.24156010 125 137 142
1.08742893 0.44785264 1.24156010 126 137 143
1.08165073 0.44459555 1.23253059 127 137 143
1.07985437 0.44298467 1.22806489 129 139 145
1.07807088 0.44138545 1.22363150 125 142 147
1.07244253 0.43822140 1.21485996 123 144 149
1.08246183 0.44059017 1.22142673 129 149 151
1.06349480 0.43202746 1.19768882 133 153 155
1.05438757 0.42749572 1.18512559 135 155 158
1.04728138 0.42379123 1.17485583 138 158 160
0.96782869 0.38937506 1.07944560 143 163 165
0.96661603 0.38813895 1.07601881 145 164 167
0.94776970 0.37911248 1.05099511 147 164 169
0.92102730 0.36771059 1.01938617 146 162 167
0.91317683 0.36388028 1.00876760 143 158 164
0.90548825 0.36012894 0.99836797 141 156 162
0.90190071 0.35801983 0.99252099 143 159 164
0.89835501 0.35593528 0.98674214 146 161 166
0.90137255 0.35645413 0.98818052 147 162 167
0.67779768 0.24067672 0.66721636 91 117 125
0.67628837 0.23973289 0.66459984 95 121 130
0.67413247 0.23856346 0.66135788 93 115 125
0.67199755 0.23740539 0.65814739 92 111 123
0.67118019 0.23671591 0.65623605 98 116 129
0.66972113 0.23580284 0.65370476 109 127 136
0.02813365 0.25945008 0.71583086 119 131 144
0.02927816 0.25863075 0.71357036 121 133 146
0.03041546 0.25781661 0.71132410 126 138 150
0.03154562 0.25700757 0.70909190 131 143 155
0.03270281 0.25647101 0.70761150 135 147 159
0.03385518 0.25593668 0.70613736 141 153 164
0.03489394 0.25461060 0.70247859 145 157 168
0.03599621 0.25382152 0.70030147 147 161 170
0.03686389 0.25148335 0.69385040 148 162 171
0.03783082 0.24994835 0.68961531 148 162 171
0.11721148 0.23466974 0.64746118 105 114 130
0.11821765 0.23444583 0.64684337 107 115 130
0.11888193 0.23355439 0.64438391 103 111 128
0.11942807 0.23244959 0.64133573 98 110 126
0.26611012 0.47801405 1.31885576 125 138 149
0.29913917 0.47616130 1.31374383 130 138 145
0.29966763 0.47340891 1.30614996 127 135 142
0.30076617 0.47159159 1.30113602 133 141 147
0.30128026 0.46889165 1.29368675 133 141 146
0.30215165 0.45669001 1.26002204 138 141 148
0.30432948 0.45669001 1.26002204 139 141 149
0.30537212 0.45499855 1.25535524 138 142 149
0.22333258 0.19453621 0.53673148 144 154 157
0.22390573 0.19422863 0.53588289 136 147 150
0.22518799 0.19453621 0.53673148 132 143 146
0.22647430 0.19484475 0.53758276 130 141 144
0.22686376 0.19438230 0.53630686 133 145 148
0.22779071 0.19438230 0.53630686 137 149 152
0.22889876 0.19453621 0.53673148 138 150 153
0.22946310 0.19422863 0.53588289 140 152 155
0.23002566 0.19392204 0.53503698 143 155 158
0.23095043 0.19392204 0.53503698 149 158 162
0.23150975 0.19361641 0.53419375 147 155 159
0.23225003 0.19346395 0.53377312 139 147 154
0.23335637 0.19361641 0.53419375 145 153 161
0.23464949 0.19392204 0.53503698 142 150 157
0.23613338 0.19438230 0.53630686 140 148 155
0.23668584 0.19407521 0.53545958 139 147 154
0.23667659 0.19331174 0.53335315 140 147 154
0.23741165 0.19315977 0.53293383 138 143 150
0.32812148 0.18119411 0.49992025 143 145 152
0.32971501 0.18159588 0.50102872 137 138 148
0.33033684 0.18146177 0.50065869 133 133 148
0.32998362 0.18079413 0.49881667 130 130 145
0.32963303 0.18013139 0.49698815 125 127 143
0.35625079 0.16759838 0.46240917 107 115 132
0.35656360 0.16737005 0.46177918 114 122 138
0.35566577 0.16657574 0.45958769 119 126 137
0.35501602 0.16590090 0.45772576 143 150 161
0.35628831 0.16612524 0.45834473 148 157 165
0.36024699 0.16759838 0.46240917 149 160 166
0.36080012 0.16748413 0.46209395 149 159 165
0.36159879 0.16748413 0.46209395 141 151 156
0.36018774 0.16646288 0.45927632 150 160 164
0.35976288 0.16590090 0.45772576 149 160 165
0.36006775 0.16567716 0.45710847 147 159 164
0.36037183 0.16545403 0.45649281 148 160 165
0.36091781 0.16534269 0.45618564 146 158 163
0.36219376 0.16556552 0.45680043 132 144 149
0.36298329 0.16556552 0.45680043 127 142 146
0.36303893 0.16523150 0.45587885 124 141 145
0.36480820 0.16567716 0.45710847 121 138 142
0.36559829 0.16567716 0.45710847 130 148 151
0.36589491 0.16545403 0.45649281 136 154 157
0.36668393 0.16545403 0.45649281 142 159 162
0.36821681 0.16578895 0.45741689 146 163 166
0.36776662 0.16523150 0.45587885 148 165 168
0.36658239 0.16434731 0.45343935 153 170 173
1.09300220 0.45499855 1.25535524 124 139 141
1.08313715 0.44999859 1.24156010 124 139 143
1.08329892 0.44917592 1.23929036 124 139 143
1.08942425 0.45082426 1.24383819 126 139 144
1.08559835 0.44835624 1.23702896 128 139 144
1.08378112 0.44672588 1.23253059 129 140 145
1.08197689 0.44510728 1.22806489 129 142 146
1.08819354 0.44591510 1.23029375 128 144 147
1.08441579 0.44350040 1.22363150 129 147 149
1.06349480 0.43409756 1.19768882 131 151 153
1.05438757 0.42954409 1.18512559 134 154 156
1.04366386 0.42435101 1.17079771 138 158 160
0.91689098 0.36781320 1.01480818 146 165 168
0.90643257 0.36292353 1.00131738 144 160 166
0.90150517 0.36026278 0.99397629 144 159 165
0.89795655 0.35816213 0.98818052 144 159 165
0.89186400 0.35505667 0.97961247 144 159 165
0.89226776 0.35454434 0.97819889 146 161 167
0.67913455 0.24230693 0.66853237 95 117 120
0.67761701 0.24135484 0.66590554 102 125 128
0.67943537 0.24159215 0.66656029 105 127 131
0.67330492 0.23900703 0.65942788 104 124 129
0.66972113 0.23693271 0.65370476 118 135 139
0.02937091 0.26068732 0.71583086 117 127 144
0.03047942 0.25959086 0.71281999 126 136 151
0.03161175 0.25877455 0.71057844 132 142 156
0.03280554 0.25850356 0.70983440 139 150 160
0.03396131 0.25796333 0.70835096 144 155 165
0.03496641 0.25635609 0.70393753 147 158 168
0.03599621 0.25503191 0.70030147 150 161 171
0.03693951 0.25320092 0.69527370 150 161 171
0.11721148 0.23578884 0.64746118 107 119 131
0.11833057 0.23578884 0.64746118 111 118 130
0.11888193 0.23466817 0.64438391 109 116 130
0.26331827 0.47936100 1.31629479 134 144 157
0.26662883 0.48122984 1.32142663 129 140 152
0.27049467 0.48406062 1.32919967 127 138 150
0.27225822 0.48311332 1.32659853 129 140 152
0.29918775 0.48216975 1.32400751 126 128 140
0.29913917 0.47843200 1.31374383 121 127 139
0.30024612 0.47658476 1.30867147 113 120 133
0.30134457 0.47475174 1.30363810 119 126 139
0.30185631 0.47202849 1.29616034 117 126 136
0.30271432 0.45972237 1.26236844 132 135 141
0.30489621 0.45972237 1.26236844 137 138 145
0.30593866 0.45801651 1.25768435 138 141 148
0.22386433 0.19592929 0.53800941 138 147 151
0.22461598 0.19577391 0.53758276 132 143 147
0.22683407 0.19608492 0.53843671 131 142 146
0.22740348 0.19577391 0.53758276 133 145 149
0.22851387 0.19592929 0.53800941 136 148 152
0.22944376 0.19592929 0.53800941 137 149 152
0.23019098 0.19577391 0.53758276 137 149 153
0.23075417 0.19546390 0.53673148 141 152 155
0.23149857 0.19530927 0.53630686 138 148 153
0.23187520 0.19484681 0.53503698 140 148 155
0.23261636 0.19469315 0.53461504 143 149 159
0.23372473 0.19484681 0.53503698 148 152 164
0.23502049 0.19515486 0.53588289 147 152 161
0.23650761 0.19561878 0.53715676 143 149 158
0.23706034 0.19530927 0.53630686 140 148 156
0.23704959 0.19453973 0.53419375 140 147 155
0.23759845 0.19423360 0.53335315 140 147 153
0.23870811 0.19438654 0.53377312 133 141 147
0.24076818 0.19530927 0.53630686 127 137 143
0.32787967 0.18192403 0.49955183 147 150 156
0.32947150 0.18232711 0.50065869 133 136 143
0.32984963 0.18205819 0.49992025 128 131 141
0.32925680 0.18125618 0.49771795 122 124 135
0.32915041 0.18072541 0.49626049 119 120 137
0.32928497 0.18032937 0.49517301 114 116 133
0.33161035 0.18019775 0.49481156 103 108 122
0.33246559 0.18019775 0.49481156 100 109 119
0.33259252 0.17980401 0.49373040 107 116 126
0.33296087 0.17954248 0.49301225 119 129 136
0.35680664 0.16828282 0.46209395 96 106 123
0.35566577 0.16737011 0.45958769 90 98 115
0.35501602 0.16669203 0.45772576 102 110 127
0.35604757 0.16680467 0.45803502 119 127 141
0.35951129 0.16805372 0.46146482 129 138 148
0.36030889 0.16805372 0.46146482 137 146 155
0.36135247 0.16816819 0.46177918 135 143 151
0.35994390 0.16714346 0.45896536 140 148 155
0.35976288 0.16669203 0.45772576 141 149 156
0.36006775 0.16646723 0.45710847 135 143 149
0.36012933 0.16613117 0.45618564 129 137 144
0.36067510 0.16601944 0.45587885 124 135 140
0.36219376 0.16635506 0.45680043 127 139 144
0.36273885 0.16624303 0.45649281 127 141 145
0.36303893 0.16601944 0.45587885 125 144 146
0.36407173 0.16613117 0.45618564 129 148 150
0.36510590 0.16624303 0.45649281 139 158 160
0.36540279 0.16601944 0.45587885 145 165 167
0.36594462 0.16590786 0.45557249 150 169 171
0.36673206 0.16590786 0.45557249 157 174 177
0.36628866 0.16535226 0.45404679 160 177 180
0.36609262 0.16491042 0.45283356 162 177 181
0.36638582 0.16469041 0.45222938 163 176 181
1.09300220 0.45716834 1.25535524 124 139 143
1.08115697 0.45131794 1.23929036 124 139 143
1.07739007 0.44885620 1.23253059 124 139 143
1.08742893 0.45214450 1.24156010 125 140 144
1.08559835 0.45049435 1.23702896 126 141 145
1.08575511 0.44967377 1.23477566 128 141 146
1.08394063 0.44804156 1.23029375 129 142 146
1.09017205 0.44885620 1.23253059 130 142 147
1.08637679 0.44642118 1.22584414 132 144 149
1.06537700 0.43693966 1.19980860 135 147 152
1.05438757 0.43159249 1.18512559 138 151 156
1.04546952 0.42711228 1.17282331 141 156 160
0.91552043 0.36901480 1.01329124 147 166 168
0.90643257 0.36465421 1.00131738 146 164 168
0.90150517 0.36198080 0.99397629 146 163 168
0.89275104 0.35778391 0.98245192 147 164 169
0.88801420 0.35520995 0.97538394 146 163 168
0.68047673 0.24394359 0.66985363 110 124 128
0.67895091 0.24298318 0.66721636 112 125 130
0.67858577 0.24203031 0.66459984 116 133 136
0.67444468 0.24014680 0.65942788 116 134 137
0.02955818 0.26359469 0.72039515 111 126 141
0.03057588 0.26164830 0.71507579 124 136 151
0.03171147 0.26082292 0.71281999 134 145 158
0.03290892 0.26054895 0.71207124 140 155 162
0.03406811 0.26000270 0.71057844 146 158 166
0.03511226 0.25864711 0.70687366 150 161 169
0.03603344 0.25650734 0.70102566 149 162 169
0.03701543 0.25492558 0.69670284 149 162 169
0.11698801 0.23645623 0.64622670 103 117 127
0.11821765 0.23668186 0.64684337 109 117 128
0.11854387 0.23511146 0.64255148 114 122 134
0.11875397 0.23334204 0.63771576 114 123 135
0.26229966 0.47977290 1.31120276 137 147 157
0.26611012 0.48257312 1.31885576 136 145 156
0.26996532 0.48540625 1.32659853 133 142 153
0.27172649 0.48445818 1.32400751 131 141 152
0.27294871 0.48257312 1.31885576 131 140 152
0.30036104 0.48635802 1.32919967 121 123 140
0.30030313 0.48257312 1.31885576 114 118 134
0.30082688 0.47977290 1.31120276 111 118 135
0.30134457 0.47700498 1.30363810 119 127 144
0.30243459 0.47517738 1.29864335 116 125 140
0.30351630 0.47336373 1.29368675 116 125 138
0.30271432 0.46190426 1.26236844 124 132 138
0.30546504 0.46276602 1.26472354 129 136 142
0.30650732 0.46104571 1.26002204 131 138 145
0.22758396 0.19685920 0.53800941 135 146 151
0.22869536 0.19701555 0.53843671 137 148 153
0.22962601 0.19701555 0.53843671 139 149 154
0.23037367 0.19685920 0.53800941 139 150 155
0.23112015 0.19670308 0.53758276 140 150 153
0.23186544 0.19654721 0.53715676 140 150 154
0.23205835 0.19592622 0.53545958 142 150 158
0.23279996 0.19577157 0.53503698 144 152 163
0.23390934 0.19592622 0.53545958 148 155 168
0.23520643 0.19623622 0.53630686 148 155 166
0.23650761 0.19654721 0.53715676 146 153 164
0.23724803 0.19639160 0.53673148 146 156 163
0.23704959 0.19546303 0.53419375 146 156 163
0.23778553 0.19530912 0.53377312 147 155 161
0.23889622 0.19546303 0.53419375 143 152 158
0.24076818 0.19623622 0.53630686 135 147 152
0.32812148 0.18292226 0.49992025 143 148 151
0.32947150 0.18319246 0.50065869 135 140 143
0.33009306 0.18305726 0.50028920 129 134 141
0.32925680 0.18211643 0.49771795 120 124 131
0.32915041 0.18158315 0.49626049 117 120 131
0.32928497 0.18118523 0.49517301 116 119 132
0.33014083 0.18118523 0.49517301 112 114 131
0.33099669 0.18118523 0.49517301 108 109 129
0.33161035 0.18105298 0.49481156 108 110 129
0.33246559 0.18105298 0.49481156 108 111 129
0.33283493 0.18078905 0.49409026 106 109 126
0.33320320 0.18052590 0.49337107 115 123 131
0.33478695 0.18092093 0.49445066 122 131 137
0.33564156 0.18092093 0.49445066 128 137 143
0.33735079 0.18092093 0.49445066 138 147 152
0.33722153 0.18039460 0.49301225 145 153 157
0.35729375 0.16931234 0.46272480 104 115 131
0.35639066 0.16850719 0.46052435 93 103 120
0.35525590 0.16759634 0.45803502 89 98 116
0.35725451 0.16816446 0.45958769 98 108 125
0.35975617 0.16896634 0.46177918 110 120 135
0.36080012 0.16908152 0.46209395 121 131 146
0.36209247 0.16931234 0.46272480 126 134 146
0.36067647 0.16827856 0.45989949 131 138 148
0.35976288 0.16748318 0.45772576 133 141 150
0.36006775 0.16725731 0.45710847 125 133 142
0.36012933 0.16691965 0.45618564 115 122 131
0.36298329 0.16714460 0.45680043 129 138 147
0.36303893 0.16680738 0.45587885 132 143 151
0.36431688 0.16703205 0.45649281 137 149 156
0.36535192 0.16714460 0.45680043 143 160 164
0.36540279 0.16680738 0.45587885 150 170 172
0.36619073 0.16680738 0.45587885 151 171 173
0.36697868 0.16680738 0.45587885 152 172 174
0.36628866 0.16613702 0.45404679 154 174 176
0.36609262 0.16569310 0.45283356 157 174 177
0.36638582 0.16547205 0.45222938 160 174 178
1.09706545 0.46104571 1.26002204 125 139 142
1.08313715 0.45429045 1.24156010 123 138 141
1.07935250 0.45180801 1.23477566 121 136 140
1.09545434 0.45764315 1.25072300 122 137 141
1.09358072 0.45596063 1.24612474 125 140 145
1.08972502 0.45345995 1.23929036 127 142 147
1.08591139 0.45098653 1.23253059 127 142 147
1.09415078 0.45263246 1.23702896 130 142 147
1.08834481 0.44935250 1.22806489 132 142 149
1.06537700 0.43901342 1.19980860 137 144 155
1.05438757 0.43364090 1.18512559 144 151 162
1.04366386 0.42839825 1.17079771 144 154 162
0.91552043 0.37076619 1.01329124 150 164 168
0.90509564 0.36584452 0.99984050 148 164 168
0.90018523 0.36316630 0.99252099 147 164 167
0.89017081 0.35844305 0.97961247 148 165 168
0.88673836 0.35638303 0.97398251 148 165 169
0.67980498 0.24485941 0.66919231 118 128 133
0.67895091 0.24413641 0.66721636 119 128 134
0.67858577 0.24317901 0.66459984 121 133 138
0.67774111 0.24246587 0.66265088 120 133 138
0.67558450 0.24128656 0.65942788 121 133 137
0.02962114 0.26540390 0.72192955 112 127 141
0.03064052 0.26344004 0.71658754 122 137 147
0.03174485 0.26233080 0.71357036 133 148 156
0.03294352 0.26205495 0.71281999 141 155 159
0.03413968 0.26177970 0.71207124 147 159 164
0.03522244 0.26068437 0.70909190 151 162 167
0.03607074 0.25798577 0.70175141 149 162 167
0.11676539 0.23712109 0.64499700 100 113 126
0.11810496 0.23757318 0.64622670 107 121 132
0.11843161 0.23599836 0.64194304 118 129 140
0.26179329 0.48110864 1.30867147 138 147 155
0.26559338 0.48391119 1.31629479 138 146 154
0.26943803 0.48674661 1.32400751 138 145 156
0.27119681 0.48579779 1.32142663 135 142 154
0.27294871 0.48485267 1.31885576 132 139 152
0.27469382 0.48391119 1.31629479 132 139 152
0.27804872 0.48579779 1.32142663 133 140 153
0.30154356 0.49057928 1.33443272 113 116 135
0.30206618 0.48769915 1.32659853 108 114 130
0.30199513 0.48391119 1.31629479 116 124 140
0.30250806 0.48110864 1.30867147 122 132 149
0.30301508 0.47833833 1.30113602 123 133 148
0.30467919 0.47742197 1.29864335 128 139 151
0.30327907 0.46495199 1.26472354 119 132 136
0.30603600 0.46582106 1.26708758 117 132 136
0.30707809 0.46408617 1.26236844 127 137 142
0.22999136 0.19826116 0.53929341 142 152 156
0.23073992 0.19810355 0.53886473 143 153 157
0.23148730 0.19794621 0.53843671 139 150 154
0.23223348 0.19778910 0.53800941 140 151 155
0.23260956 0.19731930 0.53673148 142 151 160
0.23316802 0.19700733 0.53588289 145 153 163
0.23446494 0.19731930 0.53673148 148 155 168
0.23557916 0.19747564 0.53715676 148 155 168
0.23688301 0.19778910 0.53800941 148 155 168
0.23743604 0.19747564 0.53715676 153 158 170
0.23742379 0.19669634 0.53503698 156 160 172
0.23797290 0.19638634 0.53419375 156 161 167
0.23946232 0.19685172 0.53545958 156 162 167
0.32557669 0.18284246 0.49735278 147 153 153
0.32739714 0.18338062 0.49881667 130 135 136
0.32922834 0.18392196 0.50028920 128 133 134
0.32960653 0.18365090 0.49955183 125 130 135
0.32877401 0.18270841 0.49698815 122 127 134
0.32866919 0.18217418 0.49553499 119 124 132
0.32928497 0.18204111 0.49517301 118 123 132
0.33014083 0.18204111 0.49517301 116 121 132
0.33099669 0.18204111 0.49517301 111 114 133
0.33161035 0.18190822 0.49481156 108 111 130
0.33270845 0.18204111 0.49517301 107 112 130
0.33307770 0.18177554 0.49445066 104 109 128
0.33368891 0.18164305 0.49409026 113 119 130
0.33503130 0.18190822 0.49481156 121 129 135
0.33588654 0.18190822 0.49481156 128 136 141
0.33698776 0.18204111 0.49517301 132 140 144
0.33759704 0.18190822 0.49481156 134 142 145
0.33771276 0.18151076 0.49373040 141 147 149
0.33831972 0.18137865 0.49337107 141 147 149
0.35687554 0.16953352 0.46115091 106 117 130
0.35573661 0.16861588 0.45865482 106 112 129
0.35920271 0.16988021 0.46209395 105 112 129
0.36000142 0.16988021 0.46209395 106 116 133
0.36104622 0.16999610 0.46240917 112 122 139
0.36116654 0.16930318 0.46052435 121 130 141
0.35976288 0.16827431 0.45772576 123 132 143
0.35982513 0.16793415 0.45680043 115 124 134
0.36279497 0.16748270 0.45557249 132 140 152
0.36407173 0.16770813 0.45618564 137 146 157
0.36510590 0.16782105 0.45649281 143 156 164
0.36515722 0.16748270 0.45557249 147 168 170
0.36520833 0.16714571 0.45465583 145 166 167
0.36574885 0.16703369 0.45435110 146 164 167
0.36579865 0.16669850 0.45343935 147 164 167
0.36536044 0.16614285 0.45192790 149 165 169
0.36492515 0.16559088 0.45042646 153 165 170
1.08711922 0.45811448 1.24612474 113 124 132
1.08132219 0.45477057 1.23702896 115 131 138
1.09951150 0.46150792 1.25535524 116 131 138
1.09761608 0.45980492 1.25072300 119 134 141
1.09775245 0.45895815 1.24841964 123 137 145
1.08987463 0.45477057 1.23702896 125 140 147
1.10219598 0.45811448 1.24612474 130 142 150
1.09031999 0.45229450 1.23029375 132 143 151
1.06537700 0.44108719 1.19980860 136 144 152
1.05254745 0.43492892 1.18305731 142 150 158
1.04186451 0.42967978 1.16877902 145 153 162
0.91964436 0.37419561 1.01785564 152 164 169
0.90643257 0.36811560 1.00131738 150 163 167
0.90150517 0.36541682 0.99397629 151 166 170
0.89275104 0.36118010 0.98245192 151 166 170
0.67980498 0.24601606 0.66919231 116 126 131
0.67895091 0.24528964 0.66721636 117 127 132
0.67925167 0.24456748 0.66525203 117 129 134
0.67840427 0.24384958 0.66329926 117 131 135
0.67558450 0.24242634 0.65942788 118 132 136
0.02965272 0.26693597 0.72269917 116 128 136
0.03070543 0.26523936 0.71810579 128 140 145
0.03181183 0.26412019 0.71507579 135 146 151
0.03297820 0.26356417 0.71357036 142 151 156
0.03413968 0.26301044 0.71207124 147 157 161
0.03525933 0.26218423 0.70983440 152 161 165
0.03610812 0.25946730 0.70247859 152 160 166
0.08691983 0.25189734 0.68198377 146 154 160
0.11687659 0.23846281 0.64561129 117 124 141
0.11821765 0.23891789 0.64684337 117 128 140
0.11854387 0.23733266 0.64255148 119 130 142
0.11886579 0.23576832 0.63831621 119 130 142
0.26280797 0.48524410 1.31374383 137 147 152
0.26714960 0.48903507 1.32400751 136 146 151
0.27049467 0.49095285 1.32919967 136 146 151
0.27225822 0.48999208 1.32659853 136 146 151
0.27401492 0.48903507 1.32400751 137 145 153
0.27576476 0.48808178 1.32142663 139 146 157
0.27968431 0.49095285 1.32919967 141 147 158
0.28477362 0.49581376 1.34236014 143 148 157
0.30154356 0.49288574 1.33443272 111 113 138
0.30206618 0.48999208 1.32659853 121 126 149
0.30317250 0.48808178 1.32142663 128 135 157
0.30309319 0.48430550 1.31120276 127 137 156
0.30359781 0.48151144 1.30363810 130 142 149
0.30526400 0.48058724 1.30113602 136 148 155
0.30633694 0.47874942 1.29616034 143 155 160
0.30450171 0.47242633 1.27904117 143 153 158
0.30441496 0.46888754 1.26946032 144 155 160
0.30660909 0.46888754 1.26946032 131 143 148
0.30822605 0.46801111 1.26708758 130 141 146
0.30983698 0.46713796 1.26472354 128 138 143
0.23110734 0.19935188 0.53972280 141 151 154
0.23185562 0.19919328 0.53929341 138 149 153
0.23260270 0.19903493 0.53886473 137 148 153
0.23279387 0.19840407 0.53715676 142 154 160
0.23353726 0.19824699 0.53673148 142 154 160
0.23465073 0.19840407 0.53715676 146 153 165
0.23576599 0.19856142 0.53758276 148 155 168
0.23688301 0.19871901 0.53800941 151 157 172
0.23762433 0.19856142 0.53758276 153 160 173
0.23742379 0.19762111 0.53503698 155 162 173
0.23816058 0.19746526 0.53461504 157 165 171
0.23984122 0.19809015 0.53630686 161 169 173
0.32134745 0.18276347 0.49481156 162 171 174
0.32462403 0.18316455 0.49589747 149 161 161
0.32571942 0.18329865 0.49626049 141 148 152
0.32825932 0.18424278 0.49881667 133 138 144
0.32912147 0.18424278 0.49881667 123 130 137
0.32805249 0.18316455 0.49589747 116 125 134
0.32842910 0.18289697 0.49517301 117 125 134
0.32904461 0.18276347 0.49481156 118 125 135
0.33014083 0.18289697 0.49517301 117 123 133
0.33099669 0.18289697 0.49517301 121 128 144
0.33270845 0.18289697 0.49517301 108 114 131
0.33307770 0.18263017 0.49445066 101 107 124
0.33368891 0.18249705 0.49409026 101 109 122
0.33784363 0.18289697 0.49517301 129 138 142
0.33795890 0.18249705 0.49409026 132 138 141
0.35760534 0.17067890 0.46209395 114 128 133
0.36412507 0.16815712 0.45526651 139 151 158
0.36417824 0.16781901 0.45435110 141 159 162
0.36423117 0.16748224 0.45343935 142 162 164
0.36428392 0.16714683 0.45253128 144 161 164
0.36482254 0.16703533 0.45222938 145 160 164
1.10168135 0.46367767 1.25535524 118 133 144
1.10181069 0.46282062 1.25303483 119 133 145
1.09788835 0.46026829 1.24612474 121 135 146
1.11242044 0.46453795 1.25768435 127 139 149
1.09031999 0.45442095 1.23029375 133 145 155
1.06726599 0.44394672 1.20193589 136 146 154
1.05254745 0.43697372 1.18305731 137 147 154
0.90911829 0.37094215 1.00428426 146 158 163
0.90282893 0.36767393 0.99543589 146 158 163
0.89404672 0.36340487 0.98387784 148 160 165
0.67980498 0.24717270 0.66919231 107 119 126
0.67895091 0.24644287 0.66721636 103 114 120
0.68058747 0.24620055 0.66656029 111 122 127
0.67973447 0.24547642 0.66459984 111 122 127
0.67558450 0.24356610 0.65942788 114 125 130
0.02880277 0.27195421 0.73285604 92 102 111
0.02968436 0.26847133 0.72347051 116 125 131
0.03073800 0.26676312 0.71886730 134 142 147
0.03184542 0.26563635 0.71583086 134 143 147
0.03301295 0.26507655 0.71432227 144 149 154
0.03417557 0.26451907 0.71281999 152 157 162
0.03529628 0.26368725 0.71057844 155 160 165
0.03614558 0.26095191 0.70320731 149 157 161
0.08626176 0.25461298 0.68612534 140 148 154
0.08700736 0.25333095 0.68267053 140 148 154
0.08827620 0.25358632 0.68335873 140 148 154
0.11709964 0.24003591 0.64684337 114 120 139
0.11821765 0.24003591 0.64684337 117 129 142
0.11865634 0.23866948 0.64316112 118 131 143
0.11909007 0.23731852 0.63952059 120 133 144
0.11996906 0.23687159 0.63831621 120 131 143
0.26383057 0.48941174 1.31885576 135 145 151
0.26819724 0.49325025 1.32919967 136 146 151
0.27102607 0.49421930 1.33181107 135 145 150
0.27332801 0.49421930 1.33181107 135 145 151
0.27508950 0.49325025 1.32919967 139 147 155
0.27738690 0.49325025 1.32919967 142 149 159
0.28133926 0.49616891 1.33706474 147 154 164
0.28533867 0.49912229 1.34502351 152 157 166
0.29869458 0.49813393 1.34236014 130 134 150
0.30101475 0.49813393 1.34236014 127 131 149
0.30273545 0.49714947 1.33970726 124 127 148
0.30325308 0.49421930 1.33181107 127 129 153
0.30435908 0.49228498 1.32659853 135 137 160
0.30427024 0.48846141 1.31629479 142 145 165
0.30476999 0.48563248 1.30867147 146 154 162
0.30644035 0.48469678 1.30614996 144 153 158
0.30692381 0.48191118 1.29864335 155 165 168
