ply
format ascii 1.0
element vertex 968
property float x
property float y
property float z
property uchar red
property uchar green
property uchar blue
end_header
-0.41004120 0.41657016 0.90968408 87 93 100
-0.41012792 0.42845686 0.90986888 91 99 105
-0.41105756 0.44028896 0.91730964 93 112 112
-0.39477115 0.41372733 0.89727795 98 108 114
-0.39838839 0.41309468 0.90145330 95 106 113
-0.39744116 0.42142919 0.89906079 101 110 113
-0.39963169 0.42370278 0.90225216 100 109 112
-0.36127857 -0.28955659 0.63004504 82 74 72
-0.36021766 -0.27649294 0.62536150 84 78 76
-0.34753284 -0.30544501 0.63615980 70 66 64
-0.35120935 -0.31166482 0.64273944 72 66 66
-0.34385777 -0.28259919 0.61896685 71 65 62
-0.35162007 -0.28943435 0.62657755 75 67 66
-0.34599516 -0.27415562 0.61679411 76 70 65
-0.35543534 -0.27596826 0.62229807 82 76 73
-0.33925483 -0.30006152 0.63059705 82 77 76
-0.33160474 -0.28423355 0.61634637 84 79 75
-0.33708653 -0.29452440 0.62416530 77 74 73
-0.32556498 -0.26034111 0.59937388 71 66 61
-0.33206050 -0.27347041 0.61291089 84 75 71
-0.32353658 -0.24356105 0.57470989 81 76 75
-0.32533689 -0.25919265 0.59831709 75 68 65
-0.33043981 -0.25987963 0.60070178 70 65 60
-0.32449768 -0.23007424 0.57116953 92 84 80
-0.32755934 -0.20984185 0.57155285 96 87 82
-0.33769403 -0.20403283 0.58088490 95 91 86
-0.33310547 -0.19940735 0.57742444 92 90 81
-0.33803493 -0.19886265 0.58363823 96 89 80
-0.31799900 -0.24217275 0.57438644 77 70 68
-0.30405640 -0.22491405 0.55709159 76 67 68
-0.31580219 -0.23065186 0.56627477 83 74 72
-0.30934001 -0.22416777 0.58958320 104 98 91
-0.30371977 -0.21618233 0.55383379 77 69 69
-0.31683852 -0.21541979 0.56357496 89 81 78
-0.30722563 -0.21242850 0.58591785 102 96 92
-0.30207700 -0.16787400 0.52978381 94 89 83
-0.29737303 -0.22441062 0.55611934 98 87 87
-0.29758331 -0.21534788 0.55318609 94 86 85
-0.28536924 -0.18353957 0.51872825 80 74 70
-0.28867363 -0.18787254 0.52090955 79 76 74
-0.28377399 -0.17369894 0.51839458 77 72 70
-0.29303376 -0.17003589 0.52347643 89 84 78
-0.27690971 -0.18278661 0.51683673 91 86 81
-0.27854292 -0.18730889 0.52025467 102 97 91
-0.27393651 -0.17106183 0.51417675 95 89 87
-0.26534770 -0.14041771 0.48851224 82 75 77
-0.26618211 -0.15922461 0.50532383 102 96 96
-0.26450534 -0.13495379 0.48859193 82 74 73
-0.26303500 -0.08154439 0.47004085 102 91 88
-0.26339022 -0.07761283 0.47058345 101 93 88
-0.26800622 0.25610163 0.63122310 73 80 88
-0.26786347 0.26045738 0.63027914 72 79 86
-0.25798851 -0.14001754 0.48420846 103 95 94
-0.25136350 -0.12794847 0.47747907 107 99 92
-0.25798908 -0.12974256 0.48420400 92 83 82
-0.24122573 -0.10126091 0.46021169 104 94 93
-0.24581623 -0.08788653 0.45793170 89 81 78
-0.24826966 -0.09036419 0.46166657 95 84 84
-0.24588252 -0.07328058 0.45420135 92 83 80
-0.25654675 -0.07500916 0.46261441 99 94 87
-0.25625035 0.25778916 0.61964518 80 89 95
-0.25629179 0.25699962 0.62657059 79 91 101
-0.25910288 0.26064593 0.62134910 74 84 92
-0.22732156 -0.40310495 1.37485388 67 54 57
-0.22643793 -0.40057398 1.38251356 66 53 54
-0.23471945 -0.39999238 1.37503421 69 56 56
-0.22806177 -0.39199002 1.38694026 67 54 54
-0.23444351 -0.38753881 1.40751041 67 55 56
-0.22513004 -0.37714080 1.39512794 70 54 55
-0.23061116 -0.37595949 1.40060294 69 57 58
-0.22096648 -0.18297993 0.49501514 104 95 86
-0.22048636 -0.17904344 0.49650305 104 95 88
-0.23897019 -0.10064597 0.45741689 104 95 96
-0.23767610 -0.08936939 0.45513428 107 94 93
-0.23905760 -0.07446524 0.45065641 82 74 73
-0.21964332 -0.40226144 1.36259806 67 56 56
-0.21069120 -0.40160149 1.39238587 68 54 55
-0.21172444 -0.38917303 1.39117247 68 54 54
-0.21124454 -0.38854780 1.40060294 68 54 55
-0.20796435 -0.37923405 1.39483917 68 54 54
-0.21704592 -0.18346778 0.49608592 103 95 90
-0.21796073 -0.17899032 0.49834609 103 95 89
-0.18032797 0.17904660 1.31629479 92 71 70
-0.18339330 0.17750767 1.32747912 91 67 68
-0.18132170 0.19294939 1.31800210 103 80 79
-0.18582420 0.19061695 1.32932023 98 77 77
-0.18338668 0.20367515 1.31375122 108 83 83
-0.18495698 0.20119217 1.32228692 104 81 79
-0.17626015 0.17723753 1.30969179 92 71 70
-0.17270219 0.19166374 1.31354603 101 81 79
-0.16830337 0.19165178 1.32580093 101 79 77
-0.17963083 0.20328093 1.31120602 108 82 82
-0.17646305 0.20258442 1.32142663 106 83 83
-0.15313743 0.19206957 1.31291538 101 78 77
-0.15819122 0.18888055 1.32142663 101 74 74
-0.15788345 0.20219028 1.31885576 110 86 87
-0.12236075 -0.58506522 1.16752346 41 34 36
-0.12186680 -0.57212383 1.16359892 44 35 37
-0.12069567 -0.55940658 1.15878952 46 37 38
-0.10649768 -0.60333329 1.17148689 47 38 40
-0.11030647 -0.60593264 1.18607299 45 36 38
-0.11662354 -0.58310805 1.15813037 42 35 38
-0.11089950 -0.58454064 1.17031170 46 37 39
-0.10922266 -0.59408214 1.18398139 46 37 39
-0.11699054 -0.56725841 1.15845994 44 35 38
-0.10913797 -0.56963933 1.16760086 46 37 40
-0.10064257 -0.56960377 1.18202680 49 40 43
-0.11642464 -0.55713568 1.15615515 45 36 38
-0.10767349 -0.55500753 1.16723847 48 39 40
-0.09546414 -0.56983012 1.19261522 50 40 42
-0.09800290 -0.55749091 1.18305973 50 40 42
-0.04696417 -0.16512751 0.97784774 75 56 56
-0.05564402 -0.16377124 0.98263224 74 54 57
-0.04721545 -0.15758027 0.97802474 75 58 57
-0.05419669 -0.15624039 0.98335040 74 56 58
-0.02547250 -0.38018578 1.78392589 78 57 62
-0.02476398 -0.36465907 1.77738061 76 59 58
-0.02477852 -0.37048499 1.78923678 77 59 58
-0.02465806 -0.35370520 1.79195510 80 58 58
-0.03791372 -0.16674114 0.97804296 74 55 57
-0.03767420 -0.15519879 0.97654210 77 58 59
-0.02250163 -0.09086763 0.65878733 75 56 56
-0.02122530 -0.09526142 0.66161776 75 57 56
-0.03272481 -0.05041220 0.61510645 74 53 55
-0.02541483 -0.04373622 0.62214270 74 54 56
-0.02656067 -0.03717845 0.62416535 71 54 54
-0.02510233 0.25199341 0.63395601 147 157 163
-0.03052871 0.24968775 0.64220458 158 166 169
-0.02337295 0.26285881 0.63383789 152 159 164
-0.01310452 -0.38226318 1.77924371 83 60 54
-0.01626518 -0.38118890 1.78863287 80 61 59
-0.00278186 -0.36188597 1.73082022 78 59 58
-0.00798474 -0.36548332 1.75223452 78 59 58
-0.01346379 -0.36971261 1.77213577 78 60 59
-0.01746429 -0.36990131 1.78486729 78 60 58
-0.00077298 -0.35004123 1.71185356 77 60 58
-0.00378143 -0.34808841 1.73462787 78 59 58
-0.00834723 -0.35770947 1.74940121 78 59 60
-0.00974738 -0.35374113 1.77033499 78 58 57
-0.01393324 -0.34961914 1.79134745 78 58 59
-0.01437006 -0.34427191 1.80853007 77 59 62
-0.00077298 -0.33523682 1.71184814 79 60 62
-0.00380874 -0.33761759 1.74715555 78 59 62
-0.00383839 -0.33568504 1.76075804 77 59 61
-0.01324356 -0.33970043 1.79812157 76 60 61
-0.01069101 -0.33570609 1.80450646 75 59 55
-0.01689840 -0.10239224 0.65915322 76 58 57
-0.00928060 -0.10189204 0.66317046 78 60 61
-0.01354756 -0.09166806 0.65942788 78 58 59
-0.01245618 -0.09517319 0.66336594 77 60 60
-0.01858056 -0.04404349 0.62280227 73 55 57
-0.01634699 0.25243276 0.63442397 130 139 144
-0.01497103 0.25883907 0.64103349 130 135 141
-0.01399159 0.26375643 0.63773791 137 146 153
-0.01411416 0.26558552 0.64208757 107 113 119
0.01268545 -0.35010583 1.69220228 76 59 57
0.00631686 -0.35532570 1.70884278 77 59 58
0.01908146 -0.05545298 1.13359845 83 65 67
0.01442289 0.13714715 0.57415691 144 150 156
0.00980046 0.13927830 0.58238360 132 137 144
0.01347373 0.14381255 0.57679612 147 150 156
0.00819132 0.14615475 0.58499480 142 148 152
0.00849612 0.19681132 0.49879664 120 128 142
0.01510999 0.19567123 0.50346290 133 143 154
0.01883068 0.20082146 0.50693238 125 139 155
0.02611708 -0.06168189 1.13284142 85 68 67
0.03718178 -0.04503504 1.11817268 90 64 70
0.02798769 -0.05133082 1.12794871 85 63 66
0.03180556 0.19547023 0.49749333 113 124 139
0.02461882 0.19529666 0.50296945 144 154 162
0.02331928 0.20604630 0.50994314 137 149 162
0.03957063 0.23304377 0.67857039 150 160 164
0.03783757 0.23657603 0.68799728 145 154 161
0.03568988 0.23914913 0.70224021 125 136 146
0.03754452 0.24696230 0.69234500 153 165 170
0.03359598 0.25279450 0.70680780 140 152 160
0.03290642 0.26366464 0.71312833 137 147 153
0.02927980 0.26878276 0.72513776 107 119 127
0.05641836 -0.46178490 1.37503421 83 63 65
0.05918527 -0.44733489 1.35147538 78 62 62
0.05761427 -0.45141559 1.36318970 79 62 63
0.05808803 -0.43979597 1.35850072 78 62 63
0.05756518 -0.43779365 1.36841652 78 62 62
0.05866953 -0.43240442 1.38935102 78 61 63
0.05057632 -0.04363496 1.11526988 89 67 71
0.04561699 -0.04935331 1.12424880 89 68 71
0.05091885 -0.03759000 1.11222252 87 67 71
0.04587473 -0.03754883 1.12550065 87 67 69
0.04318674 0.11865069 0.61789506 48 48 57
0.04550252 0.12338321 0.61859415 96 103 112
0.04596453 0.13029274 0.62132692 131 137 142
0.06266143 -0.44499754 1.33603880 78 63 63
0.06011489 -0.44913181 1.35128065 78 61 63
0.06585112 -0.43273216 1.31266747 80 66 65
0.06491592 -0.43416558 1.33166505 80 65 63
0.06348540 -0.43281802 1.35193620 81 64 65
0.06416932 -0.43217717 1.37309700 81 64 66
0.06328938 -0.42620972 1.38667925 79 62 63
0.06802557 -0.41967955 1.36947846 78 61 63
0.06513335 -0.41694623 1.39197894 84 66 65
0.06503287 -0.41784137 1.40715772 84 64 65
0.07867394 0.26360593 0.69949863 120 129 135
0.07827413 0.26818557 0.70224516 110 121 127
0.08605483 0.25639622 0.68560185 128 136 143
0.08354837 0.26526266 0.69340981 114 123 131
0.08108984 0.27450225 0.70394693 125 135 142
0.08196709 0.28211097 0.71057898 139 147 158
0.11926832 -0.28218851 0.60626070 162 153 147
0.11942140 -0.27690846 0.60615065 164 155 149
0.11458432 0.21915034 0.63762467 134 145 151
0.11439079 0.21630807 0.64535318 128 137 148
0.11543227 0.22422198 0.63740254 109 118 132
0.11719998 0.23090628 0.64414313 102 113 128
0.11734476 0.24188046 0.64758746 104 111 131
0.12602617 -0.28201740 0.60417360 163 154 147
0.12125923 -0.26850745 0.59755931 163 154 149
0.12513572 -0.27673974 0.60308682 164 155 148
0.13299559 0.20644346 0.45466892 0 0 0
0.13499135 0.21333724 0.46985172 0 0 0
0.13674241 0.21938583 0.48317310 0 0 0
0.12226239 0.21718549 0.63535655 102 109 127
0.12030892 0.21320175 0.64012450 134 143 154
0.13784996 0.22321152 0.49159874 0 0 0
0.13938520 0.22851461 0.50327823 0 0 0
0.12124112 0.22387721 0.63436773 110 123 139
0.15051691 -0.20057135 0.49108120 161 152 145
0.15045914 -0.19654555 0.49155752 161 152 143
0.14071262 0.20270304 0.45421199 0 0 0
0.14296372 0.20946487 0.46936373 0 0 0
0.14535189 0.21663840 0.48543800 0 0 0
0.14704339 0.22171930 0.49682318 0 0 0
0.14720680 0.22984117 0.51277616 0 0 0
0.15033459 0.23669506 0.52902877 0 0 0
0.14673177 0.24208762 0.53589978 0 0 0
0.15210113 0.24781688 0.55209192 0 0 0
0.15593948 0.25515881 0.56977623 0 0 0
0.15978625 0.25939855 0.58238131 0 0 0
0.14880922 0.26106727 0.57497185 0 0 0
0.15310819 0.26633459 0.58878757 0 0 0
0.15314740 0.27605230 0.60797477 0 0 0
0.15431090 0.28007126 0.61682606 0 0 0
0.15612566 0.28633988 0.63063198 0 0 0
0.15866925 0.29512602 0.64998248 0 0 0
0.15584839 0.55023971 1.70971388 138 143 146
0.15484399 0.55426154 1.73152733 130 135 139
0.15583888 0.55029261 1.74265254 134 137 140
0.15869457 0.55730933 1.77458596 151 152 154
0.15824099 0.56768468 1.73596150 146 155 159
0.15679465 0.57060911 1.74489820 139 149 152
0.15583158 0.56879008 1.77691483 127 131 136
0.15686140 0.56892310 1.78865778 136 140 142
0.15423831 0.57551473 1.80868344 123 127 133
0.15351151 0.57229072 1.82228994 136 140 143
0.15828453 0.58494073 1.77000087 148 159 161
0.15610172 0.58594132 1.79180823 132 141 145
0.15079762 0.58674945 1.81104267 118 126 131
0.14839690 0.59199494 1.82720837 113 121 127
0.15817209 0.60603924 1.81255800 151 159 164
0.15560469 0.60660732 1.82844296 131 140 145
0.14930934 0.60724697 1.84814260 112 122 130
0.14908762 0.61621537 1.86954553 105 116 126
0.15853238 0.62082863 1.80771160 152 161 167
0.15776457 0.62707473 1.83512456 153 160 166
0.15845020 0.62550102 1.85554647 152 159 165
0.15602251 0.63008791 1.86920918 140 148 157
0.15319349 0.63087777 1.88829577 121 127 141
0.15922940 0.64249754 1.85216355 155 160 167
0.15572239 0.64665720 1.87160904 151 158 165
0.16086347 -0.19652532 0.49051508 163 154 148
0.17369857 -0.00094593 0.49691565 155 140 136
0.17451265 0.00600785 0.49851968 154 139 134
0.17620109 0.01628984 0.50146521 152 137 132
0.17656917 0.02160959 0.50168874 152 135 131
0.17957323 0.07794430 0.95545056 150 134 130
0.17969978 0.08047752 0.95612389 146 134 127
0.16154202 0.26527001 0.59441064 0 0 0
0.16409166 0.27292857 0.61157174 0 0 0
0.16609760 0.27895395 0.62507331 0 0 0
0.16748821 0.28313108 0.63443330 0 0 0
0.16965969 0.28965370 0.64904909 0 0 0
0.17192172 0.29644835 0.66427436 0 0 0
0.16743380 0.30281936 0.67270665 0 0 0
0.17205495 0.31051568 0.69177295 0 0 0
0.17852525 0.31628388 0.70872143 0 0 0
0.16653669 0.32230192 0.70983440 0 0 0
0.16894908 0.33063486 0.72818679 0 0 0
0.17147464 0.33935869 0.74740005 0 0 0
0.17415321 0.34861109 0.76777744 0 0 0
0.17696443 0.35832170 0.78916395 0 0 0
0.17893329 0.36512256 0.80414218 0 0 0
0.16091928 0.58491915 1.76534331 153 163 163
0.16079926 0.59888768 1.79812157 154 163 167
0.16165686 0.60676843 1.80771160 157 164 171
0.18090333 0.00379891 0.49973610 154 137 134
0.18051676 0.01359510 0.50099598 152 137 132
0.18036523 0.02134087 0.49992025 150 133 130
0.18620116 0.05874314 0.93890840 153 133 130
0.18934526 0.05452541 0.94623078 150 133 130
0.18844254 0.07271730 0.95137601 149 133 129
0.18391886 0.08033615 0.95444435 148 134 129
0.18124321 0.32444804 0.72701548 0 0 0
0.18508214 0.33597935 0.75285460 0 0 0
0.18813577 0.34515177 0.77340794 0 0 0
0.19027231 0.35156946 0.78778857 0 0 0
0.19248980 0.35823034 0.80271414 0 0 0
0.19018808 0.36749452 0.81871076 0 0 0
0.19249256 0.37473585 0.83484300 0 0 0
0.19980219 0.37932152 0.85162294 0 0 0
0.19243344 0.38374169 0.85162428 0 0 0
0.18761751 0.39511982 0.87020773 0 0 0
0.19001621 0.40340540 0.88845587 0 0 0
0.19251765 0.41204596 0.90748572 0 0 0
0.19512859 0.42106473 0.92734861 0 0 0
0.19785640 0.43048716 0.94810051 0 0 0
0.20533890 -0.02600722 0.56834688 156 142 139
0.20588265 -0.01831866 0.57134246 153 137 132
0.21811869 0.17556347 0.53033846 142 151 157
0.21778680 0.18191162 0.52977758 130 137 143
0.20226896 0.38760474 0.86853570 0 0 0
0.20496958 0.39571682 0.88671306 0 0 0
0.20778566 0.40417568 0.90566754 0 0 0
0.21072476 0.41300410 0.92545006 0 0 0
0.21379513 0.42222679 0.94611609 0 0 0
0.21700575 0.43187080 0.96772617 0 0 0
0.20070907 0.44034097 0.96980232 0 0 0
0.20369540 0.45065641 0.99252099 0 0 0
0.20682500 0.46146676 1.01632965 0 0 0
0.21010844 0.47280848 1.04130852 0 0 0
0.21355735 0.48472178 1.06754625 0 0 0
0.21718454 0.49725094 1.09514034 0 0 0
0.22914038 -0.98346953 1.96680784 152 142 136
0.23092764 -0.98611129 1.98700672 150 141 134
0.23119829 -0.97554461 1.95546087 151 142 136
0.23005281 -0.97572839 1.96490383 151 141 134
0.23446334 -0.96785004 1.98796546 151 143 134
0.23432287 -0.94747259 1.97021733 154 145 138
0.23389991 -0.94710956 1.99284228 156 148 140
0.23756701 -0.93423732 1.98992451 158 150 143
0.23412763 -0.90192872 1.97061586 153 148 137
0.23688206 -0.91770881 1.99379957 157 149 142
0.23446700 -0.88691750 1.94517428 153 147 137
0.23378831 -0.89381689 1.96775985 150 143 134
0.23967397 0.01370912 0.60096794 145 136 126
0.22270561 0.17286872 0.52706462 148 157 165
0.22890445 0.19193656 0.53330069 136 145 153
0.23461868 0.20139650 0.53833119 137 146 153
0.23166418 0.20143147 0.54029644 133 139 143
0.22036647 0.44196565 0.99034655 0 0 0
0.22388807 0.45254374 1.01404971 0 0 0
0.22758237 0.46364060 1.03891528 0 0 0
0.23146240 0.47529535 1.06503105 0 0 0
0.23554253 0.48755114 1.09249359 0 0 0
0.23032225 0.50572795 1.12234056 0 0 0
0.22503215 0.52435833 1.15484130 0 0 0
0.22928579 0.53905135 1.18720114 0 0 0
0.23378471 0.55459160 1.22142673 0 0 0
0.23855071 0.57105440 1.25768435 0 0 0
0.24353882 -0.96847427 1.99187350 151 143 135
0.24129095 -0.95100015 1.97348845 154 145 137
0.24305943 -0.95281374 1.98795259 156 148 141
0.24032819 -0.93493944 1.99379957 159 151 145
0.25877768 -0.46432213 1.62759849 160 149 143
0.25623389 -0.45331688 1.61595428 161 149 145
0.25651286 -0.45002085 1.62788502 160 146 143
0.25419458 -0.44237438 1.64804717 159 146 141
0.25196531 -0.44024763 1.66149962 160 148 143
0.24814683 -0.43987530 1.61788034 157 145 140
0.24578329 -0.43671170 1.62695503 157 145 139
0.25210214 -0.43499451 1.65608978 157 145 139
0.25369302 -0.43278913 1.66970122 155 142 138
0.25696581 -0.42903271 1.69173486 156 141 138
0.25768777 -0.41458476 1.67381382 154 142 137
0.25700462 -0.41976056 1.69472957 155 142 139
0.25588016 -0.24268603 1.13322370 157 141 138
0.25985828 -0.24913406 1.14123201 158 143 140
0.24760520 -0.22630675 0.47082320 99 126 142
0.25581031 -0.22788958 0.53117716 128 136 143
0.25326786 -0.23497059 1.13207111 156 141 137
0.24669425 -0.21793410 0.47178225 96 128 141
0.25546797 -0.21899549 0.52836594 113 124 142
0.25953618 -0.18630424 0.55535724 160 151 145
0.25884907 -0.17859863 0.55315539 160 150 149
0.24166917 0.01333922 0.59990430 148 134 127
0.25408081 0.01407816 0.60534390 148 136 130
0.25839494 0.02155954 0.60918984 153 134 131
0.24064939 0.19701203 0.53673216 140 151 156
0.24003702 0.49990052 1.12233746 0 0 0
0.24436837 0.51406199 1.15189862 0 0 0
0.24915129 0.52842879 1.18409145 0 0 0
0.25420922 0.54362169 1.21813548 0 0 0
0.25980675 0.55914801 1.25535524 0 0 0
0.25932652 0.56028020 1.25303483 0 0 0
0.24360831 0.58852452 1.29616034 0 0 0
0.24898514 0.60709727 1.33706474 0 0 0
0.25471240 0.62688053 1.38063514 0 0 0
0.27515810 -0.94962260 1.99465207 153 145 138
0.27338181 -0.93426629 1.98712712 154 144 137
0.27805386 -0.46867692 1.59692055 163 148 144
0.27081647 -0.47146636 1.61276395 161 147 142
0.27176667 -0.47159045 1.63025838 160 147 142
0.27505582 -0.46810216 1.64713097 158 148 143
0.26212871 -0.45385718 1.61788034 161 149 144
0.26539149 -0.44794818 1.62730768 158 145 141
0.26991856 -0.45059139 1.64448754 158 146 142
0.26058060 -0.44024763 1.66149962 155 140 137
0.26590602 -0.43820236 1.63250214 155 143 138
0.26349021 -0.43744176 1.65273408 157 142 139
0.26174302 -0.43161762 1.67124556 157 143 138
0.26301188 -0.42933280 1.68630161 156 141 137
0.26101055 -0.41719351 1.67656910 154 143 137
0.26297826 -0.24443544 1.13688574 156 141 140
0.26864226 -0.24855175 1.14763443 157 142 139
0.26223426 -0.22875110 0.53037597 104 126 141
0.26390067 -0.23095992 1.13451493 157 142 139
0.26865314 -0.22740289 1.14509408 155 142 138
0.26131815 -0.21725639 1.13613657 153 142 138
0.26622647 -0.21794116 1.14315981 153 141 137
0.26811732 -0.18986985 0.55792620 123 133 141
0.27375469 -0.19104197 0.56117091 102 123 142
0.26803394 -0.17487945 0.55041491 107 123 141
0.27305633 -0.12162700 0.65049332 156 147 137
0.26928135 -0.12174409 1.00827689 158 144 140
0.27270355 -0.10284413 0.63870411 152 142 138
0.27359611 -0.11190283 0.64621698 154 143 138
0.27353585 -0.11174489 0.99839771 155 139 136
0.26929514 -0.11089731 1.00318300 155 139 136
0.26967338 -0.09991040 0.64012450 152 142 138
0.27166880 -0.09758759 1.00280007 155 137 134
0.26237679 0.01655364 0.60418934 149 136 132
0.26222292 0.02090958 0.60797554 150 134 132
0.26390935 0.47904932 1.31545111 131 143 154
0.26759082 0.48419822 1.31630349 134 143 153
0.27157424 0.49070297 1.32775485 134 143 152
0.27193873 0.50302009 1.33531783 132 140 148
0.26525088 0.57678834 1.29245466 0 0 0
0.27129284 0.59493703 1.33312190 0 0 0
0.27772740 0.61426494 1.37643158 0 0 0
0.26082548 0.64799649 1.42714071 0 0 0
0.26736477 0.67058456 1.47688854 0 0 0
0.27437639 0.69480437 1.53022993 0 0 0
0.28103420 -0.46811935 1.61403739 162 148 144
0.28091830 -0.46557981 1.62954772 160 150 143
0.28324746 -0.46596217 1.65340942 159 149 143
0.28905299 -0.46915983 1.66558862 155 147 139
0.29604026 -0.47227001 1.68350856 158 149 142
0.28175316 -0.45493670 1.64537501 159 148 140
0.28040871 -0.10735007 0.99689978 156 139 136
0.29169172 -0.03115118 0.93373531 153 138 134
0.29494178 -0.02986640 0.94413906 152 138 134
0.29339788 -0.02798198 0.97608248 155 138 135
0.28950135 -0.03158720 0.98407600 154 139 135
0.29779063 -0.01611779 0.97914128 156 139 136
0.29968375 -0.01916397 0.98103017 156 140 136
0.29963624 0.26789860 0.70783565 138 147 150
0.29918117 0.47186739 1.30952175 130 138 145
0.29026350 0.48916933 1.33053613 136 141 152
0.28960229 0.49768999 1.34324793 141 146 157
0.29303477 0.50712492 1.35189871 146 156 163
0.29694470 0.51735572 1.37179242 152 164 169
0.28459404 0.63489085 1.42264968 0 0 0
0.29193789 0.65695003 1.47207958 0 0 0
0.29947317 0.68114966 1.52335250 0 0 0
0.28191349 0.72083914 1.58756876 0 0 0
0.29003742 0.74890101 1.64937186 0 0 0
0.29881948 0.77923626 1.71618187 0 0 0
0.30162391 -0.02453121 0.97565779 156 139 136
0.30347076 -0.01500761 0.97840316 156 139 136
0.30223123 -0.01699146 0.98143638 156 140 137
0.30241151 0.27499425 0.71040199 149 159 166
0.30196241 0.27443075 0.72269917 134 145 155
0.30643263 0.28392360 0.71048587 153 165 171
0.30524371 0.28816401 0.72597819 148 160 169
0.30556097 0.45528129 1.25613161 135 140 147
0.30374860 0.45527252 1.26213554 136 142 148
0.30716394 0.46900703 1.26769586 137 146 151
0.30345237 0.47370340 1.29462373 131 140 149
0.30113447 0.47431010 1.30396181 124 132 144
0.30687055 0.48119257 1.29370558 156 165 168
0.30421937 0.48476022 1.31076479 135 143 155
0.30348109 0.49251379 1.33030655 127 131 150
0.30101475 0.49813393 1.34236014 127 131 149
0.30251164 0.50412288 1.34906122 140 148 158
0.30014765 0.68004489 1.52678347 0 0 0
0.30827084 0.70601049 1.58201343 0 0 0
0.31738760 0.73339516 1.64337659 0 0 0
0.30834305 0.81213278 1.78863287 0 0 0
0.31870615 0.84792930 1.86747062 0 0 0
0.33930877 -0.26603491 0.88755682 159 148 143
0.33277670 0.17967325 0.49337132 113 122 131
0.33126021 0.18342686 0.49639874 124 132 141
0.33134907 0.18734040 0.50079486 138 148 155
0.32724014 0.76298991 1.70969212 0 0 0
0.33747724 0.79556853 1.77924371 0 0 0
0.33836535 0.79457873 1.78392589 0 0 0
0.33002493 0.88702685 1.95357883 0 0 0
0.34483698 -0.28572455 0.89717090 160 151 143
0.35379857 -0.28867435 0.90366733 159 150 142
0.34958058 -0.27027692 0.89272472 159 149 143
0.35825552 -0.27899700 0.90025479 159 149 141
0.34658021 -0.25234784 0.87791188 159 149 144
0.34651146 -0.25737142 0.88419238 160 150 144
0.35683374 0.16614467 0.45807401 138 148 156
0.35703031 0.16674962 0.46160755 128 139 148
0.34021848 0.18724263 0.49992025 136 145 151
0.34906068 0.83044273 1.85723794 0 0 0
0.35001963 0.82950526 1.86234021 0 0 0
0.36191732 -0.30006012 0.90748572 161 153 149
0.36321923 -0.28095791 0.89906079 163 154 149
0.36870295 -0.28950576 0.90509257 163 153 147
0.36431012 -0.27276005 0.89579733 161 152 145
0.36809815 -0.27883420 0.90073365 163 153 147
0.37830148 0.02965336 1.43926084 151 136 131
0.37448512 0.03050767 1.44694257 150 136 131
0.36329079 0.16680823 0.45487067 135 148 154
0.36135743 0.16622448 0.46224778 152 164 169
0.36620441 0.44510175 1.54946911 150 154 162
0.36986637 0.44877574 1.57649267 167 175 179
0.37271372 0.45701765 1.59255521 158 164 170
0.37220708 0.45836952 1.61019444 172 180 184
0.37360044 0.46254800 1.61023074 162 168 173
0.37453459 0.46823845 1.63250688 163 170 175
0.37502131 0.47430210 1.65157687 163 171 177
0.36783679 0.47577786 1.67135777 150 159 165
0.37453333 0.48470940 1.65743732 153 159 165
0.37614279 0.49036266 1.66653172 144 149 158
0.37094398 0.49072013 1.69193546 135 141 154
0.37346402 0.48899385 1.70826567 144 152 162
0.37519361 0.49414964 1.72228885 140 148 158
0.37539789 0.50066179 1.66763312 124 121 144
0.37194556 0.50320848 1.68910861 117 118 137
0.37361102 0.50452479 1.71006233 118 123 141
0.37602009 0.50266755 1.72566020 130 136 150
0.36222589 0.86807904 1.94517428 0 0 0
0.38066000 -0.30090854 0.91483378 162 152 147
0.38081788 -0.29497583 0.91237210 164 153 146
0.38987629 0.01550262 1.44788634 151 137 133
0.39706252 0.01061086 1.46255376 149 136 133
0.38660102 0.03027490 1.43621509 151 136 131
0.39794669 0.03222160 1.44793368 153 137 133
0.39282516 0.04958080 1.41523537 151 135 131
0.38821774 0.04565929 1.42941473 153 137 133
0.39739431 0.04167154 1.44386071 158 138 136
0.38169520 0.49043888 1.65743732 145 148 155
0.38139377 0.49664588 1.66866380 150 152 160
0.38233490 0.50365396 1.67278144 148 150 158
0.40163711 0.01935544 1.45470357 154 139 135
0.40589945 0.01523108 1.46921498 150 136 133
0.41121083 0.01457702 1.48011315 149 136 133
0.40231141 0.03768767 1.43470621 154 137 134
0.40289773 0.03017115 1.45139502 152 137 133
0.40934441 0.02290457 1.46730296 152 137 133
0.40234873 0.04278261 1.43926084 154 135 133
0.40071183 0.04287363 1.44232309 156 136 134
0.40909871 0.25195181 0.57617283 150 159 162
0.41383790 0.25609161 0.58172977 145 154 157
0.43923977 -0.34799970 0.59691288 95 132 142
0.42682925 0.10381611 0.47975361 163 170 174
0.42804841 0.10694695 0.48897379 136 146 152
0.43927722 0.21089365 0.45179177 145 158 161
0.42369165 0.25833385 0.58768655 132 138 142
0.43102590 0.26730935 0.59490046 105 112 121
0.43664449 0.27055356 0.60043561 93 100 110
0.45206752 -0.36151539 0.60360736 99 131 140
0.44584581 -0.34876936 0.59742834 97 131 144
0.44991051 -0.34992872 0.60297150 100 130 143
0.44338063 -0.10252831 0.51122646 80 108 130
0.44405492 -0.09425200 0.51065926 82 110 128
0.45741006 0.13788895 0.45732344 138 148 152
0.45398619 0.13938705 0.46162307 140 154 157
0.45509984 0.14232702 0.45855267 145 154 159
0.45342437 0.14271777 0.46118740 135 144 148
0.45054725 0.19264057 0.59614819 152 167 171
0.45342945 0.19411726 0.60702228 139 156 161
0.44137297 0.21068361 0.45448791 141 156 159
0.45164269 0.21526125 0.46838142 138 154 157
0.45421845 0.20076515 0.61038672 162 179 180
0.44040564 0.27238789 0.59990430 95 106 118
0.45884550 0.26728371 0.68821508 116 124 130
0.46023792 0.13900207 0.45772576 115 125 130
0.46905472 0.26628252 0.68917845 137 144 146
0.48187031 0.26385274 0.69802083 140 149 150
0.48349388 0.26364107 0.70066357 142 151 152
0.49366319 0.26941059 0.91753962 151 162 171
0.49362930 0.27073000 0.93008909 139 149 158
0.49418028 0.27470654 0.94609396 127 135 145
0.50933531 -0.40020710 1.20407081 163 152 146
0.51642692 -0.40956289 1.22584414 162 152 145
0.51140387 -0.38889087 1.19776388 162 151 145
0.51312011 -0.39198491 1.20391631 162 152 145
0.51825974 -0.36160035 1.17553576 159 150 145
0.51376313 -0.37410211 1.19276542 160 150 143
0.51823913 -0.35882504 1.17587927 159 149 144
0.51283782 -0.29308035 0.60788156 100 130 146
0.50075136 0.26571585 0.91855375 138 148 163
0.50251672 0.26425080 0.92688699 122 132 145
0.50092678 0.27065183 0.94731339 146 155 163
0.52520141 -0.40304303 1.20944995 159 149 144
0.52066451 -0.40956289 1.22584414 164 154 148
0.52459087 -0.39415990 1.17109707 160 152 142
0.52609193 -0.38936443 1.19229469 161 151 145
0.52198343 -0.39278541 1.20300485 161 151 145
0.52349777 -0.36944017 1.17894232 160 150 146
0.52300781 -0.37329698 1.18587647 161 150 145
0.52821794 -0.28549935 0.61491287 98 129 143
0.53082780 -0.27843287 0.61455830 98 129 140
0.55437215 0.20801329 0.53435851 121 135 139
0.55790281 0.20872483 0.54194179 117 132 139
0.54876882 0.23808477 0.62841316 135 152 155
0.55115585 0.24665810 0.63597802 132 142 148
0.55352814 0.25344837 0.64330121 124 134 141
0.55355728 0.26004043 0.63831621 107 118 126
0.55834109 0.26194265 0.64805126 102 115 127
0.56273114 0.20702993 0.54586926 124 134 140
0.63753627 0.15631851 0.59306135 148 165 168
0.63794848 0.16186465 0.59325093 155 167 168
0.63610134 0.19629305 0.61718138 127 138 145
0.63757939 0.19844079 0.62457267 144 162 163
0.63647844 0.20168297 0.61801475 142 152 155
0.63805947 0.20145562 0.62365012 138 152 154
0.64211490 0.15406092 0.59534279 152 166 170
0.64183288 0.16498669 0.59678575 156 171 172
0.64588602 0.21236630 0.63251663 137 146 150
0.64944725 0.21920050 0.64149040 134 146 147
0.65285200 0.22105772 0.63831661 117 127 134
0.65453590 0.22490310 0.64604936 113 126 135
0.66624564 0.23280459 0.65486031 96 113 126
0.67492902 0.23763325 0.66354732 92 115 128
0.67529954 0.24185645 0.65942788 117 131 135
0.67891071 0.24390564 0.66623942 111 125 130
0.69203544 -0.56472963 1.48987222 161 154 144
0.69394585 -0.55724442 1.49398515 160 152 145
0.69920752 -0.55237162 1.50531292 158 150 144
0.69662857 -0.49848804 1.49976075 160 152 145
0.68261798 0.25042605 0.66951693 105 120 129
0.69073246 0.34811345 1.47155372 154 162 168
0.69773543 0.35226679 1.48011315 156 166 171
0.70101637 -0.56764793 1.51484400 160 152 146
0.70921522 -0.56674986 1.53419774 159 150 144
0.71083428 -0.56321107 1.54066324 158 150 144
0.71907866 -0.56095105 1.56557012 158 150 143
0.70128310 -0.54879034 1.50978136 159 151 145
0.70758677 -0.55109030 1.52335250 159 151 144
0.71397691 -0.55040844 1.54625038 159 151 144
0.71907866 -0.55824512 1.56557012 159 151 145
0.71360286 -0.52952531 1.54493279 160 151 145
0.71410443 -0.52580861 1.57649267 161 153 144
0.71797290 -0.52901984 1.58201343 160 152 143
0.70284849 -0.50555420 1.51315141 160 152 146
0.70997054 -0.50727837 1.53419328 161 152 145
0.71573302 -0.51060838 1.55244393 162 152 145
0.70442080 -0.48833671 1.51653659 162 151 151
0.71122204 -0.48865079 1.53232276 162 151 146
0.71503597 -0.49055895 1.54417809 162 152 147
0.70132071 0.34894663 1.47688854 144 152 163
0.71337787 0.35253966 1.49072133 134 145 160
0.72325647 -0.54923379 1.57466589 160 152 145
0.72579173 -0.54825705 1.58724101 159 150 143
0.72241859 -0.52549837 1.57284167 160 153 145
0.72553173 -0.52986468 1.58758612 160 152 144
0.72012156 -0.50026459 1.56196272 161 153 147
0.72649469 -0.50991107 1.58739368 161 151 145
0.73621543 -0.50139753 1.60893460 159 150 145
0.72074674 -0.48416929 1.55361732 159 150 145
0.72656150 -0.49472901 1.57356982 159 151 145
0.73502633 -0.49107864 1.59266970 159 150 143
0.73823435 -0.49292303 1.60486333 158 150 143
0.72219294 -0.47915840 1.55479777 159 149 144
0.73986894 -0.47890249 1.59880149 160 152 143
0.72516463 0.35197967 1.49598117 128 138 155
0.73387592 0.35662545 1.50942694 143 151 165
0.73695751 0.37772266 1.49480918 163 174 179
0.73432314 0.37322379 1.50979642 166 176 182
0.73622829 0.37525632 1.52678734 156 167 177
0.73688394 0.38052623 1.52679121 152 165 173
0.75949228 -0.62008446 1.14508760 96 130 146
0.74167719 -0.48912691 1.61275637 159 150 141
0.74709230 -0.49048652 1.62809406 159 150 141
0.75717007 -0.49053395 1.65098491 159 150 142
0.74425968 -0.47200810 1.60828962 158 148 139
0.75339562 -0.47394428 1.63413511 160 150 144
0.75673789 -0.46612474 1.64138460 162 154 148
0.74853587 0.35735416 1.51249251 149 158 168
0.75119098 0.35610040 1.53240737 155 163 174
0.75698060 0.35405549 1.54136515 144 150 160
0.74165124 0.37555261 1.49645728 156 165 174
0.74856509 0.37287412 1.51459740 162 172 178
0.74810250 0.37092530 1.52763104 156 165 173
0.74251986 0.38006380 1.53022993 153 167 176
0.76649362 -0.62680405 1.13931406 100 127 145
0.76872453 -0.62264229 1.14931703 98 129 145
0.77489184 -0.62167851 1.16476951 100 126 141
0.76891083 -0.61613209 1.13597670 100 130 145
0.77429820 -0.61709614 1.14758593 96 128 144
0.77724142 -0.61826877 1.16620943 101 127 143
0.76127398 -0.48357479 1.65743732 159 151 141
0.76127398 -0.47784530 1.65743732 160 150 145
0.77603319 -0.22502021 0.92935774 83 114 131
0.77222651 -0.21589770 0.91979897 83 114 133
0.77557171 -0.21676406 0.92853286 83 113 133
0.77880025 -0.21500100 0.94021058 85 112 132
0.76116908 0.35649064 1.51993692 165 175 179
0.76979911 0.35787559 1.53716969 170 180 185
0.76757896 0.35642251 1.55044006 143 149 158
0.76355436 0.36750379 1.53485253 158 167 175
0.76861058 0.36419012 1.54469943 159 167 176
0.78503214 -0.62221748 1.15353865 100 129 146
0.78513066 -0.62233807 1.16981873 95 126 141
0.79592267 -0.62224239 1.18305731 98 129 145
0.78193223 -0.61838388 1.15485471 93 128 143
0.78509120 -0.61817238 1.17147830 99 127 143
0.78283972 -0.22431762 0.92766725 81 115 131
0.78061491 -0.21484648 0.92439892 86 112 134
0.78069562 -0.21529962 0.94151646 82 113 129
0.78041703 0.35742477 1.55837202 128 135 143
0.78267783 0.35896552 1.57102293 129 134 143
0.78860080 0.35696134 1.58016741 124 130 142
0.78491497 0.36094806 1.56196272 151 159 165
0.82219156 0.23918026 1.12171908 148 156 161
0.82701886 0.24496649 1.11863339 149 154 159
0.82807348 0.24885357 1.12972561 141 149 153
0.83399776 0.25747034 1.14412206 158 174 178
0.83204842 0.26087210 1.13740242 144 152 161
0.83189112 0.26175046 1.14123201 147 154 163
0.85682120 -0.32456844 1.23702896 85 116 135
0.85814710 -0.32150045 1.24308165 86 116 136
0.85468499 -0.31424018 1.23703166 84 116 135
0.85831377 -0.31667972 1.24384242 83 116 135
0.84725990 0.25315069 1.13804177 150 162 165
0.85057744 0.25816765 1.15386933 132 146 150
0.85673650 0.26812498 1.16609911 141 153 161
0.87861302 -0.53031524 1.40292523 94 122 140
0.87752572 -0.51047122 1.39771509 91 122 138
0.87812841 -0.51757798 1.40060294 96 122 140
0.86675278 -0.32520717 1.23539691 82 116 137
0.86873084 -0.32510636 1.24567794 83 116 136
0.86773296 -0.31686446 1.23735550 82 116 136
0.87064295 -0.31279736 1.24974596 83 115 134
0.87798768 -0.30931049 1.26090194 85 115 133
0.86455593 0.25722750 1.15190524 168 177 180
0.87085427 0.26923816 1.15711835 156 166 170
0.86832582 0.27025028 1.16873431 154 165 170
0.87556167 0.27041353 1.18430846 141 154 159
0.86602439 0.28010100 1.17689562 159 166 173
0.87351389 0.28470160 1.18932505 163 170 179
0.87305275 0.43398415 1.25420368 131 139 145
0.87377715 0.43131574 1.26826077 128 143 149
0.87818110 0.42761487 1.28388608 139 151 156
0.87135168 0.44520743 1.26815887 116 138 146
0.87626970 0.44911434 1.28986099 138 155 160
0.87930298 0.44891964 1.31376362 145 155 160
0.89700422 -0.54273181 1.40934467 95 123 137
0.88114947 -0.53100583 1.39771509 98 125 141
0.89192312 -0.53022929 1.40901103 94 121 140
0.89081281 -0.50322372 1.39771509 91 124 139
0.89083315 -0.51222448 1.40490530 91 121 139
0.88078259 -0.31063371 1.26295722 85 115 132
0.88408005 0.26830846 1.18513078 152 164 168
0.88078266 0.28156751 1.18305731 166 174 178
0.88557497 0.29230338 1.21058291 169 180 187
0.89762712 0.29626952 1.23141217 160 167 181
0.88981103 0.35592741 0.97735806 146 162 167
0.89635420 0.35729377 0.98579152 145 161 166
0.89006596 0.36718906 0.97763754 143 155 160
0.89495185 0.36950736 0.98404367 149 161 166
0.88093083 0.43433284 1.26946703 131 139 145
0.88240892 0.43285111 1.29193866 132 146 154
0.89073038 0.43615825 1.30818670 131 144 150
0.88250856 0.45231885 1.29434729 130 144 150
0.88712593 0.44619677 1.31156123 120 131 140
0.89372296 0.44845365 1.32922058 129 141 147
0.88486147 0.46042621 1.28876781 152 169 171
0.89560235 0.46709380 1.30113602 150 165 167
0.90531756 -0.52675909 1.41408263 96 120 140
0.91385214 -0.52412873 1.42165448 97 121 141
0.91255540 -0.50080788 1.39771509 94 122 139
0.91066277 -0.50991592 1.40740643 93 121 141
0.91139264 -0.49670971 1.39675645 92 121 139
0.90749217 -0.49823626 1.40408995 96 123 141
0.90273815 0.35710025 0.99155927 147 163 167
0.90268495 0.36990450 0.99480564 146 159 164
0.91246359 0.37016689 1.00825878 143 158 164
0.91473866 0.38159873 1.00953275 150 162 166
0.90430594 0.44483455 1.33444651 122 136 142
0.90949794 0.44274269 1.34324793 144 157 161
0.92398614 -0.52175760 1.41522300 86 121 143
0.93498355 -0.52203670 1.42264968 96 122 144
0.92623513 -0.50970923 1.41039679 92 120 139
0.93603503 0.34758095 1.06853334 144 153 155
0.92069228 0.37028137 1.01836733 144 158 164
0.93508881 0.37153566 1.03494942 148 165 168
0.92380706 0.38296011 1.02246284 127 142 149
0.95148741 0.34523378 1.05355128 136 147 151
0.94568937 0.35023708 1.07084973 148 155 157
0.95622037 0.35806213 1.08964143 148 154 156
0.95152184 0.36881659 1.05120731 144 159 164
0.95817002 0.37256024 1.06252813 143 154 160
0.95785238 0.36176521 1.09470159 135 144 145
0.95970923 0.36331266 1.10226321 140 150 153
0.95517421 0.38024354 1.05920601 148 165 168
0.97766066 -0.85537201 1.49151301 99 125 143
0.96375058 0.35489858 1.06909441 151 166 169
0.96175730 0.35980240 1.09161329 155 161 162
0.96525990 0.36883827 1.07187839 151 163 167
0.96966653 0.37173130 1.08999911 135 147 152
0.97047964 0.37064204 1.10407048 114 127 134
0.97848755 0.37310460 1.12606621 122 132 137
0.96807325 0.38548070 1.07675505 146 164 167
0.97511533 0.38645232 1.08891477 139 155 159
0.97685587 0.38236439 1.10226321 118 136 146
0.99336666 -0.86112797 1.46836849 97 129 145
0.98993169 -0.84442237 1.45315136 101 128 145
0.98594849 -0.84804654 1.46998414 97 129 143
0.98628736 -0.84799815 1.48989613 97 128 142
0.98708411 -0.83145548 1.44917609 99 128 141
0.98718906 -0.83262951 1.46977729 100 129 141
0.98818652 -0.83695893 1.48457715 97 130 140
0.98599261 -0.81867555 1.45159185 98 129 144
0.98920882 -0.81891918 1.46097374 99 130 146
0.98000765 0.37232208 1.09514034 157 171 174
0.98086470 0.37812398 1.11221051 97 116 129
0.98011565 0.37567496 1.12793982 126 131 138
0.98144693 0.38564187 1.09534227 133 147 155
0.98477044 0.38376744 1.11196589 107 123 137
0.98882657 0.38350835 1.12233746 86 105 120
1.00149024 -0.84341678 1.45314604 98 127 142
1.00688505 -0.85174644 1.46097374 97 129 145
1.03693542 0.07817291 1.12233746 123 142 145
1.03743520 0.08179021 1.12140989 111 132 134
1.03459291 0.41113813 1.17351488 113 130 142
1.03823364 0.41448072 1.18305731 115 130 142
1.04960478 0.07219882 1.12882643 138 153 158
1.04776475 0.08383561 1.12488744 120 136 139
1.04208899 0.41704555 1.17588282 128 149 156
1.04474069 0.41671594 1.18814149 114 130 142
1.04513826 0.42847068 1.17283265 138 152 158
1.05124137 0.42596010 1.18888459 126 144 152
1.05543739 0.42467614 1.20622849 116 131 144
1.07447521 0.05730569 1.15261766 106 132 145
1.06513123 0.06944392 1.13613550 129 140 147
1.07049777 0.06409714 1.14806175 120 138 144
1.06424768 0.43440709 1.19853673 133 149 154
1.06702537 0.43322054 1.21177738 122 140 148
1.07227769 0.43298823 1.22741891 116 129 138
1.06537700 0.44108719 1.19980860 136 144 152
1.06726599 0.44394672 1.20193589 136 146 154
1.07900952 0.44423193 1.23226625 124 138 143
1.08182315 0.05785011 1.15287842 104 130 143
1.08237305 0.06174775 1.15435031 116 137 145
1.08246183 0.43847904 1.22142673 128 150 153
1.08397734 0.43617269 1.24498987 116 129 137
1.08571478 0.44870045 1.23283024 127 140 146
1.08933591 0.45189745 1.24710966 124 138 143
1.09869993 0.46088810 1.25073999 118 132 142
1.09706545 0.46104571 1.26002204 125 139 142
1.10219598 0.45811448 1.24612474 130 142 150
1.10599634 0.46443700 1.25593969 120 135 146
1.11075966 0.46845322 1.26237722 116 132 143
1.10170519 0.63750654 1.90419054 167 177 180
1.11581188 0.65400520 1.92857242 157 169 174
1.12064219 0.47327587 1.26946032 127 146 154
1.12289906 0.64955160 1.94518235 163 175 179
1.13332474 0.65463609 1.97061586 158 170 174
1.13985932 0.65867734 1.98795259 155 166 169
1.12915401 0.66304598 1.95358960 153 165 171
1.13469083 0.66655580 1.97062912 153 165 171
1.13814116 0.66726770 1.98796117 147 159 166
1.14608860 0.46756165 1.59880149 112 123 129
1.14808002 0.46506083 1.60447997 124 133 138
1.15693343 0.46726540 1.62175083 130 140 142
1.14004481 0.67874849 1.97636104 145 155 165
1.14456065 0.67656953 1.99615903 145 158 168
1.14673138 0.68616545 1.98795259 140 148 158
1.16774615 0.47201066 1.62845809 123 132 138
1.17379827 0.47009267 1.64939530 144 152 154
1.17955577 0.47067314 1.66354078 150 160 162
1.16777158 0.75538725 1.79336464 120 131 138
1.17398322 0.75628912 1.80290389 109 122 128
1.17534232 0.77167296 1.81393714 118 139 142
1.19046072 0.43048940 1.65274056 157 167 171
1.19400938 0.43599541 1.66833037 155 165 169
1.19287956 0.45398756 1.67092519 163 176 180
1.19999552 0.44686124 1.68211377 164 174 179
1.18716508 0.47290464 1.63152987 140 152 156
1.19058550 0.47281385 1.65094936 137 146 151
1.18996206 0.46987981 1.66582441 148 156 160
1.19721484 0.46954328 1.69050336 150 160 163
1.19374275 0.48092529 1.64937186 128 140 148
1.18026114 0.75720060 1.81254506 113 128 132
1.18028414 0.76237184 1.81740439 104 118 123
1.18455640 0.77086474 1.82885675 110 127 130
1.19798404 0.77323940 1.84711671 105 120 125
1.18672800 0.78016192 1.83710527 109 133 135
1.19652319 0.79352677 1.85723794 113 139 143
1.19981027 0.78765953 1.86234021 103 124 126
1.20853484 0.43886843 1.67380702 147 158 167
1.21297829 0.45428270 1.66969446 160 169 175
1.20881365 0.45233819 1.68630509 166 176 182
1.21365356 0.45451877 1.70539099 163 174 179
1.20943610 0.47211973 1.65464163 141 158 162
1.20975223 0.46944208 1.66911563 152 165 168
1.21012680 0.46626911 1.68747905 163 175 179
1.21404822 0.46884696 1.70926962 157 172 174
1.21789515 0.75525731 1.87781680 121 135 137
1.21978450 0.75946486 1.88827813 119 134 136
1.20946705 0.77478391 1.86234021 111 126 130
1.20966768 0.78251927 1.87161477 105 119 125
1.21567613 0.78830059 1.88697416 106 121 126
1.21664596 0.80576980 1.89355266 104 129 134
1.22010696 0.45622668 1.67380702 151 159 166
1.22129008 0.45246488 1.68945205 161 174 179
1.22999509 0.45441733 1.70916127 157 169 177
1.23434548 0.45607747 1.72053766 157 169 177
1.22071250 0.46485334 1.69473664 170 179 185
1.22764249 0.46175448 1.70927398 173 183 188
1.23632801 0.46004254 1.72053766 166 180 185
1.22319174 0.75667700 1.89355266 122 134 142
1.22761277 0.76775825 1.89532069 111 125 127
1.23006356 0.77244735 1.90419054 115 127 130
1.23719811 0.77071401 1.92037344 119 133 136
1.22581229 0.78384902 1.89357035 110 124 129
1.22950602 0.79156148 1.90741496 107 121 127
1.23387897 0.79892731 1.92037344 112 126 132
1.22005403 0.80966789 1.89885676 106 137 146
1.22348106 0.80865097 1.90419054 102 131 136
1.24245524 0.45823175 1.72491562 159 173 184
1.24422491 0.46148269 1.73152733 163 177 182
1.24587503 0.76954505 1.92995194 129 141 148
1.25273629 0.77673823 1.94797579 124 135 142
1.24922860 0.79068270 1.93064559 108 120 125
1.25312340 0.78815753 1.95315942 121 133 137
1.25934907 0.79598171 1.97062691 124 135 139
1.24090958 0.80014145 1.93131578 114 131 134
1.25606135 0.80515823 1.95359498 109 123 128
1.25909448 0.81405696 1.96490383 112 128 132
1.25909448 0.82594359 1.96490383 98 117 120
1.26928294 0.77669901 1.96490383 144 156 163
1.26339126 0.79693854 1.94796503 104 114 119
1.26275456 0.78236294 1.97061586 127 139 146
1.26328719 0.79721606 1.98213995 135 145 150
1.26392132 0.80154514 1.95922494 112 120 126
1.26367494 0.80934742 1.97205216 112 128 131
1.26900208 0.81213597 1.98679693 116 131 134
1.26643610 0.83588356 1.97636104 91 118 121
1.27761054 0.85015127 1.99379957 102 128 136
1.28137934 0.85265911 1.99968100 102 132 141
2.03649811 0.81585640 1.97062139 150 160 163
2.03026080 0.82654896 1.94238353 127 147 148
2.03507605 0.83049565 1.97106290 128 139 140
2.02967366 0.84990070 1.97189257 117 137 140
2.03491219 0.87218317 1.97348845 117 136 140
2.04186368 0.81197172 1.97636104 144 159 163
2.04440808 0.81434590 1.98213995 145 159 163
2.04638880 0.82803904 1.95781341 123 143 145
2.04602093 0.83133087 1.97307808 122 134 137
2.04440808 0.83147573 1.98213995 135 142 143
2.04592091 0.84428783 1.97206044 135 151 152
2.05187607 0.85261582 1.98463108 128 145 146
2.04357171 0.87516734 1.97636104 115 132 140
2.05281234 0.86919036 1.98838249 119 138 143
2.04357171 0.88541529 1.97636104 115 136 141
2.05366626 0.89350767 1.98446500 125 147 149
2.06577563 0.85467145 1.97636104 148 162 164
2.06947962 0.85406962 1.99088182 134 149 152
2.06603193 0.87135924 1.99601372 120 139 145
2.07072199 0.89095354 1.99020936 121 139 147
2.07570362 0.90272985 1.99576004 140 160 162
2.08842230 0.86821237 1.99968100 140 154 157
2.08535111 0.88418905 1.99674028 112 130 139
