ply
format ascii 1.0
element vertex 1066
property float x
property float y
property float z
property uchar red
property uchar green
property uchar blue
end_header
-0.31000243 0.23221154 0.85672294 129 139 145
-0.31273781 0.22488828 0.86054210 134 143 148
-0.30284228 0.25861425 0.75113738 88 98 104
-0.31664102 0.24062851 0.85700886 120 128 143
-0.30463558 0.26403242 0.74855345 108 119 124
-0.31003031 0.26129150 0.76082134 100 112 120
-0.31115147 0.29923499 1.23929036 103 113 118
-0.31496339 0.29861581 1.25015986 124 131 141
-0.31912765 0.29826164 1.26236844 134 141 154
-0.31115147 0.30244803 1.23929036 87 103 107
-0.31720106 0.30486077 1.25106902 103 114 122
-0.28840616 0.03443285 0.59784826 124 129 133
-0.29309196 0.03066815 0.60059948 133 136 137
-0.29196186 0.04095110 0.59871308 124 132 139
-0.29975766 0.23182589 0.85323110 100 112 116
-0.28707429 0.25703766 0.73746791 111 123 127
-0.29224872 0.25659234 0.74340347 99 108 117
-0.28887656 0.26228525 0.73815583 104 116 122
-0.28857818 0.26461852 0.74215782 106 114 121
-0.28044617 0.33630453 1.15681207 160 168 171
-0.28353444 0.33559509 1.16127151 139 149 155
-0.28458978 0.34805966 1.16971909 180 189 190
-0.29115425 0.35624818 1.18547879 184 195 195
-0.28235522 0.37151995 1.17409718 194 203 201
-0.28940797 0.37025143 1.18801815 193 202 201
-0.28165270 0.38504563 1.17434952 194 203 202
-0.28474333 0.39169695 1.18661436 193 202 201
-0.28420720 0.40021756 1.18928397 194 203 202
-0.27698664 0.03532576 0.59500686 123 129 133
-0.27871501 0.25695993 0.73574958 107 123 129
-0.27854543 0.26188440 0.73794314 133 144 151
-0.26045042 0.33810982 1.13931406 192 198 198
-0.26971862 0.33528897 1.15081354 183 192 193
-0.26994466 0.34221006 1.15463275 191 199 198
-0.27293742 0.35272601 1.16583759 193 201 200
-0.27109166 0.36994446 1.16905438 194 201 201
-0.26563100 0.38750958 1.17314428 193 202 201
-0.27088464 0.39644681 1.18375013 191 200 199
-0.27018882 0.40285054 1.17894232 194 203 202
-0.27152942 0.40279227 1.18552112 194 202 201
-0.25826438 0.33585531 1.13835824 190 197 197
-0.25979111 0.33586484 1.14508760 189 198 197
-0.25862648 0.38969762 1.17004070 193 202 201
-0.20133020 0.17193950 0.61001208 123 132 136
-0.20169642 0.18328222 0.95670484 108 118 132
-0.20402417 0.18314461 0.96154869 106 113 129
-0.21125196 0.21762221 0.49629291 121 130 132
-0.20354240 0.21841136 0.50079582 114 130 134
-0.21356942 0.22274129 0.49721725 124 133 133
-0.20761250 0.22385680 0.50156679 131 141 143
-0.18252593 0.03553620 0.73777567 142 144 148
-0.18069120 0.03926671 0.74005657 154 158 160
-0.18624395 0.04145992 0.73924953 154 157 158
-0.18280939 0.04197496 0.74145200 147 151 153
-0.18167733 0.15972738 0.93631470 131 139 143
-0.18861651 0.15987562 0.94677633 113 123 131
-0.19175645 0.17445394 0.60733949 116 126 134
-0.18216985 0.16864884 0.93705755 118 127 133
-0.19005546 0.17134598 0.94695090 121 129 136
-0.18944859 0.18352334 0.60712749 116 126 133
-0.18196929 0.18159629 0.93503155 100 109 116
-0.19227974 0.18359737 0.95002155 112 119 129
-0.19953701 0.21675700 0.49973618 101 116 128
-0.17185538 -0.04970944 0.47403611 141 123 104
-0.17587756 0.03260314 0.73765742 143 145 149
-0.17629889 0.03831239 0.74061707 150 152 154
-0.17027229 0.04177935 0.73924953 103 106 115
-0.17595366 0.04193264 0.74196489 130 132 135
-0.17284793 0.15987448 0.93247917 108 115 126
-0.16100005 0.17045910 0.49259837 101 115 124
-0.16216653 0.16506349 0.68782291 126 135 144
-0.17074740 0.16889172 0.93464351 126 131 138
-0.17253154 0.16920469 0.94464364 123 127 136
-0.16549389 0.18076585 0.93631470 126 129 139
-0.16997097 0.18130500 0.94545862 148 152 156
-0.14815086 0.15608567 0.50369189 116 129 138
-0.15347042 0.15731905 0.67883298 130 138 144
-0.15401123 0.15865176 0.68187251 140 147 150
-0.15546954 0.15936467 0.92481834 131 136 140
-0.15469967 0.17239034 0.49482981 115 130 142
-0.15135133 0.16598751 0.50303584 118 129 137
-0.14901919 0.16818154 0.67527528 120 128 135
-0.15600859 0.16577219 0.68354042 124 133 141
-0.15474005 0.17013983 0.91643330 119 127 138
-0.15809900 0.16816130 0.92789629 136 142 149
-0.12943777 -0.17880024 0.83897507 87 63 59
-0.12808813 -0.16884209 0.84645302 92 67 62
-0.12897325 -0.15665743 0.85327581 93 69 61
-0.12511795 -0.12745546 0.47112237 90 64 58
-0.12712375 -0.00454843 0.72609525 116 86 75
-0.12620650 0.00250002 0.72616112 127 94 83
-0.11919838 -0.17260336 0.84175515 94 67 65
-0.11332860 -0.00629077 0.71298055 116 83 74
-0.11884603 -0.00357873 0.72072383 120 88 78
-0.11937519 0.00338100 0.72501802 129 95 86
-0.11004605 0.07873163 0.49317592 114 119 132
-0.10979858 0.08669393 0.49149835 112 120 131
-0.10110235 0.11002701 0.49625094 130 137 144
-0.10269396 0.11604229 0.50028920 113 116 132
-0.09100201 0.09937200 0.48961385 128 134 142
-0.09470992 0.10796951 0.49386069 131 137 145
-0.06726650 0.33292499 0.83478050 194 202 201
-0.06236565 0.33189813 0.84781339 190 198 197
-0.06560554 0.34861771 0.83533322 135 139 141
-0.06821868 0.35238865 0.84260413 171 176 176
-0.06769927 0.36204171 0.84662462 50 50 50
-0.04780678 -0.28134397 1.05265415 89 70 66
-0.05373808 -0.28337378 1.06252769 90 69 67
-0.04414085 -0.27287565 1.04822683 92 71 67
-0.04916049 0.32979383 0.81821617 174 177 177
-0.05249021 0.32858072 0.82987261 163 167 171
-0.05693439 0.32929202 0.84609091 171 177 177
-0.05890959 0.35221794 0.82602771 47 50 52
-0.03209095 -0.28059290 1.04532343 91 69 65
-0.02023710 -0.26111591 1.03971136 102 78 75
-0.03098249 -0.27109361 1.04393954 95 73 69
-0.02013430 -0.25621730 1.03442991 102 76 71
-0.02418949 0.24882431 0.60888597 153 157 160
-0.01682599 -0.26543903 1.03865100 99 77 74
-0.01848258 -0.26802308 1.04210955 98 76 74
-0.01357961 -0.24762342 0.49663595 53 38 36
-0.01654715 -0.25781816 1.03369014 100 77 72
-0.00292087 -0.18098653 0.52821050 49 37 37
-0.00484310 -0.16946829 0.53019263 56 43 44
-0.00369989 -0.15154263 0.53360574 69 52 52
-0.00270717 -0.12954036 0.53496845 77 59 57
-0.00231516 -0.11861436 0.53931761 81 62 60
-0.00455472 -0.10847399 0.54164017 90 68 66
-0.00302209 -0.08997708 0.54205484 96 72 67
-0.00320721 -0.07142580 0.54301597 100 77 71
-0.00566864 -0.04936118 0.54605336 112 85 80
-0.00476308 -0.03419678 0.54719581 115 88 81
-0.00143582 -0.01405244 0.55712719 111 83 76
-0.00315797 -0.01772237 0.56024116 106 79 65
-0.01045372 0.12944320 0.47356746 172 176 178
-0.00348374 0.12686629 0.48136099 168 172 174
-0.00283514 0.17554393 0.59489642 146 150 155
-0.00408712 0.17095957 0.60196156 157 160 165
-0.00506938 0.18031759 0.59378920 163 166 169
-0.01824223 0.24824632 0.60749375 167 173 174
-0.00088982 0.44516400 1.97061586 148 149 152
0.00231342 -0.18111678 0.52762581 52 42 42
0.00603315 -0.17574824 0.51798340 55 44 44
0.00216036 -0.17141211 0.52888549 60 47 47
0.00167066 -0.14964086 0.53316599 84 64 62
0.00241638 -0.12990563 0.53461054 96 73 72
0.00357546 -0.11543049 0.53738185 98 76 74
0.00235063 -0.10835091 0.54160590 101 79 76
0.00686417 -0.08651875 0.53518252 117 93 85
0.00300254 -0.08909786 0.54176806 111 88 80
0.00655514 -0.07311892 0.53887215 119 93 86
0.00317189 -0.07080197 0.54326811 116 91 84
0.00238797 -0.04878183 0.54551199 120 95 86
0.00270763 -0.03183957 0.54654359 125 99 89
0.00388717 -0.01173899 0.55692547 122 95 87
0.00652843 -0.01482461 0.56050598 129 101 90
0.01800686 -0.01058949 0.58436364 125 96 90
0.01666375 0.05546011 0.47090787 151 153 159
0.00589360 0.13421031 0.47403054 154 158 162
0.00061302 0.12836881 0.48009336 171 172 174
0.00758239 0.14051803 0.47488090 159 164 167
0.00573994 0.17489312 0.57865440 147 152 160
0.00174134 0.17406080 0.58944511 148 153 158
0.01749511 0.17856629 0.89517052 176 181 187
0.01458233 0.17662383 0.90810973 155 162 170
0.00971300 0.17848467 0.92588443 135 139 146
0.01908581 0.18405710 0.47645053 165 171 175
0.01519508 0.18878880 0.49116733 158 165 170
0.01548393 0.18554757 0.89024803 171 173 181
0.00798700 0.18739529 0.91129162 154 158 166
0.00453328 0.18377763 0.92512490 148 149 154
0.01883470 0.42403051 1.89885676 166 173 179
0.01568448 0.42927891 1.91494870 162 170 176
0.01579425 0.43476175 1.92950769 160 168 173
0.00922922 0.43864315 1.95172910 161 167 170
0.01921139 0.44088027 1.93683386 153 160 169
0.01518340 0.45098750 1.95161079 161 168 174
0.00633484 0.44988250 1.96704584 155 159 164
0.01512289 0.46546417 1.94984168 166 174 178
0.00930129 0.46085456 1.96490383 158 164 179
0.02265437 -0.01165564 0.58501492 124 95 88
0.02194809 0.05471484 0.47149670 129 134 146
0.03878832 0.17410733 0.49124325 163 168 169
0.03703862 0.17869741 0.50139958 168 173 177
0.02482303 0.17910358 0.87545451 172 175 176
0.02295413 0.17934658 0.88918717 175 180 183
0.02462757 0.18396604 0.47619827 142 147 150
0.03870828 0.18407249 0.49672270 152 156 159
0.03710204 0.18623739 0.50454048 155 160 163
0.02927547 0.19926546 0.73419793 137 141 152
0.02789801 0.19981210 0.74248832 123 128 136
0.02287291 0.18402286 0.87576903 151 154 161
0.02177619 0.18535246 0.88483734 155 156 161
0.03159736 0.20861927 0.73336052 151 157 164
0.02787947 0.21251859 0.74204911 134 141 151
0.03085194 0.22045893 0.73644069 168 177 180
0.03927831 0.43999103 1.78392589 141 148 154
0.03178471 0.43798690 1.88827813 173 178 179
0.02392765 0.43528929 1.91225159 161 166 174
0.02236733 0.43713343 1.92037344 155 159 169
0.03810837 0.45381184 1.73079018 169 173 173
0.03667753 0.44585758 1.80771160 139 144 151
0.03558982 0.45029931 1.83214009 138 141 149
0.03113480 0.45779766 1.84966767 131 136 143
0.03472643 0.44849084 1.87092880 161 164 168
0.03176841 0.44830603 1.88754141 175 179 181
0.02719064 0.45006711 1.90956205 172 178 180
0.02254299 0.45394259 1.93545434 170 177 181
0.02262369 0.45053668 1.94238353 172 178 180
0.03827117 0.46175662 1.73818421 158 160 163
0.03600543 0.46529245 1.77458596 173 176 178
0.03619493 0.47390810 1.78392589 163 164 168
0.02720288 0.46294730 1.87263894 134 137 142
0.02726854 0.46350269 1.89251544 134 137 140
0.02550596 0.46207282 1.90687251 150 154 156
0.02252701 0.46866158 1.93408266 157 162 163
0.05843112 0.11139888 1.13676949 123 124 138
0.04203369 0.16875010 0.47930138 170 175 177
0.04083993 0.17144087 0.48233971 164 169 171
0.05690198 0.21396312 0.68397893 159 159 160
0.05806762 0.22796650 0.68802524 165 168 172
0.05815666 0.27663362 0.71734789 149 151 152
0.05850766 0.27570452 0.72167518 150 154 154
0.05928417 0.28214523 0.71848655 134 134 140
0.05744101 0.28391955 0.72209599 133 134 139
0.05058950 0.37984616 1.56196272 153 161 165
0.05726641 0.39084421 1.57243787 163 169 172
0.05409716 0.39138255 1.58571929 160 168 172
0.04653079 0.39251067 1.60830468 142 147 154
0.04725899 0.39441335 1.63347435 143 143 150
0.05882422 0.40237108 1.56557012 157 158 160
0.05362079 0.40589029 1.58918581 166 171 173
0.05110132 0.41330626 1.61250567 163 168 171
0.04717461 0.40778527 1.63055766 160 169 173
0.04490460 0.41569214 1.65071281 163 171 174
0.04468901 0.41097926 1.66395302 149 156 162
0.05560210 0.42445642 1.62955713 155 158 163
0.05376359 0.43206435 1.65027886 147 150 155
0.04943629 0.43399474 1.66619108 149 152 156
0.04494259 0.43087127 1.68773484 165 171 174
0.04349904 0.42410144 1.70753610 149 157 163
0.04255286 0.42803517 1.72936094 146 155 160
0.04159544 0.43203253 1.75165856 144 152 158
0.05184772 0.44301574 1.66763812 125 129 139
0.04897007 0.44819041 1.69261646 132 134 143
0.04559752 0.44705401 1.71257766 162 165 166
0.04327707 0.45098097 1.72228885 161 163 165
0.07589317 0.09843971 1.13835824 116 119 129
0.06907084 0.09545375 1.14589687 121 122 133
0.07027488 0.11148964 1.13328186 124 126 136
0.06655061 0.10000324 1.14123201 136 136 147
0.07140158 0.12772167 1.12575233 118 122 135
0.06761253 0.14149320 1.12606621 120 126 139
0.07792317 0.18483940 0.47966879 160 164 164
0.07661740 0.18435270 0.48944777 157 163 164
0.07627732 0.21428736 0.67782913 162 168 173
0.06903736 0.21398419 0.68517667 135 141 148
0.07504803 0.22652718 0.67837770 145 152 158
0.06709787 0.22582024 0.68594428 137 142 147
0.06351495 0.27489308 0.70910515 133 138 143
0.06515332 0.28279011 0.71332582 120 128 137
0.06115363 0.39631938 1.55598919 158 160 164
0.06138840 0.39604449 1.56196272 162 163 167
0.06050092 0.41940627 1.61019444 151 151 158
0.09930755 -0.35983095 0.72970057 51 40 35
0.08022325 0.09786595 1.13931406 107 113 129
0.08707196 0.11731171 1.11358812 138 141 147
0.08339209 0.11639635 1.12608561 125 129 139
0.08959554 0.12386506 1.11624551 130 134 144
0.08676483 0.12827463 1.12382210 131 134 146
0.08510474 0.17692399 0.47546310 97 103 118
0.09971167 0.16465273 0.57840631 109 115 122
0.09913482 0.16234665 0.58088416 122 129 135
0.09925139 0.17928240 0.77873874 175 176 176
0.09937638 0.17870369 0.78506425 179 180 181
0.09766729 0.17688933 0.81908181 172 177 182
0.09532434 0.17167019 0.82280173 164 170 176
0.08381477 0.18496162 0.47832127 124 132 137
0.08218245 0.18991170 0.48353923 124 130 135
0.09665503 0.18575499 0.77822134 167 172 174
0.09624651 0.19311801 0.78702623 168 173 178
0.09918328 0.18173245 0.81698406 167 172 176
0.09456959 0.18220290 0.82228903 166 174 179
0.08225068 0.21350307 0.67295804 164 167 172
0.08139925 0.20907222 0.68613616 173 181 183
0.09595218 0.20460328 0.79396405 161 169 174
0.09377704 0.21261884 0.80521651 147 150 156
0.08241053 0.22354705 0.67205651 139 145 153
0.09984050 0.65700769 1.94238353 166 168 170
0.09817100 0.67362452 1.97636104 172 178 178
0.09874763 0.68445835 1.98796976 176 179 178
0.10570275 -0.36051039 0.72598915 53 38 34
0.11169314 -0.35324411 0.72549584 53 37 34
0.11687806 -0.33193920 0.95484265 47 37 36
0.11457845 -0.32553060 0.96710516 55 42 42
0.10925102 -0.32452976 1.04717325 73 54 53
0.11490069 -0.31147555 0.97411519 63 47 47
0.11302867 -0.30472018 0.98603883 68 54 52
0.10904227 -0.30641418 1.00556454 72 57 55
0.10975827 -0.30984813 1.02856173 77 59 58
0.10943413 -0.30819777 1.04851873 83 63 62
0.11014187 -0.30200373 1.06671226 90 70 66
0.10792124 -0.29089180 0.97961247 81 59 61
0.11486904 -0.29059264 0.98970535 78 60 60
0.10959351 -0.29035205 1.01064798 85 65 64
0.11029440 -0.28926233 1.03220793 88 69 66
0.11033576 -0.29028281 1.05099678 90 70 68
0.11094930 -0.28772738 1.07453212 95 73 70
0.11446630 -0.27017713 0.99175487 88 68 66
0.11022637 -0.27021034 1.01648406 93 72 69
0.11039063 -0.26835912 1.03194178 95 74 71
0.11060520 -0.27369606 1.05356329 97 74 71
0.11189791 -0.26676535 1.06587690 99 77 73
0.11530451 -0.25079494 0.99425116 94 72 69
0.11131694 -0.24938405 1.01043564 100 77 71
0.11100521 -0.25157884 1.03010688 102 78 72
0.11135161 -0.24957683 1.04776889 104 80 74
0.11586265 -0.23122621 0.99308897 98 76 73
0.11113334 -0.23504004 1.00876908 104 81 76
0.11124381 -0.23635924 1.02586672 107 81 75
0.11757768 -0.20995067 0.99169477 98 75 71
0.11716265 -0.18896695 0.99879604 104 82 77
0.11681083 -0.16907008 0.99377293 109 84 79
0.11639353 -0.15122295 0.99169272 111 87 82
0.11220901 -0.15304845 1.00280007 114 93 78
0.11315379 -0.15676023 1.02710891 114 94 80
0.11804984 -0.13919677 0.99361247 113 90 83
0.10219309 0.15725602 0.81532772 148 149 159
0.10961434 0.16436767 0.57859026 133 138 145
0.10921467 0.16587080 0.58153829 143 149 153
0.10404385 0.17502195 0.81636483 164 166 171
0.10509219 0.17058244 0.82372525 161 165 170
0.11188548 0.18761119 0.77623412 153 157 161
0.10738233 0.19327105 0.78467574 155 158 161
0.10651796 0.20620106 0.79278901 138 143 150
0.10553041 0.21592524 0.80476414 118 125 135
0.10100333 0.22049141 0.80894017 161 165 164
0.10116859 0.64408904 1.90419054 160 161 163
0.10246398 0.65733859 1.92857242 157 163 163
0.10143996 0.66690920 1.95172910 164 170 170
0.10099807 0.67481369 1.96490383 170 175 174
0.10129167 0.68018144 1.97061586 171 175 174
0.10218280 0.68960148 1.98795259 172 173 173
0.12281352 -0.34802410 0.71963042 52 37 33
0.12188313 -0.34907187 0.72149138 53 36 33
0.12992048 -0.32968351 0.95666762 55 41 42
0.13008648 -0.32459683 0.96508921 59 45 45
0.13015376 -0.31073375 0.97296392 65 52 50
0.12944364 -0.30212189 0.98645896 72 56 53
0.13988952 -0.29977110 0.97819889 86 67 64
0.13051768 -0.29007375 0.99078064 80 62 61
0.13076781 -0.27031921 0.99262042 87 68 66
0.13086676 -0.25107731 0.99292777 90 71 69
0.13040162 -0.23087944 0.99346831 94 75 71
0.13037566 -0.21072701 0.99395998 97 76 72
0.13349525 -0.20473234 1.01113762 97 74 71
0.13620301 -0.20271904 1.02204261 102 79 75
0.12214620 -0.19041893 0.99694423 98 77 74
0.13398222 -0.19691347 1.01672190 96 77 73
0.13783341 -0.19767681 1.02143474 105 87 80
0.12113660 -0.17144472 0.99332526 106 81 77
0.12235429 -0.14986138 0.99101626 105 82 79
0.12135178 -0.13947289 0.99252099 111 90 83
0.14105110 -0.32477086 0.95184440 60 45 45
0.14122761 -0.32366755 0.96567599 65 50 49
0.14224048 -0.31800402 0.95428360 66 51 51
0.14188902 -0.31029594 0.96948554 71 56 54
0.14389391 -0.30786681 0.98245192 78 59 59
0.14222416 -0.29932505 0.97494892 85 66 64
0.14123616 -0.28799406 0.98336977 90 69 68
0.14103730 -0.27116391 0.98530888 95 74 72
0.14035966 -0.24750175 0.99109015 99 78 74
0.14157132 -0.22818234 0.99334332 105 84 75
0.14232033 -0.21080411 0.99370771 110 85 80
0.14222395 -0.20294145 1.01251076 111 86 79
0.14444631 -0.19630459 0.99800092 109 88 76
0.14291242 -0.19724811 1.01469309 107 88 77
0.15920015 -0.15154026 0.49589747 64 51 47
0.15515363 -0.03342545 0.65371865 118 91 82
0.15815934 -0.02647006 0.66522071 120 93 80
0.15906934 -0.01933416 0.66574280 120 92 79
0.16918999 -0.16613595 0.49467604 45 34 35
0.17934249 -0.16161413 0.50189433 55 44 42
0.16793490 -0.15448387 0.49802810 55 41 40
0.17319971 -0.14569877 0.50436073 63 48 45
0.17218745 -0.13037854 0.50919206 69 53 49
0.17316472 -0.10961500 0.51594039 76 57 54
0.17219931 -0.09451141 0.51853002 80 59 56
0.17440344 -0.08502625 0.52129996 80 59 57
0.17477859 -0.07437024 0.52264389 81 60 58
0.17409156 -0.04892052 0.52780820 89 65 62
0.17457622 -0.02976934 0.52403595 89 65 61
0.16318040 -0.02825419 0.65910745 121 90 82
0.16307622 -0.02501989 0.66518921 120 92 81
0.17430413 -0.01847485 0.52654304 88 66 63
0.16201599 -0.01886049 0.66428026 118 92 79
0.17782764 0.09766900 0.57148559 162 165 172
0.17180262 0.09773245 0.58813787 168 171 173
0.17603362 0.11536544 0.54398778 154 159 166
0.17655409 0.10064421 0.57509007 159 164 170
0.17427927 0.10029899 0.58205090 152 155 157
0.17850197 0.12044179 0.54144738 159 161 163
0.17415306 0.16938958 0.67548196 153 157 162
0.16892387 0.16804577 0.68789106 153 157 163
0.16492471 0.17294018 0.70363278 153 160 162
0.16654527 0.25802052 0.66894617 137 139 143
0.16791532 0.26775566 0.67279689 141 145 147
0.17003568 0.28199506 0.67629679 10 11 11
0.16931362 0.28912637 0.69084810 26 26 26
0.17276458 0.29837644 0.70175380 0 0 0
0.17206985 0.30190882 0.70648486 0 0 0
0.18095732 -0.12568305 0.51135695 70 53 50
0.18184121 -0.10958462 0.51672042 75 55 53
0.18586108 -0.10776513 0.52266487 75 55 53
0.18197821 -0.09545638 0.51931893 79 57 54
0.18314943 -0.08648183 0.52199967 78 57 55
0.18385618 -0.07213956 0.52429622 81 59 56
0.18291313 -0.04924514 0.52663730 85 61 59
0.18678187 -0.02369200 0.51895019 95 70 64
0.18282225 -0.02823974 0.52317639 89 64 62
0.18695758 -0.01883297 0.51757586 99 71 65
0.18256457 -0.01884306 0.52524030 88 65 61
0.18131256 0.09683678 0.56478558 164 168 174
0.18686044 0.11813802 0.53832356 159 162 169
0.18323488 0.11756883 0.54243173 145 150 157
0.18309838 0.12038685 0.54120042 159 167 171
0.18720119 0.21935469 1.09691238 170 175 182
0.18817946 0.22330877 1.09770314 170 176 181
0.19159457 0.23136135 1.10966449 166 171 177
0.19283397 0.23879760 1.12340370 166 170 174
0.18682505 0.25553424 1.11581529 145 151 161
0.18884808 0.25091668 1.12766451 144 148 156
0.18227220 0.24794278 1.14123201 125 129 136
0.19090815 0.26140095 1.11863339 153 158 165
0.19606820 0.26497248 1.12271035 151 156 159
0.21385467 0.15919496 0.52422275 136 137 143
0.21369116 0.17235423 0.51466268 141 148 151
0.20863794 0.16969024 0.52248053 146 151 153
0.21680321 0.18063838 0.51889070 145 151 151
0.21483061 0.18405235 0.52523712 149 154 154
0.20448045 0.25829570 1.11358660 155 156 161
0.20222712 0.25615708 1.12968877 161 165 171
0.20378112 0.25450085 1.15006322 164 167 171
0.20847483 0.26996806 1.07944560 111 116 124
0.20737668 0.27135115 1.09164321 123 128 136
0.20544706 0.26706475 1.10916903 136 141 149
0.20217573 0.26484171 1.12275178 151 154 159
0.23793801 0.07616706 0.45145288 172 175 177
0.23626535 0.08014833 0.45152658 181 183 185
0.22341836 0.18797610 0.52564070 154 158 160
0.23906833 0.31582505 1.77924371 157 162 166
0.23642501 0.32746374 1.79812157 126 129 145
0.23717858 0.33573905 1.80840947 119 125 131
0.23748701 0.34710407 1.81416915 121 125 139
0.23697804 0.34708858 1.82228994 140 142 148
0.25855938 -0.00092139 1.76534331 136 110 94
0.25955451 0.00376036 1.81497473 138 107 93
0.24460236 0.07483967 0.45240050 164 169 170
0.25001485 0.11897901 0.45146097 153 160 163
0.25429688 0.12627366 0.45551319 161 165 167
0.25950013 0.13340347 0.46162200 129 132 134
0.25725646 0.30964439 1.73596150 168 169 171
0.25434175 0.31044772 1.74894974 168 170 173
0.24867688 0.31351367 1.77099966 168 170 173
0.24997536 0.31973955 1.78392589 157 159 162
0.25991309 0.32419997 1.77458596 154 154 160
0.25071829 0.32769474 1.79450204 144 147 154
0.24905856 0.33646316 1.80364354 128 132 141
0.25279332 0.35149820 1.79812157 157 164 170
0.24931492 0.34839269 1.80675693 132 137 149
0.27777776 -0.01036324 1.81618956 130 102 92
0.27632646 -0.00590450 1.82510810 133 103 92
0.26396118 0.00426594 1.80933565 138 108 93
0.27767804 0.00223461 1.85216355 137 109 93
0.26129115 0.12902094 0.45951006 142 146 146
0.26535828 0.13432486 0.46617597 140 145 145
0.26269789 0.31048654 1.73227199 157 157 161
0.26507415 0.31530372 1.74791574 151 152 157
0.27785118 0.31731420 1.76190436 141 143 151
0.26765624 0.32202974 1.75165856 131 135 142
0.27124864 0.33065660 1.77061415 120 124 138
0.26206506 0.33616872 1.78932665 133 135 145
0.26639669 0.34151530 1.77691483 119 127 144
0.26183174 0.34657707 1.79195765 149 156 164
0.26094446 0.34495422 1.80290389 127 130 144
0.29632093 -0.02104811 1.83545021 129 102 92
0.28969178 -0.02011962 1.84711671 126 102 88
0.28908199 -0.01364866 1.83511920 124 96 85
0.29311997 -0.01017860 1.85099064 131 100 90
0.29611176 -0.00097469 1.86747062 136 108 97
0.28325392 0.00224074 1.85723794 135 107 91
0.29078179 0.00355648 1.87470436 135 108 92
0.29492450 0.00554966 1.89091539 135 109 91
0.29818998 0.13786171 0.76425431 171 176 179
0.29834049 0.14396496 0.77210822 172 175 179
0.29887769 0.14740346 0.78219006 179 184 186
0.29703743 0.27075231 0.71718209 162 168 169
0.29644913 0.27353323 0.72276934 160 167 169
0.28790437 0.28949694 0.71508683 142 145 147
0.29158908 0.28620725 0.72686027 151 157 160
0.29411167 0.28955779 0.74391530 142 150 152
0.28329059 0.31694929 1.77691483 133 137 146
0.29134586 0.31903557 1.78864527 136 139 147
0.28593046 0.33060257 1.77352789 130 134 144
0.28999526 0.32868772 1.78510470 132 135 147
0.30514719 -0.02363785 1.83132597 127 99 89
0.31094303 -0.02140772 1.84813159 121 96 86
0.30792874 -0.01282987 1.83215015 122 93 84
0.30766227 -0.00852139 1.84712685 128 100 88
0.30334553 -0.00097201 1.86234021 136 108 95
0.30688883 0.00279669 1.87091931 135 109 93
0.30375518 0.00554195 1.88828790 135 109 93
0.30876033 0.00901498 1.93316559 135 109 94
0.30887775 0.01412963 1.94798118 137 110 96
0.31601685 0.13890677 0.75323127 165 171 175
0.31085687 0.13799634 0.77076121 139 144 151
0.31203597 0.13519872 0.78261887 148 151 159
0.31590802 0.14571929 0.75251591 153 156 164
0.30916384 0.14378913 0.77101198 141 145 150
0.31951589 0.16124904 0.76408335 168 170 170
0.32304981 -0.01365999 1.83710527 120 95 93
0.32241488 -0.01293633 1.84712359 112 89 86
0.33327978 0.05566104 0.76248656 153 155 158
0.33137719 0.06406804 0.75996846 145 148 153
0.33105425 0.06404264 0.76171179 134 136 143
0.32180801 0.13989772 0.75154305 181 189 190
0.32427507 0.15079261 0.75484861 164 168 173
0.32590751 0.15743068 0.76289951 151 154 161
0.33584866 0.17979301 0.50570080 132 138 140
0.32889304 0.16212838 0.75709161 158 164 168
0.32720444 0.16194291 0.76523987 162 168 172
0.33331761 0.18546280 0.51023882 139 145 146
0.35828576 -0.09105908 0.49704697 86 100 113
0.34530361 0.05448084 0.75786589 147 150 154
0.34184621 0.05553797 0.76292948 144 149 152
0.34674880 0.06491153 0.75850883 133 137 144
0.34346832 0.06649735 0.76207863 129 133 141
0.34609732 0.31460045 1.03891528 141 142 151
0.34722826 0.31636845 1.04774630 143 146 153
0.34932904 0.32248872 1.05592672 149 153 159
0.35451488 0.33147409 1.07196581 159 167 168
0.35814905 0.33741793 1.08636510 163 172 171
0.35930064 0.34038660 1.08985829 165 174 174
0.36760841 -0.10144547 0.50089016 84 101 115
0.36726891 -0.09245567 0.49941780 84 100 112
0.36918778 -0.09364372 0.50079522 84 100 112
0.37616957 0.19633054 0.49277949 147 152 151
0.37290317 0.20398948 0.49337550 149 157 156
0.36333078 0.33340305 1.07944560 158 167 166
0.36721301 0.33741229 1.08333024 161 169 169
0.37752172 0.34889391 1.07735113 160 162 163
0.37215256 0.34879250 1.09246823 168 174 174
0.36925274 0.35478391 1.10206889 164 171 171
0.37676523 0.36368709 1.11052942 152 154 157
0.37786687 0.36845630 1.12495067 155 159 162
0.39524365 -0.23585907 0.45032700 97 122 123
0.39927778 0.13920197 0.48689361 170 175 174
0.39902226 0.14139675 0.48608372 166 173 173
0.38010457 0.19672818 0.49337107 163 171 168
0.38198811 0.35579187 1.07944560 164 168 169
0.38083717 0.35873867 1.09221152 153 153 155
0.38280991 0.36191136 1.09514034 157 157 159
0.38158255 0.36434373 1.10346778 146 146 149
0.38089631 0.37493354 1.13454783 146 146 153
0.38147117 0.37446667 1.14510059 151 157 160
0.38604294 0.38196605 1.15583342 141 142 149
0.38768017 0.38558139 1.16677082 140 142 149
0.39230760 0.39291158 1.18791000 137 138 144
0.41539503 -0.38622124 0.93059508 156 140 119
0.41612062 -0.37403336 0.91546331 157 140 120
0.41415809 -0.37727729 0.92648038 156 140 119
0.41814503 0.11534681 0.50881148 154 160 162
0.40508523 0.13357315 0.48937002 156 162 162
0.41631377 0.12877063 0.50102872 166 176 174
0.40098964 0.14097925 0.48638073 167 174 174
0.42539706 -0.38216736 0.91584389 157 142 122
0.42259758 -0.38565891 0.92583562 156 141 119
0.42537849 -0.37816118 0.91393802 158 141 121
0.42043224 -0.37988290 0.92230183 158 141 120
0.42875927 -0.29020052 0.56838850 100 118 123
0.42828766 -0.12729479 0.61422762 87 101 113
0.43268298 -0.12143700 0.62246583 84 101 114
0.43453807 -0.11923028 0.62327784 84 102 113
0.43211631 0.07328344 0.45903745 160 170 169
0.43493785 0.07384649 0.46126589 155 165 164
0.42264584 0.09938220 0.49626379 121 124 132
0.42181872 0.10251568 0.49529388 136 142 146
0.42523320 0.11110230 0.50800717 151 157 158
0.42651019 0.12118005 0.51138660 166 169 168
0.43142136 0.13053808 0.55408535 148 153 153
0.43381289 0.13901582 0.56562170 160 165 169
0.43927673 0.15453649 0.81136096 167 174 173
0.43172406 0.15707010 0.83076019 151 154 160
0.43590190 0.16159774 0.83382756 162 169 171
0.43852815 0.46271041 1.27663243 152 161 161
0.43963334 0.46844575 1.28632224 149 158 159
0.45390744 -0.38126473 0.70474277 98 117 129
0.45452712 -0.37389238 0.70703801 103 119 123
0.44385545 -0.08573620 0.49873365 64 71 74
0.44303444 -0.08506332 0.50157615 62 67 72
0.44428153 -0.07905884 0.49961347 58 62 65
0.44296656 -0.07856104 0.50056632 58 62 65
0.44133438 0.07521107 0.46208525 149 157 157
0.44190737 0.12567404 0.55585627 159 166 165
0.45394415 0.13829027 0.91295361 135 137 143
0.45170018 0.13801962 0.92104870 146 145 159
0.44324843 0.15634989 0.81181003 168 174 175
0.44382035 0.15755810 0.82722875 170 174 176
0.45305120 0.14137330 0.91415403 152 154 157
0.45170018 0.14279550 0.92104870 172 173 173
0.44575479 0.16276612 0.81560067 160 169 170
0.44282228 0.16311666 0.82976583 160 165 168
0.44073471 0.45167762 1.27663243 165 174 174
0.44492421 0.45819867 1.28876781 159 168 169
0.45843135 0.46973265 1.27120226 167 172 173
0.44612572 0.47288695 1.29386652 150 161 163
0.44826785 0.47820051 1.30280407 148 160 162
0.45972794 0.48276353 1.27423275 161 165 167
0.44978512 0.48410085 1.29634173 139 146 148
0.45212809 0.49301198 1.30501047 125 130 135
0.45769784 0.50049978 1.30614996 116 125 131
0.45199037 0.50243992 1.32919967 141 145 149
0.45595109 0.50943214 1.34769750 150 153 155
0.46360581 -0.37326478 0.70634764 99 117 120
0.46361074 -0.06352776 0.47071988 56 60 60
0.46268509 -0.05795615 0.47065898 55 64 65
0.47770798 0.07807792 0.55977857 109 126 130
0.47600570 0.07735345 0.56196114 109 124 128
0.47819175 0.08194804 0.55977857 113 119 125
0.47598222 0.08304391 0.56261319 128 139 142
0.46543030 0.13887513 0.91252082 137 140 146
0.47064699 0.14684150 0.91311553 161 164 166
0.47941485 0.14139566 0.92230183 140 145 149
0.46272025 0.47745129 1.27036463 161 164 165
0.46085620 0.47612930 1.29043236 167 172 173
0.46043864 0.47721387 1.30113602 168 175 176
0.46463671 0.48373634 1.27390086 161 166 166
0.46281015 0.48892271 1.29002163 155 158 160
0.46159734 0.49278966 1.30730948 136 139 144
0.46497934 0.49127778 1.32856855 149 158 160
0.46629038 0.50211257 1.29864335 157 163 165
0.46369575 0.50187229 1.30238706 144 150 152
0.49434854 0.06527870 0.49585857 115 129 133
0.49454395 0.07934593 0.53961545 105 116 124
0.49671265 0.07623419 0.54475239 111 124 130
0.49286654 0.08164441 0.53965123 135 145 150
0.49350504 0.08140395 0.54046395 121 133 138
0.48006800 0.13999200 0.92355835 125 129 142
0.48064128 0.14399616 0.91855264 149 155 157
0.48315052 0.14142181 0.92456909 153 158 164
0.50218390 0.06616359 0.49697315 112 125 130
0.50152406 0.07242409 0.55391950 116 127 130
0.51713808 0.24911845 0.61851684 129 133 132
0.51793755 0.24721645 0.62268550 130 136 136
0.53666350 -0.32217163 0.81580843 155 141 124
0.53759073 -0.31343118 0.81301032 152 141 126
0.52601664 0.25061949 0.61846537 119 125 123
0.53010139 0.24738254 0.62880489 123 128 129
0.53718106 0.24276087 0.64148898 148 149 149
0.54066802 -0.32154509 0.81772666 156 142 125
0.54149646 -0.32242790 0.82069230 156 143 126
0.54125924 -0.30965152 0.81396270 147 140 126
0.54529981 -0.30401604 0.82268912 155 140 125
0.55408787 0.17556623 0.63602724 150 157 156
0.55739194 0.18077464 0.63891786 115 124 125
0.55814285 0.18563588 0.64691654 132 138 139
0.54936160 0.23838138 0.63793311 146 153 153
0.55080354 0.23685662 0.64194607 146 156 156
0.54490885 0.24435938 0.63334544 135 140 140
0.54685731 0.24328319 0.64184872 133 135 135
0.55514342 0.58508456 1.44848680 166 172 172
0.55677760 0.58764201 1.49315381 171 177 179
0.55837804 0.59485501 1.51148146 168 175 177
0.55746308 0.63497025 1.56196272 146 151 152
0.55543828 0.64171958 1.56196272 141 142 144
0.56138718 0.19226060 0.65332576 151 157 157
0.56554509 0.19758804 0.66450158 165 172 170
0.56230296 0.20211836 0.65691407 164 171 169
0.56550368 0.20371643 0.66440815 157 165 164
0.56479806 0.59271282 1.47367787 167 173 175
0.56679179 0.59634359 1.49235141 164 171 171
0.56943575 0.59762658 1.51586864 167 176 175
0.56776054 0.60636149 1.49263330 156 163 164
0.57251091 0.61034780 1.51428988 159 165 166
0.57272802 0.61304264 1.53370273 162 169 170
0.57105722 0.61514378 1.54514891 163 171 171
0.57025087 0.61614197 1.56557012 160 169 170
0.57467088 0.62174615 1.51654416 152 161 163
0.57422770 0.62622846 1.53451763 157 166 165
0.57257378 0.62957933 1.55037678 158 166 166
0.56991545 0.63402311 1.56962102 154 161 161
0.57584747 0.63354736 1.58428315 159 167 167
0.57444143 0.64120924 1.54769826 155 162 162
0.57243810 0.64297169 1.57163254 155 160 162
0.57286162 0.64973009 1.58738007 150 154 156
0.57819211 0.66117728 1.60258114 147 149 149
0.58113986 0.63707966 1.54417276 159 165 165
0.58105260 0.65026408 1.57283485 158 163 163
0.58335459 0.65513036 1.59077050 158 165 164
0.58236346 0.66082275 1.59503961 152 156 156
0.58096206 0.66394717 1.60258114 146 150 151
0.61870784 -0.82275122 1.85723794 37 27 27
0.61684793 -0.81922787 1.84209740 38 27 27
0.61768833 -0.79005778 1.84460706 32 23 26
0.61717654 -0.18876692 0.59850300 81 102 111
0.61938514 -0.19104489 0.60066376 80 102 112
0.61978692 -0.17191774 0.59990430 80 99 108
0.61950090 -0.17101049 0.60096824 79 100 107
0.61566344 0.29772691 0.69053430 127 135 137
0.63068976 -0.82363009 1.84915197 36 26 25
0.63162445 -0.82361495 1.86490542 36 25 27
0.62629507 -0.80855730 1.85596934 33 23 25
0.62943872 -0.81411986 1.86384916 34 23 25
0.63740331 -0.79795605 1.83710527 32 21 23
0.62895149 -0.79860300 1.84964013 31 22 24
0.63999158 -0.77683395 1.81740439 35 26 27
0.62486595 -0.18567352 0.59862196 82 102 110
0.62595429 -0.18529690 0.60107499 81 102 111
0.62838166 -0.17167660 0.59953135 82 100 108
0.62898281 -0.17212926 0.60164647 82 101 107
0.62465311 0.29446613 0.69599923 161 165 163
0.62746537 0.29560336 0.70493591 166 170 168
0.65409678 -0.86000729 1.90419054 40 27 27
0.65965569 -0.87063533 1.92037344 40 27 29
0.64471108 -0.84342313 1.86747062 39 26 26
0.65044260 -0.84865707 1.89355266 38 27 28
0.65593928 -0.85912931 1.90955448 40 27 27
0.64516771 -0.82622057 1.85450769 33 22 23
0.64446271 -0.82820819 1.86833515 34 23 25
0.65010446 -0.80589426 1.83710527 33 22 24
0.64606884 -0.81217252 1.85430303 32 21 23
0.64528486 -0.81476582 1.86541846 32 21 23
0.64357013 -0.78715069 1.83116846 33 24 26
0.64726204 -0.79591942 1.84711671 32 23 26
0.64081657 -0.16605972 0.60310662 80 101 106
0.66751716 0.13233471 0.55834874 155 163 161
0.66792847 0.12895767 0.56026842 152 160 161
0.67816180 0.21905193 0.66985425 152 153 148
0.67754546 0.23074231 0.67320687 135 143 141
0.69181336 -0.26459314 0.91867229 91 105 118
0.69532766 -0.26903015 0.92347704 90 105 118
0.69263890 -0.25140300 0.91820274 85 103 116
0.69482175 -0.25390668 0.92270948 85 103 117
0.69751568 -0.23667433 0.91802329 86 103 108
0.69733578 -0.23864122 0.92167526 88 105 110
0.68341902 0.21878977 0.67620149 140 143 143
0.68739265 0.21984981 0.68129832 137 141 140
0.68490981 0.22663001 0.67779371 132 139 138
0.69007599 0.23208670 0.68838948 125 133 134
0.69006522 0.24153545 0.69285467 137 144 143
0.69790069 0.39624082 0.95093942 117 127 128
0.69804901 0.40546620 0.93761155 123 129 130
0.69688811 0.40402155 0.95248129 132 138 136
0.69957322 0.41283515 0.96428424 135 137 137
0.70063921 -0.27104894 0.92440331 90 107 119
0.70068556 -0.23656508 0.91979897 86 102 110
0.70004565 -0.23847846 0.92104870 87 104 109
0.70116811 0.23856346 0.69116400 107 125 129
0.70298498 0.24457201 0.69340514 124 136 135
0.70971984 0.25226650 0.70102566 127 136 132
0.70219532 0.39857203 0.95276481 106 118 120
0.70447749 0.40827893 0.95136204 130 135 135
0.70805381 0.41590646 0.96689832 133 137 136
0.71400489 0.42390239 0.97615935 131 134 134
0.71716864 0.42963131 0.98854539 117 120 125
0.72791105 -0.08346418 1.02572442 58 61 64
0.73088588 -0.07416006 1.02467284 70 71 73
0.72304338 0.43315068 0.98879107 135 142 141
0.74047899 -0.08030176 1.02555501 56 57 61
0.74093772 -0.07318298 1.02516926 74 76 77
0.79724098 0.41198637 1.22820824 155 164 165
0.79709442 0.42510287 1.22955080 119 127 129
0.80606701 0.41225715 1.22999813 158 168 167
0.81218944 0.41364896 1.24844499 152 162 162
0.81394541 0.41966662 1.26002204 138 149 149
0.80983440 0.42329305 1.23254203 150 157 158
0.80963971 0.42771438 1.24818909 140 148 148
0.81553264 0.42705995 1.26473830 142 151 152
0.82690316 0.25174132 1.13170588 167 174 173
0.83896128 0.25769913 1.15549823 166 175 174
0.83564612 0.25061215 1.17089760 153 159 160
0.83831023 0.25852723 1.18429973 155 159 158
0.83496433 0.26154830 1.15780079 168 173 174
0.83682156 0.26224136 1.17164345 149 154 156
0.83725509 0.26283984 1.18675123 150 155 155
0.82542812 0.41252190 1.25265950 139 147 148
0.82197338 0.42561376 1.23929036 153 162 161
0.82533918 0.42929213 1.24843019 153 160 160
0.83427199 0.43563749 1.26002204 147 152 155
0.84053177 0.25610690 1.15583342 163 173 173
0.84531280 0.25187325 1.17185990 152 159 159
0.84879279 0.25429330 1.18248683 151 158 158
0.84079711 0.26196051 1.17082718 160 166 167
0.84182669 0.26505050 1.19271074 149 155 155
0.85163938 0.43085826 1.27168715 149 155 155
0.85594062 0.42573035 1.28715607 123 131 134
0.85405760 0.44154159 1.27603704 153 161 160
0.85761446 0.44621271 1.28632224 151 158 156
0.86818270 0.25130476 1.18820163 165 172 170
0.86512402 0.42777321 1.27663847 120 124 129
0.87039300 0.42678950 1.29369841 131 138 142
0.87135010 0.42477039 1.30392153 134 142 147
0.86392558 0.44036347 1.26946032 135 139 140
0.86660869 0.44981450 1.29186319 149 156 152
0.87423309 0.45713241 1.30238828 155 158 153
0.87405178 0.46134254 1.30761170 145 150 147
0.89482281 -0.41250898 1.35524681 150 138 122
0.89343917 -0.41715136 1.36122859 153 139 127
0.88952112 -0.37080976 1.31374383 97 107 115
0.89505696 -0.37292816 1.32530302 100 108 115
0.89580634 0.41793461 1.31629980 159 162 158
0.88476478 0.43583106 1.29678345 142 147 148
0.89124674 0.42876035 1.30960500 146 149 150
0.88702011 0.42511636 1.32271960 148 153 154
0.88237241 0.45143457 1.29492354 138 143 143
0.88851825 0.45873468 1.30614996 151 155 151
0.88663751 0.46155641 1.30615237 156 159 153
0.91329908 -0.42134115 1.35578370 97 112 116
0.91570634 -0.42446784 1.36796808 113 118 118
0.91333556 -0.43025747 1.38063514 154 139 127
0.90620598 -0.40436910 1.33838600 95 110 116
0.90755782 -0.41032976 1.35399217 107 113 117
0.91033794 -0.40715629 1.36771096 128 124 119
0.90757005 -0.38423756 1.35632927 103 105 113
0.91124135 -0.39368922 1.37000134 124 121 117
0.90246946 -0.37582245 1.33970726 102 109 115
0.90525746 -0.37844050 1.34903985 103 108 115
0.90034878 0.41793305 1.31629479 158 162 157
0.90087461 0.43301800 1.31374383 153 158 158
0.90678000 0.42626867 1.32809072 151 153 152
0.92151350 -0.43088865 1.37503421 108 114 116
1.01349494 0.41342823 1.66747400 142 143 144
1.01473738 0.41377017 1.68589854 148 153 153
1.01487453 0.42980592 1.67106760 132 135 137
1.01252306 0.43005813 1.68462578 164 167 167
1.01759305 0.44349912 1.67381926 128 135 140
1.01663870 0.44450783 1.68420595 138 142 147
1.02910042 0.21847011 0.96959866 139 144 149
1.03227979 0.22449206 0.97413075 134 139 142
1.03878665 0.22618205 0.98245192 134 140 143
1.03152117 0.38907671 1.67588113 169 176 176
1.03348730 0.38987929 1.68462439 169 177 177
1.03379787 0.41340169 1.65295649 152 159 160
1.03135523 0.41266761 1.66857835 155 157 158
1.03023806 0.41001805 1.68841752 161 164 164
1.02647716 0.41472575 1.70539099 167 170 171
1.03423464 0.42256132 1.65339800 160 167 168
1.03058976 0.43031492 1.66833034 144 150 152
1.03030896 0.44684002 1.66969412 112 120 128
1.05309656 0.21484069 0.99370909 160 170 169
1.05823112 0.20634457 1.00577426 151 155 156
1.04671352 0.22190583 0.98994894 144 150 153
1.04599331 0.39586336 1.69403577 166 174 174
1.04726726 0.39948449 1.70324588 169 178 176
1.04233539 0.41541724 1.65339470 158 165 166
1.04600117 0.40999341 1.67016494 153 158 159
1.04799518 0.40630140 1.69052288 163 166 167
1.04726732 0.40537232 1.70324588 176 182 180
1.04297403 0.42502717 1.65743732 166 173 173
1.04236264 0.43165404 1.66531246 159 167 167
1.04570359 0.45023185 1.67381431 136 146 149
1.05593735 0.45760377 1.68420595 135 146 149
1.07079101 0.19856565 1.01938617 146 155 154
1.07918346 0.19946548 1.02400577 141 150 150
1.06787131 0.21116777 1.01204961 160 168 166
1.07559746 0.21226968 1.02333418 164 172 170
1.07230809 0.22259269 1.01748320 163 173 170
1.07502403 0.22262718 1.02308002 166 175 170
1.07457976 0.39813857 1.23621255 133 136 137
1.07855731 0.40308886 1.23590503 142 151 152
1.07715452 0.40425893 1.24498566 112 120 123
1.06420305 0.41136061 1.69157571 152 157 158
1.07049978 0.41034306 1.70863044 151 153 155
1.06071579 0.42545375 1.67795014 162 169 169
1.07095354 0.42827201 1.69136961 156 164 165
1.07622683 0.46659547 1.71184814 146 156 159
1.08239853 0.20429228 1.02967481 157 164 164
1.09526914 0.20648904 1.04613191 155 161 161
1.08040178 0.22293643 1.03023076 168 177 171
1.08408124 0.39873446 1.23432829 157 164 164
1.08835289 0.40889381 1.23370001 154 162 162
1.08802859 0.41161564 1.24928809 129 140 141
1.09629178 0.41847388 1.26080418 124 139 141
1.08488405 0.41734993 1.71618187 158 166 165
1.08912444 0.41692230 1.72053766 157 165 164
1.09261994 0.42220271 1.23433650 158 167 164
1.09910834 0.42044812 1.26236844 128 143 145
1.08602353 0.42257170 1.71329995 160 168 168
1.09488797 0.42096348 1.72492677 166 175 174
1.10502982 0.41807555 1.25361925 154 159 160
1.10142112 0.41966662 1.26002204 141 149 149
1.10206473 0.41808893 1.73152733 157 163 166
1.10599965 0.42476303 1.25578187 146 158 157
1.10815906 0.42805563 1.26473735 136 149 150
1.11768973 0.42994517 1.28754503 119 130 134
1.11857986 0.43337874 1.59503961 145 146 148
1.10209437 0.42289767 1.73079018 168 177 176
1.11315179 0.44394705 1.27344183 143 151 153
1.11743850 0.44752054 1.58820723 120 126 130
1.13199226 0.40731611 1.59192816 164 170 170
1.13555360 0.41216268 1.60638779 179 184 184
1.12299619 0.43681710 1.28879578 128 139 141
1.12768172 0.43359112 1.59662356 147 150 151
1.12930308 0.43230368 1.60639006 161 163 162
1.13722956 0.43747827 1.62563992 148 150 152
1.13016538 0.43374725 1.76687972 166 174 173
1.12781689 0.44273183 1.29175844 141 148 147
1.13545912 0.44500122 1.30672218 132 139 140
1.12617021 0.44485472 1.59480890 125 132 136
1.12873801 0.44492347 1.61020650 138 143 145
1.13578331 0.44504207 1.62759382 142 144 145
1.14426855 0.41611215 1.59754753 151 154 158
1.14397701 0.41736594 1.60693683 168 172 172
1.14559639 0.41881412 1.62954772 176 185 184
1.14226377 0.43351320 1.59654436 156 165 166
1.14626696 0.42852222 1.60818397 163 170 169
1.15406810 0.42979920 1.62761263 172 178 176
1.15766776 0.43212389 1.64537664 174 180 178
1.14304984 0.43806043 1.78863287 170 179 178
1.14383948 0.45345429 1.31374383 140 149 148
1.15161740 0.45286310 1.33203883 131 138 139
1.15712523 0.45611414 1.34502351 131 138 139
1.14731187 0.44585584 1.61022168 153 161 162
1.15689814 0.44590765 1.62563992 152 160 164
1.15947366 0.44317058 1.65743732 160 161 162
1.15503168 0.46018413 1.32659853 139 148 149
1.15715396 0.46101135 1.34236014 135 141 141
1.16534269 0.43923473 1.62175083 162 170 172
1.16523929 0.43055583 1.64937838 176 182 181
1.16374350 0.43473724 1.66354078 169 177 176
1.17674887 0.43922895 1.68629813 167 175 175
1.16348881 0.45523945 1.35108015 126 134 136
1.17344534 0.45874901 1.36673963 122 131 132
1.16247356 0.45087993 1.63347435 155 164 165
1.16660631 0.44157144 1.66763312 174 179 178
1.16528726 0.46473141 1.33970726 139 147 147
1.17107561 0.46874599 1.35129379 135 143 144
1.16988945 0.46678536 1.36259806 134 140 140
1.19707978 -0.62293386 1.89885676 154 137 120
1.19722295 -0.62149256 1.90955448 155 141 123
1.19664294 -0.61244389 1.89686772 153 138 117
1.19521770 -0.61552285 1.90741496 153 139 119
1.19736767 -0.61837536 1.92037344 154 139 121
1.18263268 0.44435430 1.69472957 170 179 177
1.19311041 0.44885306 1.71185899 169 175 175
1.19773459 0.44928762 1.72491562 161 169 168
1.18291116 0.47066994 1.37227321 134 141 141
1.18518305 0.48631361 1.36122859 134 143 142
1.19969344 0.48370153 1.38063514 135 144 145
1.20547420 -0.64129567 1.90955448 155 140 121
1.21593684 -0.64534824 1.93407482 154 138 120
1.21731834 -0.64348484 1.95022347 155 140 125
1.20972238 -0.62619846 1.89809903 154 138 118
1.20730647 -0.63033366 1.90821539 153 136 118
1.20636362 -0.62980254 1.92828496 155 139 123
1.21464968 -0.63576206 1.95135269 154 140 124
1.20978105 -0.60791743 1.87781680 153 139 117
1.20843170 -0.61069288 1.89188646 152 138 117
1.20706546 -0.61896944 1.90687251 153 138 119
1.20378509 0.45641620 1.72933283 168 174 172
1.20690286 0.46116614 1.73596150 156 160 159
1.20584458 0.49458018 1.38771391 133 142 141
1.21332121 0.48931500 1.43926084 168 174 172
1.21704447 0.50280136 1.40060294 132 141 142
1.23344415 -0.66305628 1.95922494 154 140 121
1.23541862 -0.66594720 1.96775985 154 140 121
1.23245347 -0.66224641 1.98213995 155 141 119
1.22344978 -0.65300483 1.95247545 154 140 119
1.22529078 -0.65073529 1.97062415 155 140 125
1.22005403 -0.62293386 1.89885676 155 141 120
1.22235521 -0.63081356 1.91494870 154 137 118
1.22392130 -0.63829064 1.92037344 153 135 119
1.23909032 0.38679396 1.10676289 148 156 157
1.23244822 0.49789822 1.42115688 134 142 143
1.22723393 0.50816592 1.41326571 135 145 147
1.23244822 0.50281096 1.42115688 135 147 147
1.23775566 0.51031037 1.46624200 162 170 168
1.25718534 -0.68538845 1.99968100 155 141 121
1.24594021 -0.67397958 1.97636104 155 140 124
1.24627161 -0.67522845 1.98504627 155 140 123
1.24828856 0.39355107 1.11380583 155 164 161
1.25399152 0.39730735 1.12296200 156 164 161
1.25290416 0.41192058 1.11842863 134 145 144
1.25500679 0.41093614 1.12184543 142 152 150
1.24257534 0.42162375 1.11642435 143 151 150
1.25150794 0.42291762 1.12115692 135 144 143
1.25208300 0.47793433 1.48905897 172 176 171
1.24233544 0.48191252 1.47367787 139 141 141
1.25031741 0.48887940 1.48947014 161 166 163
1.24155962 0.50776151 1.43166333 130 143 142
1.25219567 0.51269675 1.44912572 133 144 143
1.24759471 0.51104197 1.47688854 163 173 170
1.25174501 0.51239650 1.49118557 166 175 174
1.25952792 0.50694221 1.50642633 169 175 175
1.25347650 0.52263486 1.44540495 136 147 148
1.25230193 0.52054137 1.49315381 162 172 171
1.26108223 0.39964387 1.11863339 167 175 170
1.26133576 0.40665916 1.12317569 156 165 161
1.26776612 0.47782105 1.51315141 150 154 155
1.26990911 0.48516870 1.51570919 170 175 171
1.27943015 0.49643847 1.53022993 171 175 171
1.26888734 0.51517755 1.47050887 133 142 142
1.27590120 0.51855338 1.48011315 130 137 138
1.26515079 0.50659001 1.51315141 170 177 174
1.27451664 0.51218155 1.52592960 166 174 172
1.26173365 0.52334595 1.45783186 131 139 142
1.27299638 0.52694583 1.47497051 131 139 141
1.27590120 0.52622816 1.48011315 130 139 141
1.26819706 0.52593780 1.51993692 161 174 172
1.27617707 0.52546274 1.53222830 161 171 170
1.28377867 0.49414346 1.53543085 170 177 172
1.29246496 0.49196140 1.54949107 157 163 161
1.29687646 0.49195519 1.56648025 158 164 162
1.28242517 0.50810184 1.53508308 167 172 171
1.29222843 0.50987087 1.55071999 169 176 173
1.29852098 0.51413019 1.57010847 167 173 170
1.28328800 0.53123341 1.48988366 132 140 143
1.28543251 0.52677612 1.54772158 161 169 168
1.29680514 0.52684185 1.56557840 164 174 173
1.29024577 0.54099011 1.49976075 142 149 154
1.30026639 0.48940724 1.55837202 149 155 155
1.30293939 0.49569657 1.56880257 156 162 160
1.30479598 0.49625212 1.58016741 164 170 168
1.30389688 0.50944901 1.57134462 163 170 168
1.30845711 0.50586112 1.58460131 159 165 164
1.30226668 0.52525860 1.57163254 168 176 175
1.31308570 0.52573435 1.58423902 170 177 175
1.37080872 0.72736770 1.58385944 126 137 136
1.38097751 0.73561132 1.59880149 133 143 141
1.38776066 0.73528788 1.61020353 129 139 141
1.39239097 0.73916268 1.62175083 132 140 145
1.38468400 0.74268702 1.61115742 148 157 155
1.39627397 0.74834780 1.62955399 146 157 156
1.40613309 0.72972168 1.61020350 138 146 147
1.40840755 0.73601658 1.62453142 132 142 143
1.40864241 0.74019498 1.61788034 123 130 133
1.41534681 0.74254855 1.63663082 129 138 140
1.41409287 0.74495088 1.64537340 131 142 144
1.43336248 0.73534492 1.64138460 142 152 153
1.42221975 0.74450606 1.63347435 128 133 136
1.43245812 0.74624497 1.65138572 135 142 143
1.43715355 0.75018996 1.66968939 133 142 142
1.44411401 0.73774793 1.65206687 140 151 151
1.45593250 0.73898828 1.66558194 133 144 142
1.44021881 0.74969840 1.65743732 136 144 145
1.44897584 0.74687401 1.66604892 134 145 144
1.45256206 0.75380212 1.68420595 132 142 142
1.46384370 0.74447584 1.67795014 134 145 144
1.46696594 0.75009324 1.68737566 132 141 142
1.47196884 0.76445986 1.71099443 130 139 140
1.47876549 0.77623284 1.72931588 125 136 137
1.49878158 0.35002525 1.34680617 153 165 163
1.49783504 0.39841366 1.35038221 159 168 165
1.49783504 0.40074769 1.35038221 159 168 165
1.48670952 0.75465200 1.70754337 131 141 141
1.48329103 0.76183434 1.71041079 129 140 141
1.49297880 0.76726216 1.73034525 123 132 134
1.49167579 0.77619517 1.74265254 118 125 128
1.48334455 0.78171569 1.73818421 116 134 134
1.48967068 0.78605666 1.74985268 110 126 128
1.49389780 0.79137528 1.76305068 96 113 117
1.50684197 0.35305904 1.34971330 156 165 164
1.51290792 0.34819326 1.36397121 150 160 160
1.50992140 0.36510393 1.35366913 157 166 164
1.51704615 0.36918017 1.36436510 161 170 167
1.51079791 0.39573508 1.35615391 163 171 169
