ply
format ascii 1.0
element vertex 333
property float x
property float y
property float z
property uchar red
property uchar green
property uchar blue
end_header
-0.74108136 -0.88618591 1.97348845 178 179 181
-0.74522159 -0.88617850 1.98713202 176 177 179
-0.72678816 -0.90285027 1.97636104 179 179 181
-0.73684657 -0.90338686 1.98504627 180 181 183
-0.72915477 -0.89020803 1.97424439 175 177 179
-0.73484327 -0.88765481 1.98504913 173 175 177
-0.72508016 -0.87893838 1.97636104 166 170 171
-0.72918361 -0.87092154 1.99203950 172 173 175
-0.71024020 -0.88634074 1.95781341 168 171 172
-0.71691900 -0.88659132 1.96735185 168 171 173
-0.70254191 -0.86965941 1.95170756 163 166 167
-0.71364933 -0.87016027 1.97018667 165 166 168
-0.71797359 -0.86049694 1.98504627 174 177 178
-0.70253852 -0.85822442 1.95640188 166 166 168
-0.70780189 -0.85701433 1.97308281 171 174 176
-0.71558881 -0.85660535 1.98795259 172 175 176
-0.69766742 -0.88440441 1.94517428 161 163 163
-0.68832698 -0.86826880 1.93545434 167 168 168
-0.69389024 -0.87092051 1.94573458 165 166 167
-0.68751393 -0.85248538 1.93316036 168 168 170
-0.69593718 -0.85449780 1.95021701 171 171 173
-0.67252606 -0.84263346 1.90956962 166 166 168
-0.67991209 -0.85313690 1.92582905 166 166 168
-0.66710746 -0.83462417 1.89885676 172 172 174
-0.67581660 -0.83932626 1.90955448 169 169 171
-0.54033643 0.13244976 1.26946032 169 167 166
-0.54306993 0.14677982 1.27530528 169 169 168
-0.54522940 0.15621527 1.28443155 171 170 172
-0.54521728 0.16193768 1.28877240 174 174 174
-0.52197066 0.13070353 1.25768435 163 162 164
-0.53069487 0.13092626 1.26317820 164 163 163
-0.53059855 0.14881756 1.26909336 171 170 171
-0.53528944 0.16163039 1.28632694 189 189 191
-0.50314569 -0.72752631 1.52491203 172 173 174
-0.50276066 -0.71136436 1.51925685 169 170 171
-0.50487043 -0.71570833 1.52403870 169 171 171
-0.51078635 0.13104451 1.25288499 163 162 162
-0.50800705 0.12827083 1.26002204 173 173 171
-0.51255894 0.14378554 1.25665016 171 171 173
-0.51197934 0.14566710 1.26041311 174 174 175
-0.48814024 -0.72682166 1.51129336 174 176 178
-0.48395467 -0.70829101 1.49645446 174 175 175
-0.49363304 -0.71121404 1.50956424 171 172 173
-0.48473377 -0.69810271 1.49562958 169 170 172
-0.47838918 -0.72343367 1.50755461 174 175 177
-0.47321443 -0.70595992 1.49472687 172 174 175
-0.47610587 -0.71349225 1.50308609 171 174 175
-0.47130375 -0.69796629 1.49198804 172 173 174
-0.46026620 -0.10214566 0.87809825 163 163 163
-0.46276622 -0.09349523 0.87421857 154 155 156
-0.44738626 -0.70275843 1.47688854 169 173 174
-0.45703575 -0.70327014 1.48335195 175 179 180
-0.44354038 -0.68502165 1.45470924 168 170 172
-0.44862948 -0.69429646 1.46978928 172 175 176
-0.45959961 -0.69557858 1.48335195 173 174 176
-0.44428591 -0.60491608 1.23030454 180 182 183
-0.45564286 -0.10408820 0.87686874 160 161 161
-0.45385337 -0.11001930 0.88037902 168 168 168
-0.45120639 -0.08921051 0.87017485 160 161 162
-0.44193407 -0.07717449 0.85917848 164 165 167
-0.44650144 -0.07810401 0.86144815 155 155 156
-0.42840622 -0.68268040 1.43469334 167 168 168
-0.43628042 -0.68674594 1.44849122 168 172 173
-0.42641467 -0.67900302 1.43216725 164 168 168
-0.42960797 -0.60147103 1.21759021 181 182 184
-0.42854903 -0.60302401 1.22606555 180 182 184
-0.42737329 -0.59902608 1.21052110 181 182 184
-0.42792716 -0.59763766 1.22569880 179 183 184
-0.43995404 -0.08063954 0.85917848 151 151 152
-0.43883877 -0.08158940 0.86136262 159 158 158
-0.43892001 -0.07717609 0.85840206 158 159 161
-0.43753853 -0.07925497 0.86026883 154 154 156
-0.40105847 -0.62056911 1.23253059 170 174 175
-0.40863039 -0.60688323 1.22858843 174 179 179
-0.40199883 -0.59385261 1.21922994 174 175 178
-0.41278381 -0.59674156 1.22543331 174 177 179
-0.39776575 -0.62316991 1.23628059 170 173 175
-0.39757028 -0.61049265 1.23293028 168 174 174
-0.39705636 -0.59120804 1.21379271 174 175 178
-0.34218955 0.01868088 0.58528274 180 180 181
-0.34154445 0.02933464 0.58620136 165 165 165
-0.33994046 0.01940809 0.58489376 182 182 184
-0.33714679 0.03198560 0.58629692 160 160 161
-0.30503971 -0.10966157 0.51597086 166 168 167
-0.30168578 -0.09912679 0.51297158 163 163 165
-0.29928695 -0.10792807 0.51630998 164 166 166
-0.26255200 -0.28214105 0.73396814 179 179 181
-0.26385126 -0.26815053 0.72996484 176 177 178
-0.26527483 -0.25780415 0.72534283 170 171 173
-0.27227477 0.03899979 0.66958963 176 175 176
-0.26936824 0.04793966 0.66805249 168 167 167
-0.25712776 -0.28176977 0.73333294 180 181 183
-0.25673021 -0.27185396 0.73069973 175 176 178
-0.24237184 -0.24342321 0.51436646 178 179 182
-0.24041733 -0.23956712 0.51277751 181 182 184
-0.25863163 0.05225912 0.66838038 163 162 164
-0.23524981 -0.24344911 0.51044776 175 179 180
-0.23601080 -0.23833859 0.51090681 175 178 180
-0.18278252 -0.12894172 0.58189463 164 163 163
-0.18193889 0.07270941 0.49182560 180 180 180
-0.17967239 -0.12659165 0.57989037 164 164 166
-0.17668925 -0.12910604 0.58176883 165 164 165
-0.16484712 -0.07080494 0.45710894 166 166 167
-0.17681238 0.07480573 0.49185241 184 184 184
-0.17643946 0.08022841 0.49016041 186 187 188
-0.15801282 -0.06926842 0.45644181 170 170 171
-0.13174079 -0.28721662 0.71690820 162 162 166
-0.13223670 -0.29102136 0.72051305 155 153 160
-0.13148636 -0.27658696 0.71219038 182 182 183
-0.10153187 -0.40417826 1.01481384 183 184 185
-0.10399124 -0.38851589 1.01290128 183 183 185
-0.11480546 -0.38945954 1.02126365 179 180 182
-0.10392351 -0.37111902 1.00902412 181 181 182
-0.10264040 -0.35258783 1.00395411 180 181 183
-0.09074510 -0.40415551 1.01126001 179 180 182
-0.09403127 -0.39464653 1.01227741 180 180 181
-0.09822539 -0.36989675 1.00756250 182 182 183
-0.08254203 0.15913944 0.63925271 144 143 146
-0.08218854 0.15731642 0.64032618 164 163 163
-0.08338268 0.16222929 0.63857406 151 150 155
-0.06311725 0.11818180 0.64906591 168 168 168
-0.06464147 0.12372558 0.64935414 170 169 169
-0.07932198 0.15994336 0.63952059 152 153 156
-0.07497455 0.15801983 0.64214162 147 144 146
-0.07837593 0.16265546 0.63931968 164 166 169
-0.07441658 0.16470040 0.64200526 154 153 154
-0.05640275 0.11872869 0.64852834 161 158 159
-0.05576072 0.12238567 0.64854030 161 159 160
-0.00412319 0.11608435 0.54130409 169 167 168
-0.00048027 0.12158095 0.54340053 162 161 162
0.01706480 -0.28050676 0.96428424 152 147 151
0.01566755 -0.26408396 0.95839526 169 168 169
0.01446196 -0.27309597 0.96243070 166 164 165
0.01695568 -0.25884970 0.95815149 172 171 171
0.01284327 -0.25939953 0.96018672 172 172 173
0.01429181 -0.18492040 0.99553535 182 181 185
0.01295762 -0.17812261 0.99677286 187 186 191
0.00525696 0.10961741 0.53682697 173 172 172
0.00143791 0.11729800 0.54075663 181 180 179
0.00145540 0.12175098 0.54121252 162 162 164
0.01734345 0.14705984 0.55216646 156 153 154
0.02354973 -0.26475462 0.95687521 160 159 161
0.02208690 -0.27297928 0.96124689 158 157 158
0.03034336 -0.18663630 0.99452728 187 186 189
0.02946085 -0.17609660 0.99378759 185 185 187
0.02383038 0.14835652 0.55039115 168 164 165
0.03581633 0.17367555 0.51104776 161 159 160
0.03576134 0.18058172 0.51206769 159 159 161
0.05495331 -0.32749735 1.01197873 164 161 163
0.04620350 -0.33163734 1.02530462 155 155 154
0.05479955 -0.31589400 1.01067832 166 163 163
0.04122342 -0.19063118 0.99631509 186 185 189
0.04076272 0.17594063 0.51041021 155 155 155
0.06762400 -0.34454459 1.00523363 160 160 162
0.06406117 -0.33194444 1.00619810 162 161 163
0.06694612 -0.31504393 0.99984050 167 164 165
0.06506526 -0.31479765 1.00597115 163 159 160
0.07630355 0.27472733 0.67594448 143 143 147
0.07470451 0.28174613 0.67100849 0 0 0
0.09932937 0.15421985 0.73924953 140 139 147
0.09557853 0.15594708 0.74334593 157 155 157
0.09869050 0.17083038 0.73924953 164 164 166
0.09738833 0.16572717 0.74152182 153 152 153
0.08366179 0.27402178 0.67848478 168 167 169
0.08708582 0.27098016 0.68122263 170 170 170
0.08207089 0.28243799 0.67552940 24 24 24
0.10083016 0.15554622 0.73880216 150 150 154
0.10558995 0.15572376 0.74209783 159 158 159
0.10134331 0.16421418 0.73918242 167 166 166
0.10619039 0.16531508 0.74225421 162 161 162
0.14944463 0.23021691 0.58620507 163 163 165
0.14877357 0.24337131 0.59177906 153 152 151
0.21071100 0.15640634 0.65565122 171 170 170
0.21136070 0.14860245 0.69907432 162 159 159
0.21132223 0.15545774 0.70114266 165 164 164
0.21503127 0.16297254 0.65751007 169 168 168
0.21405684 0.16107108 0.70138854 152 150 152
0.22266397 0.15662829 0.65878737 176 175 175
0.22638695 0.15782132 0.66071361 171 169 169
0.22233773 0.16357774 0.65902017 165 164 165
0.22620988 0.16358901 0.66123766 168 165 166
0.33946617 0.08819933 0.54901220 146 140 137
0.34480799 0.09158919 0.54927599 168 168 169
0.34602289 0.10195293 0.54948078 155 153 155
0.35027507 0.13602086 0.49731036 164 163 162
0.35443574 0.13165550 0.50047395 171 172 172
0.34762837 0.14310417 0.49727441 153 153 153
0.37709792 0.19060859 0.70281557 167 166 167
0.37905234 0.41660556 1.49250617 164 162 164
0.36723653 0.42915858 1.47475507 165 164 163
0.37600784 0.42957851 1.48858343 175 174 175
0.38938161 0.19074679 0.70386380 159 159 161
0.39726162 0.41713988 1.47581832 168 167 169
0.38817389 0.41721804 1.48365284 174 173 173
0.39755154 0.42042172 1.47688854 166 166 168
0.39060462 0.43036166 1.48840714 168 163 164
0.39729154 0.44159560 1.48227235 140 139 142
0.41533441 -0.34290262 0.57589183 168 172 172
0.41698349 -0.33751507 0.57343970 174 176 178
0.40599765 0.41798266 1.47169037 161 161 167
0.40225695 0.41494404 1.48011315 175 175 178
0.40900949 0.42837826 1.47470453 161 160 162
0.40593301 0.43246562 1.48279238 164 163 163
0.40903862 0.44084319 1.47688854 166 161 163
0.40628908 0.44155358 1.48270419 159 155 158
0.42076102 -0.34259402 0.57416210 174 178 178
0.42117853 -0.33723998 0.57118312 170 176 177
0.43726835 0.07856619 0.73409230 149 147 143
0.43686731 0.08351440 0.73209692 147 142 139
0.45075492 0.07759012 0.73249777 147 145 145
0.44793197 0.08288125 0.73138242 126 122 121
0.47982639 0.29166384 0.69102126 161 162 163
0.49452519 -0.22389602 0.61964518 170 172 174
0.49579860 -0.22758287 0.62162688 172 173 175
0.49884767 -0.13512779 0.52177720 172 174 176
0.48926168 0.25825296 0.85809290 161 158 160
0.49133784 0.25482012 0.86291931 159 158 157
0.48682421 0.26058489 0.85809094 167 166 166
0.49750048 0.26116569 0.86245781 163 163 164
0.48724172 0.29563958 0.69281252 143 144 145
0.48765245 0.30367250 0.69452054 144 143 145
0.50512662 -0.22339043 0.61938110 169 171 171
0.50487664 -0.22758502 0.62085153 175 177 178
0.50593035 -0.13101135 0.52238131 171 174 175
0.50291768 0.25616581 0.86611454 158 157 155
0.50342315 0.26203141 0.86724061 156 156 155
0.51889378 0.41392872 1.15582669 162 164 163
0.53903094 0.39858611 1.15189862 178 178 178
0.52925744 0.41390444 1.15586476 165 165 163
0.53816825 0.41168949 1.16077375 158 158 155
0.52981357 0.42281615 1.15553925 171 171 170
0.55851948 0.09638143 0.55931669 145 146 146
0.54717923 0.41525101 1.15620750 167 167 167
0.54296112 0.41113218 1.16077375 167 166 164
0.54912099 0.42675933 1.15743127 165 163 162
0.54574442 0.42922555 1.16150729 171 169 168
0.57625488 0.05818401 0.54296154 157 161 160
0.57603554 0.06600144 0.54238792 159 162 163
0.56797134 0.09820765 0.56165643 146 148 150
0.57011868 0.10314109 0.56314177 141 144 145
0.56019372 0.42646386 1.16276479 167 165 166
0.58044463 0.05872270 0.54187995 154 156 156
0.58241798 0.06863535 0.54386011 157 160 160
0.63630912 -0.28220412 1.79812157 73 53 51
0.63572761 -0.28489211 1.80530775 71 54 50
0.63712531 -0.28834715 1.82720172 72 53 50
0.63547155 -0.27872498 1.79574311 73 53 51
0.63001197 0.31853301 0.69449010 136 138 143
0.63164690 0.32867450 0.69500965 129 130 132
0.65448242 -0.34191236 1.91494870 73 51 50
0.65202943 -0.32909916 1.90777155 71 51 49
0.65325828 -0.32640349 1.93683386 72 50 49
0.65027311 -0.32803156 1.94477560 73 50 49
0.65262191 -0.30486248 1.89041150 73 51 50
0.65172216 -0.31574897 1.90687251 73 51 50
0.65736715 -0.31509941 1.93316559 73 51 50
0.64299158 -0.28247189 1.79653593 72 52 50
0.64111757 -0.28451276 1.80290389 71 53 50
0.65116102 -0.29072171 1.82228994 70 53 50
0.65116934 -0.29428212 1.84460706 71 52 50
0.65116668 -0.29792970 1.86747062 72 52 50
0.64237538 -0.27835572 1.79337722 73 52 50
0.64501599 -0.27221548 1.81093391 73 52 51
0.64975495 -0.26813644 1.82721236 74 51 50
0.64170476 0.32366579 0.69900179 137 137 141
0.64550149 0.32436064 0.70102566 143 143 147
0.66239965 -0.34107360 1.94796503 73 51 50
0.66446103 -0.32463767 1.89620471 73 52 50
0.66377273 -0.32606531 1.90741496 72 51 50
0.66717431 -0.32947277 1.93255593 71 50 48
0.66559880 -0.32835579 1.95079346 73 51 50
0.66574620 -0.31584199 1.89753073 73 51 50
0.66608368 -0.31552809 1.90553153 73 52 51
0.66708102 -0.31390212 1.92583942 72 51 50
0.67057341 -0.31659552 1.94238353 73 51 50
0.70976175 -0.31042252 0.68865756 164 169 171
0.71780984 0.57678898 1.50978883 165 165 165
0.71436266 0.59083814 1.50917011 149 150 152
0.71680224 0.59162796 1.52335250 167 167 168
0.71833131 0.61195377 1.51823676 162 163 165
0.71913570 0.62182647 1.51993692 165 165 166
0.73686042 0.55897516 1.49069619 158 158 157
0.73274965 0.56762359 1.49528111 164 162 160
0.72419268 0.57462101 1.50901405 170 169 168
0.72784277 0.59052267 1.51521695 160 161 162
0.73150310 0.59075030 1.52335250 163 164 165
0.72636851 0.61105661 1.51787176 157 158 164
0.73177839 0.60809844 1.52438179 153 156 160
0.72489017 0.62244301 1.51823676 170 171 173
0.72716690 0.62345781 1.52392433 167 167 169
0.74452919 0.47969809 1.41818380 179 178 178
0.75184560 0.49240699 1.42795716 152 149 152
0.75220098 0.50558185 1.43104673 115 114 122
0.75028853 0.51054767 1.44726999 102 98 109
0.75599688 0.51801473 1.46412921 117 110 121
0.75599688 0.52054536 1.46412921 141 137 147
0.74100068 0.55725309 1.49646091 159 159 159
0.74233854 0.55777746 1.50308609 154 154 154
0.74015242 0.59161499 1.51993692 163 163 162
0.76555287 0.49491405 1.43337925 170 170 170
0.76597148 0.50747122 1.43244759 162 160 159
0.97884302 0.19361885 0.85710673 155 154 157
0.97945869 0.20024537 0.85376805 142 143 147
0.98488597 0.19361758 0.85742199 148 149 150
0.99338997 0.18992643 0.86201590 142 145 147
1.01779544 0.16974640 0.87923717 137 137 139
1.01845316 0.17631460 0.88421108 146 150 152
1.00814819 0.18939415 0.85809094 145 146 146
1.00655174 0.18900499 0.86843961 126 125 128
1.01497815 0.18285652 0.88468630 147 150 151
1.02580878 0.17213629 0.87593864 143 146 149
1.02944734 0.17535677 0.88518151 140 145 149
1.02550678 0.18674953 0.87600009 140 143 144
1.03109794 0.18336877 0.88573799 136 137 140
1.07933164 -0.04368396 1.08462691 142 146 147
1.08904690 -0.04377997 1.07773111 151 151 152
1.08922604 -0.04439145 1.08961676 142 145 145
1.08676395 -0.03619289 1.07559564 140 140 141
1.09017406 -0.03276374 1.08923764 152 152 154
1.08350420 -0.01548927 1.07944560 158 158 158
1.09303790 -0.01846627 1.08988643 154 154 154
1.10092223 -0.02241191 1.09869015 156 157 161
1.19896770 0.17928226 1.23929036 150 152 155
1.19901776 0.17961062 1.24156010 161 163 166
1.19459703 0.18333342 1.23452804 155 159 159
1.21060288 0.17831638 1.25131372 154 154 157
1.21141680 0.18347895 1.24843939 145 148 150
1.23815437 0.17886158 1.27184359 155 155 159
1.22763216 0.18846464 1.25768435 155 156 158
1.23442083 0.18403589 1.26636628 147 148 151
1.25119153 0.17728336 1.27397013 146 148 151
1.25294046 0.18560469 1.27358009 150 150 152
1.26289388 0.18540126 1.27248199 148 149 150
