ply
format ascii 1.0
element vertex 1116
property float x
property float y
property float z
property uchar red
property uchar green
property uchar blue
end_header
0.43009383 0.18454629 0.82637762 109 103 103
0.42964928 0.21984386 0.75846810 114 110 106
0.42999153 0.21451620 0.76994387 113 107 106
0.43005142 0.20488515 0.78931624 114 108 106
0.42996437 0.23771440 0.71550885 112 107 105
0.43009649 0.23187957 0.73027127 112 108 106
0.43003133 0.22414657 0.74874095 114 110 106
0.42946987 0.25902783 0.65721488 120 121 117
0.42990540 0.25468490 0.67010873 123 123 117
0.43002377 0.24746110 0.69014978 116 113 109
0.42995927 0.24172302 0.70549738 113 111 110
0.43014064 0.27361433 0.63351451 115 117 121
0.43020190 0.26395747 0.64702220 137 137 136
0.43040108 0.29649339 0.53136660 0 0 0
0.42976020 0.29354939 0.54981860 0 0 0
0.43016872 0.28941932 0.56966399 0 0 0
0.43001995 0.28569207 0.58996766 0 0 0
0.42946187 0.28310759 0.60845959 0 0 0
0.43002512 0.28222155 0.62589913 44 55 66
0.45083383 -0.54688815 0.86935765 48 47 50
0.45067907 -0.54752303 0.89017627 52 52 54
0.45140688 -0.52232772 0.81554258 33 30 33
0.44684247 -0.52988246 0.83465544 36 38 40
0.44615433 -0.53701047 0.85130793 47 46 46
0.44987544 -0.52996397 0.89469847 57 57 58
0.44954187 -0.51100530 0.77131231 0 0 0
0.45208703 -0.51002665 0.78731501 4 4 4
0.45240187 -0.51701819 0.80291486 17 16 20
0.45001165 -0.50979697 0.89705257 59 59 60
0.44956587 -0.49241944 0.89906628 64 64 65
0.45208387 -0.48291515 0.90033176 65 65 66
0.44989428 -0.47009802 0.90163632 66 66 67
0.44990528 -0.45007319 0.90344495 66 66 67
0.45027108 -0.43010032 0.90505143 67 67 67
0.44988331 -0.40967240 0.90635111 67 67 68
0.44973597 -0.38944754 0.90744826 70 69 71
0.45017953 -0.36942223 0.90834357 75 74 75
0.45008021 -0.34952319 0.90921363 74 74 75
0.44983911 -0.32982425 0.91006898 75 75 77
0.44988142 -0.31064018 0.91091869 77 77 78
0.45021676 -0.29056565 0.91182686 78 78 78
0.44999559 -0.27024571 0.91274676 79 78 79
0.44984653 -0.24985459 0.91369870 77 77 78
0.45021049 -0.22973983 0.91478627 77 76 77
0.44991660 -0.20941652 0.91579745 78 76 77
0.44989822 -0.18964074 0.91673207 79 77 79
0.45004121 -0.17019103 0.91766531 80 78 81
0.44999283 -0.14991021 0.91853201 79 79 81
0.45005237 -0.12997808 0.91930807 81 81 83
0.44948615 -0.11522916 0.91981668 81 79 81
0.45026192 -0.10515023 0.92017585 83 82 84
0.44995826 -0.08959897 0.92074112 83 82 83
0.45024274 -0.06981680 0.92144967 84 82 85
0.44976062 -0.04988026 0.92196759 82 81 83
0.45001212 -0.02997768 0.92248300 84 81 85
0.45023439 -0.01005224 0.92293872 81 80 82
0.44978433 0.00999659 0.92339708 82 80 82
0.44986184 0.02985637 0.92381149 84 81 83
0.45000550 0.04983125 0.92410665 81 79 81
0.45016614 0.06982214 0.92443597 81 79 81
0.45021792 0.08972573 0.92479843 79 77 78
0.45208899 0.11894992 0.91842164 78 75 77
0.44987312 0.10911922 0.92419072 58 57 59
0.44991877 0.13735037 0.89595250 88 86 88
0.44991344 0.12700910 0.90899025 82 81 82
0.45003225 0.15475101 0.87171685 99 96 97
0.45001090 0.14493666 0.88577263 93 91 92
0.44990051 0.17808223 0.83632821 107 99 101
0.44999671 0.16924335 0.85005971 107 100 101
0.45000006 0.16125068 0.86210640 101 95 95
0.44969862 0.19976322 0.79873712 112 109 108
0.45022344 0.19355767 0.81007994 108 103 104
0.44991547 0.18399546 0.82669705 109 103 104
0.44995564 0.21983737 0.75844571 113 107 107
0.45001913 0.21448583 0.76988453 111 107 106
0.45000012 0.20479013 0.78903755 110 108 106
0.44975270 0.23802699 0.71508265 113 111 107
0.45013933 0.23219535 0.72975214 112 108 107
0.44999425 0.22416866 0.74878496 114 109 107
0.45022665 0.25904784 0.65822520 118 116 112
0.44988893 0.25498341 0.67004778 118 118 111
0.44979268 0.24779025 0.68971774 111 106 105
0.45028793 0.24188340 0.70547574 112 110 105
0.45024131 0.27338585 0.63268184 102 105 108
0.44983020 0.26362920 0.64757479 131 131 129
0.45484094 0.29485071 0.51918414 0 0 0
0.44996818 0.29449422 0.52990670 0 0 0
0.44977502 0.29234246 0.55014562 0 0 0
0.44986721 0.28889832 0.56990708 0 0 0
0.44999269 0.28514083 0.58990548 0 0 0
0.44956130 0.28335288 0.60837588 5 8 8
0.45035624 0.28271190 0.62472628 79 100 108
0.47700408 -0.56103984 0.88837398 45 46 48
0.46973325 -0.54418505 0.85178036 44 42 46
0.47350774 -0.55233261 0.86765603 43 43 48
0.47003944 -0.54983403 0.89164306 50 50 52
0.47078668 -0.52549809 0.81012091 25 23 27
0.46778442 -0.53297135 0.82751781 27 25 26
0.47009396 -0.53020595 0.89596866 57 57 57
0.46946157 -0.51420565 0.77197517 0 0 0
0.47021325 -0.51427683 0.78622778 12 12 15
0.46989852 -0.51018947 0.89822384 60 61 61
0.46776434 -0.49620141 0.89956060 63 64 65
0.47097292 -0.48671578 0.90079272 65 65 66
0.47004925 -0.47009878 0.90241308 67 68 69
0.47016853 -0.45020265 0.90409103 66 66 67
0.46986547 -0.42998194 0.90556093 67 66 67
0.46984350 -0.40948583 0.90679376 67 66 66
0.47013231 -0.38973540 0.90778825 70 69 70
0.46995617 -0.36954094 0.90863555 69 69 71
0.46984504 -0.34928429 0.90949814 73 73 74
0.47021711 -0.32951148 0.91038586 75 75 77
0.46978987 -0.31030798 0.91123721 74 74 75
0.47006962 -0.29045616 0.91215403 76 75 76
0.46989374 -0.27034787 0.91309171 77 76 78
0.47006963 -0.25027120 0.91399560 76 76 78
0.47011673 -0.22980918 0.91506231 76 76 78
0.46984999 -0.20948206 0.91608389 78 76 77
0.47005177 -0.19003955 0.91696545 78 74 75
0.46998161 -0.17023227 0.91788741 76 74 76
0.46993063 -0.14955833 0.91877124 76 74 77
0.46996341 -0.13006501 0.91952395 78 77 80
0.47982297 -0.12133489 0.92002767 76 76 79
0.46681756 -0.11756428 0.91990322 79 78 79
0.47085951 -0.10839135 0.92029311 80 79 81
0.46996970 -0.08962163 0.92097307 81 80 81
0.47022064 -0.06971169 0.92160494 81 80 82
0.46976591 -0.04988931 0.92213541 82 81 84
0.47002045 -0.02998272 0.92263539 82 79 82
0.47014080 -0.01015898 0.92309661 81 79 82
0.46970351 0.00989493 0.92357981 81 79 82
0.46991431 0.02986225 0.92399450 81 80 82
0.47004604 0.04983916 0.92425353 80 78 80
0.47022444 0.06983487 0.92460447 78 77 79
0.47025354 0.08995285 0.92494184 77 75 77
0.47041702 0.11858900 0.91819655 75 74 77
0.46982244 0.10812803 0.92451847 56 55 59
0.46991949 0.13728624 0.89538111 84 81 84
0.46999980 0.12743899 0.90777561 82 81 85
0.47023724 0.15422043 0.87176103 98 92 94
0.46974622 0.14445921 0.88568569 90 87 89
0.47030471 0.17779370 0.83610844 106 100 100
0.46974229 0.16897970 0.84978413 105 100 99
0.46984449 0.16111172 0.86165831 101 97 97
0.47028169 0.19970982 0.79852357 108 103 104
0.47010294 0.19342885 0.80981631 107 101 102
0.47000030 0.18378210 0.82631235 108 102 104
0.47025592 0.21982858 0.75841540 112 107 106
0.46995915 0.21447664 0.76985105 111 104 103
0.46996673 0.20482456 0.78877606 109 104 102
0.46994755 0.23815780 0.71507083 113 111 106
0.46994737 0.23230553 0.72957091 112 107 104
0.46999481 0.22413247 0.74887486 112 108 106
0.47004190 0.25899694 0.65809593 115 115 111
0.47006835 0.25505300 0.67003760 121 120 117
0.46992369 0.24809494 0.68926148 114 110 108
0.46995975 0.24214651 0.70520102 115 113 110
0.47028180 0.27271309 0.63214843 96 100 106
0.46981529 0.26323165 0.64769950 128 129 126
0.47084693 0.29389331 0.51839268 0 0 0
0.46990764 0.29270060 0.52959006 0 0 0
0.46999399 0.29109455 0.55005242 0 0 0
0.46976815 0.28852834 0.56986543 0 0 0
0.46980450 0.28522768 0.58990968 0 0 0
0.47099531 0.28486939 0.61221559 52 64 72
0.46959060 0.28239759 0.62358214 105 136 145
0.49815794 -0.56589336 0.87940758 41 39 48
0.49172969 -0.56356069 0.89013658 45 45 47
0.48513720 -0.54166477 0.83725822 40 39 41
0.48718010 -0.54821841 0.84965825 42 39 44
0.48594093 -0.55703262 0.86915471 42 41 43
0.48980054 -0.55018275 0.89403966 50 50 51
0.49223079 -0.52313022 0.79136848 12 11 14
0.48934800 -0.53157533 0.81192870 25 24 30
0.48830865 -0.53769895 0.82618199 33 32 37
0.49000463 -0.52998600 0.89729100 55 55 56
0.48757425 -0.51487025 0.76871329 0 0 0
0.48775420 -0.51758921 0.78228116 9 8 10
0.48789579 -0.51263045 0.89925933 58 59 61
0.49418555 -0.50512713 0.90049003 60 60 62
0.48022811 -0.49976958 0.89992720 64 64 66
0.48976938 -0.49012145 0.90157935 62 62 64
0.49017887 -0.47003991 0.90347686 63 63 64
0.48982070 -0.44982285 0.90503411 65 65 66
0.49001324 -0.42967960 0.90641230 65 65 67
0.48983282 -0.40992695 0.90751354 67 66 67
0.49008507 -0.38973295 0.90845807 70 69 71
0.48995789 -0.36981977 0.90932122 71 70 72
0.48982422 -0.34986432 0.91017545 70 70 73
0.49012216 -0.32959490 0.91108803 73 72 74
0.49008999 -0.30939536 0.91197490 73 72 73
0.48977413 -0.29030937 0.91281421 75 74 75
0.48994717 -0.27052779 0.91369882 74 73 75
0.49009205 -0.25003784 0.91456422 75 75 77
0.48997620 -0.23007447 0.91554881 75 75 77
0.48989853 -0.20959169 0.91656310 76 74 77
0.49010611 -0.18980628 0.91747269 75 74 76
0.49006202 -0.17031874 0.91835354 75 74 76
0.48978165 -0.14988163 0.91919408 76 75 77
0.48813833 -0.13356984 0.91978882 78 76 78
0.49267347 -0.12556984 0.92017369 76 76 78
0.49004454 -0.11007102 0.92064468 77 76 77
0.49009939 -0.08966405 0.92140836 78 77 80
0.48969785 -0.06986378 0.92201737 79 79 82
0.48990197 -0.04991099 0.92253627 79 79 81
0.49014911 -0.02999467 0.92300162 79 79 81
0.49026066 -0.00994664 0.92345905 79 79 81
0.48985108 0.00989879 0.92394397 78 77 79
0.49003667 0.02987191 0.92429432 81 78 80
0.49016029 0.04985382 0.92452749 79 78 80
0.49008196 0.06967658 0.92481876 77 75 77
0.48969768 0.08986504 0.92516340 75 74 77
0.48992449 0.11853364 0.91809956 71 69 71
0.48989773 0.10829423 0.92454872 54 52 56
0.48998626 0.13720864 0.89502909 82 76 78
0.48999388 0.12738332 0.90764330 78 76 79
0.48998821 0.15394681 0.87166522 96 91 93
0.48999799 0.14413917 0.88553374 89 86 86
0.48985852 0.17734256 0.83616288 107 101 103
0.48997975 0.16849293 0.84987317 103 98 98
0.48969498 0.16107385 0.86116095 98 96 96
0.49021212 0.19967632 0.79838964 108 103 101
0.49007235 0.19337199 0.80955871 108 104 104
0.49004067 0.18371603 0.82582125 110 105 105
0.48988296 0.21981230 0.75835924 114 109 109
0.48997511 0.21445763 0.76975657 109 105 105
0.49001546 0.20473314 0.78879926 108 103 103
0.48977760 0.23818468 0.71515155 112 108 106
0.49001368 0.23227684 0.72976299 112 109 105
0.49005573 0.22416368 0.74880984 111 107 106
0.49014350 0.25906739 0.65683636 120 121 116
0.49024539 0.25472942 0.66987280 122 123 118
0.48975578 0.24767265 0.68981754 114 113 109
0.48956279 0.24205945 0.70534608 112 112 106
0.48997375 0.27255239 0.63155937 81 90 98
0.49012613 0.26300134 0.64688871 129 130 127
0.48981415 0.29348932 0.51816938 0 0 0
0.49005729 0.29179896 0.52960376 0 0 0
0.48998052 0.29004038 0.55015554 0 0 0
0.48971113 0.28806425 0.56990858 0 0 0
0.48952354 0.28554477 0.58874042 0 0 0
0.49029607 0.28537168 0.61343937 62 83 97
0.48983284 0.28158435 0.62253552 77 110 126
0.50794314 -0.56344634 0.87015855 39 39 42
0.51069475 -0.56677906 0.89206306 44 43 44
0.51004421 -0.54616630 0.83046613 29 29 34
0.50933409 -0.55558333 0.85195417 35 35 42
0.50427340 -0.55961286 0.86384794 39 40 43
0.50980976 -0.55000032 0.89645375 50 50 51
0.51252607 -0.52221915 0.77576750 1 1 1
0.51358195 -0.52867523 0.78924409 5 5 5
0.51405056 -0.53658369 0.80656523 16 15 17
0.50855720 -0.53161866 0.89886406 56 56 57
0.51502592 -0.52399506 0.90052860 56 56 56
0.50345644 -0.51769826 0.76925018 0 0 0
0.50139108 -0.51885515 0.89975688 59 59 60
0.51013178 -0.50976868 0.90154006 58 58 60
0.50996311 -0.49009471 0.90324447 60 60 62
0.51001083 -0.46979189 0.90492283 62 62 62
0.50974460 -0.45023336 0.90632129 64 64 65
0.51021284 -0.43030240 0.90760759 64 64 66
0.50988581 -0.41045508 0.90862558 65 63 63
0.50973681 -0.39035284 0.90955746 67 65 67
0.51025178 -0.37028946 0.91047633 69 68 69
0.51009575 -0.35000511 0.91129818 68 68 70
0.50959838 -0.32996966 0.91212388 71 70 71
0.51012733 -0.30979573 0.91307049 70 69 71
0.51019158 -0.28936284 0.91397456 73 71 73
0.50972454 -0.27010931 0.91470146 73 71 74
0.50983143 -0.25042188 0.91547398 74 73 74
0.51020908 -0.22999597 0.91640026 76 75 76
0.50988529 -0.20993507 0.91730758 73 72 74
0.50982117 -0.19012924 0.91820478 75 74 75
0.51029764 -0.17045049 0.91906300 75 74 76
0.50746523 -0.15199221 0.91965089 74 73 77
0.51517454 -0.14550673 0.92021835 74 74 78
0.50098555 -0.13828590 0.91995422 75 75 76
0.50985063 -0.13009302 0.92055299 77 77 79
0.50990240 -0.11034492 0.92121921 76 74 76
0.51029406 -0.08971455 0.92192707 76 74 77
0.50989691 -0.06978612 0.92253822 76 75 77
0.50996031 -0.05008447 0.92307769 77 76 78
0.50959554 -0.03001245 0.92354904 79 78 80
0.50985338 -0.01006380 0.92401614 78 75 78
0.51013000 0.00990485 0.92451741 77 76 78
0.51028940 0.02988839 0.92480645 77 75 77
0.51040240 0.04987984 0.92501143 75 75 78
0.51023700 0.07005797 0.92518285 75 74 76
0.50980454 0.08988581 0.92537815 75 73 76
0.50973544 0.11852780 0.91805471 68 65 68
0.50995634 0.10810525 0.92462828 53 52 55
0.51003176 0.13719093 0.89491419 80 75 77
0.51001066 0.12733947 0.90772702 77 74 77
0.50998937 0.15390812 0.87131915 96 90 92
0.51003804 0.14415537 0.88527643 88 86 84
0.50995280 0.17722924 0.83572448 107 104 103
0.51014108 0.16792998 0.85008912 102 98 98
0.50833429 0.16060018 0.86134916 96 93 93
0.51058447 0.19917651 0.79895773 107 103 102
0.50991514 0.19289180 0.81000794 105 102 101
0.51012978 0.18364414 0.82549899 109 104 103
0.51016608 0.21979794 0.75830969 110 107 103
0.51003362 0.21446096 0.76959954 108 102 103
0.51003262 0.20473048 0.78859227 105 101 101
0.51032351 0.23808139 0.71497046 113 109 109
0.51014693 0.23227545 0.72963479 110 109 105
0.50993412 0.22418576 0.74863223 109 106 103
0.51048665 0.25853772 0.65642810 117 117 114
0.50974559 0.25405105 0.67009423 122 121 118
0.50985457 0.24715195 0.68994102 113 111 109
0.50992896 0.24170696 0.70550783 112 110 106
0.51003804 0.27222370 0.63187414 75 83 91
0.50990940 0.26250526 0.64675425 126 127 123
0.50918610 0.29400755 0.51854446 0 0 0
0.51001472 0.29201283 0.52954949 0 0 0
0.50983886 0.28973649 0.55018360 0 0 0
0.50986097 0.28784886 0.56989944 0 0 0
0.50956412 0.28614238 0.58809385 0 0 0
0.51023740 0.28576770 0.61187841 85 112 123
0.50989537 0.28143769 0.62218644 73 97 111
0.53715919 -0.58083255 0.89243683 36 35 42
0.53647159 -0.56696758 0.85803032 30 25 35
0.53069165 -0.57073796 0.87157410 34 32 40
0.53029502 -0.56981385 0.89482781 40 40 43
0.53314866 -0.54327569 0.80948059 22 22 21
0.52832000 -0.55160399 0.83042415 28 26 30
0.52737898 -0.55894692 0.84700042 27 22 30
0.52789061 -0.55181704 0.89869335 47 47 48
0.53544669 -0.54569556 0.90053689 47 47 48
0.52124631 -0.53162374 0.79212710 19 19 19
0.52182989 -0.53705885 0.89965780 53 53 55
0.53078595 -0.52938571 0.90169006 53 53 54
0.52966478 -0.51003052 0.90361949 55 56 57
0.53003558 -0.49006184 0.90524040 58 58 59
0.53019931 -0.47006699 0.90678438 58 58 59
0.52980079 -0.44992688 0.90807387 60 59 60
0.52992006 -0.42978083 0.90925630 60 59 62
0.53027187 -0.40973449 0.91034657 62 61 62
0.52961480 -0.38982357 0.91123707 64 63 65
0.53013393 -0.36990364 0.91212096 65 65 66
0.53054948 -0.35005331 0.91293305 68 67 68
0.52920863 -0.33030234 0.91355665 69 67 69
0.52987622 -0.31027000 0.91446863 68 66 67
0.53044002 -0.29003101 0.91544159 69 68 69
0.52958449 -0.26963775 0.91617796 69 67 69
0.52984991 -0.24987273 0.91690668 68 65 67
0.53003904 -0.23029249 0.91772860 72 71 73
0.53022195 -0.21001550 0.91854748 72 70 72
0.52863288 -0.19025708 0.91925826 73 72 74
0.53735457 -0.18358033 0.92017450 71 68 70
0.52455107 -0.17202386 0.91973528 75 73 76
0.53346562 -0.16848475 0.92044818 74 72 74
0.52113764 -0.15949024 0.91997409 73 73 75
0.53044332 -0.15002862 0.92084497 73 72 74
0.53001942 -0.13002071 0.92153594 74 73 75
0.52940216 -0.11014838 0.92222332 72 71 74
0.52996400 -0.08980738 0.92288005 73 70 74
0.53032112 -0.06991570 0.92350200 73 71 74
0.53043071 -0.04984133 0.92403414 75 72 75
0.52955467 -0.03021488 0.92446116 76 75 77
0.52956667 -0.01007425 0.92497248 75 73 75
0.52984155 0.00991498 0.92545282 72 70 72
0.53000573 0.02991835 0.92573931 74 73 75
0.53010055 0.04992798 0.92590472 72 71 73
0.53014365 0.06993802 0.92598024 69 69 71
0.53018673 0.08995139 0.92605585 71 70 73
0.52986778 0.11857087 0.91806404 69 67 69
0.53011634 0.10829788 0.92489551 53 53 56
0.52999891 0.13723409 0.89488016 77 74 77
0.52991718 0.12743382 0.90773436 72 70 74
0.53001005 0.15387961 0.87103181 89 88 89
0.53000675 0.14411732 0.88522208 82 81 82
0.52989744 0.17713634 0.83528633 107 100 100
0.53000402 0.16776379 0.84981054 102 98 97
0.53030234 0.16032109 0.86125912 94 93 93
0.53016820 0.19907260 0.79883423 107 102 102
0.53003802 0.19274990 0.80988787 105 101 98
0.53009098 0.18354747 0.82519181 105 100 97
0.53090565 0.21936410 0.75891663 108 106 105
0.52993216 0.21397755 0.77024125 105 101 101
0.52995552 0.20468102 0.78843759 106 104 101
0.53012574 0.23793098 0.71424636 112 110 108
0.53031366 0.23179828 0.73015280 110 108 104
0.53007913 0.22405242 0.74852349 111 108 105
0.53022363 0.25802532 0.65516487 115 114 113
0.52995570 0.25308498 0.66999721 121 120 116
0.52990683 0.24656111 0.68978047 114 111 108
0.53006728 0.24174671 0.70401288 112 110 107
0.52983161 0.27234773 0.63232247 57 61 68
0.52988943 0.26243732 0.64546195 124 125 122
0.52892174 0.29451488 0.51906113 0 0 0
0.53004488 0.29270738 0.52943120 0 0 0
0.52977775 0.29024914 0.54980941 0 0 0
0.52990165 0.28823825 0.56967418 0 0 0
0.52972776 0.28724554 0.58785782 2 2 3
0.53054668 0.28602193 0.61120631 98 127 138
0.52950698 0.28134277 0.62257455 63 86 102
0.55142278 -0.58240438 0.89240518 31 31 35
0.55391231 -0.56049914 0.83513427 37 37 36
0.54570149 -0.56486078 0.84873886 34 33 33
0.54595667 -0.57545453 0.87180212 31 29 37
0.54932127 -0.57151703 0.89746605 37 37 40
0.55428349 -0.56264216 0.90049649 39 39 42
0.54752981 -0.55584212 0.82713354 24 24 24
0.54081788 -0.55880148 0.89980602 43 43 45
0.55033729 -0.54985348 0.90177846 44 44 45
0.55022136 -0.52990378 0.90400056 49 49 50
0.54992422 -0.50996943 0.90595348 52 52 54
0.54981194 -0.48996648 0.90748359 54 53 54
0.55032984 -0.47018515 0.90904812 53 53 55
0.54975047 -0.44986194 0.91020122 60 60 60
0.55013258 -0.43011476 0.91136532 57 57 59
0.54988151 -0.41022988 0.91232742 58 57 59
0.54963693 -0.39029899 0.91325278 60 60 61
0.55024613 -0.37021244 0.91417174 61 61 62
0.55011731 -0.35013103 0.91494796 63 62 63
0.54964454 -0.32974454 0.91570749 62 61 63
0.55024530 -0.30988949 0.91668775 63 62 63
0.54990318 -0.29007153 0.91760996 64 63 64
0.54911405 -0.27038952 0.91836663 63 62 63
0.55882254 -0.26389649 0.92016957 56 55 56
0.54731107 -0.25013657 0.91878660 64 62 64
0.55775971 -0.24935716 0.92049298 58 56 58
0.54582240 -0.23054401 0.91928108 65 64 67
0.55542153 -0.22926645 0.92073614 66 65 67
0.54357066 -0.21217780 0.91965264 66 64 66
0.55249383 -0.20910752 0.92090392 63 62 64
0.54058222 -0.19803764 0.91991591 70 67 70
0.54994406 -0.18974247 0.92124097 67 66 69
0.55021973 -0.17003626 0.92188881 69 68 71
0.55023470 -0.15034384 0.92246596 68 67 70
0.54980467 -0.12952244 0.92325528 69 68 72
0.54977886 -0.10988054 0.92400838 67 66 69
0.55016743 -0.08998070 0.92466166 67 65 68
0.55054237 -0.07005145 0.92529200 67 65 68
0.54991953 -0.05007624 0.92559097 69 69 72
0.54962492 -0.02991001 0.92601842 68 66 69
0.54964549 -0.01009081 0.92647701 68 66 69
0.54987636 0.00993015 0.92686656 68 67 69
0.55012469 0.02996861 0.92728479 68 66 69
0.55030666 0.05001899 0.92759101 66 65 68
0.55026764 0.07005435 0.92752587 63 61 65
0.55020566 0.09008377 0.92742231 63 61 63
0.54713945 0.11852670 0.91862602 72 72 75
0.55028750 0.10886696 0.92540508 58 57 63
0.54997170 0.13721823 0.89525137 75 73 75
0.55013788 0.12703837 0.90879327 72 71 74
0.55001728 0.15385768 0.87087569 88 85 86
0.55009187 0.14417433 0.88527658 79 78 80
0.55036511 0.17684437 0.83527677 106 103 101
0.54985767 0.16745682 0.84978660 96 94 92
0.55020400 0.16026435 0.86095435 91 89 88
0.54994325 0.19902300 0.79844424 102 96 98
0.55011128 0.19218374 0.81038125 105 101 100
0.54991244 0.18295787 0.82569683 110 107 106
0.55028218 0.21919869 0.75850642 109 108 107
0.55013265 0.21387190 0.76969364 105 102 102
0.54997946 0.20456363 0.78805692 104 99 100
0.55041853 0.23758006 0.71321575 109 107 105
0.55020130 0.23143003 0.72967588 107 104 103
0.55016735 0.22378542 0.74825515 108 106 106
0.55051433 0.25726433 0.65434425 117 117 117
0.55002328 0.25186313 0.66999991 121 121 119
0.54981013 0.24555047 0.69000541 112 109 106
0.54952997 0.24111760 0.70352860 111 107 104
0.54977648 0.27267296 0.63348049 55 63 73
0.54952812 0.26226949 0.64500404 126 127 128
0.55026627 0.29494454 0.51915161 0 0 0
0.55008518 0.29303169 0.52947487 0 0 0
0.55013764 0.29073592 0.55010142 0 0 0
0.54979209 0.28893418 0.56982717 0 0 0
0.55010410 0.28872183 0.58922161 19 25 28
0.54999306 0.28666187 0.61039361 72 101 116
0.55090064 0.28146477 0.62294686 86 116 126
0.57033189 -0.58299790 0.87166801 32 32 32
0.57057294 -0.58552850 0.89213218 35 33 37
0.56468853 -0.57191419 0.85214996 35 35 34
0.57103854 -0.57120562 0.89689785 36 36 38
0.56489088 -0.56271710 0.90049776 33 33 37
0.57698232 -0.55311542 0.89923408 41 40 42
0.56813010 -0.54895833 0.90161126 37 37 39
0.57033884 -0.52988985 0.90357007 42 42 44
0.57039034 -0.51001016 0.90586930 45 44 46
0.57049237 -0.49014555 0.90775905 46 45 49
0.57042211 -0.47012670 0.90967485 47 47 48
0.57053740 -0.44985141 0.91122903 47 47 48
0.57052750 -0.42992768 0.91244667 48 48 52
0.57038394 -0.40970367 0.91329836 50 50 50
0.57067553 -0.38984492 0.91402962 50 49 51
0.57054093 -0.37009050 0.91473212 50 50 51
0.57009324 -0.35007142 0.91542626 52 52 54
0.57035955 -0.33007426 0.91618298 55 54 57
0.57074556 -0.30995065 0.91687530 55 54 55
0.57008030 -0.29008387 0.91774602 55 55 56
0.57152969 -0.27065603 0.91820818 57 56 57
0.56277398 -0.26533661 0.92020690 50 49 49
0.57382938 -0.25008763 0.91836368 61 60 61
0.56421922 -0.24981454 0.92055810 53 52 53
0.57551896 -0.23053218 0.91856213 65 64 66
0.56512530 -0.22935330 0.92096692 56 55 58
0.57610415 -0.21079260 0.91907243 64 64 67
0.56649632 -0.20966439 0.92121903 56 57 61
0.57759059 -0.19032294 0.91939140 65 64 69
0.56781432 -0.18976387 0.92145998 58 57 62
0.57893473 -0.17083604 0.91964550 69 68 71
0.56911201 -0.16978794 0.92181445 61 59 62
0.57989228 -0.15549357 0.91984863 67 67 69
0.57031110 -0.15004389 0.92224099 61 60 64
0.56981696 -0.12987566 0.92309354 63 63 67
0.57046225 -0.11002023 0.92365254 66 64 70
0.57060486 -0.08992972 0.92413336 67 66 70
0.57087318 -0.06999671 0.92456813 66 66 71
0.56979241 -0.05011272 0.92530022 64 63 68
0.56997111 -0.03008259 0.92569661 63 63 67
0.57020574 -0.01008654 0.92607772 64 63 68
0.57044941 0.00992588 0.92647340 63 63 65
0.57060880 0.02995039 0.92673320 63 63 66
0.57069907 0.04998055 0.92688091 62 62 66
0.57054719 0.06998633 0.92663442 61 61 63
0.57016329 0.08994579 0.92601178 61 61 65
0.57229008 0.11840562 0.91825766 64 64 67
0.56991183 0.10823528 0.92404463 57 57 64
0.56992917 0.13727408 0.89545862 75 72 75
0.56982134 0.12715049 0.90886954 67 67 70
0.56992110 0.15384221 0.87082193 84 81 82
0.57023061 0.14416490 0.88551566 76 76 78
0.56995541 0.17650351 0.83551377 101 98 97
0.57001266 0.16710855 0.84995115 94 92 92
0.57015504 0.16022542 0.86074521 90 89 90
0.56979930 0.19882928 0.79776250 101 94 96
0.57002553 0.19206172 0.80980021 104 99 99
0.57003662 0.18293226 0.82532126 100 99 98
0.57080675 0.21891984 0.75774934 103 101 101
0.56976707 0.21310478 0.77006308 103 99 99
0.57019676 0.20397287 0.78806293 99 96 94
0.56999379 0.23709694 0.71192948 110 108 106
0.57004672 0.23051703 0.72989758 108 105 104
0.57032154 0.22325774 0.74789228 104 102 102
0.57034493 0.25690539 0.65371351 115 114 113
0.56994874 0.25087431 0.66987522 118 117 114
0.56988079 0.24454836 0.69003254 110 108 104
0.56915554 0.24065519 0.70203798 112 108 105
0.56982951 0.27319961 0.63484699 43 49 60
0.57023754 0.26266314 0.64420062 121 123 121
0.57206476 0.29411931 0.51860670 0 0 0
0.56991235 0.29273717 0.52952512 0 0 0
0.57006180 0.29062740 0.55004964 0 0 0
0.57007975 0.28942213 0.56996217 0 0 0
0.56986744 0.29015035 0.59091700 51 64 68
0.57002049 0.28723127 0.61042156 97 125 138
0.57070790 0.28185976 0.62390519 69 95 108
0.58692082 -0.58978749 0.87576324 34 33 33
0.59024815 -0.58754650 0.88726829 39 38 39
0.59024356 -0.57013343 0.89071358 42 42 43
0.59034735 -0.55010812 0.89444905 43 42 44
0.59149542 -0.53049668 0.89610548 46 45 46
0.58222481 -0.52622442 0.90078225 46 45 46
0.59448289 -0.51063841 0.89716652 48 47 48
0.58455207 -0.50921889 0.90191882 47 46 47
0.59681769 -0.49128060 0.89830993 51 50 50
0.58722594 -0.48940517 0.90295291 50 49 50
0.59869618 -0.47342865 0.89941867 49 48 48
0.58926332 -0.46954622 0.90409275 51 50 51
0.59034917 -0.44993696 0.90538370 52 51 52
0.58996466 -0.42999248 0.90692832 54 53 53
0.59031239 -0.40998706 0.90778420 56 55 55
0.59065446 -0.39002123 0.90834513 56 55 57
0.58970119 -0.36997467 0.90921335 58 57 57
0.58999607 -0.35003341 0.90956722 60 59 60
0.59019686 -0.32994848 0.91003095 61 60 61
0.59038754 -0.31003150 0.91074662 63 62 62
0.58992882 -0.28975955 0.91171963 63 62 62
0.59020490 -0.26994427 0.91238433 64 64 66
0.59042696 -0.25012352 0.91298685 65 64 66
0.59018280 -0.22996772 0.91381581 66 65 70
0.59000984 -0.20993471 0.91461082 68 67 71
0.59047138 -0.19013704 0.91523244 67 66 70
0.59008532 -0.17000257 0.91611566 67 67 71
0.59039071 -0.14992058 0.91662008 68 68 71
0.58010308 -0.14441680 0.92018300 66 66 72
0.59152075 -0.13017856 0.91682201 71 70 74
0.58094361 -0.12940579 0.92036957 67 67 71
0.59206152 -0.11023242 0.91721140 71 70 73
0.58198755 -0.10956550 0.92064888 72 71 77
0.59267028 -0.09007646 0.91749104 72 72 76
0.58288185 -0.08960593 0.92080540 72 72 76
0.59353410 -0.07034267 0.91770194 73 73 77
0.58383814 -0.06973105 0.92105949 72 72 77
0.59462049 -0.04995049 0.91790070 72 72 77
0.58432616 -0.04938805 0.92150420 72 71 76
0.59545170 -0.02983575 0.91810661 72 72 75
0.58504857 -0.02995312 0.92171610 70 70 74
0.59582014 -0.01022143 0.91845786 70 69 73
0.58601377 -0.01004182 0.92198314 68 67 72
0.59583262 0.00984169 0.91869100 73 71 75
0.58620462 0.00988063 0.92228385 69 69 72
0.59645109 0.02954083 0.91853084 69 69 73
0.58686697 0.02987637 0.92216164 69 69 73
0.59620086 0.05077930 0.91855874 74 74 77
0.58677616 0.04968677 0.92218591 70 70 73
0.59576317 0.07044659 0.91801581 71 71 74
0.58564574 0.06951383 0.92211719 68 68 71
0.59464032 0.09031128 0.91766558 70 69 74
0.58462722 0.08988160 0.92175793 66 65 70
0.59214346 0.11131815 0.91670885 58 58 62
0.58337681 0.10703554 0.92109109 55 55 61
0.59000444 0.13726416 0.89539090 70 69 72
0.59006933 0.12723563 0.90736198 70 69 72
0.58996348 0.15381178 0.87090894 79 78 78
0.59014551 0.14422430 0.88569723 73 72 75
0.58992139 0.17642680 0.83515773 96 94 93
0.59000396 0.16696479 0.84996893 91 88 88
0.59018525 0.16021076 0.86066644 84 81 82
0.59056178 0.19836780 0.79738421 101 96 96
0.58997028 0.19131360 0.81006744 99 96 96
0.58992649 0.18271641 0.82483666 97 96 95
0.58987485 0.21863220 0.75652206 102 98 94
0.58985085 0.21240737 0.76996032 103 98 97
0.58981286 0.20381379 0.78712191 102 96 97
0.59018140 0.23668962 0.71063428 109 108 105
0.59003413 0.22945874 0.73023792 109 105 102
0.58984359 0.22294127 0.74647858 105 102 100
0.58999495 0.25663444 0.65358962 117 117 114
0.58999254 0.25017135 0.66950682 117 117 113
0.59019863 0.24383968 0.68972768 110 107 106
0.58580293 0.24043623 0.70063938 111 110 106
0.58926376 0.27555393 0.63539185 49 59 71
0.59061774 0.26518726 0.64332446 87 90 93
0.58977354 0.29324260 0.51773355 0 0 0
0.59005091 0.29187746 0.52945019 0 0 0
0.58987770 0.29013387 0.54977135 0 0 0
0.58991827 0.28922008 0.56881577 0 0 0
0.58984899 0.29139902 0.59174492 62 78 85
0.59007367 0.28802297 0.60989351 104 136 148
0.59021151 0.28218373 0.62484042 97 129 141
0.61210254 -0.58570477 0.87630000 43 41 41
0.60337954 -0.58916246 0.88221727 41 40 41
0.61450133 -0.57161793 0.87672524 43 43 44
0.60538179 -0.56864060 0.88316233 44 44 45
0.61756626 -0.55181356 0.87849279 47 47 48
0.60793070 -0.54958518 0.88491716 46 46 47
0.61934101 -0.53409767 0.87943417 46 46 47
0.60969163 -0.52985109 0.88607572 47 46 48
0.61017130 -0.51012018 0.88818204 49 49 50
0.61021107 -0.48999328 0.89069664 51 50 51
0.61025377 -0.47001902 0.89323257 52 51 53
0.60010496 -0.46096556 0.90008783 52 51 53
0.61130828 -0.45029785 0.89482108 55 54 54
0.60138191 -0.44827713 0.90060269 54 53 53
0.61258996 -0.43034453 0.89562237 56 56 56
0.60240511 -0.42925481 0.90139847 57 56 55
0.61360096 -0.41008828 0.89604862 58 58 58
0.60354232 -0.40976401 0.90181703 57 56 56
0.61443246 -0.39028995 0.89629739 59 59 59
0.60446067 -0.38970801 0.90208008 58 57 58
0.61447205 -0.37028190 0.89690410 61 61 62
0.60442149 -0.36973144 0.90261282 60 60 60
0.61522980 -0.35012697 0.89712169 64 64 65
0.60511288 -0.34994830 0.90282949 63 62 63
0.61602569 -0.33011873 0.89730404 65 65 68
0.60597518 -0.33002154 0.90297120 64 63 64
0.61653521 -0.31021599 0.89797983 66 66 69
0.60675942 -0.30981750 0.90346001 65 65 68
0.61758024 -0.28989678 0.89835523 67 67 70
0.60738274 -0.29012913 0.90399451 65 65 68
0.61802340 -0.27043400 0.89889038 66 66 68
0.60831260 -0.26997840 0.90430952 66 66 68
0.61869803 -0.25101946 0.89917105 65 65 68
0.60903242 -0.24971704 0.90456482 66 66 69
0.61920941 -0.23156601 0.89944381 66 66 68
0.60914582 -0.22977922 0.90513915 66 65 69
0.61996342 -0.21892044 0.89955676 72 72 75
0.60998676 -0.20996881 0.90553561 69 68 72
0.61030517 -0.18992110 0.90624088 67 67 70
0.61005930 -0.17019398 0.90720833 68 67 72
0.60999163 -0.15001784 0.90796802 69 68 71
0.61034022 -0.12996206 0.90843432 71 70 73
0.61047816 -0.11003158 0.90899418 70 69 74
0.60983317 -0.09007544 0.90991166 71 71 74
0.61001354 -0.06974975 0.91035158 73 73 76
0.61029737 -0.05001148 0.91077042 73 74 77
0.61066489 -0.03030803 0.91107737 72 72 75
0.60966076 -0.00985321 0.91192005 72 71 74
0.60982674 0.01010840 0.91195050 71 71 74
0.60945241 0.02978790 0.91216721 71 71 74
0.60986247 0.05010151 0.91183688 72 72 75
0.61048657 0.07018109 0.91069162 72 71 75
0.60997497 0.09007054 0.91013433 73 73 77
0.61001372 0.10991435 0.90884859 64 64 68
0.61072881 0.13593536 0.89532027 73 73 76
0.60972344 0.12583007 0.90487438 64 64 69
0.61008456 0.15376255 0.87063112 76 73 75
0.61012456 0.14406794 0.88537503 75 75 79
0.61029125 0.17650231 0.83438088 91 89 88
0.61004857 0.16697996 0.84960371 86 82 83
0.61009063 0.16016442 0.86041749 82 78 80
0.60992002 0.19842213 0.79614117 98 93 92
0.61000936 0.19083905 0.80983555 96 94 92
0.60931349 0.18240597 0.82457428 92 89 88
0.61030638 0.21794605 0.75584638 101 100 100
0.60984722 0.21148166 0.77005684 105 100 100
0.60993614 0.20346562 0.78641537 100 96 96
0.61744233 0.23997515 0.69875295 109 109 102
0.61011209 0.23635099 0.70966226 108 107 106
0.61020223 0.22889148 0.72971714 107 106 103
0.60948925 0.22238468 0.74570407 103 101 100
0.60989236 0.25659181 0.65482724 115 116 114
0.60998405 0.24954966 0.66956060 115 115 110
0.60986336 0.24306303 0.68996100 109 109 106
0.60964938 0.27719138 0.63595749 59 80 94
0.61014626 0.26703403 0.64501113 78 82 88
0.60939207 0.29363881 0.51840452 0 0 0
0.60989503 0.29161623 0.52956636 0 0 0
0.60994850 0.28973081 0.55007872 0 0 0
0.60985103 0.28890100 0.56819724 0 0 0
0.61064357 0.29189452 0.59236299 68 93 107
0.60992901 0.28833462 0.60989906 85 112 128
0.61019569 0.28264655 0.62598878 94 126 139
0.62739445 -0.58298123 0.86775078 44 43 43
0.63016853 -0.56988812 0.86774632 44 44 44
0.63020936 -0.54994841 0.87013773 46 45 47
0.63025683 -0.52997529 0.87202325 48 47 49
0.62027277 -0.52148761 0.88013983 48 48 50
0.63136974 -0.51030255 0.87327596 49 49 51
0.62149614 -0.50739752 0.88107444 51 51 52
0.63297763 -0.49031994 0.87449196 53 53 54
0.62305450 -0.48889814 0.88228026 53 53 53
0.63474489 -0.47039392 0.87562229 55 55 56
0.62481119 -0.46961217 0.88352913 55 55 56
0.63617850 -0.45055503 0.87664905 57 56 57
0.62622029 -0.44984272 0.88468977 56 56 57
0.63710704 -0.43035633 0.87749910 56 56 57
0.62718835 -0.42975379 0.88555131 57 56 58
0.63775019 -0.41074603 0.87816943 59 60 60
0.62801953 -0.40989400 0.88596804 59 59 59
0.63828571 -0.39045697 0.87857703 61 62 63
0.62849389 -0.38980299 0.88637745 61 61 62
0.63884928 -0.37090151 0.87894812 65 65 68
0.62883742 -0.37000498 0.88684513 63 63 66
0.63914277 -0.35177112 0.87947454 65 65 68
0.62950979 -0.34986238 0.88708346 64 64 66
0.63981533 -0.33197013 0.87981846 65 65 70
0.63008974 -0.32987060 0.88741664 64 65 68
0.62992232 -0.30999806 0.88845852 65 65 69
0.63041819 -0.29007199 0.88922774 67 67 71
0.63007186 -0.26994257 0.89056778 66 66 69
0.63034567 -0.25003552 0.89118531 69 69 72
0.63019013 -0.23003490 0.89206058 70 70 73
0.63037469 -0.21007542 0.89289118 71 71 74
0.62032752 -0.20349169 0.90008505 68 68 71
0.63081833 -0.19016650 0.89356909 71 71 75
0.62085064 -0.18887959 0.90042084 68 68 70
0.63170338 -0.17002270 0.89397008 72 72 75
0.62148243 -0.16874100 0.90094032 69 70 74
0.63205505 -0.14995026 0.89469706 73 73 77
0.62197421 -0.15002821 0.90134624 72 72 75
0.63286735 -0.13008698 0.89488629 72 72 75
0.62278123 -0.12953071 0.90153116 71 71 73
0.63347603 -0.11030831 0.89507604 72 72 76
0.62333038 -0.10891949 0.90190201 71 71 74
0.63354776 -0.09030921 0.89561250 73 74 77
0.62342144 -0.08970031 0.90247212 73 72 75
0.63412006 -0.07035589 0.89585889 74 75 77
0.62420080 -0.06994713 0.90254452 72 72 75
0.63462943 -0.05003146 0.89613342 72 71 73
0.62457456 -0.05040703 0.90286006 71 71 73
0.63510488 -0.03013581 0.89643837 72 72 75
0.62539677 -0.03012266 0.90292297 72 72 74
0.63513128 -0.00976831 0.89683602 74 73 76
0.62499888 -0.00984086 0.90347843 72 71 75
0.63523080 0.01038439 0.89697642 74 73 77
0.62506364 0.01046071 0.90357197 71 71 74
0.63523753 0.03053923 0.89698577 74 74 76
0.62508450 0.03006434 0.90351834 71 71 73
0.63529903 0.05035771 0.89687871 75 75 78
0.62517011 0.04929810 0.90331182 72 72 74
0.63463298 0.07019577 0.89677935 74 73 77
0.62491022 0.06944881 0.90279238 73 73 75
0.63409739 0.09016174 0.89618594 73 73 77
0.62392131 0.08966371 0.90248388 73 74 78
0.63300938 0.11017314 0.89578761 72 72 76
0.62311106 0.10918473 0.90180287 71 71 75
0.63076841 0.13016141 0.89345374 61 62 66
0.62175867 0.12380644 0.90089202 56 56 60
0.63765452 0.15999055 0.85948344 78 78 80
0.63029904 0.15286425 0.87054643 79 78 80
0.62951756 0.14317697 0.88398428 75 76 78
0.62983701 0.17673647 0.83343080 86 84 83
0.62999183 0.16661910 0.84957674 78 77 78
0.62247561 0.16009840 0.86006284 79 76 79
0.63008364 0.19777330 0.79600408 96 93 94
0.62976368 0.19010984 0.81007560 93 91 90
0.63025793 0.18249305 0.82361674 87 85 85
0.63017175 0.21790902 0.75446381 101 101 100
0.63023633 0.21076156 0.76987952 102 99 99
0.62944277 0.20300570 0.78573421 100 97 98
0.63108794 0.23950597 0.69877031 110 111 104
0.62986024 0.23553161 0.71020469 107 107 103
0.63005695 0.22808046 0.73032719 104 103 100
0.62958040 0.22216383 0.74477170 103 100 100
0.62922056 0.25730176 0.65638234 116 117 113
0.63021677 0.25000468 0.66912546 117 117 113
0.62998212 0.24295340 0.68837312 112 111 108
0.62973114 0.27788507 0.63657704 104 135 145
0.63010589 0.26829211 0.64696614 83 94 101
0.62402756 0.29458415 0.51921992 0 0 0
0.63018142 0.29265103 0.52980323 0 0 0
0.63004912 0.28980144 0.55020896 0 0 0
0.62968590 0.28911494 0.56805424 0 0 0
0.63056521 0.29153774 0.59148666 110 138 149
0.62994994 0.28804436 0.61003039 103 133 144
0.63034433 0.28284278 0.62672513 102 131 141
0.64050407 -0.58037499 0.86031777 45 45 45
0.65000491 -0.56841900 0.85373336 48 48 48
0.64105991 -0.56738748 0.86073197 46 45 46
0.65201974 -0.55031223 0.85346827 50 50 51
0.64206317 -0.54938974 0.86150514 46 46 47
0.65295419 -0.53011127 0.85402317 52 52 54
0.64286344 -0.52968688 0.86230510 50 49 51
0.65393991 -0.51022046 0.85494082 53 53 55
0.64400080 -0.50950313 0.86329266 51 51 52
0.65519756 -0.49028478 0.85577642 55 56 56
0.64523085 -0.48969562 0.86442917 54 54 55
0.65627988 -0.47049619 0.85674906 57 58 59
0.64639376 -0.46960933 0.86568295 56 56 58
0.65748431 -0.45053747 0.85767385 58 59 61
0.64765291 -0.44974244 0.86668648 58 58 60
0.65836393 -0.43091755 0.85856291 59 60 61
0.64853547 -0.42986612 0.86745524 59 59 60
0.65910076 -0.41211256 0.85914619 60 61 63
0.64921359 -0.40980290 0.86813789 60 61 63
0.65945285 -0.39352941 0.85981959 64 64 66
0.64987513 -0.38986000 0.86853656 62 62 65
0.65017541 -0.36999488 0.86928660 64 65 67
0.65012471 -0.34995674 0.87024286 66 66 69
0.65034005 -0.33008180 0.87100887 65 66 70
0.65055478 -0.30996173 0.87178938 66 66 69
0.64025791 -0.31013360 0.88042706 64 65 68
0.65118606 -0.29005827 0.87235534 69 69 73
0.64117969 -0.28913773 0.88087289 68 68 70
0.65199578 -0.26997619 0.87281407 69 69 73
0.64179723 -0.27013582 0.88149856 66 66 70
0.65241983 -0.25007003 0.87347954 69 69 71
0.64257647 -0.24988010 0.88178918 68 68 70
0.65302445 -0.23014137 0.87388865 70 70 72
0.64277009 -0.22972820 0.88248927 71 71 73
0.65359678 -0.21012170 0.87455605 70 70 73
0.64373761 -0.20973746 0.88279385 69 69 72
0.65433913 -0.19032220 0.87515955 68 67 70
0.64430320 -0.18972914 0.88346130 70 70 73
0.65516368 -0.17017448 0.87574843 69 69 71
0.64523481 -0.16986641 0.88387891 72 72 76
0.65557019 -0.15008759 0.87651378 71 71 74
0.64557664 -0.14998535 0.88465551 71 71 74
0.65643556 -0.12999959 0.87669449 71 71 74
0.64639620 -0.12997990 0.88479911 72 72 75
0.65652227 -0.11014241 0.87737717 73 73 76
0.64676289 -0.10997158 0.88514107 72 72 75
0.65713488 -0.08994867 0.87756785 72 72 75
0.64705300 -0.08990108 0.88550885 71 72 75
0.65760887 -0.07105521 0.87797974 72 72 75
0.64762368 -0.06974371 0.88583082 72 72 75
0.65792676 -0.05057232 0.87862241 74 71 73
0.64838079 -0.04967322 0.88601664 74 72 75
0.65878907 -0.03007547 0.87875878 72 72 74
0.64869477 -0.02945364 0.88649587 72 72 75
0.65880569 -0.01141447 0.87937176 73 73 75
0.64896861 -0.00954435 0.88684816 71 71 73
0.65933197 0.01018223 0.87948179 75 75 77
0.64948033 0.01026730 0.88683778 74 74 76
0.65950800 0.02995159 0.87971661 74 73 75
0.64959398 0.03019915 0.88699233 73 73 75
0.65960576 0.04972545 0.87984700 74 74 75
0.64962711 0.05013159 0.88703706 74 74 76
0.65961891 0.06949618 0.87986455 75 74 76
0.64952139 0.07005089 0.88689166 74 74 76
0.65939968 0.08999620 0.87957211 76 74 78
0.64966213 0.08987414 0.88612580 74 74 76
0.65874396 0.11175883 0.87952734 75 75 78
0.64909806 0.10981547 0.88578096 75 76 79
0.65788831 0.13133701 0.87869243 65 64 68
0.64822417 0.12960414 0.88460224 61 60 64
0.64998981 0.15991907 0.85909948 77 76 79
0.65088422 0.15075116 0.87078392 73 73 75
0.64542885 0.14207200 0.88213333 64 65 67
0.64987193 0.17651058 0.83317800 80 78 79
0.64980465 0.16660457 0.84903272 79 78 79
0.64987258 0.19753731 0.79535828 93 91 92
0.65012158 0.18989654 0.80944470 89 86 86
0.64972918 0.18236435 0.82303611 82 81 83
0.65039324 0.21758204 0.75423954 100 99 97
0.64973604 0.21022006 0.77003736 100 98 99
0.64995488 0.20255200 0.78549575 97 96 97
0.64986506 0.23930224 0.69855359 103 102 102
0.64989093 0.23519683 0.70985641 103 101 101
0.65002692 0.22789066 0.72954117 100 99 97
0.64989719 0.22205331 0.74393130 102 100 97
0.64910418 0.25825818 0.65776581 115 118 116
0.65026048 0.25097501 0.66925365 115 117 111
0.64990835 0.24290563 0.68837415 103 100 100
0.64983342 0.27823331 0.63711951 71 98 114
0.65012364 0.26889086 0.64840445 60 68 77
0.64732139 0.29288734 0.53372362 0 0 0
0.65002752 0.29035809 0.54959431 0 0 0
0.65038052 0.28964558 0.56819408 8 11 12
0.65006161 0.29046994 0.59017817 107 135 145
0.64998137 0.28729927 0.60990688 105 136 147
0.64983729 0.28256289 0.62716129 102 134 145
0.67124994 -0.56239531 0.83634815 56 57 59
0.66307131 -0.56476102 0.84324055 50 50 51
0.67415986 -0.55044073 0.83515943 55 56 59
0.66423968 -0.54950889 0.84345950 53 53 54
0.67505969 -0.53039924 0.83591108 56 58 61
0.66505040 -0.52972485 0.84409031 53 54 57
0.67589361 -0.51053768 0.83668563 58 60 62
0.66602449 -0.50972687 0.84496486 57 58 61
0.67696205 -0.49078077 0.83755013 61 64 65
0.66710600 -0.48969614 0.84584925 58 59 61
0.67800184 -0.47083163 0.83842052 61 63 65
0.66812616 -0.46977599 0.84673931 60 62 64
0.67909884 -0.45173894 0.83927202 61 62 65
0.66925782 -0.44985001 0.84763613 60 61 63
0.67004579 -0.42995509 0.84860164 61 62 64
0.66997299 -0.40991655 0.84995382 63 63 67
0.67001296 -0.39012719 0.85099696 65 66 69
0.67034992 -0.37009442 0.85176766 64 65 69
0.66036957 -0.36404830 0.86058413 64 65 68
0.67092231 -0.35016955 0.85230298 66 67 72
0.66092347 -0.35007366 0.86076757 65 65 68
0.67161294 -0.33012966 0.85270194 65 66 71
0.66152477 -0.32901398 0.86124272 65 65 70
0.67199806 -0.31029876 0.85337093 68 69 72
0.66206056 -0.30940630 0.86175814 67 67 70
0.67286756 -0.29021115 0.85375515 69 70 73
0.66276345 -0.28916244 0.86233576 69 69 72
0.67334595 -0.27019092 0.85451989 71 71 75
0.66350808 -0.26956876 0.86283628 70 70 75
0.67409939 -0.25023322 0.85495699 69 70 73
0.66394648 -0.24976647 0.86354230 72 72 75
0.67465650 -0.22994726 0.85550997 73 75 77
0.66477195 -0.22980246 0.86384943 73 73 76
0.67536827 -0.21018569 0.85612430 73 73 77
0.66531176 -0.21002675 0.86458063 72 72 75
0.67619485 -0.19030411 0.85675570 73 75 78
0.66620743 -0.18980971 0.86514604 72 72 75
0.67697697 -0.17002598 0.85739331 75 76 78
0.66700629 -0.16998721 0.86569225 74 74 76
0.67752774 -0.15026275 0.85808558 73 74 77
0.66754745 -0.14994773 0.86639069 73 73 76
0.67845297 -0.13009674 0.85842581 74 74 76
0.66845661 -0.12998680 0.86670084 73 73 75
0.67865188 -0.11122119 0.85910318 73 73 75
0.66889034 -0.10981884 0.86721612 72 72 74
0.67929034 -0.09129773 0.85942217 71 71 74
0.66924822 -0.08990057 0.86770530 72 71 75
0.67995958 -0.07843600 0.85944158 72 73 73
0.67014624 -0.06984406 0.86788230 72 72 75
0.67007692 -0.05010745 0.86891541 73 72 74
0.66992114 -0.03011769 0.86998788 74 74 77
0.67012285 -0.00989088 0.87065841 75 75 77
0.66986101 0.01008982 0.87148557 75 75 77
0.67021915 0.02979478 0.87175975 76 76 78
0.67022228 0.04978108 0.87214757 75 74 76
0.66983789 0.07008432 0.87263260 75 74 77
0.66984926 0.09005387 0.87238827 76 75 78
0.66994143 0.11015641 0.87200962 76 76 79
0.67011840 0.12998192 0.87096955 71 71 74
0.67126190 0.15910969 0.85859337 76 76 79
0.66995970 0.14886639 0.86696721 64 64 67
0.66958397 0.17596090 0.83342695 82 81 82
0.67015124 0.16609991 0.84912501 79 79 81
0.66993760 0.19753195 0.79510642 87 86 86
0.67014080 0.18919776 0.81027850 81 79 80
0.66999639 0.18174955 0.82346485 83 81 83
0.67009626 0.21733534 0.75435511 95 94 92
0.66990016 0.20992369 0.77027939 95 92 90
0.66986485 0.20246239 0.78526844 89 89 87
0.66978747 0.23941902 0.69883754 102 100 97
0.66984629 0.23522042 0.70988401 99 97 96
0.66995694 0.22775513 0.72940164 98 98 93
0.66990359 0.22195045 0.74358615 95 96 91
0.66903447 0.25908187 0.65863878 121 125 124
0.67006748 0.25192156 0.66928438 115 116 112
0.67006344 0.24316221 0.68864589 100 98 96
0.67045425 0.27836443 0.63634773 75 110 126
0.66998343 0.26901376 0.64937593 58 70 78
0.66061195 0.29239641 0.53927612 0 0 0
0.66789114 0.29033482 0.55213616 0 0 0
0.66997845 0.29013743 0.56961146 18 24 27
0.67002535 0.28924207 0.59016614 96 125 139
0.66994477 0.28588705 0.61001886 82 109 127
0.66964751 0.28215463 0.62651674 105 135 147
0.69650336 -0.54608352 0.81745835 59 61 66
0.68615082 -0.54839727 0.82564009 57 58 61
0.69740608 -0.53052352 0.81795701 61 63 68
0.68763934 -0.52977838 0.82591168 60 62 66
0.69830453 -0.51104605 0.81859554 61 64 68
0.68838832 -0.50981809 0.82668397 61 63 67
0.69929793 -0.49231769 0.81943818 61 64 66
0.68948435 -0.48988009 0.82752375 61 64 67
0.69008401 -0.47004513 0.82874167 62 64 67
0.69011791 -0.45005413 0.83052616 62 63 67
0.69039647 -0.43017289 0.83198922 63 64 68
0.68073832 -0.42450288 0.84023407 66 67 71
0.69106409 -0.41013981 0.83291735 65 66 70
0.68100451 -0.40886224 0.84092219 63 66 69
0.69176486 -0.39020974 0.83349870 67 67 70
0.68178605 -0.38875859 0.84139644 67 68 70
0.69252739 -0.37012246 0.83393086 66 67 70
0.68247353 -0.36951434 0.84188978 66 67 70
0.69295560 -0.35016229 0.83454084 69 72 75
0.68298647 -0.34934155 0.84244140 69 71 76
0.69363116 -0.33025515 0.83505613 68 70 72
0.68367997 -0.32981059 0.84290228 69 72 74
0.69433626 -0.31011124 0.83556806 70 71 75
0.68431652 -0.30961972 0.84343229 71 72 75
0.69498992 -0.29030291 0.83603656 70 70 74
0.68506553 -0.28988609 0.84386077 70 70 73
0.69573889 -0.27006315 0.83648003 72 71 74
0.68564479 -0.26997185 0.84449924 71 71 74
0.69620048 -0.25035696 0.83707478 71 72 74
0.68633474 -0.24971027 0.84493229 70 70 74
0.69694504 -0.23038338 0.83743168 72 72 76
0.68686854 -0.22983454 0.84547942 73 74 77
0.69753528 -0.21022751 0.83814837 74 75 78
0.68759996 -0.20978770 0.84609426 74 74 76
0.69825910 -0.19087736 0.83866977 76 77 79
0.68838767 -0.18977341 0.84671072 75 76 78
0.69907538 -0.17103167 0.83918979 73 73 76
0.68918273 -0.16987851 0.84730061 73 75 77
0.69931617 -0.15503888 0.83987167 74 74 76
0.68975510 -0.14981643 0.84798627 74 75 77
0.69021735 -0.13012075 0.84871844 75 75 78
0.69002989 -0.11003784 0.84984615 75 76 77
0.69002713 -0.09010125 0.85078027 75 74 76
0.69018815 -0.07007965 0.85164317 75 75 77
0.69056186 -0.04993774 0.85252051 75 76 78
0.68070204 -0.04865270 0.86049091 75 75 77
0.69140516 -0.03009419 0.85317832 76 77 80
0.68127117 -0.03021503 0.86110043 76 75 79
0.69207634 -0.01018141 0.85386320 76 76 78
0.68207202 -0.00957750 0.86155878 76 76 78
0.69272932 0.00981334 0.85430282 75 75 77
0.68259982 0.01019495 0.86196537 76 76 77
0.69311189 0.02953306 0.85488494 77 77 79
0.68324627 0.03049795 0.86221972 77 77 79
0.69367651 0.05002799 0.85511925 76 76 77
0.68357928 0.05054963 0.86253191 76 76 78
0.69375969 0.06994409 0.85554571 77 77 79
0.68358331 0.06994034 0.86290233 79 79 82
0.69412394 0.08997951 0.85561272 76 76 78
0.68385488 0.08985953 0.86275435 77 77 79
0.69337394 0.10999742 0.85603423 78 78 80
0.68357490 0.10959475 0.86274267 77 78 79
0.69373982 0.13011573 0.85553519 76 76 78
0.68367482 0.12995380 0.86225928 75 75 77
0.69189342 0.15055286 0.85517040 63 63 65
0.68251741 0.14708492 0.86153337 61 60 63
0.68975528 0.17589918 0.83310415 80 80 81
0.69009553 0.16576992 0.84754354 73 72 74
0.68996099 0.19754874 0.79548082 82 80 80
0.68984934 0.18971741 0.80981682 80 78 79
0.69063163 0.18213292 0.82301342 79 80 80
0.68972796 0.21753499 0.75422128 92 90 88
0.69013582 0.21015811 0.77015915 87 86 86
0.68991162 0.20257224 0.78548255 81 81 80
0.68674821 0.23992628 0.69861066 97 97 92
0.68995453 0.23578276 0.70968477 97 95 92
0.68995418 0.22793151 0.72982144 98 98 94
0.68995458 0.22205299 0.74381692 92 92 86
0.68997831 0.25957741 0.65956646 93 95 99
0.69000869 0.25286006 0.66892251 116 117 115
0.69019552 0.24350571 0.68877348 103 101 97
0.69062398 0.27797601 0.63476753 93 123 135
0.68995159 0.26870182 0.65047052 52 64 75
0.68207354 0.28963852 0.55821489 0 0 0
0.68787127 0.29047054 0.57074961 20 27 33
0.68997233 0.28912722 0.58998205 91 118 134
0.69001741 0.28450873 0.61006705 115 143 154
0.68908508 0.28138125 0.62494709 98 129 139
0.70614851 -0.54326871 0.80946980 59 62 64
0.71906230 -0.53418720 0.79924383 62 68 70
0.70954865 -0.52982606 0.80797054 61 64 68
0.71007743 -0.51002957 0.80922191 63 66 69
0.71014976 -0.49003888 0.81102572 64 66 70
0.71058451 -0.47018221 0.81260569 64 67 70
0.70070409 -0.46678637 0.82053177 64 67 69
0.71168735 -0.45030253 0.81358962 65 67 70
0.70174201 -0.44903377 0.82130536 65 66 71
0.71277073 -0.43031078 0.81433836 68 69 72
0.70274729 -0.42939880 0.82210881 64 65 69
0.71365110 -0.41013559 0.81505985 65 65 71
0.70358786 -0.40963322 0.82291502 64 65 70
0.71445874 -0.39014264 0.81570953 66 68 71
0.70448226 -0.38966260 0.82357228 66 66 69
0.71521409 -0.37027214 0.81628555 70 71 74
0.70535940 -0.36996038 0.82399008 70 70 75
0.71597122 -0.35018217 0.81678314 72 74 77
0.70586944 -0.34997472 0.82457534 69 71 75
0.71664774 -0.32996681 0.81739658 72 72 75
0.70666026 -0.32987213 0.82503936 70 70 72
0.71726328 -0.31031766 0.81793405 72 72 74
0.70734782 -0.31001317 0.82551693 70 70 73
0.71795888 -0.29023653 0.81823900 72 73 76
0.70792537 -0.28978124 0.82599593 70 71 74
0.71832693 -0.27092790 0.81885707 74 75 78
0.70859487 -0.26988338 0.82647526 72 72 75
0.71906445 -0.25237302 0.81921149 75 75 78
0.70916610 -0.24985638 0.82705597 71 71 74
0.71948718 -0.23353082 0.81984866 73 73 74
0.70989768 -0.22991048 0.82739949 72 72 74
0.71001601 -0.21014092 0.82829863 73 73 77
0.71011634 -0.18993184 0.82927096 75 75 78
0.71008340 -0.17006508 0.83034832 74 74 77
0.71005422 -0.15008084 0.83138678 75 75 77
0.71038406 -0.13006207 0.83212923 75 75 77
