ply
format ascii 1.0
element vertex 1059
property float x
property float y
property float z
property uchar red
property uchar green
property uchar blue
end_header
-1.05822664 -0.11150401 1.56196272 130 109 89
-1.04893489 -0.09510264 1.55083376 129 112 97
-1.02870631 -0.18183710 1.59880149 110 97 76
-1.03456446 -0.18679728 1.60575185 115 99 79
-1.02816365 -0.16618669 1.59826408 124 101 86
-1.03278606 -0.17232187 1.60353281 119 101 87
-1.02933893 -0.14387692 1.57649267 125 105 92
-1.03091720 -0.15112966 1.59012455 125 105 92
-1.03480268 -0.15789938 1.60828662 124 103 92
-1.02937708 -0.12429004 1.55527653 121 100 75
-1.03059621 -0.13417700 1.56836874 124 103 88
-1.02972296 -0.11015061 1.54829009 118 100 80
-1.02471044 -0.08356346 1.53558893 129 105 93
-1.03121402 -0.09306043 1.54285819 123 105 90
-1.02409518 -0.07758782 1.53196096 129 104 91
-1.01366891 -0.14507511 1.56981488 127 108 92
-1.01944792 -0.14557789 1.58016741 127 108 90
-1.01026985 -0.12707028 1.55140171 127 108 91
-1.01441016 -0.13556415 1.56816583 127 108 97
-1.00585061 -0.10231285 1.53543475 132 108 95
-1.01144719 -0.11241510 1.54266982 127 108 92
-1.00967055 -0.08924854 1.53146055 119 99 89
-1.01792800 -0.09666894 1.54066324 115 100 87
-1.00423390 -0.07566530 1.51993692 114 98 88
-1.01210731 -0.07638944 1.52564153 119 98 87
-0.98477811 -0.56620422 1.99382538 64 53 52
-0.98594469 -0.55750585 1.99968100 63 54 53
-0.98248839 -0.49183640 1.99968100 79 64 59
-0.98594469 -0.46764240 1.99968100 89 72 69
-0.98016196 -0.45802757 1.98795259 93 73 73
-0.98248839 -0.32247835 1.99968100 113 93 82
-0.98905104 -0.14161658 1.53716969 127 109 89
-0.99355692 -0.14493074 1.54417276 126 109 88
-0.98836739 -0.12760010 1.53369851 129 111 94
-0.99889429 -0.12446901 1.54417809 127 112 92
-0.98266728 -0.10713261 1.51908684 130 111 99
-0.99002592 -0.11010000 1.52900349 129 112 97
-0.98657084 -0.08606917 1.51802613 132 112 99
-0.99171841 -0.09251088 1.52472644 132 112 96
-0.98972589 -0.07538008 1.51414631 127 107 96
-0.98279369 -0.07846833 1.52335250 129 109 94
-0.96713823 -0.57254980 1.99187350 60 48 47
-0.97513668 -0.48299006 1.99526992 84 68 66
-0.96820801 -0.46254829 1.97061586 85 71 67
-0.96930487 -0.46887972 1.99339668 85 70 66
-0.96430463 -0.44294278 1.95922494 96 77 62
-0.96666112 -0.44935155 1.97144607 93 74 66
-0.96688245 -0.45019393 1.98537301 92 76 64
-0.96261144 -0.42657537 1.95922494 100 80 71
-0.96606501 -0.42950102 1.97107055 101 78 74
-0.96565961 -0.43714888 1.98286653 101 76 68
-0.96139592 -0.41997266 1.97061586 99 85 76
-0.96227185 -0.38271306 1.97521200 104 84 77
-0.96261144 -0.37521555 1.95922494 107 85 75
-0.96227185 -0.37384146 1.97521200 105 87 75
-0.96480197 -0.32290024 1.97061586 112 92 81
-0.96261144 -0.30240878 1.95922494 114 96 80
-0.96540159 -0.30668148 1.96490383 112 93 80
-0.97816235 -0.31589936 1.99087608 116 94 85
-0.96547395 -0.29550243 1.96966938 117 95 80
-0.97387004 -0.29738081 1.98213995 117 97 81
-0.97972929 -0.13538188 1.52678347 128 111 92
-0.96179059 -0.11058648 1.49480188 127 113 98
-0.97390795 -0.11133810 1.51092470 130 112 94
-0.96232432 -0.08995510 1.49563141 131 112 95
-0.97540761 -0.08940184 1.50786420 132 113 96
-0.97433652 -0.07635039 1.50754714 125 105 91
-0.94199494 -0.57150018 1.97636104 56 45 42
-0.95098882 -0.57224048 1.99283655 55 45 43
-0.94101292 -0.48146752 1.99968100 88 65 60
-0.95112529 -0.46928246 1.99192455 82 65 62
-0.94626492 -0.44482426 1.97636104 90 74 66
-0.95067888 -0.45326235 1.98213995 88 71 66
-0.95845824 -0.43765755 1.95077193 95 78 64
-0.94840559 -0.42971701 1.97362682 99 75 73
-0.95331424 -0.43870199 1.98213995 98 75 67
-0.94723766 -0.40492893 1.93133146 101 84 74
-0.94932589 -0.40717095 1.95688047 101 83 75
-0.95163393 -0.41201832 1.96516347 100 83 75
-0.94085753 -0.39486969 1.91494870 101 85 75
-0.95583874 -0.39722690 1.95922494 104 84 76
-0.94917222 -0.38903049 1.96923158 102 84 75
-0.94020361 -0.36611542 1.92037344 107 87 75
-0.95800382 -0.37062185 1.94984706 103 86 77
-0.94968000 -0.36955499 1.96996571 104 86 75
-0.94085753 -0.35515168 1.91494870 99 88 76
-0.94752140 -0.35140469 1.95714649 108 88 78
-0.94413794 -0.34889495 1.96578261 106 91 79
-0.94613946 -0.33171280 1.95528074 110 91 76
-0.94162840 -0.33554901 1.96490383 108 90 76
-0.94156718 -0.30899566 1.93683386 117 92 82
-0.94660590 -0.31303759 1.94718151 113 93 80
-0.95539573 -0.28383631 1.94796503 118 93 81
-0.94196079 -0.26799272 1.91494870 121 97 81
-0.94580873 -0.26901739 1.92926998 120 96 81
-0.94409828 -0.25386390 1.92493538 123 98 82
-0.95097959 -0.25952223 1.94238353 122 97 83
-0.94360938 -0.10667619 1.47049510 130 113 97
-0.95675184 -0.10831792 1.48856816 129 111 95
-0.94436971 -0.09106633 1.47168000 131 112 94
-0.93721178 -0.57485211 1.98795259 55 46 44
-0.93032153 -0.46903659 1.99283540 87 67 63
-0.93203169 -0.44539359 1.97636104 84 68 66
-0.92857114 -0.45193003 1.98213995 88 71 70
-0.93031849 -0.42917885 1.97194805 90 74 68
-0.92522130 -0.43818809 1.98213995 95 81 73
-0.92978978 -0.40855819 1.95922494 95 75 70
-0.93313791 -0.41111395 1.96490383 95 73 70
-0.92880352 -0.38463200 1.89708873 102 83 75
-0.93667027 -0.38862950 1.90866554 100 85 75
-0.92197508 -0.39722690 1.95922494 91 73 68
-0.92955804 -0.39050253 1.96959912 98 76 70
-0.92590648 -0.38303000 1.98213995 104 81 77
-0.92837071 -0.37625384 1.89620471 101 85 75
-0.93623090 -0.36869177 1.91225916 105 85 77
-0.92969604 -0.37002933 1.97021496 99 79 70
-0.92837071 -0.34676151 1.89620471 106 85 76
-0.93293115 -0.35051914 1.90776650 105 88 77
-0.93954599 -0.34718367 1.92582905 114 89 79
-0.92784661 -0.35258326 1.95891127 99 79 71
-0.92934989 -0.34691313 1.96490383 103 80 74
-0.93006497 -0.32787785 1.95516620 107 86 76
-0.93143984 -0.33482126 1.96490383 104 83 75
-0.92122614 -0.30614485 1.88827813 113 93 81
-0.93031638 -0.30520367 1.93163105 116 92 81
-0.92903238 -0.31516666 1.94564209 111 89 78
-0.92277013 -0.28867184 1.89144285 116 94 79
-0.92861473 -0.28973483 1.92485706 116 95 82
-0.92417118 -0.26946404 1.89431461 119 96 81
-0.92483303 -0.27186860 1.91374999 117 96 83
-0.92875811 -0.26979121 1.92219346 118 96 83
-0.92661858 -0.24910200 1.89708873 123 99 82
-0.92782164 -0.24538836 1.91333044 123 98 83
-0.92681405 -0.25393539 1.92128271 120 95 83
-0.92307532 -0.23045040 1.89355923 124 99 89
-0.92461443 -0.23296706 1.91045604 122 99 88
-0.93024600 -0.22936395 1.92037344 121 99 90
-0.92225289 -0.20976352 1.89193653 122 102 91
-0.92467611 -0.21172556 1.91494870 118 102 90
-0.93183165 -0.21046880 1.92364681 117 102 93
-0.92379946 -0.19735944 1.89355266 123 106 87
-0.92807651 -0.19921468 1.91135255 121 106 90
-0.93952447 -0.10451996 1.46412921 128 111 96
-0.90944132 -0.48507179 1.99674889 83 68 62
-0.91201980 -0.46741056 1.98921042 88 71 63
-0.90417515 -0.44657292 1.97636104 90 76 70
-0.91264124 -0.45069248 1.98529991 92 76 70
-0.90924195 -0.42877576 1.97348845 97 79 71
-0.91464974 -0.43809021 1.98213995 97 79 72
-0.91762122 -0.40980481 1.95922494 98 79 75
-0.90982224 -0.41038801 1.96620944 98 81 77
-0.91050120 -0.39210114 1.97413710 104 83 78
-0.91418412 -0.38416961 1.98272121 109 83 78
-0.91028597 -0.36808447 1.97187058 109 89 79
-0.91200679 -0.37344813 1.98359740 109 87 79
-0.91614137 -0.35350026 1.95851918 110 85 80
-0.91007287 -0.34906007 1.96767330 113 87 81
-0.91072956 -0.32636610 1.95536521 106 85 76
-0.90871158 -0.33515714 1.96490383 110 89 82
-0.91343307 -0.30459932 1.93344294 109 90 76
-0.90865040 -0.31166576 1.94451135 105 89 78
-0.91114582 -0.29063108 1.93185622 104 89 76
-0.90397805 -0.28470163 1.94238353 112 92 85
-0.91768867 -0.27075092 1.91494870 115 96 81
-0.90944861 -0.26965888 1.92950146 110 91 80
-0.90229943 -0.27966577 1.94238353 113 95 84
-0.91504079 -0.24394127 1.91494870 115 99 85
-0.90895480 -0.25179215 1.92451214 110 91 81
-0.91774526 -0.22330740 1.87781680 124 99 95
-0.91866720 -0.22880970 1.88303292 130 105 95
-0.91001309 -0.22996100 1.91182733 115 99 82
-0.90406111 -0.22965899 1.92037344 106 91 74
-0.91936809 -0.21843892 1.87781680 124 102 92
-0.91866720 -0.21741837 1.88303292 123 102 92
-0.91020052 -0.21015495 1.91272844 117 100 90
-0.90811791 -0.21675096 1.92037344 115 98 88
-0.90484492 -0.18422648 1.85470074 126 108 81
-0.91056435 -0.18697414 1.86453896 126 109 83
-0.90884479 -0.18871149 1.89253845 125 107 86
-0.90886992 -0.19874774 1.90687251 122 104 89
-0.90501841 -0.17032661 1.85059010 130 108 90
-0.90560804 -0.16997590 1.86954837 130 108 93
-0.90878423 -0.17627459 1.88390712 129 106 90
-0.90017176 -0.14029130 1.83214009 136 112 95
-0.90477344 -0.15459557 1.84410512 132 111 95
-0.89431965 -0.47162425 1.97292056 85 69 65
-0.88811147 -0.44802233 1.95922494 88 75 67
-0.89068574 -0.45271712 1.96490383 84 75 66
-0.89303111 -0.43265673 1.96633184 94 80 73
-0.89488423 -0.41246553 1.95922494 96 81 78
-0.89747804 -0.40856682 1.96490383 102 81 78
-0.89868949 -0.38740162 1.97254197 106 82 78
-0.88472509 -0.36336330 1.95922494 111 88 78
-0.89725204 -0.36776019 1.97062691 109 88 77
-0.88811147 -0.35489738 1.95922494 110 89 78
-0.89465620 -0.34877220 1.96793370 112 88 80
-0.89682267 -0.34429983 1.98601504 114 91 81
-0.89212161 -0.32487431 1.95488426 111 92 84
-0.89367723 -0.33390316 1.96776813 110 92 81
-0.89638519 -0.33042131 1.98504627 111 93 82
-0.88991757 -0.30277857 1.93683386 108 96 82
-0.88987475 -0.31221226 1.94505434 112 91 86
-0.89090964 -0.31135268 1.97292056 113 93 85
-0.88861844 -0.29066388 1.93487583 112 95 82
-0.88531996 -0.28824256 1.95501459 113 96 84
-0.88728952 -0.29139870 1.96490383 114 96 84
-0.88933067 -0.27044620 1.93493702 115 94 87
-0.88421518 -0.26839428 1.95809572 116 93 84
-0.88728952 -0.27951208 1.96490383 115 94 86
-0.89070350 -0.24922843 1.92724599 119 96 85
-0.88217551 -0.25764143 1.95357883 116 96 85
-0.88731533 -0.23063639 1.91440928 116 96 83
-0.88999634 -0.22869440 1.92178134 118 98 86
-0.88988767 -0.20800393 1.91110001 120 96 89
-0.88982849 -0.21541641 1.92115281 118 95 88
-0.88822025 -0.18785241 1.89484684 122 100 82
-0.89278568 -0.19846821 1.90419054 122 98 84
-0.89632275 -0.16242823 1.84377050 130 107 93
-0.89132537 -0.16553908 1.87454807 127 107 89
-0.89028408 -0.17400333 1.88496536 126 103 86
-0.88133878 -0.16018158 1.95922494 131 106 92
-0.88305249 -0.16667368 1.96735185 129 106 91
-0.88544357 -0.16731532 1.98359311 128 104 89
-0.88491868 -0.14662583 1.81643252 134 111 95
-0.88884477 -0.14996538 1.83139270 132 110 93
-0.88777052 -0.14997731 1.85109586 131 109 90
-0.88922177 -0.15726289 1.86711024 129 109 91
-0.88049722 -0.14875926 1.96490383 131 107 94
-0.88603871 -0.13556759 1.81133670 134 111 95
-0.88845187 -0.13666146 1.82598042 136 113 96
-0.88049722 -0.13687263 1.96490383 131 110 93
-0.87796164 -0.30230033 1.93683386 111 93 83
-0.87754551 -0.29100173 1.93407482 112 94 82
-0.87879890 -0.28127766 1.95357883 117 96 88
-0.87796264 -0.26848864 1.93438138 116 94 85
-0.87728370 -0.27068618 1.95021055 118 95 85
-0.86603013 -0.27180321 1.97062415 116 97 87
-0.87625171 -0.24955672 1.92735489 120 97 86
-0.87637511 -0.24939389 1.94486419 121 98 83
-0.87630238 -0.22901422 1.92583251 125 101 85
-0.87666648 -0.23042967 1.94539392 123 101 83
-0.87482905 -0.20512498 1.91099900 125 102 89
-0.87278186 -0.21168831 1.92542138 125 101 90
-0.87809820 -0.21174596 1.95077731 126 102 88
-0.87551579 -0.19069183 1.89885676 127 105 92
-0.86991900 -0.19053344 1.91023538 127 105 90
-0.86709444 -0.19498667 1.93499450 129 104 88
-0.87505458 -0.19135937 1.95109098 130 106 90
-0.87474032 -0.16326280 1.87781680 118 100 84
-0.87073745 -0.16865788 1.89145548 127 106 88
-0.86800736 -0.17662730 1.90821854 128 105 92
-0.87102610 -0.14079434 1.79812157 135 111 94
-0.87598895 -0.14577103 1.80579367 134 111 93
-0.87800485 -0.14029130 1.83214009 133 112 92
-0.86943832 -0.14520850 1.84857047 124 105 88
-0.86942236 -0.15446973 1.86954552 124 103 88
-0.86171049 -0.15720697 1.88303292 128 111 95
-0.87353921 -0.14758492 1.94937655 130 105 94
-0.86116073 -0.12208658 1.77459812 134 115 95
-0.87028698 -0.13071183 1.79232983 135 112 97
-0.87434814 -0.12675979 1.81257089 133 113 94
-0.87055411 -0.13072118 1.82848454 132 111 91
-0.87795240 -0.13309069 1.95922494 133 112 92
-0.86953383 -0.11483623 1.81255115 133 113 95
-0.86383533 -0.11433961 1.82228994 131 111 96
-0.85763419 -0.27023834 1.95922494 114 95 86
-0.84999062 -0.26912371 1.97002332 115 96 86
-0.85695887 -0.16260274 1.89532069 130 107 90
-0.85987329 -0.17049268 1.90419054 131 106 92
-0.85797428 -0.14254295 1.85318394 127 108 90
-0.85185980 -0.14667573 1.87101082 131 107 91
-0.85480647 -0.15519405 1.88678369 130 107 92
-0.85738075 -0.12023336 1.76995254 134 115 96
-0.85052510 -0.12031554 1.81740439 126 107 88
-0.85176205 -0.12794563 1.82938848 128 104 89
-0.85062114 -0.13409742 1.85105580 132 108 95
-0.84524693 -0.13692337 1.86467222 132 107 96
-0.84199190 -0.10605809 1.73818421 136 114 98
-0.84709544 -0.11265135 1.74716136 135 116 97
-0.85597014 -0.11656545 1.76075804 133 113 97
-0.85223954 -0.11659855 1.81659450 127 107 94
-0.82377058 -0.27193153 1.95922494 113 92 86
-0.82803620 -0.26736006 1.96712518 113 93 83
-0.82715692 -0.25838608 1.95922494 112 95 80
-0.83072725 -0.25498374 1.96653584 114 93 84
-0.83570741 -0.12165771 1.82968428 133 111 93
-0.83585922 -0.12613293 1.85001242 133 110 94
-0.83775610 -0.13455654 1.86234021 132 107 97
-0.83095908 -0.11796689 1.82969761 133 112 94
-0.80640036 -0.30058271 1.92582905 109 95 82
-0.80537013 -0.29676006 1.93134081 108 91 82
-0.80929384 -0.28556681 1.94998611 114 90 80
-0.80964625 -0.27258708 1.95781341 112 93 80
-0.81186472 -0.26682007 1.96612784 114 93 83
-0.80419366 -0.25318730 1.95828392 116 92 81
-0.81392480 -0.25664883 1.96816785 117 92 81
-0.78859551 -0.29412335 1.91090682 110 91 81
-0.79459539 -0.28854870 1.92949729 113 90 82
-0.79936901 -0.28342482 1.94517428 115 91 79
-0.79274361 -0.26748269 1.95532355 114 91 79
-0.78924859 -0.24371628 1.93683386 117 93 81
-0.79083949 -0.25248618 1.94796906 114 91 81
-0.77197844 -0.26305066 1.93131578 113 90 76
-0.76241486 -0.24823869 1.91360015 111 90 77
-0.77017582 -0.24986366 1.92402611 112 90 78
-0.77975965 -0.25280774 1.94238353 110 89 80
-0.76385835 -0.23829824 1.90687251 115 93 80
-0.75997961 -0.26173696 1.90955448 111 89 75
-0.75979942 -0.26396769 1.92582905 112 87 73
-0.75243998 -0.24057853 1.89885676 111 89 77
-0.75479319 -0.24829965 1.90956313 111 88 77
-0.75446322 -0.25204397 1.92193219 112 87 76
-0.74632446 -0.23356194 1.89250660 112 90 78
-0.75126234 -0.23796308 1.90419054 112 89 80
-0.58047312 -0.42641565 0.95882863 89 77 69
-0.58565116 -0.43316372 0.96462765 90 76 71
-0.56699787 -0.42639365 0.95028463 90 77 74
-0.56648048 -0.41843781 0.95424008 92 77 75
-0.54934134 -0.43045487 0.93808230 88 79 73
-0.55446174 -0.42902911 0.94321124 88 78 73
-0.48503206 -0.33115094 0.83364631 90 75 69
-0.47274716 -0.33027815 0.82765516 88 75 69
-0.38326010 0.33655598 1.48227235 89 92 109
-0.38438694 0.34187612 1.48497844 91 95 110
-0.37217020 0.33485399 1.47505588 107 111 121
-0.36966619 0.33630933 1.48119369 121 123 131
-0.36276175 0.35556066 1.43824442 108 116 121
-0.36459206 0.35480710 1.45212541 96 100 112
-0.36854631 0.34872516 1.47077024 114 119 129
-0.36978809 0.34568840 1.48011315 116 123 134
-0.35792626 0.33787019 1.46942031 139 147 149
-0.34299352 0.35468608 1.41818380 127 133 141
-0.35121841 0.35410557 1.43238161 112 115 130
-0.35554311 0.35287385 1.44850670 84 86 107
-0.35849962 0.34756236 1.46572065 104 106 119
-0.34135938 0.36203974 1.41818380 113 121 129
-0.34603890 0.36659607 1.42849155 112 118 129
-0.33754199 0.35389932 1.40809241 122 129 137
-0.33749604 0.36053124 1.41227472 111 119 130
-0.33961865 0.36771144 1.42115688 113 117 131
-0.26274247 0.13156673 1.67795014 139 142 153
-0.26471165 0.13742141 1.69051035 138 142 154
-0.26238583 0.14721769 1.69122523 128 129 140
-0.27096569 0.14421480 1.70946707 130 134 145
-0.27436742 0.14779249 1.72053766 161 166 172
-0.26628217 0.24979580 0.99763676 135 137 144
-0.26791052 0.25570537 1.00941938 120 123 130
-0.26398074 0.27172360 0.99881059 109 114 121
-0.26728699 0.26816292 1.01045872 114 118 126
-0.27397090 0.26415417 1.02092147 96 96 105
-0.26370009 0.28437587 0.99135225 117 122 129
-0.27033416 0.28230051 1.00921631 95 101 109
-0.24213213 0.11208056 1.63347435 152 152 159
-0.24542272 0.11721244 1.64604549 144 148 155
-0.24392239 0.13140107 1.65212745 127 129 143
-0.25586762 0.13472015 1.66910984 132 135 146
-0.24222720 0.14202498 1.65339470 131 131 145
-0.25097521 0.14396393 1.67038161 130 129 142
-0.25709006 0.14767297 1.68525726 136 136 146
-0.25822867 0.25619446 1.01178246 99 101 112
-0.25706288 0.27974820 0.97678941 110 113 121
-0.25892180 0.27589764 0.99040994 102 106 117
-0.24582275 0.29782102 0.64543905 116 122 127
-0.25776464 0.28427871 0.97784755 137 140 143
-0.25987455 0.28322358 0.98103017 124 129 134
-0.24437004 0.30232039 0.64369649 92 97 99
-0.23562604 0.11101057 1.61788034 141 141 150
-0.23847178 0.11518143 1.63741994 151 155 163
-0.23135978 0.11729353 1.64537560 146 150 157
-0.22978554 0.12977990 1.65005540 134 136 148
-0.23767105 0.13697764 1.66149962 139 141 150
-0.23782767 0.14253233 1.66763821 129 131 142
-0.23852913 0.29706181 0.64495338 157 162 167
-0.23683572 0.30198205 0.63952059 0 0 0
-0.23842736 0.30104425 0.64194592 106 110 110
-0.21582867 0.13348331 1.63201837 132 137 147
-0.21919018 0.12822682 1.64138460 124 125 142
-0.18215986 0.12450861 0.75194402 121 122 132
-0.18877548 0.15278807 0.45517315 104 109 113
-0.18488056 0.16240541 0.45459769 109 114 116
-0.17502574 0.11895533 0.74705505 132 135 138
-0.16518167 0.12695866 0.73506524 137 141 147
-0.17502817 0.12485605 0.74592661 124 128 138
-0.17961981 0.16390236 0.45328835 117 121 125
-0.16102567 0.17739548 0.73206547 122 122 131
-0.16261666 0.18541310 0.73784314 128 134 142
-0.17133146 0.19260623 0.99415977 128 131 139
-0.16701393 0.18823314 1.01073759 128 131 142
-0.16456693 0.19004180 1.02092147 138 138 147
-0.16734092 0.20078249 0.99543589 160 160 161
-0.14399694 0.11976665 0.71658754 131 137 137
-0.14649669 0.12660282 0.71643833 127 131 143
-0.15402549 0.12890418 0.72560650 117 121 132
-0.15549562 0.17711922 0.73216968 146 148 152
-0.14662907 0.18560673 0.71734589 128 129 133
-0.15398638 0.18503960 0.73175465 131 134 143
-0.15375888 0.18887472 0.99405489 151 151 156
-0.15883653 0.19110375 1.00796379 142 144 150
-0.12291027 -0.18412656 1.53716969 45 44 51
-0.12291027 -0.17748438 1.53716969 45 44 50
-0.12361246 -0.17314968 1.54595160 44 44 48
-0.12955425 -0.17078717 1.58597905 43 42 48
-0.12135454 -0.15363406 1.55124533 44 42 47
-0.12605448 -0.15341386 1.57649267 44 43 48
-0.11863926 -0.18165506 1.51653659 45 44 51
-0.11456618 -0.17678959 1.49755843 44 43 50
-0.11720441 -0.17491593 1.51487413 45 44 50
-0.11781363 -0.16855326 1.52850928 44 43 48
-0.10831608 -0.14955327 1.51880348 44 43 47
-0.10985668 -0.15209384 1.53012559 44 43 47
-0.11786379 -0.15525301 1.54066324 43 43 47
-0.10014886 0.15100610 1.47581832 129 132 144
-0.10859848 0.17305363 0.83606929 192 192 195
-0.11376853 0.17473618 0.84105884 184 185 189
-0.10022148 0.16004814 1.47688854 142 145 152
-0.10044031 0.16295585 1.48011315 128 131 139
-0.10677881 0.18380634 0.82949002 202 203 203
-0.08375602 -0.16338598 1.53369461 45 45 49
-0.08923749 -0.16457319 1.54066324 46 46 50
-0.08823511 -0.15161819 1.53337280 45 44 48
-0.08857176 -0.14726427 1.54066324 46 45 49
-0.09112672 0.11304680 0.51356925 132 135 140
-0.09038145 0.12171153 0.51760078 132 134 142
-0.08900372 0.12493353 0.52052116 157 159 164
-0.09340047 0.14862866 1.47574187 135 136 148
-0.08770612 0.15127020 1.48452699 131 134 145
-0.09820321 0.17792919 0.83344554 200 201 201
-0.08362999 0.17524435 1.45470357 133 132 148
-0.09015548 0.17309775 1.47071182 140 142 153
-0.08870244 0.16620958 1.48511493 140 142 153
-0.09871234 0.18213481 0.82800152 202 203 203
-0.07660304 -0.15233152 1.53215851 47 45 50
-0.07525720 -0.14726427 1.54066324 47 46 50
-0.07695254 0.15110886 1.48770641 124 128 141
-0.07699341 0.17288092 1.47208652 170 170 179
-0.07730625 0.16724534 1.48416874 125 128 138
-0.04447316 0.03799551 0.49869613 128 131 144
-0.04519079 0.03605668 0.50028920 121 124 136
-0.04477197 0.04123158 0.49738200 140 144 154
-0.05025076 0.35380910 0.87452560 185 186 186
-0.04681879 0.35559163 0.88398629 167 168 169
-0.04189948 0.36142239 0.87847888 176 176 174
-0.04339849 0.36916114 0.88850717 167 164 162
-0.02184664 -0.28185883 0.64086961 107 125 134
-0.02239596 -0.27335760 0.63952059 109 124 136
-0.02077219 -0.27482620 0.64057857 109 124 135
-0.02681327 -0.18979730 0.50882055 106 119 135
-0.02138635 0.00626078 0.64345934 138 139 144
-0.03751089 0.03848926 0.49821337 136 139 149
-0.02247617 0.02493375 0.54904292 136 138 148
-0.03693142 0.04124398 0.49668688 138 139 150
-0.02164059 0.23999493 0.61795062 161 161 159
-0.02208519 0.24227864 0.61755155 162 162 162
-0.02630334 0.25077769 0.63298139 165 165 165
-0.03016194 0.25303227 0.64012450 160 161 161
-0.02505528 0.26139165 0.63490182 171 169 167
-0.02107226 0.26471616 0.64298120 160 158 157
-0.03986763 0.35630010 0.87832663 169 169 170
-0.03990896 0.36122736 0.87923717 176 176 174
-0.03776621 0.37609560 0.89609711 159 157 153
-0.03463889 0.37919837 0.90025479 162 160 159
-0.03270789 0.38199431 0.89707979 9 9 9
-0.03348353 0.38270323 0.90265515 47 46 46
-0.00979390 -0.28261603 0.63946031 108 123 136
-0.00943698 -0.28582767 0.64166740 110 123 133
-0.01251839 -0.27539125 0.63891839 108 124 133
-0.01489465 -0.27756023 0.64076800 108 124 134
-0.00528085 -0.19364072 0.46486876 108 121 133
-0.01884542 -0.19034718 0.51135268 104 116 136
-0.01054181 0.01196991 0.63883239 132 133 142
-0.01539805 0.00753892 0.64377581 135 136 143
-0.01476748 0.02708155 0.54874273 129 131 141
-0.00620947 0.13698661 0.49186052 190 190 190
-0.00557491 0.14385282 0.48927450 169 169 170
-0.01516133 0.25967371 0.63741606 146 146 152
-0.01350064 0.26625366 0.63672593 113 113 114
-0.01700738 0.26883489 0.64181543 89 88 88
0.00099445 -0.19242817 0.46450843 106 122 134
0.00505246 0.13813916 0.49314977 169 168 170
0.01033769 0.13810553 0.50177264 173 173 174
0.01157956 0.14473478 0.49284045 158 158 161
0.00929963 0.14002848 0.50102872 168 166 167
0.03584242 0.13889291 0.46232465 139 139 144
0.03580423 0.14616554 0.45931128 149 149 149
0.03371397 0.14471406 0.46326564 157 157 159
0.02025801 0.14822921 0.49373040 146 145 148
0.04083312 0.13882346 0.46107328 151 158 163
0.04025032 0.14413768 0.45896593 158 156 155
0.04062894 0.14141287 0.46146560 156 157 161
0.07910893 0.19624026 0.51273756 152 153 155
0.07589496 0.23346803 0.71599894 136 137 141
0.07271852 0.23503026 0.72251263 154 154 154
0.07525021 0.24840563 0.71580713 143 142 143
0.07060730 0.24630335 0.72243374 164 164 163
0.07393994 0.29234897 0.73770901 135 135 136
0.07019292 0.29430625 0.74667721 147 147 146
0.06919991 0.30508597 0.75112024 123 123 130
0.06540737 0.30994716 0.76082134 124 123 131
0.07084316 0.48062167 1.97636104 158 166 166
0.07167907 0.48283643 1.99968100 135 140 148
0.09102426 0.19706828 0.49572399 142 143 142
0.08549657 0.19718690 0.51050202 152 154 154
0.08923579 0.20487743 0.50692979 134 134 135
0.09411266 0.22994938 0.69804560 161 162 165
0.08752610 0.23271208 0.70764095 152 155 159
0.08402696 0.22825257 0.72225986 107 109 125
0.09517640 0.24306149 0.69870481 157 160 161
0.08649439 0.24436808 0.70976645 145 146 151
0.10673237 0.16949116 0.83742281 123 123 132
0.11078268 0.17715305 0.84889071 153 154 161
0.10812257 0.19905721 0.80991067 153 154 161
0.11176153 0.18955509 0.85217178 173 174 177
0.11317048 0.20239795 0.79714758 175 176 177
0.11051698 0.20728660 0.81029121 171 172 175
0.10911359 0.21427175 0.82516769 169 171 173
0.10827074 0.20101236 0.85035531 183 184 186
0.10976156 0.22531603 0.81631345 154 154 156
0.11260062 0.22608660 0.82652596 148 150 153
0.11812273 0.43032688 1.91225159 152 152 154
0.11828934 0.44417316 1.91494870 146 146 151
0.11904761 0.45202177 1.92722413 141 142 147
0.11560774 0.44975794 1.95359767 148 148 152
0.11260244 0.45640804 1.98992451 151 150 151
0.11716304 0.46445904 1.92913985 166 166 168
0.11476578 0.46917180 1.95358691 170 171 173
0.11183493 0.46012577 1.97636104 140 138 150
0.11199888 0.47051647 1.99147453 161 162 168
0.11425162 0.48322713 1.95922494 131 131 139
0.11525091 0.49086958 1.97636104 125 124 133
0.11232639 0.48444675 1.98504627 169 170 171
0.12792219 0.19921000 0.79378545 159 159 161
0.12188576 0.19052701 0.85485353 160 160 162
0.12729993 0.19371009 0.86610906 169 170 174
0.12837465 0.20300658 0.79574820 154 154 156
0.12529474 0.21101324 0.80787774 149 148 152
0.12066062 0.21805402 0.82188702 161 161 161
0.12638013 0.22512104 0.81721170 139 139 146
0.12316793 0.22675583 0.82232714 125 127 136
0.12247629 0.43517251 1.89026710 154 154 157
0.12024052 0.44084677 1.89355266 155 155 157
0.12182399 0.45022041 1.90553153 142 142 149
0.12032881 0.47034928 1.94796503 165 166 166
0.15764852 -0.19024381 0.57914841 106 114 128
0.15800569 -0.18478803 0.58284383 106 113 129
0.15840582 -0.17820884 0.58565192 102 111 128
0.15367456 0.03613358 0.67429288 156 156 160
0.15366843 0.04669223 0.66735943 138 140 148
0.15715051 0.07556288 0.51638149 120 123 133
0.14833789 0.17729996 0.45958790 164 164 160
0.14793658 0.17879662 0.46181281 167 168 162
0.14777141 0.18673697 0.46508161 127 128 132
0.14962545 0.37038580 1.85216355 152 152 160
0.15366648 0.37242088 1.86234021 164 165 170
0.15744431 0.37923805 1.88829279 167 168 173
0.15778479 0.39066714 1.91225159 175 178 181
0.16301906 -0.18662315 0.57955996 105 111 126
0.16201258 -0.18538660 0.58293433 104 112 127
0.16180094 -0.17870400 0.58603173 104 111 127
0.17312893 0.03764125 0.88643833 132 133 145
0.16200442 0.04987318 0.66727659 148 149 154
0.17407403 0.04313787 0.88678119 149 150 156
0.16369252 0.07468587 0.51653698 131 133 141
0.16388987 0.07453321 0.77888783 117 117 134
0.16870953 0.07052828 0.78276556 142 143 152
0.17837792 0.17725329 0.70780367 157 157 157
0.17984973 0.18221882 0.69957876 170 171 173
0.17787963 0.18206943 0.71081321 159 162 165
0.17952494 0.23929248 0.65708802 177 178 178
0.17943273 0.23878941 0.66092900 172 173 172
0.17945691 0.24265238 0.65926766 168 169 170
0.17940306 0.24345624 0.66222324 169 171 171
0.17728366 0.27144455 0.67943982 139 140 140
0.17615639 0.27452657 0.68482569 159 159 157
0.17940087 0.28620915 0.67857479 28 28 28
0.17740578 0.28830722 0.68473670 25 25 25
0.17162506 0.37647997 1.94424403 172 173 177
0.16041090 0.38408113 1.90419054 169 170 174
0.16492861 0.39177355 1.93132623 178 179 182
0.17301911 0.38983749 1.94944495 177 178 181
0.16316080 0.40070835 1.93683386 176 177 179
0.17238827 0.40732435 1.95415636 174 175 178
0.17309524 0.40879174 1.96604624 174 175 177
0.18677732 0.02906912 0.87598221 136 136 145
0.18705802 0.03584322 0.88776703 141 141 148
0.18668562 0.04710407 0.89326016 151 152 158
0.18787161 0.05865879 0.90025479 131 131 134
0.18173846 0.06915241 0.78916395 146 148 157
0.18627066 0.17859521 0.67891037 156 156 157
0.18531063 0.17862489 0.69360297 153 155 157
0.18207098 0.17663185 0.70261816 139 139 143
0.18874263 0.18278012 0.67454192 148 148 153
0.18363380 0.18257944 0.68978671 167 167 167
0.18137075 0.18071559 0.70078452 167 168 171
0.18187397 0.23615338 0.65296381 170 171 168
0.18436071 0.24329787 0.65306395 165 166 168
0.18278408 0.25080092 0.66682868 152 154 157
0.18045368 0.27313187 0.67909940 122 123 126
0.18203261 0.27491924 0.68061429 118 119 126
0.18047527 0.28805087 0.67830143 0 0 0
0.19579454 0.34969598 1.89620471 143 144 154
0.19312968 0.35612475 1.91315063 147 146 154
0.19941531 0.35950926 1.93131578 146 146 156
0.18819946 0.35858667 1.95359498 160 159 165
0.19606379 0.36167213 1.89885676 158 157 159
0.19372862 0.36634299 1.90821728 152 151 151
0.19171757 0.36932848 1.93034093 158 157 160
0.18648677 0.37258408 1.95032026 166 166 168
0.18439856 0.36886504 1.97062912 181 181 182
0.18410726 0.36554407 1.98213995 174 172 177
0.19663740 0.38397005 1.93683386 146 144 148
0.18823233 0.39033362 1.95130249 167 166 169
0.18292958 0.40269712 1.95734290 181 181 182
0.19325502 0.40429139 1.97061586 172 172 175
0.21623742 0.17240742 0.53295878 156 157 156
0.21771297 0.16548728 0.54356461 162 164 167
0.21862341 0.18808048 0.53159789 154 155 153
0.20266922 0.36535998 1.90955448 153 153 154
0.20789646 0.36842724 1.92995973 149 148 150
0.21341044 0.37114322 1.94868694 150 149 152
0.21646811 0.36576158 1.96490383 167 167 170
0.20739402 0.38954631 1.95535333 156 156 157
0.21605939 0.39378260 1.96633184 161 161 161
0.20876850 0.40306357 1.95640188 168 169 170
0.20998792 0.40370300 1.96775985 168 169 169
0.22014092 0.16938789 0.53349314 146 146 148
0.22814412 0.19215253 0.53174549 151 152 152
0.22133580 0.37775952 1.94796503 147 144 147
0.25115582 -0.22385156 0.54466161 104 112 122
0.25126519 -0.21882651 0.54390957 103 113 122
0.25900235 0.12528974 0.45533443 168 170 171
0.25942753 0.12891322 0.46125584 169 173 174
0.26199059 0.12945779 0.45713272 167 168 168
0.26623697 0.13483967 0.46168317 167 167 164
0.26727259 0.19858578 0.95093201 159 159 166
0.27169702 0.20277126 0.95612833 170 171 172
0.27198856 0.20969648 0.96884487 152 152 156
0.26664985 0.21289031 0.98302562 153 150 151
0.27376722 0.22444936 0.97688485 159 159 160
0.27137625 0.22912305 0.99168191 167 167 169
0.26523009 0.23138148 1.00417197 162 163 168
0.29440374 -0.04288921 0.65824972 57 58 63
0.29316658 -0.04404679 0.66136185 57 57 63
0.29801639 -0.03876765 0.65708595 55 54 60
0.29256970 -0.03822898 0.66254713 55 55 61
0.29054161 0.13795936 0.59892150 147 147 151
0.28832365 0.13948527 0.60061306 128 126 139
0.29068113 0.14856276 0.59857222 170 171 172
0.29177141 0.14657815 0.60151379 166 168 169
0.29264987 0.16012082 0.59884441 178 179 177
0.28319482 0.21240006 0.96794026 166 166 171
0.28338518 0.22457947 0.97658061 147 147 151
0.28294451 0.23137892 0.98771431 148 147 151
0.30261992 -0.04167351 0.65594829 57 57 63
0.30428034 -0.03873551 0.65508379 55 55 59
0.30163055 0.13923885 0.59955068 174 177 177
0.30239263 0.14956809 0.59969213 167 167 166
0.30220640 0.14709789 0.60097999 173 173 173
0.30344624 0.27143159 0.71283829 152 152 150
0.30568566 0.27578933 0.72654691 150 150 150
0.30786430 0.28514640 0.71592714 171 172 169
0.30831798 0.28873643 0.73036699 165 167 167
0.30942697 0.29457539 0.74604234 161 163 164
0.30551709 0.30354919 0.73884690 152 153 155
0.30633466 0.30285239 0.74888828 149 151 154
0.30634981 0.30592176 0.76155519 144 147 150
0.33472317 0.05473015 0.77235283 149 148 153
0.33535790 0.06948448 0.77310646 142 142 148
0.32801455 0.15345395 0.79021024 141 142 147
0.33623824 0.16352233 0.77739993 129 132 139
0.33336898 0.17128198 0.78903356 169 170 171
0.35206897 0.05608149 0.78417302 149 149 152
0.34743308 0.07446214 0.77791703 142 144 152
0.35367449 0.06806179 0.78293967 152 153 156
0.34820479 0.08003096 0.77561998 119 122 132
0.35959283 0.16463897 0.45155194 145 149 144
0.34629283 0.17011969 0.77784653 159 159 162
0.34520407 0.17284051 0.78674533 160 162 163
0.34739745 0.18261922 0.79420400 168 168 173
0.35017329 0.18662776 0.80160818 171 170 176
0.34993803 0.20354796 0.45441150 134 138 138
0.35674539 0.20499038 0.46608266 142 143 141
0.36251804 0.05838560 0.78500203 148 149 152
0.36396894 0.07034628 0.78768691 146 147 152
0.36305200 0.08106126 0.78233464 142 144 156
0.36080336 0.16577370 0.45127722 155 158 155
0.36616929 0.19665745 0.47572243 135 136 136
0.36338775 0.20288703 0.47336954 157 159 156
0.38727626 -0.16905895 0.48510937 100 111 116
0.39101199 -0.15530354 0.48801224 100 110 117
0.39423195 -0.12996887 0.45105968 96 106 113
0.39540656 0.35905574 1.16576499 172 173 174
0.39726639 0.37158641 1.13931406 179 179 177
0.39585856 0.37281404 1.15533903 163 165 166
0.39532902 0.37143564 1.16591415 163 165 166
0.39855475 0.36828253 1.18409508 164 164 161
0.39656153 0.38365194 1.17217135 166 170 172
0.39878141 0.38680130 1.18721135 163 169 171
0.38857493 0.40553785 1.19718976 162 162 164
0.38880651 0.40965957 1.20678546 164 165 165
0.38877218 0.41526786 1.23087934 173 174 174
0.39601788 0.41542841 1.25381974 170 170 166
0.38860846 0.42007613 1.21704102 172 173 175
0.38788325 0.42175856 1.22806489 172 173 175
0.39738622 0.42740528 1.26683430 173 174 174
0.40306132 0.37708210 1.15250049 179 179 178
0.40080119 0.37453949 1.18772367 157 156 160
0.40359836 0.38151029 1.15747344 180 180 180
0.40976599 0.38881221 1.17075431 174 174 174
0.40844439 0.39552544 1.18910534 169 170 170
0.40368236 0.38969210 1.20551948 157 161 165
0.41316993 0.40400608 1.19225858 153 154 154
0.40782084 0.40874750 1.20996123 147 149 151
0.40637018 0.40628420 1.22142673 150 154 155
0.41435538 0.42061594 1.22473782 137 139 140
0.40145664 0.43357040 1.28510416 173 174 174
0.43926941 0.20991066 0.45198071 156 156 153
0.42101738 0.40853450 1.19557643 145 145 145
0.42420946 0.41471593 1.21058291 147 149 148
0.45887994 -0.31520289 0.53393111 116 126 128
0.45734005 0.13719975 0.45389732 145 146 144
0.45237247 0.13934767 0.46313223 145 145 142
0.45752110 0.14161123 0.45474711 166 169 165
0.45363185 0.14315058 0.46220713 148 149 144
0.44167548 0.21297605 0.45556621 155 156 153
0.44585451 0.21211677 0.46190059 148 148 147
0.44313399 0.22090373 0.45803894 133 139 139
0.45334897 0.22789630 0.47463771 131 132 135
0.45824724 0.23274489 0.48403566 139 142 143
0.46711157 -0.32093058 0.53296916 113 126 129
0.46560148 -0.31515635 0.53216557 115 126 129
0.47896892 -0.24759787 0.97214785 96 106 118
0.47898273 -0.23710311 0.97179348 96 102 116
0.46034518 0.14205112 0.45532804 168 172 168
0.46103634 0.14152621 0.46209431 150 151 150
0.48424811 -0.24837082 0.96989806 95 105 117
0.48561460 -0.23677648 0.97154149 96 103 117
0.49681548 0.18985078 0.77590477 158 156 156
0.49747612 0.19478340 0.78098220 168 168 167
0.50562405 0.19078647 0.77505895 154 155 157
0.50372237 0.19685100 0.78062229 152 152 154
0.51276368 0.20026055 0.77918601 173 174 174
0.51615495 0.20449191 0.78434208 168 169 169
0.51606737 0.24612503 0.60637001 116 118 120
0.52142286 0.09934731 0.49852465 158 162 159
0.52205855 0.09831575 0.50028920 158 162 160
0.52396789 0.10650542 0.49858711 160 165 162
0.52402891 0.10719538 0.50083188 155 161 158
0.52957785 0.23920755 0.59990430 142 143 138
0.53215849 0.23846400 0.60746371 139 143 141
0.52677685 0.24171873 0.59746404 150 150 146
0.52822218 0.24542717 0.60832793 123 125 124
0.55606064 0.21052094 0.75385214 164 166 165
0.55668947 0.22126892 0.75439959 169 171 167
0.56071941 0.20930651 0.75262818 166 166 166
0.59808316 -0.30146353 0.63781335 108 118 124
0.59831412 -0.30338253 0.64225103 108 117 124
0.59709752 -0.29421531 0.63487699 104 116 121
0.59661558 -0.29795662 0.64012450 104 119 120
0.59909815 0.13420538 0.82285291 138 139 143
0.59903118 0.14114870 0.81501955 153 155 156
0.61061811 -0.42990226 0.81576864 106 120 123
0.60831266 -0.30359645 0.63749313 106 117 122
0.61215720 -0.30888220 0.64161462 106 118 121
0.60467618 -0.29616187 0.63435241 107 116 122
0.60800807 0.13420570 0.81838224 143 146 147
0.60867384 0.13260002 0.82249521 140 144 147
0.62471054 -0.43168273 0.81853632 104 119 121
0.62625185 -0.42952465 0.82069230 102 117 121
0.62070398 -0.30872586 0.64158047 106 117 122
0.63133051 0.07683116 0.64923549 128 132 135
0.63513097 0.08093509 0.64928999 127 131 132
0.62264595 0.13587603 0.81736065 162 164 164
0.62212904 0.13107246 0.82102390 139 140 142
0.62294298 0.14225067 0.81811837 182 182 179
0.62838815 0.17655590 0.63368221 149 152 152
0.63314074 0.17945126 0.64407793 148 154 153
0.63116320 0.18542087 0.63637644 152 156 155
0.63052032 0.18428306 0.64181586 135 140 140
0.63471123 0.20483696 0.61703633 143 143 140
0.63658755 0.21137072 0.62718562 147 147 143
0.63811168 0.22255204 0.63299685 128 131 132
0.64003086 0.07885878 0.64994425 120 121 127
0.64278905 0.21355877 0.63064124 146 146 142
0.64610218 0.22454170 0.63524932 113 116 119
0.65536472 0.22894985 0.64240229 105 106 116
0.69638659 -0.16127144 0.71469982 85 97 102
0.69423692 -0.15534393 0.71218064 88 98 104
0.70337422 -0.16365872 0.71492901 86 98 105
0.70214493 -0.15591632 0.71168543 87 98 104
0.81895673 0.19281226 1.25768435 99 101 104
0.83231442 0.19189378 1.25714686 114 120 129
0.83210409 0.19344332 1.26324079 118 124 130
0.83571647 0.20127813 1.26995275 116 116 124
0.83757830 0.42804426 1.23702896 143 143 144
0.84520764 0.19138869 1.26552157 124 129 136
0.85880184 0.19867200 1.28145909 133 140 145
0.85758001 0.34466270 0.94195537 163 164 159
0.85000398 0.43363579 1.25112112 144 144 146
0.85539331 0.43279370 1.26617092 139 139 141
0.87425141 0.19896470 1.29781568 131 137 141
0.87892431 0.19447300 1.30531752 116 122 126
0.87514047 0.20632269 1.29440644 121 125 130
0.87552123 0.20612415 1.30256718 122 127 132
0.86661431 0.34698896 0.95278743 162 162 159
0.87593803 0.35271554 0.96394964 157 158 155
0.86396092 0.43531037 1.25563486 125 124 130
0.86918602 0.43052695 1.26599298 142 143 144
0.87145641 0.43351845 1.28966182 142 142 141
0.87282726 0.43715239 1.30238706 144 144 140
0.86401674 0.44506755 1.25304341 146 146 143
0.86632698 0.44705200 1.26165120 154 155 153
0.87646902 0.44124568 1.31120276 147 147 144
0.88882858 0.19564852 1.31042506 123 128 132
0.88154131 0.20133619 1.29864335 128 134 134
0.88295814 0.20416766 1.30238706 116 122 124
0.88603126 0.35476121 0.97645314 158 159 157
0.89540797 0.35731870 0.98819941 159 159 158
0.88883135 0.36825209 0.97697620 155 156 152
0.89662702 0.36497673 0.98891442 154 156 153
0.88601490 0.41799320 1.29533895 174 176 171
0.88486760 0.43436296 1.27118068 149 148 147
0.88545531 0.42689319 1.29517467 163 164 160
0.89073149 0.42978569 1.30700343 163 163 160
0.89249253 0.44298725 1.32659853 142 142 140
0.90333581 0.20069166 1.32400751 131 134 137
0.90110844 0.35907128 0.99543589 159 160 160
0.91088370 0.36645350 0.93397225 156 157 155
0.91798382 0.37281400 0.94268488 149 151 149
0.90254861 0.37305681 0.99489176 155 156 154
0.91043232 0.37021283 1.00661130 154 155 153
0.91590273 0.38070548 1.01177883 149 149 149
0.90663810 0.43052348 1.33054128 170 170 168
0.91625962 0.43097086 1.34636050 170 171 168
0.90941614 0.44389123 1.33970726 151 151 151
0.91484010 0.44420931 1.34769750 155 155 154
0.93857300 -0.46115449 1.31885576 100 112 120
0.93650517 -0.46516011 1.32603924 98 111 121
0.93785661 -0.44730958 1.31739235 103 111 117
0.93758036 -0.45265131 1.32675722 102 111 118
0.93690463 -0.43874021 1.31544781 97 113 115
0.93732867 0.07942175 0.87611400 145 147 150
0.93755716 0.08233484 0.87620938 149 152 154
0.93970478 0.08235205 0.88729298 125 129 131
0.93786030 0.35843141 1.03456339 159 160 160
0.92363447 0.37191054 0.93753015 154 159 157
0.92295074 0.37659712 0.94314898 146 149 148
0.93475963 0.36577966 1.03317431 161 164 163
0.92481534 0.38268464 0.93804262 144 150 147
0.92400961 0.38278004 0.94516301 141 142 140
0.92962539 0.43718624 1.36947846 170 171 169
0.92094394 0.44248166 1.35668937 175 175 172
0.92869583 0.44029252 1.36810911 178 179 177
0.94085252 -0.46115449 1.31885576 107 113 120
0.94659679 -0.47110730 1.32649383 101 110 120
0.94085252 -0.44747727 1.31885576 104 110 117
0.94634497 -0.44521141 1.32893447 99 111 115
0.94984383 -0.43722008 1.33334379 99 111 115
0.94127569 0.07810831 0.87838373 163 167 167
0.94709871 0.07547405 0.89000981 147 150 153
0.95372659 0.07384192 0.90636101 133 137 140
0.94592583 0.08527337 0.88646532 159 165 163
0.95695465 0.08716524 0.90752504 152 157 155
0.95478773 0.10144202 0.91421732 162 166 162
0.94235139 0.35800771 1.03851846 159 160 158
0.94680474 0.35547582 1.04886848 167 167 163
0.95672407 0.35364195 1.06364540 165 165 162
0.94351853 0.36489561 1.03832005 160 165 163
0.95032992 0.36841938 1.04576686 161 166 163
0.95670965 0.36964497 1.06294602 159 162 160
0.95783329 0.38203433 1.06419444 162 162 161
0.96267438 -0.45455201 1.33970726 102 110 117
0.96671774 -0.44735065 1.34695183 99 111 115
0.97813904 -0.44538465 1.36122859 102 110 115
0.96574599 0.09127569 0.91396963 153 155 152
0.96855239 0.09490985 0.92317818 163 164 161
0.96025291 0.10106136 0.91793114 168 172 169
0.97291827 0.10028960 0.92545006 153 157 156
0.96343814 0.37287994 1.07189436 154 160 158
0.97513470 0.38311893 1.08550161 148 156 157
0.98457405 -0.44594105 1.37018558 101 109 116
0.99548507 -0.44622217 1.38204396 100 109 117
0.99320513 0.42745629 1.55837202 151 152 153
0.99549359 0.43114093 1.56196272 139 139 142
1.01496565 0.07534469 1.10612513 147 149 146
1.00624049 0.08095223 1.09691238 135 138 140
1.01852059 0.08147960 1.10405838 136 140 141
1.00010240 0.42771250 1.56919408 159 160 160
1.01307651 0.43088391 1.59224686 156 157 158
1.01824760 0.43369544 1.60638779 154 156 155
1.01547205 0.44062439 1.60637879 131 134 134
1.03606409 -0.00232587 1.67795014 134 137 147
1.03718126 -0.00087795 1.68211377 132 135 146
1.03856806 0.00203788 1.68910162 132 135 144
1.03065969 0.07346032 1.11755988 154 158 157
1.03623723 0.07112262 1.12129433 154 161 159
1.03529578 0.08974885 1.11514838 127 131 134
1.03872659 0.09051321 1.12140989 136 140 144
1.03090280 0.20802890 1.25768435 166 168 169
1.03620410 0.21191131 1.26571516 173 175 173
1.03347263 0.40592419 1.16729107 125 133 135
1.02173567 0.43025577 1.59880149 160 161 161
1.02436318 0.43023216 1.61164120 158 159 159
1.03208179 0.43318955 1.62642896 160 161 160
1.03784778 0.43311202 1.64537630 155 156 155
1.02066708 0.44167098 1.61019444 138 140 140
1.03102082 0.44718435 1.63544714 136 138 140
1.03476393 0.44171536 1.64138460 158 159 157
1.04814823 -0.00280924 1.67795014 132 136 142
1.04919595 -0.00184901 1.68350856 128 133 139
1.05292328 0.01223137 1.67478547 132 137 143
1.05094897 0.00926864 1.69063591 131 136 143
1.05356878 0.01651004 1.70582654 131 133 141
1.05694258 0.02230746 1.67656910 128 140 144
1.05836048 0.03003347 1.68714335 133 140 144
1.05729675 0.02578158 1.71473730 134 135 142
1.05789948 0.02289248 1.72053766 158 158 165
1.05361483 0.04474618 1.67587858 120 124 128
1.05480528 0.04404822 1.68799276 124 130 133
1.04684430 0.06816103 1.12479603 148 158 157
1.04302810 0.08957956 1.11495887 135 140 142
1.04696710 0.08378947 1.12287161 129 134 135
1.05009866 0.21438632 1.27172071 163 164 163
1.05814266 0.21860608 1.28145909 167 168 167
1.05393541 0.22040434 1.27904117 163 163 163
1.05814266 0.22192843 1.28145909 157 158 158
1.04313219 0.41432979 1.17567320 134 142 142
1.05123651 0.41608612 1.19184984 124 132 133
1.05677855 0.41626960 1.20300335 114 122 124
1.05421940 0.42238181 1.19383351 139 143 143
1.05738711 0.42229341 1.20535932 129 131 133
1.04138434 0.43008029 1.62954772 159 160 161
1.04702009 0.43100934 1.64969789 159 159 158
1.05268316 0.43391269 1.66867140 154 154 153
1.05468315 0.44341844 1.65038741 163 163 165
1.04615039 0.44985892 1.66484516 148 150 151
1.05725344 0.44506487 1.68630509 148 149 149
1.06175941 0.00639669 1.68420595 128 131 139
1.06171060 0.01976815 1.70753610 139 144 149
1.06277083 0.03167489 1.69112216 138 144 149
1.06521258 0.02885730 1.71185658 138 141 146
1.06682086 0.02884010 1.72053766 135 139 146
1.06044042 0.04273301 1.68211377 120 128 130
1.06345886 0.04032594 1.70324588 151 156 158
1.06919060 0.21330890 1.27296165 156 159 160
1.07213206 0.21857776 1.28388975 162 163 163
1.07227001 0.22516508 1.27783906 155 159 158
1.07061678 0.22349015 1.28528570 159 160 160
1.06233549 0.41782573 1.21052110 110 117 120
1.06465229 0.43480127 1.19799270 151 155 152
1.06715875 0.43068692 1.21271594 137 140 139
1.07403069 0.43218837 1.22720891 130 132 132
1.06636947 0.43600871 1.65743732 159 160 161
1.07198964 0.43407647 1.66970171 155 155 154
1.07788479 0.43523166 1.68211377 147 147 145
1.06650782 0.44173260 1.19874871 143 145 145
1.07361035 0.44645384 1.20934633 141 144 144
1.07827236 0.44699504 1.23032204 136 137 136
1.06233966 0.44208968 1.65339470 171 172 174
1.07365024 0.44373503 1.66764322 169 172 172
1.06226182 0.44840452 1.69897699 146 147 147
1.08055001 0.21357505 1.27783680 150 154 157
1.08307731 0.21162314 1.28388608 138 142 147
1.08587480 0.22240065 1.28632538 165 168 165
1.08289582 0.43097539 1.23035854 127 131 131
1.08733939 0.43239902 1.24730290 130 131 131
1.09924328 0.43273371 1.26002204 131 132 132
1.08268908 0.43742146 1.67381212 153 153 153
1.08853313 0.43512809 1.68735990 163 165 164
1.08051503 0.44928077 1.21922994 142 143 142
1.08457897 0.45005854 1.23039072 139 140 140
1.09142880 0.45177780 1.24789338 136 137 137
1.09826417 0.44995758 1.26189916 138 140 139
1.08265245 0.44532461 1.67450094 163 165 166
1.09787035 0.44032428 1.69050336 158 158 158
1.09174342 0.46461213 1.23478711 149 154 154
1.09670810 0.46166131 1.25381974 132 131 132
1.09687980 0.46218987 1.26315637 129 128 129
1.11912990 0.10875963 0.97258514 153 153 153
1.10581908 0.43563389 1.27007598 141 142 142
1.10639173 0.43904538 1.69685328 167 171 169
1.10742390 0.43839688 1.70861956 165 168 169
1.10794272 0.45661559 1.27504615 150 151 147
1.11774099 0.44176608 1.28632224 149 150 150
1.10400379 0.44552090 1.69544101 161 164 163
1.11184414 0.45005808 1.70898554 162 163 164
1.10514840 0.46888980 1.25436693 145 147 148
1.10954638 0.47095431 1.26574723 139 139 141
1.11189038 0.46099237 1.70754701 170 171 171
1.11620772 0.48250809 1.27066016 150 159 158
1.13873518 0.09869152 0.98962313 149 150 152
1.12310633 0.10673550 0.97714178 154 155 156
1.13252473 0.10333130 0.98496599 157 160 160
1.12414026 0.44205925 1.29368675 137 138 138
1.12035382 0.48146613 1.27663243 153 157 157
1.14671088 0.09483695 0.99588043 150 154 153
1.15568557 0.09002523 1.00755739 138 144 144
1.14202619 0.10170266 0.99397629 147 150 152
1.15993333 0.46508306 1.59503961 160 166 160
1.15753498 0.47375408 1.61710992 130 131 131
1.15970790 0.47681531 1.62563992 146 147 146
1.16669954 0.08539740 1.01311528 141 145 145
1.16872318 0.47285367 1.61403556 138 143 141
1.16971440 0.47278745 1.62932113 136 138 137
1.17632204 0.47396354 1.64939578 145 145 143
1.17956543 0.47413653 1.66558194 159 159 154
1.17659020 0.48193654 1.63347435 124 125 126
1.17399756 0.77459973 1.81416484 135 144 138
1.17715764 0.78646901 1.82228994 124 129 129
1.19985569 0.43308237 1.67380702 180 180 176
1.19271704 0.45748570 1.66787004 177 178 174
1.19999552 0.44976863 1.68211377 176 177 174
1.18788922 0.46824963 1.63251626 158 163 163
1.19019041 0.47276235 1.65014450 146 148 148
1.19058081 0.47037522 1.66720659 156 156 153
1.19362459 0.46825766 1.68379169 160 161 157
1.19385064 0.48041227 1.65743732 135 137 137
1.18349308 0.77437846 1.82721502 127 136 134
1.19398314 0.77670012 1.84586877 115 119 122
1.18415623 0.78967433 1.83116846 134 137 137
1.19405660 0.79057004 1.85217044 130 136 134
1.19981027 0.79087842 1.86234021 126 135 131
1.19488859 0.80846900 1.85470074 112 112 117
1.19981027 0.80536348 1.86234021 131 131 133
1.21649837 0.28948752 1.07571516 164 166 164
1.21794766 0.29118834 1.08203077 162 163 162
1.21775198 0.29571652 1.35038221 158 159 154
1.21796325 0.41534287 1.53109545 170 171 169
1.20244491 0.43457633 1.65743732 172 173 172
1.20597853 0.43475472 1.67134559 170 170 168
1.21062049 0.43312808 1.68526249 181 182 179
1.20339982 0.44890006 1.65743732 172 173 172
1.20510165 0.45222433 1.66634341 177 178 174
1.21134571 0.45087016 1.68842171 175 176 174
1.21714787 0.45755186 1.70754337 181 182 180
1.20240736 0.46981376 1.65541601 160 161 160
1.20477338 0.46643599 1.66840056 172 173 167
1.20268134 0.46711837 1.69232665 171 171 168
1.21404970 0.46647697 1.70926962 174 175 171
1.21978450 0.75620115 1.88827813 134 135 134
1.20857720 0.77834805 1.87092880 124 125 126
1.21780331 0.77209667 1.88723495 129 128 128
1.21011467 0.78405406 1.87393340 118 120 123
1.21412749 0.79021245 1.89059861 118 120 121
1.21689856 0.79877728 1.90419054 116 119 120
1.20653534 0.80394214 1.87781680 135 136 136
1.20954221 0.80951239 1.88867378 124 125 126
1.21360743 0.81523347 1.90419054 127 127 128
1.21116491 0.82191588 1.89180434 117 117 119
1.21580152 0.82510716 1.90419054 121 121 122
1.23816212 -0.46197097 1.27904117 100 111 114
1.23613158 -0.46249120 1.28925020 99 110 113
1.23664841 -0.45505204 1.27823826 95 109 112
1.23771881 -0.45448758 1.28478293 93 109 112
1.23865891 0.18599749 1.32530302 124 132 133
1.22255513 0.28843350 1.07773258 168 168 166
1.23087417 0.28954678 1.09081296 157 160 159
1.23786712 0.29186186 1.10226550 155 158 156
1.22896564 0.29800999 1.33970726 132 137 138
1.23037131 0.29556081 1.35374041 144 144 145
