ply
format ascii 1.0
element vertex 1072
property float x
property float y
property float z
property uchar red
property uchar green
property uchar blue
end_header
0.29150376 -0.54286297 0.95121318 107 127 131
0.28992705 -0.53315772 0.90954843 8 10 10
0.28806889 -0.53525312 0.92981802 98 124 129
0.29003168 -0.53022331 0.95680850 106 126 128
0.28811093 -0.51099811 0.95937183 104 124 126
0.29626969 -0.50847391 0.96027392 100 124 126
0.28883769 -0.49096070 0.95942627 103 124 127
0.29695573 -0.48779907 0.96019896 103 123 127
0.29009204 -0.46981265 0.95775826 104 122 126
0.28991838 -0.44922907 0.95446677 108 121 125
0.28139210 -0.42927471 0.93438125 131 129 125
0.29304369 -0.43648317 0.94995802 126 127 127
0.28997458 -0.40802170 0.90863384 159 147 131
0.29002713 -0.38981709 0.90830487 158 145 124
0.29002193 -0.37018632 0.90828857 156 143 122
0.29002206 -0.35056263 0.90828898 157 143 124
0.29002748 -0.33016004 0.90830594 157 140 122
0.29003333 -0.30975714 0.90832423 154 138 119
0.29003983 -0.29013908 0.90834458 155 137 118
0.29004604 -0.27051989 0.90836408 156 138 120
0.29005023 -0.25011303 0.90837715 157 139 122
0.29005972 -0.22970983 0.90840687 158 140 124
0.29006313 -0.21008599 0.90841762 161 142 127
0.29006660 -0.19046167 0.90842849 158 140 125
0.29007074 -0.17005221 0.90844143 157 138 122
0.29007486 -0.14964216 0.90845433 157 139 122
0.29007999 -0.13001708 0.90847041 157 138 123
0.29008735 -0.11039214 0.90849347 156 137 120
0.29009754 -0.08998195 0.90852538 158 138 122
0.29010635 -0.06957001 0.90855295 156 137 122
0.29011477 -0.04994195 0.90857932 151 132 115
0.29012319 -0.03031276 0.90860570 152 133 115
0.29013074 -0.00989715 0.90862934 149 130 113
0.29013825 0.01051952 0.90865290 150 130 114
0.29014612 0.03015200 0.90867756 147 128 110
0.29015660 0.04978602 0.90871040 143 123 108
0.29016767 0.07020690 0.90874510 150 131 115
0.29017322 0.08984222 0.90876247 140 119 102
0.29013487 0.10946095 0.90864226 120 116 115
0.28994246 0.12979117 0.90803961 138 139 141
0.28976067 0.15010035 0.90747028 161 163 164
0.28960912 0.17040167 0.90699564 164 167 168
0.28948659 0.18991737 0.90661190 160 162 164
0.28991061 0.20925298 0.90628423 162 164 164
0.29006926 0.22971702 0.90598464 160 162 163
0.28998626 0.25000251 0.90572537 164 169 169
0.28991490 0.27028719 0.90550249 154 159 159
0.28998087 0.29067939 0.90530648 148 154 155
0.29058107 0.31007287 0.90513994 142 145 145
0.29053356 0.32957473 0.90499198 141 146 147
0.29049046 0.34985753 0.90485772 147 151 151
0.29045549 0.37014468 0.90474881 119 126 126
0.29043096 0.39044096 0.90467241 0 0 0
0.29041062 0.40995792 0.90460903 0 0 0
0.29039046 0.42947240 0.90454624 0 0 0
0.29037120 0.44976722 0.90448625 0 0 0
0.29035210 0.47005961 0.90442675 0 0 0
0.29033333 0.49034989 0.90436830 0 0 0
0.29031758 0.50751680 0.90431923 0 0 0
0.31042739 -0.60645033 0.90827917 0 0 0
0.31046426 -0.59003647 0.90838698 0 0 0
0.31051717 -0.57050760 0.90854175 0 0 0
0.31012697 -0.55042632 0.90877016 0 0 0
0.31686200 -0.54301216 0.93418112 101 125 133
0.31091000 -0.54617516 0.95591246 102 127 128
0.30940949 -0.53533832 0.90978854 13 17 18
0.30896498 -0.53877840 0.92745001 104 128 129
0.30804523 -0.53367589 0.95842390 103 124 127
0.31281116 -0.52536854 0.96072950 102 123 126
0.30153202 -0.51981526 0.95992398 103 126 127
0.30963793 -0.50979852 0.96122613 100 124 125
0.30430452 -0.49051501 0.95994661 103 124 125
0.31012019 -0.48971378 0.96078539 102 122 124
0.30980341 -0.46948215 0.95815050 103 120 124
0.31980984 -0.47837711 0.96000552 100 122 125
0.30989567 -0.44937939 0.95478913 106 120 125
0.30975111 -0.43738228 0.95203472 124 128 127
0.31038076 -0.40800814 0.90860363 161 150 130
0.31042748 -0.38980608 0.90827923 160 147 127
0.31042058 -0.37017429 0.90825905 157 143 125
0.31042230 -0.35055301 0.90826407 156 141 123
0.31042847 -0.33015138 0.90828213 157 142 122
0.31043497 -0.30974927 0.90830115 154 138 119
0.31044147 -0.29013129 0.90832018 156 138 120
0.31044726 -0.27051187 0.90833712 158 140 124
0.31045527 -0.25010843 0.90836052 156 139 121
0.31046243 -0.22970343 0.90838152 159 142 125
0.31046556 -0.21007975 0.90839067 161 142 126
0.31046877 -0.19045571 0.90840006 158 140 124
0.31047306 -0.17004682 0.90841261 156 138 121
0.31047713 -0.14963725 0.90842452 157 138 122
0.31048281 -0.13001289 0.90844114 158 139 125
0.31049072 -0.11038859 0.90846428 155 137 122
0.31050192 -0.08997914 0.90849706 157 138 124
0.31051164 -0.06956790 0.90852549 155 136 120
0.31052115 -0.04994052 0.90855331 151 131 114
0.31052964 -0.03031185 0.90857816 151 132 114
0.31053754 -0.00989685 0.90860126 149 131 114
0.31054477 0.01051916 0.90862241 150 131 114
0.31055224 0.03015090 0.90864429 149 130 112
0.31056306 0.04978414 0.90867596 142 122 104
0.31057436 0.07020410 0.90870902 148 129 113
0.31000430 0.08969471 0.90872925 138 118 102
0.31019885 0.10966127 0.90862519 123 119 118
0.31034112 0.12978928 0.90802648 135 137 141
0.31014671 0.15009826 0.90745763 161 162 164
0.30998511 0.17039964 0.90698481 162 164 165
0.30985437 0.18991536 0.90660227 164 167 168
0.30974199 0.20942673 0.90627346 157 161 162
0.30964121 0.22971548 0.90597855 161 164 164
0.30955333 0.25000143 0.90572143 157 161 161
0.30947715 0.27028601 0.90549855 151 155 156
0.30952302 0.29046653 0.90530378 162 166 165
0.31013591 0.31007196 0.90513731 152 156 154
0.31008472 0.32957324 0.90498788 149 156 156
0.31003949 0.34985682 0.90485589 131 137 138
0.31000175 0.37014341 0.90474572 127 129 127
0.30997540 0.39043942 0.90466883 0 0 0
0.30995369 0.40995631 0.90460547 0 0 0
0.30993243 0.42947106 0.90454343 0 0 0
0.30991212 0.44976618 0.90448414 0 0 0
0.30989177 0.47005856 0.90442474 0 0 0
0.30987185 0.49034898 0.90436662 0 0 0
0.30985524 0.50751619 0.90431812 0 0 0
0.33002939 -0.60641062 0.90821971 0 0 0
0.33007196 -0.59000386 0.90833681 0 0 0
0.33013053 -0.57048011 0.90849799 0 0 0
0.32984082 -0.54992490 0.90884484 0 1 1
0.33308425 -0.54467968 0.92876224 98 125 127
0.33045930 -0.54862039 0.95681603 101 124 126
0.32754930 -0.53780965 0.91049968 22 29 30
0.32841701 -0.53827017 0.95960591 104 124 124
0.33013261 -0.52872790 0.96126190 100 123 124
0.32990686 -0.51057366 0.96283237 101 122 125
0.32969031 -0.49025278 0.96201581 101 120 124
0.32960000 -0.46777043 0.95841500 101 119 124
0.33253799 -0.47751119 0.96038724 102 119 124
0.32994234 -0.44970964 0.95549205 104 119 124
0.32995898 -0.43739778 0.95213944 133 130 130
0.33008111 -0.40806276 0.90859485 159 148 129
0.33003917 -0.38979204 0.90824653 162 147 129
0.33003340 -0.37016270 0.90823062 157 142 122
0.33003620 -0.35054306 0.90823831 157 141 123
0.33004346 -0.33014270 0.90825826 158 142 123
0.33005054 -0.30974129 0.90827775 155 138 118
0.33005620 -0.29012272 0.90829332 159 144 124
0.33006424 -0.27050538 0.90831541 155 139 120
0.33007242 -0.25010225 0.90833798 159 142 125
0.33007862 -0.22969673 0.90835503 156 139 121
0.33008268 -0.21007410 0.90836622 160 143 125
0.33008531 -0.19045014 0.90837346 158 139 124
0.33008924 -0.17004152 0.90838427 158 139 123
0.33009330 -0.14963246 0.90839544 158 139 122
0.33010008 -0.13000902 0.90841410 157 139 123
0.33010892 -0.11038545 0.90843840 157 138 123
0.33012052 -0.08997649 0.90847032 156 137 119
0.33013157 -0.06956601 0.90850074 155 137 119
0.33014148 -0.04993913 0.90852800 151 133 114
0.33015052 -0.03031100 0.90855289 150 132 114
0.33015918 -0.00989658 0.90857672 150 132 114
0.33016676 0.01051887 0.90859757 149 131 114
0.33017392 0.03014999 0.90861727 147 130 111
0.33018420 0.04978247 0.90864559 145 126 108
0.33019752 0.07020203 0.90868222 149 130 115
0.32960502 0.08997509 0.90870436 138 119 101
0.32979488 0.10925412 0.90861475 114 109 107
0.32995463 0.12978748 0.90801378 137 140 141
0.33036147 0.15023764 0.90744335 167 168 168
0.33036126 0.17039795 0.90697576 153 155 158
0.33022273 0.18991393 0.90659543 162 163 163
0.33010379 0.20942567 0.90626886 161 165 165
0.32999634 0.22971430 0.90597389 164 169 169
0.32990373 0.25000094 0.90571961 137 141 143
0.32982158 0.27028467 0.90549410 165 170 170
0.32975116 0.29056863 0.90530074 152 155 153
0.32969082 0.31007120 0.90513509 143 147 146
0.32963656 0.32957259 0.90498612 161 165 163
0.32958805 0.34985568 0.90485295 157 164 162
0.32954756 0.37014180 0.90474179 148 154 154
0.32951899 0.39043707 0.90466337 0 0 0
0.32949621 0.40995421 0.90460083 0 0 0
0.32947398 0.42946934 0.90453979 0 0 0
0.32945278 0.44976491 0.90448159 0 0 0
0.32943125 0.47005738 0.90442247 0 0 0
0.32941031 0.49034809 0.90436498 0 0 0
0.32939283 0.50751554 0.90431698 0 0 0
0.34962716 -0.60636812 0.90815606 0 0 0
0.34967660 -0.58996982 0.90828444 0 0 0
0.34973991 -0.57044926 0.90844886 0 0 0
0.35667152 -0.56083122 0.95209842 102 124 125
0.34950506 -0.55017606 0.90903458 5 6 7
0.35117023 -0.54874992 0.92713608 94 121 125
0.35016774 -0.55019939 0.95628419 101 123 124
0.34132370 -0.53939313 0.90903386 12 16 17
0.35036988 -0.53873122 0.95963167 101 122 125
0.34999373 -0.52880093 0.96147410 99 122 124
0.35012632 -0.51010218 0.96376315 102 119 124
0.34986821 -0.48993261 0.96299844 99 118 126
0.34961534 -0.46647365 0.95874876 101 118 121
0.35082084 -0.47651240 0.96086424 98 118 123
0.34985961 -0.44993549 0.95597068 104 118 121
0.35024826 -0.43761293 0.95253625 130 129 128
0.34969878 -0.40792117 0.90853213 162 151 132
0.34964954 -0.38977808 0.90821402 161 148 127
0.34964585 -0.37015201 0.90820440 157 143 122
0.34965008 -0.35053420 0.90821536 157 140 124
0.34965906 -0.33013558 0.90823868 158 142 125
0.34966622 -0.30973431 0.90825728 159 143 125
0.34967374 -0.29011741 0.90827677 153 138 118
0.34968256 -0.27050073 0.90829970 163 148 128
0.34968753 -0.25009529 0.90831267 159 143 125
0.34969406 -0.22969031 0.90832964 157 140 121
0.34969837 -0.21006822 0.90834082 159 141 125
0.34970072 -0.19044458 0.90834692 158 140 124
0.34970416 -0.17003620 0.90835588 157 139 123
0.34970921 -0.14962809 0.90836896 158 139 122
0.34971700 -0.13000545 0.90838920 158 138 125
0.34972689 -0.11038259 0.90841490 157 138 122
0.34973945 -0.08997423 0.90844752 156 138 122
0.34975157 -0.06956434 0.90847899 156 138 120
0.34976241 -0.04993798 0.90850713 150 132 116
0.34977182 -0.03031029 0.90853157 151 132 115
0.34978126 -0.00989635 0.90855609 150 132 114
0.34978945 0.01051864 0.90857737 148 132 113
0.34979690 0.03014931 0.90859670 147 129 111
0.34980769 0.04978133 0.90862474 143 125 107
0.34982177 0.07020041 0.90866131 150 131 115
0.34982928 0.08983418 0.90868083 136 117 100
0.34979299 0.10945431 0.90858659 122 117 117
0.34956598 0.12978508 0.90799688 139 141 142
0.34994402 0.14994763 0.90744156 166 167 167
0.34995445 0.17039685 0.90696993 167 168 168
0.35027863 0.19009367 0.90658650 163 167 168
0.35046605 0.20942501 0.90626601 146 149 151
0.35035226 0.22971377 0.90597176 166 168 168
0.35025340 0.24999995 0.90571613 154 159 159
0.35016662 0.27028399 0.90549172 154 158 158
0.35009265 0.29056853 0.90530045 148 150 149
0.35002801 0.31007058 0.90513328 161 167 166
0.34997097 0.32957248 0.90498580 138 143 143
0.34991883 0.34985491 0.90485097 147 155 155
0.34987501 0.37014011 0.90473767 162 169 167
0.34984387 0.39043438 0.90465715 8 9 9
0.34981975 0.40995147 0.90459479 0 0 0
0.34979672 0.42946717 0.90453522 0 0 0
0.34977478 0.44976336 0.90447846 0 0 0
0.34975213 0.47005605 0.90441989 0 0 0
0.34973021 0.49034713 0.90436322 0 0 0
0.34971187 0.50751487 0.90431578 0 0 0
0.37000424 -0.60632111 0.90808568 0 0 0
0.37006050 -0.58993036 0.90822371 0 0 0
0.37012994 -0.57041484 0.90839408 0 0 0
0.37131018 -0.56258484 0.95225176 97 123 123
0.36965981 -0.55241684 0.90911389 9 12 13
0.36884374 -0.55319878 0.92892732 97 121 123
0.37003761 -0.55040628 0.95687937 100 121 122
0.37128963 -0.53832322 0.95966915 99 120 125
0.36983338 -0.52800320 0.96181280 100 120 124
0.37015932 -0.50988767 0.96468426 99 120 122
0.37030078 -0.49039729 0.96441335 100 119 123
0.36839868 -0.46417391 0.95915566 102 116 121
0.37069273 -0.47380916 0.96134279 98 117 123
0.36980409 -0.45008069 0.95627562 103 118 121
0.36997073 -0.43757416 0.95245244 127 126 126
0.37004619 -0.40799607 0.90857577 158 147 128
0.37004663 -0.38976752 0.90818944 160 146 125
0.37004437 -0.37014364 0.90818390 158 142 122
0.37005025 -0.35052762 0.90819833 156 142 122
0.37006130 -0.33013076 0.90822542 158 144 123
0.37007055 -0.30973117 0.90824809 158 143 123
0.37008057 -0.29011611 0.90827269 148 134 112
0.37008588 -0.27049660 0.90828577 165 149 131
0.37008760 -0.25008906 0.90829002 159 144 126
0.37009398 -0.22968425 0.90830569 156 140 122
0.37009804 -0.21006241 0.90831567 159 142 125
0.37010031 -0.19043920 0.90832124 159 141 125
0.37010402 -0.17003142 0.90833035 158 139 124
0.37011027 -0.14962425 0.90834567 157 139 123
0.37011861 -0.13000215 0.90836615 157 139 123
0.37012907 -0.11037978 0.90839181 156 139 122
0.37014210 -0.08997188 0.90842381 155 137 122
0.37015531 -0.06956259 0.90845622 154 136 118
0.37016802 -0.04993689 0.90848738 151 133 116
0.37017837 -0.03030966 0.90851277 151 133 116
0.37018915 -0.00989617 0.90853923 151 133 115
0.37019809 0.01051845 0.90856117 150 132 114
0.37020606 0.03014878 0.90858073 147 128 111
0.37021797 0.04978052 0.90860995 144 125 108
0.37023305 0.07019930 0.90864696 149 131 113
0.37024119 0.08983281 0.90866693 138 121 104
0.37020232 0.10945251 0.90857153 115 110 110
0.36996357 0.12978347 0.90798557 143 145 146
0.36973768 0.15009389 0.90743117 154 156 156
0.36954777 0.17039595 0.90696507 145 148 150
0.36983660 0.18972875 0.90658997 165 167 167
0.37004497 0.20942434 0.90626312 166 170 171
0.36992647 0.22971407 0.90597293 140 143 146
0.37025814 0.25020135 0.90571507 158 162 162
0.37051342 0.27028463 0.90549390 151 154 154
0.37043272 0.29056732 0.90529670 159 164 163
0.37036611 0.31007080 0.90513391 135 142 142
0.37030450 0.32957158 0.90498336 146 150 149
0.37024890 0.34985356 0.90484747 160 167 166
0.37020225 0.37013839 0.90473346 143 147 147
0.37016788 0.39043107 0.90464949 16 17 17
0.37014235 0.40994799 0.90458709 0 0 0
0.37011887 0.42946455 0.90452969 0 0 0
0.37009643 0.44976156 0.90447485 0 0 0
0.37007276 0.47005455 0.90441700 0 0 0
0.37004996 0.49034609 0.90436129 0 0 0
0.37003086 0.50751421 0.90431460 0 0 0
0.39037621 -0.60627108 0.90801075 0 0 0
0.39043896 -0.58988680 0.90815670 0 0 0
0.39051952 -0.57038338 0.90834400 0 0 0
0.38813784 -0.56111033 0.93474245 97 125 126
0.39066071 -0.56518913 0.95308410 97 122 123
0.38946178 -0.55513305 0.90911563 11 15 15
0.39258743 -0.55761889 0.92361979 92 122 125
0.38993612 -0.55033070 0.95685861 101 119 122
0.39009762 -0.53731810 0.95943584 97 119 122
0.39007295 -0.52739865 0.96227137 99 119 121
0.38993930 -0.51029748 0.96589834 99 117 120
0.38985507 -0.49044438 0.96610262 100 117 121
0.38411895 -0.46163146 0.95968801 98 118 120
0.39057277 -0.47040901 0.96246581 99 117 120
0.38934919 -0.44949138 0.95651195 103 117 120
0.39704903 -0.45856012 0.96020341 95 116 118
0.38982700 -0.43727727 0.95173430 125 125 124
0.39043313 -0.40796594 0.90850953 160 147 128
0.39044846 -0.38976282 0.90817850 160 146 127
0.39044802 -0.37014102 0.90817746 157 142 121
0.39045302 -0.35052407 0.90818912 156 141 120
0.39046453 -0.33012729 0.90821590 157 142 123
0.39047498 -0.30972848 0.90824024 155 139 119
0.39048505 -0.29011323 0.90826366 152 137 118
0.39048728 -0.27049158 0.90826887 171 155 136
0.39048707 -0.25008311 0.90826839 160 144 127
0.39049292 -0.22967826 0.90828200 157 140 123
0.39049704 -0.21005684 0.90829159 159 142 125
0.39049952 -0.19043420 0.90829736 158 140 126
0.39050336 -0.17002692 0.90830630 157 138 121
0.39051007 -0.14962033 0.90832191 156 137 120
0.39051869 -0.12999869 0.90834196 155 138 121
0.39052950 -0.11037678 0.90836710 157 139 122
0.39054323 -0.08996943 0.90839903 154 136 119
0.39055784 -0.06956081 0.90843301 153 135 117
0.39057238 -0.04993576 0.90846681 151 132 113
0.39005500 -0.03048575 0.90849607 150 132 116
0.38981193 -0.00989600 0.90852426 150 132 115
0.38982177 0.01051829 0.90854717 149 131 113
0.38983089 0.03014837 0.90856843 150 132 116
0.38984328 0.04977982 0.90859729 145 128 111
0.38986040 0.07019855 0.90863718 147 130 113
0.38986832 0.08983169 0.90865566 140 123 105
0.39007931 0.10962690 0.90855278 133 126 124
0.39036257 0.12978251 0.90797873 134 138 139
0.39012584 0.15009339 0.90742809 157 158 158
0.38992576 0.17039550 0.90696269 167 169 169
0.38976395 0.18991203 0.90658633 161 164 165
0.38962495 0.20942432 0.90626301 156 159 160
0.38949911 0.22971340 0.90597031 172 177 176
0.38979716 0.24979800 0.90571960 147 151 151
0.39007728 0.27028494 0.90549495 151 156 157
0.38999292 0.29056809 0.90529910 160 164 163
0.38992096 0.31007017 0.90513208 146 151 152
0.38998409 0.32967922 0.90497991 150 157 155
0.39057903 0.34985240 0.90484448 154 158 157
0.39052923 0.37013661 0.90472912 141 143 140
0.39049095 0.39042716 0.90464045 27 27 27
0.39046405 0.40994393 0.90457813 0 0 0
0.39044037 0.42946150 0.90452326 0 0 0
0.39041751 0.44975930 0.90447029 0 0 0
0.39039301 0.47005274 0.90441353 0 0 0
0.39036953 0.49034492 0.90435913 0 0 0
0.39034965 0.50751334 0.90431306 0 0 0
0.40980049 -0.60686226 0.90793682 0 0 0
0.41012929 -0.59050240 0.90808461 0 0 0
0.41015553 -0.57029056 0.90835714 0 0 0
0.41039936 -0.56403186 0.92759681 94 122 121
0.41038804 -0.56747450 0.95355519 97 120 120
0.40876551 -0.55807163 0.90975212 21 26 27
0.40987432 -0.55005044 0.95798068 100 117 120
0.40602059 -0.53856840 0.95960225 100 117 120
0.41072500 -0.52906205 0.96288265 98 118 121
0.40971215 -0.50990176 0.96705382 97 117 119
0.41007679 -0.49029128 0.96807735 97 116 119
0.40969485 -0.46993609 0.96393383 98 116 120
0.40991559 -0.44764216 0.95625704 104 116 120
0.41128813 -0.45803710 0.96068814 97 115 119
0.41478505 -0.42410045 0.91355814 136 143 141
0.41513102 -0.43095357 0.93056937 131 134 135
0.40901333 -0.43620404 0.94931991 126 124 124
0.41014386 -0.40840237 0.90859150 158 148 129
0.41007195 -0.38976480 0.90818309 159 145 126
0.41006930 -0.37014093 0.90817722 158 145 124
0.41007277 -0.35052245 0.90818490 157 142 123
0.41008258 -0.33012395 0.90820666 156 142 124
0.41009178 -0.30972398 0.90822703 151 136 115
0.41009977 -0.29010722 0.90824477 160 146 127
0.41010043 -0.27048484 0.90824626 168 152 132
0.41010047 -0.25007704 0.90824634 158 142 124
0.41010561 -0.22967212 0.90825771 156 140 120
0.41010886 -0.21005067 0.90826492 158 141 122
0.41011089 -0.19042834 0.90826943 157 139 123
0.41011440 -0.17002147 0.90827722 156 139 121
0.41012147 -0.14961555 0.90829288 155 139 119
0.41013093 -0.12999466 0.90831383 155 138 120
0.41014302 -0.11037356 0.90834060 155 139 122
0.41015805 -0.08996694 0.90837387 155 137 118
0.41017355 -0.06955891 0.90840821 154 136 117
0.41018951 -0.04993447 0.90844354 150 133 116
0.40964739 -0.03013712 0.90847588 150 133 114
0.40943176 -0.00989578 0.90850421 149 132 115
0.40944387 0.01051812 0.90853105 148 130 113
0.40945542 0.03014799 0.90855666 149 132 116
0.40946937 0.04977930 0.90858761 145 129 111
0.40948786 0.07019789 0.90862862 148 130 115
0.40949377 0.08983030 0.90864175 141 124 106
0.40967725 0.10927770 0.90854216 132 127 123
0.40997723 0.12978174 0.90797332 128 132 133
0.41040046 0.15019596 0.90742352 159 161 162
0.41030459 0.17039546 0.90696242 152 155 156
0.41013431 0.18991196 0.90658602 171 174 174
0.40998822 0.20942433 0.90626309 158 162 163
0.40985594 0.22971350 0.90597069 167 170 170
0.40974102 0.25000011 0.90571667 158 164 164
0.40964030 0.27028468 0.90549404 151 156 157
0.40955294 0.29056867 0.90530092 136 139 140
0.40947571 0.31006953 0.90513022 149 155 154
0.40951981 0.32946707 0.90497928 156 161 159
0.41012707 0.34985125 0.90484151 137 142 141
0.41007381 0.37013451 0.90472401 143 152 153
0.41003214 0.39042354 0.90463208 35 37 38
0.41000364 0.40993989 0.90456922 0 0 0
0.40997971 0.42945826 0.90451642 0 0 0
0.40995634 0.44975660 0.90446486 0 0 0
0.40993119 0.47005057 0.90440935 0 0 0
0.40990708 0.49034332 0.90435617 0 0 0
0.40988641 0.50751194 0.90431056 0 0 0
0.42954728 -0.60696458 0.90787430 0 0 0
0.42961909 -0.59058662 0.90802607 0 0 0
0.43711899 -0.58104070 0.95312502 96 119 119
0.42952953 -0.57039478 0.90876361 8 9 10
0.42726533 -0.57001287 0.93081538 97 119 119
0.43001527 -0.57001306 0.95526685 95 119 119
0.42802423 -0.55245399 0.95909328 96 117 120
0.43332034 -0.54453078 0.96075794 95 116 120
0.42996630 -0.52963449 0.96438682 97 117 120
0.43011920 -0.50968620 0.96863552 96 116 118
0.42980258 -0.49037610 0.96993411 95 116 118
0.42994000 -0.46982560 0.96471243 97 115 119
0.42844771 -0.45194359 0.95666923 106 119 124
0.42682678 -0.45863764 0.96036575 97 116 118
0.42627297 -0.42327588 0.91291607 142 146 142
0.42906808 -0.42976590 0.92371811 135 139 138
0.42140140 -0.43872535 0.94871606 116 121 123
0.42950643 -0.40881792 0.90863105 160 151 132
0.42969049 -0.38976210 0.90817682 163 149 127
0.42968950 -0.37013990 0.90817472 158 145 123
0.42969231 -0.35052083 0.90818068 157 142 123
0.42970233 -0.33012219 0.90820184 159 145 125
0.42971104 -0.30972170 0.90822026 157 142 123
0.42971306 -0.29010079 0.90822460 159 145 125
0.42971123 -0.27047724 0.90822074 162 147 128
0.42971201 -0.25007044 0.90822236 158 142 124
0.42971678 -0.22966575 0.90823248 156 140 120
0.42971920 -0.21004436 0.90823759 158 142 125
0.42971973 -0.19042191 0.90823872 157 140 121
0.42972241 -0.17001533 0.90824439 156 140 120
0.42972998 -0.14961020 0.90826040 157 139 119
0.42974009 -0.12999008 0.90828177 154 137 121
0.42975270 -0.11036965 0.90830842 156 139 121
0.42976814 -0.08996369 0.90834107 156 139 121
0.42978366 -0.06955628 0.90837388 157 139 120
0.42980039 -0.04993259 0.90840924 150 133 115
0.42981544 -0.03030726 0.90844106 151 133 114
0.42982975 -0.00989542 0.90847129 148 132 112
0.42984488 0.01051781 0.90850325 148 129 110
0.42986044 0.03014732 0.90853610 149 133 115
0.42987866 0.04977859 0.90857457 146 129 110
0.42989870 0.07019700 0.90861692 147 130 111
0.42990481 0.08982911 0.90862982 141 124 109
0.42985812 0.10944770 0.90853109 133 130 127
0.42959376 0.12978160 0.90797234 118 121 124
0.42999138 0.14998418 0.90742809 166 168 167
0.42996454 0.17045533 0.90696225 156 161 162
0.43050558 0.18991231 0.90658766 154 155 155
0.43035195 0.20942458 0.90626415 164 170 169
0.43021358 0.22971402 0.90597274 164 168 168
0.43009261 0.25000048 0.90571800 165 171 169
0.42998601 0.27028453 0.90549351 144 147 149
0.42989368 0.29056809 0.90529912 153 160 160
0.42981255 0.31006885 0.90512824 153 158 156
0.42974080 0.32956933 0.90497715 146 150 148
0.42967515 0.34985024 0.90483891 146 151 150
0.42961858 0.37013278 0.90471978 168 174 172
0.42957336 0.39042029 0.90462456 60 62 62
0.42954312 0.40993612 0.90456089 0 0 0
0.42951879 0.42945505 0.90450965 0 0 0
0.42949457 0.44975351 0.90445864 0 0 0
0.42946880 0.47004799 0.90440438 0 0 0
0.42944408 0.49034123 0.90435231 0 0 0
0.42942265 0.50751004 0.90430718 0 0 0
0.44992351 -0.60693328 0.90782748 0 0 0
0.45000222 -0.59056071 0.90798630 0 0 0
0.45118434 -0.58301215 0.95406960 92 117 117
0.44954551 -0.57314305 0.90864966 9 12 12
0.44505358 -0.57213593 0.92644022 97 114 117
0.44887151 -0.57196685 0.95817127 94 117 120
0.45386734 -0.56307102 0.96083406 92 116 117
0.44085643 -0.55874916 0.95982760 95 118 119
0.45016201 -0.54956477 0.96227462 95 117 119
0.44998450 -0.53012653 0.96706002 95 116 118
0.44964332 -0.50985736 0.97022813 98 116 119
0.44991469 -0.49054548 0.97121245 97 116 118
0.44988382 -0.47042305 0.96584205 98 115 120
0.44888532 -0.45127246 0.95754934 113 123 129
0.45335658 -0.45678291 0.96095206 106 120 124
0.44195181 -0.42923039 0.92731695 139 145 144
0.45401161 -0.43722479 0.94779509 119 122 123
0.45012585 -0.40798605 0.90855375 159 150 133
0.45009449 -0.38976017 0.90817232 161 149 128
0.45009478 -0.37013914 0.90817288 153 140 120
0.45009788 -0.35052024 0.90817913 159 145 124
0.45010610 -0.33011999 0.90819577 165 150 130
0.45011120 -0.30971688 0.90820608 163 149 131
0.45011232 -0.29009558 0.90820832 154 140 121
0.45011072 -0.27047258 0.90820509 162 146 127
0.45011113 -0.25006592 0.90820593 159 142 125
0.45011429 -0.22966065 0.90821231 154 139 119
0.45011556 -0.21003911 0.90821488 158 142 123
0.45011550 -0.19041689 0.90821477 157 140 123
0.45011700 -0.17001036 0.90821779 156 140 120
0.45012308 -0.14960521 0.90823009 156 138 120
0.45013253 -0.12998541 0.90824918 155 138 119
0.45014518 -0.11036555 0.90827470 156 138 121
0.45016056 -0.08996019 0.90830573 157 140 123
0.45017550 -0.06955338 0.90833590 155 139 120
0.45019155 -0.04993034 0.90836829 149 131 114
0.45020714 -0.03030588 0.90839976 149 133 115
0.45022300 -0.00989498 0.90843175 148 132 112
0.45024133 0.01051742 0.90846872 146 129 108
0.45026194 0.03014648 0.90851027 149 133 115
0.45028557 0.04977769 0.90855790 146 129 111
0.45030935 0.07019614 0.90860588 147 130 112
0.45031687 0.08982827 0.90862105 144 127 111
0.45027530 0.10944847 0.90853710 134 129 125
0.44999779 0.12978228 0.90797717 137 139 140
0.44972422 0.15009291 0.90742519 163 164 162
0.44955128 0.17033965 0.90696330 162 165 165
0.45009296 0.18991245 0.90658836 158 163 164
0.44993346 0.20942526 0.90626708 158 161 160
0.45040049 0.22985553 0.90597279 169 174 173
0.45044505 0.25000129 0.90572094 149 152 152
0.45033420 0.27028586 0.90549805 132 140 141
0.45023295 0.29056659 0.90529448 168 173 171
0.45014888 0.31006789 0.90512544 147 153 153
0.45007414 0.32956861 0.90497517 139 146 147
0.45000503 0.34984919 0.90483619 161 169 168
0.44994602 0.37013186 0.90471753 156 161 159
0.44989750 0.39041830 0.90461998 78 80 79
0.44986501 0.40993330 0.90455466 0 0 0
0.44983959 0.42945215 0.90450356 0 0 0
0.44981430 0.44975055 0.90445269 0 0 0
0.44978768 0.47004529 0.90439917 0 0 0
0.44976210 0.49033875 0.90434774 0 0 0
0.44973981 0.50750765 0.90430291 0 0 0
0.47030293 -0.60690879 0.90779081 0 0 0
0.47038407 -0.59053539 0.90794739 0 0 0
0.47336332 -0.58280858 0.93242550 96 119 123
0.47006112 -0.58614355 0.95549329 91 118 118
0.47767592 -0.58157652 0.96084489 92 116 117
0.46952389 -0.57613451 0.90912552 16 20 20
0.46415393 -0.57739686 0.92524379 95 116 125
0.46326069 -0.57632662 0.95943402 93 116 119
0.47116734 -0.56906479 0.96207180 95 116 118
0.46994644 -0.55014372 0.96513879 96 116 119
0.46996649 -0.53024498 0.97034551 94 117 119
0.46997534 -0.50975500 0.97296004 96 115 119
0.46975389 -0.49012182 0.97295825 96 115 119
0.47000538 -0.46982425 0.96780397 98 115 122
0.47080571 -0.44453268 0.95881186 110 118 123
0.47023026 -0.45210702 0.96246561 103 118 122
0.47001961 -0.42022529 0.91641599 146 146 141
0.47362048 -0.42560086 0.92813888 143 144 140
0.47204531 -0.43661435 0.95173293 130 131 131
0.47069277 -0.40849232 0.90856583 156 146 127
0.47050556 -0.38976423 0.90818177 160 148 127
0.47050384 -0.37014144 0.90817848 155 143 124
0.47050499 -0.35052087 0.90818074 157 143 123
0.47050893 -0.33011732 0.90818835 163 148 128
0.47050914 -0.30971099 0.90818879 166 151 131
0.47051356 -0.29009206 0.90819730 154 139 119
0.47051291 -0.27046989 0.90819605 161 145 127
0.47051329 -0.25006340 0.90819678 157 141 124
0.47051507 -0.22965760 0.90820022 154 138 119
0.47051473 -0.21003558 0.90819958 160 143 124
0.47051460 -0.19041365 0.90819933 156 138 120
0.47051527 -0.17000715 0.90820062 157 139 121
0.47051951 -0.14960172 0.90820882 156 140 121
0.47052766 -0.12998189 0.90822455 154 137 120
0.47053937 -0.11036222 0.90824717 154 137 120
0.47055322 -0.08995705 0.90827391 157 139 120
0.47056627 -0.06955057 0.90829913 155 138 121
0.47045891 -0.05003008 0.90832804 148 133 110
0.46981300 -0.03030456 0.90836039 150 133 113
0.46983035 -0.00989457 0.90839393 148 131 112
0.46985270 0.01051707 0.90843713 146 130 110
0.46987769 0.03014567 0.90848543 150 133 115
0.46990635 0.04977677 0.90854083 146 129 109
0.46993322 0.07019513 0.90859276 147 130 110
0.46994367 0.08982749 0.90861295 148 132 115
0.46990939 0.10944965 0.90854663 141 137 131
0.47040382 0.12978344 0.90798541 133 135 137
0.47011641 0.15009381 0.90743065 168 169 167
0.46987499 0.17039588 0.90696468 160 162 163
0.46968006 0.18991247 0.90658841 167 169 167
0.46951554 0.20942612 0.90627085 151 157 159
0.46995476 0.22956764 0.90597811 169 173 171
0.47001254 0.25000084 0.90571935 151 157 157
0.46989520 0.27028443 0.90549325 151 158 158
0.47046069 0.29066888 0.90529199 170 173 170
0.47048639 0.31006776 0.90512509 156 160 158
0.47040602 0.32956691 0.90497051 160 166 166
0.47033570 0.34984882 0.90483523 161 167 165
0.47027383 0.37013131 0.90471620 150 153 150
0.47022219 0.39041696 0.90461687 74 76 77
0.47018754 0.40993128 0.90455021 0 0 0
0.47016056 0.42944966 0.90449830 0 0 0
0.47013414 0.44974796 0.90444747 0 0 0
0.47010651 0.47004277 0.90439432 0 0 0
0.47007982 0.49033617 0.90434298 0 0 0
0.47005661 0.50750507 0.90429832 0 0 0
0.48990924 -0.60690039 0.90777821 0 0 0
0.49017439 -0.58998996 0.90822724 4 6 6
0.49282218 -0.58885329 0.93263350 87 119 114
0.49031651 -0.59179960 0.95629896 92 117 118
0.49128702 -0.58336551 0.96192974 93 116 118
0.48593136 -0.57859391 0.90934684 27 37 36
0.48996681 -0.56998389 0.96494246 93 116 118
0.48998921 -0.55006830 0.96879847 95 116 117
0.49011557 -0.53036628 0.97405626 97 115 118
0.48985284 -0.50984137 0.97601488 96 114 119
0.49026360 -0.49036459 0.97577445 97 115 117
0.48985748 -0.47032682 0.97028851 97 115 118
0.48703103 -0.44465621 0.95914829 111 119 123
0.49058549 -0.45300393 0.96336279 101 116 119
0.49382774 -0.42315727 0.91130883 174 176 170
0.48877180 -0.42916447 0.92984869 137 137 137
0.48284345 -0.43849919 0.95267630 121 123 124
0.49036181 -0.40989901 0.90833759 160 152 136
0.49013372 -0.38976954 0.90819417 158 147 127
0.49012805 -0.37014357 0.90818369 156 145 124
0.49012804 -0.35052200 0.90818366 154 140 120
0.49012925 -0.33011647 0.90818592 159 147 126
0.49012427 -0.30970688 0.90817672 166 153 133
0.49012955 -0.29008861 0.90818652 155 142 122
0.49012818 -0.27046629 0.90818398 160 146 127
0.49012875 -0.25006017 0.90818503 158 143 124
0.49013109 -0.22965485 0.90818936 155 138 119
0.49012985 -0.21003269 0.90818706 160 144 125
0.49013033 -0.19041127 0.90818796 156 139 121
0.49013127 -0.17000510 0.90818971 157 140 122
0.49013411 -0.14959944 0.90819496 156 140 121
0.49014307 -0.12998003 0.90821157 153 137 117
0.49015391 -0.11036034 0.90823167 155 138 118
0.49016609 -0.08995510 0.90825423 157 140 122
0.49017899 -0.06954897 0.90827815 155 139 121
0.49005342 -0.04981931 0.90830451 149 133 113
0.48942496 -0.03030373 0.90833556 149 132 111
0.48944362 -0.00989431 0.90837018 148 131 110
0.48946749 0.01051681 0.90841447 146 129 110
0.48949582 0.03014507 0.90846703 149 133 113
0.48953106 0.04977633 0.90853240 146 129 109
0.48956380 0.07019518 0.90859314 145 129 111
0.48957709 0.08982798 0.90861777 150 134 116
0.48954561 0.10945119 0.90855932 141 137 130
0.49002784 0.12978522 0.90799797 144 147 146
0.49033836 0.15023634 0.90743545 165 167 167
0.49025764 0.17039714 0.90697144 165 167 167
0.49005444 0.18991395 0.90659552 157 162 160
0.48987916 0.20942622 0.90627128 162 167 168
0.48972103 0.22971554 0.90597872 145 149 150
0.48957989 0.25000035 0.90571762 164 170 170
0.48945714 0.27028363 0.90549054 164 170 168
0.49000545 0.29045808 0.90529574 131 138 140
0.49004275 0.31006834 0.90512681 156 163 162
0.48995789 0.32956675 0.90497006 166 171 169
0.48988436 0.34984844 0.90483425 144 147 145
0.49043147 0.37027166 0.90471387 127 132 133
0.49054677 0.39041563 0.90461379 99 104 103
0.49051022 0.40992955 0.90454640 0 0 0
0.49048150 0.42944735 0.90449343 0 0 0
0.49045412 0.44974571 0.90444295 0 0 0
0.49042521 0.47004033 0.90438964 0 0 0
0.49039731 0.49033357 0.90433818 0 0 0
0.49037309 0.50750238 0.90429351 0 0 0
0.50952146 -0.60689982 0.90777736 0 0 0
0.51213806 -0.60177638 0.95518529 93 116 118
0.50911412 -0.59174040 0.90836809 7 8 9
0.50949909 -0.59094344 0.92736841 90 115 113
0.50898775 -0.59494206 0.95744718 92 116 116
0.51068637 -0.58538122 0.96278878 92 116 117
0.51011335 -0.57030546 0.96707959 92 116 119
0.50981844 -0.55022765 0.97174770 94 116 117
0.51010619 -0.53074714 0.97696458 95 116 118
0.50893500 -0.51093898 0.97846554 97 115 117
0.51666484 -0.50462753 0.98038011 98 114 118
0.50905050 -0.48939453 0.97789017 95 114 117
0.51750183 -0.49600445 0.98036088 96 113 118
0.50995662 -0.47036473 0.97301144 94 116 118
0.50696070 -0.44269938 0.95509839 130 133 135
0.50958804 -0.45358248 0.96661045 102 118 119
0.50621308 -0.42385777 0.91248931 158 159 155
0.51120145 -0.43290497 0.92697775 142 145 147
0.50951186 -0.40929982 0.90842285 153 146 131
0.50976796 -0.38977908 0.90821634 157 145 125
0.50975439 -0.37014706 0.90819221 159 145 125
0.50975202 -0.35052368 0.90818803 153 140 119
0.50975257 -0.33011760 0.90818902 158 144 123
0.50974514 -0.30970657 0.90817579 164 151 131
0.50974695 -0.29008623 0.90817905 154 140 120
0.50974613 -0.27046438 0.90817758 161 147 126
0.50974740 -0.25005874 0.90817984 156 142 122
0.50974985 -0.22965355 0.90818420 154 138 117
0.50974894 -0.21003165 0.90818256 159 144 126
0.50974855 -0.19040999 0.90818186 157 141 124
0.50974840 -0.17000359 0.90818160 158 141 123
0.50975060 -0.14959789 0.90818554 156 140 124
0.50975884 -0.12997841 0.90820025 153 136 116
0.50977029 -0.11035900 0.90822062 154 137 117
0.50978418 -0.08995422 0.90824536 154 137 119
0.50979444 -0.06954788 0.90826367 153 138 120
0.50980137 -0.04992530 0.90827608 149 132 114
0.50981757 -0.03030271 0.90830494 149 132 112
0.50983982 -0.00989401 0.90834453 148 132 112
0.50986683 0.01051656 0.90839265 146 130 111
0.50989863 0.03014449 0.90844931 147 133 114
0.50993643 0.04977547 0.90851668 144 130 109
0.50997425 0.07019452 0.90858406 142 125 107
0.50999874 0.08982897 0.90862760 154 137 117
0.50996675 0.10945256 0.90857060 136 131 126
0.50965209 0.12978693 0.90800997 131 134 137
0.50993054 0.14994929 0.90745166 169 171 170
0.51010928 0.17057403 0.90697429 159 161 160
0.51042697 0.18991462 0.90659877 173 177 175
0.51024364 0.20942667 0.90627314 159 161 160
0.51007773 0.22971546 0.90597847 170 175 174
0.50993254 0.25000119 0.90572059 157 161 159
0.50980547 0.27028491 0.90549490 140 143 143
0.50968915 0.29056462 0.90528831 159 166 165
0.50959740 0.31006786 0.90512534 142 147 149
0.50951212 0.32956813 0.90497386 139 145 145
0.50943313 0.34984818 0.90483358 141 146 145
0.50995566 0.36998272 0.90471359 158 166 164
0.51008976 0.39041455 0.90461130 120 127 126
0.51005165 0.40992833 0.90454371 0 0 0
0.51002123 0.42944561 0.90448977 0 0 0
0.50999249 0.44974365 0.90443881 0 0 0
0.50996213 0.47003791 0.90438497 0 0 0
0.50993303 0.49033096 0.90433336 0 0 0
0.50990774 0.50749957 0.90428851 0 0 0
0.52990196 -0.60688063 0.90774871 0 0 0
0.53416816 -0.60352450 0.93725835 89 116 119
0.53114951 -0.60488223 0.95552879 92 116 116
0.52913402 -0.59478018 0.90830937 7 10 10
0.53365504 -0.59682015 0.92351135 87 114 116
0.52880262 -0.59656803 0.95858783 94 116 116
0.53048095 -0.58680613 0.96319006 91 116 118
0.52998494 -0.56986353 0.96827170 92 116 118
0.52992099 -0.55005998 0.97431510 95 115 117
0.52834278 -0.53179447 0.97871701 96 115 117
0.53422459 -0.52687531 0.98039330 95 113 117
0.52573240 -0.51641851 0.97936588 95 115 117
0.53108305 -0.50825322 0.98151719 95 115 119
0.52679042 -0.48406179 0.97912259 96 115 118
0.53141949 -0.49319349 0.98118631 96 114 119
0.53020209 -0.46985147 0.97507954 101 115 118
0.53196973 -0.44475684 0.95287532 120 124 127
0.52896218 -0.45742007 0.97092334 110 117 125
0.53241557 -0.42080287 0.91422956 135 137 135
0.53037439 -0.42783761 0.92701487 133 139 140
0.53317061 -0.43806512 0.94699121 110 119 122
0.53025493 -0.40887036 0.90846437 151 142 124
0.53019618 -0.38979464 0.90825248 158 146 124
0.53017490 -0.37015681 0.90821608 156 145 124
0.53016296 -0.35052666 0.90819569 153 139 120
0.53015742 -0.33011659 0.90818623 158 145 124
0.53014717 -0.30970415 0.90816867 163 149 130
0.53014354 -0.29008094 0.90816246 155 141 121
0.53014601 -0.27046112 0.90816666 160 146 126
0.53015031 -0.25005712 0.90817400 157 142 122
0.53015528 -0.22965311 0.90818249 154 139 120
0.53015793 -0.21003268 0.90818705 156 143 123
0.53015800 -0.19041110 0.90818717 155 141 121
0.53015782 -0.17000460 0.90818686 157 143 124
0.53015517 -0.14959736 0.90818232 156 142 126
0.53016862 -0.12997911 0.90820521 154 138 120
0.52965742 -0.11053762 0.90823695 152 138 119
0.52942924 -0.08995781 0.90828287 152 138 116
0.52894838 -0.06974800 0.90836368 150 136 117
0.52862606 -0.05005558 0.90845665 151 138 120
0.52804676 -0.03031242 0.90860171 151 139 122
0.52821369 -0.00989906 0.90888626 148 138 124
0.52840057 0.01037970 0.90937162 148 138 125
0.52966477 0.03003920 0.90987980 145 137 127
0.52984674 0.05005736 0.90978936 143 137 127
0.53016641 0.07026753 0.90953997 140 135 126
0.52992767 0.08987836 0.90913476 130 127 120
0.53021684 0.10963640 0.90867880 124 126 125
0.53006364 0.12978914 0.90802548 128 134 137
0.52973190 0.15009819 0.90745723 159 163 162
0.52968596 0.17022924 0.90698798 167 172 170
0.53001770 0.18991586 0.90660465 167 170 166
0.53020131 0.20962985 0.90627377 163 168 168
0.53043445 0.22971540 0.90597827 170 175 173
0.53028470 0.25000172 0.90572250 155 158 157
0.53015209 0.27028525 0.90549600 140 146 147
0.53003101 0.29056490 0.90528917 169 173 169
0.52993465 0.31006762 0.90512462 139 142 141
0.52984567 0.32956768 0.90497266 149 157 157
0.52976312 0.34984744 0.90483165 157 163 160
0.52969250 0.37012920 0.90471105 166 173 170
0.52963292 0.39041368 0.90460929 143 147 146
0.52959288 0.40992705 0.90454089 0 0 0
0.52956106 0.42944407 0.90448654 0 0 0
0.52953046 0.44974139 0.90443428 0 0 0
0.52949863 0.47003528 0.90437992 0 0 0
0.52946828 0.49032809 0.90432808 0 0 0
0.52944198 0.50749657 0.90428317 0 0 0
0.55042535 -0.60673156 0.90788386 1 2 2
0.55335051 -0.60625769 0.93274266 91 117 118
0.55042052 -0.60758535 0.95639254 93 116 116
0.54883685 -0.59748823 0.90880957 24 31 31
0.54255326 -0.59838466 0.92124003 91 115 118
0.54565129 -0.59851396 0.95964389 93 115 116
0.55031803 -0.58923532 0.96386778 90 116 117
0.54996913 -0.56951091 0.96959482 94 115 117
0.55015948 -0.55005078 0.97649893 94 115 116
0.54668585 -0.53811697 0.97913802 97 114 115
0.55028957 -0.52908592 0.98147507 96 115 117
0.55026162 -0.51046479 0.98256140 93 115 118
0.54985891 -0.49011146 0.98209288 96 114 117
0.54953594 -0.47000028 0.97671813 97 115 117
0.55481793 -0.47868752 0.98017758 96 116 116
0.54430460 -0.44123773 0.95503972 116 124 128
0.55038843 -0.45447312 0.97024788 106 116 123
0.54296705 -0.42187409 0.91655687 125 129 127
0.55098738 -0.42773661 0.92739082 132 137 135
0.54377428 -0.43683501 0.94551021 120 129 130
0.54987499 -0.40878127 0.90857973 147 141 125
0.54985715 -0.38982149 0.90831490 154 145 125
0.54988722 -0.37010672 0.90826610 155 145 127
0.54905760 -0.35087074 0.90845349 149 139 122
0.54766188 -0.33029883 0.90835911 154 146 127
0.54764655 -0.30994424 0.90863945 155 146 129
0.54721406 -0.28998229 0.90888346 148 140 125
0.54651656 -0.27040448 0.90919353 150 141 126
0.54537251 -0.25079573 0.90900276 152 142 125
0.55849233 -0.24800859 0.92337158 99 103 102
0.54453761 -0.22975913 0.90860558 148 139 125
0.54464651 -0.21062480 0.90952550 144 138 125
0.55807004 -0.21491343 0.92584747 93 93 102
0.54452866 -0.19038174 0.90994880 139 134 121
0.55559483 -0.18102304 0.92439173 96 101 97
0.54468696 -0.17008766 0.91147658 143 137 122
0.54301469 -0.15062732 0.91011144 134 126 118
0.55384283 -0.15024747 0.92495767 78 73 68
0.54263715 -0.12954632 0.91068958 114 103 95
0.55828488 -0.13612287 0.93424064 65 55 56
0.54282503 -0.11047961 0.91249244 110 100 93
0.55370897 -0.10487413 0.92927104 70 62 59
0.54348759 -0.09059595 0.91477035 75 69 70
0.55829738 -0.09279116 0.93697161 73 69 70
0.54356569 -0.07333857 0.91638071 90 83 74
0.55088613 -0.06704992 0.92811734 82 73 68
0.55893060 -0.06146713 0.94076324 82 75 73
0.54083023 -0.04241517 0.91562507 135 131 123
0.55380155 -0.04666606 0.93129042 132 133 131
0.55896507 -0.05578030 0.94082125 94 93 88
0.55261487 -0.02942847 0.92536018 136 141 142
0.55020709 -0.00636513 0.91854069 129 135 137
0.55240841 -0.01653520 0.92094845 127 133 135
0.55002977 0.00999279 0.91587352 130 135 137
0.55006561 0.02963826 0.91355987 129 133 136
0.54992065 0.04976298 0.91184862 140 142 143
0.55012644 0.07053499 0.91053535 127 129 131
0.54982198 0.08991918 0.90955548 113 118 120
0.54986983 0.10929753 0.90875795 118 126 128
0.55030447 0.12993290 0.90803906 127 134 136
0.55012889 0.15010008 0.90746865 163 168 166
0.54984033 0.17040111 0.90699267 169 172 170
0.54960784 0.18991681 0.90660918 141 147 148
0.54975491 0.20922669 0.90628116 170 175 174
0.55001019 0.22971619 0.90598135 144 146 146
0.55010761 0.25017790 0.90572282 140 146 147
0.55049696 0.27028471 0.90549416 154 161 161
0.55037718 0.29056745 0.90529713 131 136 136
0.55027305 0.31006802 0.90512586 141 145 144
0.55017879 0.32956701 0.90497081 148 153 151
0.55009394 0.34984728 0.90483124 148 154 151
0.55001985 0.37012852 0.90470939 159 161 158
0.54995718 0.39041239 0.90460630 130 135 134
0.54991430 0.40992473 0.90453578 6 6 6
0.54988101 0.42944145 0.90448102 0 0 0
0.54984880 0.44973829 0.90442805 0 0 0
0.54981568 0.47003198 0.90437356 0 0 0
0.54978418 0.49032466 0.90432176 0 0 0
0.54975700 0.50749313 0.90427704 0 0 0
0.57771326 -0.62064252 0.95297104 93 115 115
0.56984452 -0.60682036 0.90834929 11 14 15
0.57114715 -0.61034620 0.93098265 91 114 117
0.56885243 -0.61324978 0.95622293 91 116 115
0.57240090 -0.60421345 0.96181925 92 115 116
0.56177807 -0.59982822 0.90855414 24 31 32
0.57006706 -0.59033095 0.96646583 92 115 116
0.56970039 -0.56959697 0.97159391 94 115 117
0.56981736 -0.55087368 0.97812555 95 116 117
0.57351649 -0.54143057 0.98028482 98 115 119
0.57015370 -0.53077337 0.98253891 94 116 118
0.57002261 -0.50999855 0.98370956 95 115 118
0.57011349 -0.49026802 0.98354040 95 115 117
0.56950392 -0.46679526 0.97738818 97 115 119
0.57170833 -0.47657871 0.98085424 96 115 118
0.57388961 -0.44305168 0.95896593 125 133 131
0.56997188 -0.45442777 0.97253495 107 118 125
0.56335928 -0.42014070 0.91623151 141 140 139
0.57043558 -0.42516823 0.92648324 125 127 128
0.57148578 -0.43536203 0.94408327 123 128 129
0.57001304 -0.40800013 0.90934516 134 132 125
0.56975028 -0.39009976 0.90883254 132 129 120
0.56664863 -0.37386800 0.90991399 135 136 129
0.57596510 -0.36800493 0.93111785 108 115 116
0.57981456 -0.36374971 0.94035053 109 115 118
0.56131795 -0.34868591 0.91505607 104 109 107
0.57555903 -0.34936369 0.93547052 105 113 116
0.56157690 -0.33068432 0.91849658 106 110 111
0.57512135 -0.32972853 0.93567234 103 113 117
0.56047295 -0.30396314 0.91928977 102 103 103
0.57270115 -0.31042747 0.93419678 108 112 115
0.57842528 -0.30419512 0.94035671 99 110 114
0.57028183 -0.29183402 0.93537142 106 111 114
0.57712606 -0.28882654 0.94172000 100 109 115
0.56912857 -0.27068520 0.93614067 108 113 117
0.57672082 -0.26999816 0.94215356 99 109 114
0.56677899 -0.24932038 0.93493396 106 109 110
0.57595630 -0.24995381 0.94334664 100 107 111
0.56376163 -0.23111199 0.93201860 101 106 109
0.57522957 -0.22982691 0.94403455 96 106 111
0.56388692 -0.21013241 0.93453652 102 103 109
0.57526029 -0.20955341 0.94571749 98 103 110
0.56549844 -0.19669547 0.93817132 104 105 111
0.57423467 -0.18980664 0.94661606 98 105 109
0.56285479 -0.17610120 0.93647077 93 98 101
0.57425159 -0.16974107 0.94820712 94 103 107
0.56123083 -0.14697043 0.93646184 65 58 54
0.57320717 -0.14954680 0.94676480 67 67 70
0.56122568 -0.13116234 0.93916181 73 63 64
0.57283162 -0.13010734 0.94680423 65 63 67
0.57185829 -0.10996684 0.94607064 68 68 71
0.57106636 -0.08964660 0.94636602 69 68 71
0.57108175 -0.07008881 0.94742183 69 68 73
0.56851857 -0.04523749 0.93674136 135 139 141
0.57133903 -0.05466920 0.94338993 103 107 109
0.56995044 -0.03007819 0.92841360 140 145 147
0.56837114 -0.00360027 0.91916625 125 132 134
0.57080152 -0.01347699 0.92188163 125 133 133
0.57006643 0.00981645 0.91682876 125 133 133
0.57000680 0.02950835 0.91409853 128 135 136
0.57000133 0.05016192 0.91211827 139 142 143
0.56988049 0.07016106 0.91071351 128 132 132
0.57024375 0.08998204 0.90962792 115 122 123
0.56977427 0.10947714 0.90878211 121 130 132
0.56991943 0.12964724 0.90806912 135 141 143
0.57029537 0.15027234 0.90747557 169 171 169
0.57022506 0.17040264 0.90700078 156 159 159
0.56998154 0.18991770 0.90661345 164 169 167
0.56977285 0.20942858 0.90628152 153 157 157
0.56958525 0.22971663 0.90598312 160 165 164
0.56965161 0.24983205 0.90572653 141 149 147
0.57006164 0.27028529 0.90549616 150 154 152
0.56993510 0.29056682 0.90529517 136 141 141
0.57029754 0.31024805 0.90512212 149 156 155
0.57051207 0.32956648 0.90496937 158 164 162
0.57042354 0.34984638 0.90482894 133 139 138
0.57034589 0.37012703 0.90470576 125 131 131
0.57028050 0.39041055 0.90460204 119 128 130
0.57023475 0.40992188 0.90452949 26 28 28
0.57019949 0.42943791 0.90447356 0 0 0
0.57016557 0.44973417 0.90441976 0 0 0
0.57013141 0.47002782 0.90436556 0 0 0
0.57009906 0.49032059 0.90431425 0 0 0
0.57007119 0.50748920 0.90427004 0 0 0
0.59193127 -0.62293239 0.95428158 90 116 117
0.58861943 -0.60945177 0.90897350 21 29 28
0.58482980 -0.61258324 0.92767052 91 116 116
0.58702890 -0.61774691 0.95759840 91 116 116
0.59078344 -0.60833632 0.96425014 93 116 116
0.59012714 -0.59021655 0.96962801 94 115 117
0.59008607 -0.56969666 0.97428756 93 116 117
0.58886521 -0.55282836 0.97910586 95 114 117
0.59228627 -0.54336795 0.98075625 96 114 116
0.58993822 -0.53009024 0.98317627 94 116 117
0.59011871 -0.50949992 0.98324697 95 115 118
0.58994108 -0.48959169 0.98267993 95 114 117
0.59102664 -0.46714490 0.97753958 97 115 120
0.58839588 -0.47657595 0.98077024 96 116 118
0.59065641 -0.45300768 0.97177602 102 116 119
0.58967527 -0.42248289 0.91494053 139 153 156
0.59597625 -0.42668528 0.92569607 127 139 143
0.58575250 -0.43500331 0.94864351 124 123 123
0.58571233 -0.40988911 0.91010989 132 134 130
0.59751149 -0.40812382 0.92127395 117 118 116
0.58387118 -0.39215495 0.91068037 130 132 129
0.59338902 -0.38972929 0.92941325 104 116 117
0.59514704 -0.38326626 0.94496710 101 114 117
0.58071573 -0.37864929 0.91738224 97 114 113
0.58303473 -0.37689736 0.93584785 106 117 119
0.59094181 -0.36941149 0.94296752 100 113 117
0.58110121 -0.34810704 0.93980281 101 113 116
0.59021908 -0.35011759 0.94188931 97 112 115
0.58104278 -0.33588931 0.93970831 98 113 116
0.59067299 -0.32982656 0.94265067 95 112 116
0.58990697 -0.31002074 0.94348178 96 110 115
0.59021030 -0.29018956 0.94539954 95 107 113
0.58967013 -0.26985059 0.94597537 93 107 113
0.58983760 -0.25008289 0.94724416 91 105 110
0.58922673 -0.22972248 0.94864236 89 104 109
0.59008616 -0.21003196 0.95043546 90 102 109
0.58984628 -0.18977658 0.95208866 90 101 108
0.59040377 -0.17004862 0.95380951 86 98 103
0.59013621 -0.15011583 0.95260918 62 63 66
0.59055792 -0.12983404 0.95251518 61 61 64
0.59011826 -0.10988639 0.95170961 63 64 66
0.59002122 -0.09025439 0.95288046 65 66 68
0.58968998 -0.07046201 0.95355671 67 67 71
0.58593200 -0.04198373 0.93880269 149 155 152
0.59061309 -0.05117742 0.94673878 111 118 120
0.59002641 -0.03011091 0.93144837 140 147 147
0.58875698 -0.00079806 0.91978721 120 125 128
0.59019998 -0.01097044 0.92282983 127 134 135
0.59004581 0.00985045 0.91760132 124 131 134
0.59003892 0.02957994 0.91453104 131 139 139
0.58991252 0.04984744 0.91238057 142 145 145
0.58995197 0.07036566 0.91083322 132 136 135
0.59000137 0.08993287 0.90969595 118 126 127
0.59021759 0.10948145 0.90881830 119 127 130
0.58974053 0.12979740 0.90808375 121 130 132
0.58988801 0.14992807 0.90749580 160 163 162
0.59020087 0.17060657 0.90700459 163 167 166
0.59035700 0.18991909 0.90662014 155 158 156
0.59013900 0.20942946 0.90628535 166 172 169
0.58994303 0.22971696 0.90598441 165 170 167
0.58977456 0.25000259 0.90572568 144 147 145
0.58962569 0.27028556 0.90549707 145 151 151
0.58949254 0.29056600 0.90529259 149 155 154
0.58982324 0.30988339 0.90512326 145 151 151
0.59006378 0.32956627 0.90496880 139 143 141
0.58997090 0.34984538 0.90482635 141 145 143
0.58988942 0.37012524 0.90470139 152 160 155
0.59043269 0.39054908 0.90459566 140 149 149
0.59055392 0.40991833 0.90452167 51 53 52
0.59051636 0.42943344 0.90446415 0 0 0
0.59048111 0.44972939 0.90441015 0 0 0
0.59044612 0.47002314 0.90435656 0 0 0
0.59041313 0.49031614 0.90430603 0 0 0
0.59038486 0.50748510 0.90426272 0 0 0
0.60993129 -0.62171631 0.93055740 86 117 119
0.60834944 -0.62620264 0.95755504 90 116 118
0.61574801 -0.62659236 0.96128674 90 115 116
0.60561732 -0.61299025 0.91056325 47 64 63
0.60726151 -0.61772956 0.92278308 85 119 119
