ply
format ascii 1.0
element vertex 1059
property float x
property float y
property float z
property uchar red
property uchar green
property uchar blue
end_header
-0.58783332 0.69579296 1.81376636 173 182 178
-0.59035301 0.69594973 1.82721059 169 177 174
-0.59465611 0.69661722 1.84711671 159 170 169
-0.59212619 0.71144336 1.79337350 180 190 188
-0.59291718 0.70568843 1.81062200 177 189 187
-0.59739285 0.70419424 1.82623537 165 177 177
-0.58819395 0.72247910 1.78863287 190 199 194
-0.59600317 0.72512740 1.80290389 190 199 194
-0.56695211 0.69846129 1.75165856 184 195 191
-0.57697202 0.70707079 1.76689982 186 196 192
-0.50128728 0.35185442 1.23104477 126 134 134
-0.48303936 0.33325106 1.19980860 127 137 138
-0.48462333 0.33770776 1.20460829 127 136 139
-0.48580231 0.34845405 1.21668337 113 123 128
-0.49014203 0.35425223 1.22452039 108 118 123
-0.48406309 0.37257010 1.15269687 94 102 102
-0.48080587 0.36164379 1.19768882 120 140 141
-0.48516288 0.36207618 1.21301488 105 122 125
-0.49085425 0.36179484 1.22388265 101 117 121
-0.48539352 0.38229142 1.15681541 87 92 92
-0.49070793 0.38606443 1.16516771 84 89 90
-0.47878227 0.33200204 1.19716351 124 135 137
-0.47920561 0.33859718 1.20407081 118 126 132
-0.46568978 0.35676416 1.19271958 106 123 123
-0.47419739 0.35699512 1.21255908 111 123 125
-0.47303978 0.35955149 1.22584414 118 127 126
-0.46067032 0.36870840 1.11863339 99 108 109
-0.46654715 0.36703963 1.12914167 89 97 99
-0.47744655 0.37093362 1.14337399 90 99 99
-0.47431961 0.36039617 1.19699089 109 128 129
-0.47324318 0.36050214 1.20658694 103 121 122
-0.47472101 0.38074309 1.14315653 103 109 113
-0.44060856 -0.36251076 1.11679053 164 158 144
-0.44520256 -0.34764121 1.11863339 157 151 135
-0.44407767 -0.34564871 1.12530054 155 146 132
-0.44219328 -0.33320789 1.13044304 155 148 131
-0.44483598 -0.32590823 1.14590471 152 144 130
-0.44195256 -0.31769386 1.14187352 154 144 132
-0.44631991 0.21101947 1.11293493 127 132 134
-0.44832130 0.21580490 1.12280586 118 125 128
-0.44738147 0.22218719 1.12733599 122 130 132
-0.44578361 0.35746346 1.11223069 116 123 130
-0.44167888 0.35262356 1.13441762 119 130 133
-0.44698328 0.34962183 1.14803666 111 120 119
-0.45686594 0.35454352 1.17081159 112 123 121
-0.44080070 0.36698624 1.07944560 101 115 119
-0.44285951 0.36653261 1.08865229 102 112 117
-0.44966142 0.36474765 1.11051997 102 110 114
-0.45668960 0.36424579 1.12447260 94 98 106
-0.44857198 0.36022362 1.14702511 128 138 141
-0.43687923 -0.36102329 1.11221051 164 157 143
-0.43092142 -0.35010828 1.11186577 157 149 135
-0.43313812 -0.34604405 1.12262667 155 145 131
-0.42920444 -0.33755476 1.11725274 156 147 134
-0.43531141 -0.33423827 1.12808212 155 148 132
-0.42132897 0.03889089 0.58397237 129 135 132
-0.42010295 0.03049338 0.71432227 140 143 140
-0.42089982 0.04990196 0.57898453 120 130 128
-0.42168247 0.04698568 0.58307910 128 135 131
-0.42006749 0.19662981 1.11863339 147 156 152
-0.42348117 0.19971689 1.12513250 131 140 141
-0.42257484 0.21473726 1.09851238 110 116 121
-0.42958695 0.20994279 1.10704511 113 120 124
-0.42443950 0.20596407 1.12292913 116 122 126
-0.42357840 0.22454376 1.09338389 111 120 121
-0.43212326 0.22191755 1.10496479 130 139 139
-0.42706054 0.35895175 1.07772946 92 106 112
-0.43726543 0.35358950 1.09869015 117 129 134
-0.43757759 0.35847921 1.10107025 106 117 123
-0.43644931 0.34919491 1.12741076 120 130 132
-0.43109128 0.36707606 1.07849219 89 102 105
-0.43537590 0.36411051 1.08875269 95 109 115
-0.43987733 0.36272287 1.10047376 97 111 120
-0.40201753 0.01877849 0.70712167 112 117 120
-0.41814514 0.03966971 0.58304926 126 134 129
-0.40787507 0.02768329 0.70692393 139 145 142
-0.41719106 0.04742932 0.58250191 131 139 136
-0.41187293 0.19570090 1.10973725 125 130 132
-0.41951859 0.19922076 1.12233746 135 142 145
-0.41488381 0.21706022 1.09809756 109 115 119
-0.41511525 0.21235365 1.10724329 119 125 128
-0.41882515 0.20760646 1.12048233 130 134 135
-0.41152841 0.22884913 1.07716286 97 105 105
-0.41185260 0.22490526 1.08880982 114 124 125
-0.41158532 0.22068228 1.10196592 107 117 122
-0.39705267 0.01802229 0.70410150 132 133 134
-0.38989732 0.03369338 0.69791867 138 136 132
-0.39329421 0.02822882 0.70184497 137 139 134
-0.38595520 0.04294991 0.69000359 134 134 128
-0.38548309 0.04130560 0.70223671 141 136 126
-0.37933438 0.04562388 0.68571695 139 133 125
-0.36050697 0.17488445 0.74289718 79 73 79
-0.36006233 0.18076012 0.74330246 65 65 68
-0.36145380 0.28462858 1.30489403 85 98 112
-0.34757449 0.17222643 0.73672738 113 115 114
-0.35308389 0.16953016 0.74379913 121 122 120
-0.34986230 0.18074190 0.73649906 87 86 90
-0.35888222 0.18208777 0.74086627 64 64 66
-0.35068332 0.27911035 1.30678155 98 103 109
-0.34648812 0.29756708 1.29740185 102 109 113
-0.34912893 0.28821821 1.30372791 108 114 121
-0.34179126 0.30973803 1.27364630 103 111 117
-0.34615146 0.30366289 1.29214926 109 116 123
-0.35028999 0.30313978 1.30531589 110 118 121
-0.34473543 0.32009175 1.28876781 95 108 108
-0.32155766 0.03821171 1.12234056 146 132 117
-0.32408487 0.04808019 1.12846371 146 134 119
-0.32111689 0.06159201 1.12419879 143 130 112
-0.33888677 0.16573770 0.73088259 121 125 124
-0.33314094 0.27941640 1.29126471 140 146 145
-0.32110073 0.29930405 1.25303912 129 139 140
-0.32717531 0.29678971 1.27044454 113 121 127
-0.33505367 0.28893319 1.29261065 109 115 119
-0.32256467 0.30398111 1.25535872 117 125 131
-0.33190823 0.30766214 1.26607207 110 118 125
-0.33768099 0.30152831 1.28877087 91 98 112
-0.32095775 0.33737241 0.95590389 123 128 126
-0.32328921 0.33258947 0.96649096 99 112 115
-0.32248720 0.34552586 0.95635171 116 124 126
-0.32564438 0.35288113 0.96545513 111 121 125
-0.31037616 0.04948822 1.13399951 146 134 119
-0.30654534 0.06315830 1.13290565 145 131 116
-0.30422890 0.07303851 1.14752345 143 132 117
-0.30396399 0.26041427 0.75071079 101 112 115
-0.31236202 0.29593533 1.23318490 120 128 131
-0.31747355 0.29577379 1.24729747 132 141 142
-0.31272179 0.30296516 1.23702896 99 106 119
-0.31737404 0.30539095 1.24690656 107 114 125
-0.31708923 0.33454412 0.95637900 119 127 126
-0.31881771 0.32854315 0.96442981 101 114 119
-0.31784936 0.34700280 0.95815149 124 135 134
-0.31793734 0.35039848 0.96324231 117 132 133
-0.29811875 0.05160275 1.13540896 148 136 121
-0.29700563 0.06477473 1.13227682 148 134 120
-0.28530510 0.25231013 0.71865087 101 111 111
-0.28600024 0.25474956 0.72644144 108 117 119
-0.29470086 0.25549820 0.74208215 98 110 115
-0.29462706 0.26144467 0.73181103 110 118 122
-0.28211176 0.33220220 1.13931406 143 151 157
-0.28386566 0.33756557 1.14638360 150 160 163
-0.28347926 0.34147138 1.15287952 171 180 181
-0.28363234 0.35100679 1.16578345 196 203 200
-0.28334861 0.37210657 1.16878426 196 203 198
-0.28835040 0.36068597 1.18099630 194 203 198
-0.27138191 0.24792657 0.71649749 118 129 131
-0.27698308 0.25231827 0.72322914 118 129 132
-0.26149322 0.25198420 0.83835335 132 137 138
-0.26437650 0.25322617 0.84199928 122 128 131
-0.27208850 0.31949267 1.12233746 125 133 142
-0.26987993 0.32941795 1.12913077 177 184 183
-0.27364543 0.33982322 1.14508760 197 202 198
-0.26504134 0.34949192 1.13487248 196 203 198
-0.27335487 0.34928103 1.15016215 197 203 197
-0.27180889 0.36211638 1.13740242 197 203 199
-0.27653435 0.36564902 1.15160330 196 203 198
-0.24530999 0.23877376 0.82871866 150 159 158
-0.25093182 0.25191259 0.83373629 120 127 132
-0.25591323 0.25001386 0.84001470 135 138 140
-0.25410103 0.32616152 1.11661105 194 200 195
-0.25685322 0.33111345 1.12358121 195 201 196
-0.20476267 0.08783342 0.47697583 123 131 134
-0.20551118 0.15449260 0.60983221 122 129 129
-0.20787777 0.15865429 0.67258861 122 130 131
-0.20388123 0.16501805 0.60823191 126 133 134
-0.20166943 0.17245355 0.65890376 114 124 128
-0.20719328 0.16797182 0.66843732 123 132 134
-0.20086670 0.17795039 0.94282776 105 114 121
-0.20058733 0.18014276 0.94151646 110 116 123
-0.19900977 0.09232777 0.47823112 121 130 134
-0.19637645 0.15600683 0.60856083 134 142 143
-0.19090132 0.15999673 0.64870036 131 140 139
-0.18474615 0.15980068 0.92734861 133 136 138
-0.19557952 0.16677606 0.60567523 117 127 129
-0.19394795 0.16473455 0.65257208 118 124 128
-0.19894869 0.16436950 0.66179184 139 147 147
-0.18862894 0.17239988 0.93228612 120 125 130
-0.19507252 0.17789019 0.94108176 119 125 131
-0.19194836 0.18187027 0.93367630 112 117 125
-0.19280778 0.18428248 0.94326363 111 113 125
-0.17587934 0.15912770 0.91731749 116 120 123
-0.17408215 0.15958267 0.92608348 119 124 129
-0.17316329 0.16584739 0.91491648 122 129 132
-0.17577010 0.16455258 0.92459364 126 132 136
-0.14850317 0.15780045 0.49732985 118 128 131
-0.14527883 0.15908055 0.50102982 92 102 105
-0.15201098 0.15767407 0.67685323 136 142 144
-0.15323760 0.15728058 0.68061429 143 149 149
-0.14945310 0.16876596 0.49218954 129 139 142
-0.14418164 0.16080773 0.50135311 99 113 116
-0.15175336 0.16640386 0.67603088 124 129 134
-0.14909601 0.18238264 0.49695684 193 201 197
-0.15300723 0.18879527 0.50387314 194 203 197
-0.10037330 0.10372197 0.49105114 146 148 152
-0.08889226 0.09825684 0.48758205 126 133 134
-0.09196674 0.10497201 0.48888958 133 138 141
-0.02434800 0.25018108 0.61350774 151 156 156
-0.02869323 0.24638209 0.62421228 153 156 155
-0.00022507 0.04712401 0.49844989 210 171 176
-0.01042511 0.12852930 0.47111815 175 178 177
-0.00187639 0.12587941 0.48009336 174 180 180
-0.00396753 0.17329941 0.59379071 151 153 154
-0.00579490 0.18054864 0.59184278 167 168 164
-0.00041477 0.18924401 0.91855264 179 180 178
-0.00041608 0.18586190 0.92146641 191 192 190
-0.01789809 0.25047935 0.61003449 165 170 171
-0.00310738 0.24388726 0.69711691 151 159 158
0.01047171 -0.08904462 0.89906079 143 134 134
0.01656429 -0.08781560 0.90429061 141 133 132
0.00928458 0.04920999 0.49756145 198 146 155
0.01445197 0.09522200 0.61477777 166 167 168
0.01676778 0.10129557 0.61654904 160 161 162
0.01366827 0.10268093 0.62078005 131 131 135
0.00081069 0.12852721 0.47380746 154 156 156
0.00527819 0.17358022 0.57476580 151 155 157
0.00173887 0.17085239 0.58711202 150 153 155
0.01881964 0.17602563 0.87771960 173 176 177
0.01595086 0.17720195 0.88882372 172 177 178
0.01138768 0.17736750 0.91057835 151 154 158
0.00917954 0.17946712 0.92545348 138 138 147
0.01841007 0.18745632 0.47818934 161 167 167
0.01515547 0.18663329 0.48272105 157 165 165
0.01856543 0.18309844 0.87767375 168 170 172
0.01279697 0.18552355 0.88929294 171 175 177
0.00680229 0.18587359 0.91325511 148 150 155
0.00317217 0.18449800 0.92261767 156 159 158
0.00532812 0.24979641 0.69433369 140 145 145
0.00401017 0.25145094 0.70092265 148 156 153
0.00451146 0.26027736 0.69813782 135 138 137
0.02627070 -0.12192578 0.67438648 127 113 109
0.02927757 -0.11454650 0.67644560 130 115 111
0.02812513 -0.11095620 0.68168754 131 114 112
0.02921935 -0.08586824 0.89631706 143 134 133
0.02332522 -0.08775550 0.90227806 143 134 134
0.03609715 -0.06521591 0.53239544 136 125 124
0.02774733 -0.07223965 0.89576488 148 139 137
0.02202771 -0.07577501 0.90295556 149 139 138
0.03844990 -0.05882834 0.53579660 131 114 118
0.02742439 0.08929278 0.59547005 151 151 152
0.02276583 0.09481673 0.60831059 172 173 175
0.02170248 0.10111714 0.61293136 174 175 175
0.03477374 0.17269168 0.49494415 152 156 156
0.03086041 0.17764303 0.50122598 148 152 153
0.02368464 0.17844665 0.87583432 173 174 173
0.02274701 0.17709274 0.88449170 170 172 172
0.02312490 0.18533558 0.47578073 153 157 157
0.03842204 0.18485963 0.49890257 152 158 157
0.03539790 0.18428437 0.50381298 153 160 160
0.02250559 0.18370261 0.87444596 150 151 154
0.02199563 0.18939196 0.88344385 130 131 134
0.04268765 -0.06794332 0.52679912 132 120 121
0.04037386 -0.05843228 0.53405354 128 104 112
0.05542507 0.03276471 0.68810096 156 147 151
0.05888781 0.04568520 0.67952313 162 161 161
0.05884183 0.04261609 0.68308802 155 153 152
0.04124413 0.16890951 0.47975361 171 178 174
0.04074037 0.17203842 0.48305923 163 168 166
0.04028677 0.18182764 0.49692809 143 147 147
0.05574632 0.21089206 0.67748632 154 155 152
0.05870335 0.21533871 0.68284865 161 166 163
0.05732629 0.22880430 0.68955963 166 169 168
0.05415243 0.23566529 0.70030147 174 175 175
0.05846181 0.27335970 0.71336779 142 148 146
0.05937855 0.28197220 0.71963042 132 135 134
0.05798733 0.28406842 0.72401567 134 135 136
0.07856553 -0.20240403 0.59428448 102 118 132
0.07575700 -0.20184366 0.60257053 100 117 131
0.07742029 -0.19728448 0.59556631 98 117 130
0.06360856 0.03259432 0.67929327 158 158 156
0.06155239 0.03465377 0.68330576 159 158 156
0.06159500 0.04934631 0.65156393 177 177 178
0.06118352 0.04553091 0.67364604 163 163 162
0.06098731 0.04148925 0.68198442 154 153 151
0.07895609 0.16191777 0.56423166 121 126 132
0.07401940 0.21328056 0.67553769 151 158 160
0.06728498 0.21308591 0.68401474 131 137 141
0.07356036 0.22559009 0.67665749 143 149 152
0.06522763 0.22571059 0.68493158 141 144 145
0.06120994 0.25625043 0.68892372 132 136 135
0.06699963 0.26846757 0.69775315 145 151 151
0.06451373 0.27292742 0.70358100 134 142 142
0.06608666 0.28190147 0.71090269 136 143 145
0.06094587 0.28597778 0.72347051 121 121 127
0.08823294 -0.20605724 0.59395433 140 137 136
0.08070225 -0.19930773 0.59551271 101 119 130
0.09708691 -0.14179604 0.79087426 184 137 145
0.09452869 -0.12924806 0.79127325 156 123 128
0.09342370 -0.11009782 0.79257710 151 123 126
0.09468252 -0.09296125 0.79227948 161 131 133
0.09747080 -0.07421133 0.79216172 180 144 150
0.08380341 0.15665865 0.56904142 144 146 146
0.09640185 0.15869581 0.81615218 143 144 149
0.08382146 0.16227387 0.55883756 136 140 141
0.08932907 0.16224662 0.56763314 128 133 136
0.09599548 0.17085694 0.81723596 170 173 174
0.09356347 0.17457672 0.82095758 166 170 172
0.09588067 0.19841272 0.78432639 166 172 174
0.09632854 0.18143705 0.81439671 178 180 182
0.09466893 0.18184893 0.82069230 176 179 181
0.08210094 0.21298863 0.67011264 157 162 163
0.08151141 0.20852881 0.68279170 176 181 182
0.09606355 0.20699977 0.79121062 156 158 159
0.09310448 0.21219625 0.80399816 148 151 152
0.08159395 0.22294824 0.65577932 173 179 176
0.08179478 0.22302284 0.66808145 147 154 156
0.10427082 -0.14207556 0.79362288 161 116 121
0.10779294 -0.14462562 0.80223888 149 120 119
0.10439323 -0.12966681 0.78902687 158 120 118
0.11293907 -0.11183929 0.77854742 159 139 122
0.10595656 -0.11051640 0.78808573 153 120 115
0.10520575 -0.09120566 0.79215634 162 125 126
0.10549865 -0.07599574 0.79273391 155 122 124
0.10611058 -0.06487230 0.80641019 151 118 119
0.10529019 -0.05405522 0.81477816 160 113 120
0.11112186 0.15962446 0.57709471 165 166 165
0.10263913 0.15786120 0.81221535 144 147 152
0.10822368 0.16494506 0.57702104 144 146 148
0.10876578 0.16047625 0.58138278 174 175 175
0.10418616 0.17037031 0.81616589 164 165 166
0.11005379 0.17174965 0.82184594 152 155 155
0.11128243 0.18817455 0.77395651 151 152 154
0.10446876 0.19658889 0.78306752 163 165 164
0.10093092 0.18069720 0.81023109 165 167 168
0.10668514 0.20188652 0.77896237 134 135 140
0.10510157 0.20796025 0.78885744 128 132 137
0.10771661 0.21684806 0.80167080 109 115 123
0.15978414 0.18587355 0.47228899 126 136 137
0.17301885 -0.06483430 0.53737832 156 137 120
0.16928527 -0.06603826 0.54115661 155 135 119
0.17107081 -0.05335649 0.53833887 157 138 120
0.16786619 -0.05664640 0.54079983 156 137 121
0.17100286 -0.00104096 0.46289193 149 130 112
0.17273122 0.00542766 0.45912204 149 131 112
0.17243939 0.00270274 0.46313057 150 132 113
0.17624401 0.11535538 0.54473942 160 163 165
0.17612644 0.12102390 0.54444044 164 165 164
0.17278248 0.16740981 0.67648609 156 158 159
0.16592223 0.16783171 0.68939258 157 162 163
0.16271415 0.17134116 0.70042217 143 146 154
0.16278743 0.18741629 0.47178363 133 138 138
0.17286384 0.23873025 1.10618424 138 139 142
0.16430520 0.25289594 0.65745107 133 136 138
0.16524749 0.25761736 0.66464447 139 144 145
0.16810693 0.24096198 1.09603202 141 141 143
0.17543259 0.24504474 1.10860515 131 131 137
0.17975239 0.24460297 1.12140989 132 135 141
0.16558203 0.26508540 0.67043945 151 155 153
0.16219689 0.26813012 0.68129832 172 175 174
0.19913844 -0.15213715 0.90461364 160 141 127
0.19740882 0.02259386 0.79460806 145 126 108
0.19861339 0.02968695 0.80881846 147 129 111
0.18182204 0.11876697 0.54195916 139 141 146
0.18138154 0.12055174 0.54110160 161 166 165
0.18946318 0.25397311 1.10799125 154 158 161
0.18794701 0.24801420 1.12257399 141 144 148
0.19539042 0.26247228 1.10751876 148 148 149
0.20877888 -0.16264468 0.87696328 156 136 121
0.20685735 -0.16689157 0.89074506 157 139 124
0.20663428 -0.16046223 0.90748572 158 140 125
0.20859882 -0.15796106 0.87620695 157 139 125
0.21025241 -0.15717831 0.89330913 158 140 124
0.20755549 -0.15274856 0.90559700 158 140 124
0.20428221 0.02409855 0.79461084 146 128 109
0.20779937 0.03269540 0.80514362 148 128 109
0.21284626 0.04417065 0.81192942 141 118 102
0.21313307 0.17551255 0.51702873 123 131 132
0.21059625 0.17519491 0.52186182 124 129 131
0.21458509 0.18172258 0.51954606 143 152 149
0.21251281 0.18354588 0.52384927 151 157 155
0.20027823 0.25660817 1.10631114 161 165 164
0.20186391 0.25113929 1.13127834 164 165 167
0.20497258 0.25231260 1.14315653 167 169 170
0.20593681 0.26868130 1.07432789 125 129 139
0.20346722 0.26614069 1.09321303 133 136 140
0.20256207 0.26254888 1.10316658 140 144 145
0.23717461 -0.22719904 0.45859401 95 114 117
0.23601544 -0.22588229 0.46141389 96 115 117
0.23500783 0.11470946 0.45745358 170 175 173
0.23801860 0.10831406 0.46470175 157 163 164
0.23391069 0.12058372 0.45838459 178 186 183
0.23834085 0.30996328 1.72933849 152 152 155
0.23777503 0.31163707 1.74714386 151 151 153
0.23710881 0.33839448 1.80530775 126 126 130
0.23653734 0.34415798 1.80691461 132 133 138
0.24060523 -0.22574508 0.45865558 92 116 118
0.24150635 0.10339147 0.46897260 157 161 162
0.25742860 0.19108069 0.92964815 161 163 165
0.25796282 0.19939385 0.94021058 110 113 126
0.25922838 0.20074050 0.93890840 143 146 158
0.25791773 0.20207431 0.94361819 114 117 127
0.25483100 0.31057861 1.72492386 156 156 155
0.24890767 0.31528251 1.74894974 160 160 161
0.25018535 0.31541920 1.76469169 163 163 163
0.25511432 0.31357279 1.78392589 174 174 174
0.25655141 0.32573138 1.73374441 124 127 132
0.25141174 0.32475155 1.75281051 134 136 138
0.24966042 0.32648269 1.77367141 146 147 147
0.25022769 0.33335635 1.78943602 132 133 137
0.24458456 0.33560572 1.80290389 124 125 130
0.25751999 0.34196492 1.77924371 146 154 157
0.25174190 0.34321649 1.79653593 130 134 140
0.25187060 0.34734732 1.80660808 141 146 150
0.27161702 0.13582019 0.47112945 141 145 144
0.27504033 0.14206641 0.47334326 133 137 139
0.26501248 0.18669420 0.91772511 183 184 183
0.26634386 0.19307384 0.92880407 172 175 175
0.26338718 0.19777567 0.94217484 159 166 167
0.26655133 0.20623611 0.93241943 175 179 178
0.26559373 0.20638414 0.94843253 161 165 166
0.26326524 0.30978342 1.71186159 140 141 144
0.27251772 0.31314701 1.72492305 136 138 142
0.27933225 0.31836602 1.74265254 131 129 138
0.26389219 0.32027349 1.72053766 117 121 128
0.28151733 0.14246251 0.47522070 126 134 138
0.28352454 0.24887814 0.67857111 136 137 136
0.28640046 0.25211194 0.69052757 143 144 142
0.29026222 0.25778914 0.70789729 144 146 145
0.29392535 0.26787994 0.71302320 159 167 165
0.29515465 0.27383957 0.72664577 158 167 165
0.29299378 0.28994986 0.73271468 152 158 157
0.29256400 0.29001997 0.74364748 141 150 150
0.28389671 0.31673756 1.73373878 146 146 151
0.28571622 0.31730893 1.74790021 142 143 147
0.29116551 0.31862397 1.77344581 148 147 152
0.29597703 0.31749168 1.78863287 141 140 144
0.28426160 0.32614227 1.73596713 146 148 151
0.28348655 0.32528079 1.74973701 127 131 139
0.28223440 0.32776040 1.76075804 118 126 134
0.31379369 0.13951144 0.74946788 166 170 169
0.30951971 0.13799114 0.77238940 136 137 141
0.31360481 0.14488772 0.75148404 147 150 152
0.31361699 0.15182919 0.77114575 158 160 161
0.31545299 0.16205915 0.77325984 168 169 168
0.32399950 0.14973438 0.75061140 166 168 167
0.32677580 0.15689674 0.76624833 155 157 160
0.32686697 0.16340338 0.76776118 167 168 168
0.33511797 0.39835651 1.15590662 120 129 130
0.33457464 0.40195641 1.14984538 129 136 139
0.35727043 0.37604978 1.15737801 166 171 168
0.35736141 0.37738653 1.16326767 169 175 173
0.35108561 0.39421272 1.15583028 160 167 166
0.35673644 0.39078424 1.16547912 167 171 171
0.34963678 0.40217847 1.15435116 159 169 168
0.35983646 0.40102504 1.16476262 163 171 170
0.37787515 -0.04127330 0.73924953 150 133 114
0.37631434 -0.04231057 0.74138825 148 132 111
0.37681964 -0.03533968 0.73874624 150 136 113
0.37703470 -0.03709117 0.74129682 149 133 112
0.36462732 0.37574425 1.15655243 150 154 156
0.36439773 0.37763956 1.18616337 160 161 158
0.36248221 0.38340131 1.15714276 168 172 171
0.36256641 0.39074577 1.16707454 169 172 171
0.36360295 0.38540109 1.19433420 168 173 170
0.36813121 0.39114713 1.21540716 168 173 171
0.36397358 0.40145542 1.17486474 165 172 171
0.36825371 0.40219152 1.18099630 165 170 168
0.36956337 0.40120146 1.22363150 160 169 170
0.37628318 0.41193466 1.25305200 160 169 169
0.37958008 0.69929844 1.94796503 148 157 156
0.37958008 0.70266533 1.94796503 150 156 156
0.37847062 0.70836169 1.96847799 147 155 155
0.37610105 0.70834355 1.98547127 148 155 156
0.37706402 0.72052556 1.98795259 143 149 149
0.39037623 -0.04412439 0.74457799 148 133 111
0.38143160 -0.03485929 0.73871269 149 133 105
0.38755057 -0.03672949 0.74292843 147 131 107
0.39842527 0.13804815 0.48627782 170 176 170
0.38075873 0.69530249 1.93683386 154 161 160
0.38552325 0.69512753 1.95445989 147 151 152
0.39023326 0.69348053 1.96776316 141 146 146
0.38565736 0.69475640 1.98796976 150 152 152
0.39443020 0.70252632 1.96833105 151 155 156
0.38161916 0.70541418 1.99379957 148 152 154
0.40708522 0.13369548 0.49103576 153 161 158
0.41569927 0.12771586 0.50028920 174 183 172
0.41483401 0.14111456 0.49090339 149 157 154
0.40725383 0.63750654 1.90419054 147 153 153
0.40843882 0.64561920 1.91360015 134 141 143
0.40564550 0.65058172 1.92783841 144 152 151
0.41853899 0.67803735 1.92582905 128 130 132
0.41234340 0.66849504 1.95279763 149 152 152
0.41119231 0.67615317 1.96633184 158 162 160
0.41246755 0.68970689 1.95558108 132 134 135
0.40794296 0.68797245 1.96826970 150 151 149
0.40455562 0.69132036 1.98796976 162 162 158
0.42361804 0.13938717 0.49610697 142 146 147
0.43254905 0.12917761 0.55837412 141 144 144
0.43446213 0.13483449 0.56608553 139 145 144
0.42367076 0.14140686 0.49492827 132 137 137
0.43278346 0.14207543 0.56893405 155 162 160
0.43276247 0.15482837 0.79720889 172 176 175
0.43443736 0.15713672 0.80403212 162 166 166
0.43204111 0.15657418 0.82668082 159 163 163
0.43780650 0.17822582 0.57865301 163 172 171
0.43886316 0.17946095 0.58540569 163 172 172
0.43630385 0.16270662 0.82885224 172 175 173
0.43856132 0.18363164 0.58890876 169 175 173
0.43603228 0.47212781 1.31330123 130 137 139
0.43476072 0.47573660 1.32921116 125 130 132
0.43624893 0.48567858 1.31409254 142 151 150
0.43753560 0.48848198 1.33461980 133 141 143
0.43717629 0.49049948 1.34369183 125 133 137
0.43676487 0.50112510 1.33181107 167 176 173
0.43790424 0.50277424 1.34236014 167 176 173
0.42093065 0.67856419 1.93683386 139 139 139
0.42119321 0.68105412 1.95357883 141 141 139
0.44104799 0.12760512 0.56124080 140 144 145
0.44060120 0.15645693 0.81772238 185 186 185
0.44220166 0.15679733 0.82763133 171 173 173
0.44129758 0.17841627 0.59202458 156 165 164
0.44452568 0.17833329 0.60268109 139 146 145
0.44319482 0.16558780 0.82857571 152 153 153
0.44106612 0.18766246 0.59570119 167 174 171
0.44427934 0.19062512 0.60576991 161 168 166
0.45202202 0.19998059 0.62306237 176 182 178
0.44934940 0.20419548 0.61450802 142 150 150
0.45574405 0.20671694 0.63029103 154 160 158
0.45531439 0.47087200 1.27037916 165 170 167
0.45920780 0.47799858 1.28510416 158 163 162
0.44283891 0.47345047 1.31566203 142 150 150
0.45752552 0.48386472 1.27423275 158 162 160
0.45964307 0.48512052 1.28632224 151 156 153
0.45155717 0.48933468 1.31699868 132 139 139
0.45280422 0.49288269 1.32799635 141 147 146
0.44022441 0.48885328 1.34236014 122 130 136
0.45943890 0.50103041 1.31545111 113 122 124
0.45230484 0.50225726 1.33100460 138 142 140
0.46046774 0.21190065 0.63621962 142 149 151
0.46511518 0.24778585 0.87729147 169 177 176
0.47224686 0.24827940 0.89261725 162 171 169
0.47719539 0.25231067 0.91086405 154 163 163
0.47807262 0.25802015 0.92838682 154 163 163
0.47728892 0.26177156 0.93374900 146 152 152
0.47752871 0.26128390 0.94217300 139 141 144
0.46760254 0.45385995 1.35123901 141 143 142
0.46180117 0.47966656 1.29864335 164 169 168
0.46268755 0.47833833 1.30113602 171 175 174
0.46635204 0.46672050 1.35308473 154 159 157
0.47657275 0.46860800 1.36826869 155 156 154
0.46188022 0.48803466 1.29617245 147 154 153
0.46291491 0.49102951 1.31071069 139 146 146
0.46352191 0.49431799 1.32780770 143 148 147
0.47882134 0.48457049 1.35308295 161 167 167
0.47781680 0.49095517 1.37204675 161 168 167
0.47902611 0.48847416 1.38063514 161 166 165
0.46397878 0.50373808 1.31757528 124 133 134
0.46761897 0.50406963 1.32142663 128 136 138
0.49487116 0.05926565 0.49398820 110 126 127
0.49547676 0.06904934 0.49748764 123 136 138
0.49462559 0.07408722 0.50091370 118 127 130
0.49021169 0.09453118 0.45636068 146 156 153
0.49452263 0.08003871 0.49955183 165 175 165
0.49438784 0.08015685 0.50028920 162 172 162
0.49054558 0.10190917 0.45758786 134 143 143
0.49185709 0.10237982 0.46096332 137 143 143
0.49554747 0.11746015 0.77668774 172 176 175
0.49487142 0.11201693 0.79017181 132 139 141
0.49512408 0.12151546 0.77686626 172 174 172
0.49493016 0.12283677 0.78603591 170 172 170
0.48256315 0.24749382 0.91213718 138 145 148
0.48506230 0.25187351 0.93135934 144 148 149
0.48919600 0.25357226 0.94597996 152 156 153
0.49150568 0.25876376 0.96154869 164 165 162
0.48480322 0.26131304 0.95044523 138 142 144
0.49296548 0.45812473 1.38628477 167 169 164
0.48113500 0.47152431 1.37643158 162 163 160
0.49073381 0.46908794 1.38511440 149 149 147
0.48115811 0.48106289 1.35307753 162 166 165
0.48342275 0.49019132 1.37504670 159 166 165
0.48696264 0.48508845 1.38569727 167 170 167
0.48000368 0.50142699 1.38345277 165 174 173
0.51990819 -0.34091860 1.30363810 159 143 125
0.51517155 0.05766050 0.86209438 138 141 141
0.50270518 0.06659896 0.49739628 109 127 129
0.51643471 0.06514345 0.85759442 137 138 138
0.50580085 0.11335075 0.79040116 124 131 134
0.50292579 0.24748285 0.94976917 147 149 149
0.50624818 0.52736974 1.36396754 167 172 169
0.51243454 0.53620046 1.38063514 168 174 170
0.51877391 0.54766560 1.39771509 170 176 172
0.51742494 0.54395545 1.40060294 167 173 169
0.53743674 -0.38310001 1.33601193 164 151 134
0.53767115 -0.38584730 1.34236014 166 152 134
0.53596291 -0.36969824 1.32966653 159 145 127
0.52766802 -0.34480553 1.30821335 158 143 127
0.53415352 -0.35490508 1.32557023 160 143 129
0.53462615 -0.32161983 0.53742484 97 122 121
0.52881122 -0.33931915 1.30615479 159 143 123
0.53310691 -0.31771179 0.53649562 96 123 121
0.53377215 -0.12389185 0.50595314 77 97 100
0.53891966 -0.11903826 0.50652053 77 94 102
0.52766583 0.06888628 0.85857180 123 126 126
0.52846066 0.07439155 0.86244410 129 134 135
0.52964746 0.08594594 0.85824142 116 122 126
0.53080078 0.08363939 0.86136366 111 117 119
0.52417709 0.53518087 1.37596579 166 171 170
0.52695832 0.53821670 1.38275123 165 172 170
0.52875198 0.54955022 1.38904115 169 176 174
0.52656707 0.55466339 1.40935940 168 176 173
0.52501816 0.55685073 1.42115688 167 176 173
0.53524117 0.56645863 1.39341882 164 170 169
0.53570925 0.56839633 1.40838909 160 167 165
0.53451569 0.56830543 1.42602585 163 170 167
0.53316296 0.57058878 1.44726999 165 172 170
0.53699201 0.57493031 1.46729839 163 172 169
0.53901893 0.58024478 1.40641463 162 171 170
0.53866319 0.58232102 1.42640063 155 161 159
0.53952813 0.58253860 1.46729839 167 175 173
0.54520927 -0.38790994 1.33675817 168 152 135
0.54933971 -0.39119662 1.34347076 170 153 136
0.54422583 -0.37182965 1.32830203 159 144 127
0.54197675 -0.32152082 0.53800952 98 120 119
0.54096216 -0.31923845 0.53800941 97 124 122
0.55945134 -0.19330240 1.10947931 154 137 118
0.54081453 -0.12381314 0.50659866 76 96 100
0.54054763 -0.11938823 0.50528638 76 94 102
0.54136097 0.57830086 1.42868423 158 163 162
0.54224692 0.58421472 1.43147113 157 163 161
0.54353675 0.58613469 1.45316154 158 163 162
0.54536767 0.59203510 1.46255490 159 164 164
0.54730821 0.59340367 1.48497844 161 168 168
0.54951531 0.60290134 1.47367787 163 169 167
0.55257072 0.60605356 1.49400315 162 168 168
0.55577168 0.61053252 1.51146638 162 171 169
0.57213535 -0.20831139 1.11685979 155 138 119
0.57226894 -0.20875208 1.12373976 154 139 118
0.57490714 -0.19399801 1.11330977 157 140 123
0.57409614 -0.19202333 1.12365599 158 140 121
0.56151044 0.62445360 1.51993692 162 169 167
0.58147553 -0.20564976 1.11716273 156 138 118
0.58159164 -0.20787542 1.12234143 155 138 117
0.58052808 -0.19489920 1.11312294 158 140 125
0.61128048 0.29372799 0.67767899 134 140 134
0.61483936 0.29246597 0.68946260 153 158 155
0.62166599 0.28904306 0.69062954 157 165 158
0.62159109 0.29119015 0.70139003 159 165 162
0.69432618 0.39411562 0.93696460 131 138 135
0.69588862 0.39475660 0.94816060 124 127 127
0.69357106 0.40668929 0.93390362 140 145 142
0.69681332 0.40828066 0.94953937 135 138 134
0.69792157 0.41296956 0.96200655 132 137 133
0.69861072 0.42090955 0.95612389 144 153 149
0.69957322 0.42116860 0.96428424 122 130 128
0.71593438 0.03412638 1.61449429 146 131 113
0.71124619 0.03839647 1.62175083 148 135 115
0.71653964 0.04855820 1.61788034 148 133 119
0.71756039 0.04923900 1.62384639 149 134 117
0.71857142 0.06096684 1.62563992 145 130 111
0.70173633 0.39702069 0.94981174 121 125 125
0.70063642 0.41169069 0.95010169 136 140 136
0.70309815 0.41751025 0.96684144 130 135 132
0.70142683 0.42078167 0.95209527 157 165 159
0.70386042 0.42269503 0.97097549 120 126 125
0.71282470 0.43223578 0.98962313 108 116 117
0.72650218 0.03460823 1.61294327 150 131 116
0.73823988 0.03567876 1.62563992 152 132 117
0.72430456 0.04164091 1.61710992 152 133 123
0.72808273 0.05100016 1.62584749 149 133 118
0.72278604 0.06096684 1.62563992 144 130 110
0.74578035 0.03516832 1.63446549 150 131 114
0.75349803 0.03662807 1.64297819 150 133 115
0.74358946 0.04159759 1.63741994 152 134 120
0.75055689 0.04174892 1.64337659 151 133 119
0.76815045 -0.48127380 1.69472957 159 145 123
0.77673535 -0.48277476 1.71042530 157 143 123
0.76300669 -0.47533214 1.67380702 156 142 120
0.77161539 -0.47596478 1.68629813 157 143 123
0.76772998 0.03777399 1.65592134 148 133 113
0.77178449 0.04609274 1.65662880 150 132 117
0.77414623 0.04513824 1.66354078 150 132 117
0.78582425 -0.48468035 1.73042727 156 141 123
0.79353856 -0.48502796 1.74815492 157 141 123
0.79766071 -0.48734459 1.76996060 159 141 124
0.79088789 -0.47742532 1.74489820 158 141 123
0.79534125 0.41071045 1.22834754 154 164 162
0.79831696 0.42116192 1.23253059 149 153 151
0.80915275 -0.48837154 1.77368834 156 142 124
0.80916715 -0.48630014 1.78863287 156 143 123
0.81494897 -0.48812528 1.81211740 157 141 125
0.81769393 -0.49001369 1.82844296 157 142 126
0.81968856 -0.46110943 1.75165856 157 144 122
0.81766988 -0.46784018 1.82721059 157 140 123
0.81107008 -0.44684404 1.77924371 155 141 119
0.81859139 -0.45564550 1.79574311 158 140 120
0.81873941 -0.45434421 1.80290389 156 140 119
0.81954208 0.12625264 0.79658374 158 174 171
0.81748712 0.23354199 1.14315653 150 152 149
0.81865209 0.25476159 1.15878952 144 145 145
0.81804758 0.25620098 1.16077375 151 152 151
0.80842379 0.41460725 1.23396399 164 173 168
0.81689447 0.41381433 1.24461440 154 164 159
0.81023639 0.42199416 1.23731264 160 167 164
0.81800212 0.42341211 1.24384031 165 174 170
0.83853244 -0.58111322 0.91237457 106 128 127
0.83966076 -0.57447428 0.91360086 103 125 126
0.82415324 -0.50174266 1.85723794 159 141 125
0.82869405 -0.50127929 1.86747062 159 142 128
0.82153314 -0.49557465 1.78863287 157 142 125
0.82778777 -0.48543275 1.81134315 157 142 124
0.83214015 -0.48677781 1.82919131 157 141 124
0.82604720 -0.48688187 1.84713048 157 141 125
0.83098328 -0.49619069 1.87262940 158 144 127
0.82120392 -0.46414012 1.75167018 158 144 124
0.82824928 -0.47204363 1.76995254 158 146 123
0.83684454 -0.47561079 1.79495029 159 146 124
0.82868631 -0.47127686 1.81151855 158 142 124
0.82406658 -0.47017898 1.82505448 156 140 122
0.82393986 -0.46963336 1.84776133 155 138 120
0.83008407 -0.46857506 1.86576049 154 137 118
0.82454779 -0.45698267 1.82862031 154 139 118
0.83025344 0.11595039 0.79635248 115 129 132
0.83135776 0.11676377 0.80234224 110 125 128
0.82840484 0.12308852 0.79838181 158 168 166
0.82962760 0.12272417 0.80247233 150 162 162
0.83401668 0.23879007 1.15419777 151 155 154
0.82938721 0.25294585 1.15656469 155 159 159
0.83417840 0.24949705 1.16398016 152 158 156
0.83240920 0.26043609 1.15287733 169 175 173
0.82561213 0.41568719 1.25458467 145 151 152
0.83224579 0.42732170 1.25253083 158 166 163
0.83808947 0.42739039 1.26096060 163 169 165
0.84368993 -0.58121312 0.91273955 106 126 127
0.84373943 -0.57070027 0.91422294 102 126 126
0.84732054 -0.56519588 0.92251410 99 125 126
0.84236119 -0.48837086 1.82968426 158 143 124
0.84608984 -0.48173279 1.84209740 157 143 123
0.84191471 -0.47713730 1.81254506 161 147 126
0.84286861 -0.47659006 1.83049397 157 143 124
0.84031248 0.11868884 0.80129057 118 134 137
0.84061399 0.12091020 0.80223998 125 136 140
0.84037983 0.23851688 1.15287733 162 169 165
0.84418641 0.24268638 1.15563633 168 175 172
0.84286425 0.24913335 1.16359187 154 160 158
0.84252679 0.41873124 1.25072300 112 120 124
0.84396321 0.42780342 1.25469841 148 154 152
0.84643702 0.42953222 1.26564914 151 157 156
0.85641801 0.42782661 1.29122257 119 125 128
0.85761446 0.44398940 1.28632224 155 164 161
0.86127394 0.42728643 1.28959227 124 130 134
0.86494958 0.42927472 1.30238706 123 128 132
0.86502042 0.44863963 1.29075968 151 158 153
0.87398538 0.45658801 1.30508040 151 158 155
0.87731832 0.46095568 1.31248313 152 158 155
0.88119523 0.46329862 1.31375702 153 158 152
0.88679171 0.46774715 1.33181107 148 154 153
0.89265567 0.47261214 1.34236014 145 151 148
0.96769039 0.05757373 0.93415824 119 130 130
0.96649683 0.05963716 0.94021058 92 103 101
0.97185017 0.06510816 0.93489446 130 140 139
0.97446966 0.06862698 0.94539630 133 142 142
0.98264356 0.07247038 0.93804383 155 164 164
0.98322724 0.07338958 0.94705621 143 149 149
0.99519054 0.41327207 1.63629263 132 134 136
0.99217347 0.41099878 1.64646686 145 148 148
0.99881303 0.42951840 1.60637879 128 140 141
0.99996185 0.43362862 1.62175083 114 122 128
0.99542581 0.42570891 1.65053710 148 149 147
0.99697632 0.43186547 1.66354078 165 167 162
1.00564818 0.41857138 1.61557274 157 159 159
1.01274250 0.41360572 1.63015178 158 163 162
1.01087805 0.40895108 1.64907361 150 152 151
1.00915460 0.40213752 1.66149962 164 166 164
1.00556543 0.42768035 1.61574129 137 144 146
1.00681293 0.42882823 1.62982330 127 132 136
1.00757929 0.43254302 1.64903767 125 129 134
1.00416279 0.43761255 1.66354078 142 142 144
1.00569848 0.44109273 1.61148453 131 146 145
1.00879474 0.44226245 1.62878499 113 123 126
1.00959110 0.44332616 1.64737022 94 98 106
1.00643003 0.44067341 1.66968429 141 142 144
1.02537054 0.39873759 1.65138328 164 166 165
1.02887410 0.38882726 1.67527530 170 175 174
1.03408637 0.39151341 1.68443841 170 174 174
1.02206858 0.41372861 1.63545030 158 163 162
1.02973494 0.40798252 1.64924426 157 161 161
1.02985168 0.40216132 1.66559196 161 163 162
1.05862784 0.39098392 1.22806895 147 150 147
1.04333305 0.38624999 1.69685328 170 174 171
1.04983357 0.38302185 1.70861956 175 177 174
1.05935442 0.41132638 1.19768882 160 171 166
1.04611276 0.41222975 1.65541601 158 164 164
1.04640008 0.40633126 1.66695833 152 155 158
1.04201913 0.42884684 1.65743732 169 170 170
1.05125554 0.42784120 1.66670993 167 171 171
1.06211563 0.39545394 1.19769128 158 168 163
1.07391699 0.39948631 1.21416140 162 172 165
1.06540741 0.39649539 1.23365929 129 130 131
1.06443590 0.40236758 1.19874871 143 158 155
1.07361169 0.40878965 1.21356994 151 163 159
1.07258892 0.40205163 1.23929036 119 121 123
1.07707971 0.40576266 1.25072938 117 120 121
1.06361598 0.41530305 1.67795014 164 169 169
1.07157326 0.41402721 1.69050336 177 178 178
1.07941854 0.41524741 1.70753610 167 170 168
1.07799137 0.42696930 1.22474581 160 169 162
1.06216592 0.42690384 1.67795014 165 170 170
1.08794711 0.39536443 1.23403955 157 162 157
1.09389830 0.39658812 1.24859808 141 141 137
1.08594988 0.40470060 1.23218075 156 169 163
1.09060593 0.40722647 1.24918871 145 154 151
1.09134831 0.41592022 1.26186877 121 133 132
1.09061134 0.41840920 1.72053766 170 173 169
1.08345729 0.42499851 1.22975066 156 167 162
1.09690481 0.42795876 1.24930350 149 161 157
1.09867128 0.42323796 1.26616143 122 137 136
1.09081662 0.43218136 1.71618187 160 169 168
1.10273564 0.39442726 1.25593969 136 137 129
1.10886943 0.39572404 1.26354599 137 138 130
1.10321275 0.41904093 1.25380830 145 160 152
1.10359895 0.41966662 1.26002204 147 160 150
1.10476567 0.42566764 1.25569168 148 161 158
1.10538331 0.42907427 1.26629293 136 150 147
1.11568455 0.43377877 1.29124596 122 135 133
1.10197580 0.42161950 1.73373878 172 178 173
1.11639333 0.42597732 1.75165856 173 182 175
1.13714683 0.41318104 1.62954772 176 185 182
1.12513789 0.43784976 1.30785044 120 132 130
1.12512785 0.43810663 1.60734624 142 142 142
1.13731205 0.43923473 1.62175083 135 135 136
1.12624830 0.44220859 1.29740185 132 145 143
1.12886961 0.44529517 1.30869420 130 142 139
1.12875208 0.44545472 1.61239300 136 138 139
1.13803891 0.44769200 1.63217807 142 144 141
1.14537507 0.41526894 1.64337659 173 182 179
1.14597368 0.43923530 1.60638779 158 167 167
1.15520074 0.42594323 1.65541931 175 182 178
1.15859437 0.43450892 1.66500739 171 176 173
1.14751537 0.45208260 1.33653834 131 139 137
1.14056182 0.44130936 1.59880149 166 173 173
1.14581567 0.44743714 1.61595428 144 149 152
1.15050722 0.44782282 1.62832457 139 144 147
1.15270052 0.44450226 1.64965960 154 156 152
1.15620561 0.44570986 1.66696060 156 158 151
1.16242146 0.41746475 1.64271259 169 174 171
1.17236847 0.41943890 1.66558194 163 171 169
1.16245127 0.42083737 1.63741994 169 175 171
1.17111183 0.43155542 1.65239638 173 178 173
1.16650647 0.43091894 1.66545055 174 180 177
1.16656047 0.43813905 1.68211377 166 170 171
1.16245127 0.45762929 1.63741994 141 147 149
1.16860586 0.44563968 1.64975179 158 164 162
1.16456771 0.44320692 1.67054131 167 169 162
1.16510677 0.44250014 1.68211377 167 170 167
1.18745720 0.41820176 1.68771382 165 171 170
1.19734287 0.42491215 1.69897699 163 169 169
1.19747210 0.42410144 1.70753610 163 169 169
1.18236554 0.45066294 1.65339470 162 171 170
1.19507828 0.48370605 1.42639431 167 175 171
1.20989339 0.41818282 1.43422139 172 181 173
1.20880583 0.42262168 1.43244162 168 176 169
1.21590269 0.42803264 1.44232309 163 172 165
1.20150928 0.42849430 1.71329995 160 168 167
1.20658994 0.42435682 1.72053766 170 178 176
1.21236715 0.49084871 1.44927549 167 175 171
1.21889794 0.50066823 1.45783186 167 176 175
1.22382534 0.41913506 1.45470357 160 169 166
1.22339241 0.43029749 1.45419103 167 175 170
1.23339006 0.43103972 1.47026080 170 179 173
1.23752737 0.43924746 1.48011315 168 177 173
1.22120476 0.47092557 1.45158851 160 161 156
1.23189819 0.47443784 1.46731557 164 168 162
1.22681284 0.49377492 1.46729839 170 176 171
1.23752737 0.48785433 1.48011315 172 177 172
1.24290927 0.42972805 1.48553010 168 177 172
1.24248934 0.44339588 1.47688854 157 165 164
1.24837200 0.45049275 1.49192864 156 165 163
1.25413716 0.44606507 1.50308609 168 177 174
1.24248934 0.47147536 1.47688854 171 177 169
1.24455270 0.47129327 1.48686394 160 164 160
1.25879041 0.47249231 1.50866302 149 152 151
1.24529359 0.49149961 1.48824929 161 169 165
1.25692828 0.48871963 1.50643126 173 178 173
1.24257379 0.50629452 1.48922739 166 175 172
1.25702864 0.50882816 1.50811875 168 177 173
1.25992012 0.52228218 1.51315141 166 175 174
1.26355875 -0.24002118 1.72931588 57 63 63
1.27177517 -0.24605333 1.75092552 57 61 62
1.27201527 -0.25050379 1.77327946 56 60 61
1.27414221 -0.25203693 1.78729156 56 60 61
1.27645028 -0.23916803 1.74489820 58 62 63
1.27390969 0.43990302 1.52678347 165 175 172
1.26677847 0.45057006 1.51823676 164 173 169
1.27391394 0.45221754 1.52678863 162 171 168
1.26677847 0.46236844 1.51823676 155 164 163
1.27503412 0.47248943 1.53221495 152 156 155
1.27629095 0.46706976 1.54241800 158 167 162
1.26536413 0.48938431 1.51654164 169 175 170
1.27847093 0.48751479 1.53543085 155 161 158
1.27774298 0.49028590 1.54417276 154 158 156
1.26449041 0.50859680 1.51654164 167 176 172
1.27480835 0.51232205 1.53024161 166 175 170
1.26273870 0.52082938 1.51653659 165 174 173
1.27093995 0.82612777 1.99821064 138 147 147
1.28517927 -0.24574544 1.77275679 56 60 62
1.28950158 -0.24765816 1.79226308 55 59 60
1.29119072 -0.24332250 1.80557484 55 59 60
1.29369581 -0.24347651 1.82228994 56 60 61
1.29509518 -0.23709270 1.76996701 58 61 63
1.29720968 -0.23482305 1.81618956 59 62 64
1.29999518 -0.23717715 1.82228994 60 61 65
1.29729257 -0.21376590 1.81062717 62 64 68
1.29999518 -0.21827906 1.82228994 63 65 69
1.29518545 -0.19518273 1.79812157 64 65 67
1.29896867 -0.19778593 1.80771160 65 66 68
1.28794281 0.44913034 1.54949603 168 177 176
1.29516315 0.45273876 1.56196272 168 177 175
1.28418190 0.47000868 1.55255287 160 169 165
1.29357330 0.46635108 1.56840361 162 172 168
1.29933357 0.47713375 1.58016741 161 170 166
1.28433756 0.49042109 1.54914079 160 165 162
1.28976381 0.49593437 1.56196272 155 161 159
1.28718795 0.50880797 1.54733345 168 177 173
1.29720676 0.50815061 1.56497997 165 174 171
1.28447534 0.52769846 1.54692736 163 172 170
1.29694462 0.52745193 1.56738210 165 174 171
1.30140126 -0.24335529 1.79812157 56 60 61
1.30336559 -0.24300860 1.81095111 56 60 61
1.30677962 -0.24224276 1.82885671 57 61 62
1.31132102 -0.24040845 1.84711671 59 60 64
1.30311465 -0.23157454 1.77924371 59 62 65
1.30781008 -0.23286050 1.79337498 59 60 64
1.30882541 -0.22917308 1.81035742 60 60 65
1.30612391 -0.23057106 1.82681623 59 60 65
1.31043512 -0.23227321 1.84586877 58 59 64
1.30426341 -0.21027622 1.81363066 60 63 66
1.30936326 -0.21153242 1.83050288 61 65 66
1.31810629 -0.21706143 1.85217732 61 65 67
1.30261713 -0.19701419 1.81497473 64 65 67
1.31139988 -0.19518682 1.82721502 64 65 67
1.30145979 0.45860857 1.57283485 169 178 177
1.30531123 0.47014328 1.58828161 159 170 165
1.30983887 0.48959336 1.59295217 167 174 170
1.31360894 0.49359637 1.60258114 171 177 170
1.30322633 0.50915252 1.57224218 164 173 170
1.31023094 0.51061459 1.58809121 159 167 164
1.31776381 0.50883098 1.60258114 160 169 166
1.30226839 0.52888775 1.57162694 167 176 173
1.31155624 0.52548890 1.58598523 168 177 174
1.32241960 -0.22357430 1.81416484 61 61 68
1.32472818 -0.22418893 1.82425466 60 61 68
1.33322906 -0.22224363 1.84209740 60 61 68
1.32426642 -0.21514763 1.81118252 61 61 65
1.33243043 -0.21088430 1.83038402 61 63 65
1.32811829 -0.20975620 1.84776478 62 64 65
1.33406997 -0.20866066 1.87006426 63 65 67
1.33091781 -0.19886227 1.82474583 63 64 66
1.32388437 -0.19385429 1.84460706 63 64 66
1.33706808 -0.19625488 1.86747062 64 65 67
1.34508198 -0.21675754 1.84964013 61 62 63
1.34436958 -0.20648133 1.88723495 64 65 67
1.35554895 -0.20551408 1.90849380 64 65 67
1.34285283 -0.19571935 1.87781680 64 65 67
1.35461676 -0.19791228 1.89885676 64 65 67
1.35894787 -0.19902727 1.90955448 65 66 68
1.36351275 -0.20256355 1.92219198 64 65 68
1.36527669 -0.19545187 1.90687251 64 65 68
1.37385857 -0.19739489 1.92582905 64 65 69
1.39059401 -0.20052856 1.95640188 64 65 69
1.39217851 -0.19545598 1.94797310 64 65 67
1.39899659 -0.19857942 1.97061586 64 65 67
1.40106905 -0.19404520 1.95922494 65 66 68
1.40257081 -0.19531562 1.97205216 64 65 67
1.61858350 0.83569637 1.89091539 108 122 121
1.61197885 0.84419815 1.89532069 104 120 119
1.62795246 0.84393600 1.90956962 100 115 114
1.63283825 0.85490927 1.92310125 96 113 112
1.63947904 0.86603314 1.93683386 93 108 109
1.63036728 0.87267029 1.95672633 97 103 106
1.63149535 0.87088641 1.96712518 85 90 94
1.63157874 0.87601334 1.98213995 84 85 91
1.62511396 0.88029128 1.97636104 96 100 103
1.63510203 0.88517876 1.98991303 95 99 102
1.64550316 0.85309696 1.93407482 96 109 110
1.64937513 0.87061746 1.95296225 84 97 98
1.64845419 0.87424303 1.96617317 77 85 88
1.65027654 0.88027364 1.95357883 100 111 115
1.64083314 0.88376564 1.99968100 83 85 88
1.66520524 0.85911328 1.95922494 117 125 129
1.66040635 0.86001408 1.95357883 111 120 124
1.66595082 0.87049116 1.97185171 89 101 101
1.66620201 0.87579657 1.98359311 81 91 92
1.78975546 0.66427708 1.91494870 159 159 153
1.79908669 0.67651179 1.96490383 170 178 171
1.79299213 0.69218436 1.95640188 160 166 158
1.79908669 0.68330416 1.96490383 169 176 170
1.79908669 0.70198315 1.96490383 147 153 147
1.81337730 0.67750158 1.94983629 168 169 161
1.81067550 0.68950135 1.95359498 168 170 163
1.81054732 0.69036301 1.96998856 167 172 165
1.81175494 0.68963914 1.98310872 166 174 167
1.81035288 0.70391304 1.97348845 151 157 149
1.81066734 0.70403522 1.98504627 155 163 155
1.82939384 0.34865465 1.86954553 143 155 151
1.83803821 0.35052153 1.88303292 136 149 146
1.83943808 0.37876144 1.87781680 165 175 168
1.83400643 0.38283398 1.87392625 156 165 162
1.82775068 0.67963612 1.95922494 164 165 157
1.82352620 0.69261245 1.97206044 169 172 165
1.82857203 0.69186753 1.98213995 170 174 169
1.82260962 0.70311813 1.97444598 158 162 154
1.82637153 0.71482873 1.99283081 145 150 145
1.84642184 0.35693746 1.88827813 145 154 152
1.85539913 0.35775122 1.90419054 137 150 147
1.85485232 0.37866256 1.89355266 163 174 166
1.85869038 0.36104244 1.90419054 144 153 149
1.85485628 0.38652043 1.89355857 159 168 164
1.86532152 0.35608662 1.89533055 141 151 149
1.86062562 0.35545844 1.90955448 136 149 147
1.86625129 0.37254185 1.90687251 157 164 160
1.87780583 0.37406844 1.92037344 148 151 148
1.86984499 0.38508009 1.89092273 163 171 164
1.87410107 0.38890663 1.90848775 163 172 167
1.88537115 0.35876182 1.90956962 150 159 157
1.88794518 0.37972325 1.89885676 166 173 167
1.89135456 0.36257085 1.91225159 155 165 163
1.88848627 0.36886428 1.92789438 149 154 151
1.88695455 0.38714355 1.89767807 157 162 156
1.89079966 0.38704416 1.90956313 161 169 162
1.89645501 0.38955523 1.92582905 163 172 166
1.90126073 0.37909672 1.91225159 168 177 174
1.91344950 0.36998249 1.93022470 161 171 169
1.90991666 0.37360055 1.94909425 149 154 151
1.91455674 0.37934631 1.96490383 146 147 143
1.90303712 0.39551097 1.91171217 152 157 153
1.91005874 0.38251355 1.92948687 167 176 173
1.90930926 0.38676917 1.94984706 155 163 159
1.91563654 0.38840046 1.96775985 140 146 143
1.90559959 0.40280023 1.91494870 147 151 148
1.91099787 0.40062210 1.92037344 153 157 154
1.92321032 0.37073572 1.93376826 161 171 169
1.92607934 0.37734939 1.94959205 160 165 163
1.92068255 0.38062239 1.93683386 167 176 173
1.92634988 0.38412441 1.95308317 167 175 172
1.92230439 0.38155824 1.97636104 141 142 138
1.92449915 0.39295182 1.98213995 137 141 140
1.92403018 0.40405601 1.93683386 154 158 155
1.94066453 0.38053647 1.95357883 160 168 166
1.99386442 0.38228226 1.81740439 167 176 169
1.99922431 0.38645959 1.82228994 168 177 172
2.01052538 0.37380188 1.81436731 155 160 157
2.01375930 0.37416309 1.82787082 155 159 158
2.00890632 0.38230621 1.81255368 157 160 157
2.01420645 0.38398910 1.82803812 163 170 164
2.03716326 0.35118659 1.80290389 157 168 165
2.03365350 0.37599979 1.81740439 137 141 141
2.03191811 0.37231608 1.82762659 142 149 147
2.03455468 0.37254550 1.84964472 147 155 153
2.02666085 0.38259525 1.81463133 132 136 135
2.02960736 0.38526087 1.82875998 149 153 150
2.03016920 0.39045271 1.84410512 165 172 167
2.04532635 0.34946099 1.81012833 160 171 168
2.05830193 0.35276139 1.82720172 157 168 164
2.05216846 0.35079690 1.85014482 164 168 165
2.04492426 0.36246309 1.81254506 148 157 156
2.05107471 0.36596751 1.83003891 144 152 150
2.05129441 0.36876299 1.84937505 148 156 154
2.05303669 0.37157564 1.86619511 151 160 157
2.04707870 0.39214103 1.83413153 144 150 148
2.04401302 0.39662891 1.84915748 158 166 163
2.04960108 0.39817211 1.86234021 167 176 171
