ply
format ascii 1.0
element vertex 645
property float x
property float y
property float z
property uchar red
property uchar green
property uchar blue
end_header
-0.38340404 0.35210296 1.51350807 61 60 64
-0.38978621 0.34956273 1.52793745 78 73 72
-0.38357840 0.36744404 1.51317255 79 77 79
-0.36906490 0.35246655 1.49810760 92 89 89
-0.37520333 0.35028561 1.50722362 76 72 74
-0.36800505 0.37148625 1.49409413 69 68 69
-0.37325422 0.37015565 1.50783670 73 72 74
-0.36410895 0.38574195 1.48523338 73 72 72
-0.34338893 0.37679836 1.45091254 78 77 76
-0.35173444 0.37615500 1.47182931 91 89 87
-0.35593436 0.37370259 1.48227471 79 79 78
-0.34449754 0.38393699 1.45471352 69 69 69
-0.35430726 0.38616772 1.47194687 75 75 75
-0.35626587 0.39319888 1.48011315 70 69 69
-0.33791694 0.37898022 1.44539833 60 60 60
-0.33863899 0.38229358 1.44848680 61 60 61
-0.30978765 -0.27137040 0.60453307 116 131 139
-0.28160520 0.25454138 1.01284341 75 74 73
-0.28132892 0.27065116 1.01881222 83 82 78
-0.28124116 0.26523631 1.02169138 98 98 87
-0.28236854 0.28137618 1.01938617 88 89 83
-0.28290724 0.28615600 1.02323823 82 80 78
-0.26263810 0.13327475 1.69473381 104 91 96
-0.26277819 0.14336322 1.70324588 108 102 104
-0.26226518 0.24746671 0.99984050 97 92 93
-0.26984429 0.25210327 1.00808142 89 84 85
-0.27176997 0.27252477 0.99984050 68 67 67
-0.27122539 0.26731733 1.01620673 80 78 76
-0.26746421 0.27223303 1.02331525 74 72 74
-0.27459359 0.28189974 1.01764088 89 84 81
-0.27094009 0.28696538 1.02893898 77 73 73
-0.26654512 0.29430171 1.05059354 72 71 72
-0.27326030 0.30152121 1.05920601 77 75 74
-0.27019856 0.30554085 1.06718820 79 76 77
-0.24103730 -0.42923668 0.95477874 108 108 108
-0.24039553 -0.41340074 0.95747530 107 108 111
-0.24427781 0.12669005 0.69502936 110 106 103
-0.24542513 0.13278007 0.70030147 118 115 110
-0.24241522 0.13428428 1.65662880 120 110 108
-0.24861523 0.13384892 1.66423127 123 114 114
-0.25661051 0.13286233 1.68211377 112 101 107
-0.24695018 0.14542553 1.66857834 106 95 96
-0.25530681 0.14679747 1.68630509 103 92 93
-0.25983426 0.14777910 1.70324588 114 105 106
-0.25811601 0.25540928 1.00898625 88 81 82
-0.25719255 0.26324176 1.01823997 75 67 71
-0.25737008 0.27246696 1.02510088 67 66 69
-0.25964391 0.28292775 1.04130852 69 68 69
-0.22997209 -0.42507976 0.95449783 106 107 109
-0.23214565 -0.41585068 0.95670092 105 107 108
-0.23310886 -0.41458564 0.96069770 106 107 109
-0.23673839 0.12658103 0.69541681 108 98 98
-0.23881724 0.13522911 0.70044631 120 119 116
-0.22937518 0.13407474 1.65436569 115 107 105
-0.23195440 0.12686969 1.66286039 133 132 128
-0.22113508 0.15455709 1.63478955 86 81 83
-0.22987819 0.14731201 1.65287406 106 99 99
-0.23250171 0.14373688 1.66218001 111 100 101
-0.22149089 0.16046380 1.63741994 85 84 85
-0.21880440 -0.42318010 0.95713769 108 108 110
-0.21784182 -0.42204082 0.96018672 112 112 114
-0.20666349 0.07555300 0.57543822 120 112 108
-0.20645689 0.08117952 0.57761031 111 98 96
-0.20960550 0.13454771 1.63469129 109 102 103
-0.21627211 0.13199403 1.64315526 128 121 119
-0.20486593 0.15015982 1.61788034 96 90 90
-0.21129656 0.14783088 1.62970476 100 93 95
-0.21874694 0.14329391 1.64337659 113 109 110
-0.21698563 0.16027047 1.63544714 69 64 69
-0.19919695 0.07598469 0.57692977 118 106 101
-0.18089431 0.13647355 0.61832720 101 99 97
-0.19927317 0.14736345 1.61788034 98 88 91
-0.16956219 0.13218553 0.61291611 99 95 93
-0.16494684 0.19152275 0.75306467 89 85 85
-0.16763014 0.20009454 0.75321317 78 74 76
-0.15866603 0.12765558 0.60688615 87 86 84
-0.14901209 0.17925101 0.73396713 121 113 112
-0.15047010 0.18822366 0.73116931 92 88 88
-0.15695120 0.18664498 0.74464456 105 100 98
-0.08758595 0.07939512 0.49553499 100 94 96
-0.08628433 0.08699445 0.49557639 110 103 101
-0.09308630 0.08199173 0.50093648 116 114 112
-0.08768519 0.21654006 0.51714326 164 159 150
-0.09468916 0.21607319 0.52045447 168 162 150
-0.08848595 0.22276640 0.51632012 141 138 134
-0.06448039 -0.26674186 0.84896033 91 90 92
-0.06563335 -0.25275537 0.83897507 88 89 91
-0.06238172 -0.25267228 0.84461132 89 88 92
-0.07935183 0.22197759 0.51433372 163 157 150
-0.05250002 -0.26665681 0.84973610 90 89 90
-0.05839763 -0.25355132 0.84710298 89 89 93
-0.02064217 0.35838563 0.87847888 102 87 87
-0.02178347 0.36652008 0.88837935 102 93 88
-0.00366690 0.13915661 0.49294118 152 148 139
-0.00513810 0.14502806 0.49011066 138 129 123
-0.00377852 0.27396771 0.73828425 103 100 97
-0.00255753 0.27342432 0.74589920 101 92 89
-0.01261720 0.35725853 0.87432973 102 93 90
-0.00434801 0.36387657 0.85917848 0 0 0
-0.00920089 0.36621058 0.87515425 83 78 74
-0.01202396 0.36828663 0.88466566 99 92 88
-0.00805818 0.38243982 0.88613313 0 0 0
0.00105789 0.13894294 0.49409044 139 136 129
0.00669671 0.13992506 0.50065869 141 136 127
0.00990348 0.14642993 0.49490849 120 113 108
0.00799184 0.14174763 0.50047404 139 135 124
0.01405827 0.19827442 0.61908013 117 110 109
0.00706341 0.19443317 0.62775776 113 105 101
0.01678400 0.19694512 1.06794866 181 170 161
0.00727441 0.20103112 0.62531641 119 112 103
0.01828917 0.21818356 0.98545799 135 126 118
0.01562215 0.20648578 1.05336182 183 172 163
0.01764546 0.20225765 1.06190480 183 172 164
0.01923680 0.22100745 0.97585378 136 128 125
0.01057396 0.27248579 0.74637268 104 97 93
0.00263894 0.36075947 0.87809825 115 107 99
0.00163971 0.36636712 0.88614725 123 114 107
0.02985319 0.19720822 1.05290673 171 160 154
0.02390217 0.19683228 1.06482516 182 171 161
0.03610986 0.21115751 0.93118630 142 130 124
0.03279393 0.21365550 0.95133852 151 142 135
0.02711206 0.21348222 0.97041062 134 123 121
0.02002049 0.21778947 0.98674214 96 86 84
0.02716186 0.20657438 1.05294353 166 156 148
0.02448128 0.20353480 1.06186125 184 173 162
0.02669965 0.22219147 0.95720806 153 145 139
0.02351840 0.22257329 0.96720732 149 141 136
0.02010992 0.27049357 0.73924953 95 86 84
0.02070129 0.26945346 0.74521976 94 85 82
0.04838293 0.01061058 0.49802497 169 157 148
0.04826146 0.00700823 0.50095503 162 148 142
0.04075383 0.20931552 0.91607675 134 116 113
0.04087379 0.20842062 0.93696222 150 136 129
0.04038946 0.20848102 0.94458534 152 142 131
0.06805788 -0.24248797 0.51795767 91 90 85
0.06957647 -0.23815710 0.51804280 90 89 88
0.07111402 0.16757016 0.61821686 104 95 94
0.06688372 0.17165275 0.62151613 113 105 102
0.07914242 0.19839311 0.51599839 85 76 77
0.07779572 0.20485478 0.51783568 98 92 89
0.07574923 0.23576457 0.71665771 100 92 86
0.07588890 0.23267191 0.72129046 107 99 92
0.07816653 0.25255013 0.71893150 99 88 86
0.07442338 0.24992729 0.72230392 123 113 107
0.07508886 0.26870199 0.71667036 123 113 106
0.06921561 0.26853662 0.72443236 127 124 118
0.07663718 0.29314853 0.73572635 81 73 72
0.07273494 0.29634058 0.74832231 97 91 88
0.07633018 0.30115914 0.73924953 88 76 75
0.07183489 0.30811970 0.75272604 78 72 69
0.07043531 0.31666542 0.76116331 34 32 30
0.08628703 0.19717840 0.51713830 95 87 84
0.08551235 0.19430896 0.52038787 100 84 79
0.08454653 0.20544869 0.51847401 121 116 111
0.08687643 0.21207576 0.52040836 129 118 113
0.09866523 0.23260456 0.69838020 128 115 112
0.09052514 0.23373869 0.70853475 123 117 115
0.08299873 0.23262042 0.72087455 62 61 62
0.08968706 0.24876728 0.71103681 106 101 98
0.08260521 0.24977604 0.72102264 92 82 81
0.08379731 0.26800663 0.71574626 115 106 104
0.08322274 0.26516217 0.72146057 99 92 92
0.11667009 0.03274513 0.76699396 111 102 101
0.11633999 0.04241648 0.76777825 107 97 98
0.11802738 0.17863800 0.84578194 122 111 108
0.10976092 0.19882751 0.83845654 148 139 138
0.11520404 0.19272725 0.84811021 146 137 132
0.11254083 0.20276874 0.83580559 152 142 139
0.11222928 0.20164802 0.84115234 148 138 135
0.10247177 0.23127228 0.69599282 115 104 101
0.10065695 0.23370246 0.70131732 123 117 112
0.11696286 0.23584568 0.81647052 96 91 86
0.11480473 0.23385804 0.82896351 120 110 104
0.11158967 0.23440637 0.84131809 132 121 116
0.10140451 0.24737465 0.70370846 88 87 84
0.13232477 0.03638258 0.75996846 126 117 115
0.12587104 0.03512474 0.76430846 124 115 111
0.13975771 0.05203452 0.65878701 122 112 108
0.12611652 0.04102141 0.76482872 111 103 101
0.13862353 0.09971243 0.76210654 91 89 86
0.13598807 0.10503338 0.76402327 101 91 93
0.12111224 0.17839811 0.84349906 129 113 113
0.12152910 0.19011848 0.85091041 139 130 124
0.12269251 0.23579426 0.81838157 75 73 75
0.12447078 0.23373828 0.82333915 79 76 75
0.12967093 0.45938843 1.98795259 111 103 99
0.13233081 0.46866572 1.97636104 120 111 109
0.12902922 0.47384602 1.99577725 112 101 99
0.13005269 0.49002794 1.99380531 115 110 109
0.13005231 0.50209302 1.99379957 117 108 106
0.15258335 0.03810526 0.66687660 136 126 121
0.15138579 0.05472216 0.65894171 127 118 116
0.15258272 0.04755480 0.66256170 125 113 110
0.14548424 0.09913376 0.75911797 100 95 95
0.15092629 0.09957224 0.76103507 109 104 104
0.14770488 0.10337148 0.75888240 98 89 90
0.15191517 0.10373927 0.76089906 104 94 96
0.15442985 0.19913869 1.23404364 106 90 86
0.15207990 0.19821281 1.24384242 109 94 90
0.14556453 0.21071756 0.45712176 0 0 0
0.14757358 0.21657011 0.46981803 0 0 0
0.15358914 0.21114226 1.23359948 125 109 102
0.14899716 0.21256287 1.24723082 131 122 114
0.14534673 0.21603803 1.26002204 141 133 127
0.15058171 0.22533312 0.48882814 0 0 0
0.15383053 0.23479726 0.50935924 0 0 0
0.15028008 0.22972925 1.23414637 121 110 107
0.14554027 0.23024052 1.24666890 131 120 118
0.15684660 0.24358336 0.52841944 0 0 0
0.15897657 0.24978821 0.54187995 0 0 0
0.14217553 0.24008392 1.23253059 136 130 124
0.16178981 0.05476096 0.65873640 120 108 106
0.16314197 0.05268236 0.66042098 136 122 120
0.17849264 0.17544909 0.71659198 150 139 135
0.17663649 0.17322940 0.72224978 148 139 134
0.17952135 0.18195147 0.71759971 140 129 125
0.17906999 0.18526835 0.72244591 97 84 88
0.16065749 0.25468487 0.55250260 0 0 0
0.16239788 0.25975481 0.56350112 0 0 0
0.16421719 0.26505466 0.57499838 0 0 0
0.16675587 0.27245009 0.59104171 0 0 0
0.16875000 0.27825916 0.60364366 0 0 0
0.17013060 0.28228098 0.61236840 0 0 0
0.17228338 0.28855227 0.62597308 0 0 0
0.17529961 0.29733887 0.64503437 0 0 0
0.17850533 0.30667743 0.66529307 0 0 0
0.17756610 0.39964437 1.94796503 150 141 140
0.17782196 0.40528028 1.95077193 146 139 138
0.17911015 0.41330808 1.96490383 157 149 148
0.18316996 0.17247813 0.71299609 142 128 123
0.18041241 0.16665049 0.72116154 146 130 121
0.19339270 0.18526958 0.67579062 119 110 106
0.19190708 0.18751101 0.68922816 113 104 100
0.18443242 0.18523993 0.71021599 122 114 111
0.18151369 0.19086411 0.72448432 115 107 105
0.18191896 0.31662166 0.68686563 0 0 0
0.18556139 0.32723245 0.70988420 0 0 0
0.18844905 0.33564451 0.72813302 0 0 0
0.19150705 0.34455277 0.74745819 0 0 0
0.19471239 0.35389021 0.76771444 0 0 0
0.19811736 0.36380927 0.78923240 0 0 0
0.19998506 0.37727472 1.93683386 128 118 104
0.19776750 0.37944296 1.94796503 144 134 121
0.19609104 0.37934631 1.96490383 147 138 131
0.19998506 0.38062239 1.93683386 133 123 107
0.19534454 0.39092942 1.95229328 138 125 119
0.19098401 0.39701980 1.96833768 151 139 136
0.19096296 0.40429084 1.95414990 145 135 130
0.18846091 0.40769055 1.96906406 150 141 137
0.20169580 0.37423360 0.81184649 0 0 0
0.20420550 0.38154462 0.82770675 0 0 0
0.20681523 0.38914701 0.84419906 0 0 0
0.20953105 0.39705852 0.86136192 0 0 0
0.20999993 0.38931465 1.95359337 125 108 104
0.21276232 0.39374535 1.96653584 132 110 107
0.21235961 0.40529838 0.87923717 0 0 0
0.21530806 0.41388747 0.89787000 0 0 0
0.20369872 0.40306357 1.95640188 117 102 98
0.21319935 0.40498829 1.97234273 132 115 110
0.21697164 0.41583194 1.98504627 147 137 132
0.21838416 0.42284852 0.91730964 0 0 0
0.22165473 0.38842152 1.95077193 119 99 97
0.22495855 0.39632720 1.96490383 130 113 109
0.22474198 0.40460357 1.97420660 134 115 109
0.22510311 0.41518473 1.98546636 144 132 126
0.22159643 0.43220615 0.93760973 0 0 0
0.22495408 0.44198734 0.95882863 0 0 0
0.22846723 0.45222148 0.98103017 0 0 0
0.23214693 0.46294081 1.00428426 0 0 0
0.23600531 0.47418064 1.02866745 0 0 0
0.23851196 0.47857581 1.24612474 75 74 74
0.22615540 0.49045937 1.19505766 52 51 51
0.22927615 0.49290501 1.21097746 67 66 63
0.23288962 0.49146191 1.23176191 79 78 76
0.23529655 0.48892374 1.25013784 69 67 68
0.23388366 0.49230087 1.26948453 68 66 67
0.23304237 0.49733813 1.28977585 71 69 69
0.23329893 0.49857849 1.30113602 75 73 71
0.22495611 0.50083879 1.21649966 67 62 67
0.22739859 0.50277600 1.23068414 84 82 80
0.23106362 0.50645930 1.25248247 98 97 91
0.23013594 0.50585822 1.26865282 95 89 87
0.23064463 0.50451891 1.28880322 85 79 77
0.25165972 0.07814277 0.45451186 118 112 109
0.24900764 0.08246546 0.45098835 139 127 121
0.25960705 0.17234023 0.91730964 161 155 140
0.25849617 0.17499790 0.93430970 147 140 134
0.25714922 0.17500791 0.94476822 146 137 131
0.25876612 0.18432381 0.90881130 156 144 141
0.25875844 0.18698714 0.93411828 140 128 126
0.25701534 0.18644268 0.94509878 134 121 117
0.24005570 0.48597986 1.05426419 0 0 0
0.24431281 0.49838126 1.08116722 0 0 0
0.24879289 0.51143217 1.10947931 0 0 0
0.25351390 0.52518493 1.13931406 0 0 0
0.25849584 0.53969783 1.17079771 0 0 0
0.26575869 -0.20995289 0.51882641 86 84 81
0.26751740 -0.21582342 0.52071032 85 84 82
0.27822466 0.14866032 0.46895833 99 93 89
0.26194438 0.17791931 0.93199866 152 143 135
0.26069636 0.18604557 0.90678264 157 147 142
0.26253200 0.18918149 0.93061984 146 135 133
0.26089722 0.19886576 0.94349165 126 119 117
0.26774659 0.20235823 0.93513382 142 131 129
0.26540380 0.20803923 0.94799335 120 108 107
0.26513694 0.21245832 0.96635842 141 132 118
0.26376092 0.55503559 1.20407081 0 0 0
0.26933405 0.57127064 1.23929036 0 0 0
0.27829803 0.57421664 1.89268343 90 84 81
0.27928831 0.56754079 1.90687251 95 86 82
0.27524301 0.58848411 1.27663243 0 0 0
0.27953026 0.58983976 1.93131578 100 92 90
0.27238598 0.58651704 1.97636104 130 122 117
0.27371918 0.59339944 1.98963789 127 122 115
0.27433181 0.60205702 1.99674889 132 129 121
0.28576970 0.15083062 0.47008834 92 90 88
0.29596460 0.25843876 0.68473971 105 101 93
0.29819222 0.26540007 0.68897716 95 87 84
0.29641433 0.26908541 0.71513563 123 113 101
0.29760872 0.27431445 0.72513111 121 108 96
0.29926692 0.28076975 0.73604238 109 92 81
0.28963813 0.55727243 1.87781680 76 72 71
0.29145055 0.55831814 1.88960409 65 62 62
0.29041484 0.55851680 1.90419054 54 48 56
0.29075356 0.56316336 1.87716837 82 76 75
0.28375780 0.56714841 1.89092276 90 84 83
0.28463881 0.56504071 1.90956962 79 70 70
0.28891705 0.56693488 1.92720851 70 65 66
0.28530202 0.57361046 1.94797579 83 78 77
0.28522077 0.57970291 1.97063243 96 89 88
0.28032890 0.58817732 1.93683386 105 97 91
0.28140142 0.58370350 1.94424403 95 90 86
0.28148652 0.59093031 1.96833768 108 102 97
0.28227965 0.59282271 1.98990158 115 110 105
0.28151914 0.60676706 1.31629479 0 0 0
0.28099546 0.60009784 1.96490383 100 93 89
0.28168407 0.60376391 1.99381679 122 114 110
0.28819776 0.62622255 1.35850072 0 0 0
0.29531884 0.64696699 1.40350282 0 0 0
0.30065713 0.27231816 0.69652474 108 100 99
0.30290187 0.27255463 0.71297759 100 94 90
0.30245200 0.27727927 0.72362186 104 95 90
0.30479826 0.28065783 0.71470377 116 114 113
0.30478352 0.28868912 0.73463369 107 102 100
0.30552375 0.29260762 0.74408596 97 93 92
0.30598843 0.30083108 0.73844427 115 111 108
0.30637356 0.30303087 0.74595073 102 98 96
0.30292788 0.66913289 1.45158851 0 0 0
0.31107682 0.69287151 1.50308609 0 0 0
0.31982520 0.71835643 1.55837202 0 0 0
0.33019234 0.15654421 0.77352867 112 101 100
0.32839398 0.15432708 0.78736429 123 110 106
0.33490424 0.16389850 0.77465893 109 100 98
0.33430399 0.16925489 0.78586394 132 120 113
0.32343214 0.19192914 0.49918479 103 104 97
0.33307830 0.19207489 0.50248892 101 97 93
0.33934566 0.18127228 0.78679127 129 115 107
0.33947623 0.51598582 1.87522310 113 109 108
0.33963274 0.52433560 1.87608767 110 102 95
0.32924172 0.74578768 1.61788034 0 0 0
0.33940595 0.77539712 1.68211377 0 0 0
0.34658895 0.17251496 0.77697964 125 118 111
0.34485214 0.17613777 0.78203799 131 122 115
0.35874629 0.19867324 0.46764116 68 61 62
0.34165814 0.19104973 0.50388430 79 79 77
0.35025464 0.18050807 0.77918601 149 139 129
0.34935006 0.18623050 0.78940252 141 131 122
0.35843797 0.20213363 0.46629381 83 81 79
0.34727371 0.49632671 1.79812157 136 131 124
0.34849960 0.49874090 1.81255800 136 130 125
0.34879169 0.49984810 1.82228994 128 123 118
0.35193947 0.50421323 1.81532182 139 133 127
0.35327697 0.50617527 1.82918775 136 129 123
0.35221818 0.51047334 1.85132700 130 123 118
0.34960729 0.51164899 1.87021515 126 121 118
0.35032319 0.50983229 1.89225613 117 115 111
0.34907710 0.51362543 1.90553153 107 106 103
0.35596526 0.51146392 1.92949732 99 90 90
0.35068324 0.52472227 1.86978241 113 105 98
0.34951451 0.53244157 1.88566041 100 93 85
0.34263399 0.53076448 1.91091061 108 101 97
0.34728211 0.52791947 1.93683386 89 88 88
0.34861081 0.52321506 1.94424403 83 84 81
0.35095352 0.53527733 1.97636104 82 82 80
0.35353714 0.53060749 1.99091047 93 94 92
0.35044342 0.54813346 1.97348845 113 106 100
0.35060406 0.55723095 1.99379957 124 116 107
0.35163829 0.56233102 1.99968100 139 130 121
0.35041064 0.80745488 1.75165856 0 0 0
0.37102104 0.16888945 0.45403884 111 108 103
0.37176681 0.17499390 0.46083742 105 104 100
0.36754607 0.19547897 0.46811183 89 83 81
0.36370785 0.20310053 0.46729268 103 97 96
0.36883872 0.25544620 0.61639887 109 103 97
0.37005898 0.26136316 0.61574155 114 112 108
0.37321573 0.49552598 1.79336884 119 110 109
0.37080839 0.49367988 1.80933565 116 110 107
0.37209161 0.49363188 1.82844296 96 91 90
0.37320833 0.49616300 1.84964013 108 101 98
0.36984622 0.49864402 1.86490542 130 126 121
0.37785232 0.50964755 1.79574311 87 79 79
0.37463868 0.50470161 1.80772018 108 97 96
0.36795700 0.50638775 1.82886341 132 123 118
0.37017759 0.51006944 1.85049045 130 120 116
0.36791333 0.50454769 1.87025719 138 132 126
0.36210266 0.51560056 1.95357883 102 89 87
0.37835279 0.52274394 1.79812157 110 100 99
0.37893092 0.52631243 1.81578461 110 99 99
0.36411354 0.52084756 1.85216355 122 114 106
0.37167921 0.52628814 1.87006781 123 112 107
0.37163036 0.53552377 1.89039972 108 98 97
0.37994611 0.54905641 1.88303292 144 136 130
0.36236450 0.84227777 1.82720172 0 0 0
0.37539592 0.88023961 1.90955448 0 0 0
0.38384773 -0.00531372 0.49431396 26 25 28
0.38525615 0.00244857 0.49375715 27 25 29
0.38146070 0.50565040 1.79812157 82 73 73
0.38244282 0.51528277 1.81012833 75 68 71
0.38552554 0.51786619 1.82474583 82 74 76
0.38146070 0.52429789 1.79812157 111 101 97
0.39183390 0.52049667 1.81740439 133 132 129
0.38481045 0.52272067 1.82886565 85 76 79
0.38332333 0.53152418 1.85217273 108 95 95
0.38365673 0.53215813 1.86941229 106 90 92
0.38246866 0.53762031 1.88478132 117 102 103
0.38405187 0.54321903 1.87135395 130 121 117
0.38246866 0.54521757 1.88478132 135 128 123
0.38965744 0.92178482 1.99968100 0 0 0
0.41209332 0.10695092 0.67478940 83 79 77
0.41096520 0.10730284 0.68292506 83 81 79
0.43754739 0.23979197 0.70175141 85 82 80
0.43729842 0.24518958 0.69885840 95 86 84
0.43912342 0.24908037 0.70389895 94 87 86
0.43890737 0.26151966 0.70898715 75 70 69
0.45517601 0.23140908 0.47619753 66 67 69
0.45823275 0.23172334 0.48173482 59 57 59
0.45941052 0.24021854 0.49337107 43 39 37
0.44213887 0.25383927 0.70721756 84 78 77
0.44315505 0.26099735 0.70762478 86 82 81
0.47417695 -0.20476021 0.64986686 107 100 96
0.47763569 -0.19781440 0.65483608 103 94 93
0.46367025 0.23632195 0.49350620 78 73 70
0.46193743 0.24026418 0.49434564 79 70 61
0.48179029 -0.20223653 0.64960559 150 155 158
0.48305528 -0.19620855 0.65382647 130 130 135
0.49974969 0.23922458 0.57742065 65 64 61
0.49666841 0.24247694 0.57752662 70 69 65
0.49742422 0.24652456 0.58288205 97 96 78
0.49840158 0.27626157 0.95882863 109 111 99
0.49909203 0.27803138 0.96497107 110 112 102
0.49956153 0.28210391 0.96751426 105 102 97
0.51628025 0.19360797 0.71654429 81 74 75
0.51838905 0.19871445 0.72141808 122 118 112
0.51923949 0.20094648 0.72347051 130 122 120
0.50706644 0.23755427 0.57519452 71 69 69
0.51266657 0.23779727 0.58586080 70 67 67
0.50342823 0.24163692 0.57518236 63 60 60
0.50678224 0.24065924 0.58370558 62 61 60
0.50304177 0.25552251 0.93272228 132 129 120
0.50404865 0.25662750 0.94151646 136 129 121
0.50697702 0.26522673 0.93576605 106 97 90
0.50765338 0.27389598 0.95024483 120 113 105
0.50368564 0.27856146 0.96350655 110 107 103
0.50477032 0.28035504 0.95209905 94 83 80
0.50188515 0.28209270 0.96642319 96 93 89
0.52083683 0.19614841 0.71963042 79 74 76
0.52362927 0.19833834 0.72262371 99 95 91
0.52790934 0.20563671 0.72974201 119 114 104
0.52201106 0.23946692 0.59796659 74 69 68
0.52617631 0.23935735 0.60289754 95 87 84
0.52148435 0.24230926 0.59924267 54 51 52
0.52459802 0.24246441 0.60464965 75 69 67
0.55047306 0.21474058 0.74735869 103 102 98
0.55326307 0.22089134 0.74781762 129 126 120
0.56417847 0.21426135 0.75424719 77 74 76
0.56467333 0.22027313 0.75321686 124 121 119
0.59749042 0.23669843 0.79236298 117 114 105
0.59820633 0.24302440 0.79043039 98 94 91
0.61851122 0.21580532 0.99807520 126 120 109
0.60384595 0.23525556 0.79246188 88 83 80
0.61347822 0.24636392 0.59282955 91 86 79
0.61713165 0.24687885 0.60090952 87 85 82
0.60396982 0.24264990 0.79096823 92 89 86
0.61541967 0.29486956 0.77463823 81 76 75
0.61561592 0.29773267 0.78228723 77 71 71
0.61358918 0.30078425 0.77793605 80 77 76
0.61738198 0.30736532 0.78905246 67 63 63
0.63273606 0.05506159 0.66967347 38 38 45
0.63590997 0.06177685 0.67216326 44 43 57
0.62597986 0.21366297 0.99934965 137 127 114
0.63137018 0.21287638 1.01008634 141 129 118
0.63346476 0.21490148 1.03065914 143 131 123
0.63720756 0.21672244 1.04317921 141 134 127
0.62763697 0.23948787 0.60852051 50 51 52
0.62079290 0.24314012 0.59937435 82 82 73
0.62715540 0.24410604 0.60840961 68 68 64
0.62064245 0.29645222 0.77419162 93 91 87
0.62234405 0.30356566 0.77623471 120 114 109
0.62380764 0.31459405 0.79001770 85 84 80
0.62429490 0.31759386 0.80205102 70 66 66
0.62497337 0.32262754 0.79588564 82 82 75
0.62660406 0.32467093 0.80284662 81 80 74
0.64435922 0.05626453 0.67077233 129 136 139
0.64379410 0.06117025 0.67299444 97 100 107
0.64368379 0.21138209 1.01701340 140 131 123
0.64402453 0.20958320 1.03046957 135 124 116
0.64152702 0.21405729 1.04434722 126 117 114
0.65423815 0.27588821 0.83443890 128 123 119
0.65272666 0.27463639 0.84368213 126 124 120
0.65305778 0.28085172 0.84105688 135 130 123
0.66135567 0.27604343 0.83749648 131 126 123
0.66923651 0.26817897 0.84948111 124 121 114
0.73918498 0.02965977 0.77888783 37 36 44
0.73897096 0.03060398 0.78008264 36 34 41
0.73500332 0.05182962 0.76984831 74 75 77
0.74481952 0.03160504 0.77888783 90 94 99
0.74537365 0.03404678 0.78032775 99 100 105
0.74252995 0.04579663 0.77539366 116 120 122
0.79425433 0.18851593 1.51220792 110 102 97
0.79610127 0.18870717 1.52986605 103 96 94
0.79619966 0.19097194 1.54569174 112 107 105
0.79504073 0.20237555 1.55361183 93 84 79
0.80877456 0.16920947 1.51315898 116 97 93
0.81575927 0.17623345 1.52870855 111 99 97
0.81271905 0.18739935 1.51857830 117 107 105
0.81125554 0.18758007 1.52644424 107 92 91
0.80231780 0.19221882 1.55124801 103 94 94
0.80711195 0.18654066 1.57101446 111 104 103
0.80358406 0.20458032 1.55480712 110 102 101
0.80662185 0.20982549 1.56817550 128 122 116
0.81318152 0.21493939 1.58016741 126 118 112
0.82414387 0.17501073 1.52954842 109 102 97
0.82180697 0.18605051 1.52472489 98 91 91
1.09261799 0.71547383 1.67795014 57 55 56
1.08877885 0.72692949 1.66763312 75 74 70
1.11565472 0.43603493 1.67088546 132 127 123
1.11832356 0.43448049 1.69050336 117 113 107
1.11345128 0.44513273 1.67198598 134 127 121
1.11526096 0.45021272 1.69472957 132 125 116
1.11995554 0.45757902 1.73373878 122 117 94
1.10924649 0.73912239 1.69897699 76 76 72
1.10908961 0.72920376 1.70324588 62 55 58
1.11321503 0.74769285 1.71185899 78 73 70
1.11737561 0.75147593 1.72053766 71 68 65
1.12174368 0.43597540 1.67380702 135 128 125
1.12111938 0.43849590 1.69472957 127 124 118
1.13234448 0.43811390 1.71618187 91 83 79
1.12742043 0.44285494 1.67795014 133 122 122
1.13118161 0.44746231 1.69151756 135 128 123
1.12887141 0.44997100 1.70920463 133 128 120
1.13038967 0.45295721 1.73014055 119 115 102
1.12867039 0.45750840 1.74489820 121 114 95
1.13293314 0.46077758 1.69050336 122 120 108
1.12709494 0.46531803 1.70898434 128 122 114
1.13221961 0.46405624 1.72163215 124 117 106
1.12403882 0.73501130 1.73079773 64 62 61
1.13173783 0.73402667 1.74265254 71 67 66
1.12479990 0.74748833 1.73196962 66 61 61
1.13309687 0.76559252 1.74940121 75 69 67
1.14154851 0.43959486 1.69897699 137 127 125
1.15248320 0.43784416 1.70646900 139 130 123
1.14962739 0.44655182 1.69397266 136 127 122
1.15187165 0.45019183 1.70675804 131 123 118
1.15019655 0.46067789 1.71184814 128 123 116
1.14342811 0.46550524 1.72756476 125 116 110
1.14940917 0.75821275 1.77458596 65 60 61
1.15545869 0.75757825 1.78392589 67 64 63
1.14819174 0.76894631 1.77460053 69 64 63
1.15237534 0.77916187 1.78392589 69 62 62
1.15237534 0.78224528 1.78392589 74 67 67
1.16791564 0.41641153 1.73080148 115 98 91
1.17390621 0.41475111 1.74265254 105 82 81
1.16612881 0.42818307 1.72638686 128 118 104
1.16414380 0.44985099 1.71247344 133 124 118
1.17689145 0.44858915 1.73373878 138 128 124
1.17090416 0.46301636 1.72053766 102 94 90
1.16311276 0.75793892 1.79574311 72 69 68
1.17086482 0.75830585 1.80771160 77 76 74
1.17086685 0.77442977 1.81255153 69 63 63
1.16154540 0.78225422 1.79812157 71 67 65
1.16773335 0.78365370 1.81093391 72 68 66
1.17400789 0.78961867 1.82228994 76 72 70
1.17565876 0.79564482 1.85470763 101 94 94
1.17727792 0.79731625 1.86234021 106 101 97
1.17567730 0.80274351 1.86747772 117 108 108
1.18731611 0.76751571 1.83116846 69 68 68
1.19800332 0.77137995 1.84839219 66 65 65
1.18355274 0.78651249 1.83710527 72 65 65
1.19113016 0.79403575 1.85218191 74 68 68
1.18922159 0.79645542 1.86788497 93 86 84
1.19693840 0.79210222 1.88827813 106 98 96
1.19331306 0.80155200 1.85723794 79 73 73
1.19059996 0.80446359 1.87148619 94 88 87
1.19128209 0.80439331 1.89224875 110 104 97
1.21946084 -0.66207248 1.55837202 29 29 33
1.21383142 -0.65218389 1.55598919 27 27 31
1.21698201 -0.64889514 1.56557840 27 27 31
1.21891785 -0.63990295 1.54066324 30 30 34
1.21899378 0.75982088 1.85723794 84 85 77
1.20252085 0.76221985 1.83214009 69 67 66
1.21500790 0.76565114 1.85116520 73 73 69
1.21183097 0.77370263 1.86527998 69 65 63
1.21639621 0.77688324 1.88303292 78 73 68
1.20320257 0.79525197 1.87263894 77 69 69
1.21139816 0.79413150 1.88867588 81 77 74
1.20713407 0.79937878 1.90956962 103 95 92
1.20931128 0.80142134 1.89487869 95 86 82
1.21525300 0.80206847 1.90419054 92 86 80
1.20409787 0.82449746 1.92582905 126 118 114
1.22659338 -0.66316804 1.55327300 29 29 33
1.23261395 -0.66585585 1.56294656 30 30 34
1.22885471 -0.65225314 1.55502780 30 29 34
1.23058339 -0.64920080 1.56729421 29 28 33
1.23105383 -0.65357947 1.58016741 27 27 31
1.22448798 -0.63301237 1.54770366 32 29 36
1.23591721 -0.63942391 1.56557012 34 29 37
1.22402626 0.75812054 1.86490542 86 85 77
1.22647667 0.76933512 1.87522310 79 78 71
1.23119122 0.77347770 1.88763347 76 75 67
1.22656381 0.78268228 1.89708873 73 69 65
1.22854152 0.79057336 1.90822107 76 74 72
1.22377372 0.80329013 1.91494870 90 86 82
1.22580922 0.80902171 1.92859324 95 90 86
1.23123455 0.81311995 1.94238353 99 92 89
1.22482467 0.83131295 1.95357883 119 114 107
1.23461363 0.83285323 1.96919614 112 105 99
1.23930538 0.83490169 1.98213995 117 111 104
1.24268392 -0.68136658 1.56557426 28 28 31
1.24100900 -0.67149981 1.55837202 31 31 35
1.24480869 -0.66943078 1.56418777 31 31 35
1.24100900 -0.65264517 1.55837202 32 32 36
1.24590236 -0.64660987 1.57649267 32 30 35
1.24772256 -0.64895511 1.58592210 31 29 35
1.24353731 -0.62696218 1.55479777 32 32 35
1.24977386 -0.63666474 1.57212355 31 30 34
1.24012959 0.78287452 1.90955448 73 72 65
1.24071288 0.79121107 1.92582905 77 74 68
1.24445510 0.80242759 1.93683386 76 71 71
1.25064154 0.80858654 1.95170756 80 75 74
1.26068199 -0.68045032 1.57283485 32 31 34
1.26678097 -0.68385109 1.58385944 31 31 35
1.26214790 -0.67715746 1.57466376 31 31 35
1.26820886 -0.67740376 1.58479109 31 31 35
1.26448879 -0.64498361 1.59131985 31 29 35
1.26130581 -0.63868111 1.58385944 33 32 35
