ply
format ascii 1.0
element vertex 1086
property float x
property float y
property float z
property uchar red
property uchar green
property uchar blue
end_header
-0.20734015 0.12933217 1.63741994 106 102 103
-0.20451000 0.12933217 1.63741994 113 109 111
0.13975771 0.05203452 0.65878701 122 112 108
0.14089637 0.05203452 0.65878701 148 140 136
0.14203504 0.05203452 0.65878701 156 147 139
0.14317369 0.05203452 0.65878701 173 164 157
0.14445274 0.05208514 0.65942788 163 153 148
0.14545101 0.05203452 0.65878701 159 150 145
0.14658967 0.05203452 0.65878701 147 138 134
0.14801602 0.05213585 0.66006994 121 113 109
0.14930227 0.05218666 0.66071332 132 126 126
0.15059103 0.05223758 0.66135788 115 108 108
0.15143865 0.05213585 0.66006994 115 106 107
0.15257953 0.05213585 0.66006994 128 117 119
0.15357088 0.05208514 0.65942788 126 114 116
0.15486129 0.05213585 0.66006994 126 115 117
0.15615422 0.05218666 0.66071332 131 113 115
0.15744966 0.05223758 0.66135788 121 103 105
0.15812995 0.05208514 0.65942788 107 89 91
0.15911493 0.05203452 0.65878701 106 88 92
0.16040948 0.05208514 0.65942788 109 92 95
0.16154924 0.05208514 0.65942788 100 85 87
0.16284743 0.05213585 0.66006994 127 114 114
0.16414814 0.05218666 0.66071332 149 137 134
0.16496855 0.05208514 0.65942788 159 147 142
0.62837625 0.05290861 0.66985363 34 34 38
0.62891257 0.05285639 0.66919231 34 34 38
0.62944788 0.05280426 0.66853237 34 34 38
0.62998211 0.05275223 0.66787374 32 32 38
0.63113648 0.05275223 0.66787374 34 33 40
0.63166851 0.05270031 0.66721636 37 37 44
0.63344520 0.05275223 0.66787374 42 42 51
0.63816577 0.05285639 0.66919231 23 23 32
0.63932240 0.05285639 0.66919231 85 85 94
0.63984740 0.05280426 0.66853237 133 135 142
0.64100289 0.05280426 0.66853237 145 153 155
0.64152575 0.05275223 0.66787374 142 151 152
0.64331394 0.05280426 0.66853237 142 150 151
0.64510560 0.05285639 0.66919231 148 154 154
0.64754075 0.05296095 0.67051619 149 155 155
-0.26146430 0.13678800 1.69472957 113 102 104
-0.25661051 0.13576972 1.68211377 118 107 112
-0.25120971 0.13443539 1.66558194 123 113 116
-0.22936729 0.13345170 1.65339470 119 111 107
-0.22256608 0.13280389 1.64536858 146 136 132
-0.21919018 0.13248232 1.64138460 137 130 125
-0.21583059 0.13216232 1.63741994 132 129 123
-0.21248719 0.13184385 1.63347435 120 115 114
-0.20915985 0.13152692 1.62954772 107 102 103
0.14075957 0.05312155 0.65814739 148 140 136
0.14203504 0.05317318 0.65878701 145 137 133
0.14303468 0.05312155 0.65814739 151 143 139
0.14417224 0.05312155 0.65814739 122 111 107
0.14530979 0.05312155 0.65814739 127 117 112
0.14644735 0.05312155 0.65814739 139 129 124
0.14787203 0.05322490 0.65942788 123 115 109
0.14915690 0.05327673 0.66006994 129 120 120
0.15044427 0.05332866 0.66071332 120 111 112
0.15143865 0.05327673 0.66006994 117 110 110
0.15257953 0.05327673 0.66006994 125 114 116
0.15357088 0.05322490 0.65942788 129 118 119
0.15486129 0.05327673 0.66006994 130 117 117
0.15615422 0.05332866 0.66071332 135 118 117
0.15744966 0.05338068 0.66135788 130 113 111
0.15828392 0.05327673 0.66006994 135 117 117
0.15926971 0.05322490 0.65942788 100 84 85
0.16056567 0.05327673 0.66006994 101 86 87
0.16154924 0.05322490 0.65942788 102 89 91
0.16284743 0.05327673 0.66006994 124 108 109
0.16430828 0.05338068 0.66135788 144 131 130
0.16512918 0.05327673 0.66006994 156 148 144
0.62837625 0.05406640 0.66985363 35 35 39
0.62891257 0.05401303 0.66919231 34 34 38
0.62944788 0.05395976 0.66853237 34 34 38
0.63060337 0.05395976 0.66853237 33 32 39
0.63113648 0.05390660 0.66787374 35 34 41
0.63229084 0.05390660 0.66787374 38 38 45
0.63344520 0.05390660 0.66787374 41 41 49
0.63522542 0.05395976 0.66853237 38 38 47
0.63700908 0.05401303 0.66919231 32 33 41
0.63879633 0.05406640 0.66985363 28 32 40
0.63995415 0.05406640 0.66985363 80 85 92
0.64047903 0.05401303 0.66919231 134 140 146
0.64163572 0.05401303 0.66919231 138 146 148
0.64279234 0.05401303 0.66919231 139 148 149
0.64394897 0.05401303 0.66919231 142 151 152
0.64574307 0.05406640 0.66985363 150 159 160
0.64818186 0.05417347 0.67118007 150 159 160
0.64869964 0.05411988 0.67051619 148 157 158
-0.25597534 0.13833386 1.67795014 121 112 113
-0.25120971 0.13731420 1.66558194 127 117 117
-0.24711657 0.13664274 1.65743732 126 115 115
-0.24485047 0.13697764 1.66149962 129 114 112
-0.24079832 0.13630946 1.65339470 125 110 107
-0.23279284 0.13664274 1.65743732 102 95 92
-0.22936729 0.13630946 1.65339470 99 92 90
-0.22650953 0.13630946 1.65339470 101 93 93
-0.22256608 0.13564777 1.64536858 118 107 108
-0.21972220 0.13564777 1.64536858 117 107 107
-0.21583059 0.13499247 1.63741994 106 98 96
-0.21300045 0.13499247 1.63741994 102 96 96
-0.20966385 0.13466719 1.63347435 97 91 93
0.14089637 0.05431184 0.65878701 113 99 100
0.14203504 0.05431184 0.65878701 118 102 104
0.14317369 0.05431184 0.65878701 110 93 96
0.14417224 0.05425911 0.65814739 130 112 114
0.14530979 0.05425911 0.65814739 128 117 113
0.14644735 0.05425911 0.65814739 127 119 113
0.14787203 0.05436467 0.65942788 119 114 107
0.14915690 0.05441761 0.66006994 108 103 102
0.15029778 0.05441761 0.66006994 115 110 109
0.15129134 0.05436467 0.65942788 115 110 109
0.15243110 0.05436467 0.65942788 122 113 114
0.15357088 0.05436467 0.65942788 117 107 108
0.15486129 0.05441761 0.66006994 122 109 111
0.15615422 0.05447064 0.66071332 127 110 108
0.15729620 0.05447064 0.66071332 122 103 101
0.15812995 0.05436467 0.65942788 142 121 119
0.15911493 0.05431184 0.65878701 135 121 116
0.16040948 0.05436467 0.65942788 114 100 96
0.16154924 0.05436467 0.65942788 108 95 92
0.16284743 0.05441761 0.66006994 132 120 117
0.16414814 0.05447064 0.66071332 145 135 131
0.62899780 0.05527882 0.67051619 36 36 40
0.62953407 0.05522419 0.66985363 36 36 40
0.63006926 0.05516968 0.66919231 36 36 40
0.63122588 0.05516968 0.66919231 34 34 40
0.63175887 0.05511527 0.66853237 35 35 42
0.63291436 0.05511527 0.66853237 38 38 45
0.63469583 0.05516968 0.66919231 39 39 48
0.63585246 0.05516968 0.66919231 37 37 46
0.63826925 0.05527882 0.67051619 32 33 41
0.63942820 0.05527882 0.67051619 38 42 49
0.64058715 0.05527882 0.67051619 79 84 91
0.64111191 0.05522419 0.66985363 136 141 147
0.64226973 0.05522419 0.66985363 138 146 148
0.64342749 0.05522419 0.66985363 141 150 151
0.64522284 0.05527882 0.67051619 146 155 156
0.64702177 0.05533354 0.67118007 152 161 162
0.64882427 0.05538838 0.67184526 151 160 161
0.64934194 0.05533354 0.67118007 148 157 158
-0.26277819 0.14336322 1.70324588 108 102 104
-0.25724885 0.14193672 1.68629813 123 117 117
-0.25182846 0.14053833 1.66968429 126 118 118
-0.24772224 0.13984941 1.66149962 122 111 111
-0.24485047 0.13984941 1.66149962 114 99 100
-0.24138707 0.13950749 1.65743732 96 83 85
-0.23852232 0.13950749 1.65743732 82 70 72
-0.23565757 0.13950749 1.65743732 89 80 81
-0.23279284 0.13950749 1.65743732 101 93 94
-0.22992809 0.13950749 1.65743732 103 94 95
-0.22706334 0.13950749 1.65743732 111 100 102
-0.22310761 0.13882862 1.64937186 122 112 114
-0.21972220 0.13849166 1.64536858 123 115 116
-0.21635318 0.13815632 1.64138460 101 97 97
-0.21300045 0.13782261 1.63741994 104 98 98
-0.20966385 0.13749051 1.63347435 104 98 98
-0.20684053 0.13749051 1.63347435 109 103 104
-0.20401721 0.13749051 1.63347435 114 96 103
0.14644735 0.05539666 0.65814739 164 157 146
0.14772832 0.05545050 0.65878701 151 151 137
0.14901181 0.05550444 0.65942788 120 118 113
0.15015157 0.05550444 0.65942788 113 110 108
0.15129134 0.05550444 0.65942788 112 108 107
0.15243110 0.05550444 0.65942788 110 103 103
0.15342163 0.05545050 0.65878701 107 99 100
0.15471064 0.05550444 0.65942788 115 102 104
0.15585041 0.05550444 0.65942788 119 99 99
0.15714304 0.05555848 0.66006994 113 91 91
0.15797627 0.05545050 0.65878701 126 104 101
0.15896045 0.05539666 0.65814739 137 126 120
0.16025358 0.05545050 0.65878701 114 105 98
0.16123556 0.05539666 0.65814739 116 108 104
0.16253091 0.05545050 0.65878701 119 113 109
0.16382878 0.05550444 0.65942788 159 154 149
0.62962055 0.05649363 0.67118007 36 36 40
0.63078064 0.05649363 0.67118007 36 36 40
0.63069183 0.05638198 0.66985363 36 36 40
0.63184965 0.05638198 0.66985363 36 36 40
0.63238251 0.05632632 0.66919231 36 37 41
0.63353920 0.05632632 0.66919231 39 40 44
0.63532299 0.05638198 0.66985363 39 39 46
0.63648081 0.05638198 0.66985363 36 36 45
0.63890123 0.05649363 0.67118007 29 29 38
0.64006132 0.05649363 0.67118007 45 45 54
0.64185691 0.05654962 0.67184526 81 81 90
0.64174604 0.05643775 0.67051619 139 139 149
0.64226973 0.05638198 0.66985363 135 142 145
0.64406395 0.05643775 0.67051619 137 147 148
0.64586169 0.05649363 0.67118007 145 154 155
0.64702177 0.05649363 0.67118007 147 157 157
0.64882427 0.05654962 0.67184526 148 157 158
0.64934194 0.05649363 0.67118007 148 157 158
-0.25983426 0.14630714 1.70324588 123 117 117
-0.25307515 0.14413427 1.67795014 112 104 105
-0.24894255 0.14342424 1.66968429 102 92 93
-0.24605663 0.14342424 1.66968429 93 80 82
-0.24197870 0.14272118 1.66149962 109 98 100
-0.23910694 0.14272118 1.66149962 119 108 110
-0.23393677 0.14307185 1.66558194 111 100 102
-0.23049164 0.14272118 1.66149962 106 96 97
-0.22761987 0.14272118 1.66149962 106 96 96
-0.22310761 0.14167942 1.64937186 98 91 93
-0.21972220 0.14133555 1.64536858 116 111 113
-0.21635318 0.14099333 1.64138460 131 128 129
-0.21300045 0.14065276 1.63741994 127 121 121
-0.20966385 0.14031383 1.63347435 119 113 113
-0.20684053 0.14031383 1.63347435 114 108 108
-0.20352678 0.13997655 1.62954772 111 91 99
0.14787203 0.05664421 0.65942788 110 98 93
0.14901181 0.05664421 0.65942788 99 87 85
0.15015157 0.05664421 0.65942788 113 100 100
0.15129134 0.05664421 0.65942788 119 113 115
0.15243110 0.05664421 0.65942788 127 121 122
0.15342163 0.05658916 0.65878701 134 127 129
0.15456028 0.05658916 0.65878701 120 113 115
0.15569896 0.05658916 0.65878701 96 86 86
0.15699017 0.05664421 0.65942788 105 93 93
0.15782289 0.05653422 0.65814739 129 114 110
0.15896045 0.05653422 0.65814739 129 118 113
0.16009800 0.05653422 0.65814739 108 98 94
0.16123556 0.05653422 0.65814739 120 110 107
0.16253091 0.05658916 0.65878701 133 124 122
0.62962055 0.05765371 0.67118007 36 35 42
0.63078064 0.05765371 0.67118007 36 35 42
0.63131565 0.05759668 0.67051619 38 37 44
0.63247460 0.05759668 0.67051619 38 38 44
0.63363355 0.05759668 0.67051619 38 39 43
0.63479245 0.05759668 0.67051619 39 40 44
0.63658106 0.05765371 0.67118007 39 40 47
0.63711035 0.05759668 0.67051619 38 38 48
0.63953441 0.05771085 0.67184526 34 34 43
0.64069563 0.05771085 0.67184526 49 50 60
0.64185691 0.05771085 0.67184526 80 81 92
0.64238143 0.05765371 0.67118007 131 132 142
0.64226973 0.05753976 0.66985363 138 146 150
0.64406395 0.05759668 0.67051619 138 151 149
0.64586169 0.05765371 0.67118007 141 154 152
0.64766306 0.05771085 0.67184526 145 155 154
0.64946795 0.05776810 0.67251176 147 156 155
-0.25983426 0.14925106 1.70324588 106 95 97
-0.25370312 0.14739932 1.68211377 88 78 80
-0.24894255 0.14631015 1.66968429 93 84 85
-0.24605663 0.14631015 1.66968429 103 90 92
-0.24197870 0.14559296 1.66149962 117 107 108
-0.23852232 0.14523698 1.65743732 123 116 116
-0.23565757 0.14523698 1.65743732 129 117 119
-0.23336340 0.14559296 1.66149962 115 105 106
-0.23049164 0.14559296 1.66149962 109 100 101
-0.22706334 0.14523698 1.65743732 100 91 92
-0.22256608 0.14417943 1.64536858 95 89 91
-0.21972220 0.14417943 1.64536858 107 101 103
-0.21583059 0.14348291 1.63741994 125 121 122
-0.21248719 0.14313717 1.63347435 135 129 129
-0.20915985 0.14279309 1.62954772 129 123 123
-0.20634332 0.14279309 1.62954772 105 99 100
-0.20352678 0.14279309 1.62954772 97 88 92
0.14915690 0.05784024 0.66006994 128 118 118
0.15015157 0.05778397 0.65942788 98 89 92
0.15129134 0.05778397 0.65942788 112 106 108
0.15243110 0.05778397 0.65942788 110 107 108
0.15342163 0.05772782 0.65878701 123 123 123
0.15471064 0.05778397 0.65942788 137 134 134
0.15585041 0.05778397 0.65942788 115 114 113
0.15714304 0.05784024 0.66006994 103 102 100
0.15797627 0.05772782 0.65878701 100 92 91
0.15896045 0.05767177 0.65814739 116 108 107
0.16009800 0.05767177 0.65814739 116 107 106
0.16123556 0.05767177 0.65814739 117 108 107
0.16253091 0.05772782 0.65878701 112 103 102
0.63024455 0.05887207 0.67184526 38 37 46
0.63078064 0.05881378 0.67118007 37 37 45
0.63131565 0.05875561 0.67051619 38 38 46
0.63247460 0.05875561 0.67051619 39 39 45
0.63426089 0.05881378 0.67118007 39 40 45
0.63542098 0.05881378 0.67118007 40 41 46
0.63721198 0.05887207 0.67184526 41 42 48
0.63774115 0.05881378 0.67118007 41 41 51
0.64016891 0.05893048 0.67251176 34 34 44
0.64133126 0.05893048 0.67251176 55 57 66
0.64249367 0.05893048 0.67251176 92 97 105
0.64238143 0.05881378 0.67118007 126 131 139
0.64290500 0.05875561 0.67051619 138 146 149
0.64470160 0.05881378 0.67118007 139 150 149
0.64650178 0.05887207 0.67184526 140 151 150
0.64830554 0.05893048 0.67251176 143 153 152
0.64946795 0.05893048 0.67251176 147 156 155
-0.25496846 0.15105638 1.69050336 99 81 85
-0.24955723 0.14956446 1.67380702 107 94 95
-0.24605663 0.14919607 1.66968429 103 90 92
-0.24197870 0.14846472 1.66149962 102 95 95
-0.23852232 0.14810172 1.65743732 104 102 100
-0.23508281 0.14774050 1.65339470 120 111 112
-0.23279284 0.14810172 1.65743732 114 105 106
-0.22992809 0.14810172 1.65743732 107 99 99
-0.22650953 0.14774050 1.65339470 101 92 93
-0.22256608 0.14702332 1.64536858 97 92 93
-0.21919018 0.14666733 1.64138460 100 96 97
-0.21583059 0.14631306 1.63741994 111 103 106
-0.21248719 0.14596049 1.63347435 116 108 111
-0.20915985 0.14560963 1.62954772 101 93 96
-0.20634332 0.14560963 1.62954772 91 83 86
-0.20352678 0.14560963 1.62954772 95 84 88
0.14901181 0.05892374 0.65942788 146 141 136
0.15000565 0.05886648 0.65878701 137 137 130
0.15114431 0.05886648 0.65878701 126 127 124
0.15228297 0.05886648 0.65878701 118 118 115
0.15342163 0.05886648 0.65878701 128 128 126
0.15456028 0.05886648 0.65878701 145 144 142
0.15569896 0.05886648 0.65878701 165 163 160
0.15683761 0.05886648 0.65878701 162 159 156
0.15782289 0.05880933 0.65814739 140 133 128
0.15994272 0.05875228 0.65750909 112 104 100
0.16107917 0.05875228 0.65750909 107 98 97
0.16237311 0.05880933 0.65814739 104 95 94
0.16351067 0.05880933 0.65814739 124 115 114
0.63086981 0.06009286 0.67251176 39 39 48
0.63140583 0.06003331 0.67184526 39 39 48
0.63131565 0.05991454 0.67051619 40 40 48
0.63310081 0.05997387 0.67118007 41 41 49
0.63488948 0.06003331 0.67184526 41 41 48
0.63605070 0.06003331 0.67184526 43 43 50
0.63784409 0.06009286 0.67251176 42 42 49
0.63837320 0.06003331 0.67184526 38 38 45
0.64080459 0.06015254 0.67317957 37 37 44
0.64133126 0.06009286 0.67251176 61 63 69
0.64313167 0.06015254 0.67317957 109 113 118
0.64301813 0.06003331 0.67184526 127 131 136
0.64354151 0.05997387 0.67118007 138 144 147
0.64534056 0.06003331 0.67184526 143 151 150
0.64714319 0.06009286 0.67251176 143 151 150
0.64894933 0.06015254 0.67317957 143 152 151
0.65011287 0.06015254 0.67317957 145 154 153
-0.23794056 0.15059826 1.65339470 102 97 94
-0.22992809 0.15096647 1.65743732 102 98 94
-0.22595841 0.15023184 1.64937186 100 94 90
-0.22202718 0.14950432 1.64138460 99 97 94
-0.21866074 0.14914320 1.63741994 95 93 90
-0.21531051 0.14878382 1.63347435 102 93 94
-0.21146806 0.14807023 1.62563992 105 94 98
-0.20815909 0.14771600 1.62175083 94 84 87
-0.20535603 0.14771600 1.62175083 88 79 82
-0.20255296 0.14771600 1.62175083 91 82 85
-0.19927317 0.14736345 1.61788034 98 88 91
0.14872245 0.05994688 0.65814739 135 127 122
0.16335207 0.05988874 0.65750909 121 109 110
0.63203222 0.06125524 0.67251176 42 41 49
0.63131565 0.06107348 0.67051619 42 41 49
0.63488948 0.06119454 0.67184526 42 41 52
0.63731396 0.06131607 0.67317957 44 43 54
0.63847750 0.06131607 0.67317957 43 42 53
0.63900650 0.06125524 0.67251176 34 34 42
0.64144158 0.06137702 0.67384875 43 43 51
0.64196813 0.06131607 0.67317957 67 68 75
0.64377099 0.06137702 0.67384875 107 110 116
0.64429522 0.06131607 0.67317957 126 129 134
0.64481843 0.06125524 0.67251176 137 141 144
0.64662230 0.06131607 0.67317957 143 148 149
-0.22095717 0.15160716 1.63347435 94 88 88
-0.21760948 0.15124270 1.62954772 93 85 86
-0.21427785 0.15088002 1.62563992 93 84 85
-0.21096216 0.15051906 1.62175083 96 87 89
-0.20766230 0.15015982 1.61788034 95 87 89
-0.20206955 0.15015982 1.61788034 97 94 93
0.63131565 0.06223241 0.67051619 35 34 45
0.63668174 0.06241763 0.67251176 40 37 60
0.63847750 0.06247961 0.67317957 43 40 62
0.63837320 0.06235576 0.67184526 34 33 50
0.64144158 0.06254172 0.67384875 45 44 59
0.64196813 0.06247961 0.67317957 68 67 81
-0.22095717 0.15443048 1.63347435 88 81 84
-0.21708764 0.15368980 1.62563992 79 73 76
-0.21376522 0.15332213 1.62175083 88 83 85
-0.21096216 0.15332213 1.62175083 93 88 88
0.63668174 0.06358001 0.67251176 50 47 75
0.63784409 0.06358001 0.67251176 54 51 79
0.63774115 0.06345411 0.67118007 38 37 63
0.64080459 0.06364315 0.67317957 43 42 67
0.64133126 0.06358001 0.67251176 68 67 91
-0.22149089 0.15763365 1.63741994 77 75 78
-0.21813384 0.15725380 1.63347435 60 59 63
-0.21531051 0.15725380 1.63347435 83 82 86
-0.21248719 0.15725380 1.63347435 90 86 88
0.63668174 0.06474239 0.67251176 69 71 93
0.63784409 0.06474239 0.67251176 72 74 96
-0.22149089 0.16046380 1.63741994 85 84 85
-0.21866074 0.16046380 1.63741994 58 57 61
-0.21531051 0.16007714 1.63347435 80 72 78
0.80664808 0.16958717 1.51653659 123 102 99
0.80566448 0.16883177 1.50978136 120 99 96
0.80827403 0.16883177 1.50978136 108 87 84
0.81451166 0.16958717 1.51653659 114 100 94
0.82080537 0.17034934 1.52335250 111 98 92
0.82343841 0.17034934 1.52335250 101 99 91
0.81393152 0.17376330 1.53022993 100 87 83
0.81473732 0.17337194 1.52678347 113 97 94
0.81553942 0.17298234 1.52335250 111 94 91
0.82186621 0.17376330 1.53022993 107 97 92
0.82637650 0.17415643 1.53369200 102 96 89
0.82715595 0.17376330 1.53022993 96 93 87
0.81762284 0.17720821 1.53716969 101 94 91
0.81657642 0.17640817 1.53022993 119 110 108
0.81737620 0.17601086 1.52678347 125 112 112
0.82186621 0.17640817 1.53022993 118 108 105
0.82637650 0.17680728 1.53369200 121 113 108
0.82902735 0.17680728 1.53369200 119 114 110
0.81577301 0.17945816 1.53369200 106 95 95
0.81473732 0.17864978 1.52678347 112 100 100
0.81553942 0.17824832 1.52335250 117 104 104
0.82001513 0.17864978 1.52678347 112 103 102
0.82451105 0.17905305 1.53022993 111 107 104
0.80668950 0.18675680 1.57283485 111 105 103
0.80753440 0.18632451 1.56919408 111 103 103
0.80281317 0.18461511 1.55479777 89 80 80
0.81209838 0.18128870 1.52678347 105 93 90
0.81108373 0.18047576 1.51993692 102 89 87
0.81189048 0.18007199 1.51653659 103 90 89
0.81633794 0.18047576 1.51993692 103 92 91
0.82080537 0.18088131 1.52335250 100 91 90
0.79743850 0.18730244 1.55479777 130 125 121
0.79829490 0.18687384 1.55123997 130 123 120
0.79914737 0.18644719 1.54769826 112 104 102
0.79817778 0.18559970 1.54066324 94 85 86
0.80070716 0.18434282 1.53022993 98 89 91
0.80945945 0.18392763 1.52678347 113 101 96
0.81393152 0.18434282 1.53022993 111 92 90
0.81290644 0.18351431 1.52335250 106 88 85
0.81553942 0.18351431 1.52335250 100 88 85
0.82001513 0.18392763 1.52678347 94 83 80
0.82265407 0.18392763 1.52678347 85 76 75
0.82343841 0.18351431 1.52335250 81 72 72
0.79379719 0.18912226 1.54769826 110 105 102
0.79647231 0.18912226 1.54769826 110 103 101
0.79636788 0.18783571 1.53716969 101 92 91
0.79362589 0.18656655 1.52678347 100 91 90
0.79806226 0.18698768 1.53022993 104 95 94
0.79890376 0.18656655 1.52678347 111 102 101
0.79794830 0.18572992 1.51993692 119 109 105
0.80237448 0.18614730 1.52335250 121 111 106
0.80682051 0.18656655 1.52678347 116 101 97
0.81128669 0.18698768 1.53022993 110 94 91
0.81393152 0.18698768 1.53022993 112 87 90
0.81473732 0.18656655 1.52678347 104 79 82
0.81553942 0.18614730 1.52335250 75 63 64
0.82001513 0.18656655 1.52678347 62 51 52
0.82265407 0.18656655 1.52678347 55 52 53
0.82343841 0.18614730 1.52335250 58 55 57
-0.20351109 0.07143471 0.57643867 130 121 114
-0.20251477 0.07143471 0.57643867 130 122 114
0.79198903 0.19136043 1.54417276 96 95 91
0.79465801 0.19136043 1.54417276 107 104 100
0.79551488 0.19092552 1.54066324 103 97 95
0.79636788 0.19049259 1.53716969 102 96 94
0.79184252 0.18878029 1.52335250 103 97 95
0.79626483 0.18920547 1.52678347 98 93 89
0.79710847 0.18878029 1.52335250 99 94 89
0.79438603 0.18751614 1.51315141 106 96 91
0.79522634 0.18709850 1.50978136 107 95 90
0.80320251 0.18835701 1.51993692 107 92 88
0.80945945 0.18920547 1.52678347 103 86 83
0.81209838 0.18920547 1.52678347 103 85 86
0.81290644 0.18878029 1.52335250 124 106 108
0.81371087 0.18835701 1.51993692 126 118 119
0.81633794 0.18835701 1.51993692 146 140 140
0.82080537 0.18878029 1.52335250 157 153 156
0.82343841 0.18878029 1.52335250 160 156 158
-0.21383056 0.07188094 0.57206064 138 122 120
-0.21266234 0.07182033 0.57157826 143 131 117
-0.21149608 0.07175982 0.57109678 141 128 114
-0.20532915 0.07236951 0.57594889 123 115 111
-0.20450743 0.07243104 0.57643867 120 112 104
-0.20351109 0.07243104 0.57643867 118 111 103
-0.20268711 0.07249269 0.57692921 120 113 106
-0.20151845 0.07243104 0.57643867 130 122 115
-0.20052211 0.07243104 0.57643867 130 121 114
-0.19935627 0.07236951 0.57594889 126 116 109
0.79198903 0.19402941 1.54417276 112 112 107
0.79465801 0.19402941 1.54417276 118 117 113
0.79551488 0.19358844 1.54066324 117 111 111
0.79636788 0.19314945 1.53716969 111 105 104
0.79006708 0.19098410 1.51993692 106 100 97
0.79261684 0.18970804 1.50978136 114 108 103
0.79169983 0.18886676 1.50308609 114 107 102
0.79783589 0.18970804 1.50978136 109 100 97
0.80764043 0.19141328 1.52335250 99 90 88
0.81209838 0.19184439 1.52678347 103 91 90
0.81290644 0.19141328 1.52335250 127 113 113
0.81371087 0.19098410 1.51993692 133 123 121
0.81451166 0.19055684 1.51653659 138 129 127
0.82080537 0.19141328 1.52335250 136 130 124
-0.21455480 0.07311650 0.57399815 132 121 108
-0.21356270 0.07311650 0.57399815 133 123 108
-0.21239075 0.07305464 0.57351255 133 122 107
-0.20632464 0.07336499 0.57594889 137 136 127
-0.20532915 0.07336499 0.57594889 139 140 131
-0.20450743 0.07342737 0.57643867 126 127 121
-0.20368430 0.07348987 0.57692921 126 124 119
-0.20268711 0.07348987 0.57692921 122 118 114
-0.20168994 0.07348987 0.57692921 123 115 109
-0.20052211 0.07342737 0.57643867 124 116 110
-0.19952579 0.07342737 0.57643867 121 111 104
-0.19852945 0.07342737 0.57643867 125 111 103
0.79914737 0.19714746 1.54769826 115 108 108
0.79999596 0.19669838 1.54417276 122 114 113
0.81393152 0.19492233 1.53022993 107 99 96
0.81473732 0.19448331 1.52678347 108 97 97
0.81371087 0.19361119 1.51993692 105 96 92
0.81269360 0.19274685 1.51315141 112 104 98
-0.21518250 0.07398333 0.57302779 139 129 117
-0.21437329 0.07404591 0.57351255 148 139 126
-0.21320164 0.07398333 0.57302779 151 142 127
-0.21221121 0.07398333 0.57302779 146 137 125
-0.21076483 0.07417142 0.57448459 126 117 117
-0.20941694 0.07404591 0.57351255 116 107 108
-0.20860215 0.07410862 0.57399815 131 127 126
-0.20714413 0.07429735 0.57545996 138 138 130
-0.20597464 0.07423433 0.57497185 135 133 127
-0.20515485 0.07429735 0.57545996 131 129 124
-0.20433368 0.07436047 0.57594889 130 126 124
-0.20368430 0.07448704 0.57692921 140 133 132
-0.20268711 0.07448704 0.57692921 147 137 137
-0.20168994 0.07448704 0.57692921 142 132 128
-0.20052211 0.07442370 0.57643867 129 119 113
-0.19952579 0.07442370 0.57643867 118 107 97
-0.19869842 0.07448704 0.57692921 107 93 84
0.14808731 0.09811914 0.75996846 107 97 96
0.79475117 0.20073916 1.55479777 95 85 80
0.80465871 0.20120062 1.55837202 101 92 93
0.80182242 0.19982253 1.54769826 117 108 109
-0.21401116 0.07491043 0.57254380 115 107 99
-0.21302158 0.07491043 0.57254380 112 104 97
-0.21185304 0.07484721 0.57206064 119 111 105
-0.21122077 0.07497375 0.57302779 122 115 109
-0.21058637 0.07510072 0.57399815 120 114 112
-0.20923992 0.07497375 0.57302779 123 118 115
-0.20842567 0.07503718 0.57351255 120 116 114
-0.20761004 0.07510072 0.57399815 116 113 110
-0.20696843 0.07522812 0.57497185 113 111 106
-0.20597464 0.07522812 0.57497185 111 106 104
-0.20515485 0.07529198 0.57545996 115 109 107
-0.20433368 0.07535595 0.57594889 125 114 114
-0.20368430 0.07548422 0.57692921 133 120 118
-0.20268711 0.07548422 0.57692921 145 130 126
-0.20168994 0.07548422 0.57692921 145 132 127
-0.20069277 0.07548422 0.57692921 138 124 119
-0.19952579 0.07542003 0.57643867 127 113 104
-0.19869842 0.07548422 0.57692921 122 107 99
0.13819867 0.09988058 0.76339173 96 95 91
0.13904838 0.09954428 0.76082134 87 84 81
0.14004903 0.09932134 0.75911742 84 79 81
0.14167841 0.09954428 0.76082134 86 81 82
0.14283313 0.09943268 0.75996846 87 82 84
0.14398526 0.09932134 0.75911742 92 85 88
0.14644541 0.09921024 0.75826830 111 110 108
0.14775601 0.09921024 0.75826830 113 110 107
0.14923353 0.09932134 0.75911742 109 107 105
0.15236957 0.09965613 0.76167625 106 103 97
0.15351358 0.09954428 0.76082134 119 113 114
0.15614361 0.09954428 0.76082134 127 121 123
0.79293251 0.20296098 1.55123997 95 85 80
0.79743850 0.20342650 1.55479777 90 84 79
0.80012584 0.20342650 1.55479777 99 94 89
0.80281317 0.20342650 1.55479777 100 92 92
0.80182242 0.20249760 1.54769826 119 110 111
-0.21437329 0.07602845 0.57351255 112 106 104
-0.21338202 0.07602845 0.57351255 109 105 102
-0.21221121 0.07596419 0.57302779 111 107 104
-0.20614949 0.07628661 0.57545996 99 89 93
-0.20532915 0.07635143 0.57594889 98 87 90
-0.20450743 0.07641636 0.57643867 106 95 96
-0.20368430 0.07648139 0.57692921 118 105 104
-0.20285977 0.07654653 0.57742065 126 110 108
-0.20186174 0.07654653 0.57742065 126 111 107
-0.20069277 0.07648139 0.57692921 137 122 118
-0.19969560 0.07648139 0.57692921 137 122 118
-0.19869842 0.07648139 0.57692921 132 117 114
0.13571258 0.10131413 0.76425236 98 92 92
0.13687922 0.10120004 0.76339173 92 85 85
0.13819867 0.10120004 0.76339173 85 77 77
0.13920461 0.10097262 0.76167625 84 75 76
0.14020604 0.10074623 0.75996846 88 79 80
0.14167841 0.10085930 0.76082134 89 80 82
0.14299344 0.10085930 0.76082134 95 86 89
0.14398526 0.10063341 0.75911742 101 90 94
0.14644541 0.10052084 0.75826830 109 98 100
0.14775601 0.10052084 0.75826830 100 98 95
0.14923353 0.10063341 0.75911742 101 99 97
0.15088354 0.10085930 0.76082134 96 93 92
0.15219855 0.10085930 0.76082134 106 99 96
0.15351358 0.10085930 0.76082134 111 100 101
0.15482859 0.10085930 0.76082134 127 114 116
0.15614361 0.10085930 0.76082134 117 104 106
0.15710598 0.10063341 0.75911742 113 106 106
0.15824085 0.10052084 0.75826830 115 109 109
0.80025750 0.20754188 1.56557012 136 131 124
0.80111331 0.20706367 1.56196272 123 118 111
0.80566943 0.20754188 1.56557012 109 104 97
0.80465871 0.20658766 1.55837202 108 100 97
0.80365729 0.20564218 1.55123997 116 107 105
-0.21437329 0.07701972 0.57351255 125 120 118
-0.21320164 0.07695462 0.57302779 118 117 113
-0.21203198 0.07688963 0.57254380 112 109 106
-0.20714413 0.07728125 0.57545996 95 94 93
-0.20614949 0.07728125 0.57545996 102 93 95
-0.20532915 0.07734691 0.57594889 98 89 91
-0.20450743 0.07741268 0.57643867 89 82 81
-0.20368430 0.07747857 0.57692921 85 76 74
-0.20285977 0.07754456 0.57742065 84 72 69
-0.20186174 0.07754456 0.57742065 105 93 90
-0.20069277 0.07747857 0.57692921 119 106 104
-0.19969560 0.07747857 0.57692921 116 102 100
-0.19886766 0.07754456 0.57742065 116 104 103
0.13307069 0.10263508 0.76425236 112 100 100
0.13439164 0.10263508 0.76425236 102 89 89
0.13571258 0.10263508 0.76425236 101 85 86
0.13687922 0.10251950 0.76339173 86 76 77
0.13804322 0.10240418 0.76253301 76 67 69
0.13904838 0.10217431 0.76082134 89 80 82
0.14004903 0.10194548 0.75911742 96 91 93
0.14151958 0.10205977 0.75996846 89 82 85
0.14267318 0.10194548 0.75911742 88 79 84
0.14366350 0.10171767 0.75742108 61 50 56
0.14497264 0.10171767 0.75742108 99 87 92
0.14628178 0.10171767 0.75742108 102 90 95
0.14759092 0.10171767 0.75742108 94 84 86
0.14906661 0.10183145 0.75826830 95 86 89
0.15071438 0.10205977 0.75996846 96 87 90
0.15202793 0.10205977 0.75996846 105 96 97
0.15334147 0.10205977 0.75996846 111 97 99
0.15482859 0.10217431 0.76082134 115 99 102
0.15596856 0.10205977 0.75996846 109 92 96
0.15693025 0.10183145 0.75826830 110 99 101
0.15806405 0.10171767 0.75742108 113 104 105
0.80856556 0.21171468 1.57649267 137 132 125
0.81129038 0.21171468 1.57649267 133 126 120
0.80837542 0.21024784 1.56557012 129 121 116
0.80735224 0.20928118 1.55837202 133 125 120
-0.21455480 0.07807705 0.57399815 136 125 124
-0.21338202 0.07801099 0.57351255 128 123 118
-0.20732011 0.07834239 0.57594889 97 97 91
-0.20632464 0.07834239 0.57594889 99 95 90
-0.20550375 0.07840901 0.57643867 97 94 88
-0.20468147 0.07847574 0.57692921 98 93 88
-0.20385779 0.07854258 0.57742065 98 89 85
-0.20285977 0.07854258 0.57742065 102 90 87
-0.20186174 0.07854258 0.57742065 111 98 97
-0.20086372 0.07854258 0.57742065 105 92 93
-0.19986570 0.07854258 0.57742065 105 95 96
-0.19903721 0.07860954 0.57791293 101 96 95
0.13204747 0.10419095 0.76597947 115 102 102
0.13322088 0.10407336 0.76511496 110 97 97
0.13571258 0.10395603 0.76425236 101 85 86
0.13687922 0.10383896 0.76339173 101 90 93
0.13804322 0.10372216 0.76253301 103 94 96
0.13904838 0.10348933 0.76082134 110 101 101
0.14020604 0.10337331 0.75996846 114 111 109
0.14151958 0.10337331 0.75996846 116 112 110
0.14283313 0.10337331 0.75996846 104 95 96
0.14382419 0.10314205 0.75826830 81 76 76
0.14513479 0.10314205 0.75826830 89 82 84
0.14644541 0.10314205 0.75826830 93 84 87
0.14775601 0.10314205 0.75826830 91 85 85
0.14923353 0.10325755 0.75911742 93 88 88
0.15071438 0.10337331 0.75996846 96 92 93
0.15219855 0.10348933 0.76082134 106 97 98
0.15351358 0.10348933 0.76082134 108 98 99
0.15482859 0.10348933 0.76082134 104 93 96
0.15596856 0.10337331 0.75996846 101 89 89
0.15710598 0.10325755 0.75911742 99 89 88
0.15824085 0.10314205 0.75826830 108 99 98
0.81318152 0.21493939 1.58016741 126 118 112
0.81108135 0.21295381 1.56557012 135 127 121
-0.21510121 0.07927053 0.57545996 132 119 119
-0.21410657 0.07927053 0.57545996 124 116 110
-0.20567864 0.07947291 0.57692921 105 97 91
-0.20468147 0.07947291 0.57692921 105 95 91
-0.20385779 0.07954061 0.57742065 106 94 92
-0.20285977 0.07954061 0.57742065 110 96 95
-0.20186174 0.07954061 0.57742065 112 100 100
-0.20069277 0.07947291 0.57692921 112 101 101
-0.19903721 0.07960842 0.57791293 104 101 100
0.13204747 0.10551489 0.76597947 107 95 98
0.13307069 0.10527697 0.76425236 110 99 102
0.13571258 0.10527697 0.76425236 106 94 97
0.13687922 0.10515842 0.76339173 111 102 105
0.13804322 0.10504013 0.76253301 110 101 104
0.13904838 0.10480435 0.76082134 103 94 95
0.14004903 0.10456963 0.75911742 107 99 96
0.14136110 0.10456963 0.75911742 121 113 110
0.14267318 0.10456963 0.75911742 119 109 108
0.14382419 0.10445266 0.75826830 90 85 84
0.14513479 0.10445266 0.75826830 88 82 82
0.14644541 0.10445266 0.75826830 90 84 85
0.14775601 0.10445266 0.75826830 90 86 85
0.14923353 0.10456963 0.75911742 92 87 87
0.15088354 0.10480435 0.76082134 99 93 95
0.15219855 0.10480435 0.76082134 104 95 98
0.15351358 0.10480435 0.76082134 95 85 89
0.15482859 0.10480435 0.76082134 96 85 89
0.15614361 0.10480435 0.76082134 97 87 89
0.15710598 0.10456963 0.75911742 97 89 88
0.15824085 0.10445266 0.75826830 95 88 86
-0.21465322 0.08047009 0.57692921 143 133 129
-0.20585385 0.08053864 0.57742065 108 98 94
-0.20485581 0.08053864 0.57742065 106 87 88
-0.20403159 0.08060730 0.57791293 111 92 94
-0.20303270 0.08060730 0.57791293 112 94 96
0.13219686 0.10695968 0.76684600 102 96 98
0.13322088 0.10671823 0.76511496 108 101 104
0.13454331 0.10671823 0.76511496 105 96 101
0.13586576 0.10671823 0.76511496 102 93 98
0.13703354 0.10659792 0.76425236 104 95 98
0.13819867 0.10647788 0.76339173 105 96 98
0.13920461 0.10623860 0.76167625 103 89 91
0.14020604 0.10600040 0.75996846 91 73 75
0.14151958 0.10600040 0.75996846 97 78 80
0.14283313 0.10600040 0.75996846 93 79 80
0.14382419 0.10576326 0.75826830 90 79 79
0.14497264 0.10564509 0.75742108 87 77 77
0.14628178 0.10564509 0.75742108 93 84 85
0.14775601 0.10576326 0.75826830 93 85 86
0.14940085 0.10600040 0.75996846 93 85 86
0.15105307 0.10623860 0.76167625 99 90 93
0.15236957 0.10623860 0.76167625 104 95 98
0.15351358 0.10611937 0.76082134 105 95 98
0.15482859 0.10611937 0.76082134 114 103 107
0.15596856 0.10600040 0.75996846 121 115 115
-0.20966735 0.08146727 0.57692921 126 123 112
-0.20867017 0.08146727 0.57692921 123 120 110
-0.20784989 0.08153666 0.57742065 111 107 99
-0.20702821 0.08160617 0.57791293 101 92 90
-0.20602934 0.08160617 0.57791293 95 84 84
-0.20485581 0.08153666 0.57742065 102 82 85
-0.20420568 0.08167580 0.57840604 104 85 88
-0.20320594 0.08167580 0.57840604 105 88 91
0.13234657 0.10840774 0.76771444 95 91 92
0.13337141 0.10816275 0.76597947 102 97 99
0.13469535 0.10816275 0.76597947 105 96 100
0.13601927 0.10816275 0.76597947 104 95 98
0.13718820 0.10804068 0.76511496 102 93 97
0.13835448 0.10791887 0.76425236 101 92 95
0.13920461 0.10755510 0.76167625 99 81 85
0.14036340 0.10743438 0.76082134 84 64 67
0.14283313 0.10731395 0.75996846 94 76 78
0.14382419 0.10707387 0.75826830 98 84 84
0.15482859 0.10743438 0.76082134 128 118 118
0.13322088 0.10936312 0.76511496 91 88 89
0.41357347 0.10163033 0.68612534 84 80 81
0.41392151 0.10142501 0.68473923 82 78 79
0.41426811 0.10122053 0.68335873 81 75 77
0.41238758 0.10281624 0.68612534 81 78 76
0.41273800 0.10260853 0.68473923 82 79 77
0.41267097 0.10229854 0.68267053 82 80 78
0.41301906 0.10209291 0.68129832 82 81 79
0.41336575 0.10188811 0.67993164 83 81 79
0.41329733 0.10158245 0.67789185 85 81 80
0.41405496 0.10148096 0.67721462 84 79 78
0.41481107 0.10137969 0.67653877 80 71 72
0.41515177 0.10117774 0.67519110 78 69 70
0.41238758 0.10400216 0.68612534 77 77 74
0.41273800 0.10379205 0.68473923 79 78 75
0.41308698 0.10358279 0.68335873 80 79 75
0.41301906 0.10327048 0.68129832 79 78 73
0.41336575 0.10306332 0.67993164 77 76 71
0.41439751 0.10244679 0.67586422 78 69 69
0.41473868 0.10224291 0.67451924 78 69 70
0.41161829 0.10529464 0.68682051 78 78 76
0.41238758 0.10518806 0.68612534 76 77 74
0.41273800 0.10497557 0.68473923 78 80 74
0.41308698 0.10476392 0.68335873 78 80 73
0.41301906 0.10444805 0.68129832 78 79 71
0.41378078 0.10434318 0.68061429 76 77 69
0.41329733 0.10392581 0.67789185 81 78 70
0.41322932 0.10361496 0.67586422 79 76 69
0.41439751 0.10361496 0.67586422 79 74 70
0.41432640 0.10330597 0.67384875 79 74 70
0.41043118 0.10648175 0.68682051 93 93 88
0.41120166 0.10637397 0.68612534 86 86 84
0.41197059 0.10626642 0.68543160 77 77 75
0.41232151 0.10605196 0.68404830 88 88 86
0.41225582 0.10573188 0.68198377 89 89 87
0.41260439 0.10551956 0.68061429 90 89 85
0.41336575 0.10541373 0.67993164 83 82 77
0.41247240 0.10488772 0.67653877 80 78 72
0.41240698 0.10457461 0.67451924 80 77 71
0.41316172 0.10447066 0.67384875 81 78 71
0.41309452 0.10416005 0.67184526 82 79 71
0.41261998 0.10374875 0.66919231 79 77 72
0.41500568 0.10405692 0.67118007 79 76 73
0.41782048 0.10447066 0.67384875 84 82 80
0.41940209 0.10457461 0.67451924 89 88 86
0.41078588 0.10745113 0.68543160 99 98 96
0.41155446 0.10734259 0.68473923 97 95 94
0.41149104 0.10701830 0.68267053 95 94 92
0.41142800 0.10669595 0.68061429 97 96 94
0.41177753 0.10648213 0.67925036 106 103 102
0.41206115 0.10595132 0.67586422 91 91 85
0.41117957 0.10542576 0.67251176 85 85 78
0.41193330 0.10532128 0.67184526 83 83 76
0.41186994 0.10500906 0.66985363 83 83 76
0.41140163 0.10459564 0.66721636 82 82 76
0.15235893 0.19750157 1.24612474 111 97 93
0.41072473 0.10830731 0.68335873 82 77 79
0.41107705 0.10808939 0.68198377 80 76 76
0.41101533 0.10776414 0.67993164 80 76 75
0.41036534 0.10637708 0.67118007 87 86 82
0.41111839 0.10627186 0.67051619 92 90 87
0.41146335 0.10606205 0.66919231 102 101 98
-0.08758595 0.07939512 0.49553499 100 94 96
0.15180086 0.19892405 1.24156010 108 91 88
0.15366535 0.19856039 1.23929036 108 91 88
0.40754080 0.10926814 0.68198377 94 88 92
0.40871957 0.10926814 0.68198377 94 89 93
0.40989831 0.10926814 0.68198377 93 88 92
0.41025162 0.10904872 0.68061429 91 85 86
0.41060349 0.10883019 0.67925036 85 78 79
0.41136533 0.10872126 0.67857039 79 73 73
0.41124111 0.10807217 0.67451924 74 68 68
0.40955436 0.10732464 0.66985363 76 72 71
0.41030669 0.10721869 0.66919231 86 82 81
0.41065258 0.10700742 0.66787374 98 94 95
0.41019043 0.10658737 0.66525203 104 100 100
-0.09295560 0.08120134 0.50139928 127 123 118
-0.09181733 0.08096181 0.49992025 126 121 116
-0.09041981 0.08048696 0.49698815 117 112 108
-0.08962651 0.08054601 0.49735278 111 106 103
-0.08863682 0.08042800 0.49662405 103 97 96
-0.08771418 0.08036911 0.49626049 100 94 98
-0.08692007 0.08042800 0.49662405 96 92 95
-0.08599869 0.08036911 0.49626049 91 88 89
0.14992951 0.20143892 1.24383819 85 80 78
0.15124683 0.20033616 1.23702896 102 85 84
0.15310554 0.19997124 1.23477566 103 86 84
0.15651867 0.19888444 1.22806489 108 93 89
0.40754080 0.11044689 0.68198377 87 86 88
0.40830877 0.11033589 0.68129832 87 83 85
0.40948635 0.11033589 0.68129832 87 83 85
0.40984014 0.11011456 0.67993164 90 83 83
0.41060349 0.11000422 0.67925036 87 78 77
0.41136533 0.10989410 0.67857039 77 68 67
0.41165072 0.10934682 0.67519110 65 57 58
0.41036534 0.10869724 0.67118007 67 63 64
0.41111839 0.10858972 0.67051619 75 71 72
0.41105756 0.10826845 0.66853237 83 79 82
0.41019043 0.10773721 0.66525203 89 84 87
-0.09375289 0.08200731 0.50102872 110 109 109
-0.09288690 0.08200731 0.50102872 116 112 111
-0.09161464 0.08164525 0.49881667 115 111 110
-0.09035356 0.08128637 0.49662405 111 108 105
-0.08949519 0.08128637 0.49662405 112 108 106
-0.08857193 0.08122686 0.49626049 105 101 100
-0.08765002 0.08116744 0.49589747 103 97 97
-0.08685644 0.08122686 0.49626049 104 99 100
-0.08587296 0.08110811 0.49553499 102 99 98
-0.08507866 0.08116744 0.49589747 104 103 98
-0.08342545 0.08122686 0.49626049 109 105 100
-0.08262820 0.08128637 0.49662405 112 104 100
0.14859760 0.20471567 1.25072300 77 74 71
0.15048173 0.20433867 1.24841964 94 88 86
0.15152334 0.20284441 1.23929036 103 85 87
0.15338494 0.20247427 1.23702896 107 88 87
0.15495750 0.20173799 1.23253059 108 88 86
0.15651867 0.20100705 1.22806489 104 88 84
0.40677127 0.11173806 0.68267053 80 77 76
0.40754080 0.11162565 0.68198377 72 71 71
0.40830877 0.11151346 0.68129832 72 69 70
0.40948635 0.11151346 0.68129832 77 73 74
0.41025162 0.11140150 0.68061429 78 75 75
0.41101533 0.11128976 0.67993164 80 76 75
0.41219053 0.11128976 0.67993164 78 74 73
0.41247240 0.11073443 0.67653877 69 67 66
0.41199702 0.11029413 0.67384875 73 73 73
0.41275144 0.11018460 0.67317957 75 74 74
0.41186994 0.10964021 0.66985363 78 74 77
-0.09274980 0.08275098 0.50028920 114 112 113
-0.09148001 0.08238617 0.49808365 129 127 127
-0.09028742 0.08208461 0.49626049 121 120 120
-0.08949519 0.08214474 0.49662405 117 113 114
-0.08857193 0.08208461 0.49626049 113 108 109
-0.08765002 0.08202456 0.49589747 111 104 104
-0.08679290 0.08202456 0.49589747 114 107 106
-0.08593578 0.08202456 0.49589747 112 106 103
-0.08507866 0.08202456 0.49589747 112 107 101
-0.08415998 0.08196460 0.49553499 112 107 100
-0.08348657 0.08214474 0.49662405 108 102 96
-0.08274944 0.08226528 0.49735278 111 103 99
-0.08188981 0.08226528 0.49735278 111 102 102
-0.08103018 0.08226528 0.49735278 105 98 98
0.15020512 0.20611687 1.24612474 116 104 103
0.15152334 0.20498642 1.23929036 117 93 92
0.15338494 0.20461236 1.23702896 115 91 89
0.15495750 0.20386831 1.23253059 120 96 94
0.15651867 0.20312966 1.22806489 116 97 94
0.40795121 0.11291800 0.68267053 68 67 62
0.40830877 0.11269103 0.68129832 74 73 69
0.40948635 0.11269103 0.68129832 80 79 77
0.41025162 0.11257789 0.68061429 70 70 67
0.41060349 0.11235228 0.67925036 79 79 75
-0.08857193 0.08294235 0.49626049 119 112 112
-0.08758595 0.08282109 0.49553499 116 106 105
-0.08679290 0.08288168 0.49589747 113 103 102
-0.08593578 0.08288168 0.49589747 111 101 100
-0.08514094 0.08294235 0.49626049 112 104 100
-0.08354778 0.08306397 0.49698815 103 94 92
-0.08281019 0.08318594 0.49771795 103 94 95
-0.08108967 0.08318594 0.49771795 104 95 98
0.14992951 0.20788854 1.24383819 131 116 109
0.15124683 0.20675047 1.23702896 134 111 107
0.15310554 0.20637387 1.23477566 130 107 102
0.25250858 0.07660531 0.45834473 114 105 102
0.25244734 0.07634721 0.45680043 117 109 106
0.40789884 0.11375427 0.68061429 92 92 84
0.40907523 0.11375427 0.68061429 93 90 85
0.40984014 0.11364017 0.67993164 87 85 79
0.41060349 0.11352631 0.67925036 89 89 82
-0.08850714 0.08373880 0.49589747 120 111 112
-0.08758595 0.08367758 0.49553499 112 99 101
-0.08679290 0.08373880 0.49589747 110 94 97
-0.08593578 0.08373880 0.49589747 116 100 103
-0.08507866 0.08373880 0.49589747 111 99 99
-0.08348657 0.08386149 0.49662405 97 88 87
0.14832394 0.21081203 1.24841964 134 119 115
0.14992951 0.21003842 1.24383819 133 118 112
0.15152334 0.20927045 1.23929036 145 131 120
0.15310554 0.20850809 1.23477566 136 120 110
0.24979414 0.07729300 0.45772576 111 107 104
0.25041619 0.07724085 0.45741689 110 106 102
0.25171635 0.07739753 0.45834473 109 105 100
0.25233796 0.07734523 0.45803502 113 109 106
0.25278804 0.07724085 0.45741689 115 110 109
0.25221714 0.07682613 0.45496097 117 110 109
0.25232610 0.07662044 0.45374286 118 111 109
0.40748972 0.11481538 0.67993164 103 100 92
0.40866491 0.11481538 0.67993164 105 100 93
0.40984014 0.11481538 0.67993164 106 101 94
-0.08679290 0.08459592 0.49589747 133 120 119
-0.08593578 0.08459592 0.49589747 133 121 118
-0.08507866 0.08459592 0.49589747 129 119 115
-0.08415998 0.08453408 0.49553499 131 125 119
-0.08354778 0.08478198 0.49698815 124 119 113
0.14534673 0.21494910 1.26002204 137 128 124
0.14670651 0.21375716 1.25303483 137 128 122
0.14832394 0.21296982 1.24841964 124 116 108
0.15020512 0.21257834 1.24612474 122 113 105
0.15180086 0.21179967 1.24156010 121 108 101
0.15338494 0.21102668 1.23702896 123 108 102
0.24917124 0.07813691 0.45803502 113 112 108
0.24962559 0.07803146 0.45741689 117 113 110
0.25007871 0.07792629 0.45680043 117 113 109
0.25233796 0.07813691 0.45803502 113 110 105
0.25261757 0.07797884 0.45710847 113 109 106
0.25120556 0.07730122 0.45313627 113 109 106
0.25131682 0.07709508 0.45192790 114 110 108
-0.08765002 0.08545303 0.49589747 149 138 129
-0.08679290 0.08545303 0.49589747 151 140 129
-0.08593578 0.08545303 0.49589747 154 144 132
-0.08514094 0.08551560 0.49626049 151 143 133
-0.08422154 0.08545303 0.49589747 142 136 127
-0.08360907 0.08570381 0.49735278 142 136 128
0.14534673 0.21712695 1.26002204 145 139 130
0.14670651 0.21592292 1.25303483 148 142 133
0.14832394 0.21512762 1.24841964 146 140 130
0.15020512 0.21473217 1.24612474 146 138 130
0.15180086 0.21394560 1.24156010 134 123 117
0.15366535 0.21355447 1.23929036 128 115 110
0.15495750 0.21238963 1.23253059 110 95 93
0.24861903 0.07850423 0.45557249 124 112 114
0.25182748 0.07876892 0.45710847 104 96 96
0.25143078 0.07839886 0.45496097 111 106 104
0.25087017 0.07798018 0.45253128 114 109 106
0.25031555 0.07756594 0.45012739 117 116 110
-0.24616247 0.12076354 0.69385040 77 76 75
-0.24277000 0.12027113 0.69102126 85 76 79
-0.24108411 0.12002643 0.68961531 76 67 69
-0.23989217 0.12002643 0.68961531 85 75 76
-0.23775014 0.12014866 0.69031757 97 83 85
-0.23679812 0.12027113 0.69102126 114 94 98
-0.23560375 0.12027113 0.69102126 123 103 107
-0.23440938 0.12027113 0.69102126 123 103 107
-0.23321500 0.12027113 0.69102126 106 96 99
-0.23225738 0.12039386 0.69172639 95 86 88
-0.08863682 0.08643661 0.49662405 139 127 122
-0.08765002 0.08631016 0.49589747 145 133 124
-0.08685644 0.08637334 0.49626049 142 132 122
-0.08599869 0.08637334 0.49626049 142 132 122
-0.08514094 0.08637334 0.49626049 141 130 122
-0.08428320 0.08637334 0.49626049 142 133 127
0.14507706 0.21889792 1.25768435 152 145 132
0.14670651 0.21808869 1.25303483 152 145 132
0.14805129 0.21688600 1.24612474 151 142 130
0.14992951 0.21648803 1.24383819 155 145 128
0.15152334 0.21569650 1.23929036 154 144 127
0.15338494 0.21530288 1.23702896 145 135 118
0.15467627 0.21413064 1.23029375 130 115 108
0.15623564 0.21335620 1.22584414 122 109 103
0.24745493 0.07892039 0.45343935 120 107 106
0.24757625 0.07870980 0.45222938 130 117 117
0.25075760 0.07897321 0.45374286 125 116 115
0.25053570 0.07865732 0.45192790 125 116 115
0.25634533 0.07876234 0.45253128 125 116 115
-0.24976026 0.12196281 0.69385040 74 70 69
-0.24958283 0.12246419 0.69670284 82 77 77
-0.24837863 0.12246419 0.69670284 93 88 88
-0.24641468 0.12208777 0.69456130 97 96 94
-0.24421331 0.12158945 0.69172639 88 85 84
-0.24301772 0.12158945 0.69172639 83 74 77
-0.24132963 0.12134182 0.69031757 85 77 78
-0.24038126 0.12146550 0.69102126 97 89 90
-0.23918687 0.12146550 0.69102126 109 97 99
-0.23823535 0.12158945 0.69172639 114 101 103
-0.23728189 0.12171365 0.69243294 127 106 107
-0.23632646 0.12183810 0.69314092 133 112 113
-0.23488826 0.12171365 0.69243294 129 108 109
-0.23393039 0.12183810 0.69314092 117 108 107
-0.23273236 0.12183810 0.69314092 114 105 104
-0.08863682 0.08729499 0.49662405 120 104 106
-0.08771418 0.08723108 0.49626049 132 115 115
-0.08685644 0.08723108 0.49626049 132 119 117
-0.08599869 0.08723108 0.49626049 126 116 112
-0.08514094 0.08723108 0.49626049 128 116 113
-0.08428320 0.08723108 0.49626049 133 125 123
0.14805129 0.21903981 1.24612474 151 141 129
0.14965491 0.21823747 1.24156010 150 138 125
0.15152334 0.21783851 1.23929036 151 139 125
0.15310554 0.21704492 1.23477566 153 141 125
0.15439606 0.21586533 1.22806489 145 131 120
0.24724637 0.07938552 0.45162681 135 122 118
0.25583297 0.07938552 0.45162681 124 118 116
0.25688076 0.07922717 0.45072597 127 118 117
-0.24983960 0.12379562 0.69741958 132 130 126
-0.24889022 0.12392312 0.69813782 132 132 125
-0.24666741 0.12341471 0.69527370 125 124 120
-0.24446277 0.12291046 0.69243294 130 128 124
-0.24301772 0.12278505 0.69172639 127 121 120
-0.24157563 0.12265988 0.69102126 110 104 102
-0.24062654 0.12278505 0.69172639 111 103 103
-0.23943095 0.12278505 0.69172639 117 107 108
-0.23872253 0.12303614 0.69314092 127 115 117
-0.23801123 0.12328826 0.69456130 133 119 121
-0.23705362 0.12341471 0.69527370 137 123 124
-0.23561025 0.12328826 0.69456130 131 116 117
-0.23440975 0.12328826 0.69456130 125 113 113
-0.23344845 0.12341471 0.69527370 125 113 113
-0.08870180 0.08821800 0.49698815 100 84 89
-0.08771418 0.08808883 0.49626049 124 106 108
-0.08692007 0.08815336 0.49662405 142 127 128
-0.08606169 0.08815336 0.49662405 133 120 120
-0.08514094 0.08808883 0.49626049 125 111 112
-0.08434495 0.08815336 0.49662405 123 112 112
-0.08367046 0.08834753 0.49771795 121 111 111
0.14777964 0.22078778 1.24383819 152 136 129
0.14938132 0.21998052 1.23929036 148 128 121
0.15124683 0.21957910 1.23702896 148 128 120
0.15282717 0.21878062 1.23253059 140 120 111
0.15439606 0.21798794 1.22806489 125 109 99
0.15595363 0.21720098 1.22363150 118 101 96
0.24695936 0.08032666 0.45253128 135 121 117
0.24708176 0.08011275 0.45132613 137 122 118
0.25264958 0.07989996 0.45012739 141 135 132
0.25515303 0.07995305 0.45042646 127 120 117
0.25671008 0.07995305 0.45042646 125 119 115
-0.24889022 0.12512979 0.69813782 128 129 113
-0.24666741 0.12461644 0.69527370 144 141 128
-0.24446277 0.12410728 0.69243294 144 141 129
-0.24301772 0.12398063 0.69172639 137 132 126
-0.24157563 0.12385426 0.69102126 128 121 116
-0.24062654 0.12398063 0.69172639 123 115 112
-0.23943095 0.12398063 0.69172639 118 109 108
-0.23872253 0.12423418 0.69314092 127 118 117
-0.23801123 0.12448876 0.69456130 122 111 113
-0.23705362 0.12461644 0.69527370 116 106 107
-0.23561025 0.12448876 0.69456130 111 101 102
-0.23440975 0.12448876 0.69456130 122 111 111
-0.08942968 0.08894657 0.49626049 81 69 72
-0.08850714 0.08888151 0.49589747 96 81 84
-0.08758595 0.08881654 0.49553499 113 95 99
-0.08679290 0.08888151 0.49589747 127 109 111
-0.08593578 0.08888151 0.49589747 133 115 116
-0.08501647 0.08881654 0.49553499 130 114 113
-0.08415998 0.08881654 0.49553499 120 106 106
-0.08336443 0.08888151 0.49589747 112 99 99
0.14616615 0.22375879 1.24841964 152 135 132
0.14750898 0.22252935 1.24156010 153 136 133
0.14938132 0.22212254 1.23929036 147 126 123
0.15124683 0.22171719 1.23702896 139 118 115
0.15282717 0.22091095 1.23253059 126 105 104
