ply
format ascii 1.0
element vertex 1082
property float x
property float y
property float z
property uchar red
property uchar green
property uchar blue
end_header
-0.32937752 -0.50921285 1.26822932 91 111 128
-0.32945662 -0.48960223 1.26853395 91 109 128
-0.32953907 -0.46998682 1.26885180 91 107 128
-0.32963641 -0.45038195 1.26922672 88 106 126
-0.32971434 -0.43073999 1.26952674 90 105 124
-0.32976664 -0.40995956 1.26972802 86 104 122
-0.32978648 -0.38913415 1.26980430 84 103 123
-0.32978514 -0.36937990 1.26979892 85 100 118
-0.32977869 -0.34962025 1.26977392 80 98 121
-0.32977063 -0.32985990 1.26974279 81 95 119
-0.32976088 -0.31009893 1.26970525 82 94 119
-0.32973891 -0.29032842 1.26962074 77 93 117
-0.32969865 -0.27054561 1.26946566 77 90 118
-0.32963393 -0.25074892 1.26921652 76 89 115
-0.32955694 -0.23095146 1.26892014 72 88 113
-0.32945332 -0.21004994 1.26852118 70 84 111
-0.32933348 -0.18915192 1.26805932 65 83 109
-0.32919448 -0.16935487 1.26752388 65 81 109
-0.32980401 -0.14934567 1.26651866 51 55 72
-0.33081151 -0.12969605 1.26532906 45 49 63
-0.33043247 -0.10988750 1.26387918 43 47 61
-0.32990083 -0.09008247 1.26184562 41 46 60
-0.32931266 -0.06758940 1.25880513 42 48 62
-0.33044503 -0.07752532 1.26035707 41 46 58
-0.33023654 -0.05042332 1.25433395 50 56 72
-0.32996250 -0.02509363 1.23543530 81 87 99
-0.32978291 -0.03508529 1.24494098 93 100 121
-0.33010970 -0.00488674 1.21528527 121 124 138
-0.33003415 -0.01547902 1.22589585 92 96 114
-0.33020819 0.01592633 1.19427742 123 124 131
-0.32993463 0.00565271 1.20461291 112 116 127
-0.33022739 0.03568285 1.17440840 103 109 114
-0.32970558 0.02581165 1.18430869 110 115 119
-0.32998869 0.05526681 1.15456849 92 97 102
-0.32997744 0.04567404 1.16438487 93 96 103
-0.33004964 0.07486508 1.13432732 111 113 113
-0.33000630 0.06470017 1.14493479 95 99 104
-0.33002032 0.09379917 1.11392432 116 116 118
-0.32997706 0.08396322 1.12460128 121 123 124
-0.33016489 0.11362022 1.09184969 117 120 121
-0.32994044 0.10343813 1.10327582 106 109 110
-0.32985211 0.13182568 1.07081724 115 114 113
-0.32973574 0.12196670 1.08233242 117 118 117
-0.32990179 0.15923736 1.03868038 96 102 103
-0.32998981 0.14999987 1.04963539 102 104 105
-0.33044968 0.14060074 1.06060667 101 99 99
-0.33007790 0.17776443 1.01643746 102 102 101
-0.33007324 0.16751186 1.02886649 105 106 107
-0.32987157 0.19544782 0.99450991 97 100 102
-0.33006148 0.18566314 1.00669679 98 99 99
-0.33000552 0.21353289 0.97137016 85 89 95
-0.32993945 0.20363088 0.98414174 109 110 112
-0.32987635 0.23857563 0.93785426 92 94 95
-0.32993266 0.23005461 0.94945011 83 87 92
-0.33018084 0.22126685 0.96110522 104 107 109
-0.32995034 0.25599025 0.91303546 104 106 109
-0.33005702 0.24569690 0.92781287 81 84 86
-0.33022132 0.27920654 0.87937080 86 88 90
-0.32995593 0.27183537 0.88998268 79 82 87
-0.33004674 0.26264298 0.90328655 89 91 97
-0.32970372 0.29623977 0.85476408 73 77 81
-0.33017847 0.28620998 0.86910170 87 91 92
-0.32995086 0.31325276 0.83077291 80 82 85
-0.33006540 0.30324585 0.84483449 75 79 80
-0.32889518 0.33849058 0.79815592 84 85 89
-0.33002561 0.32913458 0.80970652 72 74 78
-0.33194944 0.32064948 0.82087539 66 67 74
-0.32812873 0.35888541 0.77925306 96 97 93
-0.33011861 0.34914729 0.78798035 86 88 89
-0.33013924 0.36934046 0.77402099 61 61 60
-0.33005183 0.39009487 0.76892122 0 0 0
-0.33304109 0.41649663 0.75820096 0 0 0
-0.32889811 0.40765789 0.76319764 0 0 0
-0.32957938 0.42413428 0.75503114 0 0 0
-0.31015396 -0.78635208 1.17467881 0 0 0
-0.31032392 -0.77032896 1.17760780 0 0 0
-0.30193616 -0.76202912 1.18024322 0 0 0
-0.31565494 -0.75795178 1.17963007 0 0 0
-0.30937784 -0.74938844 1.18238804 0 0 0
-0.31005999 -0.72992700 1.18767832 0 0 0
-0.30979053 -0.70991816 1.19387416 0 0 0
-0.31147497 -0.69499286 1.19843443 0 0 0
-0.30915116 -0.68523644 1.20200343 0 0 0
-0.31004848 -0.67003137 1.20818175 0 0 0
-0.30997500 -0.66071956 1.25621317 95 115 121
-0.31032613 -0.66161521 1.26206348 95 116 122
-0.31037103 -0.65384301 1.21595914 0 0 0
-0.30685827 -0.64927444 1.22661471 17 21 23
-0.31757953 -0.65617472 1.24348581 77 88 98
-0.31072157 -0.65044358 1.26367407 97 116 121
-0.31005105 -0.63023108 1.26494461 94 115 122
-0.30953245 -0.61027155 1.26584487 97 114 125
-0.30925950 -0.58957494 1.26663328 96 112 125
-0.30934528 -0.57002989 1.26698472 93 112 124
-0.30943079 -0.55047283 1.26733467 93 112 124
-0.30953482 -0.52984109 1.26776062 92 111 124
-0.30962509 -0.50917312 1.26813023 92 111 123
-0.30970153 -0.48956722 1.26844334 89 107 125
-0.30979461 -0.46997671 1.26882475 88 106 126
-0.30989444 -0.45038445 1.26923379 88 106 120
-0.30996490 -0.43073853 1.26952235 89 104 121
-0.31001298 -0.40995673 1.26971924 86 101 122
-0.31002576 -0.38912415 1.26977148 84 101 119
-0.31001979 -0.36936485 1.26974702 85 97 118
-0.31000066 -0.34959131 1.26966844 78 97 116
-0.30999063 -0.32982990 1.26962736 80 94 117
-0.30997620 -0.31006551 1.26956817 78 94 119
-0.30995644 -0.29029785 1.26948720 77 92 114
-0.30992248 -0.27052057 1.26934803 75 89 116
-0.30986434 -0.25072781 1.26910998 72 84 114
-0.30980101 -0.23093879 1.26885068 71 85 108
-0.30969938 -0.21003564 1.26843445 67 84 108
-0.30957015 -0.18912900 1.26790502 66 82 106
-0.30942783 -0.16932794 1.26732204 67 80 108
-0.30918333 -0.14949645 1.26632044 49 54 68
-0.31009123 -0.12977168 1.26510830 42 48 62
-0.31071185 -0.10986633 1.26363537 42 45 57
-0.31021239 -0.09006521 1.26160410 41 45 58
-0.30921410 -0.06850054 1.25875258 42 46 57
-0.31117645 -0.07820078 1.26021072 41 45 56
-0.31011279 -0.05078859 1.25446019 49 54 65
-0.30997845 -0.02529952 1.23577118 80 84 101
-0.30979711 -0.03513576 1.24508283 85 93 109
-0.31021355 -0.00479844 1.21544592 123 129 138
-0.31016996 -0.01543740 1.22606996 95 100 112
-0.31025845 0.01588773 1.19462392 115 120 127
-0.31002425 0.00556795 1.20498144 105 112 126
-0.30971897 0.03592273 1.17456554 98 101 111
-0.31007630 0.02603008 1.18443014 111 114 120
-0.31013375 0.05528479 1.15494363 96 99 108
-0.30995139 0.04568866 1.16475800 95 98 105
-0.31020755 0.07491776 1.13463881 120 120 121
-0.30992522 0.06472206 1.14531796 93 96 103
-0.31015508 0.09451075 1.11353276 118 119 120
-0.30979373 0.08485245 1.12404086 116 118 119
-0.31008165 0.11362252 1.09219574 117 117 116
-0.31001827 0.10330509 1.10379484 109 110 110
-0.31002229 0.13175627 1.07116225 113 113 113
-0.30969469 0.12195836 1.08265387 107 111 113
-0.30928269 0.15925103 1.03876955 84 86 88
-0.30999835 0.15006048 1.04974873 95 97 99
-0.31035362 0.14063198 1.06084230 112 113 112
-0.31008916 0.17784336 1.01634097 109 110 109
-0.30999028 0.16755718 1.02885613 93 93 98
-0.30985131 0.19542627 0.99450521 95 98 99
-0.31005566 0.18562986 1.00674934 108 110 107
-0.30993631 0.21357876 0.97128935 87 89 93
-0.31003981 0.20361029 0.98418458 83 87 90
-0.30998243 0.23856764 0.93769542 82 83 87
-0.31001811 0.23003002 0.94941958 77 81 86
-0.31023334 0.22125748 0.96106450 83 87 92
-0.31005947 0.25590869 0.91288413 110 111 112
-0.31012465 0.24561259 0.92773592 83 86 91
-0.30838191 0.27927185 0.87825032 78 79 84
-0.30991213 0.27164570 0.88957474 85 87 91
-0.31004163 0.26251721 0.90306502 97 101 102
-0.30967654 0.29584589 0.85374677 76 78 80
-0.31025545 0.28579375 0.86851414 80 83 85
-0.30767281 0.31961854 0.81932300 81 81 83
-0.31015879 0.31243594 0.82976890 84 86 88
-0.31043840 0.30267148 0.84385228 71 71 75
-0.30902607 0.33751191 0.79699685 85 87 89
-0.31021324 0.32769762 0.80903651 81 82 84
-0.30934759 0.35840300 0.77855382 97 96 97
-0.31019963 0.34836512 0.78696384 81 83 83
-0.31015525 0.36980019 0.77488558 39 40 41
-0.30998395 0.39008226 0.77215512 0 0 0
-0.31946197 0.41984231 0.75979632 0 0 0
-0.31005910 0.41022490 0.76593750 0 0 0
-0.31177032 0.42677443 0.75793911 0 0 0
-0.30643771 0.42288641 0.76126418 0 0 0
-0.29010563 -0.78705651 1.17683689 0 0 0
-0.29228337 -0.77455880 1.17875414 0 0 0
-0.28779298 -0.76537860 1.18106532 0 0 0
-0.29024350 -0.74986619 1.18422913 0 0 0
-0.28964700 -0.72996922 1.18964595 0 0 0
-0.29030530 -0.71002676 1.19559341 0 0 0
-0.29192949 -0.69750723 1.19935006 0 0 0
-0.28946393 -0.68822889 1.20259024 0 0 0
-0.29005406 -0.67032673 1.20976797 0 0 0
-0.29423997 -0.66022001 1.25629842 94 113 122
-0.29264282 -0.66108979 1.26106121 94 114 119
-0.29074156 -0.65524003 1.21707451 0 0 0
-0.28897529 -0.64884021 1.22382111 7 8 9
-0.28679413 -0.65953892 1.25455930 92 114 119
-0.29030816 -0.65000592 1.26335512 100 114 119
-0.28927210 -0.63036756 1.26480758 94 112 121
-0.28935616 -0.60995059 1.26575839 93 113 119
-0.28953857 -0.58953921 1.26655658 96 112 122
-0.28962624 -0.57000980 1.26694014 93 111 124
-0.28969905 -0.55043985 1.26725872 91 112 121
-0.28989088 -0.52991266 1.26766671 94 108 122
-0.28977008 -0.50926923 1.26803687 89 108 125
-0.28995608 -0.48954395 1.26838322 91 107 122
-0.29004463 -0.46995665 1.26877046 88 104 122
-0.29013313 -0.45035732 1.26915732 89 103 119
-0.29019783 -0.43071078 1.26944038 84 103 120
-0.29023878 -0.40992450 1.26961940 83 101 118
-0.29025337 -0.38909709 1.26968325 79 100 117
-0.29024711 -0.36933836 1.26965592 82 97 117
-0.29022971 -0.34956691 1.26957982 79 95 116
-0.29021427 -0.32979999 1.26951208 77 93 116
-0.29019858 -0.31003499 1.26944341 77 92 114
-0.29018196 -0.29027127 1.26937087 75 90 113
-0.29014735 -0.27049312 1.26921938 72 88 110
-0.29009451 -0.25070378 1.26898833 74 84 110
-0.29002884 -0.23091158 1.26870089 68 81 109
-0.28993438 -0.21001130 1.26828759 65 82 107
-0.28981016 -0.18910500 1.26774408 66 79 107
-0.28966945 -0.16930211 1.26712827 64 79 106
-0.28943682 -0.14947162 1.26611075 46 50 67
-0.28929420 -0.12954591 1.26490405 42 46 57
-0.29026327 -0.11007762 1.26346797 41 44 56
-0.29054948 -0.09005353 1.26144082 42 43 55
-0.28992557 -0.06919196 1.25873189 43 45 57
-0.29025067 -0.07906772 1.26014343 43 43 58
-0.28988746 -0.05050358 1.25437750 49 54 65
-0.28996823 -0.02521200 1.23574155 77 81 95
-0.29001362 -0.03508970 1.24510922 83 91 112
-0.29044426 -0.00470946 1.21557361 118 123 136
-0.28974810 -0.01526550 1.22604513 93 98 115
-0.29009185 0.01593319 1.19486973 107 110 116
-0.29009796 0.00561307 1.20522771 98 105 119
-0.28990326 0.03593284 1.17488711 98 100 113
-0.29008614 0.02607778 1.18468625 102 107 112
-0.29004019 0.05529792 1.15521503 98 101 106
-0.29009048 0.04565975 1.16507151 106 108 117
-0.29016278 0.07488784 1.13491280 117 117 118
-0.28999746 0.06469980 1.14561043 100 103 108
-0.29001232 0.09475230 1.11349492 115 116 118
-0.29003361 0.08490492 1.12423053 118 118 118
-0.28996310 0.11375432 1.09228486 110 111 112
-0.29003315 0.10348730 1.10380027 88 90 96
-0.29008043 0.13185477 1.07126985 111 113 114
-0.29011838 0.12205898 1.08275595 110 112 115
-0.28956328 0.15926768 1.03887819 91 93 95
-0.29000287 0.15004599 1.04996043 92 94 97
-0.29023730 0.14065756 1.06103530 89 93 97
-0.28989245 0.17771706 1.01649238 95 97 100
-0.28999409 0.16747737 1.02899837 102 104 105
-0.28993009 0.19542216 0.99437800 95 97 99
-0.29001853 0.18564824 1.00661624 107 108 106
-0.28992588 0.21352043 0.97121873 93 96 100
-0.28993348 0.20361117 0.98404930 80 83 86
-0.29009795 0.23856117 0.93754263 105 108 109
-0.29001877 0.22998060 0.94930848 88 91 96
-0.29066841 0.22119965 0.96097013 80 84 87
-0.29017042 0.25586455 0.91264310 100 101 103
-0.29010238 0.24563408 0.92745470 89 89 92
-0.28960687 0.27888411 0.87823504 78 79 80
-0.29002590 0.27110762 0.88984320 103 104 104
-0.29006561 0.26247300 0.90280773 88 86 89
-0.28974062 0.29544064 0.85306692 88 91 93
-0.29021930 0.28558209 0.86788224 76 78 81
-0.28890842 0.31888492 0.81843455 93 96 96
-0.28998059 0.31101134 0.82992183 100 103 102
-0.29031623 0.30211362 0.84309950 77 79 83
-0.28972334 0.33639913 0.79608906 79 80 84
-0.29038558 0.32647725 0.80834246 91 94 95
-0.28952012 0.35760230 0.77830957 93 97 99
-0.29012289 0.34753243 0.78592842 79 83 85
-0.28998256 0.37002867 0.77652197 21 22 23
-0.29001234 0.39021327 0.77503134 0 0 0
-0.29006164 0.41022484 0.76946084 0 0 0
-0.29564420 0.43052630 0.75933871 0 0 0
-0.28921664 0.42576734 0.76337181 0 0 0
-0.27072222 -0.78822614 1.17858528 0 0 0
-0.26331006 -0.78119505 1.18038297 0 0 0
-0.27691510 -0.77833846 1.17962654 0 0 0
-0.26918466 -0.76951525 1.18208951 0 0 0
-0.27013461 -0.74996095 1.18617374 0 0 0
-0.27007167 -0.72987331 1.19148071 0 0 0
-0.27060377 -0.71101281 1.19704604 0 0 0
-0.26385883 -0.70134487 1.20062237 0 0 0
-0.27845248 -0.69955086 1.19991744 0 0 0
-0.27010584 -0.68981619 1.20371985 0 0 0
-0.26999838 -0.66948535 1.21173605 0 0 0
-0.27046826 -0.65663793 1.21808180 0 0 0
-0.26934211 -0.65012797 1.22452687 7 8 9
-0.27152694 -0.65566733 1.24959724 98 108 122
-0.26968424 -0.65004796 1.26272475 99 111 118
-0.26942085 -0.63016013 1.26460554 95 111 118
-0.26963986 -0.60989058 1.26563407 93 112 118
-0.26981673 -0.58949639 1.26646460 96 110 117
-0.26990100 -0.56997389 1.26686038 93 110 118
-0.26997011 -0.55040772 1.26718465 94 108 119
-0.27004436 -0.53084161 1.26753306 92 108 119
-0.27012718 -0.51018500 1.26792190 91 106 121
-0.27021567 -0.48952627 1.26833751 90 105 121
-0.27029351 -0.46993166 1.26870282 89 104 121
-0.27037001 -0.45032345 1.26906179 87 101 120
-0.27042860 -0.43067559 1.26933672 85 101 120
-0.27046534 -0.40988891 1.26950909 86 98 116
-0.27047883 -0.38906308 1.26957238 81 98 118
-0.27047756 -0.36931237 1.26956658 80 95 117
-0.27045159 -0.34952961 1.26944420 77 93 114
-0.27043601 -0.32976335 1.26937112 75 93 112
-0.27041938 -0.30999830 1.26929301 79 89 112
-0.27040327 -0.29023614 1.26921732 75 88 113
-0.27037039 -0.27045979 1.26906284 75 85 107
-0.27032119 -0.25067285 1.26883194 68 84 108
-0.27026413 -0.23088672 1.26856438 66 81 108
-0.27016944 -0.20998358 1.26811971 66 79 107
-0.27004960 -0.18907716 1.26755710 66 77 105
-0.26991403 -0.16927438 1.26692085 66 75 106
-0.26969945 -0.14944832 1.26591350 45 49 63
-0.26944463 -0.12963338 1.26471751 41 45 56
-0.26952051 -0.10959841 1.26324438 40 42 54
-0.27038535 -0.09030058 1.26130912 41 42 55
-0.27013867 -0.07005654 1.25866983 41 44 54
-0.27824594 -0.07906056 1.26002926 42 43 57
-0.26978905 -0.05029602 1.25434590 48 53 64
-0.26996311 -0.02512533 1.23572557 81 85 100
-0.27002223 -0.03495194 1.24508448 85 89 109
-0.26983001 -0.00367721 1.21466703 116 122 132
-0.27004441 -0.01443506 1.22534223 95 99 118
-0.27009962 0.01589427 1.19508338 104 109 117
-0.26992522 0.00574365 1.20525587 102 108 125
-0.27005039 0.03593891 1.17509532 99 102 110
-0.27006874 0.02591857 1.18504890 96 100 109
-0.26991783 0.05530684 1.15540408 110 113 115
-0.27019493 0.04570638 1.16521114 110 110 114
-0.26993083 0.07495581 1.13498355 117 117 118
-0.27002983 0.06474420 1.14571115 114 117 117
-0.26998150 0.09469000 1.11365549 106 106 110
-0.27003634 0.08501484 1.12420448 123 122 123
-0.27006051 0.11358112 1.09265966 112 114 114
-0.27003116 0.10333450 1.10410879 90 89 97
-0.27011089 0.13265907 1.07051068 114 114 114
-0.27009650 0.12281131 1.08205991 107 107 108
-0.26982238 0.15927402 1.03891956 93 95 99
-0.26997149 0.15005363 1.05001267 97 99 102
-0.27009306 0.14067260 1.06114871 103 105 106
-0.26989725 0.17779082 1.01636528 90 92 94
-0.27007067 0.16754070 1.02889813 99 101 102
-0.27001746 0.19542053 0.99426216 80 83 86
-0.26987837 0.18565980 1.00656262 107 109 109
-0.26989290 0.21344304 0.97105987 99 101 103
-0.26998750 0.20355188 0.98390088 81 83 86
-0.26987727 0.23788200 0.93819215 89 93 96
-0.27003239 0.22877357 0.95055196 78 82 85
-0.27049455 0.22053172 0.96151825 93 93 99
-0.26990470 0.25530818 0.91301687 103 105 107
-0.27014044 0.24499486 0.92802665 85 88 93
-0.26995265 0.27870470 0.87779596 81 84 88
-0.26982819 0.27059019 0.89006204 78 80 82
-0.27089784 0.26214496 0.90282754 89 90 95
-0.27002786 0.29496814 0.85250613 106 107 109
-0.26990907 0.28518640 0.86748927 111 112 112
-0.26962228 0.31830893 0.81758276 83 86 90
-0.26988812 0.30987820 0.82994524 83 86 88
-0.27062042 0.30148003 0.84254189 89 91 95
-0.26987678 0.33608992 0.79492960 83 86 89
-0.27004350 0.32599771 0.80721311 89 91 94
-0.27004214 0.35738689 0.77822258 157 158 153
-0.27005097 0.34754075 0.78480527 123 124 124
-0.27177638 0.36957647 0.77846509 11 12 11
-0.26314441 0.37327210 0.78031194 0 0 0
-0.27016223 0.39024334 0.77761932 0 0 0
-0.26058213 0.38117345 0.78010094 0 0 0
-0.27003090 0.41011841 0.77262249 0 0 0
-0.26984455 0.42712768 0.76634274 0 0 0
-0.25445789 -0.79220011 1.17952750 0 0 0
-0.24856807 -0.78624491 1.18086673 0 0 0
-0.24978586 -0.76992466 1.18382487 0 0 0
-0.25000970 -0.75006601 1.18796193 0 0 0
-0.24979011 -0.73009399 1.19313753 0 0 0
-0.25096053 -0.71334512 1.19792065 0 0 0
-0.24933541 -0.70357263 1.20106589 0 0 0
-0.24983822 -0.68988389 1.20526421 0 0 0
-0.25001905 -0.67042576 1.21291637 0 0 0
-0.25098701 -0.65809303 1.21873585 0 0 0
-0.24973228 -0.65078352 1.22450217 8 10 10
-0.25075705 -0.65592211 1.25328014 97 111 117
-0.24948061 -0.64889097 1.26257350 100 110 118
-0.24970354 -0.63004562 1.26437577 98 111 118
-0.24991011 -0.60978820 1.26542167 95 112 117
-0.25008520 -0.58942368 1.26630876 92 110 113
-0.25017685 -0.56993465 1.26677320 94 106 120
-0.25024303 -0.55037472 1.26710864 91 108 118
-0.25031214 -0.53081038 1.26745859 93 106 120
-0.25039387 -0.51016517 1.26787269 92 104 121
-0.25047790 -0.48951108 1.26829813 90 104 119
-0.25055335 -0.46992323 1.26868010 90 102 117
-0.25061985 -0.45030751 1.26901679 87 101 116
-0.25067271 -0.43065787 1.26928448 85 99 115
-0.25095889 -0.41032633 1.26944146 84 97 116
-0.25045368 -0.38955168 1.26948205 82 96 112
-0.25070707 -0.36928075 1.26945779 82 94 111
-0.25067965 -0.34949517 1.26931910 78 92 114
-0.25066068 -0.32972487 1.26922290 78 91 111
-0.25064432 -0.30996092 1.26913992 78 88 111
-0.25062568 -0.29019685 1.26904530 73 86 111
-0.25058821 -0.27041558 1.26885535 76 83 105
-0.25054089 -0.25063014 1.26861567 68 80 107
-0.25049007 -0.23084918 1.26835820 65 81 104
-0.25040121 -0.20994861 1.26790840 65 79 105
-0.25029364 -0.18904825 1.26736385 67 77 103
-0.25016837 -0.16924892 1.26672944 66 76 101
-0.24996093 -0.14942060 1.26567885 45 47 60
-0.24972688 -0.12961046 1.26449368 41 44 56
-0.24944284 -0.10981585 1.26305559 40 43 52
-0.24121464 -0.08123582 1.25998902 40 43 55
-0.24988719 -0.08997736 1.26110339 40 41 53
-0.25046994 -0.07045480 1.25857003 40 43 53
-0.24992481 -0.05053461 1.25451836 47 51 65
-0.24995386 -0.02533081 1.23604423 85 87 99
-0.25006225 -0.03519708 1.24558159 83 86 107
-0.24989735 -0.00389925 1.21499483 109 112 127
-0.24995428 -0.01439854 1.22539790 102 106 122
-0.25007925 0.01585332 1.19520240 98 101 112
-0.24994839 0.00548486 1.20561245 109 115 129
-0.24995562 0.03590044 1.17519539 99 100 106
-0.25000964 0.02596082 1.18507967 96 99 106
-0.24996738 0.05531122 1.15549487 116 116 118
-0.25006758 0.04570864 1.16526839 115 113 117
-0.24984155 0.07491781 1.13512605 119 120 121
-0.25004719 0.06474898 1.14579376 109 111 113
-0.24994291 0.09473681 1.11367407 96 100 104
-0.25004721 0.08484748 1.12448337 119 120 121
-0.25012810 0.11375722 1.09252570 97 101 106
-0.25001483 0.10350635 1.10400319 87 89 97
-0.24998313 0.13260331 1.07066799 111 111 112
-0.25016587 0.12286948 1.08205833 107 109 110
-0.25005981 0.15926756 1.03887742 94 96 100
-0.24993270 0.15015878 1.04991185 98 100 103
-0.24993396 0.14068157 1.06121638 104 105 106
-0.25011478 0.17780834 1.01624312 95 96 96
-0.25005053 0.16751052 1.02886268 91 93 93
-0.24997402 0.19532751 0.99421756 95 96 100
-0.24984370 0.18557136 1.00655114 90 91 92
-0.24984088 0.21341838 0.97069142 91 94 98
-0.25003796 0.20348499 0.98371833 86 87 92
-0.25000945 0.23774966 0.93766997 91 95 98
-0.25000164 0.22855949 0.95029298 82 83 89
-0.25045234 0.22044430 0.96113710 91 92 98
-0.25001334 0.25507175 0.91272767 81 82 82
-0.25001061 0.24484712 0.92761829 89 91 94
-0.25005193 0.27850803 0.87717657 111 112 112
-0.24998292 0.27024573 0.88984782 90 92 95
-0.25006345 0.26166430 0.90275650 78 82 85
-0.24966759 0.29489758 0.85148058 101 104 106
-0.25018820 0.28476383 0.86727299 92 95 98
-0.24955440 0.31783316 0.81702492 99 103 106
-0.25009126 0.30916030 0.82961633 92 96 98
-0.25031431 0.30122304 0.84152033 107 110 114
-0.25008133 0.33551601 0.79494213 154 156 153
-0.24990238 0.32531240 0.80712700 126 127 128
-0.25400805 0.35765739 0.77894918 124 125 119
-0.24949617 0.34847548 0.78428697 165 167 160
-0.25488353 0.36175966 0.77894394 0 0 0
-0.24972250 0.37125146 0.78156923 0 0 0
-0.25226277 0.39492183 0.77889453 0 0 0
-0.24809727 0.38623744 0.78090440 0 0 0
-0.25003663 0.41019407 0.77540734 0 0 0
-0.24982858 0.42803533 0.76926012 0 0 0
-0.23009950 -0.78874695 1.18196052 0 0 0
-0.22991908 -0.77006760 1.18544662 0 0 0
-0.22989345 -0.74983272 1.18969758 0 0 0
-0.23040190 -0.72998123 1.19473519 0 0 0
-0.23048752 -0.71583602 1.19878921 0 0 0
-0.22924941 -0.70632316 1.20176869 0 0 0
-0.23014806 -0.68993060 1.20678693 0 0 0
-0.22997648 -0.66977527 1.21476993 0 0 0
-0.23621769 -0.65873497 1.21957667 0 0 0
-0.22975576 -0.65213422 1.22444695 4 6 6
-0.22954128 -0.65542791 1.25263280 92 111 115
-0.22976833 -0.64854004 1.26231007 95 110 117
-0.22999148 -0.62992569 1.26413536 97 109 116
-0.23019443 -0.60970629 1.26525189 94 111 115
-0.23036681 -0.58937282 1.26619959 93 108 114
-0.23045359 -0.56989110 1.26667643 91 108 115
-0.23051775 -0.55034009 1.26702899 89 105 118
-0.23058468 -0.53078462 1.26739719 91 105 114
-0.23066775 -0.51015755 1.26785385 91 103 115
-0.23074351 -0.48950041 1.26827040 88 104 113
-0.23080819 -0.46990317 1.26862587 87 101 116
-0.23086972 -0.45028873 1.26896392 86 99 114
-0.23092090 -0.43064456 1.26924532 86 98 113
-0.23094343 -0.41094077 1.26936895 82 97 113
-0.23094153 -0.39009450 1.26935818 84 93 111
-0.23093536 -0.36924189 1.26932426 80 93 108
-0.23091390 -0.34946413 1.26920635 79 91 107
-0.23089376 -0.32969183 1.26909555 75 90 106
-0.23087130 -0.30991994 1.26897192 79 87 107
-0.23084773 -0.29015044 1.26884212 74 83 108
-0.23080697 -0.27036497 1.26861771 71 82 106
-0.23076148 -0.25058113 1.26836760 67 79 105
-0.23071299 -0.23080240 1.26810102 66 79 101
-0.23086111 -0.21024892 1.26766947 66 78 102
-0.23030408 -0.18940656 1.26714361 59 78 101
-0.23041508 -0.16921346 1.26646343 64 75 101
-0.23021750 -0.14938499 1.26537722 43 46 56
-0.23000127 -0.12957920 1.26418885 40 43 53
-0.22974485 -0.10979178 1.26277957 39 40 50
-0.22921469 -0.08122790 1.25986620 39 39 54
-0.22942444 -0.09111247 1.26101886 38 39 53
-0.22979784 -0.07008413 1.25831811 40 42 53
-0.23040524 -0.05053313 1.25449337 46 50 62
-0.22970059 -0.02510445 1.23597053 87 88 99
-0.23008626 -0.03515465 1.24578334 79 83 102
-0.22997066 -0.00367767 1.21482651 107 112 126
-0.23001755 -0.01434158 1.22541738 104 110 121
-0.23005800 0.01593840 1.19520263 102 104 113
-0.22995789 0.00565770 1.20550706 112 116 128
-0.23005998 0.03594220 1.17520791 116 118 120
-0.22995209 0.02600342 1.18512097 107 107 116
-0.22999947 0.05531214 1.15551404 113 114 114
-0.22993213 0.04570964 1.16529444 111 112 115
-0.22989964 0.07494981 1.13512261 112 114 118
-0.23004314 0.06474827 1.14578390 103 104 109
-0.22989918 0.09463981 1.11379606 90 91 98
-0.23003407 0.08488619 1.12447778 114 116 118
-0.22995225 0.11367082 1.09266135 95 98 104
-0.22998247 0.10334655 1.10423774 91 92 100
-0.22994503 0.13265838 1.07065713 110 112 114
-0.23023352 0.12292642 1.08204421 98 100 107
-0.23029328 0.15925741 1.03881117 100 99 102
-0.22996403 0.15005284 1.05001152 103 105 107
-0.22976824 0.14068816 1.06126610 106 105 107
-0.23009936 0.17767227 1.01623622 89 91 97
-0.23002379 0.16746363 1.02881510 93 93 96
-0.23004298 0.19535226 0.99391158 83 85 89
-0.22991824 0.18562244 1.00624037 91 94 97
-0.22967823 0.21290161 0.97100282 85 89 96
-0.23044837 0.20304317 0.98401695 95 95 102
-0.22941816 0.23785443 0.93696850 77 79 84
-0.23000439 0.22854805 0.94984795 86 89 92
-0.23045416 0.22038395 0.96087398 75 76 80
-0.23006946 0.25493593 0.91214230 86 87 90
-0.23029757 0.24485143 0.92689677 80 82 85
-0.22962601 0.27788632 0.87728292 91 94 99
-0.23005376 0.26960635 0.88994167 93 96 97
-0.22988095 0.26145960 0.90219171 81 86 88
-0.22996083 0.29454675 0.85119887 87 93 93
-0.22993826 0.28428936 0.86707528 99 102 106
-0.23013722 0.31731886 0.81705939 160 162 156
-0.22986836 0.30843062 0.82981567 123 124 124
-0.23123776 0.30105086 0.84100124 101 106 105
-0.22999590 0.33550815 0.79483454 165 167 163
-0.22993879 0.32520927 0.80680994 172 173 167
-0.23005282 0.34948002 0.78458785 144 145 138
-0.23019674 0.37022793 0.78345668 0 0 0
-0.23732467 0.39941432 0.77973704 0 0 0
-0.22998905 0.38992548 0.78235473 0 0 0
-0.23093532 0.41135718 0.77770741 0 0 0
-0.22472663 0.40271296 0.78057237 0 0 0
-0.22983226 0.42864226 0.77194839 0 0 0
-0.21017899 -0.78908879 1.18335380 0 0 0
-0.21036970 -0.77020681 1.18690436 0 0 0
-0.20950705 -0.75002795 1.19116233 0 0 0
-0.21020550 -0.73037385 1.19609666 0 0 0
-0.21178165 -0.71830495 1.19937322 0 0 0
-0.20941474 -0.70793628 1.20270552 0 0 0
-0.21015524 -0.68999806 1.20822121 0 0 0
-0.21016552 -0.67067200 1.21592617 0 0 0
-0.20751152 -0.66113155 1.22045496 0 0 0
-0.21008993 -0.65284352 1.22530001 4 4 4
-0.20933216 -0.65512876 1.25384067 97 107 113
-0.21001836 -0.64754446 1.26228077 95 109 114
-0.21029551 -0.62983182 1.26394730 93 109 115
-0.21049252 -0.60964838 1.26513172 91 107 115
-0.21064898 -0.58931338 1.26607184 91 108 113
-0.21073033 -0.56983910 1.26656093 89 107 114
-0.21079008 -0.55029293 1.26692044 92 105 112
-0.21085667 -0.53075261 1.26732082 90 103 113
-0.21081317 -0.51002070 1.26778313 90 101 113
-0.20991049 -0.48948146 1.26822140 88 103 112
-0.20996880 -0.46988390 1.26857380 86 99 113
-0.21002176 -0.45026367 1.26889328 84 99 113
-0.21006832 -0.43062062 1.26917469 84 97 112
-0.21008593 -0.41091232 1.26928103 81 95 112
-0.21008082 -0.39006133 1.26925009 79 92 114
-0.21006832 -0.36919819 1.26917387 80 91 109
-0.21004574 -0.34941758 1.26903720 76 90 108
-0.21002371 -0.32964208 1.26890391 75 89 107
-0.20999980 -0.30986804 1.26875934 75 87 108
-0.20997511 -0.29009741 1.26861011 71 83 106
-0.20993728 -0.27031466 1.26838164 71 81 104
-0.21023363 -0.25075847 1.26811744 67 80 102
-0.21093791 -0.23074897 1.26780727 65 77 101
-0.21086771 -0.21095711 1.26738541 65 78 102
-0.21078472 -0.19007207 1.26688674 65 76 102
-0.21066741 -0.16917585 1.26618171 65 74 102
-0.21048169 -0.14934816 1.26506517 42 44 55
-0.21028599 -0.12954843 1.26388892 40 42 52
-0.21005811 -0.10976909 1.26251973 38 40 49
-0.20829960 -0.08209506 1.25980519 38 38 48
-0.21008599 -0.09179715 1.26090310 38 39 50
-0.20933970 -0.07025075 1.25820296 39 41 52
-0.21015894 -0.05076085 1.25459288 46 48 60
-0.20996761 -0.02522357 1.23629393 84 89 100
-0.20990253 -0.03497489 1.24589945 83 90 109
-0.21001382 -0.00389956 1.21509212 106 109 127
-0.21008921 -0.01447629 1.22564200 111 115 126
-0.21002923 0.01598008 1.19520366 100 103 116
-0.20996100 0.00561520 1.20558838 115 117 133
-0.21015333 0.03598210 1.17515671 113 114 118
-0.21009598 0.02612997 1.18504421 96 98 105
-0.21002693 0.05531205 1.15551178 115 117 120
-0.20998597 0.04570814 1.16525932 129 129 132
-0.20994782 0.07497790 1.13506263 99 101 107
-0.21003910 0.06478399 1.14572816 107 110 113
-0.21000442 0.09475381 1.11367570 88 92 100
-0.21001061 0.08495351 1.12437134 104 107 110
-0.20988295 0.11363097 1.09270449 92 95 104
-0.20995670 0.10351301 1.10407451 98 101 106
-0.21010612 0.13275933 1.07053537 95 96 100
-0.20996601 0.12287502 1.08210655 106 109 113
-0.21053090 0.15924842 1.03875253 89 91 97
-0.20991123 0.15010980 1.04989238 91 92 97
-0.20958600 0.14068486 1.06124119 97 98 105
-0.20986862 0.17776627 1.01590076 89 91 94
-0.20999902 0.16751942 1.02862670 84 84 87
-0.20997762 0.19526044 0.99366402 85 87 92
-0.20999064 0.18552575 1.00606693 87 88 93
-0.20998784 0.21259521 0.97100478 83 86 93
-0.21007784 0.20279426 0.98398216 84 84 91
-0.21013548 0.23817469 0.93596826 91 94 98
-0.20994949 0.22847692 0.94946061 83 86 91
-0.21045720 0.22031323 0.96056565 72 73 81
-0.20980468 0.25455940 0.91194584 102 106 109
-0.21036996 0.24492960 0.92616097 79 82 87
-0.20992020 0.27764157 0.87683934 88 90 94
-0.20976534 0.26900577 0.88998003 94 96 100
-0.21093003 0.26103372 0.90201366 108 109 112
-0.20989066 0.29428682 0.85064402 151 151 151
-0.21013771 0.28405464 0.86655221 121 124 126
-0.20964909 0.31741963 0.81661330 170 171 166
-0.20998652 0.30795349 0.82989003 171 172 164
-0.21042544 0.30045523 0.84099686 168 170 164
-0.21009650 0.33550840 0.79523952 167 168 165
-0.21022822 0.32534291 0.80656152 175 176 170
-0.20989334 0.34943960 0.78617814 123 124 120
-0.20972185 0.37008988 0.78546049 0 0 0
-0.21020192 0.39008676 0.78452506 0 0 0
-0.21250603 0.41611745 0.77894660 0 0 0
-0.20855475 0.40705809 0.78159761 0 0 0
-0.20990429 0.42934417 0.77434232 0 0 0
-0.18975669 -0.78966443 1.18454880 0 0 0
-0.19046478 -0.77027138 1.18825510 0 0 0
-0.18967111 -0.74979421 1.19263202 0 0 0
-0.19056893 -0.73063751 1.19740043 0 0 0
-0.18601944 -0.72116843 1.20034332 0 0 0
-0.19022202 -0.71016971 1.20339218 0 0 0
-0.18956454 -0.69000646 1.20978590 0 0 0
-0.19066828 -0.67253641 1.21665342 0 0 0
-0.18832615 -0.66244119 1.22120940 0 0 0
-0.19028875 -0.65332847 1.22629900 2 3 3
-0.18979038 -0.65500520 1.25360407 92 108 116
-0.19035328 -0.64744565 1.26208789 95 107 112
-0.19060191 -0.62972631 1.26373579 92 108 112
-0.19088909 -0.61051271 1.26493296 93 106 113
-0.19047280 -0.58995940 1.26587630 91 105 112
-0.18991244 -0.56977621 1.26642134 90 105 110
-0.18997426 -0.55025531 1.26683392 89 104 112
-0.19003462 -0.53071726 1.26723634 88 103 113
-0.19000370 -0.51019290 1.26769431 88 102 112
-0.18907621 -0.48945537 1.26815379 88 99 114
-0.18913124 -0.46986502 1.26852293 88 98 110
-0.18917476 -0.45023590 1.26881484 84 98 110
-0.18921068 -0.43058008 1.26905513 82 98 108
-0.18922674 -0.41087409 1.26916285 80 95 111
-0.18921817 -0.39001689 1.26910533 79 92 111
-0.18920118 -0.36914508 1.26899117 77 90 108
-0.18917613 -0.34935861 1.26882298 77 90 106
-0.18915092 -0.32957711 1.26865358 75 88 107
-0.18912496 -0.30979965 1.26847920 75 85 106
-0.18910528 -0.29003723 1.26834721 71 83 103
-0.18907283 -0.27026099 1.26812971 71 80 102
-0.18941793 -0.25023807 1.26781918 65 78 101
-0.19007388 -0.23069234 1.26749607 68 77 101
-0.19000977 -0.21090436 1.26706848 67 76 102
-0.18993417 -0.19002369 1.26656423 66 76 101
-0.19078905 -0.16923967 1.26586010 63 75 97
-0.19074919 -0.14930637 1.26471097 41 43 53
-0.19056997 -0.12951088 1.26352277 39 42 50
-0.19037189 -0.10974201 1.26220961 37 39 49
-0.18906015 -0.08277269 1.25970144 38 38 48
-0.19048005 -0.09250949 1.26076123 38 39 47
-0.18974448 -0.07024219 1.25805088 39 40 49
-0.18960889 -0.05030376 1.25459131 46 49 61
-0.19023244 -0.02534398 1.23668116 84 87 97
-0.19013198 -0.03512474 1.24634075 91 96 110
-0.19009558 -0.00367811 1.21495370 120 122 134
-0.18999484 -0.01436504 1.22571946 109 113 127
-0.18998937 0.01577002 1.19546510 112 114 122
-0.18996165 0.00557168 1.20567627 130 133 139
-0.19024094 0.03602069 1.17505564 123 125 128
-0.19001332 0.02600381 1.18513639 108 113 117
-0.19004476 0.05530904 1.15544954 105 106 114
-0.19004008 0.04570663 1.16521735 118 118 124
-0.18999096 0.07500292 1.13495674 98 101 105
-0.18982512 0.06481452 1.14558521 114 116 116
-0.19011311 0.09469576 1.11372969 87 90 96
-0.19018825 0.08498769 1.12432190 101 104 108
-0.18993536 0.11369729 1.09259236 93 96 101
-0.18990288 0.10334690 1.10424162 88 91 99
-0.19015517 0.13265446 1.07062641 91 94 100
-0.18969094 0.12282106 1.08214569 92 95 100
-0.19075903 0.15922952 1.03862926 97 99 102
-0.18993276 0.15009868 1.04980107 92 94 97
-0.18939660 0.14067556 1.06117107 104 106 109
-0.18985660 0.17762654 1.01587363 96 97 101
-0.18997634 0.16749396 1.02851669 100 101 104
-0.18993665 0.19526918 0.99337881 96 98 102
-0.18995221 0.18548518 1.00585106 83 84 87
-0.19010403 0.21259672 0.97066058 89 92 95
-0.19005150 0.20269365 0.98385282 85 87 92
-0.18978968 0.23742248 0.93628986 100 102 104
-0.18998486 0.22777112 0.94989076 90 92 96
-0.19046626 0.22023462 0.96022289 88 89 95
-0.19003474 0.25412434 0.91190619 97 99 102
-0.18999591 0.24446423 0.92609531 94 95 97
-0.18939338 0.27773805 0.87561874 169 170 166
-0.19008818 0.26849617 0.88991408 130 131 132
-0.19019650 0.26064389 0.90181321 117 117 120
-0.19000878 0.29360528 0.85075818 176 176 171
-0.19019520 0.28380207 0.86589662 175 175 171
-0.19010674 0.31725304 0.81673642 174 175 169
-0.18997380 0.30784234 0.82955096 172 172 168
-0.18995930 0.30027266 0.84048583 174 174 169
-0.19013726 0.33581968 0.79579580 175 176 171
-0.18988447 0.32570305 0.80645849 177 178 172
-0.18992754 0.34924553 0.78799832 107 107 104
-0.18939855 0.36996098 0.78744010 0 0 0
-0.18997207 0.39027785 0.78675168 0 0 0
-0.19911962 0.41936320 0.77965882 0 0 0
-0.18975199 0.41010490 0.78315645 0 0 0
-0.19040069 0.43067823 0.77630206 0 0 0
-0.18531202 0.42160513 0.78060991 0 0 0
-0.16961457 -0.78965653 1.18574378 0 0 0
-0.17017429 -0.76964288 1.18965676 0 0 0
-0.17032598 -0.74992685 1.19381096 0 0 0
-0.17024530 -0.73262316 1.19815971 0 0 0
-0.16840245 -0.72330979 1.20084255 0 0 0
-0.17002086 -0.71013047 1.20472735 0 0 0
-0.17012482 -0.68970864 1.21127136 0 0 0
-0.17041133 -0.67416949 1.21748588 0 0 0
-0.16954192 -0.66418245 1.22184716 0 0 0
-0.17005427 -0.65308550 1.22792104 4 4 5
-0.16999125 -0.65521868 1.25386365 93 105 111
-0.17071036 -0.64740786 1.26201397 93 107 111
-0.17018487 -0.62948140 1.26369793 95 106 110
-0.17000198 -0.61060957 1.26485720 92 105 111
-0.16981841 -0.59049722 1.26575673 91 104 109
-0.16910676 -0.56973907 1.26633886 89 101 110
-0.16916585 -0.55023256 1.26678160 90 103 109
-0.16921977 -0.53069591 1.26718536 87 101 109
-0.16927823 -0.51006470 1.26762321 89 99 113
-0.16934024 -0.48942974 1.26808744 88 99 110
-0.16938737 -0.46983444 1.26844022 86 98 113
-0.16942383 -0.45019970 1.26871272 85 95 110
-0.16945100 -0.43053292 1.26891601 83 95 109
-0.16946476 -0.41082750 1.26901897 81 94 107
-0.16946029 -0.38998017 1.26898600 81 90 109
-0.16944664 -0.36911395 1.26888405 77 90 108
-0.16942149 -0.34932361 1.26869568 78 87 107
-0.16939317 -0.32953292 1.26848329 78 87 107
-0.16936820 -0.30975492 1.26829603 72 85 105
-0.16934981 -0.28999403 1.26815827 71 83 103
-0.16931906 -0.27021797 1.26792761 67 79 102
-0.16927188 -0.25042452 1.26757413 65 79 99
-0.16922403 -0.23064124 1.26721528 65 77 98
-0.16916586 -0.21085625 1.26677949 66 75 101
-0.16909434 -0.18997563 1.26624353 67 75 100
-0.16998240 -0.16899072 1.26553160 62 74 96
-0.16994083 -0.14926954 1.26439913 40 41 56
-0.17074590 -0.12959026 1.26325828 40 40 51
-0.17070250 -0.10971967 1.26195309 38 38 47
-0.16973035 -0.08382344 1.25959663 37 38 46
-0.17090773 -0.09358244 1.26062929 38 38 47
-0.17015396 -0.07023350 1.25789896 39 39 49
-0.16973455 -0.05054375 1.25480124 46 47 58
-0.17028913 -0.02421371 1.23574080 81 87 98
-0.16993476 -0.03430454 1.24577037 87 90 106
-0.16987867 -0.00387033 1.21525895 129 131 142
-0.17006955 -0.01442448 1.22596014 109 114 125
-0.17016152 0.01593951 1.19528680 121 124 130
-0.16997118 0.00574492 1.20553198 134 135 143
-0.17012343 0.03593877 1.17509181 118 119 123
-0.16972355 0.02592137 1.18518417 121 123 127
-0.16986735 0.05534346 1.15534882 113 115 120
-0.17009616 0.04574389 1.16512185 114 115 120
-0.17003346 0.07484787 1.13504402 93 96 103
-0.16981778 0.06473928 1.14562564 108 110 115
-0.17006256 0.09465577 1.11379095 92 94 99
-0.17016335 0.08481400 1.12451391 90 93 99
-0.16986092 0.11375457 1.09250520 94 97 106
-0.16987879 0.10351081 1.10405106 92 92 105
-0.16999366 0.13266235 1.07053809 87 89 97
-0.17006491 0.12292073 1.08197801 88 88 95
-0.17008662 0.15920354 1.03845984 85 86 89
-0.17002959 0.15001095 1.04971967 96 98 101
-0.16920244 0.14066015 1.06105478 93 96 97
-0.16986090 0.17764653 1.01565205 114 116 115
-0.17004077 0.16744609 1.02841455 88 90 93
-0.17003139 0.19511944 0.99326616 89 90 96
-0.16992605 0.18544964 1.00565470 94 94 96
-0.17005979 0.21246811 0.97036927 95 97 101
-0.16980180 0.20258899 0.98360788 89 92 96
-0.16994306 0.23730740 0.93583679 95 96 100
-0.16996029 0.22701666 0.95033555 99 98 102
-0.17008228 0.25440524 0.91054151 158 158 156
-0.17000667 0.24429065 0.92564532 118 119 123
-0.17001155 0.27726061 0.87549995 172 172 169
-0.16990094 0.26791432 0.88981666 171 171 166
-0.17003459 0.26097317 0.90036551 170 171 164
-0.16996555 0.29352109 0.85027314 174 175 168
-0.17002239 0.28369622 0.86523335 176 177 171
-0.17005757 0.31719592 0.81679336 176 176 170
-0.17005875 0.30779179 0.82937582 172 173 169
-0.16955721 0.30016011 0.84017080 173 173 170
-0.17011139 0.33616633 0.79649119 177 178 170
-0.16993364 0.32587024 0.80664916 178 178 171
-0.16979140 0.34955582 0.78989770 86 86 83
-0.16951394 0.36999629 0.78963696 0 0 0
-0.16977753 0.39020583 0.78909638 0 0 0
-0.16996468 0.41010095 0.78552467 0 0 0
-0.17085961 0.43432491 0.77727527 0 0 0
-0.16908393 0.42447544 0.78163433 0 0 0
-0.16508330 0.44022630 0.77487175 0 0 0
-0.14959008 -0.79003097 1.18671290 0 0 0
-0.14973622 -0.77028085 1.19064309 0 0 0
-0.15026867 -0.75030149 1.19487690 0 0 0
-0.15074969 -0.73532388 1.19854899 0 0 0
-0.14911863 -0.72514657 1.20143180 0 0 0
-0.14989398 -0.70980121 1.20600697 0 0 0
-0.15019985 -0.69021936 1.21238501 0 0 0
-0.15042314 -0.67605131 1.21807114 0 0 0
-0.14962060 -0.66575223 1.22253940 0 0 0
-0.15005408 -0.65394482 1.22890598 4 5 5
-0.15023940 -0.65573989 1.25500726 92 105 108
-0.15011134 -0.64730698 1.26200531 91 104 108
-0.14947905 -0.62991144 1.26363789 92 103 109
-0.14922537 -0.61057814 1.26479203 89 104 110
-0.14932947 -0.59022203 1.26567444 87 104 107
-0.14939733 -0.56969885 1.26624952 89 101 109
-0.14945136 -0.55020022 1.26670718 90 100 111
-0.14950096 -0.53067188 1.26712811 89 100 107
-0.14955605 -0.51005352 1.26759533 87 99 109
-0.14960518 -0.48940038 1.26801119 86 98 108
-0.14964460 -0.46979912 1.26834484 84 96 110
-0.14967367 -0.45015663 1.26859122 83 97 108
-0.14969517 -0.43048442 1.26877308 83 93 108
-0.14970894 -0.41078574 1.26889016 80 92 107
-0.14970817 -0.38994871 1.26888374 79 91 105
-0.14969775 -0.36908819 1.26879548 78 89 106
-0.14967525 -0.34929852 1.26860456 76 87 105
-0.14964813 -0.32950470 1.26837456 78 86 106
-0.14962091 -0.30971775 1.26814364 72 85 105
-0.14960107 -0.28995214 1.26797491 69 82 103
-0.14956994 -0.27017180 1.26771075 69 79 101
-0.14952341 -0.25037352 1.26731565 68 78 99
-0.14947874 -0.23059062 1.26693714 67 75 100
-0.14942495 -0.21080661 1.26648094 67 75 99
-0.14935690 -0.18992470 1.26590378 66 74 100
-0.14926810 -0.16903819 1.26515040 62 72 96
-0.14913202 -0.14922201 1.26399690 39 41 52
-0.14997995 -0.12934567 1.26286877 40 40 49
-0.14993938 -0.10968877 1.26159855 38 38 47
-0.15023298 -0.08501418 1.25949396 38 38 47
-0.15115422 -0.09485832 1.26047620 37 37 48
-0.15056819 -0.07022488 1.25774717 39 39 48
-0.15023084 -0.05054828 1.25493234 45 46 58
-0.15009254 -0.02414592 1.23593379 88 91 101
-0.14985817 -0.03395780 1.24573648 80 85 101
-0.14996207 -0.00370453 1.21523151 135 139 149
-0.14996473 -0.01442613 1.22616756 111 113 126
-0.15012642 0.01598061 1.19524943 119 120 127
-0.14995880 0.00548598 1.20587763 136 138 145
-0.14980919 0.03593789 1.17506288 116 116 117
-0.14985113 0.02596039 1.18511368 124 125 128
-0.14968799 0.05530314 1.15532691 96 97 103
-0.15036201 0.04578275 1.16505952 98 101 106
-0.15007389 0.07487094 1.13490295 93 96 100
-0.15000255 0.06473323 1.14551870 125 126 127
-0.15000181 0.09480204 1.11351747 94 96 102
-0.14994444 0.08494409 1.12425344 94 97 102
-0.14990654 0.11357616 1.09260797 87 89 98
-0.15004647 0.10335392 1.10409244 86 87 96
-0.14970690 0.13247155 1.07065679 91 94 99
-0.15086941 0.12269397 1.08215796 87 90 95
-0.14942764 0.15918462 1.03833643 87 88 94
-0.15005523 0.14999464 1.04960576 96 97 100
-0.14993427 0.14064913 1.06097169 99 100 103
-0.14945866 0.17743374 1.01569639 88 88 90
-0.15029403 0.16717992 1.02852569 93 93 98
-0.14979447 0.19503697 0.99305873 108 109 111
-0.15025822 0.18534531 1.00557438 85 87 93
-0.14995248 0.21239681 0.96998657 100 101 106
-0.14999677 0.20256979 0.98325235 100 100 103
-0.15012292 0.23718691 0.93525814 164 164 163
-0.14997877 0.22692035 0.94991124 125 127 130
-0.14980337 0.25394654 0.91038587 174 174 170
-0.15044028 0.24381144 0.92551367 170 171 168
-0.15003245 0.27709398 0.87527577 173 173 168
-0.14984202 0.26732827 0.89006375 174 174 167
-0.15830247 0.26087544 0.90002835 173 173 168
-0.15003645 0.29344687 0.85012714 175 175 169
-0.15000738 0.28363218 0.86499137 176 177 170
-0.15000043 0.31718660 0.81671791 176 177 170
-0.14993107 0.30755038 0.82947551 174 174 169
-0.15283340 0.30011367 0.84004080 174 175 171
-0.15049605 0.33678211 0.79693018 177 177 173
-0.14996050 0.32649230 0.80642372 180 181 172
-0.14959147 0.34953538 0.79211557 70 70 69
-0.14959977 0.36996734 0.79209573 0 0 0
-0.14968387 0.39012822 0.79146815 0 0 0
-0.15007623 0.41004959 0.78794579 0 0 0
-0.15173634 0.43716420 0.77851068 0 0 0
-0.14943120 0.42745061 0.78293764 0 0 0
-0.14835574 0.44083158 0.77678861 0 0 0
-0.12765093 -0.80021952 1.18620389 0 0 0
-0.13023477 -0.79013951 1.18768358 0 0 0
-0.12965328 -0.77002308 1.19170039 0 0 0
-0.12973459 -0.74995557 1.19597353 0 0 0
-0.13174811 -0.73668191 1.19918368 0 0 0
-0.12997082 -0.72676323 1.20196924 0 0 0
-0.12999205 -0.71003060 1.20699549 0 0 0
-0.12981285 -0.68955855 1.21380326 0 0 0
-0.13074760 -0.67683639 1.21889671 0 0 0
-0.12960256 -0.66754559 1.22298677 0 0 0
-0.13034124 -0.65427957 1.23043765 7 8 9
-0.13006985 -0.65618979 1.25600921 84 103 106
-0.12939818 -0.64742669 1.26184665 89 103 107
-0.12942795 -0.62965607 1.26359497 88 102 108
-0.12954276 -0.61054130 1.26471573 90 101 106
-0.12963417 -0.59019113 1.26560820 88 101 108
-0.12969404 -0.56967341 1.26619301 90 98 107
-0.12973964 -0.55017032 1.26663836 89 99 109
-0.12978526 -0.53065319 1.26708361 85 99 106
-0.12983409 -0.51003952 1.26756041 86 97 108
-0.12987099 -0.48936525 1.26792006 86 96 108
-0.12990247 -0.46975560 1.26822733 86 94 108
-0.12992532 -0.45010650 1.26844987 79 94 105
-0.12994249 -0.43043154 1.26861724 80 92 107
-0.12995407 -0.41073389 1.26872999 80 89 107
-0.13005201 -0.39001048 1.26872386 80 89 103
-0.12983700 -0.36917406 1.26863113 78 89 103
-0.12992390 -0.34925196 1.26843538 77 87 105
-0.12990372 -0.32946938 1.26823871 76 87 103
-0.12987705 -0.30967742 1.26797827 73 83 104
-0.12985521 -0.28990408 1.26776457 71 81 100
-0.12982454 -0.27011949 1.26746493 69 77 100
-0.12977918 -0.25031545 1.26702163 68 76 98
-0.12973904 -0.23053461 1.26662931 67 76 98
-0.12969105 -0.21075333 1.26616084 67 75 100
-0.12981716 -0.19070783 1.26559089 65 74 99
-0.12937992 -0.16986394 1.26482141 62 72 96
-0.12943066 -0.14917730 1.26361815 39 40 51
-0.12931530 -0.12940514 1.26249182 38 40 48
-0.12918553 -0.10965628 1.26122494 37 37 48
-0.12942233 -0.08683432 1.25935856 37 37 46
-0.13126630 -0.09634689 1.26027543 37 36 49
-0.12989521 -0.07021331 1.25754356 38 38 47
-0.13071232 -0.05054877 1.25495718 44 46 56
-0.12982325 -0.02415052 1.23616854 96 98 106
-0.12996861 -0.03394308 1.24594830 79 83 98
-0.13000479 -0.00387139 1.21558863 132 134 140
-0.13003501 -0.01433164 1.22626597 119 120 130
-0.12987625 0.01581551 1.19552023 127 129 135
-0.13020037 0.00574863 1.20578087 135 137 141
-0.12970011 0.03585926 1.17520023 122 122 123
-0.13021367 0.02612982 1.18504166 129 131 134
-0.12971494 0.05530133 1.15528966 103 103 112
-0.13041882 0.04570334 1.16513451 102 103 110
-0.12995439 0.07490727 1.13472026 95 98 104
-0.13019602 0.06472964 1.14545546 107 106 114
-0.13008164 0.09456027 1.11359488 85 86 95
-0.12991015 0.08496420 1.12401008 89 92 98
-0.13005319 0.11371437 1.09221657 87 90 96
-0.13000043 0.10345651 1.10373034 90 92 97
-0.12999286 0.13184951 1.07114587 89 91 97
-0.12961293 0.12200807 1.08269963 85 88 94
-0.12834898 0.15856032 1.03882368 86 87 89
-0.13031244 0.14950117 1.05002865 88 89 95
-0.13065647 0.14062428 1.06078422 94 94 102
-0.13007418 0.17678376 1.01628385 100 101 105
-0.12999764 0.16660521 1.02898797 85 87 91
-0.13000420 0.19442905 0.99358468 88 90 94
-0.13001196 0.18467388 1.00614552 99 100 104
-0.12889274 0.21995214 0.95899131 170 171 166
-0.12993856 0.21232805 0.96961449 145 147 147
-0.13021294 0.20255891 0.98293567 107 108 114
-0.12970204 0.23671547 0.93532553 169 170 168
-0.13032654 0.22703784 0.94913048 171 171 168
-0.12997790 0.25370685 0.91041596 174 174 172
-0.12998683 0.24345149 0.92548447 171 172 169
-0.13009223 0.27706390 0.87511987 173 174 169
-0.13004152 0.26722205 0.89005337 174 174 170
-0.12373800 0.29997668 0.83965737 179 179 173
-0.13010938 0.29331961 0.84997851 175 176 170
-0.13001700 0.28353298 0.86493185 176 177 172
-0.12980925 0.31720270 0.81660800 176 177 169
-0.13016689 0.30731603 0.82949454 175 175 169
-0.13044561 0.33705331 0.79777113 177 179 171
-0.12981819 0.32684729 0.80649095 179 180 172
-0.12982475 0.34975962 0.79452656 55 55 54
-0.12954213 0.36998098 0.79476708 0 0 0
-0.12996762 0.39013338 0.79385267 0 0 0
-0.13010748 0.41005658 0.79040257 0 0 0
-0.13760167 0.43912940 0.77946300 0 0 0
-0.12978581 0.42988671 0.78434968 0 0 0
-0.12983698 0.44143252 0.77885306 0 0 0
-0.12307824 0.44059827 0.78027415 0 0 0
-0.11029185 -0.80071846 1.18694350 0 0 0
-0.11045481 -0.78956794 1.18869603 0 0 0
-0.11019005 -0.76978785 1.19263437 0 0 0
-0.10999087 -0.74940752 1.19704241 0 0 0
-0.11199784 -0.73831365 1.19971612 0 0 0
-0.10933293 -0.72888126 1.20240523 0 0 0
-0.11000609 -0.71026123 1.20794581 0 0 0
-0.11013541 -0.69029973 1.21459724 0 0 0
-0.11106322 -0.67833584 1.21933446 0 0 0
-0.10985003 -0.66797785 1.22384539 0 0 0
-0.11012973 -0.65489887 1.23099989 0 0 0
-0.10959264 -0.65696557 1.25506164 85 97 103
-0.10959530 -0.64717566 1.26156095 90 101 106
-0.10976022 -0.62958929 1.26346112 88 101 106
-0.10986006 -0.61049092 1.26461146 89 100 105
-0.10993940 -0.59015234 1.26552511 87 100 105
-0.10999089 -0.56963953 1.26611765 86 99 106
-0.11002916 -0.55013533 1.26655774 87 96 107
-0.11006523 -0.53060669 1.26697253 85 96 106
-0.11010706 -0.50999653 1.26745348 86 96 106
-0.11013701 -0.48931825 1.26779828 84 95 106
-0.11016287 -0.46970690 1.26809577 82 94 104
-0.11018072 -0.45005398 1.26830172 79 92 103
-0.11019350 -0.43037440 1.26844876 79 91 103
-0.11020205 -0.41067466 1.26854696 79 90 106
-0.11020029 -0.39093514 1.26852622 80 88 106
-0.11019285 -0.37008108 1.26844043 78 87 105
-0.11017417 -0.34919404 1.26822496 77 87 103
-0.11015643 -0.32941272 1.26802059 76 83 103
-0.11013342 -0.30962305 1.26775559 74 80 103
-0.11011104 -0.28984297 1.26749710 70 79 99
-0.11008534 -0.27006330 1.26720133 70 76 99
-0.11004626 -0.25026213 1.26675153 68 76 98
-0.11000913 -0.23047907 1.26632390 67 75 99
-0.10996659 -0.21069889 1.26583354 65 75 98
-0.10991432 -0.19091719 1.26523160 65 74 98
-0.10984496 -0.17003532 1.26443210 63 71 93
-0.10973705 -0.14912666 1.26318948 39 40 51
-0.10964163 -0.12936412 1.26209193 39 39 48
-0.10953231 -0.10962228 1.26083368 37 37 47
-0.10898406 -0.08922542 1.25920283 37 37 46
-0.11455182 -0.09830534 1.26011908 37 37 46
-0.10921785 -0.07019490 1.25721545 38 38 46
-0.11009090 -0.05054155 1.25478424 44 45 54
-0.10954157 -0.02415407 1.23635026 103 105 112
-0.11021838 -0.03414560 1.24620785 78 82 100
-0.11008143 -0.00370540 1.21553341 133 137 143
-0.11006724 -0.01457800 1.22661817 124 127 134
-0.11005509 0.01589932 1.19551739 125 126 134
-0.10998394 0.00561689 1.20605017 128 130 138
-0.10979728 0.03589911 1.17515701 109 109 113
-0.11013347 0.02600574 1.18522536 124 125 128
-0.10954469 0.05536993 1.15509095 96 98 104
-0.11027500 0.04570097 1.16507497 96 98 105
-0.10967964 0.07501253 1.13440473 89 92 98
-0.11038084 0.06471956 1.14527766 101 104 111
-0.10956762 0.09448656 1.11347574 90 93 99
-0.11072054 0.08465152 1.12415493 84 87 94
-0.10997653 0.11361674 1.09213289 87 89 96
-0.11018341 0.10338206 1.10364686 90 96 100
-0.11006503 0.13167510 1.07106355 90 94 100
-0.10994345 0.12198563 1.08250055 86 90 97
-0.10999383 0.15835717 1.03880010 93 95 101
-0.11001239 0.14919229 1.05012915 94 95 99
-0.11046141 0.14059029 1.06052780 85 84 90
-0.10986800 0.17689888 1.01589179 106 106 109
-0.10991325 0.16656864 1.02875855 102 103 106
-0.11000451 0.19426462 0.99340982 158 158 157
-0.11014151 0.18469154 1.00589082 116 117 119
-0.11062920 0.21989130 0.95872601 173 173 169
-0.10985117 0.21172813 0.96992805 168 168 167
-0.11032360 0.20183416 0.98335292 172 172 168
-0.10997625 0.23646249 0.93542560 172 172 169
-0.11001998 0.22675018 0.94916157 171 171 168
-0.10990679 0.25365119 0.91044191 176 176 172
-0.10997885 0.24342435 0.92538298 173 173 170
