ply
format ascii 1.0
element vertex 1078
property float x
property float y
property float z
property uchar red
property uchar green
property uchar blue
end_header
-0.38610552 -0.35617873 1.12888449 60 58 59
-0.39136319 -0.34667122 1.15630915 68 71 73
-0.39115074 -0.34994057 1.16506011 70 72 75
-0.39000682 -0.32946540 1.15272253 76 77 82
-0.39003683 -0.30974153 1.14564858 80 82 87
-0.38427901 -0.28648439 1.13904117 84 86 89
-0.39288370 -0.29128050 1.14151831 82 85 88
-0.38868873 -0.26927052 1.13789742 84 87 91
-0.39781671 -0.27259675 1.14036110 82 85 89
-0.38964241 -0.24990267 1.13721619 84 86 92
-0.38969726 -0.22940499 1.13641699 79 81 89
-0.39013539 -0.20986638 1.13250333 77 82 89
-0.38971094 -0.19076450 1.12809661 79 84 89
-0.38987917 -0.17056542 1.12491623 74 76 84
-0.38887659 -0.14882319 1.11595282 57 60 64
-0.39567499 -0.15702548 1.12110058 56 58 62
-0.38989251 -0.12998211 1.10897039 58 59 66
-0.38828722 -0.10555621 1.09701701 57 60 65
-0.39208575 -0.11467453 1.10264591 58 59 67
-0.38546456 -0.08116387 1.07890059 62 62 67
-0.39041686 -0.09057549 1.08745339 58 59 66
-0.38934965 -0.06094140 1.05875000 80 84 90
-0.39018219 -0.07076484 1.07012868 60 61 68
-0.38996967 -0.04155846 0.96935139 121 125 132
-0.38975828 -0.04587426 0.99095805 106 110 123
-0.39035983 -0.04948454 1.01158835 89 90 106
-0.39046973 -0.05320178 1.03272725 68 69 80
-0.38980842 -0.05773989 1.05118583 60 61 69
-0.39008866 -0.02340679 0.91463044 132 136 142
-0.38992066 -0.03017380 0.92964901 139 143 145
-0.38977479 -0.03654457 0.94899190 122 122 127
-0.39032337 -0.00684098 0.89151624 152 153 156
-0.38942004 -0.01697555 0.90373946 148 152 156
-0.38999703 0.01313956 0.87633878 154 154 156
-0.39013198 0.00335043 0.88252937 155 155 157
-0.38996422 0.03029790 0.86845255 143 144 145
-0.38977857 0.05900010 0.85987385 121 122 131
-0.39004947 0.04948227 0.86225173 134 136 140
-0.38998702 0.06991456 0.85765342 128 129 131
-0.39001387 0.09027005 0.85424148 144 144 141
-0.38994784 0.10984505 0.85177436 148 147 143
-0.39007341 0.12973559 0.84984838 151 151 148
-0.38985057 0.14968450 0.84827451 126 127 128
-0.39015442 0.17028760 0.84694852 112 114 116
-0.39001461 0.19035226 0.84588065 131 130 127
-0.38974265 0.21046945 0.84497087 109 106 104
-0.38996967 0.23010110 0.84420084 72 71 74
-0.39034391 0.24965191 0.84353812 53 52 56
-0.39012197 0.26982817 0.84295352 48 47 52
-0.38988809 0.29005200 0.84244816 50 49 52
-0.38968321 0.31027444 0.84200546 53 53 54
-0.38965170 0.33037348 0.84161983 62 61 63
-0.39008042 0.35000000 0.84129271 70 69 70
-0.38995801 0.36951453 0.84102871 80 78 78
-0.38986406 0.38977183 0.84082611 86 85 85
-0.39043694 0.40998783 0.84081169 48 47 48
-0.39000331 0.42989169 0.84112690 0 0 0
-0.39001373 0.44953026 0.84114940 0 0 0
-0.38999901 0.46913950 0.84111764 0 0 0
-0.36994738 -0.60277335 0.89690476 0 0 0
-0.37076218 -0.59076252 0.89834290 0 0 0
-0.36415142 -0.58241334 0.90037075 0 0 0
-0.37852292 -0.58128388 1.09084469 98 113 117
-0.37103772 -0.58996680 1.11587301 97 105 111
-0.37013544 -0.58850686 1.13434751 90 101 109
-0.36362372 -0.58161895 1.14097291 87 95 104
-0.37768681 -0.57789874 0.89975606 0 0 0
-0.36938968 -0.56955702 0.90220776 0 0 0
-0.36373721 -0.56808045 1.06953609 98 110 118
-0.37432447 -0.57968012 1.08960450 95 112 116
-0.37555699 -0.57820211 1.13861453 86 98 105
-0.36963440 -0.56965769 1.14637320 84 92 104
-0.37005334 -0.54992788 0.90720206 0 0 0
-0.36887414 -0.54005882 1.01020455 95 114 124
-0.36010836 -0.55997890 1.05086350 106 108 121
-0.36995441 -0.55050706 1.15485594 79 82 93
-0.37054012 -0.53210395 0.91495187 0 0 0
-0.36824682 -0.52246013 0.92151523 0 0 0
-0.37725878 -0.52135643 0.96895546 67 71 79
-0.37003517 -0.53223034 0.99267253 74 89 100
-0.37040116 -0.53519769 1.15891544 73 77 88
-0.37036678 -0.52501886 1.16063763 72 74 82
-0.37003104 -0.51352473 0.93023847 0 0 0
-0.36860378 -0.51006932 0.94570529 13 16 19
-0.37308562 -0.51788835 0.96250993 54 58 69
-0.37856675 -0.50221371 1.15930450 66 71 77
-0.36919149 -0.50984748 1.16170367 70 72 77
-0.37990998 -0.48103702 1.10308456 116 77 77
-0.37708362 -0.48225348 1.12595522 89 68 68
-0.37464737 -0.49196613 1.15682913 70 67 70
-0.36587663 -0.48973587 1.16440214 67 65 70
-0.37389452 -0.46708094 1.09152194 126 86 73
-0.37008460 -0.47165585 1.10792993 106 76 70
-0.36818495 -0.47393790 1.12751516 89 69 67
-0.36568538 -0.47492289 1.14825568 77 66 66
-0.36275186 -0.47765286 1.16949196 70 67 65
-0.37042382 -0.45008180 1.08682112 137 97 77
-0.37021049 -0.43023801 1.08417273 140 98 82
-0.36979298 -0.40994954 1.08245815 144 101 88
-0.36075697 -0.39723324 1.07999289 143 104 83
-0.37036299 -0.38977483 1.08334693 136 94 85
-0.36981228 -0.37017174 1.08750997 122 81 76
-0.36774261 -0.35268422 1.09139804 91 61 59
-0.37097639 -0.34605830 1.10815200 61 51 52
-0.37236188 -0.34491801 1.12936615 67 67 69
-0.37317664 -0.34446251 1.15243316 73 72 76
-0.37482746 -0.34371663 1.16140417 76 75 79
-0.36115905 -0.33821622 1.10992360 57 55 54
-0.36042869 -0.33697163 1.13480061 74 72 80
-0.37035829 -0.32907450 1.15350894 77 78 84
-0.36687846 -0.33927504 1.16079342 75 75 82
-0.36734757 -0.30159884 1.13929963 81 83 93
-0.37036400 -0.31038300 1.14353808 80 82 89
-0.36964866 -0.28997442 1.13611913 85 85 90
-0.36993214 -0.27003688 1.13271511 85 88 93
-0.37036791 -0.25009355 1.13218198 86 86 92
-0.37046368 -0.23058495 1.13247405 82 83 89
-0.36990805 -0.21015132 1.12864289 79 83 89
-0.37023300 -0.18985635 1.12456458 79 82 88
-0.36664930 -0.16321697 1.11894507 65 65 70
-0.37103868 -0.17228767 1.12222533 77 80 87
-0.37010375 -0.14978210 1.11373286 56 58 62
-0.36262687 -0.12033359 1.09981745 56 56 63
-0.37011851 -0.12985208 1.10544924 57 59 63
-0.36939827 -0.10880531 1.09495494 58 59 65
-0.37606595 -0.11797371 1.10060116 58 61 66
-0.36880815 -0.08251327 1.07756008 60 60 68
-0.37034816 -0.09224677 1.08515407 59 60 65
-0.36831662 -0.06228639 1.05669059 67 70 81
-0.37037623 -0.07204017 1.06792728 58 59 68
-0.36972225 -0.04154229 0.96897324 124 126 134
-0.37007420 -0.04597358 0.99149202 112 113 127
-0.37030505 -0.04949131 1.01172664 87 89 110
-0.37069885 -0.05305897 1.03079216 67 67 82
-0.36963448 -0.05755107 1.04696366 61 64 74
-0.37049378 -0.02302705 0.91424648 134 138 143
-0.36955965 -0.02982253 0.92940437 135 138 142
-0.36992188 -0.03660563 0.94943659 135 135 141
-0.37004119 -0.00660813 0.89147432 150 151 155
-0.37007292 -0.01692768 0.90392834 153 155 159
-0.36997722 0.01316503 0.87634355 145 146 149
-0.37015075 0.00336515 0.88261393 156 156 157
-0.37000976 0.03028108 0.86842601 140 141 143
-0.36970264 0.05899819 0.85984602 120 122 130
-0.37004048 0.04948881 0.86221796 130 132 136
-0.37001704 0.07004886 0.85760799 126 128 130
-0.36997727 0.09052208 0.85420223 148 148 145
-0.37002284 0.11004230 0.85175440 146 144 140
-0.36992266 0.12946400 0.84987982 149 147 142
-0.37007520 0.14999308 0.84826483 134 133 131
-0.37001958 0.17010100 0.84696438 116 119 122
-0.36984732 0.19016818 0.84588336 144 145 142
-0.37003502 0.21071905 0.84494893 142 139 136
-0.37026478 0.23009697 0.84418569 105 105 108
-0.36997479 0.24959928 0.84352454 90 90 93
-0.36971808 0.26982360 0.84293923 82 82 84
-0.36974584 0.28987689 0.84243775 85 84 86
-0.37002873 0.31026818 0.84198849 83 81 83
-0.37002079 0.33061770 0.84159474 93 92 92
-0.37043913 0.34998971 0.84126798 109 108 106
-0.37032273 0.36950352 0.84100365 119 118 114
-0.37023630 0.38976318 0.84080738 126 125 122
-0.37029227 0.41017294 0.84093526 42 42 39
-0.37042482 0.42994754 0.84123615 0 0 0
-0.37043853 0.44959328 0.84126732 0 0 0
-0.37042474 0.46920551 0.84123600 0 0 0
-0.34938002 -0.60341234 0.89868927 0 0 0
-0.35309154 -0.59544152 0.89925585 0 0 0
-0.34849292 -0.58681954 0.90122592 0 0 0
-0.35113127 -0.58938075 1.11606877 94 102 110
-0.34995610 -0.59072764 1.13476594 93 98 110
-0.34993812 -0.58339362 1.14331116 89 96 103
-0.34988303 -0.56985421 0.90436535 0 0 0
-0.35585096 -0.56147221 1.05709463 100 108 117
-0.34610549 -0.57533960 1.08673942 88 102 107
-0.35018211 -0.57063870 1.15076729 85 91 103
-0.35008451 -0.54984975 0.90987044 0 0 0
-0.34636061 -0.54133115 1.01586890 105 107 120
-0.34645921 -0.55665296 1.04802134 95 103 112
-0.34993486 -0.55067100 1.15695212 77 80 96
-0.35054744 -0.53402067 0.91647524 0 0 0
-0.34898590 -0.52418337 0.92320262 0 0 0
-0.34829268 -0.52482813 0.98171486 74 85 92
-0.34052558 -0.53492327 1.00384378 101 107 123
-0.35152006 -0.53763998 1.15951052 75 78 86
-0.35019383 -0.52746288 1.16086781 72 75 83
-0.35077795 -0.51557883 0.93227483 0 0 0
-0.34874916 -0.51129283 0.94539959 0 0 0
-0.35159704 -0.51764858 0.96516472 27 33 37
-0.34967407 -0.51020554 1.16410978 71 72 78
-0.35026759 -0.48963281 1.16547621 65 65 71
-0.35769021 -0.46202848 1.11705208 93 66 66
-0.35466097 -0.46171910 1.13213225 90 73 61
-0.35261601 -0.46410678 1.15097255 86 71 65
-0.34873112 -0.47236376 1.16624549 65 63 66
-0.35285068 -0.44620513 1.09160947 130 91 76
-0.34956937 -0.45274287 1.10969172 109 82 68
-0.34593318 -0.45334581 1.12907330 108 78 71
-0.34517661 -0.45717038 1.14600980 100 73 68
-0.34961572 -0.42993103 1.08632569 139 97 80
-0.34936179 -0.40198428 1.07983364 148 103 91
-0.35040956 -0.41151625 1.08140487 145 98 84
-0.34816103 -0.39185811 1.07921616 150 107 92
-0.35658724 -0.38593096 1.08093157 144 102 92
-0.34421086 -0.37110641 1.07920500 138 96 83
-0.35348993 -0.36945718 1.08215225 134 91 80
-0.34192805 -0.35506405 1.07948095 125 81 75
-0.35073810 -0.34914585 1.08453202 105 71 69
-0.34710262 -0.33447739 1.09072276 72 51 52
-0.35192150 -0.33229267 1.10751613 60 56 61
-0.35117818 -0.33114214 1.12608014 70 69 77
-0.35213657 -0.32639040 1.15120029 72 74 78
-0.35982596 -0.33782771 1.16133368 74 74 81
-0.35030891 -0.30256926 1.13883924 77 77 85
-0.34987122 -0.31185549 1.14390544 74 75 81
-0.35032863 -0.29046914 1.13356659 79 81 84
-0.35011676 -0.26970153 1.12858913 81 82 89
-0.35033247 -0.24974120 1.12827624 80 83 89
-0.35054991 -0.22972127 1.12823165 78 81 89
-0.34993386 -0.20972723 1.12473603 78 81 87
-0.34578089 -0.18570458 1.11883606 78 78 87
-0.35333457 -0.19226381 1.12138535 78 82 86
-0.34935854 -0.16942574 1.11746067 72 74 80
-0.35875098 -0.17583455 1.12036481 79 81 86
-0.34980852 -0.14933346 1.11041048 55 55 59
-0.34866828 -0.12255573 1.09859954 55 55 59
-0.35069860 -0.13182322 1.10360495 57 57 59
-0.34965828 -0.10942234 1.09207519 57 58 63
-0.34907387 -0.08409904 1.07646421 58 59 66
-0.35084584 -0.09376077 1.08354164 58 59 65
-0.34936470 -0.06296080 1.05553470 62 66 73
-0.35047430 -0.07265392 1.06664455 58 60 68
-0.34950204 -0.04152790 0.96863559 137 140 144
-0.35020229 -0.04585257 0.99049156 126 132 144
-0.34963455 -0.04941167 1.01009860 102 102 121
-0.34974111 -0.05323791 1.02909457 67 67 79
-0.35040398 -0.05748638 1.04414541 63 68 75
-0.34973681 -0.02254979 0.91375427 127 131 138
-0.35017231 -0.02933735 0.92854047 126 129 137
-0.35012817 -0.03659485 0.94916266 133 134 137
-0.34991138 -0.00664884 0.89169775 157 157 160
-0.35010894 -0.01688794 0.90425197 145 147 154
-0.35002833 0.01320282 0.87630792 140 141 146
-0.35015416 0.00335096 0.88268811 151 151 153
-0.35005073 0.03033534 0.86836481 135 135 138
-0.34962677 0.05899609 0.85981536 131 132 134
-0.34996862 0.04942763 0.86219268 133 135 139
-0.35005399 0.06987317 0.85762714 132 132 134
-0.34993495 0.09016213 0.85425331 147 145 145
-0.34997821 0.11001517 0.85175865 146 145 143
-0.35004521 0.12959704 0.84987079 137 138 136
-0.35006617 0.14983744 0.84827613 139 140 140
-0.34987704 0.16991118 0.84696410 123 125 127
-0.35012124 0.19053128 0.84584700 135 136 134
-0.35014771 0.21058529 0.84493479 150 150 145
-0.34982770 0.23009066 0.84416258 129 130 130
-0.34970090 0.24946776 0.84350123 104 105 108
-0.35003649 0.26981377 0.84290856 103 105 107
-0.35009687 0.29020985 0.84239782 106 106 106
-0.35036857 0.31025621 0.84195603 102 101 103
-0.35020444 0.33047495 0.84156159 101 102 104
-0.35006729 0.34997476 0.84123204 119 120 118
-0.34995904 0.36948960 0.84097192 124 125 120
-0.34988122 0.38975280 0.84078498 133 133 133
-0.34999740 0.41023628 0.84106478 16 16 15
-0.35011260 0.43000143 0.84134156 0 0 0
-0.35012968 0.44965494 0.84138267 0 0 0
-0.35011691 0.46927020 0.84135198 0 0 0
-0.33696891 -0.60443269 0.89974122 0 0 0
-0.32724243 -0.60386395 0.90062907 0 0 0
-0.32213510 -0.60065154 1.14861515 92 98 112
-0.33948558 -0.59930227 0.89990288 0 0 0
-0.32990512 -0.59008234 0.90246594 0 0 0
-0.33581619 -0.59003741 1.11815211 97 104 109
-0.33170146 -0.59226717 1.13517024 90 101 107
-0.32864515 -0.58682768 1.14583253 88 96 105
-0.33000525 -0.56998018 0.90665637 0 0 0
-0.33818082 -0.56523379 1.06765091 91 105 109
-0.32996809 -0.57004603 1.15434155 83 92 99
-0.32996932 -0.55002336 0.91274142 0 0 0
-0.32407300 -0.54704987 1.03162861 98 103 112
-0.33317367 -0.55446147 1.04535879 92 104 109
-0.33159726 -0.55397220 1.15834891 79 84 92
-0.32856358 -0.54473569 1.16058145 78 81 91
-0.33178658 -0.53640784 0.91812253 0 0 0
-0.32912690 -0.52654554 0.92569954 0 0 0
-0.32725316 -0.52111713 0.97666919 38 40 46
-0.33441542 -0.52548078 0.98485022 61 67 72
-0.32103035 -0.53832035 1.01350617 93 102 108
-0.33062568 -0.52933551 1.16068653 73 77 86
-0.33182974 -0.51779729 0.93562219 0 0 0
-0.32961559 -0.51475756 0.94896671 0 0 0
-0.32509997 -0.51761552 0.96822335 0 0 0
-0.33010403 -0.50977847 1.16290941 72 73 80
-0.32983443 -0.49045833 1.16511028 67 67 73
-0.32627336 -0.46218814 1.15881854 64 63 68
-0.33065632 -0.47138018 1.16286861 63 63 70
-0.33399638 -0.44098507 1.11107647 118 80 73
-0.33093602 -0.44398496 1.12681351 97 74 69
-0.32710899 -0.45357659 1.15482625 69 62 65
-0.32909699 -0.45482605 1.16126739 67 61 64
-0.33140530 -0.42738737 1.09115092 138 96 82
-0.32648209 -0.43496422 1.10577120 118 85 77
-0.32246944 -0.43830207 1.12554365 94 69 71
-0.33459811 -0.40000298 1.07991111 146 103 91
-0.33004575 -0.40986530 1.08389524 140 98 84
-0.33086271 -0.38908637 1.07865691 148 102 88
-0.32541467 -0.39831989 1.08040869 137 94 81
-0.33017272 -0.36994315 1.07715336 143 100 87
-0.32902024 -0.35073074 1.07674099 128 86 79
-0.33739550 -0.34260735 1.08064952 109 72 72
-0.32480125 -0.33307657 1.07850262 104 69 66
-0.33311829 -0.32864066 1.08420131 78 56 55
-0.33821062 -0.32298103 1.10704568 61 58 64
-0.33699624 -0.32195731 1.12858796 70 70 75
-0.33847128 -0.32170347 1.14678910 70 71 75
-0.32466471 -0.31660072 1.08899861 64 50 53
-0.32688774 -0.31524063 1.11010725 65 63 67
-0.32903988 -0.30621823 1.13743209 70 70 75
-0.33125508 -0.31097555 1.14219887 69 70 75
-0.32997161 -0.29000272 1.13157112 72 72 78
-0.33007093 -0.26987647 1.12490053 75 76 79
-0.32977861 -0.25020587 1.12389829 74 75 79
-0.33003867 -0.23029090 1.12399366 74 76 81
-0.32626475 -0.20482516 1.11841080 72 74 81
-0.33125289 -0.21289940 1.12211253 74 75 83
-0.32981929 -0.19054565 1.11662933 73 75 81
-0.33930115 -0.19998989 1.12008345 76 80 81
-0.33030284 -0.16990644 1.11437293 66 69 75
-0.32971896 -0.15035147 1.10857824 49 49 54
-0.32917925 -0.12486717 1.09766661 50 51 54
-0.33038616 -0.13481491 1.10262452 52 52 58
-0.32994560 -0.11085904 1.09016583 54 54 59
-0.32953137 -0.08595369 1.07521718 56 57 64
-0.33058192 -0.09678886 1.08247348 53 54 62
-0.32934356 -0.06378180 1.05408209 62 64 71
-0.33053508 -0.07352136 1.06518928 59 59 68
-0.32960859 -0.04145620 0.96781696 123 127 135
-0.33031493 -0.04581487 0.98887836 130 132 139
-0.32834591 -0.05022849 1.01164964 94 94 104
-0.33060697 -0.05456780 1.03182333 60 61 71
-0.32965913 -0.05826454 1.04358118 69 73 81
-0.32979903 -0.02259790 0.91401409 147 148 154
-0.33013563 -0.02933878 0.92865198 124 127 135
-0.33014786 -0.03659228 0.94910272 126 127 132
-0.33000217 -0.00663653 0.89179677 157 158 160
-0.33005972 -0.01687587 0.90442051 148 149 156
-0.33031749 0.01341337 0.87619613 138 139 143
-0.32969188 0.00365746 0.88252377 155 156 158
-0.32999755 0.03032659 0.86835455 130 131 135
-0.33030212 0.05899518 0.85980221 123 123 127
-0.32996141 0.04957114 0.86212539 135 136 138
-0.32998535 0.07007661 0.85757764 142 143 142
-0.33001038 0.09053974 0.85420401 144 142 141
-0.32992798 0.10981641 0.85178445 142 141 140
-0.33010881 0.12960191 0.84986727 133 133 134
-0.32989588 0.14964889 0.84828475 135 136 134
-0.33012735 0.17028345 0.84692810 119 120 122
-0.33005375 0.19034217 0.84583601 118 118 118
-0.32969293 0.21057943 0.84491131 126 126 125
-0.33000166 0.22999040 0.84413917 120 122 125
-0.33002263 0.24971142 0.84346420 108 110 110
-0.33035393 0.26980197 0.84287174 118 118 121
-0.33015419 0.29002236 0.84236211 104 104 106
-0.32997839 0.31024056 0.84191355 118 117 118
-0.32982475 0.33045923 0.84152156 117 120 121
-0.32969675 0.34995936 0.84119500 105 107 109
-0.32959753 0.36947643 0.84094190 123 126 126
-0.32953062 0.38974653 0.84077133 153 153 150
-0.32970722 0.41031299 0.84122292 0 0 0
-0.32978725 0.43004488 0.84142649 0 0 0
-0.32980890 0.44970791 0.84148178 0 0 0
-0.32979800 0.46932709 0.84145399 0 0 0
-0.31000828 -0.60448255 0.90204128 0 0 0
-0.30955561 -0.60262227 1.15309581 92 99 109
-0.30986265 -0.59008164 0.90441605 0 0 0
-0.30799495 -0.58855572 1.11534423 92 100 107
-0.31105239 -0.59655514 1.13360384 95 101 110
-0.31043631 -0.58864395 1.15031574 88 95 107
-0.30993229 -0.56988972 0.90911223 0 0 0
-0.30980922 -0.57056425 1.15680491 83 91 102
-0.31038223 -0.55041335 0.91569851 0 0 0
-0.30372307 -0.54144747 0.92076670 0 0 0
-0.30914804 -0.54336253 1.02633903 95 102 109
-0.31213220 -0.55701922 1.15950615 82 86 93
-0.30969530 -0.54728400 1.16094168 79 83 91
-0.31736766 -0.53880021 0.91951381 0 0 0
-0.30995257 -0.52920141 0.92832613 0 0 0
-0.30342563 -0.52047590 0.94124220 0 0 0
-0.30528289 -0.52626021 0.99080032 57 57 66
-0.31525744 -0.53299825 1.00348616 78 92 95
-0.30122062 -0.52181333 1.15981483 73 78 81
-0.31087307 -0.52972547 1.16120946 74 78 85
-0.31645377 -0.51936376 0.93886342 0 0 0
-0.31032929 -0.51731511 0.95017280 0 0 0
-0.30876836 -0.51669524 0.96642158 3 4 4
-0.30265010 -0.51183264 1.15970517 72 75 82
-0.31239937 -0.50917434 1.16092413 72 73 80
-0.30150638 -0.48932694 1.15962859 67 70 77
-0.31111486 -0.49024858 1.16213625 67 69 75
-0.30763167 -0.46717709 1.15854205 65 65 69
-0.31387505 -0.47461270 1.16096854 66 66 71
-0.30929845 -0.44994738 1.15369526 64 63 66
-0.30952561 -0.44126537 1.16592121 70 61 63
-0.31572428 -0.42293411 1.09539119 131 92 82
-0.31188158 -0.42603843 1.10836534 117 82 78
-0.30929690 -0.43032629 1.13068550 96 72 68
-0.30577405 -0.43636496 1.15194239 72 62 64
-0.30540312 -0.43786653 1.16047299 69 63 65
-0.31024171 -0.40890083 1.08594067 139 98 84
-0.30054402 -0.41719974 1.10570002 120 84 75
-0.31135785 -0.38671045 1.07871504 139 98 83
-0.30756576 -0.39590101 1.08130818 140 96 81
-0.30976917 -0.36997363 1.07607959 148 104 89
-0.30973286 -0.34968475 1.07426285 139 96 85
-0.31014101 -0.32980251 1.07535221 113 77 73
-0.30713202 -0.31324812 1.07543939 89 60 60
-0.31147093 -0.30767681 1.08651965 65 50 52
-0.31293323 -0.30597600 1.10973492 63 63 65
-0.31410359 -0.30387028 1.13528034 66 66 69
-0.31607992 -0.30597071 1.14109198 66 66 69
-0.30089390 -0.29908719 1.08966869 62 51 55
-0.30204378 -0.29826858 1.11479399 63 63 65
-0.31000809 -0.28940489 1.12985089 66 66 72
-0.31014944 -0.26946638 1.12317758 67 67 73
-0.30264903 -0.24682902 1.11950725 67 66 73
-0.31194090 -0.25044205 1.12096403 67 68 73
-0.30596355 -0.22939952 1.11891309 67 68 72
-0.31520210 -0.23114319 1.12070306 71 71 76
-0.30972737 -0.20947293 1.11636031 69 69 79
-0.31742935 -0.21875199 1.12032743 73 72 81
-0.30973797 -0.19004358 1.11230938 68 69 75
-0.31060757 -0.17051414 1.11091660 62 65 70
-0.30986656 -0.15060326 1.10587197 46 46 49
-0.30907854 -0.12732127 1.09693786 47 46 53
-0.31138338 -0.13687359 1.10135151 47 47 52
-0.31007250 -0.11063028 1.08817691 47 48 54
-0.30974989 -0.08872455 1.07450280 50 51 57
-0.31243224 -0.09831578 1.08135715 50 50 57
-0.30937138 -0.06475885 1.05342053 54 56 64
-0.31021106 -0.07530912 1.06451221 54 55 62
-0.31007874 -0.04150385 0.96723999 121 124 128
-0.30993291 -0.04570771 0.98656876 126 129 137
-0.30937279 -0.05027436 1.00978937 87 93 103
-0.30961621 -0.05488775 1.03091090 58 61 69
-0.31002577 -0.05813450 1.04125215 64 69 77
-0.30976883 -0.02263999 0.91404126 156 159 163
-0.31007597 -0.02944949 0.92891059 129 132 140
-0.30990105 -0.03653909 0.94887021 122 125 128
-0.31008373 -0.00665049 0.89190688 157 157 160
-0.30994270 -0.01689217 0.90448029 142 144 151
-0.31001884 0.01391876 0.87597844 135 137 141
-0.30996945 0.00411045 0.88230086 151 153 154
-0.30996253 0.03025673 0.86841713 135 135 140
-0.31024400 0.05899599 0.85981401 142 140 142
-0.30997249 0.04935269 0.86218665 150 149 150
-0.30997518 0.06982943 0.85762812 153 153 152
-0.31002067 0.09016821 0.85426379 146 144 142
-0.31006823 0.11011581 0.85176313 134 135 136
-0.30989890 0.12936933 0.84988016 139 139 140
-0.31011558 0.15002233 0.84824683 133 134 134
-0.30998502 0.17009312 0.84692533 125 125 129
-0.30977974 0.19018716 0.84582379 114 116 117
-0.30997095 0.21057459 0.84489196 119 121 122
-0.31030618 0.23016401 0.84410463 132 133 135
-0.31016496 0.24957244 0.84343387 107 108 109
-0.30994678 0.26979201 0.84284066 110 112 114
-0.30975735 0.29000975 0.84232546 109 110 112
-0.30959130 0.31022596 0.84187393 127 128 127
-0.30985151 0.33026026 0.84148768 112 113 115
-0.31005699 0.34994629 0.84116357 116 119 120
-0.30996651 0.36946602 0.84091815 174 176 171
-0.30992525 0.38976334 0.84080665 136 137 131
-0.31013013 0.41038062 0.84136258 0 0 0
-0.30955785 0.43017027 0.84149787 0 0 0
-0.30947639 0.44975082 0.84156204 0 0 0
-0.30946798 0.46937463 0.84153921 0 0 0
-0.28960658 -0.60504139 0.90370528 0 0 0
-0.28863595 -0.60359874 1.15425733 88 100 106
-0.29436870 -0.60434098 1.16046226 91 99 106
-0.28990512 -0.58980747 0.90645090 0 0 0
-0.29324058 -0.58035916 1.09981132 87 91 92
-0.28936034 -0.58513028 1.11068350 88 99 103
-0.29292532 -0.59517886 1.13160193 85 101 108
-0.28971701 -0.58867988 1.15284457 87 97 104
-0.28994123 -0.56981686 0.91165118 0 0 0
-0.28679101 -0.57883883 1.09693022 80 97 109
-0.28987439 -0.57024630 1.15717548 84 89 100
-0.29099337 -0.55390891 0.91740827 0 0 0
-0.28874475 -0.54434188 0.92211218 0 0 0
-0.29525167 -0.54068638 1.02128413 77 96 90
-0.28855315 -0.55684510 1.15948057 79 88 97
-0.29124974 -0.54696426 1.16099250 78 82 91
-0.29038953 -0.53096730 0.93086547 0 0 0
-0.28839739 -0.52162052 0.94379515 0 0 0
-0.28907880 -0.52174030 0.98229059 11 12 13
-0.28482293 -0.53932020 1.01870360 48 52 58
-0.29129329 -0.52259924 1.15972682 72 76 85
-0.29026980 -0.53212329 1.16115648 76 78 88
-0.29125164 -0.51885478 0.95322113 0 0 0
-0.28948641 -0.51754944 0.96586070 0 0 0
-0.28988636 -0.51024179 1.15857130 71 74 82
-0.28990409 -0.49010799 1.15724316 69 71 77
-0.28979244 -0.46934769 1.15619144 65 65 71
-0.28941365 -0.44955465 1.15575167 64 63 68
-0.29659869 -0.42315554 1.13448101 88 64 60
-0.28898014 -0.43151602 1.15320467 65 63 64
-0.28945984 -0.42598291 1.16088204 65 63 65
-0.29283254 -0.40439407 1.08897710 139 92 81
-0.28982840 -0.41097131 1.10857850 119 82 72
-0.28680552 -0.41429706 1.12907680 98 73 69
-0.28344601 -0.41766354 1.15179962 72 64 65
-0.29405618 -0.38333949 1.07897681 142 98 87
-0.28888846 -0.39204805 1.08326600 144 97 85
-0.29018323 -0.36957314 1.07616219 144 102 88
-0.28117436 -0.37896184 1.08023278 145 101 83
-0.29013672 -0.35004824 1.07351142 141 98 85
-0.28985367 -0.33028273 1.07176125 131 88 79
-0.29026302 -0.30962737 1.07116768 109 72 69
-0.29995688 -0.30003310 1.08288229 65 47 51
-0.28628888 -0.29593647 1.07481813 81 54 55
-0.28981186 -0.29264600 1.08831579 60 49 52
-0.28935897 -0.28933834 1.11012186 61 60 65
-0.29282604 -0.28564680 1.12611005 63 63 69
-0.28591763 -0.26180885 1.11951818 60 60 68
-0.29054590 -0.27087849 1.12245193 62 61 70
-0.28956846 -0.25048747 1.11788258 63 63 69
-0.29031400 -0.22956625 1.11592805 62 63 70
-0.29024004 -0.20965305 1.11288774 62 65 71
-0.28989740 -0.18967704 1.10874559 63 63 71
-0.29051242 -0.16998988 1.10750911 57 59 67
-0.28241425 -0.14184973 1.09959952 43 43 48
-0.29012634 -0.15049441 1.10344741 42 42 46
-0.28960561 -0.12958000 1.09600193 44 43 48
-0.29531412 -0.13894826 1.10045345 45 45 48
-0.28137230 -0.10134610 1.07979774 44 44 50
-0.29020684 -0.11050243 1.08611130 45 45 50
-0.28996928 -0.09042647 1.07317099 47 47 52
-0.29920645 -0.09951434 1.08017313 47 46 53
-0.28975584 -0.06591930 1.05236572 51 51 60
-0.29035532 -0.07661959 1.06329622 50 50 57
-0.29035652 -0.04144889 0.96680832 114 114 120
-0.29012206 -0.04567620 0.98589052 126 129 134
-0.28986337 -0.05022065 1.00871262 85 87 97
-0.28957249 -0.05587059 1.03253058 62 62 70
-0.29002219 -0.02255150 0.91386790 164 165 168
-0.28998268 -0.02933634 0.92857093 131 132 139
-0.28991727 -0.03658687 0.94896232 119 119 127
-0.29008155 -0.00665133 0.89202517 153 154 157
-0.29003192 -0.01686115 0.90449643 140 140 146
-0.28999191 0.01389195 0.87610456 133 135 141
-0.28988380 0.00411118 0.88243528 142 143 145
-0.28993424 0.03036148 0.86843601 135 134 139
-0.29018429 0.05899658 0.85982252 128 127 130
-0.29004588 0.04953227 0.86215715 154 153 153
-0.28996648 0.07007704 0.85758356 152 150 151
-0.29009754 0.09053792 0.85421433 149 146 145
-0.28989894 0.10982239 0.85179675 127 127 130
-0.29007967 0.12973558 0.84983598 142 142 141
-0.28994093 0.14983121 0.84824085 128 128 129
-0.28989265 0.16990425 0.84691549 119 119 122
-0.29005315 0.19048836 0.84578724 112 113 115
-0.29024851 0.21056876 0.84486854 122 123 122
-0.28997875 0.23006900 0.84408330 131 130 130
-0.28974506 0.24956339 0.84340316 115 115 117
-0.28963853 0.26969173 0.84280885 128 128 128
-0.29009144 0.28999839 0.84229247 106 109 112
-0.28993634 0.31021425 0.84184215 118 119 122
-0.29023003 0.33061501 0.84145038 134 135 137
-0.29041976 0.34993448 0.84113516 183 184 178
-0.29033932 0.36945908 0.84090226 193 194 185
-0.29034630 0.38981830 0.84092330 103 103 98
-0.29052354 0.41041634 0.84143624 0 0 0
-0.28995636 0.43001703 0.84155499 0 0 0
-0.28986167 0.44978491 0.84162582 0 0 0
-0.28985541 0.46941282 0.84160767 0 0 0
-0.26944872 -0.60552327 0.90555974 0 0 0
-0.27144523 -0.60145243 1.15210549 89 96 104
-0.26994698 -0.58984955 0.90856801 0 0 0
-0.27066375 -0.58303485 1.10851276 84 103 106
-0.26130882 -0.59697674 1.13876241 90 94 109
-0.26956958 -0.58892678 1.15245014 86 94 100
-0.27004796 -0.56987840 0.91425089 0 0 0
-0.27562396 -0.56756934 1.07557392 72 82 88
-0.26143003 -0.57957854 1.10194135 87 99 101
-0.26955659 -0.56967138 1.15727035 82 90 97
-0.27273371 -0.55737743 0.91880633 0 0 0
-0.26922789 -0.54787313 0.92393434 0 0 0
-0.26054712 -0.54760338 1.03773737 54 68 70
-0.26465164 -0.55242703 1.04687846 61 73 75
-0.26983535 -0.55942257 1.06013536 66 76 80
-0.27150305 -0.55609322 1.15956943 82 86 94
-0.26945496 -0.54616018 1.16088767 79 83 92
-0.27057217 -0.53282712 0.93322729 0 0 0
-0.26920633 -0.52302748 0.94777432 0 0 0
-0.26315553 -0.52022988 0.96555691 0 0 0
-0.26990641 -0.52079559 0.98051198 0 0 0
-0.26952079 -0.53688717 1.01410793 10 11 12
-0.27717103 -0.52182524 1.15984130 75 77 85
-0.27025841 -0.53080249 1.16133004 76 79 89
-0.27554699 -0.51952249 0.95671657 0 0 0
-0.27139154 -0.51904066 0.96772377 0 0 0
-0.26972223 -0.50998675 1.15798577 73 74 81
-0.26972634 -0.48993243 1.15520623 71 71 78
-0.27041486 -0.47015528 1.15317253 67 68 74
-0.27007159 -0.45034934 1.15453009 64 64 68
-0.27033913 -0.42996824 1.15383160 63 64 67
-0.27831689 -0.40336368 1.11234146 121 84 75
-0.27391090 -0.40513772 1.13527964 92 71 69
-0.26810561 -0.41216091 1.15174269 64 62 65
-0.27241236 -0.38716358 1.08717013 138 94 80
-0.26728557 -0.39361605 1.11045425 115 81 76
-0.26428217 -0.39645479 1.13049099 83 66 65
-0.26089444 -0.39777856 1.14705280 71 64 63
-0.27136700 -0.36686568 1.07746348 146 102 87
-0.26824973 -0.37631841 1.08172250 144 98 84
-0.26975168 -0.35045692 1.07336430 140 94 85
-0.27035383 -0.32973379 1.07013069 135 89 79
-0.27002453 -0.30964370 1.06792558 130 88 81
-0.26911386 -0.29125077 1.07035610 98 65 65
-0.27548067 -0.28339779 1.08752405 57 50 53
-0.27828168 -0.28122794 1.10840043 60 59 65
-0.26275292 -0.27769372 1.07539188 65 48 51
-0.26702629 -0.27638156 1.08902841 58 52 56
-0.27001828 -0.27005982 1.11381546 60 60 66
-0.27110723 -0.27017218 1.12330051 60 60 66
-0.26979286 -0.25039098 1.11641296 61 61 67
-0.27055360 -0.23065875 1.11334664 60 60 68
-0.26994703 -0.21056127 1.10989039 60 61 68
-0.27044647 -0.19036338 1.10501408 61 61 68
-0.27027376 -0.17016754 1.10361127 56 57 63
-0.26809337 -0.14538216 1.09847297 39 39 43
-0.27158577 -0.15437857 1.10134636 39 39 42
-0.26998438 -0.12987939 1.09331563 41 40 45
-0.26810959 -0.10212799 1.07877415 42 42 45
-0.27040355 -0.11171345 1.08463428 41 41 47
-0.26992167 -0.09033226 1.07100244 44 44 50
-0.27003815 -0.06734547 1.05251253 47 47 55
-0.27109999 -0.07749077 1.06217030 47 47 51
-0.27028628 -0.04246391 0.97076815 103 107 115
-0.27003769 -0.04673202 0.99031078 100 101 115
-0.27028230 -0.05014481 1.00719342 82 83 93
-0.26939529 -0.05575711 1.03042972 59 58 69
-0.26512855 -0.05995654 1.04163980 60 59 67
-0.27001609 -0.02259661 0.91396727 162 162 164
-0.27023274 -0.02936347 0.92860410 125 126 136
-0.27020430 -0.03658257 0.94885150 112 113 120
-0.27006730 -0.00657189 0.89203051 150 151 156
-0.27010934 -0.01689400 0.90458171 131 133 142
-0.26986724 0.01397090 0.87616010 129 131 138
-0.26993428 0.00408863 0.88255159 135 136 144
-0.27001556 0.03034066 0.86851914 135 136 140
-0.27012968 0.05899838 0.85984872 150 149 149
-0.27006587 0.04943399 0.86222602 151 151 152
-0.26996050 0.06983161 0.85765531 148 147 147
-0.27000182 0.09022891 0.85426742 142 140 140
-0.27003558 0.11011982 0.85176188 124 125 129
-0.26992169 0.12954796 0.84983532 142 142 142
-0.26997592 0.14969714 0.84822235 129 128 129
-0.27014252 0.17026657 0.84686835 126 127 129
-0.27009274 0.19032760 0.84577123 124 125 126
-0.26979600 0.21056212 0.84484198 126 127 128
-0.26970637 0.22994150 0.84406386 123 123 125
-0.27005933 0.24955772 0.84338421 118 119 121
-0.26997411 0.26986503 0.84277205 145 146 144
-0.27042672 0.28998662 0.84225833 125 127 130
-0.27028212 0.31020166 0.84180798 143 144 143
-0.27015826 0.33042025 0.84142223 184 185 179
-0.27005863 0.34992486 0.84111200 195 196 187
-0.26998830 0.36945506 0.84089303 194 195 187
-0.27003586 0.38987383 0.84104205 68 68 65
-0.27017921 0.41044153 0.84148799 0 0 0
-0.27021808 0.43013825 0.84160907 0 0 0
-0.27024156 0.44981506 0.84168223 0 0 0
-0.27023701 0.46944653 0.84166808 0 0 0
-0.24963874 -0.60619401 0.90765072 0 0 0
-0.24995303 -0.58992045 0.91093929 0 0 0
-0.24814466 -0.59297505 1.13215174 91 97 105
-0.25018019 -0.58879912 1.14866498 87 95 100
-0.25072673 -0.57104683 0.91644405 0 0 0
-0.24626365 -0.56202586 0.92075444 0 0 0
-0.24922488 -0.57555706 1.09429538 84 96 104
-0.25909367 -0.57861435 1.10010815 95 96 99
-0.24954683 -0.56960951 1.15565480 84 90 98
-0.24993213 -0.54994585 0.92619950 0 0 0
-0.25386348 -0.54288746 1.02880046 38 58 57
-0.24817327 -0.55435182 1.15899178 82 85 94
-0.25216098 -0.54534476 1.16091370 79 82 94
-0.25086553 -0.53481813 0.93546237 0 0 0
-0.24990577 -0.52538572 0.94904969 0 0 0
-0.24923351 -0.52112371 0.96911600 0 0 0
-0.24743132 -0.52373602 0.98719315 0 0 0
-0.24934209 -0.53418489 1.01066260 16 18 19
-0.24768917 -0.53913673 1.02169263 39 44 47
-0.24420770 -0.52233489 1.15970097 78 81 88
-0.25091770 -0.53113727 1.16129156 77 82 89
-0.25709445 -0.51971612 0.97373871 0 0 0
-0.24966539 -0.50989874 1.15778567 73 76 83
-0.25018952 -0.48922189 1.15401584 73 73 80
-0.25035987 -0.46967304 1.15073085 67 69 75
-0.25006505 -0.44996132 1.15061904 65 66 71
-0.25027674 -0.42994191 1.15210052 64 64 68
-0.25010306 -0.41027936 1.15059141 62 62 66
-0.25825560 -0.38124021 1.09393378 123 81 78
-0.25799414 -0.38618916 1.11179864 101 75 74
-0.25192911 -0.38438330 1.13120942 81 64 64
-0.24801546 -0.39257370 1.14525693 66 61 66
-0.25607806 -0.36314706 1.07889346 143 100 80
-0.25111304 -0.36873557 1.08545132 135 88 77
-0.24803883 -0.37427953 1.10595769 112 74 71
-0.24375518 -0.37590882 1.12863266 77 64 64
-0.24099906 -0.37906201 1.14045322 64 63 63
-0.25052169 -0.34903294 1.07525114 141 97 83
-0.24305813 -0.35722217 1.08205942 138 89 78
-0.25023846 -0.33049213 1.06993150 137 90 81
-0.24960846 -0.31048056 1.06666747 136 91 81
-0.25013171 -0.28980994 1.06562049 121 82 75
-0.24856318 -0.27188258 1.06872517 77 53 56
-0.25143909 -0.26586539 1.08822100 58 54 58
-0.25203958 -0.26415771 1.11208261 64 64 70
-0.25702525 -0.26430682 1.12190262 64 64 69
-0.24163742 -0.25866995 1.09000107 64 60 67
-0.25004019 -0.25025423 1.11512706 64 65 70
-0.24982904 -0.22988756 1.11123228 64 65 71
-0.25010842 -0.21002506 1.10660201 64 63 70
-0.24408619 -0.18516666 1.09931267 65 64 71
-0.25202359 -0.19118323 1.10181199 63 63 70
-0.24576633 -0.16965008 1.09888006 58 59 66
-0.25535578 -0.17042156 1.10097896 57 58 65
-0.24936025 -0.14932449 1.09636029 42 41 45
-0.25851125 -0.15779201 1.10032670 42 42 44
-0.25007464 -0.12986033 1.09067556 43 42 46
-0.24943243 -0.10353587 1.07803035 43 43 47
-0.25037302 -0.11350609 1.08342124 42 42 46
-0.24997019 -0.09020822 1.06922537 44 44 51
-0.24989101 -0.06875605 1.05234207 47 47 53
-0.24999026 -0.07852643 1.06145067 47 46 52
-0.25000785 -0.04243947 0.97021305 100 100 111
-0.24876173 -0.04737856 0.99256710 93 92 105
-0.25152569 -0.05032176 1.00686915 77 77 85
-0.24890748 -0.05602339 1.02982938 59 58 67
-0.25312239 -0.05988459 1.04038991 56 58 67
-0.24999679 -0.02259560 0.91393116 152 152 154
-0.25013320 -0.02941596 0.92862132 130 131 140
-0.25044472 -0.03657100 0.94855246 112 113 122
-0.25005533 -0.00665279 0.89223348 152 152 155
-0.24999139 -0.01687923 0.90460999 127 128 138
-0.24983687 0.01390252 0.87632617 128 131 138
-0.24997933 0.00411211 0.88263510 130 131 139
-0.25003995 0.03027615 0.86863470 137 138 143
-0.25007627 0.05900074 0.85988323 138 136 137
-0.25002606 0.04946959 0.86227557 151 151 151
-0.24990749 0.07012994 0.85762290 145 144 145
-0.25007874 0.09048362 0.85423901 139 137 137
-0.24992589 0.10996804 0.85177254 128 129 131
-0.24998056 0.12945236 0.84983703 130 130 132
-0.25018994 0.14994608 0.84818124 119 120 123
-0.24994580 0.17007827 0.84685171 126 127 129
-0.24966917 0.19027399 0.84574945 113 114 117
-0.25007562 0.21055614 0.84481790 117 118 119
-0.25002198 0.23018314 0.84403518 112 114 117
-0.25037049 0.24954813 0.84335183 133 134 133
-0.25019142 0.26976256 0.84274868 117 119 121
-0.25003713 0.28997650 0.84222893 141 142 142
-0.24990263 0.31018985 0.84177592 191 192 185
-0.24979014 0.33041038 0.84139705 192 192 185
-0.24970072 0.34991818 0.84109590 193 193 186
-0.24964005 0.36945447 0.84089162 195 195 187
-0.24972065 0.38993040 0.84116372 33 33 32
-0.24983199 0.41046612 0.84153845 0 0 0
-0.24986858 0.43016517 0.84166174 0 0 0
-0.24989080 0.44984413 0.84173661 0 0 0
-0.24988723 0.46947804 0.84172457 0 0 0
-0.22984256 -0.60693535 0.90993651 0 0 0
-0.22990954 -0.59000009 0.91347525 0 0 0
-0.23734352 -0.58401776 1.11404252 84 91 98
-0.22785749 -0.58935682 1.13537960 88 96 98
-0.23173111 -0.58485547 1.14712508 88 93 101
-0.23129400 -0.57444918 0.91775355 0 0 0
-0.22878707 -0.56481367 0.92211500 0 0 0
-0.22824038 -0.56346985 1.07131422 73 74 85
-0.23037678 -0.57011451 1.08573255 85 93 98
-0.23317482 -0.57845297 1.10342741 87 94 100
-0.22988301 -0.56974283 1.15473512 85 91 97
-0.22997290 -0.54993448 0.92957857 0 0 0
-0.22358548 -0.55649278 1.05804884 64 69 74
-0.22965321 -0.55071329 1.15888061 82 87 94
-0.23591398 -0.54082406 1.16028096 78 83 92
-0.23155502 -0.53716225 0.93744129 0 0 0
-0.22983033 -0.52900172 0.94870867 0 0 0
-0.22986688 -0.52353168 0.96842217 0 0 0
-0.22934281 -0.52480051 0.98685417 0 0 0
-0.22901533 -0.53265498 1.00940937 9 10 11
-0.22698839 -0.52707783 1.15928792 78 80 88
-0.23255099 -0.53360217 1.16038461 79 81 89
-0.22965631 -0.51029554 1.15691270 75 77 85
-0.23056745 -0.48986391 1.15332373 72 74 81
-0.22965471 -0.46956947 1.14890206 70 70 76
-0.22970453 -0.45003448 1.14802392 66 67 72
-0.23017306 -0.43002546 1.14923761 63 65 70
-0.22988805 -0.41056637 1.15022261 63 62 69
-0.22971975 -0.39024288 1.14661967 63 62 66
-0.23864990 -0.36158519 1.09355879 121 83 76
-0.23571808 -0.36413194 1.11440066 93 65 67
-0.22980024 -0.36586938 1.13656584 69 61 63
-0.22849699 -0.37376061 1.14210464 63 62 63
-0.23480463 -0.34416641 1.07772810 140 90 84
-0.23099162 -0.34969224 1.08511524 127 80 76
-0.22620412 -0.35352789 1.10929076 96 65 64
-0.22487733 -0.35797032 1.13168265 74 60 61
-0.22230501 -0.35822404 1.14315873 68 60 61
-0.23004793 -0.32942184 1.07213015 139 93 84
-0.22179142 -0.33858923 1.08049202 127 84 80
-0.22995850 -0.30961884 1.06644836 139 94 84
-0.23001129 -0.28976476 1.06237580 133 91 82
-0.22088877 -0.27469219 1.05973334 122 82 79
-0.23075736 -0.26962448 1.06261997 100 67 67
-0.22696328 -0.25477861 1.06936548 69 53 53
-0.23003912 -0.25047834 1.08963139 65 62 67
-0.23256208 -0.24543697 1.11013209 68 69 73
-0.22945120 -0.22972012 1.10886440 69 69 75
-0.22586254 -0.20210687 1.09905501 70 70 75
-0.23098018 -0.21091079 1.10365212 68 68 75
-0.22984526 -0.18971494 1.09695353 69 69 76
-0.23821532 -0.19835605 1.10028172 67 67 74
-0.23059006 -0.17006184 1.09564715 64 64 71
-0.23013329 -0.15028993 1.09244314 44 44 48
-0.22982989 -0.12993642 1.08716591 45 45 48
-0.22882262 -0.10514132 1.07751171 45 45 50
-0.23108734 -0.11435572 1.08196950 46 46 48
-0.23007392 -0.09007649 1.06818325 47 46 52
-0.23010394 -0.06877646 1.05233883 50 50 56
-0.22970337 -0.07849036 1.06096404 51 51 55
-0.22987251 -0.04243735 0.97016455 101 101 109
-0.23032875 -0.04774102 0.99418072 92 92 104
-0.23015391 -0.05118337 1.01060872 59 60 71
-0.23048401 -0.05637551 1.03025585 59 60 67
-0.22433774 -0.05988158 1.04033747 64 64 69
-0.23021910 -0.02259264 0.91380456 144 144 149
-0.23004989 -0.02935613 0.92837290 129 130 139
-0.23020355 -0.03651967 0.94834256 118 118 123
-0.23002554 -0.00665326 0.89230383 136 137 142
-0.22985368 -0.01689415 0.90459593 127 127 135
-0.22998267 0.01391839 0.87641754 135 136 140
-0.23001944 0.00411263 0.88273072 129 130 137
-0.22995653 0.03037742 0.86867236 143 143 146
-0.23002332 0.05900363 0.85992527 112 111 120
-0.23004892 0.04954628 0.86232168 148 149 150
-0.22994788 0.06980257 0.85770771 140 138 140
-0.22998396 0.09035399 0.85425800 144 144 143
-0.22998981 0.10991582 0.85177088 128 129 131
-0.23015552 0.12963425 0.84980528 131 132 132
-0.22981325 0.14982016 0.84817847 124 124 127
-0.22996093 0.16991772 0.84683613 123 124 126
-0.22993181 0.19036621 0.84571222 115 116 118
-0.23035699 0.21055074 0.84479618 113 114 116
-0.23014339 0.23004980 0.84401275 120 121 124
-0.22995672 0.24954116 0.84332823 125 126 128
-0.22979204 0.26975473 0.84272425 145 146 146
-0.22964945 0.28996700 0.84220134 193 193 185
-0.22952726 0.31018152 0.84175328 195 196 187
-0.23004251 0.33030969 0.84138214 197 197 189
-0.23007226 0.34991423 0.84108637 193 194 186
-0.23001908 0.36945465 0.84089197 194 194 187
-0.22995498 0.39010539 0.84126191 4 4 4
-0.22948115 0.41048868 0.84158467 0 0 0
-0.22951599 0.43019109 0.84171244 0 0 0
-0.22953655 0.44987151 0.84178784 0 0 0
-0.22953375 0.46950762 0.84177759 0 0 0
-0.20993904 -0.60766841 0.91221652 0 0 0
-0.20986171 -0.58998355 0.91605046 0 0 0
-0.20694756 -0.58323188 1.11622366 87 96 102
-0.20986037 -0.58565839 1.13353228 89 94 101
-0.21139167 -0.58187068 1.14492997 87 93 100
-0.21376474 -0.57735865 0.91906399 0 0 0
-0.20921317 -0.56807754 0.92353585 0 0 0
-0.21487891 -0.56297947 1.07391095 88 98 100
-0.21014448 -0.57001788 1.15189493 86 90 99
-0.21015620 -0.55012976 0.93294824 0 0 0
-0.20296595 -0.54075639 0.94069013 0 0 0
-0.21125824 -0.54356997 1.03347895 60 69 73
-0.21887769 -0.54926792 1.04431236 64 73 71
-0.20476054 -0.55817347 1.06474328 88 96 105
-0.20940674 -0.55031705 1.15774472 82 88 93
-0.21568992 -0.53898164 0.93925686 0 0 0
-0.21008453 -0.53266244 0.94876935 0 0 0
-0.20984473 -0.52591746 0.96871500 0 0 0
-0.20945418 -0.52649276 0.98903001 0 0 0
-0.20985991 -0.53053888 1.00539925 0 0 0
-0.20300387 -0.53828354 1.02342796 54 61 64
-0.20991332 -0.53032919 1.15788428 78 83 89
-0.20961562 -0.51002645 1.15454814 74 80 86
-0.21042402 -0.49004178 1.15109463 73 76 82
-0.20991040 -0.46987716 1.14686466 71 73 79
-0.20926214 -0.44977543 1.14604156 67 69 74
-0.20968132 -0.42982342 1.14704295 65 65 71
-0.20990719 -0.41043867 1.14827220 64 65 70
-0.20977189 -0.39034757 1.14754820 64 64 68
-0.21918524 -0.36110584 1.13977289 64 61 62
-0.20952490 -0.37006651 1.14433840 62 62 66
-0.21908620 -0.34165090 1.09026229 122 80 74
-0.21646300 -0.34324660 1.11071394 97 66 62
-0.20887555 -0.34970404 1.13786085 67 60 64
-0.21041915 -0.35360250 1.14232337 66 60 64
-0.21388540 -0.32612452 1.07550526 133 86 78
-0.20965942 -0.33093449 1.08750476 121 77 73
-0.20687324 -0.33424417 1.11585934 93 65 64
-0.20289905 -0.33553763 1.13385687 76 62 61
-0.20375353 -0.33801046 1.14161253 71 62 62
-0.21010530 -0.30971237 1.06957095 141 93 82
-0.20983772 -0.28981222 1.06253303 137 92 84
-0.20916262 -0.27053507 1.05881253 124 81 74
-0.21647650 -0.26271640 1.06068500 110 74 72
-0.20678081 -0.25083915 1.05828185 98 67 66
-0.21484559 -0.24795460 1.06499123 73 55 55
-0.21814261 -0.24189821 1.08745320 69 66 70
-0.21943476 -0.24045412 1.10147095 71 71 77
-0.20200105 -0.23871609 1.05994093 74 55 55
-0.20467842 -0.23644108 1.06983466 62 51 55
-0.20887443 -0.23532251 1.09009593 71 70 76
-0.21117053 -0.22843328 1.10622115 72 71 79
-0.20850130 -0.20565529 1.09756387 72 72 79
-0.21112254 -0.21504889 1.10230764 72 72 78
-0.20994644 -0.18999438 1.09335895 72 72 79
-0.20985034 -0.17024476 1.09136966 69 70 76
-0.21014544 -0.15005376 1.08784118 46 45 49
-0.20159751 -0.12188285 1.07985902 48 44 50
-0.21022497 -0.12995849 1.08333031 46 45 48
-0.20926576 -0.10859211 1.07693289 45 45 51
-0.21562053 -0.11700333 1.08075865 47 46 48
-0.21002291 -0.09006510 1.06766339 47 47 53
-0.21011825 -0.06878801 1.05299443 51 51 59
-0.20958780 -0.07851182 1.06125484 53 52 56
-0.20958873 -0.04240363 0.97042573 106 106 114
-0.21004537 -0.04671423 0.98993375 94 95 105
-0.21051625 -0.05006065 1.00626189 78 79 90
-0.21010696 -0.05563829 1.02920388 60 60 67
-0.21008474 -0.05991934 1.04099363 60 62 71
-0.20996801 -0.02259458 0.91388657 134 133 141
-0.21002559 -0.02933461 0.92847115 138 138 144
-0.20980759 -0.03663400 0.94903218 114 115 124
-0.20999299 -0.00665386 0.89237667 130 133 139
-0.20993542 -0.01689534 0.90466890 132 132 143
-0.21002265 0.01395499 0.87646735 143 143 146
-0.20989981 0.00413603 0.88279452 124 124 132
-0.20996820 0.03028075 0.86876857 147 146 150
-0.20996625 0.05900591 0.85995853 126 124 130
-0.21005964 0.04936708 0.86241651 145 145 146
-0.20994591 0.07011294 0.85766300 132 133 136
-0.20999700 0.09030259 0.85426860 146 145 145
-0.21011753 0.11001397 0.85175025 131 132 135
-0.20978957 0.12945296 0.84980802 123 124 128
-0.21001923 0.14981807 0.84816672 123 124 127
-0.21021661 0.17022225 0.84680923 118 119 122
-0.21013825 0.19031069 0.84569587 116 117 120
-0.20990956 0.21054552 0.84477537 119 120 123
-0.20971377 0.23004292 0.84398746 136 136 137
-0.20959415 0.24948735 0.84331057 158 158 158
-0.21012233 0.26974723 0.84270080 197 197 189
-0.20999300 0.28996040 0.84218215 196 196 188
-0.20988249 0.31017625 0.84173897 198 198 190
-0.21041915 0.33048817 0.84136600 198 199 190
-0.21044477 0.34991114 0.84107890 199 199 190
-0.21039877 0.36945613 0.84089524 167 168 161
-0.21036563 0.38989237 0.84135088 0 0 0
-0.21000652 0.41001876 0.84162979 0 0 0
-0.20974054 0.42970054 0.84176014 0 0 0
-0.20990683 0.44989780 0.84183702 0 0 0
-0.20990499 0.46953666 0.84182966 0 0 0
-0.18994530 -0.60825290 0.91436672 0 0 0
-0.19104978 -0.59210170 0.91790507 0 0 0
-0.18626619 -0.58312195 0.92091681 0 0 0
-0.18642995 -0.58187499 1.11670814 92 97 104
-0.19029718 -0.58326298 1.13199043 90 97 103
-0.19534814 -0.58047897 1.14245033 87 95 100
-0.19003404 -0.56991078 0.92564725 0 0 0
-0.18481151 -0.57145942 1.09369284 94 97 105
-0.19326977 -0.57697183 1.10424280 91 95 108
-0.18387836 -0.57940317 1.13826723 91 97 99
-0.18996033 -0.57009830 1.14866866 86 94 99
-0.19062447 -0.55244293 0.93501571 0 0 0
-0.18819623 -0.54269849 0.94224968 0 0 0
-0.18669784 -0.55370918 1.05622743 91 94 109
-0.19676647 -0.55639301 1.06134697 83 95 105
-0.18971498 -0.55019109 1.15582090 85 89 93
-0.19058353 -0.53480745 0.95109877 0 0 0
-0.18985050 -0.52843548 0.96935908 0 0 0
-0.18989711 -0.52788451 0.98997971 0 0 0
-0.18962027 -0.53194043 1.00925831 18 20 23
-0.18927715 -0.53045554 1.15540912 80 86 91
-0.19059221 -0.51011186 1.15209760 77 82 87
-0.19018297 -0.49005677 1.14858421 75 77 82
-0.18936734 -0.46990279 1.14513340 73 74 81
-0.18956083 -0.44994284 1.14527062 70 72 77
-0.18971178 -0.42950152 1.14618123 69 70 73
-0.18981571 -0.40991430 1.14680336 66 67 72
-0.18968949 -0.38983221 1.14603559 66 65 69
-0.18945613 -0.36957452 1.14463659 64 64 68
-0.19083230 -0.34406309 1.13819749 64 62 67
-0.18984601 -0.35379773 1.14149116 63 63 67
-0.19892915 -0.32243367 1.09862238 116 76 73
-0.19672426 -0.32063414 1.10222816 115 73 74
-0.18914736 -0.33036500 1.13442586 67 63 65
-0.18784759 -0.32446134 1.14485312 69 63 64
-0.19320998 -0.30649230 1.07285788 134 86 78
-0.18925763 -0.31049461 1.08677344 122 79 74
-0.18756147 -0.31364023 1.10930945 104 70 67
-0.18276430 -0.31529444 1.13019121 77 63 65
-0.19028279 -0.29023704 1.06528936 140 94 86
-0.19103004 -0.26899156 1.05754641 132 86 80
-0.18540191 -0.27824615 1.06071258 139 95 88
-0.19021821 -0.25051839 1.05595312 116 77 74
-0.18826128 -0.23544000 1.05699607 93 61 63
-0.19024523 -0.22785736 1.06746734 66 50 55
-0.19194311 -0.22369666 1.08971781 70 69 80
-0.19745919 -0.22443168 1.10277891 70 72 81
-0.18099044 -0.21921167 1.07663065 65 54 65
-0.18961663 -0.20927400 1.09426510 72 72 80
-0.19700381 -0.21773757 1.10074636 71 72 81
-0.18989030 -0.18996564 1.09030718 73 73 82
-0.18979585 -0.16981965 1.08790164 72 72 78
-0.18990380 -0.14991029 1.08391317 47 46 51
-0.18759277 -0.12687710 1.07866305 46 44 50
-0.19287167 -0.13459551 1.08110812 47 45 50
-0.19000033 -0.11018938 1.07494027 46 46 50
-0.19003377 -0.08977946 1.06668655 48 47 54
-0.19018129 -0.06877171 1.05339581 52 52 58
-0.18942645 -0.07851781 1.06133650 52 52 56
-0.18979374 -0.04241629 0.97080813 110 110 118
-0.18960077 -0.04673544 0.99038330 95 97 107
-0.19018029 -0.05013945 1.00708494 78 79 88
-0.19008100 -0.05574005 1.03012631 59 59 66
-0.18946245 -0.05994146 1.04137779 63 65 69
-0.19000968 -0.02260046 0.91412658 128 129 140
-0.18988613 -0.02940303 0.92901165 139 141 148
-0.18993650 -0.03660079 0.94932310 111 111 122
-0.19005094 -0.00662802 0.89245807 133 135 141
-0.19003596 -0.01689882 0.90484586 134 134 145
-0.18996497 0.01401244 0.87649938 146 146 148
-0.18977881 0.00415940 0.88286381 137 138 144
-0.19003041 0.03041010 0.86877961 141 140 144
-0.18990598 0.05900768 0.85998435 134 136 138
-0.19001524 0.04963772 0.86238917 139 139 142
-0.18998210 0.06983198 0.85773572 131 132 136
-0.19006878 0.09040323 0.85425827 138 138 139
-0.18994606 0.10979052 0.85176635 122 123 127
-0.18996645 0.12963451 0.84977528 122 123 126
-0.19022500 0.14981539 0.84815154 119 120 123
-0.18992297 0.17006889 0.84680485 117 118 123
-0.18967067 0.19030706 0.84567994 126 127 128
-0.18992169 0.21036676 0.84476301 123 124 125
-0.19001653 0.23003815 0.84397001 165 166 163
-0.18991816 0.24958028 0.84328553 195 195 187
-0.19045538 0.26974206 0.84268463 198 198 189
-0.19033914 0.28995634 0.84217034 198 198 189
-0.19023918 0.31017222 0.84172805 200 199 190
-0.19015517 0.33039442 0.84135636 200 200 190
-0.19009123 0.34990890 0.84107348 191 189 185
-0.19005819 0.36947076 0.84092782 134 134 130
-0.19017513 0.39006027 0.84144556 0 0 0
-0.19022928 0.40981014 0.84168489 0 0 0
-0.19025865 0.42951594 0.84181483 0 0 0
-0.19027593 0.44992680 0.84189129 0 0 0
-0.19027456 0.46956767 0.84188525 0 0 0
-0.16974330 -0.60885798 0.91638073 0 0 0
-0.17266054 -0.59635404 0.91897684 0 0 0
-0.16883422 -0.58693980 0.92204998 0 0 0
-0.17211916 -0.58097816 1.11560071 93 98 101
-0.17022519 -0.58237718 1.12797392 94 98 103
-0.17000490 -0.56997587 0.92865478 0 0 0
-0.17007314 -0.56646059 1.08412577 93 100 101
-0.16209085 -0.57960417 1.11296237 92 99 105
-0.16820129 -0.57704217 1.13562529 91 99 100
-0.17081250 -0.56735858 1.14464006 90 95 101
-0.17089342 -0.55528648 0.93665249 0 0 0
-0.16934621 -0.54534699 0.94425171 0 0 0
-0.16947850 -0.54820656 1.04573091 90 100 99
-0.16984543 -0.55064964 1.15183455 87 93 98
