ply
format ascii 1.0
element vertex 1073
property float x
property float y
property float z
property uchar red
property uchar green
property uchar blue
end_header
-0.53261810 -0.61687127 1.33127535 108 67 62
-0.52538751 -0.52472224 1.41242485 105 75 73
-0.52502743 -0.53250517 1.42215208 117 79 72
-0.52167883 -0.51040902 1.31459415 80 57 57
-0.52817141 -0.50797965 1.33288134 63 51 53
-0.53566084 -0.50644426 1.34674119 48 47 50
-0.52450784 -0.51092639 1.39675645 93 67 67
-0.52627948 -0.51668124 1.40324461 99 69 69
-0.53865099 -0.48796758 1.17485583 46 47 57
-0.52789010 -0.48764670 1.33838665 49 46 50
-0.53117118 -0.48855399 1.34634057 46 46 51
-0.52858482 -0.48164256 1.36983897 46 45 52
-0.52412799 -0.49505451 1.38723071 57 53 54
-0.53226038 -0.46729239 1.02995753 61 67 91
-0.53318727 -0.47654998 1.33970726 44 45 52
-0.52890135 -0.47334231 1.35174882 46 46 52
-0.53228991 -0.47772381 1.36511979 46 45 52
-0.53061152 -0.45863501 1.03128094 58 61 75
-0.52225047 -0.45757252 1.33838600 46 47 51
-0.52390201 0.39172710 1.21027173 94 96 98
-0.52785336 0.39539181 1.22702357 97 100 103
-0.52854228 0.40324768 1.21704102 96 97 99
-0.52930451 0.40539125 1.22893024 86 86 88
-0.51050427 -0.52433879 1.41702577 121 83 76
-0.50854964 -0.52569458 1.42235112 126 85 77
-0.50562137 -0.50122356 1.29864335 95 62 60
-0.51412925 -0.50335046 1.30944552 85 59 60
-0.51677591 -0.50088108 1.32142663 79 58 61
-0.50830856 -0.51086608 1.41156411 120 83 75
-0.50583198 -0.51821377 1.42115688 127 85 75
-0.50161546 -0.49296220 1.29641241 92 64 63
-0.50681299 -0.48894353 1.30750843 79 56 56
-0.51612904 -0.48882996 1.32993981 57 50 52
-0.51800197 -0.48097387 1.34236014 47 48 50
-0.51395728 -0.48611094 1.37287551 67 54 58
-0.50413890 -0.48537523 1.38912761 95 68 70
-0.50537524 -0.49700093 1.40060294 119 76 76
-0.50290767 -0.47578145 1.31205960 58 50 52
-0.51376784 -0.47229837 1.33498807 48 48 52
-0.51007764 -0.46822959 1.35053690 49 48 53
-0.50883174 -0.47551778 1.36443045 56 51 55
-0.50038254 -0.47656807 1.38345277 89 64 66
-0.51421737 -0.45499942 1.33591909 47 47 52
-0.50706807 -0.45665488 1.34885063 49 49 53
-0.50328535 0.37954581 1.20193589 127 128 129
-0.50552037 0.39246343 1.19698779 86 87 89
-0.51023418 0.39073860 1.21004363 101 102 105
-0.50836238 0.38900947 1.22712467 106 105 108
-0.50963928 0.40744639 1.21003748 94 94 96
-0.51778013 0.40892312 1.22142673 90 84 88
-0.49621826 -0.52224356 1.41522801 132 89 81
-0.49540758 -0.52012295 1.42414248 129 85 78
-0.49504652 -0.51403817 1.41416433 131 89 79
-0.49314080 -0.51657623 1.42115688 138 94 87
-0.49677362 -0.49032419 1.29179916 95 64 62
-0.49900976 -0.48712698 1.38628185 115 72 78
-0.49888757 -0.47877759 1.29864335 79 53 55
-0.49743053 -0.47498986 1.30364299 73 53 56
-0.49484844 -0.46312379 1.35226141 62 53 58
-0.49785633 -0.47187467 1.37156326 81 62 64
-0.49918661 -0.46939649 1.38345850 69 54 59
-0.48919132 -0.44992086 1.33970726 48 50 56
-0.49587097 -0.45786808 1.34949442 48 48 55
-0.48469953 0.38562568 1.16996530 96 99 101
-0.49502906 0.38774839 1.19205920 90 91 93
-0.49307646 0.38314622 1.21001258 96 93 99
-0.49855599 0.40233511 1.19557643 110 112 113
-0.47651669 -0.44034809 1.31120276 51 51 55
-0.46395317 -0.42322175 1.27663243 50 50 58
-0.47015104 -0.43222952 1.29368675 52 52 58
-0.46004149 0.35945752 1.15091991 120 121 125
-0.46190600 0.37816033 1.13835824 104 107 108
-0.46465431 0.37348324 1.15037456 112 113 117
-0.47317973 0.37312523 1.16780454 106 106 109
-0.47548956 0.37197679 1.18444586 107 109 113
-0.47199674 0.38119355 1.15289328 103 107 111
-0.45054564 -0.42020088 1.25768435 66 57 59
-0.45829430 -0.42334256 1.26708758 55 54 59
-0.44878388 -0.40758651 1.25343013 53 52 60
-0.45572272 -0.41343942 1.26169804 51 50 59
-0.44748162 -0.39670139 1.25212963 54 53 61
-0.45658743 -0.39994687 1.26236844 54 52 65
-0.44199255 -0.34618089 1.54154062 73 73 77
-0.44560318 -0.32845093 1.53222832 73 75 78
-0.44840707 -0.33703121 1.54183308 72 73 80
-0.44105037 -0.31926729 1.51654416 73 74 78
-0.44303039 -0.31675404 1.52335250 73 77 80
-0.45159821 0.21578658 1.11771196 126 126 127
-0.44691703 0.21463447 1.12899736 118 120 120
-0.44498692 0.22416547 1.13022840 126 127 129
-0.45267242 0.35523570 1.13740242 109 111 115
-0.45782868 0.35691584 1.14703163 118 119 122
-0.44947563 0.36953173 1.13209135 116 116 119
-0.45155224 0.36969415 1.14643195 124 124 126
-0.45010704 0.38088986 1.12606621 91 97 99
-0.43807636 -0.40295224 1.23479205 52 51 58
-0.43887092 -0.39833132 1.23703166 53 52 59
-0.42931718 -0.34444746 1.53647416 66 67 71
-0.42487041 -0.34758325 1.54417847 65 65 71
-0.42739623 -0.32403684 1.51553314 71 72 75
-0.43154604 -0.33256986 1.52974945 70 71 75
-0.42871433 -0.31564391 1.51174818 71 71 76
-0.42973102 0.20521362 1.11574864 108 111 114
-0.42986789 0.21400651 1.12515205 116 116 119
-0.42601769 0.22533118 1.11125460 114 114 120
-0.43011609 0.22323361 1.12360270 114 115 118
-0.43940246 0.36776294 1.13359845 112 112 114
-0.40259761 -0.53029922 1.25729616 72 66 69
-0.40771008 -0.53370234 1.26134244 71 67 69
-0.40126212 -0.51862738 1.25651979 93 71 69
-0.40129262 -0.51680714 1.26002204 119 78 71
-0.40840188 -0.42180574 1.19581694 131 86 79
-0.41807386 -0.42337195 1.20783353 129 82 83
-0.40662464 -0.41193157 1.19395783 127 82 81
-0.41453672 -0.40766479 1.20765690 119 75 78
-0.40196049 -0.38166642 1.17894232 92 53 55
-0.40669566 -0.39279723 1.19065755 99 69 64
-0.40277535 -0.35654019 1.14833883 57 59 66
-0.41714762 -0.34896585 1.54946911 65 64 72
-0.41801984 -0.32383673 1.51541324 68 70 74
-0.41933349 -0.32991901 1.52335250 66 68 71
-0.41673773 -0.31427954 1.50866302 69 70 73
-0.40384170 0.19436658 1.09340625 128 125 127
-0.40851736 0.19891083 1.10181728 110 106 110
-0.41346064 0.20739679 1.11314194 126 126 128
-0.41793182 0.21276210 1.12213271 122 123 125
-0.41637644 0.22635670 1.09869015 129 130 134
-0.41568479 0.22746134 1.10565007 117 117 121
-0.41595121 0.22321380 1.12187573 117 118 126
-0.39693692 -0.54076344 1.26002204 66 66 70
-0.39216476 -0.52901828 1.25501408 67 65 71
-0.39360848 -0.53330646 1.26041311 66 66 70
-0.38543055 -0.50503401 1.23478389 75 69 65
-0.39247215 -0.51324974 1.24909589 89 74 69
-0.39040595 -0.49973586 1.23929036 130 94 72
-0.39869223 -0.40447896 1.18674799 129 86 76
-0.38697845 -0.38272541 1.15648808 113 78 64
-0.39523636 -0.38737702 1.16894457 113 76 66
-0.39722905 -0.39731231 1.18305731 124 85 73
-0.38188517 -0.36358606 1.13931406 80 54 57
-0.38881100 -0.36965988 1.15126274 84 60 60
-0.39578193 -0.37474586 1.16377056 84 52 55
-0.38734155 -0.35371836 1.13696571 60 58 61
-0.39253064 -0.35555198 1.14356155 60 61 64
-0.39788881 0.18787576 1.07944560 135 135 135
-0.37686491 -0.52020496 1.23702896 65 65 72
-0.36848649 -0.36728244 1.13285311 110 73 71
-0.37598083 -0.37539888 1.14652328 115 77 73
-0.36013001 -0.35827529 1.11863339 104 70 71
-0.37323792 -0.35781137 1.13128130 83 56 58
-0.36484873 0.17180981 0.75079432 81 82 84
-0.36328855 0.17976038 0.76082134 101 100 109
-0.36075887 0.18177837 0.75826830 109 108 110
-0.36616576 0.18449839 0.76684695 95 93 100
-0.36492456 0.29357272 1.33794907 104 105 110
-0.37138104 0.29445854 1.34312110 90 91 98
-0.36076209 0.30932844 1.31885576 133 133 129
-0.36349448 0.30831479 1.32979251 127 126 125
-0.36172011 0.30694259 1.34502705 115 116 117
-0.34611356 -0.36992836 1.09869015 133 92 79
-0.34756823 -0.36998841 1.11320547 131 89 79
-0.35557651 -0.36808039 1.12458417 124 82 77
-0.35351669 -0.35524125 1.11000998 107 71 71
-0.34940070 -0.35819462 1.12140989 116 76 73
-0.35586572 0.15920594 0.75071079 142 143 143
-0.34377510 0.17118673 0.73782817 128 127 126
-0.35107941 0.16817910 0.74639010 124 123 122
-0.35995361 0.18006493 0.75657570 111 111 116
-0.35028557 0.29211723 1.33683431 126 126 128
-0.35625103 0.29433053 1.34405501 123 123 126
-0.34518240 0.30937657 1.30818536 108 108 112
-0.35156569 0.30699112 1.33350326 91 92 97
-0.35676315 0.30454093 1.34502563 108 110 113
-0.34049974 0.32234994 1.30238706 110 111 115
-0.33188054 -0.46052006 1.43015158 144 100 84
-0.32346862 -0.44562523 1.39388839 139 96 80
-0.32557143 -0.45368402 1.41083708 141 97 82
-0.33118182 -0.45708385 1.42714071 140 95 85
-0.32104361 -0.43591791 1.38345277 140 92 81
-0.32591096 -0.36868033 1.09780127 144 96 93
-0.33456756 -0.36949503 1.10943427 137 93 86
-0.32842321 -0.36523609 1.12988890 137 95 82
-0.32114601 -0.37070641 1.14508760 142 97 82
-0.32146066 -0.34860796 1.11863339 123 83 78
-0.32654557 -0.35487832 1.12734872 127 85 78
-0.32520531 0.05893245 0.61147875 132 132 133
-0.32488500 0.06835207 0.61653238 148 148 146
-0.33251129 0.07507641 0.62248072 145 145 143
-0.33845718 0.16818941 0.74452725 135 135 134
-0.32150805 0.26903245 0.77220619 112 110 109
-0.33196169 0.28528883 1.31311846 130 131 131
-0.33754169 0.28822454 1.32315060 134 134 135
-0.32416189 0.30800853 1.26925156 115 117 121
-0.33470036 0.31274885 1.29157172 121 122 125
-0.33812284 0.30586836 1.30687455 110 110 117
-0.33394849 0.32237609 1.29616787 107 107 118
-0.33857360 0.32378513 1.30363810 109 108 117
-0.32610331 0.35079554 0.97199951 123 122 123
-0.32923349 0.34513387 0.98743123 102 104 111
-0.33065970 0.36128759 0.97619226 112 115 119
-0.32310961 0.36237067 0.99034655 133 134 134
-0.30056256 -0.44477478 1.35578370 134 89 78
-0.30346963 -0.44342855 1.37157166 138 90 85
-0.31187705 -0.44773326 1.38718270 140 95 83
-0.31841889 -0.45193894 1.40350282 139 96 81
-0.30253719 -0.44244669 1.43166333 141 92 90
-0.30939192 -0.42096800 1.05755353 61 61 64
-0.31084672 -0.42111096 1.06252635 66 63 64
-0.30340946 -0.42246283 1.25153323 146 104 85
-0.30827844 -0.42334406 1.26709193 149 104 89
-0.30830175 -0.43088461 1.37605201 140 96 83
-0.30842166 -0.43470340 1.38499969 140 94 83
-0.30348156 -0.43677379 1.40546417 140 94 88
-0.30260783 -0.43026690 1.43320709 139 96 83
-0.30354331 -0.42579882 1.44232309 139 97 85
-0.30650079 -0.41357001 1.05253587 95 76 71
-0.31040552 -0.41562819 1.06352930 112 84 76
-0.30188906 -0.41795106 1.25420368 146 103 85
-0.31743571 -0.36267979 1.13188414 139 97 83
-0.30953591 -0.34647229 1.11679311 130 88 80
-0.31355587 -0.35527403 1.12704833 135 93 84
-0.31612321 0.05884143 0.61366534 120 121 126
-0.31597122 0.06287205 0.61364202 143 142 143
-0.30404021 0.26717445 0.75556056 113 111 110
-0.31118297 0.26684121 0.76607245 106 105 106
-0.31853446 0.30424079 1.26002204 107 112 115
-0.31860392 0.35667722 0.98174104 125 125 125
-0.31922379 0.36117411 0.97328383 133 134 137
-0.29023270 -0.46288690 1.39627713 61 61 62
-0.29109284 -0.46299402 1.43015790 69 60 61
-0.28536330 -0.46481032 1.45128500 65 62 63
-0.29821920 -0.44125974 1.35578370 135 91 85
-0.29706410 -0.44067910 1.36122859 134 86 85
-0.29254349 -0.45045631 1.39389424 99 72 69
-0.29290850 -0.44725675 1.40954452 122 78 74
-0.29014152 -0.44943001 1.42842782 109 72 70
-0.28414399 -0.44909772 1.44509742 99 70 67
-0.28852963 -0.44519332 1.46097374 129 82 76
-0.28257474 -0.42160192 1.19980860 97 69 63
-0.28663629 -0.42138261 1.20813210 118 81 75
-0.29656091 -0.43210563 1.39198557 140 92 85
-0.29398146 -0.43367147 1.40917866 138 91 84
-0.29257065 -0.42998868 1.43366097 139 93 82
-0.28950102 -0.43009037 1.44695892 139 92 81
-0.29056854 -0.40878771 1.03140502 63 62 66
-0.29756981 -0.41503653 1.04492295 64 63 66
-0.28207549 -0.41878694 1.19768882 112 82 76
-0.28629447 -0.41777691 1.21245191 135 89 79
-0.28864758 -0.41476468 1.23010731 141 96 79
-0.29349449 -0.41548178 1.24715969 145 100 81
-0.28853119 -0.41652653 1.43507852 143 96 82
-0.28599997 -0.41019507 1.44728152 139 94 83
-0.28120767 -0.39619869 1.01519534 74 65 67
-0.28200485 -0.38705781 1.07333179 144 96 86
-0.28378543 -0.39797623 1.44540274 139 95 89
-0.28127475 -0.37466486 0.99984050 142 103 84
-0.28393511 -0.37471352 1.00929264 142 98 86
-0.28120522 -0.37884364 1.06503105 145 101 81
-0.28474729 -0.28491672 0.97062281 80 54 55
-0.28967531 -0.29429112 0.98626963 87 61 57
-0.28717104 -0.27570263 0.95343435 68 58 69
-0.28503728 -0.27359006 0.96780223 67 62 66
-0.28676063 0.03294239 0.59818820 132 132 134
-0.29355001 0.03573763 0.60067434 130 131 133
-0.28111409 0.03952847 0.65910745 126 128 135
-0.28260885 0.03522868 0.66290686 137 138 140
-0.28128525 0.04264435 0.65884073 122 124 132
-0.28521569 0.04300116 0.66153461 117 120 127
-0.28071752 0.09976424 1.57283485 116 115 124
-0.28137037 0.10272109 1.57649267 121 121 128
-0.28471642 0.10978706 1.58863597 115 116 123
-0.28707551 0.25830946 0.74760930 122 123 122
-0.29755102 0.25990219 0.76253685 99 102 104
-0.29452658 0.26197010 0.73683894 110 105 107
-0.29039889 0.26499371 0.74785156 120 120 120
-0.29897399 0.26090255 0.76224869 98 102 102
-0.27867454 -0.46247143 1.43621159 66 64 64
-0.27621010 -0.44867691 1.42916063 71 61 62
-0.27986041 -0.45696056 1.44232309 65 60 62
-0.27130462 -0.42073377 1.19733799 62 61 65
-0.26491757 -0.43043386 1.41481153 85 65 67
-0.27182830 -0.42943790 1.42773918 115 76 73
-0.27986041 -0.42829177 1.44232309 136 87 76
-0.26945117 -0.41708441 1.19874976 67 63 65
-0.27165002 -0.41418115 1.20750672 87 68 68
-0.27469386 -0.41306174 1.22681378 117 75 69
-0.27840617 -0.41633874 1.24612474 133 80 73
-0.26854362 -0.41128414 1.43246737 138 92 82
-0.27315045 -0.40773472 1.44309190 139 95 84
-0.26913239 -0.38583783 0.99554383 64 61 64
-0.27494719 -0.38840769 1.00226036 68 62 64
-0.26938422 -0.38470753 1.05837977 135 88 79
-0.26955612 -0.38776852 1.07175460 114 82 74
-0.26055084 -0.39487480 1.08637631 65 63 66
-0.26742554 -0.39250359 1.43477632 139 95 87
-0.27022039 -0.38912190 1.44288222 138 94 85
-0.27350870 -0.37188155 0.99403698 137 93 82
-0.27930092 -0.37203035 1.00205910 143 96 85
-0.26405764 -0.37098748 1.04940044 143 98 83
-0.26904753 -0.37744564 1.06368561 141 98 82
-0.26614924 -0.37967947 1.44232309 136 93 79
-0.26874161 -0.35880947 0.98245192 147 100 86
-0.26273666 -0.28018069 0.95747435 112 72 70
-0.27410885 -0.28393661 0.96838208 99 65 65
-0.26574508 -0.27408087 0.95727350 93 61 63
-0.27145641 -0.26901867 0.96703131 70 57 60
-0.26745784 -0.25321102 0.97138143 66 66 71
-0.27454616 -0.25157636 0.98388767 65 65 71
-0.26206400 -0.23876444 0.96566081 62 63 69
-0.27658343 0.03325745 0.59689047 132 131 135
-0.27267303 0.03118574 0.65935667 138 139 141
-0.27550543 0.03492716 0.66127009 134 135 139
-0.27625781 0.04488266 0.65917553 131 132 137
-0.27398760 0.04302812 0.66037780 135 139 140
-0.26173191 0.10414420 1.53716969 132 133 136
-0.26685110 0.10919547 1.54935780 137 137 140
-0.27301682 0.11203144 1.56376642 132 132 135
-0.27962132 0.10991837 1.58201343 121 122 128
-0.27964206 0.25906108 0.74127069 111 113 113
-0.27872770 0.26587625 0.73884690 164 165 157
-0.27852671 0.26371586 0.74102963 148 149 145
-0.24176949 -0.42440710 1.37457778 62 60 65
-0.25200755 -0.42483108 1.39077258 64 59 64
-0.25717610 -0.42919418 1.40318864 71 61 65
-0.25207964 -0.40183024 1.06252903 62 63 67
-0.24333751 -0.40545622 1.15387267 62 62 66
-0.24965228 -0.41075078 1.17181742 62 62 66
-0.25037948 -0.41183274 1.19282694 62 61 67
-0.25308726 -0.41190401 1.20839671 64 61 69
-0.25832638 -0.41605753 1.23253059 62 61 67
-0.24254569 -0.41459954 1.37225068 67 62 68
-0.24806538 -0.41651352 1.38985808 67 61 63
-0.24808928 -0.41256733 1.41102943 84 65 64
-0.25311154 -0.40755760 1.42678177 128 83 75
-0.24479958 -0.39248714 1.05026570 63 64 68
-0.25127167 -0.39080526 1.07270616 64 64 65
-0.25351604 -0.39044725 1.08746948 64 61 65
-0.24257015 -0.38324711 1.39628008 141 92 86
-0.24689536 -0.39122260 1.41201160 139 90 83
-0.25412784 -0.39169469 1.42627377 140 92 84
-0.25873211 -0.36845356 1.04855722 141 95 82
-0.25894995 -0.37784430 1.06308417 121 83 77
-0.24383666 -0.36974503 1.38630509 141 96 88
-0.25397283 -0.37099656 1.40933859 137 93 86
-0.25718093 -0.37814954 1.42714071 135 91 84
-0.24218044 -0.35773486 1.37019104 137 91 84
-0.24590900 -0.26512132 0.92997133 113 76 72
-0.25576104 -0.26810780 0.95046191 98 63 63
-0.25079060 -0.26254897 0.96567135 82 56 54
-0.24208958 -0.25781111 0.92664905 99 63 66
-0.24836332 -0.24889054 0.95428211 63 58 62
-0.25417132 -0.25423511 0.96347151 63 56 60
-0.24964778 -0.22382018 0.93631470 64 64 73
-0.24769880 -0.23494706 0.95226686 63 62 69
-0.25767234 -0.23948428 0.96018672 65 65 71
-0.24214898 0.07837117 1.52679121 102 100 112
-0.24237838 0.08852768 1.51993692 158 158 158
-0.24497146 0.09416107 1.52599409 123 121 128
-0.25010316 0.10777828 1.53456387 125 124 129
-0.23494843 -0.42016947 1.35578370 62 62 67
-0.23210645 -0.42332983 1.37364244 63 65 69
-0.23917010 -0.40228379 1.13644981 65 64 68
-0.23973092 -0.40603814 1.17282331 63 63 67
-0.23814879 -0.40415210 1.18512559 64 63 70
-0.23213587 -0.41456240 1.35533448 63 63 67
-0.23074753 -0.41421335 1.37002137 63 61 66
-0.22915596 -0.41068629 1.39139758 63 62 65
-0.23234660 -0.40630717 1.40513484 67 63 65
-0.23890811 -0.40112755 1.42115688 97 69 68
-0.23768099 -0.38780843 1.03971136 65 66 70
-0.23785602 -0.38541627 1.04614079 63 65 67
-0.23813359 -0.38743216 1.06586766 64 64 66
-0.22803358 -0.38826920 1.39225294 97 73 72
-0.23016879 -0.39606765 1.40808366 81 67 67
-0.22635982 -0.36236906 1.35578732 142 94 85
-0.23093637 -0.36769105 1.37046432 142 93 85
-0.22961496 -0.37499479 1.38427266 136 90 81
-0.22694541 -0.34901666 1.35133683 141 93 88
-0.23560490 -0.35363767 1.36466330 139 95 89
-0.22757641 -0.33140450 1.35257751 129 86 79
-0.23577890 -0.32840608 1.36397028 125 83 78
-0.23316467 -0.26269641 0.91883034 129 88 83
-0.23742133 -0.26279255 0.92338032 124 80 77
-0.22793584 -0.25812069 0.91731470 127 86 84
-0.23469739 -0.25758961 0.92476672 114 75 75
-0.23124739 -0.24608638 0.95405020 70 52 55
-0.22396154 -0.24463754 0.96674129 76 52 53
-0.23168168 -0.23185142 0.95419734 59 60 65
-0.22406914 -0.23373400 0.96709013 60 58 63
-0.23187004 0.07801934 1.51993692 137 136 143
-0.23741177 0.07854808 1.53023773 142 141 151
-0.22673955 0.09209216 1.49618380 139 139 143
-0.23316547 0.08877042 1.51124610 140 140 143
-0.23759619 0.08849021 1.52507186 132 129 134
-0.22496631 0.10427419 1.49153468 131 131 134
-0.23311497 0.10474549 1.51375326 130 125 132
-0.23859560 0.10625680 1.52936831 129 125 131
-0.20176947 -0.42281418 0.86145418 82 90 97
-0.20243435 -0.41472881 0.86249611 83 87 95
-0.21128428 -0.40074328 1.36947846 63 62 69
-0.21790083 -0.40782334 1.38818477 64 63 68
-0.20652319 -0.38620602 1.35376221 61 61 66
-0.21049249 -0.38902107 1.36871672 63 63 67
-0.21666507 -0.39049352 1.38572455 64 63 66
-0.20166145 -0.36814815 1.33706474 65 64 64
-0.20484090 -0.36806443 1.35004970 79 68 67
-0.21386298 -0.37200291 1.36985434 98 75 68
-0.21583143 -0.37852946 1.38345277 74 70 62
-0.20617456 -0.34663416 1.33464226 138 90 85
-0.21333967 -0.35135315 1.34688090 138 91 84
-0.20644524 -0.33674118 1.33473554 144 95 83
-0.21372443 -0.33591419 1.34682045 140 94 83
-0.21602613 -0.24821355 0.95545436 103 66 69
-0.21495049 -0.24376866 0.96859659 89 60 59
-0.21108451 -0.24696986 0.98675048 99 64 66
-0.21038228 -0.22968940 0.97329835 67 57 61
-0.20569253 -0.21362923 0.97405828 68 68 73
-0.21409251 -0.21755283 0.98103017 67 67 71
-0.20182028 0.15970805 0.60811462 146 145 144
-0.20576732 0.16885013 0.60939210 121 119 119
-0.21574932 0.16154623 0.62021214 126 125 124
-0.20148033 0.16974139 0.65662251 125 126 128
-0.20694927 0.17125073 0.66438936 132 134 135
-0.20167013 0.18361564 0.61742927 116 118 121
-0.19005341 -0.42729539 0.85906400 83 91 98
-0.19034408 -0.42437846 0.86078815 82 90 98
-0.18643981 -0.41243554 0.85917848 82 85 97
-0.19030939 -0.41516007 0.86166781 83 87 96
-0.19661352 -0.38368871 1.35462856 65 65 69
-0.19532742 -0.38487298 1.37011565 65 65 70
-0.18952744 -0.38297254 1.38345604 65 65 71
-0.19280402 -0.36708455 1.35406685 64 63 69
-0.18894016 -0.37212739 1.36674019 65 65 69
-0.18914238 -0.37775853 1.38063514 65 66 70
-0.19442296 -0.34607729 1.33627637 116 80 77
-0.18978431 -0.34875817 1.34877560 96 74 73
-0.18724306 -0.32904927 1.33313221 141 97 91
-0.18778452 -0.33703243 1.35255712 138 92 86
-0.19824761 -0.33833346 1.36122859 144 99 86
-0.18253294 -0.29010460 1.23141217 135 88 79
-0.18626470 -0.24201970 1.01734849 117 79 73
-0.19108591 -0.24491586 1.02308190 116 78 76
-0.19167108 -0.23207878 0.95279291 104 71 66
-0.19376297 -0.22621454 0.97507068 78 57 57
-0.18508439 -0.22579193 0.98945218 91 62 63
-0.18499141 -0.23588684 1.00803636 113 75 74
-0.19269850 -0.20999497 0.97559337 69 68 74
-0.18499571 -0.21120314 0.98398536 68 60 66
-0.18675241 -0.19812303 0.97553053 72 71 79
-0.18176584 -0.19630022 0.98439841 73 72 82
-0.19537993 0.15998355 0.61016369 153 153 150
-0.19626115 0.16959809 0.60918321 122 122 124
-0.18933863 0.17895082 0.62873985 122 125 128
-0.19335106 0.16850358 0.65069419 117 118 119
-0.19900450 0.16410163 0.66071332 149 150 148
-0.19241933 0.18195010 0.61680581 145 147 142
-0.18830660 0.18030666 0.62645471 139 140 139
-0.17859042 -0.42664930 0.85917848 84 91 96
-0.17727069 -0.42279482 0.86070635 85 90 97
-0.17859042 -0.41551165 0.85917848 86 90 97
-0.17758240 -0.41596415 0.86094193 85 89 95
-0.17586792 -0.36496834 1.36847951 69 66 71
-0.17200776 -0.34805288 1.35376936 69 66 71
-0.17549609 -0.35110872 1.36360747 69 65 71
-0.16269521 -0.33182651 1.33970726 71 68 72
-0.17116828 -0.33438357 1.35003362 94 73 73
-0.17562290 -0.33816746 1.36214157 84 67 68
-0.17447233 -0.30064157 1.25768435 148 97 86
-0.17078152 -0.28554967 1.23628512 140 92 84
-0.16985234 -0.29006943 1.25087681 143 94 86
-0.16398473 -0.29807182 1.26060864 146 98 84
-0.16611217 -0.26934111 1.23459472 127 81 79
-0.16742196 -0.27467097 1.24832684 129 85 77
-0.17439696 -0.22106445 0.46123046 98 75 72
-0.17626265 -0.22425658 0.99504114 102 66 67
-0.17274856 -0.22839999 1.00946337 112 75 72
-0.16544426 -0.22364499 1.02294629 115 74 74
-0.16530941 -0.20989288 0.45678016 96 76 75
-0.16611137 -0.21286521 0.46073353 86 74 76
-0.17480755 -0.20958523 0.99353400 73 58 65
-0.16685952 -0.20935041 1.01490377 76 55 60
-0.16326261 -0.21299183 1.02149890 89 60 63
-0.16135533 -0.19794771 0.45857780 134 92 75
-0.17449725 -0.19440392 0.99580809 72 72 80
-0.16571295 -0.19145284 1.01228174 72 73 80
-0.16286374 -0.19735759 1.02130643 75 75 80
-0.16788510 0.10939030 0.69699390 129 130 133
-0.16470394 0.10468527 0.70145477 115 117 120
-0.16158908 0.15877977 0.68710395 117 117 120
-0.16481031 0.16679063 0.68679636 118 121 123
-0.15806405 -0.34108883 1.33970726 70 69 71
-0.14748111 -0.32520720 1.31757528 73 70 78
-0.15284814 -0.33197383 1.33165097 71 69 73
-0.15605690 -0.33712393 1.34236014 70 68 70
-0.14819988 -0.30207096 1.26733544 88 72 73
-0.14954218 -0.30971062 1.28632224 76 69 74
-0.15147904 -0.28543423 1.25209394 143 96 87
-0.14979071 -0.29486984 1.26243971 131 87 84
-0.15133435 -0.26663146 1.23298910 133 87 82
-0.14802684 -0.27488710 1.24583593 142 94 88
-0.14889555 -0.25419147 1.21740846 118 79 75
-0.14488511 -0.25367198 1.22388925 128 80 77
-0.15175973 -0.22162891 1.02993903 122 79 73
-0.14703419 -0.22221074 1.04694283 121 78 76
-0.15662592 -0.20708635 0.45826161 76 75 79
-0.15412519 -0.20904285 0.46021169 72 76 84
-0.15651344 -0.20707146 1.01804951 84 58 58
-0.14932426 -0.20873359 1.02666692 96 64 65
-0.14266992 -0.21075082 1.04434942 106 69 70
-0.15776095 -0.19730304 0.45718050 122 83 74
-0.15616611 -0.18993168 1.01509726 72 70 77
-0.14790527 -0.18937032 1.02912668 69 62 68
-0.14335942 -0.18689809 1.04205615 74 67 71
-0.15855682 -0.17970808 1.01632965 76 75 84
-0.15432289 -0.17751329 1.02842530 74 75 82
-0.14515418 -0.17637148 1.04915607 73 73 82
-0.14984794 -0.17624485 1.06252813 73 73 82
-0.15836272 0.10944586 0.69709909 115 115 116
-0.15767008 0.10373013 0.70030147 114 113 118
-0.15188484 0.15866835 0.50705520 123 124 127
-0.15768464 0.15836709 0.68385643 150 150 149
-0.15081138 0.17634380 0.49865367 142 142 144
-0.15207858 0.16584087 0.50553702 121 124 125
-0.14092267 0.17444118 0.65878764 194 194 190
-0.15033132 0.17400735 0.67488023 135 135 135
-0.15592189 0.16796152 0.68411024 124 125 125
-0.15037658 0.18141449 0.49925878 187 187 182
-0.15274050 0.18281409 0.50041236 186 186 183
-0.12164477 -0.30478442 1.23627786 75 72 80
-0.12380373 -0.30166456 1.24886688 75 73 78
-0.13356519 -0.30110015 1.26143162 75 71 76
-0.12902944 -0.28665955 1.25173954 97 78 79
-0.13156421 -0.29536092 1.26174361 74 71 72
-0.12995004 -0.26661804 1.23456111 145 94 90
-0.12919756 -0.27513468 1.24392003 137 91 87
-0.13235560 -0.25208388 1.21595383 137 90 87
-0.12907683 -0.24900567 1.22631749 136 90 83
-0.12310445 -0.24143505 1.24383819 129 83 87
-0.12117691 -0.23972504 1.24612474 133 83 82
-0.12752224 -0.20194061 1.01330564 114 75 73
-0.13537796 -0.20395509 1.03107812 104 67 68
-0.12905332 -0.20296624 1.04194934 105 68 70
-0.12462487 -0.19930529 1.01178940 114 76 72
-0.13041966 -0.18917726 1.03339772 79 57 59
-0.13162331 -0.19228169 1.04421447 80 62 62
-0.12027130 -0.17496277 1.01938617 62 52 53
-0.12735124 -0.17588223 1.03386160 68 66 71
-0.13090145 -0.17243283 1.04950072 73 72 79
-0.13433304 -0.17108007 1.06086361 75 75 82
-0.11356471 -0.30193323 1.23628512 75 75 78
-0.11000336 -0.30215204 1.24156010 79 79 81
-0.10672549 -0.29264080 1.23816146 74 74 78
-0.11178648 -0.29092256 1.24747139 74 72 79
-0.10910545 -0.26833472 1.23500973 102 80 81
-0.11316654 -0.27565166 1.24241439 80 72 76
-0.10522148 -0.24351066 1.21329702 150 99 94
-0.11195003 -0.25161391 1.22847713 144 95 92
-0.10091232 -0.23496245 1.19980860 146 102 87
-0.10372551 -0.23542045 1.20701747 143 97 89
-0.11309901 -0.23632755 1.22850793 135 87 84
-0.10822277 -0.17162804 1.01549250 71 52 55
-0.11536360 -0.16809509 1.02882639 67 63 69
-0.11664988 -0.16873141 1.04211016 69 68 75
-0.10846762 -0.15139479 1.01570562 55 56 59
-0.11058473 -0.14548150 1.03053645 45 44 47
-0.11115897 -0.14632870 1.04130852 44 43 46
-0.11054130 -0.12993963 1.01634022 44 43 46
-0.11029288 -0.13494350 1.02601745 46 43 46
-0.10167308 0.11186561 0.49785508 130 130 131
-0.10299378 0.11767398 0.50048626 106 107 113
-0.09370309 -0.28713075 1.23785895 76 76 79
-0.09112441 -0.28405294 1.24218140 77 76 80
-0.08048470 -0.26147625 1.21704102 76 75 79
-0.09039395 -0.27044491 1.23248130 75 74 78
-0.09390884 -0.27961972 1.24156010 76 75 80
-0.08815436 -0.24902938 1.21274471 104 81 82
-0.09562312 -0.25510088 1.22489931 104 78 81
-0.08482611 -0.23008142 1.19811574 149 103 94
-0.09020336 -0.23340261 1.20586213 146 102 92
-0.08184760 -0.21326612 1.18721391 137 90 87
-0.08152113 -0.19364703 1.17147752 105 63 65
-0.09902285 -0.17410880 1.00933136 97 62 64
-0.09655203 -0.15034356 1.02947658 48 47 49
-0.09535897 -0.15278704 1.04237737 45 44 46
-0.08452959 0.07276873 0.53901998 125 127 131
-0.08344597 0.07128008 0.54068842 118 121 125
-0.09538086 0.09915620 0.49243981 113 115 120
-0.09429139 0.10863195 0.49549347 139 139 140
-0.07563881 -0.28204426 1.23606326 80 80 85
-0.07482965 -0.26132005 1.21631400 75 75 82
-0.07563490 -0.27119723 1.23015423 77 77 83
-0.06765898 -0.24268033 1.17689562 72 73 77
-0.07477616 -0.24572789 1.19300058 74 72 77
-0.07344140 -0.25653963 1.20819104 75 75 82
-0.06145674 -0.22274125 1.13740242 78 71 77
-0.06553358 -0.22392380 1.14850295 84 71 75
-0.07089721 -0.23138734 1.17134768 93 81 81
-0.07640572 -0.23427971 1.19277778 103 83 82
-0.06297850 -0.20940729 1.11223440 137 94 87
-0.06378626 -0.21490473 1.12877239 103 75 75
-0.07218790 -0.20654625 1.15381504 139 92 87
-0.07794963 -0.20862434 1.16926311 136 88 84
-0.06735446 -0.19816740 1.13740242 135 88 81
-0.07399712 -0.19918971 1.14896917 130 83 82
-0.07874088 -0.19438039 1.16778101 112 68 66
-0.07588557 0.07299864 0.53696240 122 122 129
-0.07835598 0.07067247 0.54015285 132 133 136
-0.06558139 0.33454992 0.82995651 192 190 182
-0.06458506 0.34761270 0.83083704 135 135 131
-0.06943843 0.35214199 0.84409319 183 182 174
-0.06882376 0.36177571 0.84845978 87 88 85
-0.04885501 -0.22862964 1.13141426 78 77 82
-0.05781610 -0.23473763 1.14315981 76 75 82
-0.05160230 -0.20405936 1.09515172 123 86 85
-0.05567110 -0.20932292 1.10909824 100 76 74
-0.04880573 -0.21716157 1.12545302 77 73 76
-0.04964230 -0.19349116 1.07032893 145 102 95
-0.05720697 0.34596689 0.81648500 88 88 86
-0.05852908 0.34568569 0.82069230 111 110 110
-0.03806596 -0.22776937 1.12960595 82 81 86
-0.03836603 -0.21706107 1.12326813 78 77 81
-0.02139876 0.15602169 0.67130524 198 195 187
-0.02447157 0.16364216 0.67417066 200 198 190
-0.02413931 0.25332040 0.61653528 154 151 149
-0.02751814 0.24864503 0.62403249 151 150 145
-0.02236747 0.26092469 0.61598811 32 33 31
-0.00099894 -0.08316933 0.83764281 41 38 40
-0.00351116 -0.08481840 0.84376458 46 40 42
-0.00178692 -0.06843351 0.81969994 44 43 44
-0.00332508 -0.07389240 0.82682630 41 41 43
-0.00945074 -0.07800208 0.84315428 40 40 41
-0.01099906 0.13067089 0.47421118 176 173 169
-0.00531377 0.12754695 0.48222002 170 165 164
-0.00917710 0.15357284 0.65866035 195 190 184
-0.01313713 0.15463740 0.66526139 193 189 183
-0.01436111 0.16273122 0.66954996 190 186 179
-0.00188888 0.18927193 0.93257188 196 190 182
-0.01859147 0.25341883 0.61422420 168 166 162
-0.01756628 0.26263430 0.61682781 0 0 0
0.01215318 -0.08463500 0.81631763 123 86 86
0.00584367 -0.08613364 0.82909178 104 70 75
0.00107659 -0.09079359 0.84314907 122 76 83
0.00812180 -0.06966915 0.81895806 46 43 48
0.00712991 -0.07488668 0.82430904 45 40 45
0.00251315 0.13325103 0.47453481 148 146 147
0.01199603 0.17890183 0.47903364 162 160 154
0.01226138 0.17949535 0.48146030 160 157 153
0.01556956 0.17881503 0.91652660 170 169 171
0.01523379 0.17813072 0.92431917 159 160 162
0.01333349 0.18356950 0.47876704 163 162 159
0.01183129 0.18441394 0.48249964 159 158 156
0.01587565 0.18673103 0.89188533 174 171 170
0.01249533 0.18545046 0.90962675 175 175 174
0.00645027 0.18704463 0.93035254 149 147 148
0.00898864 0.45192769 1.89885676 171 172 174
0.01453145 0.45418753 1.90836922 174 173 174
0.01377817 0.44763512 1.92658557 167 167 171
0.01679435 0.44677982 1.94798118 161 160 163
0.01761880 0.46371480 1.90956054 170 163 163
0.03622266 0.17381269 0.49659976 156 154 152
0.03373499 0.17571120 0.50129165 147 146 144
0.02405858 0.17887790 0.92862546 173 172 172
0.02417017 0.18491277 0.47824711 144 141 139
0.02597203 0.19013685 0.48385041 149 145 140
0.03491433 0.18606882 0.50688184 155 154 152
0.02413425 0.18643566 0.87791090 147 145 144
0.02226555 0.18660593 0.88721480 158 154 152
0.02100991 0.18149570 0.91326422 176 174 174
0.02249386 0.18014482 0.92481834 179 175 175
0.03969616 0.41662621 1.80290389 153 152 152
0.03710008 0.43865520 1.75392753 150 150 154
0.03985523 0.42299077 1.81012833 174 173 167
0.03720675 0.42905406 1.83379515 171 168 163
0.03742612 0.43423606 1.84460706 182 179 173
0.03471012 0.43699335 1.87005001 181 179 173
0.02844175 0.43839762 1.88303292 180 180 177
0.03917521 0.44191146 1.77924371 155 154 154
0.03783619 0.44269770 1.78863287 149 147 148
0.03743441 0.44399837 1.80651611 147 144 146
0.03717336 0.44237900 1.83214903 160 152 150
0.03475813 0.44729894 1.87263656 176 171 166
0.02587307 0.44749162 1.89020147 181 178 175
0.02221017 0.44559056 1.90688008 180 179 178
0.03902192 0.46622784 1.77228138 168 164 162
0.03633844 0.47114773 1.79099876 170 168 165
0.03355305 0.47397792 1.80771160 175 174 172
0.02202422 0.46147440 1.89091539 153 144 147
0.05674914 0.09919590 0.70247859 134 134 139
0.05624737 0.10262011 0.70323983 150 149 151
0.04055766 0.17560826 0.49153315 166 164 157
0.05557910 0.21400550 0.69084363 154 149 145
0.05844701 0.22836620 0.69739677 171 166 160
0.05544879 0.23300070 0.70138854 167 164 162
0.05923888 0.25973645 0.70320731 144 138 138
0.05873176 0.26651804 0.71183738 149 147 140
0.05757116 0.27657046 0.72319577 152 148 143
0.05741598 0.28555156 0.72741841 137 130 129
0.05896039 0.39787805 1.56919408 167 166 161
0.05896039 0.40059027 1.56919408 163 160 152
0.05769693 0.40644579 1.59430134 164 162 155
0.05535661 0.41166783 1.60893160 165 163 156
0.05567636 0.41009727 1.63219690 172 169 167
0.05296670 0.41552326 1.65006510 173 171 167
0.05092808 0.41286456 1.66970094 164 163 162
0.04884810 0.41788782 1.68840075 165 163 163
0.04645038 0.41672309 1.70753610 145 145 145
0.04701354 0.41054847 1.72823834 160 153 153
0.04668259 0.40816390 1.75317121 168 163 163
0.04582117 0.40951578 1.76882440 165 160 161
0.04455611 0.41402917 1.78942976 158 153 152
0.05425372 0.43199994 1.63151103 139 136 137
0.05293395 0.43041680 1.65048857 154 150 148
0.04974986 0.43057886 1.66969448 163 158 157
0.04703727 0.42873405 1.68630648 175 172 169
0.04501161 0.42889313 1.70898434 168 167 168
0.04250361 0.42896724 1.72712702 156 156 157
0.04310924 0.42749113 1.75165856 152 147 148
0.04403061 0.42598007 1.76843218 156 150 150
0.04335899 0.42836934 1.79337722 164 159 156
0.04121410 0.43196048 1.81118989 169 161 158
0.05131892 0.44754755 1.67380702 126 126 128
0.05085263 0.44518749 1.69052442 141 134 136
0.04940172 0.44771215 1.70753610 153 145 143
0.04592584 0.45010058 1.73068721 164 158 156
0.04229499 0.45641600 1.74940705 169 163 161
0.04181153 0.45558015 1.76075804 176 174 171
0.05003184 0.46238971 1.72931588 130 129 131
0.04659831 0.46594967 1.75016920 138 134 136
0.04429920 0.47142869 1.76881227 144 142 142
0.07703254 -0.16319877 0.64224098 127 127 133
0.07929712 -0.15784752 0.63952059 194 194 196
0.07648157 -0.15684087 0.64102392 145 146 149
0.07257002 0.04823353 0.45422016 122 122 128
0.06675279 0.09509903 0.69915830 123 125 132
0.06957507 0.09043392 0.70254626 124 123 129
0.06614229 0.10173936 0.69909795 126 128 136
0.06327416 0.10263598 0.70155213 134 133 137
0.07132151 0.21489908 0.68974733 146 146 145
0.06262533 0.21266742 0.70030147 135 135 129
0.07713988 0.23186989 0.67891133 171 171 171
0.06943753 0.22882754 0.69119570 146 143 143
0.06218689 0.25415547 0.69544291 137 130 129
0.06145647 0.25884168 0.70078478 132 126 125
0.06609648 0.26045643 0.69861813 124 115 117
0.06197952 0.27015225 0.70982443 133 131 128
0.06978882 0.28484293 0.71798287 157 157 155
0.06971216 0.29130763 0.72512400 142 139 140
0.07727647 0.30121747 0.73010813 156 157 158
0.06082778 0.39242765 1.54769826 161 161 155
0.08462658 -0.16360647 0.64353969 141 140 147
0.09039708 -0.14927042 0.64913574 135 135 139
0.09577052 -0.13257490 0.65407315 126 126 132
0.09886202 -0.11204141 0.65942788 193 193 196
0.09273882 -0.10858115 0.66284546 102 102 108
0.09666244 -0.09672199 0.66405244 104 104 108
0.08048575 0.09329132 0.70835096 105 104 116
0.08457771 0.15710703 0.57487848 152 148 145
0.08370434 0.15341179 0.58063596 149 148 149
0.09732965 0.15567886 0.81920496 157 155 157
0.09849157 0.15803486 0.82102390 144 144 146
0.08491220 0.16304235 0.56403371 139 135 135
0.09990530 0.16563202 0.58539885 122 118 120
0.09754171 0.17381633 0.82953487 173 171 168
0.09585567 0.18112608 0.82651964 173 172 168
0.08283288 0.21461164 0.67784394 169 164 160
0.08118900 0.21248189 0.68413541 177 175 172
0.08340279 0.22594237 0.67572754 146 145 144
0.08075426 0.22628196 0.68413017 140 139 140
0.08230027 0.29463638 0.72887496 171 169 163
0.10597640 -0.14345037 0.64988009 181 181 184
0.10849402 -0.12965242 0.65190970 131 131 135
0.11244576 -0.11532607 0.65353286 126 126 130
0.10176327 -0.10533995 0.66108240 182 182 184
0.10987712 -0.09016712 0.66184878 99 100 106
0.11595854 -0.07613872 0.65942788 57 54 63
0.11490281 -0.07038149 0.66174501 126 126 130
0.11760245 -0.04893826 0.65890956 100 99 105
0.11371735 -0.05301253 0.66158382 142 141 146
0.10447196 0.15966886 0.81969994 150 145 144
0.10176144 0.15986218 0.82069230 149 144 145
0.10180504 0.16798938 0.57588578 139 139 138
0.11017942 0.16733318 0.58609187 144 142 141
0.10277008 0.17019703 0.82544230 168 163 161
0.12206108 -0.08409207 0.66186994 106 105 109
0.12392940 -0.07081698 0.66300049 104 103 109
0.12047857 -0.04592037 0.65921426 53 51 61
0.12216271 -0.05698096 0.66061736 193 193 196
0.13615916 0.03150846 0.65397007 139 138 141
0.13723701 0.04166683 0.65064229 136 135 142
0.13481064 0.20796410 0.45284648 0 0 0
0.13685846 0.21487980 0.46790558 0 0 0
0.13903056 0.22221522 0.48387863 0 0 0
0.14204420 0.03593960 0.65463102 140 138 142
0.14301931 0.04246429 0.65337528 134 132 138
0.14056873 0.22740979 0.49518992 0 0 0
0.14259982 0.23426896 0.51012594 0 0 0
0.14519968 0.24304899 0.52924462 0 0 0
0.14800203 0.25251283 0.54985235 0 0 0
0.14998567 0.25921181 0.56443948 0 0 0
0.15947223 0.25783703 0.66985363 145 141 142
0.15155441 0.26450956 0.57597551 0 0 0
0.15374359 0.27190268 0.59207419 0 0 0
0.15546332 0.27771041 0.60472065 0 0 0
0.15852624 0.26276735 0.67624391 156 155 153
0.15665404 0.28173155 0.61347675 0 0 0
0.15851086 0.28800224 0.62713134 0 0 0
0.17703808 -0.12043033 1.21595439 133 133 135
0.17636740 -0.11020919 1.21336774 144 144 150
0.17096467 -0.10582390 1.22321960 203 203 206
0.17857338 -0.09968135 1.21922994 122 122 129
0.17240509 -0.09438935 1.23131493 152 152 157
0.16896833 -0.09077733 1.24156010 37 38 49
0.17583035 0.17113832 0.67417949 152 148 147
0.16931444 0.16958589 0.68837016 162 160 158
0.16430014 0.16909251 0.70030147 134 132 135
0.16317984 0.25199212 0.65910745 142 135 133
0.16525571 0.25705166 0.66574363 133 129 128
0.16662807 0.26756269 0.67442954 147 143 139
0.16235786 0.27058833 0.68198591 167 161 157
0.16111267 0.29678883 0.64626431 0 0 0
0.16387824 0.30612844 0.66660157 0 0 0
0.16682354 0.31607503 0.68826047 0 0 0
0.16996668 0.32668972 0.71137422 0 0 0
0.17245880 0.33510590 0.72970057 0 0 0
0.17509824 0.34401956 0.74911028 0 0 0
0.17786513 0.35336363 0.76945728 0 0 0
0.17980057 0.35989985 0.78368998 0 0 0
0.19936381 -0.20261778 1.20478495 194 194 198
0.19617247 -0.19421625 1.20729076 195 194 198
0.19268620 -0.12162649 1.21740584 46 45 50
0.18836844 -0.10871294 1.21287116 55 55 64
0.18762004 -0.09734940 1.21642343 64 65 73
0.18467987 0.17378139 0.67036177 167 167 165
0.18180896 0.36668241 0.79845917 0 0 0
0.18389452 0.37372553 0.81379575 0 0 0
0.18606175 0.38104451 0.82973295 0 0 0
0.18831557 0.38865590 0.84630692 0 0 0
0.19066127 0.39657754 0.86355650 0 0 0
0.19310457 0.40482882 0.88152385 0 0 0
0.19565170 0.41343078 0.90025479 0 0 0
0.19830942 0.42240620 0.91979897 0 0 0
0.20479309 -0.20076484 1.20407206 138 138 141
0.21305675 -0.19417826 1.19980860 54 51 61
0.20958346 -0.18988661 1.20608884 131 130 134
0.21523649 -0.17992596 1.20621324 194 195 195
0.21595121 0.15446628 0.67436283 169 162 161
0.21497144 0.15845697 0.68061429 161 156 155
0.21298758 0.16729176 0.51895641 164 163 158
0.21016499 0.17078868 0.52392916 149 146 143
0.21443226 0.16216771 0.67891140 158 158 158
0.21633133 0.16394839 0.68254832 158 156 156
0.20108511 0.43177998 0.94021058 0 0 0
0.20398678 0.44157925 0.96154869 0 0 0
0.20702322 0.45183364 0.98387784 0 0 0
0.21020405 0.46257558 1.00726867 0 0 0
0.21353979 0.47384074 1.03179884 0 0 0
0.21704206 0.48566827 1.05755353 0 0 0
0.22131316 -0.18227262 1.20335917 198 198 200
0.23235410 0.15952288 0.69031757 145 145 149
0.22415747 0.17240052 0.67993164 165 154 152
0.22951800 0.16833198 0.68692725 167 164 160
0.23352373 0.32185759 1.79574311 145 146 147
0.23119361 0.32673684 1.81048095 133 133 136
0.23278947 0.33433488 1.83003511 131 131 133
0.22841018 0.33653367 1.84209740 172 173 166
0.23686218 0.34477875 1.85217044 140 136 135
0.22072364 0.49810138 1.08462691 0 0 0
0.22459868 0.51118779 1.11312294 0 0 0
0.22868283 0.52498037 1.14315653 0 0 0
0.23299347 0.53953791 1.17485583 0 0 0
0.23755001 0.55492580 1.20836341 0 0 0
0.25078995 0.11902607 0.45098146 164 162 156
0.25265414 0.12394002 0.45358280 162 159 155
0.25386849 0.17546477 1.17044145 157 158 158
0.25163055 0.18514839 0.93231451 169 169 168
0.25144607 0.19215972 0.94852468 151 148 149
0.24835077 0.19637545 0.96605321 154 147 147
0.25849584 0.18151553 1.17079771 160 160 160
0.25515927 0.21023214 0.95670809 133 132 137
0.25379588 0.21039555 0.97027146 160 157 156
0.25009764 0.21613879 0.98892529 166 164 164
0.25530934 0.22067061 0.96394572 149 149 153
0.25001368 0.22078046 0.99252099 181 178 176
0.24863811 0.31682533 1.79653593 179 172 169
0.25627020 0.31690869 1.80290389 180 174 168
0.24782068 0.32228389 1.79812157 166 158 156
0.25079565 0.32625692 1.80933673 160 154 153
0.24775762 0.33647383 1.82831396 136 135 139
0.25292147 0.34160253 1.83511920 123 123 125
0.25109720 0.35098446 1.84952652 125 122 127
0.24379580 0.35310745 1.86234021 132 131 131
0.25275812 0.36257280 1.85723794 142 144 145
0.25881734 0.36491010 1.86234021 168 170 169
0.24237408 0.57121718 1.24383819 0 0 0
0.24748996 0.58849406 1.28145909 0 0 0
0.25292498 0.60684866 1.32142663 0 0 0
0.25870991 0.62638503 1.36396754 0 0 0
0.27728341 0.13626649 0.59230609 168 168 164
0.27718712 0.14085057 0.58896081 173 173 168
0.26831875 0.17256298 1.17144592 153 153 154
0.26607705 0.16462129 1.18351935 125 125 130
0.26937724 0.19090370 0.93637407 177 174 171
0.26964117 0.19333306 0.94647068 168 165 165
0.27790135 0.18449900 0.96428424 121 116 124
0.27058151 0.18250223 1.17715494 164 161 162
0.27421891 0.18896186 1.18432570 178 176 175
0.27545664 0.20236334 0.93890840 175 171 170
0.26935950 0.20756068 0.95382381 168 167 165
0.26527814 0.21262651 0.96637796 152 150 149
0.26197046 0.31749168 1.78863287 173 165 163
0.26899464 0.32718399 1.79433105 150 147 145
0.26812549 0.33343791 1.80802658 141 138 138
0.26375031 0.33921438 1.82228994 154 150 150
0.27438613 0.34322140 1.81352210 120 120 128
0.26790556 0.34650885 1.82919041 133 130 134
0.26443920 0.35312796 1.84712422 146 142 147
0.27176797 0.36144080 1.85554647 165 166 164
0.26607537 0.36581255 1.86380604 174 174 170
0.26487973 0.64722115 1.40933859 0 0 0
0.27147412 0.66949111 1.45783186 0 0 0
0.27853850 0.69334829 1.50978136 0 0 0
0.28656399 0.13513048 0.59504094 171 170 165
0.28110382 0.19967079 0.94151646 166 157 159
0.28784740 0.19102916 1.19088402 166 162 162
0.28064582 0.20050623 0.94545585 169 168 166
0.29198699 0.20310090 1.20892781 166 161 156
0.29263115 0.20681306 1.22473782 178 175 167
0.29468653 0.27875712 0.72529441 171 171 164
0.29281459 0.29233208 0.73379725 154 154 150
0.29356810 0.29212895 0.74404504 155 155 153
0.29084405 0.30094233 0.73404834 164 161 152
0.28957963 0.33600973 1.80879430 130 129 133
0.28706031 0.34402217 1.81324295 129 130 134
0.28612494 0.71896851 1.56557012 0 0 0
0.29429358 0.74655485 1.62563992 0 0 0
0.31926684 -0.23027791 0.75784469 95 98 106
0.31856569 0.15029011 0.75742370 158 158 157
0.30250567 0.28303801 0.74877922 156 155 156
0.30311406 0.77634257 1.69050336 0 0 0
0.31266770 0.80860615 1.76075804 0 0 0
0.32841435 -0.24144106 0.75742272 98 99 104
0.32462679 -0.23092097 0.75471097 96 99 106
0.32528405 -0.23678759 0.76150564 98 101 106
0.32196623 -0.21514131 0.74570978 94 96 106
0.33440215 0.05464382 0.76825467 159 159 159
0.33304676 0.06622872 0.76667303 138 138 140
0.32566475 0.14917645 0.75429346 173 170 166
0.32695540 0.15281794 0.76393811 163 161 159
0.32788602 0.16175742 0.75657570 157 156 152
0.32762862 0.16384782 0.77167382 167 166 163
0.32304981 0.84366769 1.83710527 0 0 0
0.33437309 0.88190758 1.92037344 0 0 0
0.34441149 0.05441419 0.77349132 152 151 151
0.34451056 0.06632125 0.77334884 137 136 139
0.37755413 0.19759466 0.49821626 141 142 128
0.37766150 0.19779134 0.50197477 122 122 111
0.37363447 0.20530259 0.49632122 149 150 143
0.37692193 0.20173116 0.50181467 131 129 124
0.37770391 0.36787674 1.12793982 162 160 158
0.37419407 0.38999920 1.19635067 157 154 153
0.37169102 0.39138602 1.20888800 159 157 154
0.37359108 0.39138895 1.22744827 165 162 157
0.37984806 0.39823689 1.25768435 170 168 160
0.37273717 0.41620195 1.19980860 167 165 158
0.37607700 0.41522408 1.21055016 166 164 158
0.37426349 0.40732908 1.22780949 170 167 164
0.37756315 0.40876521 1.25330313 172 169 164
0.37941343 0.41287951 1.26591146 166 165 160
0.37978810 0.42123255 1.26472354 169 169 162
0.37615105 0.70908690 1.95640188 146 146 145
0.37138999 0.70811087 1.97062912 147 147 145
0.36842435 0.70882610 1.98213995 149 149 148
0.39015706 -0.06915168 0.55907643 58 57 56
0.38729584 -0.06833124 0.56048917 57 56 55
0.38086364 0.19649181 0.49689143 152 153 145
0.38202845 0.19822060 0.50058490 158 160 145
0.38023457 0.37426680 1.13549721 150 143 144
0.38190370 0.37390389 1.14639898 161 160 155
0.38567699 0.37855577 1.16376370 158 157 153
0.38703282 0.38294551 1.15878952 146 141 143
0.38890871 0.38612689 1.17148689 150 145 144
0.38930647 0.39009005 1.19585979 148 146 145
0.38779618 0.39083758 1.20407459 148 147 147
0.39374278 0.40136527 1.21559219 140 137 139
0.38841878 0.41193083 1.22643068 152 149 146
0.38118742 0.40751281 1.27306437 173 169 163
0.38441581 0.40991643 1.28754503 170 168 160
0.38606705 0.42208792 1.22903516 161 158 151
0.39482391 0.42457284 1.24614280 150 149 144
0.38044125 0.42219731 1.27423275 162 162 158
0.38122408 0.70739698 1.95640188 153 154 146
0.38467830 0.70675101 1.97062249 152 153 148
0.39012613 0.70775102 1.98972731 145 144 142
0.40866611 0.13413969 0.49472407 154 155 147
0.41396599 0.13032042 0.50158770 159 159 151
0.40496738 0.14152117 0.49306386 170 169 161
0.40156005 0.40567413 1.21486384 138 133 132
0.40445368 0.41395747 1.23191065 125 121 120
0.40435654 0.41934562 1.24612474 106 103 102
0.41026749 0.42584785 1.23583810 132 132 129
0.40764301 0.42960519 1.25074024 122 121 119
0.40689895 0.43257605 1.26130429 127 126 124
0.41609646 0.44373967 1.26657401 129 129 125
0.40175444 0.71095133 1.99968100 140 138 136
0.42489749 0.10299563 0.49992025 138 131 129
0.42564024 0.10751859 0.50861722 154 151 147
0.43860143 0.15027643 0.81070602 171 170 166
0.43675406 0.15778910 0.84436747 152 148 149
0.43875219 0.16161563 0.81169319 154 153 153
0.43634705 0.16187673 0.84225280 158 156 156
0.43839788 0.20932740 0.45072597 150 145 141
0.42355898 0.42561376 1.23929036 158 154 148
0.42681826 0.43349837 1.24965998 165 164 155
0.42558021 0.44707989 1.25270112 163 161 156
0.42404035 0.45239226 1.26542493 148 148 145
0.42330071 0.45616385 1.29246643 128 124 121
0.43264503 0.46654105 1.26863011 146 147 147
0.43194901 0.46882714 1.28664424 139 140 140
0.43203916 0.46966027 1.30897987 129 129 129
0.43820590 0.47946578 1.32919967 126 129 130
0.43914326 0.48387551 1.31311846 136 136 140
0.42642240 0.67613307 1.99381679 132 126 128
0.45723186 0.15724788 0.47904668 139 135 126
0.45877075 0.15422723 0.48197463 129 128 119
0.45059535 0.15131936 0.79698094 169 167 164
0.44735145 0.15235891 0.80752349 161 159 155
0.44346564 0.15672049 0.82818171 170 170 163
0.44254094 0.15778083 0.84326660 166 164 160
0.45736834 0.16027707 0.47873718 129 122 109
0.44901404 0.16086221 0.79751980 164 164 161
0.44709854 0.16290435 0.80954063 165 162 159
0.44352378 0.16262075 0.83104001 162 161 157
0.44313181 0.16365222 0.84320072 169 168 163
0.44513679 0.20299121 0.45223019 138 138 138
0.45100001 0.25970528 0.73764074 148 159 141
0.45301011 0.25651357 0.74928541 139 139 133
0.45112251 0.26105157 0.73784336 139 142 133
0.45395027 0.26350367 0.74971528 132 131 124
0.45769142 0.26535769 0.76416678 123 118 114
0.44305190 0.49073651 1.31629479 143 142 140
0.44404715 0.49159624 1.33641326 133 134 136
0.44321030 0.49142462 1.34703970 125 126 129
0.44765286 0.49855614 1.37227321 121 122 124
0.45206325 0.50797105 1.35000173 154 149 144
0.44881598 0.50312322 1.36855813 126 126 127
0.45044866 0.50694144 1.38818540 123 124 124
0.45057459 0.51233751 1.40350878 121 120 121
0.47982728 0.09119440 0.56917870 178 179 170
0.46158823 0.15617082 0.47955980 117 114 111
0.46137844 0.14935192 0.48295264 135 135 128
0.46202636 0.17154419 0.82570148 180 178 170
0.47212011 0.17751845 0.84953377 184 179 172
0.47420765 0.18021035 0.85673630 181 175 169
0.47604394 0.18356109 0.86319868 174 170 163
0.46418428 0.27563196 0.77276213 139 136 129
0.46588683 0.27933586 0.78188217 149 143 141
0.46892694 0.28183438 0.77851559 147 147 142
0.46967948 0.28378432 0.78484099 148 147 141
0.49738482 0.07978638 0.53865278 134 139 136
0.49860783 0.07773558 0.54795864 117 119 120
0.48705416 0.07888619 0.57140968 112 114 114
0.49705989 0.08322541 0.53920959 147 148 141
0.49778134 0.08234362 0.54509469 133 135 132
0.48482085 0.08497865 0.57057978 140 141 137
0.48924243 0.23798963 0.91979897 151 147 140
0.49124208 0.23736604 0.92355835 147 146 139
0.48514115 0.24796053 0.91182643 150 150 146
0.48864144 0.25140637 0.93236337 146 142 140
0.49057747 0.25210014 0.94512933 155 150 146
0.48489283 0.26170673 0.93712724 162 163 156
0.48603880 0.26356651 0.94679414 151 151 145
0.49220383 0.26079562 0.96291453 154 156 148
0.50281582 0.07296369 0.54869477 121 125 125
