ply
format ascii 1.0
element vertex 1117
property float x
property float y
property float z
property uchar red
property uchar green
property uchar blue
end_header
-1.07021126 0.28980767 1.14484105 0 0 0
-1.06994448 0.30987899 1.14821963 0 0 0
-1.07015444 0.32978865 1.15158471 0 0 0
-1.06990037 0.34969417 1.15482865 0 0 0
-1.06986564 0.36966954 1.15797185 0 0 0
-1.07932098 0.37837712 1.16013479 0 0 0
-1.06528625 0.38206272 1.15955413 0 0 0
-1.07092252 0.39120864 1.16141914 0 0 0
-1.07005466 0.40990147 1.16423216 0 0 0
-1.06984648 0.42999230 1.16742094 0 0 0
-1.07011976 0.45038310 1.17069822 0 0 0
-1.07009656 0.47020075 1.17386136 0 0 0
-1.06979427 0.48960903 1.17685873 0 0 0
-1.06798457 0.50555227 1.17915380 0 0 0
-1.07177337 0.51436738 1.18070212 0 0 0
-1.07024402 0.53013990 1.18284285 0 0 0
-1.07002704 0.55046681 1.18601614 0 0 0
-1.07026214 0.57053643 1.18892732 0 0 0
-1.07034655 0.59061068 1.19169957 0 0 0
-1.07027633 0.61045409 1.19429915 2 2 3
-1.07016653 0.63018229 1.19648358 6 6 8
-1.06827179 0.64882475 1.19832851 14 11 15
-1.07673958 0.65493375 1.20053388 1 1 1
-1.06357110 0.66383251 1.19947307 20 16 20
-1.07102816 0.67120980 1.20157380 16 12 17
-1.07013519 0.68269997 1.20338826 19 15 23
-1.04018115 -0.28236539 1.05532461 0 0 0
-1.04129073 -0.26833156 1.05682114 0 0 0
-1.04245961 -0.24874923 1.05879655 0 0 0
-1.04146069 -0.23652913 1.05971986 0 0 0
-1.04401805 -0.22777601 1.06107787 0 0 0
-1.04484861 -0.20951638 1.06324432 0 0 0
-1.04637957 -0.18990987 1.06598338 0 0 0
-1.04786002 -0.17018540 1.06885581 0 0 0
-1.04939590 -0.15031148 1.07178799 0 0 0
-1.04998062 -0.13062528 1.07459288 0 0 0
-1.04982734 -0.11055368 1.07754174 0 0 0
-1.05903660 -0.10137794 1.08013690 0 0 0
-1.04560393 -0.09588392 1.07924627 0 0 0
-1.05162880 -0.08809866 1.08124653 0 0 0
-1.05002045 -0.06982339 1.08389110 0 0 0
-1.04988093 -0.04943935 1.08681166 0 0 0
-1.05012994 -0.02984655 1.08957623 0 0 0
-1.05003517 -0.01005902 1.09229975 0 0 0
-1.05008141 0.00981328 1.09522810 0 0 0
-1.04933275 0.02884929 1.09808000 0 0 0
-1.05661246 0.03746356 1.10035965 0 0 0
-1.04353863 0.04266847 1.09971000 0 0 0
-1.05063350 0.05064875 1.10182959 0 0 0
-1.04994356 0.07027117 1.10516132 0 0 0
-1.05013762 0.09037598 1.10876645 0 0 0
-1.05003485 0.10991111 1.11231608 0 0 0
-1.05000377 0.12966051 1.11588288 0 0 0
-1.04895493 0.14634793 1.11875819 0 0 0
-1.05218566 0.15549298 1.12062425 0 0 0
-1.04992920 0.16915403 1.12278783 0 0 0
-1.05009079 0.18929163 1.12622125 0 0 0
-1.04992646 0.20929820 1.12958681 0 0 0
-1.04994107 0.22946483 1.13296434 0 0 0
-1.05006342 0.24989776 1.13640332 0 0 0
-1.04814636 0.26623656 1.13899595 0 0 0
-1.05207474 0.27531645 1.14082459 0 0 0
-1.04995629 0.29001008 1.14310688 0 0 0
-1.05002608 0.30966161 1.14645648 0 0 0
-1.04996735 0.33033835 1.14994572 0 0 0
-1.05001537 0.35022956 1.15327297 0 0 0
-1.05004123 0.37013911 1.15647674 0 0 0
-1.04830353 0.38709925 1.15905181 0 0 0
-1.05253061 0.39534672 1.16064989 0 0 0
-1.05003585 0.40990610 1.16266993 0 0 0
-1.05024419 0.43012976 1.16580058 0 0 0
-1.05002589 0.44989920 1.16881603 0 0 0
-1.04993522 0.46961714 1.17184963 0 0 0
-1.05004952 0.49008864 1.17501162 0 0 0
-1.05029513 0.50993533 1.17795414 0 0 0
-1.05817160 0.51953417 1.18015617 0 0 0
-1.04451385 0.52651172 1.17915220 8 8 10
-1.05295641 0.53164148 1.18128152 1 1 1
-1.04972563 0.55006054 1.18321617 10 8 12
-1.04968081 0.56998126 1.18566262 15 12 18
-1.04988812 0.59006525 1.18830577 19 16 22
-1.05004990 0.61015600 1.19084569 20 17 23
-1.05012035 0.63013697 1.19336054 19 17 24
-1.05000079 0.65012252 1.19596611 20 16 22
-1.04927734 0.66930109 1.19839759 21 16 22
-1.05626653 0.67713961 1.20039980 20 15 23
-1.04145024 0.68156292 1.19966447 21 16 24
-1.05274137 0.68152772 1.20093120 20 15 23
-1.02054892 -0.50252703 1.03540656 0 0 0
-1.02238759 -0.48865982 1.03809944 0 0 0
-1.02171220 -0.47308575 1.03953132 0 0 0
-1.02459562 -0.46763962 1.04060683 0 0 0
-1.02459455 -0.44955059 1.04148466 0 0 0
-1.02457577 -0.42978114 1.04231162 0 0 0
-1.02531327 -0.40975888 1.04298227 0 0 0
-1.02587735 -0.39014336 1.04355600 0 0 0
-1.02584298 -0.37001961 1.04434320 0 0 0
-1.02667884 -0.34940933 1.04597905 0 0 0
-1.02791744 -0.32957936 1.04797519 0 0 0
-1.02885295 -0.30971494 1.05005464 0 0 0
-1.02987500 -0.28997310 1.05234000 0 0 0
-1.02998771 -0.27031926 1.05429899 0 0 0
-1.03010548 -0.25040726 1.05617315 0 0 0
-1.02916548 -0.23053096 1.05797112 0 0 0
-1.03804418 -0.22346140 1.06036176 0 0 0
-1.02442422 -0.21275131 1.05911480 0 0 0
-1.03294495 -0.20797376 1.06127017 0 0 0
-1.03006427 -0.18984843 1.06310216 0 0 0
-1.02992234 -0.17006664 1.06580426 0 0 0
-1.03011481 -0.15019200 1.06870254 0 0 0
-1.02994594 -0.13021508 1.07167029 0 0 0
-1.03015033 -0.11004279 1.07489671 0 0 0
-1.02954145 -0.09050483 1.07794920 0 0 0
-1.03755241 -0.08210963 1.08044567 0 0 0
-1.02387393 -0.07658526 1.07935492 0 0 0
-1.03101987 -0.06852857 1.08160715 0 0 0
-1.03023992 -0.05000896 1.08417927 0 0 0
-1.03000097 -0.03039797 1.08692524 0 0 0
-1.02999734 -0.00996375 1.08981498 0 0 0
-1.03007092 0.00986242 1.09278807 0 0 0
-1.03014148 0.02976128 1.09598073 0 0 0
-1.02829910 0.04711570 1.09871395 0 0 0
-1.03357646 0.05496803 1.10073933 0 0 0
-1.03010330 0.06993330 1.10303089 0 0 0
-1.03005617 0.09037596 1.10678512 0 0 0
-1.03005633 0.10987401 1.11039565 0 0 0
-1.02989457 0.12933189 1.11392607 0 0 0
-1.02971593 0.14958502 1.11759419 0 0 0
-1.02581183 0.16265193 1.11955544 0 0 0
-1.03068805 0.17147694 1.12150249 0 0 0
-1.03010749 0.19041868 1.12468465 0 0 0
-1.02995139 0.21003860 1.12797713 0 0 0
-1.03021321 0.22948181 1.13123725 0 0 0
-1.03001774 0.24943507 1.13453940 0 0 0
-1.02986451 0.26962542 1.13787574 0 0 0
-1.03813873 0.27925783 1.14023006 0 0 0
-1.02439277 0.28302478 1.13952607 0 0 0
-1.03100881 0.29156835 1.14162955 0 0 0
-1.03006729 0.30999364 1.14463887 0 0 0
-1.02992832 0.32977685 1.14799114 0 0 0
-1.02998370 0.34986972 1.15138529 0 0 0
-1.03021091 0.36980723 1.15463572 0 0 0
-1.02976347 0.38994728 1.15767948 0 0 0
-1.02559482 0.40528765 1.15933298 0 0 0
-1.03251854 0.41191705 1.16117678 0 0 0
-1.03013556 0.43002773 1.16331273 0 0 0
-1.03038350 0.44992385 1.16595860 4 3 4
-1.03014034 0.47019297 1.16849639 10 9 14
-1.02955292 0.49016793 1.17107816 18 16 21
-1.02980302 0.51022373 1.17387169 23 20 28
-1.02990069 0.53012695 1.17673505 22 20 27
-1.02606492 0.54659300 1.17887656 22 20 28
-1.03334228 0.55303945 1.18091881 22 18 27
-1.02995066 0.56968693 1.18274452 21 19 27
-1.02988534 0.58974700 1.18556238 20 18 26
-1.02991154 0.60996688 1.18816652 19 18 24
-1.03011519 0.63006154 1.19079922 21 17 23
-1.02999856 0.65001043 1.19344442 20 18 22
-1.03005035 0.66961155 1.19599097 20 16 23
-1.03187729 0.68071761 1.19817659 19 17 22
-1.00190767 -0.68510724 1.01850338 0 0 0
-1.00427876 -0.68324591 1.02188553 0 0 0
-1.00415354 -0.66982791 1.02139610 0 0 0
-1.00268286 -0.64836810 1.01906752 0 0 0
-1.00461622 -0.65653387 1.02026415 0 0 0
-1.00254467 -0.62983271 1.01849765 0 0 0
-1.00496825 -0.62181061 1.02019536 0 0 0
-1.00178065 -0.61930585 1.01994216 0 0 0
-1.00474561 -0.60937220 1.02125750 0 0 0
-1.00571974 -0.58966131 1.02373307 0 0 0
-1.00704833 -0.56964087 1.02559315 0 0 0
-1.00701749 -0.54993734 1.02618666 0 0 0
-1.00804057 -0.52982740 1.02822594 0 0 0
-1.00950508 -0.51012292 1.03105899 0 0 0
-1.00973919 -0.49009120 1.03380242 0 0 0
-1.00953676 -0.47004975 1.03581683 0 0 0
-1.01015696 -0.45037180 1.03702209 0 0 0
-1.01987063 -0.44641831 1.04019058 0 0 0
-1.00830852 -0.43025372 1.03741840 0 0 0
-1.01780019 -0.42716484 1.04037131 0 0 0
-1.00757952 -0.41015203 1.03796445 0 0 0
-1.01752396 -0.40959472 1.04073220 0 0 0
-1.00614460 -0.39000888 1.03815916 0 0 0
-1.01674089 -0.38933200 1.04100592 0 0 0
-1.00510114 -0.37118254 1.03884018 0 0 0
-1.01428273 -0.36868931 1.04133552 0 0 0
-1.00238716 -0.35498017 1.03938798 0 0 0
-1.01141560 -0.34921958 1.04210893 0 0 0
-1.01003755 -0.33011868 1.04364797 0 0 0
-1.00979728 -0.31006020 1.04573113 0 0 0
-1.01036328 -0.28999901 1.04806833 0 0 0
-1.01008158 -0.26975669 1.05016199 0 0 0
-1.01007306 -0.24954802 1.05219982 0 0 0
-1.01013265 -0.23008534 1.05433857 0 0 0
-1.01011615 -0.21026288 1.05669950 0 0 0
-1.00705034 -0.19170732 1.05849532 0 0 0
-1.01543266 -0.18636680 1.06091178 0 0 0
-1.00166444 -0.17661693 1.05951054 0 0 0
-1.01035778 -0.16892654 1.06238368 0 0 0
-1.01020234 -0.14966767 1.06523842 0 0 0
-1.00984398 -0.12980655 1.06831046 0 0 0
-1.01013285 -0.10983713 1.07164473 0 0 0
-1.01025369 -0.08974208 1.07499839 0 0 0
-1.00903017 -0.07015322 1.07788042 0 0 0
-1.01737806 -0.06301672 1.08039562 0 0 0
-1.00386755 -0.05466418 1.07934802 0 0 0
-1.01184710 -0.04890634 1.08155045 0 0 0
-1.01001690 -0.03048001 1.08390584 0 0 0
-1.01010608 -0.00997461 1.08692505 0 0 0
-1.00983977 0.00975541 1.08989329 0 0 0
-1.01022700 0.02974383 1.09326469 0 0 0
-1.01000468 0.04967669 1.09673111 0 0 0
-1.00703609 0.06445499 1.09908594 0 0 0
-1.01197794 0.07309418 1.10135676 0 0 0
-1.01001477 0.09007128 1.10430192 0 0 0
-1.01009452 0.10953981 1.10805713 0 0 0
-1.00980025 0.12983912 1.11190686 0 0 0
-1.01022630 0.15044086 1.11589364 0 0 0
-1.00833146 0.16746010 1.11881249 0 0 0
-1.01285330 0.17608244 1.12075503 0 0 0
-1.01008955 0.19061266 1.12296317 0 0 0
-1.00996269 0.21066384 1.12628253 0 0 0
-1.00992729 0.23052017 1.12944626 0 0 0
-1.00998010 0.24997734 1.13255834 0 0 0
-1.01040512 0.26952280 1.13571234 0 0 0
-1.00883010 0.28799337 1.13843102 0 0 0
-1.01487888 0.29645222 1.14066766 0 0 0
-1.00165193 0.30225809 1.13963869 0 0 0
-1.01053151 0.31070268 1.14242377 0 0 0
-1.01027093 0.33002377 1.14558525 0 0 0
-1.01091501 0.34999290 1.14885060 0 0 0
-1.01041708 0.37005396 1.15143249 5 5 7
-1.01037122 0.38992711 1.15385829 14 13 13
-1.00953683 0.40999562 1.15599178 24 20 26
-1.00809663 0.42918820 1.15808963 28 25 32
-1.01753651 0.43245306 1.16072781 21 18 24
-1.00385758 0.44441602 1.15943858 28 27 33
-1.01129365 0.45119675 1.16183982 29 25 31
-1.01016948 0.47003980 1.16441967 27 24 33
-1.01001789 0.48978776 1.16745970 27 24 32
-1.00964871 0.50969205 1.17054432 26 23 32
-1.00997142 0.52988181 1.17378415 24 23 29
-1.01014111 0.55023151 1.17721396 24 21 29
-1.00663529 0.56573934 1.17907294 24 22 27
-1.01241039 0.57359772 1.18102038 21 19 27
-1.00993097 0.59028333 1.18310399 23 19 26
-1.01001988 0.61010101 1.18574929 20 18 26
-1.01005719 0.62994658 1.18834172 21 18 24
-1.01012122 0.64992528 1.19098037 21 17 24
-1.01000341 0.66990313 1.19341924 20 16 23
-0.98529111 -0.68389708 1.01955760 0 0 0
-0.99307088 -0.68535590 1.02097629 0 0 0
-0.98796204 -0.66873372 1.01860969 0 0 0
-0.99592253 -0.67524762 1.02056247 0 0 0
-0.98977604 -0.65011199 1.01667879 0 0 0
-0.98980931 -0.62987823 1.01500051 0 0 0
-0.99179590 -0.61157269 1.01688020 1 1 1
-0.99840445 -0.60000398 1.02009499 0 0 0
-0.99051524 -0.59136369 1.01785689 0 0 0
-0.99698787 -0.58911147 1.02125220 0 0 0
-0.98677577 -0.57006550 1.01743592 0 0 0
-0.99541550 -0.56970442 1.02197229 0 0 0
-0.98435901 -0.55233245 1.01849794 0 0 0
-0.99350544 -0.54951369 1.02267719 0 0 0
-0.98313630 -0.53569626 1.01934615 0 0 0
-0.99195188 -0.52955819 1.02384660 0 0 0
-0.99089773 -0.50968138 1.02577273 0 0 0
-0.99072397 -0.48984676 1.02778538 0 0 0
-0.98994409 -0.47011893 1.02993490 0 0 0
-0.99030430 -0.45010242 1.03089641 0 0 0
-0.98981910 -0.42993500 1.03173436 0 0 0
-0.99042808 -0.41006323 1.03295672 0 0 0
-0.98964933 -0.39001905 1.03351527 0 0 0
-0.99036902 -0.36992452 1.03488187 0 0 0
-0.99003672 -0.35006124 1.03634492 0 0 0
-0.98800811 -0.33087135 1.03759023 0 0 0
-0.99724533 -0.32713398 1.04078245 0 0 0
-0.98438643 -0.31145796 1.03860248 0 0 0
-0.99409587 -0.30891939 1.04175901 0 0 0
-0.98154980 -0.29594422 1.03959196 0 0 0
-0.99052366 -0.28969045 1.04293416 0 0 0
-0.98994301 -0.27015078 1.04509688 0 0 0
-0.99026588 -0.25012892 1.04753894 0 0 0
-0.99006778 -0.22982893 1.04994008 0 0 0
-0.98987750 -0.20982913 1.05232080 0 0 0
-0.99005585 -0.19019298 1.05491736 0 0 0
-0.98934152 -0.17117879 1.05749665 0 0 0
-0.99771265 -0.16388659 1.06059363 0 0 0
-0.98429752 -0.15352917 1.05894784 0 0 0
-0.99294490 -0.14836175 1.06184183 0 0 0
-0.98980513 -0.12955065 1.06414002 0 0 0
-0.99015868 -0.10954046 1.06760412 0 0 0
-0.99013430 -0.08933641 1.07106380 0 0 0
-0.99026925 -0.06950776 1.07432348 0 0 0
-0.98944104 -0.05046448 1.07711866 0 0 0
-0.99877942 -0.04226298 1.08025237 0 0 0
-0.98559939 -0.03372001 1.07895106 0 0 0
-0.99310055 -0.02799514 1.08126758 0 0 0
-0.99005670 -0.00990475 1.08349044 0 0 0
-0.98991945 0.00981005 1.08665527 0 0 0
-0.99020299 0.02958362 1.09011626 0 0 0
-0.98997814 0.04975710 1.09373923 0 0 0
-0.98977163 0.06925445 1.09740484 0 0 0
-0.99770307 0.07803595 1.10034380 0 0 0
-0.98447436 0.08369726 1.09927127 0 0 0
-0.99133138 0.09128978 1.10189885 0 0 0
-0.98976229 0.10977572 1.10534966 0 0 0
-0.99031208 0.13030006 1.10959643 0 0 0
-0.99001813 0.15053847 1.11359320 0 0 0
-0.99012568 0.17022736 1.11727022 0 0 0
-0.99943614 0.17945519 1.12004757 0 0 0
-0.98561032 0.18512108 1.11918534 0 0 0
-0.99211752 0.19250612 1.12130282 0 0 0
-0.99002691 0.21017093 1.12375776 0 0 0
-0.99014450 0.23023099 1.12676462 0 0 0
-0.99030554 0.25023304 1.12971316 0 0 0
-0.99034204 0.27022722 1.13248077 1 1 2
-0.99042262 0.29008129 1.13489470 7 7 10
-0.98894576 0.30928977 1.13661676 19 18 22
-0.99789692 0.31486127 1.14069408 0 0 0
-0.98571578 0.32936780 1.13813031 35 33 40
-0.99577570 0.33126363 1.14177577 9 9 11
-0.98295213 0.34172216 1.13953962 35 33 46
-0.98980380 0.35056036 1.14247479 33 29 40
-0.98952279 0.37005920 1.14553127 34 32 39
-0.99023322 0.39000337 1.14879480 34 30 35
-0.98970090 0.41001207 1.15180587 34 30 38
-0.99017298 0.43002874 1.15495088 32 29 35
-0.98917631 0.44946898 1.15779384 30 27 33
-0.99810014 0.45739683 1.16051120 29 24 33
-0.98450275 0.46433022 1.15945862 27 26 33
-0.99139131 0.47148750 1.16165803 28 25 33
-0.99010697 0.49023443 1.16450414 28 24 32
-0.98990389 0.51005628 1.16766812 26 24 32
-0.98990526 0.52969252 1.17086316 25 23 29
-0.98985263 0.54977497 1.17425812 25 23 29
-0.98987660 0.56983739 1.17736829 24 23 26
-0.98606396 0.58574613 1.17926163 26 21 27
-0.99242735 0.59268328 1.18111238 25 21 26
-0.98994728 0.60994134 1.18309617 23 20 27
-0.99007335 0.62996264 1.18569586 21 19 24
-0.99020734 0.65007659 1.18831574 20 17 25
-0.98992467 0.66893086 1.19049515 19 17 24
-0.97067427 -0.68371205 1.01786720 0 0 0
-0.97006228 -0.66999547 1.01620382 0 0 0
-0.96978187 -0.65025038 1.01357377 0 0 0
-0.97006511 -0.63024743 1.01105875 0 0 0
-0.96927147 -0.61347695 1.00950412 0 0 0
-0.96771554 -0.59382807 0.99612858 115 122 124
-0.97781265 -0.59267776 1.00616324 41 43 43
-0.96638721 -0.57044022 0.99617827 0 0 0
-0.97448699 -0.56703708 1.00542456 0 0 0
-0.96392717 -0.55623971 0.99541593 0 0 0
-0.97532817 -0.54947620 1.00989464 15 16 15
-0.96477574 -0.53798573 0.99986148 0 0 0
-0.97172859 -0.52571391 1.00947368 1 1 2
-0.97152093 -0.51513729 1.01101850 0 0 0
-0.97945632 -0.51031590 1.02056026 0 0 0
-0.97090037 -0.48808537 1.01550611 0 0 0
-0.97801999 -0.48727758 1.02219329 0 0 0
-0.96809385 -0.46721007 1.01696238 0 0 0
-0.97682695 -0.46972613 1.02458576 0 0 0
-0.96325318 -0.44813499 1.01556575 0 0 0
-0.97475895 -0.44830824 1.02509872 0 0 0
-0.96231956 -0.43486273 1.01736212 0 0 0
-0.97308253 -0.42945706 1.02583935 0 0 0
-0.96008672 -0.41959805 1.01872456 0 0 0
-0.97129401 -0.40962125 1.02660142 0 0 0
-0.97035364 -0.38986993 1.02763901 0 0 0
-0.97060401 -0.36992764 1.02917405 0 0 0
-0.97006643 -0.34992736 1.03034233 0 0 0
-0.97031552 -0.32982745 1.03221344 0 0 0
-0.96989790 -0.30990602 1.03423419 0 0 0
-0.96967443 -0.29040530 1.03666754 0 0 0
-0.97817259 -0.28239094 1.04029977 0 0 0
-0.96606067 -0.27131519 1.03799870 0 0 0
-0.97587027 -0.26837964 1.04144593 0 0 0
-0.96257708 -0.25459575 1.03923497 0 0 0
-0.97126489 -0.24908404 1.04258579 0 0 0
-0.96989242 -0.23015746 1.04471843 0 0 0
-0.97021351 -0.21023796 1.04721338 0 0 0
-0.96977081 -0.18999737 1.04964805 0 0 0
-0.97004013 -0.16988130 1.05259362 0 0 0
-0.96988461 -0.15023421 1.05558651 0 0 0
-0.96768338 -0.13195017 1.05794755 0 0 0
-0.97591956 -0.12688859 1.06103698 0 0 0
-0.96230852 -0.11627189 1.05935606 0 0 0
-0.97107953 -0.10958720 1.06288030 0 0 0
-0.96999373 -0.09030788 1.06612868 0 0 0
-0.96991575 -0.07053486 1.06948485 0 0 0
-0.97005507 -0.05053688 1.07277488 0 0 0
-0.96995749 -0.03037294 1.07600184 0 0 0
-0.96721395 -0.01171305 1.07839897 0 0 0
-0.97531744 -0.00639495 1.08115046 0 0 0
-0.96220419 0.00279553 1.07957702 0 0 0
-0.97054434 0.01015276 1.08278786 0 0 0
-0.97000399 0.02949461 1.08610628 0 0 0
-0.97001022 0.05038635 1.09005715 0 0 0
-0.97016892 0.07043348 1.09404496 0 0 0
-0.96931865 0.08866290 1.09750886 0 0 0
-0.97652299 0.09643886 1.10055112 0 0 0
-0.96332701 0.10253177 1.09912869 0 0 0
-0.97093406 0.11087735 1.10244094 0 0 0
-0.97030364 0.13026784 1.10632902 0 0 0
-0.97059540 0.14968220 1.11024907 0 0 0
-0.97105090 0.16959762 1.11366247 2 2 2
-0.97095715 0.18945969 1.11648929 10 9 11
-0.97831736 0.19885013 1.12024939 0 0 0
-0.96624367 0.20962990 1.11704289 32 32 38
-0.97640295 0.21025363 1.12130653 0 0 0
-0.96379600 0.22925097 1.11846028 46 45 50
-0.97372138 0.23054495 1.12263037 17 16 17
-0.96107508 0.24197713 1.11971172 44 43 47
-0.96964925 0.25058852 1.12356511 35 35 38
-0.96941003 0.27022966 1.12603093 41 39 48
-0.97001154 0.28983154 1.12891576 41 37 48
-0.97017879 0.30968398 1.13193189 39 38 44
-0.97001035 0.32995699 1.13531789 38 36 42
-0.96815071 0.34885054 1.13823275 35 34 42
-0.97601996 0.35513125 1.14061627 36 33 41
-0.96235734 0.36247630 1.13956376 34 34 39
-0.97050981 0.37012637 1.14218129 34 33 39
-0.96968312 0.39002383 1.14523182 34 32 38
-0.97030467 0.41003663 1.14853526 34 30 38
-0.96972825 0.43000521 1.15160566 32 29 35
-0.97003985 0.45015085 1.15492225 30 28 34
-0.96929878 0.46942333 1.15798655 31 27 34
-0.97809136 0.47747963 1.16057022 27 25 33
-0.96361553 0.48352970 1.15944455 31 24 33
-0.97078392 0.49100735 1.16176725 28 25 31
-0.97009834 0.51015340 1.16476681 26 24 32
-0.97019189 0.53029876 1.16808564 25 23 31
-0.96988857 0.55004246 1.17138357 25 23 29
-0.96992260 0.56985887 1.17456129 25 22 28
-0.96974433 0.58984975 1.17763218 25 21 28
-0.97974189 0.59914945 1.18028009 22 18 25
-0.96589381 0.60586480 1.17932786 25 22 28
-0.97255428 0.61283665 1.18114290 24 20 26
-0.96995787 0.62999840 1.18302021 22 20 24
-0.97001824 0.65016088 1.18559629 21 19 25
-0.97024368 0.66836519 1.18761958 20 17 24
-0.95051400 -0.68278785 1.01454280 0 0 0
-0.95008445 -0.66994642 1.01304891 0 0 0
-0.94998210 -0.64991834 1.01057525 0 0 0
-0.95021247 -0.62997721 1.00790204 0 0 0
-0.94980629 -0.61170291 1.00531453 0 0 0
-0.94245186 -0.58631221 0.97672576 110 111 113
-0.94991402 -0.59670179 0.99460052 92 94 97
-0.95294484 -0.56420330 0.98232150 11 11 12
-0.94538392 -0.55481731 0.97626692 89 88 93
-0.95566753 -0.55439289 0.98723987 30 32 32
-0.95687235 -0.52802893 0.99256253 0 0 0
-0.94139848 -0.51160604 0.97914189 62 65 67
-0.95013747 -0.51179646 0.98823494 11 11 12
-0.95217918 -0.49012735 0.99392843 0 0 0
-0.95845864 -0.48212473 1.00229156 0 0 0
-0.94455852 -0.47611955 0.98865143 2 2 2
-0.95831469 -0.46509882 1.00669026 0 0 0
-0.94652062 -0.45288762 0.99641093 24 25 25
-0.95447024 -0.44906118 1.00584790 0 0 0
-0.94381000 -0.42994766 0.99779385 0 0 0
-0.95543424 -0.42433577 1.01255276 11 12 12
-0.95050612 -0.41092530 1.01041190 22 23 24
-0.94866815 -0.39064184 1.01218049 3 3 3
-0.95806953 -0.38792981 1.02241882 0 0 0
-0.94606393 -0.36906379 1.01376283 0 0 0
-0.95712952 -0.36868330 1.02426241 0 0 0
-0.94378618 -0.35166377 1.01516005 0 0 0
-0.95486661 -0.34844002 1.02472763 0 0 0
-0.94136899 -0.32909914 1.01657587 0 0 0
-0.95370553 -0.32940348 1.02589474 0 0 0
-0.95167927 -0.30987677 1.02735464 0 0 0
-0.95110768 -0.28984449 1.03062046 0 0 0
-0.95086893 -0.26961248 1.03318595 0 0 0
-0.95026296 -0.25005809 1.03599257 0 0 0
-0.95857882 -0.24141830 1.04001296 0 0 0
-0.94689159 -0.23127414 1.03762418 0 0 0
-0.95628851 -0.22811876 1.04120955 0 0 0
-0.94303005 -0.21296259 1.03900878 0 0 0
-0.95213917 -0.20885809 1.04249830 0 0 0
-0.95006336 -0.18998923 1.04421331 0 0 0
-0.95038408 -0.17012836 1.04696648 0 0 0
-0.94975732 -0.14983162 1.04999716 0 0 0
-0.95014797 -0.12967651 1.05342355 0 0 0
-0.94946254 -0.11078737 1.05699724 0 0 0
-0.95761694 -0.10366846 1.06059828 0 0 0
-0.94437487 -0.09375098 1.05889314 0 0 0
-0.95267604 -0.08895005 1.06204869 0 0 0
-0.94998806 -0.07039560 1.06435068 0 0 0
-0.95015886 -0.05039592 1.06763511 0 0 0
-0.95016658 -0.03019598 1.07114305 0 0 0
-0.95019423 -0.00992312 1.07458571 0 0 0
-0.94919094 0.00946356 1.07754837 0 0 0
-0.95643019 0.01687071 1.08074815 0 0 0
-0.94373288 0.02692093 1.07896088 0 0 0
-0.95280998 0.03086725 1.08236288 0 0 0
-0.95097329 0.04996742 1.08529718 0 0 0
-0.95159222 0.06991854 1.08918327 1 1 1
-0.95197046 0.08999813 1.09300169 8 8 8
-0.95026303 0.10906072 1.09521801 29 29 29
-0.95799326 0.11602158 1.10071128 0 0 0
-0.94557635 0.13023936 1.09559861 62 63 65
-0.95713450 0.13002855 1.10265458 4 4 4
-0.94379353 0.14907508 1.09825080 62 59 72
-0.95295588 0.15216800 1.10301851 46 43 52
-0.94878698 0.17059097 1.10440032 55 54 63
-0.94945398 0.19028835 1.10818179 52 50 59
-0.94987333 0.20986139 1.11188021 49 48 54
-0.94994138 0.22979303 1.11534456 47 46 51
-0.94815874 0.24826903 1.11808899 46 44 49
-0.95579730 0.25511137 1.12072872 44 44 48
-0.94285373 0.26257680 1.11952353 44 43 48
-0.95089223 0.27084157 1.12230297 43 41 48
-0.95013552 0.29017091 1.12538368 42 40 47
-0.94965998 0.31021014 1.12859802 40 38 45
-0.95032618 0.32979310 1.13208757 39 36 44
-0.94980027 0.34979889 1.13547422 36 36 41
-0.94852830 0.36836307 1.13847311 34 33 38
-0.95455573 0.37618520 1.14068710 35 33 37
-0.94117644 0.38256476 1.13975388 35 33 40
-0.95046586 0.39003296 1.14227739 34 32 39
-0.94975517 0.40997946 1.14538533 33 32 38
-0.95039314 0.43006102 1.14867012 32 30 35
-0.94960613 0.45000528 1.15187000 30 29 34
-0.95022946 0.47021160 1.15533131 31 26 33
-0.94884583 0.48878864 1.15823275 29 26 32
-0.95632887 0.49643139 1.16062557 28 26 30
-0.94285378 0.50179255 1.15958363 26 25 33
-0.95024835 0.51042009 1.16194048 26 25 32
-0.95002841 0.52992365 1.16511777 26 25 31
-0.95002890 0.55006145 1.16853600 26 24 29
-0.95009626 0.57013319 1.17180906 25 22 29
-0.95006791 0.59023684 1.17497067 25 23 29
-0.94975614 0.61000618 1.17765457 25 23 27
-0.95925673 0.61949476 1.18017554 23 22 26
-0.94562226 0.62587284 1.17917307 23 22 27
-0.95280805 0.63246766 1.18105702 23 21 27
-0.94975192 0.64992121 1.18278273 22 19 26
-0.95036207 0.66712678 1.18469143 18 15 20
-0.93092273 -0.68162345 1.01126719 0 0 0
-0.92997104 -0.67001941 1.00972412 0 0 0
-0.92998791 -0.65003669 1.00737755 0 0 0
-0.92987838 -0.63014761 1.00463556 0 0 0
-0.92371955 -0.60386480 0.99944281 0 0 0
-0.93088550 -0.61181303 1.00200104 0 0 0
-0.93980623 -0.58362090 0.97224236 112 117 118
-0.92936891 -0.59798741 0.99617524 44 46 48
-0.92637082 -0.57157703 0.95492828 166 182 181
-0.92418098 -0.55046651 0.95267093 49 49 53
-0.93161360 -0.55123372 0.96118951 81 80 85
-0.93452195 -0.53151702 0.96764120 59 63 62
-0.92246301 -0.51200335 0.95772552 84 85 87
-0.92958691 -0.51178111 0.96512175 23 24 24
-0.92836125 -0.48575470 0.96819961 3 3 3
-0.93137654 -0.47775587 0.97397092 36 37 38
-0.92416522 -0.45019775 0.97169726 59 61 62
-0.93344186 -0.44960564 0.98234627 46 48 47
-0.93346919 -0.43168374 0.98595726 18 19 19
-0.92523741 -0.41887107 0.97994959 69 71 74
-0.93365089 -0.41596279 0.98994652 43 44 44
-0.93164011 -0.38844822 0.99401141 49 50 51
-0.93867187 -0.38827401 1.00151205 0 0 0
-0.92527339 -0.36702227 0.99087119 0 0 0
-0.93895822 -0.36095286 1.00739086 0 0 0
-0.92575287 -0.35723847 0.99383815 17 18 18
-0.93294543 -0.35098373 1.00372869 13 13 14
-0.92178632 -0.32513882 0.99635798 0 0 0
-0.93246254 -0.32405268 1.00821660 0 0 0
-0.92212409 -0.31810147 0.99858868 0 0 0
-0.93266607 -0.30426069 1.01284805 0 0 0
-0.93926698 -0.30052727 1.02097511 0 0 0
-0.92851091 -0.29286325 1.01181982 6 7 6
-0.93863636 -0.29006185 1.02349536 0 0 0
-0.92652429 -0.27004690 1.01427454 0 0 0
-0.93648942 -0.26793674 1.02542114 0 0 0
-0.92699011 -0.25242122 1.01911843 0 0 0
-0.93707431 -0.24942185 1.02985902 0 0 0
-0.92139372 -0.23515732 1.01683021 8 8 8
-0.93508690 -0.22903897 1.03193943 2 2 2
-0.93539975 -0.20969714 1.03536434 0 0 0
-0.93253455 -0.19190563 1.03636965 0 0 0
-0.93754694 -0.18582647 1.04076480 0 0 0
-0.92684782 -0.16942901 1.03508914 0 0 0
-0.93634229 -0.16973167 1.04247330 0 0 0
-0.92525853 -0.15425703 1.03651559 0 0 0
-0.93510636 -0.14971339 1.04499410 0 0 0
-0.92123243 -0.12605698 1.03743076 0 0 0
-0.93462458 -0.13011543 1.04797845 0 0 0
-0.93413268 -0.11022293 1.05154911 0 0 0
-0.93384401 -0.09036749 1.05480648 0 0 0
-0.93159711 -0.07249497 1.05654301 5 5 5
-0.93778609 -0.06762339 1.06108768 0 0 0
-0.92545496 -0.05130379 1.05405421 2 2 2
-0.93622302 -0.05035873 1.06310504 0 0 0
-0.92522666 -0.03212067 1.05676712 29 30 30
-0.93569247 -0.02955466 1.06596841 0 0 0
-0.92239662 -0.00786124 1.05726191 72 73 77
-0.93493043 -0.00978552 1.06845096 3 3 3
-0.92246020 0.00493775 1.05908306 83 84 91
-0.93271524 0.01100756 1.06927840 25 26 27
-0.93029717 0.03100684 1.06986670 56 56 58
-0.92805525 0.05051754 1.07149953 83 84 88
-0.93982626 0.05172529 1.08045089 0 0 0
-0.92676563 0.07034835 1.07511985 97 94 108
-0.93781150 0.07188101 1.08162721 65 62 74
-0.92489491 0.08583574 1.07853405 89 92 100
-0.93120346 0.09269470 1.08233927 86 87 89
-0.92940522 0.11028538 1.08594204 77 78 81
-0.93001871 0.13041164 1.09094885 70 70 75
-0.92998636 0.15000833 1.09548360 62 63 69
-0.92694279 0.16639092 1.09852243 58 56 65
-0.93315766 0.17330110 1.10122917 57 55 65
-0.92972907 0.18952326 1.10378272 54 53 61
-0.92998863 0.20984917 1.10776908 51 49 56
-0.92982556 0.23011160 1.11148992 48 47 52
-0.93009306 0.25003115 1.11513501 46 45 50
-0.92877927 0.26895084 1.11823169 44 43 47
-0.93667675 0.27558587 1.12062209 43 42 47
-0.92400338 0.28157385 1.11966021 43 43 48
-0.93068331 0.29008741 1.12223105 42 41 46
-0.92973616 0.30967787 1.12542458 40 39 45
-0.93016188 0.33024799 1.12913350 39 38 44
-0.92954073 0.35011835 1.13255712 38 36 42
-0.93028953 0.36987202 1.13611965 36 35 39
-0.92796046 0.38771180 1.13869265 34 33 39
-0.93402047 0.39540514 1.14072963 34 33 39
-0.92054801 0.40130402 1.13982356 35 33 37
-0.93016561 0.40999676 1.14255151 35 32 39
-0.93000030 0.42991358 1.14568999 34 30 37
-0.93022206 0.44999645 1.14906594 31 30 35
-0.92967407 0.46984517 1.15230823 32 28 35
-0.93016496 0.49008262 1.15578093 29 27 33
-0.92851638 0.50824405 1.15844769 28 26 32
-0.93561122 0.51534492 1.16056600 27 26 31
-0.92183941 0.52185246 1.15962183 28 27 32
-0.93042475 0.53038677 1.16237023 28 24 32
-0.92987619 0.54994259 1.16558883 27 24 31
-0.93015392 0.56999609 1.16894104 26 24 30
-0.92993015 0.58994546 1.17204322 26 24 29
-0.93004156 0.60994569 1.17480734 25 23 28
-0.92994646 0.62987667 1.17744076 23 21 29
-0.93878305 0.63984182 1.18008089 23 21 28
-0.92586122 0.64781678 1.17896707 23 21 27
-0.93481576 0.65213418 1.18081049 22 20 26
-0.92104465 0.66376787 1.17982817 8 7 10
-0.93085872 0.66656451 1.18178203 10 8 11
-0.91407680 -0.68051106 1.00875428 0 0 0
-0.90988053 -0.67002391 1.00685637 0 0 0
-0.91007238 -0.64997694 1.00454759 0 0 0
-0.90179301 -0.62195797 0.99964828 0 0 0
-0.91029184 -0.63046605 1.00193115 0 0 0
-0.90906604 -0.60866716 0.99847343 0 0 0
-0.91549112 -0.61728506 1.00041693 0 0 0
-0.90859868 -0.59784223 0.99552347 1 1 1
-0.90785773 -0.55125224 0.93584448 169 172 174
-0.91720243 -0.54878368 0.94581553 117 116 121
-0.91277084 -0.51068345 0.94709647 100 103 106
-0.91182575 -0.49717385 0.94838351 89 92 94
-0.90988893 -0.47396397 0.95006874 42 42 44
-0.90654742 -0.45053394 0.95144796 73 75 76
-0.91659580 -0.44858884 0.96373999 99 100 100
-0.90227292 -0.43581226 0.95040762 132 133 134
-0.91398610 -0.42893862 0.96450168 59 60 63
-0.90325603 -0.41515515 0.95579314 105 108 109
-0.91201366 -0.41518322 0.96550649 75 77 80
-0.90091701 -0.39233855 0.95857838 132 136 139
-0.91080278 -0.38927030 0.97034396 100 103 106
-0.91874559 -0.38680881 0.98025179 113 113 120
-0.90674384 -0.36560599 0.97042793 56 58 58
-0.90573469 -0.35455360 0.97234744 92 95 97
-0.91749157 -0.35865383 0.98435968 41 41 42
-0.90506162 -0.32792443 0.97645601 8 8 9
-0.91376319 -0.33105492 0.98584841 18 18 19
-0.90271761 -0.30183391 0.97940618 0 0 0
-0.91773545 -0.30513431 0.99569982 0 0 0
-0.91064412 -0.29475299 0.99098692 22 23 23
-0.90703890 -0.27068125 0.99247260 25 26 25
-0.91594859 -0.26463102 1.00364235 6 6 7
-0.90195700 -0.24177797 0.99348524 50 57 55
-0.91437330 -0.24465877 1.00652293 5 5 5
-0.91210504 -0.23507174 1.00705892 71 73 71
-0.90952102 -0.20659891 1.00922779 20 20 21
-0.91019922 -0.19228175 1.01317310 22 22 23
-0.91882435 -0.19833456 1.02179074 12 12 12
-0.90489810 -0.17178777 1.01116586 24 24 24
-0.91631220 -0.16627211 1.02451189 0 0 0
-0.90473212 -0.14963822 1.01489705 8 8 8
-0.91605650 -0.14972967 1.02760112 0 0 0
-0.90366427 -0.13370250 1.01715091 37 38 38
-0.91338212 -0.12852463 1.02859304 10 10 10
-0.90125930 -0.10630125 1.01990056 99 101 100
-0.91055946 -0.10642715 1.02975406 41 42 41
-0.90891295 -0.09098247 1.03108072 95 99 99
-0.91824487 -0.08782125 1.04115856 14 15 15
-0.90648317 -0.06562403 1.03186693 85 86 88
-0.91693892 -0.06991294 1.04274517 50 53 52
-0.90533269 -0.05121919 1.03335164 146 149 153
-0.91637263 -0.04750758 1.04518068 53 55 55
-0.90369255 -0.02723194 1.03591631 163 168 170
-0.91313757 -0.02892379 1.04472617 111 113 114
-0.90190089 -0.01438423 1.03832526 156 158 158
-0.90834908 -0.00742109 1.04546900 133 136 139
-0.90784147 0.01094678 1.05067535 120 122 126
-0.90817710 0.02930294 1.05696682 114 114 119
-0.91526396 0.03710006 1.06114292 110 111 117
-0.90181200 0.04158230 1.05991566 112 112 121
-0.90985782 0.05008905 1.06443037 107 107 114
-0.90992432 0.06985347 1.07075681 99 98 105
-0.90972649 0.08941290 1.07642825 88 88 94
-0.91863627 0.09778704 1.08042105 86 87 88
-0.90445748 0.10245068 1.07901244 82 81 89
-0.91090241 0.11128842 1.08247789 77 78 82
-0.91000041 0.13001283 1.08697973 72 70 76
-0.90986084 0.14965053 1.09154552 63 63 69
-0.91017871 0.17002841 1.09601316 59 57 65
-0.90636488 0.18677380 1.09874595 55 54 60
-0.91308762 0.19355718 1.10136664 54 53 59
-0.90993593 0.21029338 1.10411144 53 49 57
-0.90996422 0.23021431 1.10798713 49 47 55
-0.91019591 0.25025530 1.11189483 46 45 51
-0.90974327 0.27030426 1.11545959 44 44 49
-0.90834311 0.28836923 1.11852255 44 43 47
-0.91441373 0.29606000 1.12083321 41 40 44
-0.90040670 0.30131791 1.11967707 43 41 48
-0.90979183 0.31031185 1.12262956 41 40 46
-0.91045391 0.32974582 1.12626870 40 40 44
-0.90985288 0.34998367 1.12984530 39 37 44
-0.90984513 0.37010941 1.13335919 38 37 41
-0.91017071 0.38975548 1.13652991 34 34 39
-0.90744133 0.40678391 1.13882571 34 32 38
-0.91325929 0.41461228 1.14090328 35 32 39
-0.91015064 0.42990481 1.14284321 34 32 37
-0.90997397 0.44972852 1.14608969 32 31 37
-0.91010318 0.46997967 1.14947685 32 29 36
-0.90978572 0.48982461 1.15277900 30 28 36
-0.91024733 0.51001923 1.15604784 28 27 33
-0.90785184 0.52777284 1.15862510 30 25 35
-0.91436167 0.53512315 1.16087154 29 25 35
-0.90056334 0.54062121 1.15975499 30 25 35
-0.91010910 0.55012323 1.16272017 27 24 31
-0.90994143 0.56989989 1.16592343 26 24 31
-0.90979770 0.58998659 1.16897471 26 25 29
-0.90993260 0.61004146 1.17168436 25 23 30
-0.91005807 0.63018336 1.17439337 25 23 29
-0.91009662 0.65033676 1.17673506 22 21 27
-0.90877729 0.66498482 1.17857574 0 0 0
-0.91546362 0.67006070 1.18044448 0 0 0
-0.89000093 -0.66947256 1.00410307 0 0 0
-0.88193920 -0.64176100 0.99999312 0 0 0
-0.89021034 -0.65000635 1.00191707 0 0 0
-0.88798130 -0.62790010 0.99872631 0 0 0
-0.89500016 -0.63488184 1.00068170 0 0 0
-0.88993348 -0.61025031 0.99626863 0 0 0
-0.88862819 -0.59793163 0.99393636 0 0 0
-0.88289212 -0.54572270 0.91173369 168 173 176
-0.89734730 -0.55047180 0.92501005 169 170 179
-0.89820344 -0.53274214 0.92754519 175 174 184
-0.88475507 -0.50838327 0.91638209 154 164 164
-0.89379664 -0.50593908 0.92663525 122 129 131
-0.88028927 -0.47133081 0.91723156 86 88 89
-0.89008075 -0.47218461 0.92826971 85 85 89
-0.88528616 -0.44796544 0.92801571 124 125 126
-0.89591114 -0.44376048 0.94113645 119 124 125
-0.88054279 -0.43574491 0.92583263 185 194 195
-0.88454260 -0.41366040 0.93471180 129 132 135
-0.89648414 -0.41739553 0.94776106 135 134 140
-0.88104014 -0.38484718 0.93829179 167 175 179
-0.88849730 -0.38979667 0.94507688 154 156 160
-0.88703352 -0.36455752 0.94887213 143 143 145
-0.89790880 -0.36115370 0.96156657 84 86 91
-0.88309279 -0.34635656 0.94833165 125 127 131
-0.88540909 -0.33140196 0.95406693 88 88 92
-0.89608987 -0.32732000 0.96722998 73 75 77
-0.88110041 -0.30121510 0.95595253 78 79 79
-0.89047990 -0.30424693 0.96552096 29 29 30
-0.89258363 -0.29282898 0.97096678 54 56 55
-0.88952605 -0.27313307 0.97269469 97 97 99
-0.89972507 -0.26791389 0.98539877 80 83 83
-0.88463309 -0.24552592 0.97316728 93 94 96
-0.89452683 -0.24751645 0.98389760 73 76 76
-0.88936415 -0.22973747 0.98242190 116 116 117
-0.88331213 -0.21784480 0.97853720 144 146 150
-0.89005796 -0.21194706 0.98655028 72 75 76
-0.88746902 -0.18588035 0.98909289 81 83 85
-0.89281889 -0.17577881 0.99734336 80 80 82
-0.89776502 -0.17721396 1.00222421 45 45 46
-0.88454851 -0.15150592 0.99273928 93 94 97
-0.89478782 -0.14771882 1.00432746 34 34 35
-0.88079288 -0.12921502 0.99285781 124 126 128
-0.89238629 -0.13481905 1.00461694 83 85 85
-0.88258816 -0.11660724 0.99747034 147 153 152
-0.89060924 -0.10887610 1.00784703 139 144 141
-0.88017226 -0.09212348 0.99994934 191 197 196
-0.88721872 -0.08657526 1.00849109 176 185 184
-0.88554670 -0.06867653 1.01101493 191 195 195
-0.89700603 -0.06678212 1.02208388 171 176 172
-0.88470984 -0.05074836 1.01627372 191 196 199
-0.89100847 -0.04366348 1.02195646 190 194 195
-0.88895098 -0.02944342 1.02729676 177 179 180
-0.88884313 -0.01165362 1.03608885 151 153 154
-0.89266039 -0.00255857 1.04137264 132 134 139
-0.88991121 0.01033655 1.04651541 124 123 129
-0.89000615 0.03043136 1.05402126 114 115 121
-0.88792457 0.04469385 1.05852716 111 109 117
-0.89129557 0.05328062 1.06198808 107 107 112
-0.88990652 0.06949022 1.06689263 97 97 102
-0.88995290 0.09025041 1.07300326 86 86 92
-0.88867522 0.10887284 1.07778892 79 79 83
-0.89491525 0.11658321 1.08086996 79 78 85
-0.88194562 0.12136023 1.07970222 77 76 80
-0.89011687 0.12995231 1.08327728 74 71 75
-0.88997156 0.14996564 1.08791894 66 65 70
-0.89006934 0.17038278 1.09239488 59 58 66
-0.88992119 0.18990219 1.09649997 57 56 61
-0.89985529 0.19907203 1.10007596 57 53 58
-0.88610039 0.20456459 1.09893298 56 53 60
-0.89197852 0.21239905 1.10149008 54 50 57
-0.89002623 0.22947310 1.10462273 49 48 54
-0.89018004 0.24955279 1.10863937 46 46 52
-0.88987300 0.26954159 1.11231184 45 45 50
-0.89008470 0.28968816 1.11606358 45 43 48
-0.88743926 0.30676160 1.11874872 42 42 49
-0.89327802 0.31463165 1.12101946 41 41 47
-0.88985715 0.33038471 1.12348525 41 39 45
-0.88993987 0.34993227 1.12701673 39 38 44
-0.89022524 0.36978944 1.13049117 38 37 43
-0.88961009 0.39020951 1.13362388 36 36 42
-0.88993778 0.41006728 1.13679927 35 33 40
-0.88721817 0.42668129 1.13897605 35 33 38
-0.89347028 0.43402522 1.14103145 33 33 37
-0.89011506 0.45008414 1.14318505 33 32 37
-0.88973719 0.46994814 1.14640940 32 30 38
-0.89020581 0.49003035 1.14985639 31 29 37
-0.88993408 0.50994158 1.15294738 29 28 34
-0.89010547 0.52996604 1.15628891 30 26 34
-0.88747436 0.54726186 1.15874057 29 27 32
-0.89407335 0.55416549 1.16089887 27 26 32
-0.88055040 0.56068732 1.15979779 28 26 33
-0.89010887 0.57017840 1.16284595 29 24 32
-0.88979786 0.59007228 1.16575818 28 24 30
-0.88985260 0.61004879 1.16840898 26 23 31
-0.89003087 0.63008786 1.17108398 26 24 29
-0.89002033 0.64998585 1.17360265 17 16 19
-0.89054564 0.66503657 1.17641250 0 0 0
-0.86210452 -0.66173688 0.99970762 0 0 0
-0.87060543 -0.66922233 1.00169302 0 0 0
-0.86777874 -0.64823562 0.99901805 0 0 0
-0.87564525 -0.65478312 1.00057732 0 0 0
-0.87021307 -0.62991723 0.99703263 0 0 0
-0.86978156 -0.61002022 0.99415634 0 0 0
-0.87254722 -0.58416567 0.97596000 58 59 61
-0.86986190 -0.59527294 0.99032131 2 2 2
-0.86749654 -0.57854454 0.96656883 80 80 84
-0.86955110 -0.54329781 0.90768245 167 170 175
-0.86603717 -0.50869451 0.89512858 158 157 166
-0.87452897 -0.50332686 0.90633273 173 186 185
-0.86593749 -0.49993325 0.89742881 171 186 185
-0.87835848 -0.48717049 0.91275427 144 151 150
-0.86008269 -0.46670754 0.89617699 177 183 192
-0.87008510 -0.46724778 0.90700763 143 147 152
-0.86890975 -0.44253993 0.91030413 126 129 132
-0.86380513 -0.43097902 0.90741377 164 170 172
-0.87473353 -0.42410286 0.92139906 172 172 178
-0.86628002 -0.41444402 0.91415890 176 184 184
-0.87433517 -0.41310403 0.92349941 157 161 164
-0.86338729 -0.39298364 0.91570111 171 173 176
-0.87425178 -0.39044966 0.92850141 161 165 166
-0.86363803 -0.37883550 0.91975886 170 174 175
-0.86799953 -0.36354076 0.92739117 162 164 166
-0.86918052 -0.35234819 0.93166116 171 174 177
-0.86435012 -0.33232984 0.93050880 162 162 165
-0.87620473 -0.33068044 0.94414759 139 140 144
-0.86463410 -0.30782550 0.93589605 124 128 131
-0.87553137 -0.30607603 0.94848727 92 94 95
-0.86214789 -0.29043034 0.93714732 137 143 140
-0.86950913 -0.28673417 0.94633379 112 116 113
-0.86084058 -0.27971972 0.93925560 173 181 180
-0.86989766 -0.27272319 0.95073116 144 149 151
-0.86640005 -0.24760526 0.95224986 141 144 148
-0.87702453 -0.24797948 0.96418706 123 130 131
-0.86237844 -0.22742440 0.95279343 171 184 176
-0.87208705 -0.22591310 0.96364109 141 144 144
-0.86238502 -0.20896348 0.95718540 171 177 180
-0.87182666 -0.21273927 0.96673438 159 164 168
-0.86141436 -0.19765842 0.95856144 179 179 182
-0.86732776 -0.18861859 0.96702893 160 163 167
-0.86323983 -0.16876046 0.96772769 175 177 179
-0.87824354 -0.16860206 0.98232675 111 111 114
-0.86378596 -0.14996602 0.97360171 172 174 177
-0.87590314 -0.14941204 0.98378576 139 141 144
-0.86413292 -0.13465514 0.97831199 179 185 185
-0.86707800 -0.12563463 0.98271087 177 178 179
-0.86740215 -0.10976113 0.98862343 179 182 183
-0.86797654 -0.09078911 0.99615127 187 190 191
-0.87517371 -0.08247949 1.00090305 172 181 183
-0.86117975 -0.07939745 0.99930302 182 184 185
-0.87006397 -0.06990531 1.00463301 193 196 197
-0.86976133 -0.05041234 1.01298676 195 197 200
-0.86720092 -0.03710934 1.01854494 196 197 199
-0.87079403 -0.02738066 1.02413148 182 185 186
-0.86984270 -0.00950692 1.03357693 152 154 156
-0.87948618 -0.00054282 1.04001391 136 139 143
-0.86517476 0.00249745 1.03909975 131 131 139
-0.87066771 0.01137998 1.04379418 124 125 129
-0.86999301 0.03033411 1.05064940 115 116 122
-0.86918784 0.04955259 1.05695169 108 109 113
-0.87512527 0.05796026 1.06069145 105 105 110
-0.86227703 0.06172350 1.05973428 105 106 108
-0.87020968 0.07017299 1.06366080 97 98 103
-0.86988248 0.08998350 1.06937587 87 87 91
-0.86984939 0.10997365 1.07474456 78 77 82
-0.86788013 0.12605434 1.07842715 75 74 76
-0.87254768 0.13485981 1.08134366 71 70 73
-0.86989374 0.15029666 1.08451658 67 66 70
-0.86991258 0.16969072 1.08887461 62 61 68
-0.86978429 0.18954305 1.09321863 58 57 62
-0.86953685 0.20963595 1.09746609 54 53 60
-0.87773261 0.21766481 1.10034978 53 51 58
-0.86399512 0.22309217 1.09944636 52 51 58
-0.87073256 0.23101821 1.10203398 52 50 56
-0.86992943 0.25023181 1.10577125 49 48 54
-0.87002459 0.27022893 1.10954064 46 45 52
-0.86990667 0.29010533 1.11327352 45 44 49
-0.87025875 0.30964962 1.11689622 42 42 46
-0.86668815 0.32383920 1.11907217 42 42 46
-0.87160567 0.33266044 1.12137952 42 40 44
-0.86998489 0.35015043 1.12424927 41 39 44
-0.86975956 0.37022520 1.12764023 40 38 45
-0.87005526 0.38984159 1.13076684 37 36 42
-0.86988071 0.40998990 1.13386593 37 35 41
-0.86982751 0.43012357 1.13693848 35 34 39
-0.86674200 0.44630096 1.13901638 33 31 37
-0.87342768 0.45305912 1.14115981 34 32 38
-0.86961910 0.47001482 1.14330649 34 31 39
-0.86995473 0.49000598 1.14667681 32 30 37
-0.87028362 0.50987591 1.14979263 31 29 35
-0.86991426 0.52984470 1.15304282 29 28 34
-0.87001416 0.54997901 1.15634701 28 26 33
-0.86740130 0.56725981 1.15867986 29 24 33
-0.87398347 0.57421405 1.16086576 29 24 32
-0.86114387 0.58138238 1.15975916 29 25 30
-0.87043762 0.59018434 1.16256188 28 24 30
-0.86991461 0.60961883 1.16499517 26 24 31
-0.87002817 0.62976437 1.16763095 25 24 30
-0.86989459 0.64984582 1.17060894 10 9 11
-0.87070669 0.66412947 1.17388739 0 0 0
-0.84888833 -0.66672183 0.99884142 0 0 0
-0.85616408 -0.67259584 1.00043845 0 0 0
-0.84979326 -0.64998529 0.99713858 0 0 0
-0.85005104 -0.63001377 0.99496350 0 0 0
-0.85020618 -0.61018110 0.99241201 0 0 0
-0.84945028 -0.59504202 0.98892967 0 0 0
-0.85508985 -0.56863125 0.95000678 89 90 95
-0.85237421 -0.54135014 0.90442849 173 175 181
-0.84064043 -0.55741344 0.93126529 102 106 111
-0.84264545 -0.53962761 0.90155068 171 181 187
-0.84278657 -0.50939550 0.87031801 166 166 172
-0.85322426 -0.50910990 0.88109666 159 159 172
-0.84505003 -0.49459296 0.87473753 180 181 188
-0.85680250 -0.49382226 0.88743762 171 178 178
-0.84220663 -0.47034627 0.87558171 175 182 185
-0.85112704 -0.46602015 0.88604914 167 173 176
-0.84215567 -0.45324601 0.87908083 169 182 181
-0.84881290 -0.44853076 0.88694457 177 179 186
-0.84473684 -0.42959796 0.88766430 182 187 190
-0.85670510 -0.42706242 0.90076888 187 196 194
-0.84349654 -0.41013253 0.89158977 182 186 188
-0.85579962 -0.41020272 0.90364865 177 181 182
-0.84306667 -0.39073040 0.89578893 168 171 176
-0.85265156 -0.38984596 0.90472655 171 174 179
-0.84149912 -0.37313432 0.89838690 165 169 174
-0.84737290 -0.36620046 0.90558179 169 173 178
-0.84435860 -0.35056700 0.90727472 172 173 176
-0.85890917 -0.34610804 0.92150772 169 172 181
-0.84438876 -0.32992688 0.91264898 171 173 177
-0.85591096 -0.32880247 0.92214090 169 170 173
-0.84439655 -0.31130407 0.91785241 173 176 179
-0.85005044 -0.30442991 0.92298693 168 177 177
-0.84650762 -0.28991915 0.92539888 166 171 171
-0.84623127 -0.26968881 0.93120717 167 169 172
-0.84634772 -0.24981438 0.93661002 169 174 175
-0.85681403 -0.24594234 0.94256681 170 175 176
-0.84418562 -0.23924481 0.93969066 174 177 179
-0.84730258 -0.22951553 0.94307429 169 173 174
-0.84895392 -0.20976540 0.95082008 177 179 183
-0.84905548 -0.19192609 0.95741286 177 178 181
-0.85258381 -0.18255743 0.96099980 179 181 183
-0.84974510 -0.17011787 0.96493529 174 176 177
-0.85007457 -0.14993732 0.97147806 174 176 179
-0.84912914 -0.13140220 0.97720982 183 187 188
-0.85384125 -0.12273058 0.98092083 190 192 190
-0.84982418 -0.11027444 0.98515925 190 191 193
-0.84971356 -0.09055508 0.99299047 195 197 198
-0.84812890 -0.07681101 0.99842356 183 185 186
-0.85073843 -0.06720915 1.00270500 189 190 192
-0.84990854 -0.05024290 1.00986182 195 197 199
-0.84913302 -0.03433551 1.01717079 189 190 191
-0.85129781 -0.02450044 1.02229089 181 182 183
-0.84956758 -0.00976808 1.02985968 156 157 159
-0.84860959 0.00542942 1.03780705 133 132 136
-0.85128480 0.01470469 1.04207321 123 124 130
-0.84991173 0.03020800 1.04745788 116 116 123
-0.84998813 0.05035634 1.05415693 107 108 111
-0.84794752 0.06527396 1.05856786 102 103 105
-0.85150606 0.07385541 1.06170762 96 96 103
-0.84991588 0.08973955 1.06605281 87 89 91
-0.84975334 0.10972959 1.07141354 79 79 84
-0.85008257 0.12972467 1.07647538 74 73 76
-0.85937361 0.13947191 1.08026063 72 72 74
-0.84563923 0.14343573 1.07917348 73 72 75
-0.85111727 0.15164304 1.08191979 71 67 71
-0.84960176 0.16985512 1.08597765 64 63 68
-0.85025789 0.19019474 1.09065287 59 58 64
-0.84990471 0.21033735 1.09497003 56 54 61
-0.84861696 0.22798866 1.09846566 53 52 59
-0.85378399 0.23645808 1.10083003 53 51 58
-0.85001567 0.25018807 1.10313088 49 48 56
-0.84998615 0.27015283 1.10693676 47 46 52
-0.85006811 0.29029318 1.11079438 47 45 49
-0.85008692 0.31046148 1.11445901 43 43 47
-0.84937423 0.32996606 1.11789377 42 42 46
-0.85689039 0.33780567 1.12034500 42 41 46
-0.84418156 0.34369092 1.11954090 41 40 46
-0.85129816 0.35059593 1.12170881 40 39 45
-0.85000232 0.36973368 1.12467822 40 38 46
-0.84981771 0.39024802 1.12778683 38 37 43
-0.84964418 0.41022656 1.13085486 36 34 40
-0.85030385 0.42991558 1.13393029 35 33 39
-0.84988411 0.45001928 1.13700937 34 32 39
-0.84660850 0.46625720 1.13904208 34 31 38
-0.85332636 0.47306268 1.14120086 34 31 37
-0.84952314 0.48984773 1.14332360 33 30 36
-0.85024639 0.50999546 1.14647582 32 30 35
-0.84993161 0.53010828 1.14971259 30 28 34
-0.85003545 0.54995021 1.15293459 28 27 34
-0.84987506 0.57005399 1.15607103 28 24 33
-0.84820336 0.58854316 1.15846312 27 25 31
-0.85621757 0.59516976 1.16077979 26 24 32
-0.84246449 0.60384479 1.15952414 27 25 32
-0.85084949 0.61105107 1.16187678 26 24 30
-0.84987560 0.63016077 1.16421487 25 23 30
-0.85021418 0.65001308 1.16798743 2 2 3
-0.85010845 0.66339508 1.17124813 0 0 0
-0.83030369 -0.66700229 0.99685394 0 0 0
-0.82987053 -0.65026485 0.99502192 0 0 0
-0.82983749 -0.63023927 0.99294273 0 0 0
-0.83006788 -0.60994522 0.99049383 0 0 0
-0.82846104 -0.58172528 0.97469744 0 0 0
-0.82952468 -0.59319355 0.98662368 0 0 0
-0.82178464 -0.57528106 0.96389997 0 0 0
-0.82303856 -0.54419054 0.90970347 132 135 140
-0.82455516 -0.55528282 0.93039235 167 173 174
-0.82984162 -0.53839737 0.89949533 172 176 180
-0.82896441 -0.53914280 0.90074072 157 164 169
-0.82230888 -0.50583641 0.85893419 172 173 179
-0.83095382 -0.50850795 0.86218949 169 170 174
-0.82256597 -0.49088241 0.85919168 180 182 185
-0.82923995 -0.48979672 0.86143197 179 180 185
-0.82673273 -0.46955433 0.86353337 176 181 183
-0.82762260 -0.44892774 0.87016593 178 182 187
-0.82710094 -0.43329393 0.87719358 183 186 192
-0.83370675 -0.42646477 0.88272743 185 190 193
-0.83007174 -0.41001693 0.88624753 181 183 184
-0.82977763 -0.38981695 0.89124818 171 173 176
-0.82914609 -0.37104330 0.89651096 167 171 174
-0.83579434 -0.36249631 0.90088396 171 172 177
-0.82322152 -0.35913903 0.89962325 172 174 176
-0.82993265 -0.34938143 0.90393802 172 172 175
-0.83026039 -0.33018431 0.91054771 173 174 177
-0.83001817 -0.31032126 0.91657962 169 171 173
-0.83692305 -0.30105044 0.92010011 171 179 178
-0.82363482 -0.29792988 0.91946833 169 173 175
-0.83052134 -0.28929778 0.92295298 168 170 174
-0.83007292 -0.26992271 0.92908058 172 174 175
-0.82973480 -0.24998248 0.93518670 173 174 177
-0.82801244 -0.23721604 0.93922609 180 182 184
-0.83042555 -0.22779340 0.94250865 177 179 182
-0.82989068 -0.21038948 0.94854020 176 179 181
-0.82998875 -0.19062542 0.95579312 177 179 180
-0.83846525 -0.18138320 0.96010786 182 183 185
-0.82582065 -0.17877366 0.95946303 174 178 180
-0.83048665 -0.16932904 0.96309988 178 180 180
-0.83034219 -0.14999195 0.96915610 180 182 182
-0.82974989 -0.12997858 0.97549446 181 184 187
-0.82655500 -0.11822065 0.97942252 188 192 194
-0.83035771 -0.10912865 0.98331881 193 195 196
-0.82991954 -0.09046682 0.99083212 192 194 196
-0.82935304 -0.07444331 0.99741005 181 182 188
-0.83092492 -0.06455190 1.00177937 197 199 200
-0.82992852 -0.05017069 1.00784499 196 197 200
-0.82951750 -0.03204444 1.01619329 182 184 184
-0.83180898 -0.02267700 1.02087789 173 174 175
-0.82993866 -0.01038239 1.02684912 159 159 162
-0.82928249 0.00885031 1.03655249 132 133 137
-0.83422549 0.01800999 1.04087333 121 122 128
-0.82989270 0.03010697 1.04452464 117 118 124
-0.82992970 0.05033740 1.05124097 107 108 113
-0.82939748 0.06927263 1.05712500 99 99 104
-0.83654400 0.07721416 1.06044984 96 96 98
-0.82319345 0.08039979 1.05964510 94 94 99
-0.83029320 0.08995379 1.06330761 88 90 92
-0.82995823 0.11029348 1.06882656 81 81 84
-0.83005651 0.13023572 1.07395327 76 74 79
-0.82882617 0.14738132 1.07810394 70 70 75
-0.83323203 0.15604734 1.08074157 67 67 71
-0.83006164 0.16982994 1.08363889 65 65 70
-0.82999424 0.19035492 1.08825037 60 60 64
-0.82985685 0.21003552 1.09242249 58 57 64
-0.83010657 0.22962202 1.09645383 54 52 60
-0.82723229 0.24426976 1.09903632 51 50 58
-0.83169286 0.25296053 1.10135112 50 49 56
-0.82984776 0.26951580 1.10420239 49 47 54
-0.83002585 0.28957547 1.10800927 46 45 49
-0.83003709 0.30970668 1.11160140 44 44 49
-0.83013628 0.32995903 1.11522045 43 42 47
-0.82870285 0.34893055 1.11823524 43 41 45
-0.83592841 0.35708453 1.12058245 41 39 47
