ply
format ascii 1.0
element vertex 499
property float x
property float y
property float z
property uchar red
property uchar green
property uchar blue
end_header
-0.62329103 -0.42421898 1.01536967 194 196 197
-0.62357269 -0.41222877 1.01132884 192 197 197
-0.61713432 -0.42387913 1.01744962 193 194 195
-0.61396343 -0.41068989 1.01350614 191 194 194
-0.58514643 0.63874948 1.68211377 186 186 184
-0.58079785 0.64586902 1.67795014 188 188 186
-0.58660564 0.64471796 1.68630856 190 190 188
-0.59249753 0.65854967 1.70324588 188 189 188
-0.58074743 0.66111529 1.69472957 182 181 179
-0.58808114 0.66823192 1.71042530 176 174 173
-0.56858126 0.61627183 1.64538797 184 185 184
-0.57081206 0.63537485 1.66882491 183 181 176
-0.57447658 0.64700789 1.67433001 183 182 180
-0.57439667 0.65220907 1.68684211 185 184 182
-0.54547172 0.57376145 1.58857176 186 186 186
-0.54489194 0.58874960 1.59237772 178 176 178
-0.55463934 0.59333825 1.60638779 183 183 183
-0.55317700 0.60308704 1.61020350 167 166 167
-0.55854219 0.60741866 1.62175083 168 169 167
-0.52741057 0.55182715 1.55125794 187 184 185
-0.53451616 0.55732259 1.56376642 182 180 180
-0.52782267 0.57098806 1.57244255 186 187 187
-0.53565733 0.57442719 1.58109042 182 182 182
-0.52913494 0.58474451 1.57430139 189 189 190
-0.53332670 0.58490164 1.58294220 186 187 188
-0.51644489 0.53743979 1.53023773 190 189 190
-0.51878440 0.54385674 1.53716969 192 189 190
-0.51996344 0.54775566 1.54066324 197 197 197
-0.50953514 0.56762085 1.55008230 192 194 194
-0.51725290 0.57242662 1.56196272 187 189 190
-0.51874352 0.58230931 1.56919408 197 201 200
-0.48081540 -0.50164279 0.96086770 190 192 190
-0.48103768 -0.49519184 0.95882863 191 192 192
-0.48171905 -0.49589325 0.96018672 189 190 190
-0.49698297 0.56584698 1.54206705 185 186 184
-0.46951531 -0.50519652 0.96610887 186 188 189
-0.47403384 -0.49314982 0.95820372 189 190 189
-0.46963345 -0.49598289 0.96209875 190 193 192
-0.45846695 -0.50611093 0.96583056 190 191 191
-0.44299641 -0.13192477 0.59568812 135 136 142
-0.44945588 -0.13006717 0.60297260 112 112 121
-0.42424672 -0.52637693 1.04815237 197 197 197
-0.42357833 -0.51386339 1.05009053 195 196 195
-0.42395568 -0.14282124 0.57828101 169 169 172
-0.43283795 -0.14197472 0.58338410 174 176 176
-0.42350692 -0.13329267 0.57724555 123 123 130
-0.43320241 -0.13138781 0.58455254 140 142 146
-0.41712125 -0.52834753 1.04953206 201 203 203
-0.41428797 -0.51089747 1.04917952 203 203 203
-0.40885089 -0.49542207 1.04356907 211 213 214
-0.41719842 -0.14226263 0.57784622 183 184 183
-0.41452976 -0.13029979 0.57491129 159 159 165
-0.41187770 -0.11973667 0.57109755 184 185 185
-0.39900866 -0.49333193 1.03865073 215 217 218
-0.39789626 -0.49475129 1.04245424 213 215 216
-0.38362769 -0.24387966 0.53947267 178 181 181
-0.38616578 -0.24558807 0.54159667 180 182 184
-0.38406214 -0.23438587 0.53884545 189 191 192
-0.38800265 -0.23577220 0.54047313 188 191 192
-0.37768299 -0.23317900 0.53794543 190 194 195
-0.36460257 -0.06183091 0.63727054 206 206 208
-0.37126711 -0.06037817 0.64133610 204 205 206
-0.36590357 -0.05635717 0.63802847 204 207 208
-0.37192006 -0.05856439 0.64048787 197 201 202
-0.35679896 -0.06186626 0.63494399 206 206 208
-0.35817416 -0.05743569 0.63841697 205 207 209
-0.35544452 -0.05786708 0.64012450 191 191 193
-0.32452633 -0.12646881 0.65428809 210 212 213
-0.32110312 -0.11923152 0.65354793 206 211 214
-0.31569827 -0.12565800 0.65240670 211 214 215
-0.31623690 -0.11904807 0.65409494 203 206 208
-0.30165672 0.02829846 0.67156315 192 191 189
-0.29251593 0.02864122 0.67353410 186 182 180
-0.28608514 0.37368002 0.95483927 183 183 183
-0.29360247 0.37407517 0.96243566 177 177 176
-0.28874816 0.38162491 0.95004179 182 182 179
-0.26800495 0.37006927 0.93825907 180 178 177
-0.27495951 0.37212106 0.94855650 187 186 185
-0.24314982 -0.38042983 0.81428480 208 212 215
-0.24573882 -0.36964559 0.81073604 207 210 212
-0.25159945 -0.35656296 0.80990730 207 212 214
-0.23948607 -0.38020134 0.81379575 205 209 210
-0.23874043 -0.36886751 0.81245550 207 209 212
-0.22267360 0.33162943 0.96761170 183 183 182
-0.22284309 0.34344778 0.97366346 186 185 187
-0.20334436 0.31860894 0.94677633 160 155 152
-0.20764224 0.32891265 0.95402229 180 179 177
-0.21631504 0.33154796 0.96411746 185 185 185
-0.21807463 0.34221086 0.97008102 189 189 189
-0.18754468 -0.08983773 0.46696122 204 206 207
-0.17945026 -0.09647882 0.46399167 210 214 217
-0.14210406 0.05610093 0.73798685 105 79 74
-0.14727182 0.05488589 0.74751231 104 78 72
-0.14409319 0.06341816 0.74645241 100 78 72
-0.15523470 0.06176851 0.76202009 104 74 70
-0.13874127 0.05797615 0.73804250 111 89 87
-0.13915042 0.05607406 0.74250023 106 82 78
-0.13841030 0.06286482 0.74379774 145 133 133
-0.08749133 0.11512943 0.83338791 153 146 148
-0.08862919 0.12123940 0.83185688 156 150 151
-0.07885220 0.11474573 0.83308653 158 149 150
-0.07843853 0.12131917 0.82871866 153 152 154
-0.03118273 -0.00100475 0.58563726 170 161 162
-0.03150450 0.00802724 0.58618037 156 153 155
0.01932747 0.16954068 0.52525364 167 163 162
0.01997585 0.17104018 0.78414351 159 159 157
0.02835439 0.17255919 0.52630986 158 154 152
0.03190330 0.17031488 0.78529491 165 162 163
0.05512296 -0.72987732 1.48530946 87 64 63
0.05406925 -0.71011552 1.47500403 88 65 61
0.05433416 -0.71793689 1.48011315 89 65 62
0.05486698 -0.69385729 1.47154909 86 65 60
0.04198384 0.17398951 0.79023213 175 173 174
0.04070600 0.18026647 0.79192972 150 144 140
0.06294455 -0.72464028 1.47207958 87 68 64
0.06285843 -0.72724889 1.48205785 89 67 65
0.06856776 -0.70153093 1.43015790 88 68 63
0.06770486 -0.70756157 1.45298627 89 67 62
0.06284105 -0.71026566 1.47391419 91 68 63
0.06328806 -0.71964240 1.48011315 91 67 66
0.07181259 -0.68785315 1.43514449 90 68 60
0.07008927 -0.68817948 1.44702620 89 67 61
0.06349417 -0.69185815 1.46730661 89 68 62
0.07667567 -0.66508478 1.39771509 88 72 64
0.07591139 -0.67102057 1.40593942 87 71 63
0.07771551 -0.67408425 1.43358023 89 69 66
0.07578346 -0.67578250 1.45005536 91 69 67
0.07509555 -0.67750937 1.46097374 90 69 66
0.07815123 -0.18107792 0.72300770 163 162 164
0.07261759 -0.16936228 0.72346607 165 163 165
0.06500183 -0.15837449 0.72548410 169 168 170
0.08086693 -0.18087605 0.72269917 165 165 168
0.08166796 -0.17836680 0.72316232 152 152 154
0.15490706 0.19881615 0.64297906 154 151 152
0.15458961 0.20605217 0.64335968 163 161 161
0.17210351 -0.16714391 0.46573272 19 17 26
0.17244801 -0.15810423 0.46387549 22 21 30
0.16089912 0.20531993 0.64316112 173 169 168
0.25957799 -0.03834618 0.95209527 186 182 183
0.25910151 0.34735483 1.04291058 174 173 175
0.27084594 -0.04189213 0.93571629 189 186 187
0.26534550 -0.04276076 0.94391097 192 191 189
0.26969915 -0.03256742 0.93392548 189 187 188
0.26312539 -0.03738622 0.94525819 193 187 185
0.27587594 -0.00222311 0.71349120 172 162 162
0.27613824 0.00411716 0.71490324 172 169 170
0.27268317 0.33910111 1.03971136 157 155 156
0.27282501 0.33864605 1.04162893 164 159 161
0.27332603 0.34804984 1.03839941 169 168 167
0.26736874 0.34660726 1.04224679 168 166 166
0.28361478 -0.00238848 0.71456265 167 162 165
0.28386371 0.00727334 0.71738275 172 167 169
0.29359736 0.00871217 0.72328653 168 164 165
0.29094748 0.11803355 0.83708622 172 167 169
0.29203406 0.12923348 0.83771185 176 174 175
0.28298265 0.12744952 0.84001470 167 163 164
0.28624710 0.33879643 1.04991384 171 169 169
0.28705963 0.35437609 1.03971136 166 160 157
0.28547814 0.34998544 1.04456633 166 163 162
0.28512178 0.36405605 1.03594328 158 153 153
0.28768995 0.36222956 1.04199581 154 148 147
0.30272047 0.12854969 0.83426064 174 173 174
0.30221543 0.35522711 1.07773221 166 165 163
0.30843988 0.35922393 1.08985829 169 168 168
0.34735719 -0.28784625 0.51422695 190 193 196
0.43797235 -0.52226440 1.07035613 32 31 39
0.43764146 -0.50806468 1.06565021 25 24 31
0.43707141 -0.49851730 1.05920601 25 23 30
0.43298148 -0.08275046 0.65143891 92 85 88
0.43067406 -0.06617183 0.63191996 93 76 84
0.43205166 -0.07476555 0.64850881 96 87 105
0.43727506 -0.05604791 0.63426917 87 75 72
0.45463490 -0.56152852 1.09338439 17 16 22
0.45023184 -0.54391100 1.07638351 16 15 22
0.45358297 -0.55446151 1.08631711 16 15 21
0.44665862 -0.53257546 1.07644959 27 26 33
0.45135918 -0.53031564 1.08174353 30 29 37
0.44200911 -0.51506559 1.07076758 25 25 30
0.44171552 -0.05126256 0.63741706 89 74 70
0.44795342 -0.04764497 0.64255729 93 72 72
0.44685872 0.19883600 0.70189713 122 97 84
0.45383586 0.21329455 0.71422949 123 95 86
0.45560893 0.22394605 0.71716408 123 98 89
0.45602021 0.22250490 0.72039515 125 100 94
0.46290588 -0.56003714 1.08985829 16 15 22
0.46398259 -0.55512995 1.09238405 16 15 21
0.47037989 -0.17717867 0.45892469 174 175 176
0.47525087 -0.17432283 0.46159003 176 179 182
0.46208142 0.21614837 0.71523406 123 96 85
0.46211445 0.21463955 0.72116154 125 95 87
0.46210513 0.22499957 0.71760212 123 94 85
0.46327876 0.22394769 0.72103435 120 94 83
0.49897004 -0.30227518 0.75536866 182 184 185
0.49938209 -0.30403131 0.76476412 174 177 177
0.49199950 -0.28506731 0.75692115 169 175 180
0.49709912 -0.29309821 0.76643750 180 188 190
0.48838675 -0.27886839 0.75489336 178 183 188
0.48280794 -0.17386486 0.46171104 176 184 185
0.49763448 -0.10457956 0.57857147 180 182 187
0.49932981 -0.10840281 0.58216829 175 178 181
0.49910291 -0.09927496 0.57840604 187 190 196
0.49473943 0.27954498 0.87566991 135 132 131
0.49518898 0.28812783 0.87368224 150 146 144
0.49183241 0.30001384 0.87357193 149 140 141
0.50054871 -0.30497732 0.75863411 176 179 180
0.50154409 -0.30656748 0.77086518 174 179 180
0.50150767 -0.30327766 0.78053200 167 175 185
0.50123111 -0.29679393 0.76706663 177 182 185
0.50743285 -0.10371038 0.57894855 180 184 191
0.50789336 -0.10705318 0.58178371 176 179 183
0.50686909 -0.09884416 0.57881116 175 179 186
0.51551989 -0.09974320 0.58113414 183 191 196
0.50315758 0.28543512 0.87285729 130 115 113
0.55556171 -0.42246156 0.84672115 178 181 184
0.55979484 -0.41984308 0.84842533 166 169 172
0.57082948 -0.42255682 0.85641406 186 194 195
0.57547820 -0.42118275 0.86136248 182 192 194
0.56433720 -0.41774093 0.85413726 164 168 173
0.57608568 -0.41553697 0.86733124 91 98 111
0.56305869 -0.07022786 0.53957967 178 184 188
0.57388088 -0.06515995 0.54620442 176 180 183
0.57848397 -0.05953354 0.54845655 181 183 189
0.58622010 -0.42099229 0.86995340 163 173 178
0.59839344 -0.42250910 0.88152385 211 217 216
0.58753243 -0.41421970 0.87421842 145 153 159
0.59795372 -0.41146464 0.88267287 176 185 186
0.59286342 -0.14036544 0.49730146 187 192 196
0.59291072 -0.13446245 0.49798110 186 191 194
0.59815300 -0.13385871 0.50028920 186 194 195
0.58753465 -0.06651416 0.55124692 179 184 188
0.58417332 -0.05896040 0.55004833 159 160 165
0.61852503 -0.14389634 0.95801606 108 107 126
0.61519812 -0.14420441 0.96482602 84 87 109
0.61938137 -0.13971008 0.95882863 114 120 140
0.61632820 -0.13449469 0.96778031 80 90 118
0.62946978 -0.14642138 0.95488452 95 82 88
0.62757883 -0.14719539 0.96311604 98 93 104
0.63390511 -0.13467699 0.95634290 96 81 90
0.62814487 -0.13026429 0.96525540 101 107 129
0.64153731 -0.13438435 0.96223161 98 78 83
0.65853775 0.01115185 0.60310662 165 170 177
0.67158568 -0.47377783 1.01785564 59 60 78
0.67794182 -0.47547988 1.02659955 62 63 76
0.67490837 -0.18153962 1.07944560 78 78 108
0.67251235 -0.18637595 1.09034654 57 58 80
0.67624770 -0.19554349 1.10466917 55 57 75
0.67392876 -0.17037123 1.05646221 97 97 110
0.67231351 -0.17595171 1.07331541 79 81 98
0.66664124 -0.17996046 1.08116722 58 59 80
0.66992871 0.01214071 0.60413696 160 163 167
0.67637229 0.02098092 0.60472135 169 176 182
0.68875467 -0.47136304 1.03391413 123 129 139
0.69438055 -0.46385551 1.04653268 115 122 133
0.69996256 -0.46354195 1.06086361 77 84 93
0.69580825 -0.45311101 1.05065579 162 167 170
0.69928718 -0.22054392 1.15681207 52 54 69
0.69160933 -0.20124652 1.11542143 78 81 95
0.69147439 -0.20769340 1.12810850 59 61 78
0.69665817 -0.21703590 1.14732252 53 54 73
0.68880232 -0.18328481 1.07603095 95 86 95
0.69022370 -0.18883324 1.09136902 92 91 103
0.69015008 -0.19623102 1.10457420 84 84 101
0.68026626 -0.17393072 1.05590630 95 87 92
0.68329634 -0.17694023 1.07115864 95 93 103
0.68126382 0.00977412 0.60675204 163 162 172
0.70128125 -0.47137159 1.03971136 182 187 188
0.70621919 -0.46421684 1.05280504 172 176 179
0.71035306 -0.46323635 1.06086361 166 167 170
0.70265460 -0.45755536 1.05481156 175 176 179
0.71758970 -0.24252029 1.19277485 54 52 73
0.71795321 -0.22083382 1.13269013 99 88 93
0.71095569 -0.22272899 1.15341724 78 82 98
0.71146291 -0.22812307 1.16744081 61 63 81
0.71580226 -0.23587998 1.18753903 56 54 74
0.70593077 -0.20186712 1.09869015 98 82 83
0.71064985 -0.20695160 1.11314437 99 85 88
0.71092702 -0.21237860 1.12907850 98 92 102
0.70522102 -0.21822412 1.14567864 69 71 94
0.70258937 -0.19509459 1.09585370 95 83 83
0.70384550 -0.19752725 1.10361469 97 86 89
0.71263265 0.29197172 1.81740439 165 159 160
0.71415463 0.29511885 1.82228994 167 163 163
0.71223998 0.30218074 1.81740439 162 161 158
0.71588111 0.31136671 1.82886030 173 172 170
0.71852249 0.32259879 1.81740439 176 174 173
0.71643264 0.32776933 1.82873765 174 170 169
0.71603461 0.32720032 1.84335223 165 162 162
0.71801490 0.34104797 1.83214009 187 181 179
0.73645331 -0.26337312 1.23328716 50 51 70
0.73980176 -0.24136224 1.16077375 95 79 82
0.73025933 -0.24325740 1.19138524 79 81 99
0.73115063 -0.24914430 1.20758400 61 60 80
0.73495749 -0.25604688 1.22502039 52 51 70
0.72602835 -0.22541596 1.13388957 102 81 82
0.73035599 -0.22827543 1.15142686 99 85 90
0.72969810 -0.23216060 1.16865861 94 95 106
0.72738930 -0.23799822 1.18469070 75 76 94
0.72067815 -0.21326524 1.11863339 98 79 80
0.72344744 -0.21514316 1.12734164 98 79 82
0.72311187 0.29511240 1.81578461 177 177 177
0.72210224 0.29527965 1.82327230 173 168 169
0.73013118 0.31720395 1.79574311 177 174 174
0.72858845 0.31109115 1.81087172 169 167 167
0.72378931 0.31071492 1.82753804 180 178 176
0.72954637 0.32228389 1.79812157 168 168 166
0.72926254 0.32712119 1.80772450 177 176 176
0.72174642 0.32617128 1.82557333 182 177 175
0.72281786 0.34277333 1.84712589 183 177 175
0.75430797 -0.28526536 1.26789271 48 51 66
0.75003397 -0.26397708 1.23341552 73 74 91
0.75129129 -0.27238244 1.25052789 53 54 73
0.75502847 -0.27832044 1.26119524 50 52 67
0.74472795 -0.24207007 1.16746108 91 76 77
0.74863973 -0.24499998 1.19172792 99 89 96
0.75161663 -0.25257689 1.20998325 99 98 107
0.74834558 -0.25839222 1.22521368 76 78 92
0.74221575 -0.23561620 1.16880222 101 80 85
0.74690390 -0.23790118 1.18347533 99 82 90
0.77759157 -0.32768578 1.31177072 53 56 71
0.77633378 -0.30926944 1.30683894 51 54 66
0.76988568 -0.28543665 1.27015277 66 69 88
0.77301281 -0.29493939 1.28911621 50 52 68
0.77299005 -0.29925814 1.30867147 47 51 65
0.76883474 -0.26482887 1.23411320 101 96 101
0.77012535 -0.27388305 1.25209361 90 92 110
0.77073216 -0.27994227 1.26236844 77 85 106
0.76053250 -0.24947885 1.19980860 99 85 87
0.76482424 -0.25418727 1.21486968 102 87 89
0.76825893 -0.25840137 1.22461845 103 89 93
0.77773330 0.03144856 1.07887447 106 82 79
0.77704660 0.03317449 1.08936536 104 84 80
0.77755825 0.04355695 1.09640770 110 87 77
0.77745366 0.04127138 1.10047376 106 86 76
0.79520893 -0.36032552 1.34236014 51 49 65
0.79304314 -0.34582675 1.33275208 53 54 72
0.79748514 -0.34810410 1.34670275 53 54 72
0.78906209 -0.32446649 1.31507134 56 59 75
0.79090445 -0.33202852 1.32931669 55 57 73
0.79288876 -0.33712393 1.34236014 53 58 67
0.79220625 -0.30145419 1.29864335 99 101 113
0.78979514 -0.31043541 1.30737014 63 67 82
0.78704646 -0.31506777 1.33246905 51 51 65
0.78934251 -0.28569670 1.27211214 103 97 106
0.79054085 -0.29534905 1.29073180 86 87 99
0.78537390 -0.27407724 1.25381974 102 91 93
0.78709226 -0.27904288 1.26158631 104 92 99
0.78580346 0.03742785 1.09550308 103 84 81
0.78647502 0.04330717 1.09780198 104 83 77
0.79099717 0.04887661 1.10464958 110 83 76
0.79620701 0.06048873 1.10406131 105 84 75
0.80946672 -0.36231005 1.35850072 53 51 70
0.80964178 -0.36332144 1.36673963 53 52 70
0.81549662 -0.36821327 1.38063514 52 50 67
0.80131608 -0.34734908 1.33706474 54 55 74
0.80305117 -0.35512810 1.34905771 52 51 71
0.80565161 -0.35905302 1.36396754 54 52 70
0.81978881 -0.35920802 1.39197505 52 53 73
0.80391090 -0.32230856 1.31783137 93 96 119
0.81077507 -0.32573576 1.32357990 90 94 115
0.81308103 -0.30145419 1.29864335 103 90 87
0.80963964 -0.31087377 1.30901715 100 97 107
0.80110115 -0.28697813 1.27423275 108 93 94
0.80650264 -0.29576939 1.29216828 102 93 98
0.80152842 0.05925601 1.11679351 106 87 76
0.80378312 0.06311676 1.11679657 107 85 79
0.80762032 0.06885566 1.12578020 110 84 79
0.82232252 -0.36393948 1.39627713 52 52 71
0.82514366 -0.32472212 1.32747576 97 95 102
0.82147892 -0.31692650 1.31629813 98 96 95
0.82868087 0.00931399 1.99674028 171 162 159
0.83690434 0.02649520 1.99146078 174 170 171
0.84968662 0.01946436 1.97636104 148 136 137
0.85307934 0.01243855 1.99161986 158 149 147
0.84883262 0.02629632 1.97636104 148 140 141
0.84337404 0.02767713 1.98637044 157 152 153
0.87955105 -0.94099224 1.91494870 35 35 44
0.87728414 -0.92755836 1.91001662 30 29 38
0.87872350 -0.92374271 1.92037344 26 25 32
0.86478986 -0.91253912 1.89708873 25 24 33
0.87131849 -0.91540980 1.90419054 26 25 33
0.87705421 -0.89562496 1.93131578 24 23 30
0.87720771 -0.66881170 1.29796617 183 189 191
0.87679168 -0.67196834 1.30250168 187 193 196
0.87857489 -0.61792467 1.13867684 187 195 197
0.87923175 -0.61799663 1.14123201 191 200 201
0.86571682 0.01196726 1.99316520 159 153 152
0.89288202 -0.94301775 1.92584461 33 33 43
0.88616410 -0.92767273 1.91186629 28 27 37
0.89147376 -0.92844891 1.92401052 27 26 35
0.88327000 -0.91405067 1.91225159 26 24 32
0.89174074 -0.91088932 1.93165510 25 24 32
0.89455357 -0.90776698 1.94695902 25 23 32
0.89014598 -0.89480337 1.93316036 25 24 32
0.89524480 -0.89714070 1.94424403 25 24 33
0.89678411 -0.70370952 1.33159329 180 183 188
0.89246992 -0.68999190 1.31242620 187 192 193
0.89396541 -0.69646230 1.32505407 181 186 188
0.88154131 -0.67181319 1.29864335 181 184 187
0.88972702 -0.67346309 1.30584854 185 189 193
0.88775901 -0.62251727 1.13867684 197 202 207
0.88674118 -0.62661389 1.14644104 192 199 204
0.89013507 -0.61026785 1.13379284 191 195 199
0.89042813 -0.61373678 1.14909012 191 197 200
0.89150894 -0.59731942 1.13037123 197 204 205
0.90299368 -0.94170350 1.93683386 31 30 40
0.91183457 -0.95759931 1.95217538 32 32 44
0.90314321 -0.92867221 1.93179126 26 24 33
0.90893835 -0.92425823 1.94238353 25 24 32
0.90968901 -0.90487921 1.93683386 25 23 30
0.90887166 -0.90739711 1.94447659 25 23 32
0.90968901 -0.89651006 1.93683386 25 24 32
0.90983980 -0.89827600 1.94573243 25 24 32
0.90732640 -0.72191888 1.35038221 185 188 194
0.90246327 -0.70887940 1.33288238 186 190 195
0.90359335 -0.71126819 1.34569466 179 183 187
0.90265479 -0.68763782 1.31171293 189 193 197
0.90192020 -0.67926288 1.30867147 190 194 196
0.99231572 0.41758998 1.17018889 110 84 71
0.99355853 0.41886178 1.18099630 109 81 71
0.99305466 0.42264120 1.15780079 113 87 75
0.99181431 0.42747802 1.17001455 109 84 72
0.99473555 0.43195629 1.18499304 109 84 73
0.99667676 0.44561028 1.18505847 106 81 72
1.00057662 0.41769931 1.17485583 109 84 71
1.00164527 0.43577969 1.17373913 112 87 76
1.00225568 0.43727351 1.18202680 107 84 72
1.00434792 0.44080034 1.17689562 114 89 77
1.00356431 0.44599162 1.18527269 109 83 74
1.11852115 0.07855579 0.98838781 173 178 185
1.11850378 0.08446304 0.98770153 163 165 172
1.12806242 0.07720159 0.98825717 166 171 178
1.13021108 0.08934814 0.99187471 167 171 175
1.13834584 0.09812704 1.00131738 172 176 178
1.13071515 0.10324586 0.99756989 170 176 177
1.13536547 0.10910185 1.00404253 166 171 176
1.14044559 0.07902096 0.98962313 164 164 174
1.14195178 0.09454031 0.99654080 167 172 177
1.14315328 0.09831934 1.00131738 175 180 184
1.14161527 0.10327654 0.99812543 167 172 175
1.14343526 0.10601664 1.00480008 169 175 178
1.19990695 0.05266306 1.03759174 175 175 177
1.19382296 0.04858313 1.04992792 171 176 180
1.21872890 0.03966174 1.05755353 178 183 187
1.21902430 0.03991079 1.06419444 156 164 167
1.20219937 0.05065441 1.03931332 175 175 179
1.20650818 0.04865432 1.05063223 166 171 175
1.21500599 0.04337118 1.06186197 163 172 175
1.22231982 0.03879465 1.06386082 166 171 175
1.22070980 0.04161949 1.06086361 178 187 188
1.61890733 -0.76110142 1.92037344 182 183 187
1.61890733 -0.75778222 1.92037344 183 184 188
1.62901041 -0.76438740 1.92446515 190 191 194
1.63139353 -0.75878818 1.92896880 186 187 191
1.65412986 -0.78433540 1.92860365 198 201 203
1.64879973 -0.76786567 1.92986516 192 193 195
1.64743245 -0.75729650 1.91494870 201 201 204
1.65343408 -0.75168874 1.93093840 190 193 196
1.65626276 -0.75438126 1.94238353 187 191 196
1.65614402 -0.73955317 1.92765796 183 189 191
1.67201257 -0.79067010 1.93316559 190 191 196
1.67774916 -0.78996813 1.94238353 186 186 195
1.67134267 -0.76795169 1.93315932 183 184 190
1.67774916 -0.77989638 1.94238353 178 178 182
1.66924741 -0.74865051 1.93335206 181 182 189
1.67027630 -0.75382159 1.94318088 188 190 196
1.66291261 -0.73749620 1.93683386 186 190 194
1.66767740 -0.73960936 1.94238353 183 188 192
1.68920940 -0.78832330 1.95077193 176 176 185
1.68299854 -0.76595131 1.93683386 180 185 191
1.68928464 -0.77242337 1.94470915 179 182 188
1.68438160 -0.75524105 1.94461613 188 189 198
1.68446362 -0.73960936 1.94238353 181 181 192
1.70317666 -0.78214039 1.95357883 196 199 204
1.70689860 -0.77250353 1.95483352 189 196 199
1.83280402 0.71314400 1.67587858 156 162 170
1.85281909 0.71000141 1.67676640 160 168 175
1.85423115 0.71390293 1.68588805 159 167 176
1.85172009 0.72082651 1.69050336 157 162 169
1.86117136 0.71257365 1.67795014 158 166 172
1.86749945 0.71381596 1.69052018 162 170 177
1.87116949 0.71508408 1.70467595 164 172 181
1.86757873 0.72214367 1.69474018 155 162 169
1.87383014 0.73055985 1.70755063 161 168 173
1.87510667 0.74768101 1.71185248 165 176 179
1.88743079 0.71563005 1.69897699 162 170 176
1.88721678 0.71764731 1.71078643 172 181 187
1.88661157 0.73104917 1.70754972 156 163 167
1.88907945 0.73958069 1.72053766 164 173 176
1.88878619 0.74934744 1.71509844 161 171 172
1.89250421 0.74940857 1.72182530 159 170 172
1.89288607 0.76274255 1.72163215 148 148 155
1.90757256 0.73281786 1.71444838 158 165 169
1.91859551 0.72792608 1.72345630 160 168 174
1.90753281 0.74957347 1.71618187 158 164 165
1.91010833 0.75525525 1.72289503 149 153 155
1.91120888 0.76782686 1.72543461 143 141 149
1.92200220 0.73159073 1.72272664 164 172 177
1.92351388 0.75502045 1.72638737 160 164 167
1.92348442 0.76462501 1.72784913 161 160 167
