ply
format ascii 1.0
element vertex 892
property float x
property float y
property float z
property uchar red
property uchar green
property uchar blue
end_header
-1.06113541 -0.84517032 1.95357883 95 148 166
-1.04412639 -0.84147590 1.95546087 117 146 158
-1.04769643 -0.82375232 1.93499450 97 144 165
-1.04865089 -0.83430148 1.94921792 100 144 162
-1.04471433 -0.81807272 1.92948687 99 144 166
-1.02227044 -0.88577034 1.97636104 141 137 129
-1.02933738 -0.88279842 1.98504627 142 135 128
-1.02227044 -0.87039843 1.97636104 140 135 125
-1.02525961 -0.87808239 1.98213995 141 136 129
-1.02949211 -0.84168687 1.95922494 138 140 139
-1.02802980 -0.84450319 1.96775985 138 138 132
-1.03530169 -0.82118767 1.93683386 108 143 161
-1.03047584 -0.83057022 1.95148981 130 140 146
-1.02653283 -0.83988130 1.96490383 138 137 130
-1.03692975 -0.81474153 1.92949210 105 142 165
-1.01599047 -0.88288925 1.98679006 146 137 131
-1.00647436 -0.87132326 1.95671915 142 136 128
-1.01385232 -0.86717149 1.96776537 142 135 125
-1.01461847 -0.87190297 1.98681068 145 136 126
-1.00848748 -0.85130742 1.95734290 143 136 121
-1.01530664 -0.84848503 1.96571984 141 135 124
-1.00182509 -0.82118767 1.93683386 142 133 121
-1.01134329 -0.83077439 1.95235285 139 134 123
-1.01974046 -0.83988130 1.96490383 141 135 123
-1.00043452 -0.80859888 1.91494870 137 137 127
-1.00803927 -0.81692706 1.93269530 137 136 127
-0.99215993 -0.80694398 1.91494870 139 135 123
-0.98218143 -0.79852194 1.89885676 139 135 122
-0.72672313 0.65565073 1.99968100 125 128 125
-0.72300074 0.67160253 1.99576004 98 101 103
-0.71239892 0.65197945 1.99023214 102 105 107
-0.71234960 0.66734841 1.99332380 100 102 105
-0.70874386 0.69040953 1.99527854 83 84 90
-0.69370741 0.63745576 1.96490383 69 76 82
-0.69272436 0.65307821 1.97484915 104 105 107
-0.68484307 0.65457512 1.98723459 96 97 98
-0.69119754 0.66993868 1.97444598 97 101 102
-0.68707755 0.67121692 1.98667235 103 106 105
-0.69009719 0.68529193 1.97327003 98 99 102
-0.68881498 0.68719805 1.98372833 102 104 105
-0.66847557 0.65463609 1.97061586 99 101 102
-0.67779261 0.65695933 1.98795259 96 97 98
-0.66461158 0.67624974 1.95922494 98 99 102
-0.66945275 0.67161291 1.96948009 109 110 110
-0.67819132 0.66937484 1.98912199 105 108 107
-0.67444149 0.68614493 1.97062415 99 98 101
-0.67923671 0.68073314 1.98213995 112 113 113
-0.56326870 -0.08570596 0.96412817 120 108 103
-0.54032916 -0.08590497 0.93245095 118 108 103
-0.55272727 -0.08406458 0.95151348 122 110 105
-0.55972046 -0.09011982 0.96018672 116 106 102
-0.55596000 -0.07844610 0.95444246 121 110 106
-0.52399427 -0.08398045 0.91324527 123 110 108
-0.53139799 -0.08777110 0.92718618 131 116 113
-0.52254154 -0.07136659 0.90697790 123 111 107
-0.53271824 -0.07801324 0.92483383 124 110 106
-0.51380180 -0.08283308 0.91628614 166 130 127
-0.51675040 -0.08518664 0.92457806 172 128 130
-0.50988990 -0.06621004 0.89504964 131 117 110
-0.50950887 -0.07113494 0.90559820 160 124 123
-0.51302642 -0.07848667 0.92104870 176 124 130
-0.50671154 -0.05808344 0.88702114 130 117 113
-0.49940372 -0.05733625 0.87753028 128 112 109
-0.34037524 0.24488886 0.61682606 33 33 37
-0.32071413 0.05720595 0.59422504 142 94 95
-0.32249771 0.06601503 0.59540650 152 103 109
-0.33151370 0.23601088 0.60731013 35 34 37
-0.32713909 0.24518824 0.60391570 34 33 36
-0.31530195 0.05529297 0.59281925 127 99 92
-0.30319279 0.06940494 0.57615020 125 103 90
-0.31353401 0.06408715 0.58918331 124 94 92
-0.31772551 0.24451086 0.59924221 33 32 35
-0.31949975 0.24419332 0.60043561 33 32 35
-0.29962251 0.07008083 0.57351255 129 103 85
-0.28630784 0.19527391 0.91534348 121 102 85
-0.28680527 0.20551841 0.91844878 118 99 84
-0.29218823 0.20951539 0.92314200 112 96 81
-0.26005241 -0.08025261 0.45834473 127 104 104
-0.26476581 -0.08105644 0.46397466 113 99 97
-0.26093456 -0.07972994 0.45989949 126 105 105
-0.26546128 -0.07307408 0.46879890 143 113 114
-0.27851932 0.19783227 0.91421732 124 107 90
-0.27851932 0.20099151 0.91421732 124 100 81
-0.26163285 0.24642245 0.65853168 93 94 99
-0.25519304 -0.07665014 0.45782169 173 128 132
-0.25709057 -0.06886190 0.46687181 164 116 118
-0.24898279 0.23615680 0.64913615 98 99 99
-0.25254266 0.24886804 0.65611583 91 95 97
-0.22094290 0.09492817 0.45913322 107 90 76
-0.22473101 0.09605210 0.46315696 107 88 75
-0.22059125 0.10123316 0.45865539 101 85 71
-0.22554343 0.10344537 0.46416174 98 82 73
-0.20186385 0.05983908 0.57037607 125 102 92
-0.20428942 0.07642207 0.55947074 129 108 92
-0.20375860 0.06795375 0.56663764 129 106 89
-0.21929047 0.09631315 0.45883699 106 88 76
-0.21922039 0.10156284 0.45855248 103 86 72
-0.20627269 0.11629014 0.85819997 133 112 95
-0.20382063 0.11356209 0.86473610 134 111 94
-0.20222055 0.12275308 0.85690826 134 109 91
-0.20014170 0.12029562 0.86245781 135 111 93
-0.18403009 -0.08145348 0.52653920 145 130 115
-0.18580359 -0.06953706 0.52742660 143 124 107
-0.18456829 -0.05958963 0.52795315 142 125 105
-0.19191906 -0.00333346 0.50726947 136 118 100
-0.19467501 0.00673030 0.51050576 132 112 95
-0.18123694 0.05880443 0.64357241 132 106 88
-0.19883271 0.06543236 0.56809464 127 106 85
-0.18297182 0.06414690 0.64477031 131 108 91
-0.18967445 0.11910447 0.85629712 137 114 100
-0.19661693 0.11632491 0.86715217 134 111 93
-0.19326951 0.12302718 0.85599524 134 112 97
-0.19629066 0.12021919 0.86190987 135 110 99
-0.17039386 0.05851666 0.63344691 134 110 94
-0.17822778 0.05805573 0.64042731 133 108 90
-0.16935827 0.06347965 0.63522302 133 109 91
-0.17851015 0.06586198 0.64044727 131 107 90
-0.10380651 0.03143082 0.45238033 133 109 94
-0.09633712 0.01338825 0.45035201 137 115 99
-0.08870215 0.02204553 0.45072668 140 121 101
-0.04306464 -0.10132992 0.53096473 146 124 116
-0.04338700 -0.09893610 0.52958113 145 124 114
-0.04199155 0.01451394 0.59849497 138 112 99
-0.04158296 0.01795504 0.60054208 140 116 100
-0.04147575 0.02225052 0.59606687 141 117 101
-0.04074549 0.02044270 0.60043561 142 118 101
-0.03465882 -0.10256306 0.53090795 146 127 116
-0.03400815 -0.09815861 0.53015322 146 129 115
-0.02293337 -0.05318208 0.49943965 143 123 109
-0.02246728 -0.04866936 0.50170534 144 124 111
-0.02171221 -0.00362922 0.53896365 141 120 105
-0.02622504 -0.00377257 0.54217660 142 121 104
-0.02300074 0.00669092 0.53688070 143 119 105
-0.02587965 0.00358101 0.54141191 144 122 107
-0.03374904 0.01537971 0.59819037 140 115 102
-0.03688688 0.01596537 0.60127210 139 115 101
-0.03493691 0.02199283 0.59869985 141 117 104
-0.03541643 0.02104104 0.60058771 142 118 104
-0.01807169 -0.05411599 0.49957971 144 125 110
-0.01822694 -0.04676508 0.50190635 145 127 110
-0.01670620 -0.00644181 0.53833668 140 118 104
-0.01927004 -0.01040875 0.54263172 139 119 103
-0.01881472 0.00924041 0.52428441 142 117 107
-0.00410744 0.11850406 0.49367518 190 189 181
-0.00300200 0.12349408 0.49720860 189 189 182
-0.00689040 0.13040395 0.50846066 189 188 181
-0.00828338 0.14015277 0.51747471 189 190 183
-0.00416263 0.17878033 0.67007490 189 189 182
-0.00236130 0.18233128 0.67599614 163 163 158
-0.00184486 0.19284624 0.69011525 158 158 157
-0.00152348 0.20014974 0.69885755 154 156 153
0.01944860 -0.22651636 0.46423057 150 137 118
0.00213095 0.11873832 0.48980777 190 188 180
0.01677773 0.11808104 0.58614342 145 127 113
0.00292027 0.12421182 0.49593837 161 161 159
0.00199877 0.12903306 0.50060606 155 154 152
0.01536096 0.13114188 0.57882495 161 160 158
0.01645550 0.12641894 0.58321107 138 131 129
0.00830139 0.17798729 0.67775270 156 156 153
0.01499614 0.17896736 0.68107078 158 159 157
0.01085179 0.19623417 0.48688002 128 132 134
0.01117305 0.18374923 0.67865751 144 144 145
0.00875865 0.19079359 0.68677648 158 159 158
0.00371467 0.20121172 0.48861489 132 134 134
0.00452544 0.20056328 0.70030147 165 165 161
0.02618839 -0.22825234 0.46574335 152 139 119
0.02905928 -0.21978329 0.47043154 152 135 116
0.03158581 -0.18797263 1.43470056 146 123 112
0.03354533 -0.18873829 1.44697130 147 124 112
0.03974310 -0.18888806 1.46097374 149 124 114
0.03270701 -0.17739461 1.42939886 147 126 115
0.02405249 0.11741219 0.58472806 145 126 112
0.02801113 0.13415502 0.45300307 147 148 147
0.02477502 0.12796015 0.57771872 152 151 147
0.02307483 0.12670013 0.58322341 148 143 138
0.02247236 0.18608309 0.67755459 155 155 154
0.02389085 0.18380841 0.68301971 140 141 142
0.05746378 -0.30772154 1.03931332 151 132 118
0.05820344 -0.30369414 1.04222398 151 134 122
0.05156617 -0.28404062 1.03812083 140 121 109
0.05637681 -0.28679991 1.04645020 143 125 112
0.05513800 -0.28122867 1.06553409 145 128 115
0.05424352 -0.26982038 1.05559264 150 132 119
0.05194404 -0.27066216 1.06536789 152 136 123
0.05957513 -0.22343645 0.51646141 143 133 118
0.05685101 -0.21380970 0.51534048 157 143 130
0.04902224 -0.20548374 1.45160049 146 126 113
0.05104672 -0.20550740 1.46604717 146 126 112
0.04412773 -0.19478756 1.43926084 149 127 112
0.04675781 -0.19465647 1.45128897 148 126 113
0.04484319 -0.18782809 1.46255147 152 128 113
0.05334005 0.11459460 1.19896069 141 121 105
0.05410680 0.11631412 1.20461021 141 121 104
0.05626991 0.12541824 1.19769294 140 116 103
0.05554980 0.12233783 1.20586637 140 116 103
0.07593868 -0.32076040 1.05262709 153 135 119
0.07213723 -0.32471856 1.06831940 151 133 117
0.07859021 -0.30179416 1.01633191 149 133 118
0.06977086 -0.30429184 1.03117672 149 132 117
0.07251449 -0.31902234 1.05591655 152 133 120
0.06936492 -0.29073400 1.03356472 148 130 117
0.06576953 -0.29391380 1.04202055 149 130 119
0.07268975 -0.28207994 1.07541344 147 129 115
0.07538507 -0.28158013 1.08390824 150 131 117
0.06929690 -0.27959704 1.03494942 145 124 115
0.06195920 -0.27825910 1.04868368 146 128 116
0.06769612 -0.27313968 1.07282053 152 134 121
0.07461655 -0.27288656 1.08638372 154 134 120
0.07184048 -0.26803355 1.10136849 153 134 119
0.06520355 -0.22303226 0.51311819 107 120 126
0.06540721 -0.21522612 0.51763266 105 118 128
0.06720643 -0.21338622 0.52025467 100 118 132
0.07814052 -0.20240728 1.05372528 150 131 118
0.07477642 -0.20154481 1.06197300 150 131 120
0.06687443 -0.20806253 1.39483917 146 124 110
0.06715077 -0.20650147 1.40060294 146 124 109
0.06664324 -0.20877880 1.42865887 146 125 108
0.06548377 -0.20856913 1.45082968 145 125 109
0.06336205 -0.20527304 1.46873441 145 124 112
0.07496240 -0.19585946 1.05609560 151 133 120
0.07262759 -0.18847354 1.06772108 151 131 118
0.06723024 -0.19939190 1.45470357 151 128 120
0.07390428 -0.16159225 0.65523469 122 121 127
0.06989968 -0.16242822 0.66039163 151 136 126
0.07010303 -0.17655892 1.06765445 150 131 120
0.07118126 -0.15233637 0.65312516 124 120 123
0.06468696 0.11784176 1.20782968 142 121 104
0.06809893 0.12991524 1.19687999 141 118 102
0.06799142 0.12340742 1.20482229 140 118 105
0.06314225 0.14848834 1.19821876 139 113 95
0.06214328 0.14510708 1.20455449 139 116 93
0.07927665 0.19643420 0.51156030 123 127 130
0.07878902 0.20110791 0.51297195 133 136 139
0.07556075 0.23282527 0.70907811 125 127 126
0.07637205 0.23907349 0.72154716 138 141 141
0.07786972 0.24589829 0.71811003 139 143 141
0.07399083 0.24939799 0.72329903 150 151 150
0.06783910 0.26147613 0.73724160 153 154 151
0.08164624 -0.29835901 1.01067147 150 133 118
0.08083155 -0.29743157 1.02246284 148 132 117
0.08083261 -0.28146586 1.06923008 146 126 113
0.08550442 -0.20195336 1.05520327 150 133 119
0.08812298 -0.20239188 1.06352930 150 134 120
0.08256292 -0.19948140 1.05590630 151 134 120
0.08081705 -0.15665557 0.65064939 88 105 128
0.08281836 0.12415358 1.19821876 141 117 105
0.08741870 0.19825488 0.49772187 150 154 154
0.08599362 0.19598407 0.50635329 132 136 137
0.08923357 0.20181589 0.49881872 140 142 142
0.08793101 0.20448263 0.50278317 123 125 126
0.08183541 0.21910413 0.69385332 101 104 109
0.09254768 0.23012965 0.69550136 139 141 142
0.08621498 0.23485277 0.70481491 131 134 136
0.09766504 0.24364930 0.69848501 124 130 132
0.08686061 0.24641164 0.70921185 123 127 129
0.08131817 0.24829411 0.72116215 125 126 126
0.11384144 0.05070036 1.65743732 141 119 105
0.11470631 0.05573447 1.67473225 142 122 104
0.11244058 0.06968399 1.67617598 141 119 102
0.11456491 0.06932146 1.68771665 140 120 102
0.11398076 0.08083055 1.67629290 141 117 104
0.11775899 0.09094796 1.69316317 139 116 105
0.11727803 0.09945469 1.70754337 140 117 104
0.11963116 0.11070193 1.69897699 139 118 99
0.11772749 0.10427730 1.71401501 140 115 102
0.11600832 0.22705240 0.63776751 112 116 120
0.11845225 0.22749944 0.64423842 112 119 120
0.10124411 0.23315102 0.68951998 135 136 138
0.10059667 0.24230420 0.69503721 101 109 113
0.13722394 -0.16159494 1.12233746 83 101 125
0.13331245 -0.14450981 1.06773684 64 68 86
0.13418157 -0.14752699 1.09360252 65 70 89
0.12974879 -0.14831694 1.10686560 66 69 86
0.13456424 -0.15892185 1.12172115 82 99 121
0.13278823 -0.13938373 1.07091916 56 60 72
0.13402864 -0.13319924 1.09620357 57 60 72
0.13121266 -0.13546242 1.11249204 60 60 70
0.12907664 -0.13210844 1.12233870 61 62 70
0.12553110 0.05533206 1.68945205 140 119 104
0.12516098 0.05581620 1.70431843 142 121 105
0.12784555 0.06977703 1.69756118 142 121 104
0.12938852 0.06968750 1.70793306 142 123 105
0.13135424 0.08862892 1.69648349 140 117 103
0.12687352 0.09240234 1.70913391 139 117 105
0.13555178 0.11223205 1.67795014 138 118 102
0.13521866 0.11024277 1.69199727 140 116 101
0.12605106 0.10710149 1.70888906 139 115 102
0.12709694 0.10467225 1.72053766 139 116 103
0.13488403 0.12322284 1.66968429 138 113 103
0.13439425 0.12260699 1.68773484 139 115 103
0.12327866 0.21825750 0.63508408 115 117 120
0.12239859 0.21943744 0.64414073 130 133 135
0.12238189 0.22498292 0.63394013 110 116 119
0.12107557 0.23170373 0.64337092 114 121 122
0.15117913 0.07654259 1.69054538 144 122 109
0.14572151 0.07235094 1.70884060 143 120 105
0.14018697 0.09895575 1.69897699 142 118 103
0.14348312 0.09920438 1.70324588 143 119 104
0.14313216 0.10983954 1.69332790 140 116 103
0.14262228 0.10321538 1.70467595 142 118 101
0.15407307 0.15911765 0.53461504 170 173 173
0.15594589 0.16294789 0.53618290 144 145 146
0.15753627 0.16216630 0.54015285 158 159 158
0.15980884 0.55817825 1.72053766 138 138 136
0.15980884 0.56115210 1.72053766 141 141 137
0.14642490 0.57862890 1.81254506 142 143 145
0.14603445 0.58021033 1.80771160 140 141 141
0.15153292 0.58948565 1.83265533 132 133 133
0.15531401 0.59525725 1.84838530 130 131 132
0.15613807 0.60153183 1.83462268 115 116 116
0.15315347 0.60689842 1.85023517 119 121 121
0.14757111 0.61306123 1.87264981 137 139 138
0.15377063 0.62444654 1.87485666 105 107 111
0.15229052 0.62982550 1.88513100 115 117 122
0.14436020 0.62940079 1.90955448 142 143 143
0.14600533 0.63323534 1.93131578 143 144 144
0.14698270 0.63075648 1.94424403 154 156 155
0.15996157 0.64228487 1.89885676 128 131 137
0.14750079 0.64950494 1.99674889 154 156 156
0.16438369 0.15974781 0.53209722 97 108 113
0.16453016 0.16415668 0.53575420 117 123 128
0.16062419 0.55504817 1.72931588 138 134 133
0.16228011 0.55775052 1.74714386 143 140 137
0.16083170 0.56923872 1.73154992 140 140 137
0.16443928 0.57021253 1.74602687 145 144 141
0.16373886 0.57015518 1.76842415 136 134 132
0.16326017 0.57020456 1.79102373 147 146 143
0.16165763 0.57708303 1.80772018 140 140 138
0.16370676 0.58442694 1.75166631 157 158 154
0.16307844 0.58872360 1.77229351 148 148 147
0.16318601 0.59316113 1.79021013 140 140 138
0.16137024 0.59010345 1.80450646 129 129 129
0.16031380 0.59146598 1.82802478 126 126 127
0.16154794 0.58487910 1.84209740 139 139 138
0.16193427 0.59051138 1.86490542 136 138 138
0.16526164 0.60182595 1.77924371 164 164 164
0.16426576 0.60724769 1.79527245 158 160 159
0.16298528 0.60836267 1.81095111 147 148 148
0.16214670 0.61138391 1.83091885 133 135 136
0.16198812 0.61520612 1.84711671 125 125 132
0.16395301 0.62806129 1.83338809 156 160 158
0.16243072 0.62008834 1.85216355 135 135 141
0.16251593 0.63032160 1.86895270 135 138 141
0.16188322 0.63693249 1.88303292 137 140 146
0.16563202 0.64249754 1.85216355 155 158 157
0.16445299 0.64563715 1.87522310 152 156 155
0.16342206 0.64740996 1.88827813 149 154 154
0.16086276 0.64920384 1.90955448 137 142 147
0.16606045 0.66012788 1.89355266 156 157 157
0.16746540 0.67573017 1.94796503 154 155 155
0.16843341 0.68302250 1.95922494 154 155 155
0.16941267 0.69039959 1.97061586 155 156 156
0.21488439 0.17533810 0.51876953 139 142 141
0.21871559 0.17010665 0.52487920 146 150 148
0.21892886 0.18908770 0.52252907 142 146 146
0.22682728 0.17005879 0.51866386 133 139 139
0.22277034 0.16984314 0.52374533 147 152 151
0.22884231 0.19311998 0.52627148 137 141 141
0.23645920 0.20056897 0.53182128 146 149 148
0.23892610 0.28939456 0.74475236 163 166 161
0.23977512 0.34792581 1.14896917 115 117 123
0.23859849 0.37800119 1.15287952 163 165 163
0.24100534 0.19882180 0.53298675 151 155 152
0.24017505 0.20052883 0.53293383 155 159 156
0.24772172 0.27956448 0.74555343 128 127 124
0.25909514 0.28371079 0.73817700 109 116 118
0.24946447 0.28731734 0.74663233 130 136 136
0.24522559 0.34835765 1.13740563 129 137 135
0.24692317 0.35586621 1.15127778 134 136 137
0.24366784 0.36370957 1.13931406 126 129 137
0.24545278 0.36841676 1.15259948 134 136 138
0.25670382 0.36756897 1.16344106 138 140 142
0.24097161 0.38101633 1.14994454 171 172 170
0.25793609 0.38150293 1.17283732 139 142 142
0.27959678 -0.24149189 0.45989949 85 106 114
0.27948377 -0.24293162 0.46036802 85 106 117
0.26696189 0.19673544 1.08863446 138 143 150
0.26903187 0.21688365 1.05714431 136 137 142
0.26653888 0.21230700 1.07142117 143 146 149
0.26537964 0.20831422 1.09099236 156 159 161
0.26460790 0.21072036 1.10347435 162 167 168
0.26730841 0.22062394 1.05755615 153 157 158
0.26414829 0.22095230 1.06622560 148 149 152
0.26519647 0.22167815 1.09279084 154 157 158
0.26453651 0.22155835 1.10316080 159 163 164
0.26734290 0.22456421 1.12295791 158 161 163
0.26039454 0.28584476 0.73764364 124 131 132
0.26003686 0.28963086 0.74575561 135 143 143
0.26029530 0.36654767 1.16077375 137 139 143
0.26029408 0.38451117 1.17894232 139 143 142
0.28732136 -0.24558968 0.45964112 89 106 118
0.28676532 -0.24328906 0.46070785 88 107 117
0.28672295 -0.23794595 0.45935791 86 108 121
0.28719375 -0.23958511 0.46060981 86 106 120
0.35508000 0.18997018 0.45917267 114 123 123
0.35826303 0.19470778 0.46232100 116 123 123
0.35666268 0.20413810 0.45902823 130 138 138
0.35741589 0.20294639 0.46201196 147 154 152
0.36149473 0.19579426 0.46227728 127 135 135
0.36079855 0.20143639 0.45938011 149 154 154
0.36079293 0.20183679 0.46204969 150 156 155
0.39048130 -0.28602186 1.97636104 80 96 121
0.39159917 -0.28807076 1.98796316 81 96 121
0.39332648 -0.26937513 1.97595067 60 66 78
0.39324894 -0.27543208 1.98797223 64 72 85
0.39808171 -0.25336539 1.97291393 55 60 71
0.39654273 -0.25305246 1.98964279 54 60 73
0.38448060 0.35550948 1.07858890 161 165 165
0.38485983 0.35895549 1.08987996 159 164 164
0.38638165 0.36294458 1.09588296 160 165 165
0.39130017 0.37243771 1.10845618 157 162 160
0.39032922 0.37611592 1.12260600 156 160 160
0.39713470 0.38257842 1.11679153 143 146 145
0.39517950 0.38686107 1.13189731 141 144 146
0.39612966 0.39406222 1.14859359 130 134 137
0.41473924 -0.34405484 0.96540713 85 104 124
0.41648821 -0.33474772 0.96929810 84 104 123
0.41392314 -0.30253831 1.98680379 79 99 128
0.40902518 -0.29309782 1.97636104 82 99 127
0.40929325 -0.29073319 1.98796799 81 97 124
0.40350819 -0.27063311 1.97444598 60 66 76
0.40537544 -0.27874217 1.98359311 79 86 102
0.40443208 -0.25452869 1.97062533 54 61 70
0.40336925 -0.24941724 1.98213995 55 61 72
0.41535215 0.23251988 0.87633545 155 162 161
0.41609743 0.22990890 0.88267165 161 167 165
0.41662069 0.24155559 0.87826180 162 163 163
0.40330132 0.38355222 1.11569443 144 145 144
0.40571600 0.38951600 1.12607506 138 139 139
0.40268058 0.40060323 1.15484130 125 131 132
0.42455154 -0.34119861 0.96888312 85 102 122
0.42902058 -0.32900256 0.95747626 81 104 118
0.42656997 -0.33259313 0.97102782 84 104 119
0.42297259 -0.30429928 1.99379957 79 100 127
0.43231259 -0.28124740 0.71482593 86 102 118
0.42407294 -0.29525295 1.99087608 79 99 127
0.43178543 -0.27544834 0.71704208 83 103 117
0.43210841 -0.27101990 0.72112177 81 103 115
0.43635059 0.03256584 0.86698479 122 135 140
0.43747004 0.04514542 0.86681944 113 125 136
0.43828613 0.13887389 0.45106892 140 143 138
0.43850981 0.14321864 0.45089783 122 126 125
0.42846184 0.19106490 0.45318307 130 134 133
0.43059336 0.19450115 0.46242663 129 134 132
0.43966362 0.20607421 0.45042646 94 103 109
0.42426767 0.21735204 0.87358091 150 157 158
0.42580340 0.22916806 0.87825198 147 151 153
0.43031947 0.23174300 0.88425784 152 157 158
0.42893015 0.24342519 0.88588731 154 157 156
0.44178296 -0.27474480 0.72154587 86 102 118
0.44426142 0.03829813 0.85709105 112 126 132
0.44133041 0.02772670 0.87061473 132 139 142
0.44452138 0.04372439 0.85757100 107 122 133
0.44320927 0.04851851 0.86370611 121 132 141
0.44626293 0.13840017 0.45223115 134 139 136
0.44257482 0.14225247 0.45152821 136 140 138
0.44253568 0.21295313 0.45489817 132 138 137
0.45159754 0.23107915 0.47178326 46 50 51
0.45249581 0.23551937 0.48433750 65 68 63
0.45332974 0.23786727 0.65942788 151 154 152
0.45377114 0.23923975 0.66006994 148 152 151
0.44331630 0.23093903 0.89191120 158 165 163
0.45350128 0.24139190 0.48729588 0 0 0
0.45410559 0.25673798 0.65753504 135 136 129
0.45665332 0.25028864 0.66369131 135 138 135
0.45336352 0.26104038 0.65696448 130 132 128
0.45307145 0.26002875 0.66071332 129 130 121
0.47493417 -0.24717816 0.78496877 82 99 115
0.47231786 -0.22683540 0.78807856 80 98 115
0.46996307 -0.21211793 0.78550494 78 97 114
0.47141711 -0.19490194 0.77873874 76 95 111
0.47233622 -0.19794280 0.78201263 76 94 114
0.46092159 0.23994191 0.48420846 0 0 0
0.46364442 0.24421627 0.48834239 0 0 0
0.46244788 0.25382400 0.65942788 132 133 132
0.46414549 0.25194019 0.66656766 136 137 136
0.48384222 -0.24557030 0.78566372 81 101 114
0.48127029 -0.22746454 0.78785003 79 98 113
0.48057827 -0.21907981 0.78824633 80 100 113
0.49442636 0.15899280 0.45192929 142 148 148
0.49252024 0.16591389 0.45205026 150 158 154
0.51435708 0.23504616 0.57749421 130 132 129
0.51528016 0.23767381 0.58861099 117 120 120
0.51191014 0.24125008 0.57989037 118 128 125
0.51583631 0.24122165 0.58846749 106 112 114
0.52270423 0.23629275 0.59452677 124 127 126
0.53099964 0.23343219 0.60574604 130 134 134
0.58821014 -0.20987171 0.60474677 79 100 109
0.59538633 0.15983841 0.59778821 144 155 153
0.59647808 0.16346614 0.59827058 148 157 154
0.59821550 0.16736738 0.60132470 143 152 149
0.61198943 0.11588121 0.84994241 109 124 127
0.61464460 0.12286032 0.84820406 107 119 124
0.60366056 0.15850804 0.59796844 141 151 150
0.60584205 0.15875190 0.60150117 144 154 153
0.60324413 0.16563248 0.59899761 147 156 154
0.60592351 0.17209011 0.60465337 132 143 142
0.61883190 0.19327532 0.59811290 132 139 138
0.61353263 0.19444766 0.60355489 138 147 144
0.61546636 0.20689386 0.60488640 135 144 141
0.61653775 0.29285163 0.76425236 106 119 115
0.62452280 0.11492596 0.85162657 119 128 133
0.62562941 0.12255154 0.84947345 103 115 119
0.62381906 0.16397244 0.51883949 128 135 135
0.62984668 0.17155697 0.52579016 144 153 152
0.62023437 0.19697886 0.59866852 132 139 136
0.62087327 0.19842770 0.60075519 122 129 127
0.62087420 0.21034259 0.60423254 125 133 132
0.62436759 0.29653727 0.77561998 110 123 119
0.62805724 0.29893145 0.78188217 118 132 127
0.63119546 0.30922222 0.79582148 130 138 136
0.63085684 0.31251933 0.80298639 115 120 122
0.62922260 0.32677282 0.79705343 136 136 133
0.63272508 0.32592529 0.80741513 117 122 121
0.71789550 -0.54377759 0.89482452 94 112 115
0.71467611 -0.53068951 0.89550094 92 113 120
0.71729937 -0.52936374 0.90599027 92 113 121
0.71816029 0.27888929 0.74960844 147 148 146
0.71811848 0.28445580 0.75201245 135 139 137
0.71883914 0.28659913 0.76167788 132 138 133
0.72963109 -0.56203788 0.91747132 92 115 120
0.73100729 -0.56672490 0.92633809 91 115 119
0.72167568 -0.54736039 0.89698081 91 114 118
0.72506814 -0.54988174 0.91103794 92 113 118
0.72769998 -0.55272997 0.92505286 92 113 121
0.72159193 -0.53670782 0.91052902 91 113 121
0.72150422 0.28820335 0.75782919 128 132 130
0.72522722 0.28850899 0.76828268 138 143 138
0.73637818 0.29364916 0.78935293 149 156 151
0.74098453 0.29256370 0.79208410 150 158 154
0.74424464 0.29492813 0.80223888 153 162 159
0.77037319 -0.50614884 1.19769328 86 106 119
0.77642310 -0.51064104 1.20193589 87 107 121
0.77845002 0.41784974 1.16396761 143 148 146
0.77925587 0.42143950 1.16276479 127 132 134
0.79598457 -0.52079749 1.21595049 82 104 113
0.79128793 -0.50930998 1.21075796 83 103 116
0.78860365 -0.48613124 1.19883081 83 105 114
0.79064008 -0.48999491 1.20428783 82 104 114
0.78566088 -0.47900710 1.20335917 81 104 115
0.79562676 0.22408946 1.03971136 129 130 132
0.79807484 0.22658156 1.04291058 140 142 144
0.78960395 0.41360244 1.17085910 151 156 155
0.79513741 0.41164142 1.18151155 142 150 148
0.78059477 0.42417681 1.16476262 120 125 128
0.80362034 -0.52224170 1.21850161 83 105 114
0.80368103 -0.52646965 1.22179419 85 106 117
0.80420123 -0.51524210 1.21821053 83 103 116
0.80687731 -0.51587137 1.22170232 83 103 118
0.80358002 -0.48668317 1.20981303 84 103 116
0.80443861 0.23124218 1.05182377 149 156 155
0.81523850 0.23620507 1.07018091 152 160 156
0.81987542 0.23863058 1.08116722 155 161 155
0.81608243 0.25497042 1.07416439 156 162 157
0.81894109 0.25638331 1.08116722 156 159 156
0.81687428 0.24868449 1.11047018 149 154 152
0.81841031 0.25235604 1.12140989 159 166 163
0.81800675 0.26105508 1.08116722 168 175 167
0.80321809 0.41483774 1.17826009 153 155 156
0.80954617 0.41396646 1.18709332 137 143 143
0.80296516 0.42147574 1.17689562 162 163 160
0.81630211 0.42479157 1.19190949 162 163 159
0.82464355 0.23895827 1.09119707 145 149 145
0.82329361 0.24917963 1.07830151 154 160 157
0.82700693 0.25076721 1.09199555 157 162 158
0.82994144 0.25055036 1.11175370 145 150 148
0.83272908 0.25145130 1.12167624 145 150 148
0.82321590 0.26120396 1.09221526 154 161 156
0.83194226 0.26255674 1.11465658 151 158 156
0.83371642 0.26754836 1.12736459 147 154 154
0.83329397 0.27404699 1.14315653 143 144 146
0.82916576 0.41221485 1.17080696 133 136 131
0.83219658 0.41303548 1.19492850 129 133 132
0.83265382 0.41482512 1.20665783 128 131 132
0.83999932 0.41751334 1.22806489 124 131 132
0.83128698 0.42219165 1.19797343 116 121 122
0.83461625 0.42832500 1.20888557 141 146 144
0.83968103 0.42158994 1.22142673 119 124 125
0.85831223 0.20610348 1.06754775 160 168 165
0.85640757 0.22702240 1.07675273 147 155 153
0.85780987 0.22956352 1.08246392 141 149 148
0.84040672 0.25497338 1.11587816 156 162 158
0.84156716 0.25642417 1.12308691 140 146 145
0.85680126 0.27896521 0.91083921 133 137 138
0.84249018 0.27001820 1.12858357 151 160 157
0.84621741 0.27812474 1.14639235 148 157 156
0.85918915 0.28316040 0.91421732 131 134 136
0.84286088 0.28053120 1.13740242 163 172 169
0.85524476 0.28531840 1.15681207 163 172 169
0.85416102 0.28228292 1.16077375 144 153 152
0.84184907 0.41596827 1.19481778 134 139 131
0.84087312 0.41586903 1.21704102 133 138 139
0.84556629 0.41758465 1.22759476 131 135 136
0.84418050 0.42318512 1.19727080 118 125 124
0.84823081 0.42973176 1.20868591 103 111 115
0.84712621 0.42141674 1.23329528 124 130 130
0.86513157 0.21367457 1.07324500 149 156 154
0.86659318 0.21994348 1.08116722 155 164 161
0.87640768 0.22239185 1.07944560 134 138 138
0.87314888 0.22821629 1.08804525 148 158 156
0.86363250 0.27772877 0.89668232 138 140 138
0.87059291 0.27917290 0.91238554 143 150 148
0.87376431 0.28584390 0.91573968 133 138 138
0.87379530 0.29006644 0.92495025 131 136 136
0.87994337 0.30044022 0.92608178 104 116 114
0.89775243 0.07736664 0.85917848 139 153 153
0.89832130 0.07569782 0.86197199 133 147 149
0.88466243 0.23230842 1.09302635 149 158 157
0.88192260 0.29045296 0.91979897 131 133 134
0.88199717 0.29443543 0.92385363 121 128 129
0.90392440 0.07757806 0.83845697 136 147 146
0.90812828 0.07687118 0.85218022 127 137 139
0.90997210 0.07231286 0.86307146 123 135 137
0.90672350 0.08051567 0.85164714 137 145 146
0.92010629 0.06497345 0.87020773 108 124 124
0.96481168 0.37586670 1.07815987 116 126 127
0.96966919 0.37905946 1.08463806 114 124 126
0.97663957 0.38544022 1.07887355 134 149 148
0.97524143 0.38657858 1.09020084 113 127 129
0.97907418 0.38744989 1.10047376 107 117 119
0.98420647 0.39116862 1.09420243 125 141 139
0.98604436 0.39413228 1.10723829 114 127 129
0.99824069 0.39579931 1.12420082 105 114 117
0.98607993 0.40016159 1.10405838 131 141 140
0.98879687 0.40997226 1.53326315 145 150 150
0.99248061 0.41520985 1.54645990 147 151 151
0.98500586 0.42562587 1.53716969 132 134 136
0.99217877 0.42777432 1.54783141 133 137 139
0.99475710 0.43083359 1.56505714 125 132 132
1.00435741 0.39767110 1.13285534 105 112 114
1.01480806 0.39721975 1.14508760 103 110 113
1.00837822 0.40815900 1.13406380 119 130 130
1.01464609 0.40772889 1.14843116 113 122 123
1.00245273 0.41516577 1.54769826 149 154 154
1.00512674 0.41614268 1.56648025 142 145 145
1.01559901 0.42081672 1.13931406 128 137 138
1.00754561 0.42658308 1.55254109 151 155 156
1.01413724 0.42729159 1.56437880 151 156 157
1.02377537 0.41617948 1.15457032 118 127 126
1.03432024 0.40988168 1.17282331 109 116 116
1.02258833 0.41899417 1.57040767 141 148 147
1.02572668 0.42572996 1.15494916 123 131 132
1.03143518 0.43232088 1.16550861 121 127 127
1.02552736 0.42206925 1.55837202 151 160 157
1.02895768 0.42857535 1.56920401 152 161 159
1.03666377 0.42398980 1.58571410 141 149 148
1.03915882 0.44003639 1.17485583 107 114 116
1.02791512 0.44060123 1.57649267 155 159 158
1.04878145 0.41497366 1.19037306 124 130 130
1.05687869 0.41901734 1.20193589 136 143 143
1.04378376 0.43472890 1.18472066 121 128 125
1.04017699 0.42970186 1.57649267 146 155 152
1.04856861 0.42823577 1.59129536 143 152 151
1.04503131 0.44080034 1.17689562 121 130 131
1.04867250 0.44335686 1.18099630 118 127 128
1.07851713 0.26652731 0.95129408 147 157 155
1.06490033 0.41851847 1.21011429 120 126 127
1.07208558 0.42083168 1.21922994 114 119 120
1.09170846 0.24786921 0.93609946 136 148 146
1.09557624 0.25611321 0.95082550 135 141 141
1.08962602 0.26903201 0.95445358 147 155 154
1.09386311 0.27345913 0.96650748 149 158 156
1.09113387 0.28072375 0.95709123 147 156 154
1.09665859 0.28277432 0.96981094 148 158 156
1.09311378 0.67648381 1.66765332 126 129 129
1.09589338 0.68309021 1.66968429 124 125 126
1.08785510 0.71532144 1.65743732 120 129 129
1.09372279 0.71221882 1.66875319 102 113 113
1.09823656 0.71724921 1.68211377 97 106 107
1.08785510 0.72105092 1.65743732 126 135 135
1.09269733 0.73076323 1.67159023 114 123 124
1.09805393 0.74526507 1.68629813 96 101 104
1.11512899 -0.36431061 1.79180404 78 93 115
1.11345649 -0.36575945 1.81175240 73 94 112
1.11731362 -0.36631405 1.82228994 72 94 113
1.11113131 -0.35386782 1.77306974 76 93 114
1.11135769 -0.35491437 1.78863907 76 95 114
1.11431825 -0.35904950 1.81740439 81 98 117
1.11707714 -0.32679986 1.80410582 76 93 112
1.10736748 0.25270443 0.95363499 134 145 144
1.11402186 0.25245300 0.96385585 135 145 145
1.10265007 0.26514041 0.97585311 142 154 151
1.10144472 0.28036922 0.96154869 148 157 154
1.11813545 0.36185849 1.33181107 124 132 131
1.11491066 0.44415230 1.50981134 152 158 156
1.11409014 0.44987822 1.53083293 131 135 135
1.11342234 0.44735415 1.54384922 136 138 138
1.10674000 0.69000012 1.68798859 118 119 121
1.11624229 0.69207209 1.70969212 122 125 126
1.10430562 0.70445058 1.67587858 103 114 112
1.10682789 0.71000016 1.68561119 104 113 112
1.11682459 0.71149067 1.71124455 109 115 115
1.11737561 0.70686877 1.72053766 116 117 117
1.10262916 0.72934267 1.69332437 106 117 118
1.11429584 0.72587296 1.71124767 100 111 111
1.11737561 0.73363307 1.72053766 101 108 110
1.10262688 0.74251282 1.69332083 112 121 123
1.11454678 0.74660718 1.71618187 108 118 120
1.11737561 0.75296283 1.72053766 114 123 126
1.12249098 -0.36441144 1.79432106 77 93 114
1.12705383 -0.36465306 1.81014124 77 92 114
1.12945843 -0.36074397 1.84209740 77 95 111
1.12474847 -0.35458568 1.77924371 75 95 114
1.12752998 -0.35692427 1.79099876 75 95 113
1.13098243 -0.35370057 1.81014124 75 94 112
1.13571742 -0.34992648 1.82995119 75 94 111
1.13688305 -0.35131731 1.84903337 76 94 108
1.12599200 -0.33079196 1.81175671 76 93 110
1.12822044 -0.33453678 1.82721505 75 93 111
1.13105035 -0.33845657 1.84209740 74 94 107
1.13905108 -0.20162745 1.23702896 48 54 55
1.13835947 -0.19723142 1.23627786 48 56 58
1.12436357 0.25198005 0.96869478 138 149 148
1.13449681 0.35445635 1.36535352 156 163 156
1.12254620 0.36675245 1.33706474 131 141 139
1.12688749 0.36910769 1.35100142 127 135 135
1.13515902 0.37196184 1.36972444 146 152 151
1.13614322 0.37539915 1.38717979 158 164 160
1.13342214 0.38043880 1.36122859 139 148 149
1.13704298 0.38263536 1.38913039 156 162 158
1.13403085 0.41102844 1.55481002 152 157 154
1.13714635 0.41455324 1.56557840 152 157 155
1.13640202 0.43024900 1.55223095 163 169 165
1.13300145 0.43856141 1.56919408 165 169 167
1.12370718 0.44318452 1.51993692 149 157 154
1.12683221 0.44805386 1.53301102 138 144 143
1.12776288 0.44702246 1.54633899 136 141 140
1.13272601 0.44389473 1.56648652 155 158 155
1.13674605 0.44745491 1.58386809 148 153 151
1.12294221 0.46092716 1.54417276 110 112 115
1.12047935 0.69914669 1.71618187 117 120 121
1.12344563 0.70903428 1.71618187 111 114 116
1.12491677 0.71471676 1.72460928 104 111 112
1.13163483 0.71779972 1.74714386 125 126 126
1.12307947 0.72541596 1.72932041 107 117 117
1.13456655 0.73174635 1.75167018 105 113 113
1.12583160 0.74115753 1.73818421 104 109 111
1.13237342 0.74925254 1.74828419 103 110 112
1.14199233 -0.36321212 1.85470074 78 95 113
1.15226194 -0.36192767 1.86876741 76 95 110
1.14503607 -0.34834265 1.83427569 75 93 112
1.15010488 -0.35205626 1.84662029 75 93 112
1.14727979 -0.35168456 1.86549957 75 94 108
1.14949870 -0.20277860 1.25072300 50 56 58
1.14113343 -0.19342799 1.23929036 49 55 61
1.15289605 -0.19196144 1.25359088 50 56 60
1.15715339 -0.18933797 1.26482162 52 57 62
1.15807045 -0.17673467 1.25768435 51 55 62
1.15799427 -0.17990983 1.26472354 54 57 63
1.14016402 0.35577759 1.37503421 160 167 158
1.14480817 0.35961312 1.38063514 156 162 158
1.14009988 0.37078953 1.37782896 134 140 138
1.14648750 0.37193958 1.38773143 154 161 158
1.14840949 0.37608082 1.40350680 158 163 160
1.14135305 0.38390004 1.37503608 146 155 150
1.14418238 0.38546470 1.38838684 160 167 162
1.14918643 0.38537048 1.40495872 160 164 159
1.15742844 0.38528468 1.43169197 158 165 160
1.14134872 0.41398868 1.55837202 152 157 155
1.14381135 0.41660584 1.57162694 153 157 156
1.14638686 0.41704756 1.58016741 160 164 163
1.14141834 0.43991259 1.55479777 161 167 160
1.14621745 0.42965019 1.57011271 163 169 168
1.15242821 0.43277558 1.58944439 164 169 168
1.15987778 0.43404284 1.60258114 169 178 176
1.14285618 0.44509111 1.54948527 152 160 155
1.14163911 0.44351717 1.57138531 165 168 164
1.14827782 0.44409615 1.59085580 161 165 163
1.14879799 0.44512258 1.60258114 157 162 160
1.14790863 0.73578236 1.77226925 105 115 115
1.14865217 0.74748711 1.77460417 108 116 116
1.15389562 0.75703195 1.78627938 109 113 117
1.14790863 0.77254303 1.77226925 109 118 121
1.16216125 -0.18379133 1.26688713 52 57 61
1.16767005 -0.17128106 1.26724278 51 56 60
1.17505491 -0.16787914 1.28605673 50 56 57
1.16254872 0.36716411 1.40495872 152 160 157
1.17306393 0.37163323 1.43456230 157 164 161
1.17011887 0.37304495 1.44794093 155 163 159
1.17777018 0.37207567 1.46413378 144 150 147
1.16502202 0.38298480 1.43102457 159 166 162
1.16603418 0.38536991 1.44437325 160 169 165
1.17864203 0.38386424 1.47049510 155 163 162
1.16361610 0.42891068 1.59380329 156 164 163
1.16724765 0.43424884 1.61020048 163 170 169
1.16285634 0.45378435 1.56557012 151 160 159
1.17087936 0.75614760 1.81257089 107 116 116
1.16154540 0.76982260 1.79812157 107 111 114
1.17400169 0.76237184 1.81740439 106 115 114
1.17715764 0.76127154 1.82228994 112 121 120
1.18432585 -0.18126424 1.27424475 51 56 61
1.19107330 -0.18041664 1.28388608 51 56 62
1.18697406 -0.17248180 1.27023587 51 55 60
1.18427223 0.37478989 1.43571192 150 159 156
1.18785438 0.37388057 1.44917041 158 165 160
1.19009097 0.37495591 1.47177233 151 158 154
1.18981485 0.37782273 1.48335667 137 143 142
1.18094242 0.38072956 1.43317509 143 150 149
1.19025177 0.38326979 1.44903030 150 155 155
1.18291299 0.38413157 1.47475278 150 159 157
1.18639297 0.38418214 1.48263853 142 150 150
1.19827604 0.42210355 1.76075804 133 140 143
1.21181002 0.41768965 1.78745613 114 115 122
1.20567374 0.42433103 1.77122501 135 142 146
1.21213994 0.42944499 1.79054055 134 139 140
1.21449339 0.42909092 1.80290389 145 150 149
1.21652079 0.79210222 1.88827813 114 122 120
1.21677196 0.81294990 1.89885676 125 129 129
1.22695816 0.41974241 1.80290389 103 104 114
1.22356594 0.42268767 1.79336464 125 132 139
1.23327243 0.42342238 1.80530775 121 127 135
1.22333598 0.79325777 1.89885676 117 126 123
1.23370326 0.79667044 1.91494870 118 129 128
1.22198176 0.81259021 1.90956962 127 131 130
1.23738432 0.81118292 1.92582905 120 125 125
1.23313745 0.82351220 1.93134705 131 136 133
1.23826806 0.83221482 1.95173448 144 150 144
1.24527621 0.41387667 1.83215350 137 138 138
1.24981916 0.42540136 1.82721059 117 117 128
1.24698861 0.82751608 1.95512749 134 139 137
1.24900140 0.82896648 1.96704999 142 147 144
1.25782629 0.83506757 1.98796403 146 150 147
1.24579672 0.84335780 1.97254197 155 162 154
1.25153267 0.84594630 1.98796117 158 163 157
1.27750027 0.41921386 1.87005001 128 130 134
1.26892780 0.42494974 1.85280474 119 120 126
1.27392423 0.42379462 1.86380604 121 121 125
1.26630330 0.82613859 1.97348845 127 134 131
1.26870984 0.83047807 1.98795259 134 141 140
1.28694880 0.41817310 1.87263656 141 145 147
1.29647875 0.41349392 1.88829279 158 162 160
1.29217206 0.42563321 1.86986695 139 144 149
1.28148961 0.42212427 1.88303292 128 129 131
1.30372238 0.41713235 1.87522310 154 158 158
1.30156106 0.41898854 1.89094484 158 162 161
1.31256795 0.41429090 1.92219198 164 171 169
1.30282441 0.42482005 1.87626058 147 153 155
1.31280094 0.42003635 1.88827813 154 158 158
1.31046230 0.42289140 1.91225159 153 158 155
1.31394303 0.42506072 1.92582905 163 168 167
1.32175606 0.42582342 1.87781680 159 165 164
1.32263426 0.42653049 1.88652972 157 163 162
1.32924923 0.42641350 1.90956962 153 158 156
1.33391488 0.42506072 1.92582905 155 159 156
1.33288693 0.42612901 1.95359498 165 171 168
1.33271308 0.51127779 1.39598954 158 162 156
1.33566511 0.51006383 1.40060294 164 169 160
1.34011447 0.42904535 1.95922494 170 174 171
1.34500360 0.43621391 1.97636104 152 161 160
1.35290390 0.43362710 1.98796976 162 168 167
1.34932509 0.51383819 1.41145586 157 164 154
1.35830951 0.51548740 1.42564160 162 171 160
1.35522621 0.52406810 1.43151098 160 168 163
1.35589933 0.52887547 1.44539833 154 163 161
1.36286277 0.51607177 1.41374886 134 139 130
1.36560595 0.51479343 1.42716929 143 151 142
1.36921853 0.51777846 1.44232309 156 166 155
1.36579786 0.52453166 1.43052435 153 158 152
1.36746146 0.52638972 1.44772684 160 169 164
1.37688744 0.53805333 1.47048128 153 162 160
1.38177776 0.51859570 1.45158851 136 145 140
1.38016164 0.52586567 1.45783186 161 170 164
1.38748050 0.53138272 1.47219719 160 169 163
1.39121618 0.53488001 1.48383503 159 168 164
1.39062820 0.54232677 1.49224101 155 165 161
1.40729797 0.54556243 1.51062763 157 166 163
1.50865491 0.21544129 1.83216683 109 132 132
1.50069022 0.22993230 1.81740439 113 124 128
1.50950269 0.23022533 1.82862601 111 122 127
1.51780897 0.23115102 1.84586877 105 117 124
1.50069022 0.25349158 1.81740439 115 136 135
1.51164554 0.24838530 1.83286469 103 115 118
1.51746372 0.24783918 1.84544361 104 116 119
1.52347064 0.21862023 1.85470074 105 129 130
1.53010786 0.21911742 1.87262940 95 117 119
1.53595996 0.21809125 1.89180434 104 126 128
1.52459180 0.23031560 1.85218421 104 116 123
1.52928469 0.23230344 1.87217600 109 117 122
1.53463090 0.23139023 1.88828987 119 129 132
1.52702975 0.25079192 1.85318394 118 132 130
1.53128492 0.24762641 1.87082373 101 109 113
1.53026472 0.25253318 1.88673051 102 113 117
1.52668071 0.26350442 1.85470074 83 101 104
1.53371830 0.26389533 1.87458183 100 118 120
1.53204147 0.26490896 1.88666647 99 112 116
1.54199564 0.22515570 1.89620471 105 125 129
1.54533689 0.22912419 1.90740891 117 129 134
1.54083776 0.25704941 1.87781680 104 120 119
1.54186320 0.25776343 1.88303292 92 104 105
1.54083776 0.26840919 1.87781680 71 87 91
1.54681561 0.27121266 1.88828399 105 119 123
1.55918753 0.27547023 1.90419054 106 121 127
