ply
format ascii 1.0
element vertex 1075
property float x
property float y
property float z
property uchar red
property uchar green
property uchar blue
end_header
0.30079948 -0.33802794 1.16029766 102 109 116
0.30990919 -0.30976945 1.15474568 102 105 114
0.31059513 -0.29004968 1.15755364 101 104 113
0.30078422 -0.28988124 1.16023868 101 104 113
0.30963017 -0.26893570 1.15244579 99 103 112
0.31989874 -0.24041137 1.13729334 106 106 113
0.31105746 -0.25264881 1.15392467 101 103 112
0.30054028 -0.22124708 1.06847078 111 106 105
0.30517556 -0.22184556 1.08494997 116 107 108
0.31058985 -0.22846726 1.11107095 107 106 107
0.31428091 -0.23046093 1.12420142 106 106 112
0.30373334 -0.21597865 1.09327888 114 112 112
0.31202624 -0.20646009 1.11464025 102 102 110
0.31538415 -0.21618002 1.12160545 100 102 110
0.30993464 -0.18094563 1.09849267 100 101 109
0.31125239 -0.19046729 1.10520007 100 101 110
0.31042164 -0.16225090 1.07916196 62 61 64
0.30970853 -0.17132231 1.08731659 81 80 83
0.30961208 -0.14955871 1.07753341 65 62 64
0.30977266 -0.12968567 1.07486609 63 60 62
0.30989686 -0.10953466 1.06916489 61 59 60
0.31008360 -0.08963711 1.06348916 62 60 61
0.30914269 -0.06783213 1.05431197 72 69 72
0.31345784 -0.07716645 1.06062334 61 59 60
0.31017896 -0.04182211 0.99567003 127 124 126
0.30999150 -0.04675946 1.00910250 142 138 137
0.30920394 -0.05409672 1.03074008 118 117 117
0.31078873 -0.05811659 1.04093132 88 82 85
0.31313202 -0.02040992 0.95988158 132 131 132
0.30984831 -0.02740175 0.96912961 128 127 127
0.30955590 -0.03737996 0.98597694 120 120 121
0.31007200 -0.00947205 0.95024937 134 134 135
0.31000839 0.01339230 0.93692011 137 135 137
0.30999729 0.00364006 0.94149427 152 151 149
0.31006274 0.03013059 0.93111050 151 150 149
0.30990928 0.05010799 0.92624067 154 152 150
0.31008032 0.06987444 0.92284051 150 149 149
0.31003010 0.09563402 0.91955966 142 143 146
0.30979844 0.08552150 0.92071089 127 127 132
0.31004827 0.10995793 0.91816244 134 134 136
0.31009778 0.12942679 0.91658522 136 136 139
0.30974863 0.14969437 0.91521741 163 161 161
0.31003482 0.17014866 0.91406418 169 166 164
0.31020534 0.19067712 0.91309189 167 165 164
0.31022748 0.21003213 0.91230774 160 159 158
0.30999621 0.22957142 0.91162760 165 163 159
0.30978395 0.24988415 0.91100336 163 160 157
0.30959826 0.27019196 0.91045733 153 151 149
0.30984477 0.29029431 0.90998319 166 164 160
0.31008851 0.31002392 0.90958736 151 150 145
0.30996911 0.32954880 0.90923712 153 153 150
0.30986546 0.34986193 0.90893306 137 136 134
0.31028114 0.37037851 0.90869168 138 135 129
0.31052806 0.39055422 0.90857349 1 1 0
0.31050705 0.41015641 0.90851201 0 0 0
0.31048205 0.42975039 0.90843884 0 0 0
0.31045644 0.45012537 0.90836389 0 0 0
0.31042813 0.47049287 0.90828105 0 0 0
0.31039803 0.49006899 0.90819299 0 0 0
0.31036741 0.50807086 0.90810339 0 0 0
0.33004569 -0.62515081 0.93266568 0 0 0
0.33837686 -0.62057031 1.07721913 114 126 128
0.33172842 -0.62386106 1.09403547 116 125 124
0.32982878 -0.62291861 1.10775798 117 124 123
0.32996918 -0.61067512 0.93363196 0 0 0
0.32513536 -0.60447508 1.05243778 115 126 124
0.33317558 -0.61610841 1.06947392 115 126 126
0.32438176 -0.61856273 1.08021617 116 125 124
0.33044222 -0.61905279 1.11646260 117 124 124
0.33012296 -0.60961416 1.12676920 115 123 122
0.32987205 -0.58990545 0.93543107 0 0 0
0.33808508 -0.58838026 1.01223099 113 125 125
0.33299081 -0.59933364 1.03724337 117 124 127
0.33033278 -0.59091685 1.13442537 114 121 122
0.32783185 -0.58189710 1.14141467 113 120 121
0.33012244 -0.56988198 0.93779097 0 0 0
0.33253453 -0.56083156 0.95842576 91 104 103
0.33584853 -0.56180153 0.96079192 113 124 123
0.32846685 -0.57346699 0.98731399 112 126 123
0.32998055 -0.57015611 1.14529856 113 120 122
0.33102873 -0.55789561 0.93955571 0 0 0
0.32759228 -0.55423201 0.94173164 15 17 17
0.32991116 -0.54979224 1.14879604 111 119 119
0.33004276 -0.52999516 1.15184511 110 118 119
0.33028827 -0.51031362 1.15423911 110 117 119
0.33005765 -0.48998779 1.15567942 109 115 118
0.33034736 -0.46992137 1.15641719 107 112 117
0.33109081 -0.45088357 1.15774334 106 112 117
0.32221592 -0.44500732 1.16063556 106 111 116
0.33396054 -0.43006196 1.15820260 105 110 116
0.32378781 -0.42998091 1.16097520 106 110 117
0.33363702 -0.40948178 1.15799167 105 109 116
0.32373381 -0.41099835 1.16099237 105 110 114
0.33241354 -0.38969941 1.15770621 103 110 116
0.32256508 -0.39112267 1.16078550 104 110 116
0.32989584 -0.36993100 1.15654695 104 109 115
0.32083105 -0.37811009 1.16021374 103 110 116
0.33063177 -0.35000102 1.15387551 103 108 115
0.32987495 -0.33001354 1.15156356 102 106 114
0.32949683 -0.30976401 1.14993084 101 105 113
0.32976363 -0.29008567 1.15150079 99 104 113
0.32996371 -0.26983598 1.14907102 99 101 111
0.33804748 -0.24073762 1.13883670 99 101 110
0.33018403 -0.25051104 1.14509181 99 102 110
0.33108648 -0.22896150 1.13158890 98 101 108
0.32762920 -0.23906621 1.14025319 99 103 106
0.33045899 -0.20673929 1.11481408 97 100 109
0.32848168 -0.21631485 1.12223572 96 99 111
0.32840535 -0.18169203 1.09853709 96 101 108
0.33035780 -0.19146671 1.10493278 95 100 108
0.33012808 -0.16983094 1.08758919 75 73 77
0.32137855 -0.14307122 1.07953511 63 61 63
0.33051334 -0.15042855 1.08188347 62 61 62
0.32971547 -0.12906985 1.07730602 61 60 61
0.33486044 -0.13817608 1.08028967 62 59 60
0.33009429 -0.10965536 1.07063828 61 59 62
0.33019797 -0.08966710 1.06460718 61 59 61
0.32965845 -0.06430235 1.05427143 81 79 80
0.33036353 -0.07482745 1.06179351 57 56 57
0.32992150 -0.04181599 0.99552427 130 131 133
0.33008599 -0.04676510 1.00921784 130 130 130
0.32976894 -0.05398682 1.03164417 120 117 116
0.32950096 -0.05824408 1.04321480 82 80 81
0.33046224 -0.02040439 0.95962130 131 131 134
0.32983551 -0.02819327 0.97000568 132 131 132
0.32997141 -0.03800210 0.98700864 131 129 130
0.33004176 -0.00957667 0.95009246 132 132 134
0.33000561 0.01324435 0.93685211 143 142 143
0.33007663 0.00355799 0.94138650 140 138 139
0.33002303 0.03004787 0.93103131 153 151 151
0.32995655 0.04982531 0.92621955 151 149 148
0.32998869 0.06952060 0.92283307 151 150 148
0.33016166 0.09567262 0.91951781 131 133 136
0.33001768 0.08554043 0.92066315 132 132 136
0.32986126 0.10967215 0.91816151 126 127 130
0.33001998 0.12953269 0.91655437 138 138 141
0.33019042 0.14979442 0.91519236 170 168 167
0.32977615 0.17014491 0.91404410 156 155 155
0.32990187 0.19028791 0.91308867 165 163 160
0.32993152 0.21002793 0.91228948 166 165 161
0.33030017 0.22970763 0.91160304 164 163 162
0.33024913 0.24988073 0.91099078 146 144 143
0.33004924 0.27018660 0.91043939 167 166 161
0.32987831 0.29049335 0.90996787 158 154 151
0.32973619 0.31001998 0.90957582 148 145 142
0.32960863 0.32954402 0.90922394 165 164 157
0.32949787 0.34985629 0.90891843 160 158 153
0.32987914 0.36998653 0.90867860 154 153 149
0.33014975 0.39054446 0.90855078 8 8 8
0.33012819 0.41014712 0.90849143 0 0 0
0.33010285 0.42974228 0.90842168 0 0 0
0.33007669 0.45011832 0.90834966 0 0 0
0.33004718 0.47048636 0.90826847 0 0 0
0.33001573 0.49006300 0.90818189 0 0 0
0.32998341 0.50806501 0.90809295 0 0 0
0.35004339 -0.62487796 0.93225862 0 0 0
0.34765093 -0.62236889 1.07710958 116 125 122
0.34753213 -0.62817538 1.09496818 115 124 126
0.35117110 -0.62468686 1.10309624 116 124 123
0.34997014 -0.61001693 0.93326323 0 0 0
0.35378095 -0.61008813 1.05114639 113 125 123
0.35133928 -0.61727663 1.11374337 114 123 122
0.34929760 -0.60775596 1.12449188 115 121 122
0.34997471 -0.59055705 0.93501540 0 0 0
0.35250731 -0.58050283 0.99131233 112 121 121
0.34326333 -0.59127580 1.01721239 114 125 123
0.34954421 -0.59750509 1.02792907 115 126 123
0.35006958 -0.58974034 1.13232100 113 121 120
0.34048823 -0.58010350 1.14041591 113 121 125
0.35005926 -0.56994294 0.93757018 0 0 0
0.35353750 -0.56244704 0.95113867 76 84 85
0.35285714 -0.57209060 0.97124580 97 103 110
0.35039639 -0.57646803 0.98296893 109 120 121
0.35564892 -0.57269957 1.13887529 110 119 120
0.34703198 -0.56908917 1.14162293 111 119 121
0.34632765 -0.55818204 0.93954652 0 0 0
0.34856145 -0.55814617 0.94314309 28 31 31
0.35872559 -0.55658985 1.13949196 109 117 119
0.34896296 -0.54953529 1.14336634 110 117 118
0.35011706 -0.53011728 1.14604732 109 117 119
0.35023579 -0.51009755 1.14863642 110 116 118
0.34927740 -0.48987206 1.15009039 108 115 116
0.34966657 -0.47006639 1.15113821 107 113 117
0.34993935 -0.45008672 1.15209591 106 112 116
0.35037188 -0.43007737 1.15299215 105 111 115
0.35031983 -0.41007019 1.15304414 104 109 116
0.35004617 -0.39001982 1.15244341 103 110 114
0.34937639 -0.36988145 1.15097450 103 108 114
0.35035102 -0.34990500 1.14825870 102 108 115
0.35009052 -0.33009892 1.14553002 100 105 113
0.34944183 -0.31003277 1.14394824 99 105 113
0.34942034 -0.29017823 1.14439838 99 103 111
0.34980640 -0.27047709 1.14397587 98 101 111
0.35052350 -0.24579287 1.13798190 95 100 108
0.34897126 -0.25495231 1.14185700 97 101 110
0.35020994 -0.23048744 1.12963628 96 99 108
0.34939979 -0.20733068 1.11511698 96 99 107
0.35075629 -0.21777971 1.12156455 96 98 107
0.34997285 -0.18103119 1.09901208 96 96 104
0.34985070 -0.19066268 1.10570367 96 98 105
0.35041026 -0.16974776 1.08981914 72 71 74
0.34983616 -0.15030074 1.08356888 60 60 62
0.34963536 -0.12791579 1.07784056 60 59 61
0.35104110 -0.13729078 1.08066741 60 59 61
0.34998081 -0.11003421 1.07184618 61 59 61
0.35001581 -0.09013825 1.06594693 60 57 61
0.34952200 -0.06301996 1.05452790 82 81 82
0.35031176 -0.07347611 1.06331297 59 58 59
0.35129229 -0.04236169 0.99641558 141 137 136
0.34920108 -0.04704722 1.00995276 134 134 133
0.34944567 -0.05395564 1.03224755 113 114 117
0.35111870 -0.05801111 1.04399582 86 84 86
0.35022961 -0.02039645 0.95924786 138 137 137
0.34997222 -0.02808859 0.96934775 140 136 135
0.34995075 -0.03803207 0.98651907 132 128 127
0.35000101 -0.00948929 0.94978735 130 130 132
0.35027825 0.01266780 0.93701943 129 129 133
0.34946762 0.00296546 0.94155768 125 125 127
0.35003953 0.03011430 0.93092724 146 146 146
0.34994438 0.05004375 0.92610810 152 150 149
0.35003904 0.06989340 0.92272861 151 151 151
0.35001741 0.09566971 0.91948978 129 130 134
0.34987687 0.08535710 0.92064742 133 133 136
0.35010001 0.10994643 0.91811319 136 136 139
0.34980361 0.12931729 0.91654846 141 141 143
0.34995755 0.14979193 0.91517709 170 169 166
0.35030908 0.17014240 0.91403065 170 169 168
0.34993832 0.19047867 0.91306328 167 165 163
0.34963737 0.21002530 0.91227803 148 146 144
0.34997175 0.22941563 0.91159926 172 170 164
0.34992458 0.24987588 0.91097327 157 155 151
0.35032939 0.27032404 0.91042314 159 156 153
0.35032316 0.29049198 0.90996362 147 145 141
0.35016965 0.31001625 0.90956490 163 162 158
0.35003506 0.32954090 0.90921532 143 141 138
0.34991610 0.34985163 0.90890633 151 150 147
0.34982108 0.37017386 0.90865953 166 166 161
0.34976943 0.39053355 0.90852542 20 20 19
0.34974673 0.41013586 0.90846646 0 0 0
0.34972156 0.42973252 0.90840104 0 0 0
0.34969538 0.45011009 0.90833303 0 0 0
0.34966523 0.47047922 0.90825468 0 0 0
0.34963287 0.49005692 0.90817062 0 0 0
0.34959916 0.50805947 0.90808304 0 0 0
0.37000232 -0.62456988 0.93179901 0 0 0
0.37376506 -0.62661088 1.07571873 113 124 122
0.37222822 -0.62818047 1.09175429 112 123 123
0.36851126 -0.62484708 1.10403581 113 122 122
0.37003426 -0.61011414 0.93277650 0 0 0
0.37653704 -0.60803386 1.03374696 112 121 120
0.36899842 -0.61785967 1.05822444 113 124 121
0.37074629 -0.61394299 1.11524922 113 121 120
0.36897394 -0.60358063 1.12255514 112 120 120
0.37000081 -0.58992917 0.93465089 0 0 0
0.37313099 -0.58030864 0.97798836 110 117 114
0.36666752 -0.58277487 0.98789996 113 117 127
0.36383054 -0.59085710 1.00602037 110 120 120
0.36977533 -0.58966078 1.12836315 111 119 119
0.36968796 -0.57075871 0.93705271 0 0 0
0.37047618 -0.56493380 0.94738206 66 74 73
0.36753383 -0.57320575 0.96771427 110 119 120
0.37045047 -0.57051553 1.13560882 109 118 119
0.37056058 -0.55047728 1.13717242 109 117 119
0.36131256 -0.54355539 1.14047360 111 117 117
0.37479413 -0.53283507 1.13864952 108 115 116
0.36668158 -0.52799654 1.14167126 108 115 117
0.37974519 -0.51877299 1.13991952 109 112 118
0.37001818 -0.50989668 1.14331780 109 114 117
0.36935145 -0.48992977 1.14474857 107 114 115
0.36974368 -0.46999580 1.14568702 106 113 115
0.37021216 -0.44991790 1.14654357 104 111 115
0.37037790 -0.43001277 1.14754786 105 110 114
0.37049223 -0.41012592 1.14790085 103 109 115
0.37036233 -0.39015234 1.14721856 103 109 113
0.36962350 -0.36993189 1.14549138 103 109 114
0.37967655 -0.34237308 1.13971347 97 106 114
0.36977275 -0.35007546 1.14308409 101 107 114
0.37535452 -0.32825730 1.13895586 99 105 111
0.36640723 -0.33165729 1.14134057 102 105 113
0.37120579 -0.31000826 1.13805013 99 104 113
0.36140273 -0.31126670 1.14036324 99 104 112
0.37095145 -0.29022353 1.13726564 97 103 109
0.36103352 -0.28816431 1.14048771 97 102 110
0.37075723 -0.26996927 1.13639422 96 101 109
0.36039079 -0.27046899 1.14045476 97 102 110
0.37049685 -0.25064302 1.13564517 94 99 108
0.37021311 -0.23002432 1.12923611 96 98 108
0.37047838 -0.20556456 1.11634634 94 99 107
0.36970577 -0.21529482 1.12204043 96 98 107
0.37126210 -0.18133966 1.09910971 94 96 103
0.36991290 -0.19100835 1.10650260 96 97 104
0.37011599 -0.16934246 1.09067380 68 68 70
0.37015133 -0.14932016 1.08405996 61 60 61
0.37006754 -0.12716599 1.07843090 59 59 60
0.36972929 -0.13700987 1.08093670 60 57 59
0.36998637 -0.10986814 1.07336651 61 59 60
0.37002143 -0.08983871 1.06746350 59 58 60
0.36999819 -0.06246794 1.05554769 81 80 81
0.36988997 -0.07322201 1.06443801 60 57 59
0.36995988 -0.04273230 0.99678057 143 142 139
0.37003361 -0.04772237 1.01113216 138 137 136
0.37062130 -0.05332160 1.03022628 109 110 115
0.36934447 -0.05746287 1.04371587 81 79 82
0.37001955 -0.02039061 0.95897330 145 140 139
0.37021119 -0.02817228 0.96901468 150 147 144
0.37016683 -0.03800690 0.98586656 140 139 138
0.37004253 -0.00952091 0.94963458 138 137 138
0.37009153 0.01244499 0.93702257 126 127 132
0.36980615 0.00276236 0.94154899 125 124 128
0.37000596 0.03012212 0.93085351 145 145 146
0.36999887 0.04986728 0.92609247 158 156 154
0.36994983 0.06948250 0.92274536 148 147 146
0.36987330 0.09566715 0.91946518 130 129 135
0.37011332 0.08553107 0.92059544 132 132 136
0.36991504 0.10966142 0.91812012 125 125 128
0.37015838 0.12952185 0.91651898 144 143 144
0.36972587 0.14979019 0.91516644 155 154 154
0.37005267 0.17014046 0.91402014 147 146 147
0.37021690 0.19064683 0.91304398 170 168 165
0.37013034 0.21002221 0.91226469 167 167 164
0.36985495 0.22956095 0.91158592 144 142 141
0.36960295 0.24987356 0.91096482 158 158 156
0.36997848 0.27003449 0.91042687 158 154 151
0.36997742 0.29048747 0.90994954 162 161 156
0.37002555 0.31015728 0.90955510 138 137 135
0.37045996 0.32953673 0.90920385 150 146 141
0.37033323 0.34984643 0.90889283 163 162 159
0.37023176 0.37016744 0.90864381 150 148 144
0.37017237 0.39052178 0.90849808 28 27 26
0.37014737 0.41012246 0.90843676 0 0 0
0.37012321 0.42972137 0.90837745 0 0 0
0.37009763 0.45010097 0.90831462 0 0 0
0.37006719 0.47047157 0.90823990 0 0 0
0.37003451 0.49005102 0.90815968 0 0 0
0.36999982 0.50805471 0.90807453 0 0 0
0.38990987 -0.62421096 0.93126353 0 0 0
0.39199129 -0.62013616 1.05123353 113 117 128
0.39155521 -0.62878353 1.07368885 112 120 120
0.39060031 -0.62580282 1.08961918 113 121 120
0.38630463 -0.62153919 1.10266482 113 120 118
0.38994493 -0.60936919 0.93227443 0 0 0
0.39551442 -0.60736661 1.02508712 107 120 117
0.38386235 -0.61575528 1.04764694 113 120 121
0.39799147 -0.61917867 1.09786069 110 120 119
0.39044034 -0.61094184 1.11178379 113 119 118
0.38462504 -0.60142615 1.12096896 110 119 118
0.39005007 -0.58995105 0.93408827 0 0 0
0.39460999 -0.58339194 0.97466733 108 119 115
0.38400184 -0.59184957 0.99743817 108 120 117
0.38907529 -0.59433592 1.00162840 105 120 117
0.39829937 -0.59898473 1.11898189 114 117 118
0.38956627 -0.58972900 1.12459808 110 118 118
0.38943921 -0.57227783 0.93612812 2 2 2
0.39169701 -0.56899097 0.94485068 69 80 78
0.38423388 -0.57459618 0.96136141 92 102 101
0.39008755 -0.57061919 1.13136086 109 117 119
0.38955840 -0.54967523 1.13318248 108 116 118
0.39015714 -0.52998484 1.13573938 108 115 116
0.39189783 -0.51121324 1.13812771 107 112 117
0.38327075 -0.50561567 1.14085936 108 112 116
0.39636830 -0.49070026 1.13926689 106 112 116
0.38629795 -0.48973044 1.14135863 106 113 116
0.39817851 -0.47414129 1.13967064 106 111 116
0.38903632 -0.46938871 1.14181701 106 110 116
0.39056745 -0.44996561 1.14231601 105 111 114
0.39043182 -0.43003351 1.14284959 104 109 114
0.39066453 -0.41015560 1.14322183 104 109 115
0.39942328 -0.38181672 1.13984960 102 110 116
0.39034186 -0.39032478 1.14228353 102 109 115
0.39566262 -0.36796444 1.13898643 102 108 114
0.38642960 -0.37147034 1.14152869 102 107 116
0.39121184 -0.34887526 1.13781848 100 106 111
0.38238625 -0.35660019 1.14066285 101 107 112
0.38993787 -0.32981770 1.13567985 98 105 110
0.38963473 -0.30970060 1.13341180 99 103 111
0.39024546 -0.29017485 1.13210832 98 102 109
0.39035535 -0.26991801 1.13062701 95 100 107
0.39015322 -0.24981820 1.12939956 94 99 108
0.39899925 -0.22113415 1.11931688 94 97 109
0.39003998 -0.23055560 1.12535695 95 98 107
0.39082081 -0.20851930 1.11525000 94 98 107
0.38569530 -0.21755754 1.12134533 96 97 108
0.39087408 -0.18225203 1.09811969 94 97 103
0.38984071 -0.19210584 1.10507359 94 98 106
0.38982396 -0.16946013 1.09098596 66 66 68
0.39003624 -0.14984607 1.08476159 60 59 60
0.38880562 -0.12610285 1.07878331 59 59 59
0.39120108 -0.13524401 1.08104423 58 58 58
0.39007994 -0.11032006 1.07467410 60 59 60
0.39012788 -0.09018544 1.06878324 58 57 58
0.39059023 -0.06162887 1.05481802 79 78 78
0.39013527 -0.07242326 1.06519994 61 60 61
0.39022316 -0.04268731 0.99573214 137 136 135
0.39014754 -0.04765263 1.00966560 138 139 139
0.38990112 -0.05402489 1.03133452 109 110 111
0.39007709 -0.05840549 1.04610574 83 82 84
0.38980353 -0.02038507 0.95871268 144 144 141
0.39014453 -0.02808625 0.96849191 154 154 150
0.39030129 -0.03797629 0.98507534 151 148 144
0.38999732 -0.00957005 0.94947851 142 141 140
0.38992665 0.01244340 0.93689532 131 131 134
0.38981629 0.00280467 0.94136805 133 134 134
0.39002182 0.03002154 0.93081336 140 139 142
0.38998638 0.04999163 0.92601726 153 151 148
0.38999771 0.06987506 0.92264667 148 145 146
0.39000294 0.09574944 0.91943047 126 127 134
0.38997320 0.08534830 0.92058648 127 129 132
0.38994710 0.10980305 0.91808532 131 132 136
0.38994430 0.12930742 0.91652095 138 138 139
0.39022705 0.14984458 0.91515338 160 158 155
0.38979680 0.17013891 0.91401192 169 168 165
0.38992077 0.19029915 0.91305391 163 162 160
0.39004334 0.21016387 0.91225109 162 160 157
0.39033263 0.22955791 0.91157390 172 171 168
0.39006800 0.24987113 0.91095588 153 152 149
0.38983823 0.27018069 0.91041927 154 152 148
0.38963569 0.29048640 0.90994623 163 162 158
0.38965120 0.30987268 0.90955061 149 148 146
0.39009881 0.32953274 0.90919285 153 152 147
0.38996495 0.34984183 0.90888087 163 160 153
0.38985743 0.37016193 0.90863028 149 146 138
0.39040389 0.39065198 0.90847098 36 35 32
0.39054597 0.41010832 0.90840543 0 0 0
0.39052311 0.42970945 0.90835223 0 0 0
0.39049876 0.45009154 0.90829557 0 0 0
0.39046850 0.47046394 0.90822516 0 0 0
0.39043612 0.49004572 0.90814984 0 0 0
0.39040067 0.50805070 0.90806735 0 0 0
0.40931672 -0.62428482 0.93068805 0 0 0
0.41047759 -0.62703763 1.05674422 105 120 117
0.41114481 -0.62950253 1.07293415 110 119 118
0.40940060 -0.62435186 1.08887885 110 119 119
0.40465464 -0.62066551 1.10049701 111 122 121
0.41016378 -0.61005879 0.93158991 0 0 0
0.41005412 -0.60493532 1.01065803 104 121 117
0.40693440 -0.61792840 1.03836393 104 120 117
0.41478536 -0.61796453 1.09887847 110 119 119
0.40956619 -0.60880824 1.10754863 111 118 117
0.41000859 -0.58960083 0.93334824 0 0 0
0.41524711 -0.58513993 0.96780872 108 118 116
0.41043101 -0.59339377 0.98854443 107 119 116
0.41099342 -0.59656761 1.11842667 109 118 118
0.40937485 -0.58662820 1.12298060 108 117 119
0.40923904 -0.57463824 0.93517068 2 2 2
0.40995324 -0.57595004 0.95018103 83 95 93
0.40985686 -0.57021444 1.12865708 108 116 117
0.40946722 -0.54994171 1.13022304 108 115 116
0.41036150 -0.53008815 1.13217915 107 114 116
0.40974787 -0.50989550 1.13477421 106 112 117
0.40982784 -0.49001944 1.13641668 106 113 115
0.41062359 -0.46994492 1.13743700 104 110 115
0.41108813 -0.45032795 1.13813565 104 110 114
0.40150485 -0.44498439 1.14016602 105 110 114
0.41179794 -0.43049399 1.13806167 105 110 115
0.40233911 -0.42709937 1.14029659 104 110 116
0.41256002 -0.41021371 1.13817763 104 109 114
0.40261049 -0.40963499 1.14050733 104 109 114
0.41083459 -0.38970493 1.13748925 101 108 113
0.40191906 -0.39632862 1.14022315 103 109 114
0.40993537 -0.37007620 1.13593774 102 107 114
0.41027402 -0.35021271 1.13369350 101 106 111
0.41009411 -0.33006107 1.13126202 100 104 111
0.40991432 -0.30978577 1.12834410 98 103 110
0.41004275 -0.28984829 1.12595688 97 101 108
0.41947160 -0.26282836 1.11973935 95 97 108
0.40995308 -0.26994280 1.12369732 95 98 107
0.41728999 -0.24886904 1.11924256 93 98 107
0.40723700 -0.25048677 1.12277390 93 98 108
0.41188413 -0.22793252 1.11717208 94 99 107
0.40415791 -0.23422442 1.12146638 95 98 107
0.40993901 -0.21019156 1.11204437 94 99 107
0.41047620 -0.18296472 1.09790254 93 97 103
0.40981436 -0.19349060 1.10416152 94 97 106
0.40995142 -0.16936357 1.09130166 65 65 65
0.41006329 -0.14952593 1.08555199 60 59 59
0.40933374 -0.12386731 1.07902230 60 59 60
0.41043212 -0.13327610 1.08141405 59 57 59
0.41002081 -0.11009346 1.07509632 60 59 59
0.41017579 -0.09022442 1.06904497 58 57 57
0.41063543 -0.06235982 1.05479772 81 77 80
0.41003110 -0.07294690 1.06521349 60 59 60
0.41043206 -0.04264113 0.99465674 143 141 141
0.41037401 -0.04774292 1.00849342 131 131 130
0.40962124 -0.05394192 1.02879449 114 115 115
0.40981439 -0.05825589 1.04342637 91 91 93
0.41081424 -0.02061916 0.95857428 151 149 147
0.40972492 -0.02826485 0.96824563 158 156 153
0.41039394 -0.03794486 0.98426245 151 148 145
0.40992242 -0.00956076 0.94921041 143 143 142
0.40993018 0.01251317 0.93673325 143 143 144
0.41006884 0.00271747 0.94123716 141 141 140
0.40998353 0.03009843 0.93072529 136 136 138
0.40997149 0.04986192 0.92599248 153 151 149
0.40996887 0.06954288 0.92265002 152 151 151
0.41017132 0.09500471 0.91947974 131 133 136
0.40976132 0.08491858 0.92060227 129 131 134
0.41011059 0.10998461 0.91804523 136 136 138
0.40986487 0.12941413 0.91649521 128 129 132
0.40998617 0.14972615 0.91514450 162 161 160
0.41027087 0.17019255 0.91399677 157 157 154
0.40989627 0.19047311 0.91303659 172 172 169
0.40973015 0.20988052 0.91225348 160 158 157
0.41002381 0.22955589 0.91156591 173 172 167
0.41024240 0.25005937 0.91094211 160 160 157
0.41029080 0.27017804 0.91041031 156 156 153
0.41008018 0.29048535 0.90994294 139 137 135
0.40989761 0.31000703 0.90953785 151 151 146
0.40973723 0.32952880 0.90918196 158 158 151
0.40959637 0.34983741 0.90886940 142 140 137
0.40948209 0.37015604 0.90861585 144 143 138
0.40999919 0.39035228 0.90844852 45 46 44
0.41015906 0.41009508 0.90837611 0 0 0
0.41013666 0.42969729 0.90832650 0 0 0
0.41011364 0.45008160 0.90827550 0 0 0
0.41008420 0.47045624 0.90821027 0 0 0
0.41005230 0.49004020 0.90813960 0 0 0
0.41001618 0.50804637 0.90805961 0 0 0
0.43037495 -0.62417497 0.93001061 0 0 0
0.43452286 -0.62169985 1.03567731 111 119 118
0.42902607 -0.63067294 1.05518347 107 120 116
0.43035246 -0.63336455 1.07488168 108 119 117
0.43012464 -0.62408777 1.08774124 109 118 118
0.43000867 -0.61032614 0.93095713 0 0 0
0.43308512 -0.60265084 0.99534613 108 116 117
0.43705074 -0.61061532 1.00851941 107 116 118
0.42545714 -0.61505727 1.02461156 107 120 118
0.43083034 -0.61497361 1.09718817 109 118 117
0.42952417 -0.60558377 1.10664121 109 117 117
0.42987969 -0.59047173 0.93254749 0 0 0
0.43347594 -0.58145186 0.94862461 87 97 95
0.43162758 -0.58978940 0.96749625 97 113 112
0.43285584 -0.59812064 0.98505592 103 118 116
0.43072628 -0.59481448 1.11716527 108 115 116
0.42910750 -0.58485685 1.12171083 109 116 118
0.42865347 -0.57742397 0.93465598 7 7 7
0.42829533 -0.57869526 0.94500300 72 82 80
0.42978881 -0.57051076 1.12599625 107 114 116
0.43017120 -0.54998079 1.12733005 107 114 115
0.42995281 -0.53003670 1.12903353 106 113 114
0.42960769 -0.50999340 1.13075300 106 112 115
0.42990396 -0.49000371 1.13224342 105 112 114
0.43061210 -0.46999137 1.13348442 105 111 115
0.43047075 -0.45021399 1.13431135 104 109 114
0.43025895 -0.42990179 1.13431519 104 110 113
0.43069793 -0.40972626 1.13426115 104 109 113
0.43016602 -0.38979512 1.13286554 104 108 113
0.42958003 -0.37000971 1.13113297 102 107 114
0.43026861 -0.35026974 1.12884648 102 105 112
0.42998928 -0.33002635 1.12652136 100 103 110
0.43836481 -0.30203581 1.11979899 97 100 110
0.42988463 -0.31055577 1.12318157 98 103 110
0.43435066 -0.28795530 1.11851231 96 101 109
0.42489730 -0.29188626 1.12152772 95 102 108
0.43094583 -0.26955504 1.11731386 94 99 106
0.42187468 -0.27612793 1.12051532 95 101 108
0.42999914 -0.24995872 1.11580222 93 98 106
0.43013543 -0.23056125 1.11314340 94 97 108
0.43010486 -0.21037079 1.10803794 94 99 106
0.43127710 -0.18520624 1.09715393 93 97 103
0.42875583 -0.19523681 1.10244614 93 98 107
0.43006537 -0.16926867 1.09042427 63 63 64
0.43000878 -0.14976073 1.08552439 58 58 60
0.43083257 -0.12437044 1.07891891 59 59 60
0.42947023 -0.13403825 1.08148946 59 57 59
0.42986071 -0.11013073 1.07467202 59 58 60
0.43009363 -0.09005658 1.06845505 58 56 58
0.43041262 -0.06281611 1.05323785 78 76 80
0.42987890 -0.07345949 1.06412075 59 57 60
0.43059710 -0.04259508 0.99358334 157 153 148
0.42988446 -0.04850621 1.00953788 126 126 127
0.43105696 -0.05544383 1.03125294 111 113 115
0.42507528 -0.05812265 1.04103978 109 108 112
0.43007059 -0.02118455 0.95886281 157 156 150
0.43018237 -0.02961084 0.96973336 151 150 147
0.42957679 -0.03852652 0.98467539 153 151 146
0.42998312 -0.00943004 0.94888891 148 146 144
0.43001475 0.01241104 0.93663974 147 146 145
0.43005992 0.00280475 0.94101245 150 149 146
0.42992519 0.03008519 0.93063911 133 133 135
0.42994702 0.04998552 0.92590319 153 151 149
0.42994660 0.06979160 0.92256996 150 149 148
0.43015431 0.09492448 0.91945795 133 134 137
0.42999899 0.08464681 0.92059967 131 132 134
0.43009388 0.11007478 0.91800855 134 134 137
0.42997980 0.13002969 0.91642283 116 119 121
0.42981040 0.14978201 0.91511643 167 167 164
0.43000371 0.17007365 0.91398555 158 157 157
0.43023196 0.19061196 0.91301844 161 158 156
0.43003486 0.21001587 0.91223720 166 166 163
0.42971503 0.22955409 0.91155872 165 165 162
0.42989625 0.24967322 0.91094750 167 166 163
0.42995454 0.27017436 0.91039781 156 154 151
0.43029026 0.29065218 0.90992810 151 151 149
0.43032876 0.31000294 0.90952587 156 155 151
0.43016160 0.32952539 0.90917255 152 151 146
0.43001297 0.34983318 0.90885843 149 148 142
0.42989198 0.37015068 0.90860272 171 170 164
0.42980837 0.39049072 0.90842602 71 71 68
0.42977232 0.41008323 0.90834985 0 0 0
0.42974981 0.42968584 0.90830228 0 0 0
0.42972742 0.45007142 0.90825494 0 0 0
0.42969900 0.47044827 0.90819485 0 0 0
0.42966770 0.49003431 0.90812867 0 0 0
0.42963068 0.50804124 0.90805044 0 0 0
0.45708846 -0.64109596 1.06928405 108 117 117
0.45021534 -0.62382417 0.92948791 0 0 0
0.45458384 -0.62937252 1.03652108 106 117 119
0.44807226 -0.63172479 1.04816327 109 117 116
0.44891216 -0.63557911 1.07401999 108 118 118
0.45036967 -0.62604606 1.08759993 107 117 117
0.44988120 -0.60999915 0.93045841 0 0 0
0.45434505 -0.60805358 0.99293137 111 115 111
0.44987695 -0.61427353 1.09580184 109 116 116
0.44997283 -0.60492948 1.10638897 107 116 116
0.44997278 -0.59022188 0.93226275 1 1 1
0.45039779 -0.58639040 0.94953373 97 105 105
0.44809154 -0.59479034 0.96922971 111 117 116
0.45032656 -0.59069813 1.11663777 108 113 116
0.44371130 -0.58168360 1.12067567 107 115 117
0.44419102 -0.57926686 0.93436211 22 23 24
0.45825335 -0.57935648 1.11992061 108 114 116
0.44993770 -0.57028006 1.12333414 107 114 116
0.45062750 -0.54995934 1.12454207 106 113 116
0.44983836 -0.52999130 1.12619102 106 112 115
0.44953868 -0.51001216 1.12772187 105 112 113
0.45037147 -0.49004699 1.12879430 104 112 113
0.45031679 -0.47008293 1.13020431 104 110 114
0.45007847 -0.44966193 1.13096079 103 110 113
0.44953265 -0.42974176 1.13116578 103 110 114
0.45053536 -0.40999613 1.13045708 104 108 113
0.45016029 -0.38981302 1.12876660 104 108 114
0.44949738 -0.36960984 1.12684032 102 108 111
0.45018391 -0.34973675 1.12426712 102 106 111
0.45781328 -0.32413245 1.11924029 101 104 109
0.44885890 -0.33047851 1.12219295 100 104 111
0.45099898 -0.30895799 1.11797881 98 103 109
0.44378344 -0.31572152 1.12085766 98 104 108
0.45022001 -0.29035260 1.11506870 94 101 108
0.44982334 -0.26997223 1.11219847 94 99 106
0.45013591 -0.25013984 1.11030151 94 98 106
0.45002937 -0.22939264 1.10786844 94 97 108
0.45630150 -0.20177424 1.09947695 91 96 109
0.44949094 -0.21004425 1.10345395 92 98 107
0.45047690 -0.18927677 1.09611058 93 97 104
0.44391436 -0.19769473 1.10056941 93 98 106
0.45032479 -0.16962262 1.08886036 63 63 64
0.44993742 -0.14959077 1.08448740 59 58 59
0.45090762 -0.12616890 1.07838832 58 58 60
0.44870670 -0.13553055 1.08108398 57 57 60
0.44986347 -0.11008879 1.07366376 59 58 60
0.45008070 -0.09004306 1.06728350 58 56 59
0.45042592 -0.06403516 1.05256890 78 77 78
0.44936393 -0.07453666 1.06255050 55 54 56
0.45081545 -0.04333083 0.99438562 156 156 151
0.44945038 -0.04915409 1.01013971 117 117 119
0.44994142 -0.05570927 1.03051213 111 110 110
0.45017882 -0.02120936 0.95848624 151 151 148
0.45011169 -0.02987261 0.96955547 156 156 153
0.45043280 -0.03879770 0.98438855 151 149 145
0.45006876 -0.00957169 0.94869204 146 144 143
0.45026189 0.01203198 0.93664871 142 141 142
0.44897606 0.00238159 0.94103078 150 147 146
0.44998655 0.03004302 0.93055486 133 134 136
0.44998822 0.04989223 0.92585756 155 154 152
0.44997864 0.06964352 0.92254626 147 146 144
0.44999140 0.09481277 0.91943259 137 137 139
0.44986832 0.08464297 0.92055790 133 133 138
0.45005207 0.11068076 0.91792083 143 143 144
0.44993232 0.13002135 0.91639673 135 135 136
0.45018176 0.14991858 0.91507739 168 164 160
0.44980147 0.17012855 0.91395601 165 164 162
0.44993333 0.19031953 0.91301403 160 160 157
0.45021056 0.21019469 0.91222010 165 164 160
0.45019290 0.22955188 0.91154994 170 169 165
0.44988990 0.24986579 0.91093640 158 157 153
0.44962527 0.27017515 0.91040058 133 132 130
0.44991813 0.29030070 0.90991893 169 168 162
0.44997306 0.30999867 0.90951329 149 148 146
0.45017658 0.32972459 0.90916009 140 140 137
0.45043007 0.34982972 0.90884943 162 163 157
0.45030347 0.37014713 0.90859399 160 159 153
0.45021222 0.39048376 0.90840989 94 92 87
0.45017132 0.41007308 0.90832739 0 0 0
0.45014796 0.42967543 0.90828026 0 0 0
0.45012587 0.45006189 0.90823568 0 0 0
0.45009793 0.47044021 0.90817929 0 0 0
0.45006665 0.49002757 0.90811617 0 0 0
0.45002856 0.50803502 0.90803931 0 0 0
0.47137156 -0.64145842 1.05676403 107 118 117
0.47061266 -0.64205879 1.07043201 107 117 115
0.47013027 -0.62360235 0.92915739 0 0 0
0.47181092 -0.62435317 1.01954806 111 117 115
0.46503747 -0.63320093 1.03986609 99 120 118
0.46753935 -0.63802094 1.04958134 106 118 117
0.46998209 -0.63759306 1.07794072 109 117 117
0.47042864 -0.62820516 1.08794787 105 117 116
0.46998708 -0.60989869 0.93007384 0 0 0
0.47030736 -0.60173468 0.97167493 103 114 113
0.47399602 -0.60759298 0.98384863 100 116 115
0.46353891 -0.61821903 1.01048434 110 116 114
0.47010840 -0.61438000 1.09594241 107 117 116
0.46996823 -0.60521317 1.10542481 107 115 117
0.46930461 -0.59176422 0.93190932 3 4 3
0.46959749 -0.59287814 0.95279625 97 112 111
0.47007133 -0.59039331 1.11509408 108 113 115
0.47241827 -0.57652018 1.11923048 106 115 114
0.46914732 -0.56808737 1.12153953 105 114 115
0.46960235 -0.55003089 1.12213979 105 113 116
0.46990445 -0.53009270 1.12341614 105 112 114
0.46977594 -0.51006204 1.12469393 104 112 114
0.47040506 -0.49001222 1.12568476 104 111 114
0.47001641 -0.47004636 1.12706450 103 110 114
0.46934422 -0.44997462 1.12797697 104 108 114
0.46924841 -0.43034483 1.12812374 104 108 114
0.47029218 -0.41015148 1.12687604 104 108 112
0.47013668 -0.39023328 1.12482285 102 108 114
0.46977586 -0.37019121 1.12292426 102 107 110
0.47529337 -0.34730410 1.11902555 100 105 112
0.46685054 -0.35188993 1.12129492 99 105 112
0.47082096 -0.32931143 1.11742617 99 105 110
0.46232952 -0.33754495 1.12041771 99 103 111
0.46994765 -0.30952329 1.11412897 98 103 109
0.46995323 -0.28958004 1.11098238 95 101 108
0.47011511 -0.26977280 1.10821436 94 98 105
0.46983003 -0.25008698 1.10617461 93 97 105
0.47007993 -0.23066336 1.10388741 94 98 106
0.47220229 -0.20722990 1.09827612 93 98 108
0.46680387 -0.21535441 1.10133040 92 97 109
0.46996812 -0.19055046 1.09338889 91 97 104
0.46981990 -0.17017708 1.08713910 62 62 64
0.47022188 -0.14994942 1.08322419 58 58 58
0.47048034 -0.12859022 1.07765869 58 57 58
0.46713107 -0.13772708 1.08050976 56 56 59
0.46991518 -0.10988204 1.07224104 59 58 60
0.47006327 -0.08992177 1.06594133 57 57 57
0.47006781 -0.06601300 1.05388433 74 72 73
0.46928577 -0.07617574 1.06151568 53 52 53
0.46982812 -0.04345929 0.99363618 148 147 146
0.47020343 -0.04937410 1.00919224 121 120 123
0.46992226 -0.05567781 1.02895887 109 111 112
0.47598929 -0.05998889 1.04220182 78 78 81
0.46981253 -0.02119824 0.95798439 135 133 134
0.47017648 -0.02985836 0.96882528 157 155 152
0.47037108 -0.03875823 0.98338775 141 139 138
0.47004108 -0.00945006 0.94823714 142 140 139
0.47001854 0.01161736 0.93662970 144 144 142
0.47000517 0.00191563 0.94099714 146 144 142
0.47003249 0.03007862 0.93042919 135 137 140
0.47002069 0.04991488 0.92577900 146 145 143
0.47000702 0.06963055 0.92249618 150 149 145
0.46995140 0.09486360 0.91938145 136 137 137
0.47000826 0.08472386 0.92050235 137 137 139
0.47004495 0.11061154 0.91788775 143 143 142
0.46998524 0.13018584 0.91634910 132 133 134
0.46992408 0.14962458 0.91506635 167 166 162
0.47020729 0.17022660 0.91392353 163 161 159
0.46983761 0.19046228 0.91298449 173 173 167
0.46989153 0.20982805 0.91222574 152 151 151
0.47000853 0.22965754 0.91153399 174 174 167
0.47035032 0.24986163 0.91092130 155 155 151
0.47007041 0.27016881 0.91037924 151 151 150
0.46982260 0.29047141 0.90989926 175 173 164
0.46961874 0.30999562 0.90950439 160 159 153
0.46978353 0.32931534 0.90915151 161 161 156
0.47006297 0.34982749 0.90884362 165 164 157
0.46993054 0.37014451 0.90858758 162 159 150
0.46983202 0.39047824 0.90839710 82 81 79
0.47051020 0.41012010 0.90830815 0 0 0
0.47054631 0.42966612 0.90826057 0 0 0
0.47052470 0.45005355 0.90821884 0 0 0
0.47049640 0.47043240 0.90816421 0 0 0
0.47046423 0.49001998 0.90810211 0 0 0
0.47042509 0.50802789 0.90802657 0 0 0
0.49280615 -0.64650372 1.05461229 110 116 115
0.49122451 -0.64577700 1.07080277 107 116 114
0.49012539 -0.62350093 0.92900625 0 0 0
0.49256912 -0.62179265 1.00263804 102 116 115
0.48332227 -0.63354128 1.03165579 110 116 115
0.48758445 -0.63840310 1.07751920 106 115 115
0.49031025 -0.62890004 1.08774919 106 115 116
0.48993285 -0.60944538 0.92983470 0 0 0
0.49379093 -0.60234367 0.95792490 86 100 97
0.49291904 -0.60719460 0.96876204 98 114 113
0.49783439 -0.61866037 0.99067891 99 115 111
0.49029447 -0.61424050 1.09645596 107 115 116
0.48962248 -0.60463546 1.10472541 106 113 116
0.48935898 -0.59451978 0.93157742 6 7 7
0.48396680 -0.59453104 0.94679886 94 99 98
0.49004510 -0.59047428 1.11354403 106 114 115
0.49141148 -0.57273079 1.11841350 106 113 113
0.48531591 -0.56405893 1.12053524 105 113 115
0.49571600 -0.55026021 1.11962166 105 112 114
0.48561421 -0.54964359 1.12065561 104 113 115
0.49822759 -0.53802919 1.11985306 105 112 113
0.48956930 -0.52975087 1.12159649 104 113 114
0.49056093 -0.51012494 1.12263221 105 111 113
0.49035409 -0.49026693 1.12367473 104 110 113
0.48951735 -0.46987114 1.12484714 104 110 112
0.48958485 -0.45011538 1.12547585 104 109 112
0.48960179 -0.42983991 1.12512813 102 109 113
0.49011796 -0.40998774 1.12363794 103 109 112
0.49609537 -0.38602901 1.11934430 102 108 112
0.48813651 -0.39089828 1.12162156 102 108 112
0.49225594 -0.36920807 1.11847027 101 107 111
0.48304153 -0.37341735 1.12077778 101 107 111
0.48994676 -0.34986921 1.11642201 100 105 112
0.49017944 -0.33038073 1.11366574 99 105 109
0.49010852 -0.31035754 1.11054190 98 103 109
0.48957574 -0.29032138 1.10785999 96 101 108
0.49021628 -0.27013550 1.10526349 92 99 104
0.48983325 -0.24950078 1.10295729 93 98 106
0.49404886 -0.22441578 1.09920499 95 98 107
0.48866836 -0.23210919 1.10116753 94 98 105
0.48998972 -0.21010959 1.09654260 92 98 106
0.49016316 -0.19012755 1.09101634 90 96 103
0.49019753 -0.17039077 1.08564539 61 60 63
0.49354463 -0.14108016 1.07954148 56 56 56
0.48963240 -0.15122315 1.08220464 58 57 57
0.48990522 -0.12989933 1.07655142 58 57 57
0.48995109 -0.10983966 1.07095118 59 58 58
0.48991049 -0.08981962 1.06482959 57 57 57
0.49045687 -0.06746870 1.05473636 73 71 71
0.48953400 -0.07693897 1.06084495 53 53 53
0.49002950 -0.04339754 0.99223066 145 145 139
0.49093657 -0.04995042 1.00927139 124 124 123
0.48945685 -0.05611827 1.02919550 114 114 115
0.48996994 -0.05993651 1.04129181 85 84 86
0.49072980 -0.02156576 0.95779637 128 128 129
0.48984439 -0.03002363 0.96835986 147 145 143
0.49021924 -0.03871487 0.98228877 149 149 144
0.49005367 -0.00958000 0.94795019 137 137 137
0.48998635 0.01164083 0.93641612 148 146 146
0.48979873 0.00194758 0.94071516 153 151 148
0.49001009 0.03005528 0.93031458 136 137 139
0.49005317 0.04993720 0.92570725 145 144 142
0.49003452 0.06975214 0.92242925 146 145 142
0.49013050 0.09487750 0.91933971 132 133 136
0.48973582 0.08449864 0.92048740 135 137 138
0.48997436 0.11042670 0.91786926 137 138 138
0.49010359 0.13036521 0.91630250 145 145 145
0.48986779 0.14976754 0.91502790 169 168 165
0.48992955 0.17001014 0.91391082 168 167 163
0.49028563 0.19051485 0.91296614 157 155 152
0.48993055 0.21000732 0.91220005 161 161 159
0.48968240 0.22944243 0.91152726 152 150 147
0.49002115 0.24985658 0.91090299 161 162 159
0.49028419 0.27033330 0.91035500 170 170 163
0.49026520 0.29047004 0.90989492 141 139 137
0.49005398 0.30999509 0.90950291 155 154 150
0.48985911 0.32951404 0.90914122 172 169 162
0.48969517 0.34982493 0.90883696 156 152 145
0.48955713 0.37014173 0.90858078 130 128 123
0.48945117 0.39047267 0.90838416 108 108 105
0.49011528 0.40999687 0.90829050 0 0 0
0.49015985 0.42965766 0.90824268 0 0 0
0.49013900 0.45004621 0.90820403 0 0 0
0.49010955 0.47042476 0.90814946 0 0 0
0.49007594 0.49001193 0.90808720 0 0 0
0.49003540 0.50801978 0.90801207 0 0 0
0.51130415 -0.64293900 1.03528786 107 118 118
0.51173405 -0.64867940 1.05225919 103 116 116
0.50944968 -0.64818400 1.07244257 105 115 114
0.51333074 -0.64234998 1.08179212 105 115 114
0.51016478 -0.62346178 0.92894792 0 0 0
0.50296848 -0.62182979 0.99575418 101 115 113
0.51676977 -0.63204087 1.00933367 99 112 110
0.50601738 -0.63779543 1.02701171 102 117 115
0.51005164 -0.62989311 1.08840546 107 114 115
0.51005724 -0.60965241 0.92962476 0 0 0
0.51280962 -0.60517945 0.95326108 98 108 111
0.50819667 -0.61093883 0.96866623 95 114 112
0.50988202 -0.61430762 1.09677638 106 113 114
0.50981325 -0.60443609 1.10403353 105 114 114
0.50825643 -0.59684197 0.93140332 17 19 19
0.50260702 -0.59809932 0.94339672 78 94 91
0.51014587 -0.58990849 1.11203393 106 113 113
0.50989411 -0.57008580 1.11703224 106 112 113
0.50947053 -0.54997235 1.11818592 106 112 112
0.51262776 -0.53148218 1.11888256 105 111 113
0.50425650 -0.52664808 1.12034758 105 112 114
0.51597307 -0.51080333 1.11949003 104 111 112
0.50606416 -0.50956243 1.12064862 106 111 113
0.51747405 -0.49776110 1.11961738 103 112 113
0.50915360 -0.48922296 1.12123017 103 111 112
0.50936543 -0.47017563 1.12208908 104 110 111
0.50989180 -0.44995807 1.12236153 103 109 113
0.51813289 -0.42190939 1.11964699 103 108 115
0.50902251 -0.43041820 1.12183713 102 109 113
0.51432802 -0.40757089 1.11906639 103 109 112
0.50593364 -0.41296871 1.12099847 102 109 112
0.50997306 -0.38942499 1.11745341 102 108 112
0.50094381 -0.39845308 1.12015593 104 109 113
0.51018201 -0.36978512 1.11519899 101 106 112
0.50997069 -0.34959550 1.11261347 99 106 111
0.50990563 -0.32966364 1.11017126 100 105 110
0.51017606 -0.30981780 1.10744891 99 102 109
0.50981654 -0.28971463 1.10494450 95 100 107
0.51022556 -0.27023623 1.10256935 92 99 106
0.51416280 -0.24803556 1.09917137 94 98 106
0.50532219 -0.25223864 1.10100038 93 98 106
0.51031255 -0.22960369 1.09759603 92 98 105
0.50151927 -0.23732051 1.10018224 92 98 105
0.50995473 -0.20938614 1.09359870 93 97 104
0.50993835 -0.18955585 1.08812444 90 96 102
0.51014040 -0.17010139 1.08338082 59 59 61
0.51210915 -0.14426977 1.07896543 57 57 57
0.50856700 -0.15405690 1.08112086 58 58 58
0.50985967 -0.12973830 1.07507892 58 57 57
0.51003063 -0.10967748 1.06981934 60 59 59
0.50996882 -0.08967916 1.06383887 58 58 58
0.51049292 -0.06959253 1.05445653 69 66 67
0.50604526 -0.07858124 1.06042748 54 54 54
0.51095516 -0.04380846 0.99200358 141 141 138
0.50943152 -0.05056873 1.00973358 125 124 123
0.51061537 -0.05757002 1.03200050 105 105 106
0.50204983 -0.05987440 1.04021275 86 87 88
0.50998930 -0.02197650 0.95771514 126 127 128
0.51009521 -0.03153271 0.96986028 149 147 145
0.51010462 -0.03959010 0.98298057 143 139 138
0.51005386 -0.00953124 0.94752789 134 134 133
0.51016979 0.01138630 0.93632672 147 146 145
0.50870385 0.00179948 0.94054937 147 148 145
0.50997836 0.03010028 0.93017410 135 136 137
0.51000902 0.04988036 0.92563496 144 144 142
0.50999264 0.06952536 0.92240164 150 149 147
0.50987345 0.09397678 0.91939639 126 127 130
0.51015368 0.08389291 0.92050814 129 131 132
0.51010168 0.11075603 0.91780734 126 128 130
0.50986701 0.12999500 0.91629762 130 132 131
0.51017621 0.14993377 0.91498915 170 169 163
0.50978798 0.17011454 0.91388060 164 163 159
0.50999153 0.19039440 0.91294829 175 174 169
0.51028902 0.21010347 0.91217273 167 164 158
0.51003874 0.22954077 0.91150583 172 171 165
0.50969485 0.24985338 0.91089121 164 163 158
0.50992866 0.26998611 0.91036009 146 144 139
0.50991307 0.29046395 0.90987595 159 159 155
0.51042208 0.31004663 0.90949031 146 146 142
0.51028828 0.32951486 0.90914344 146 144 140
0.51011425 0.34982357 0.90883344 144 142 136
0.50996802 0.37013852 0.90857291 156 157 152
0.50985463 0.39046696 0.90837091 133 133 130
0.50979979 0.41004862 0.90827322 0 0 0
0.50977347 0.42964993 0.90822632 0 0 0
0.50975244 0.45003869 0.90818887 0 0 0
0.50972135 0.47041648 0.90813347 0 0 0
0.50968574 0.49000267 0.90807003 0 0 0
0.50964341 0.50801001 0.90799461 0 0 0
0.53546147 -0.64187809 1.01660323 90 118 111
0.53153812 -0.64775235 1.03345225 101 114 112
0.53039039 -0.65218457 1.05179394 105 115 113
0.53012145 -0.65036849 1.07095964 106 115 112
0.53053510 -0.64373072 1.08271879 105 114 112
0.53015715 -0.62337036 0.92881157 0 0 0
0.53686578 -0.62525037 0.98220211 104 113 114
0.53016826 -0.63587982 1.00986767 98 114 113
0.52974437 -0.62954760 1.08869771 106 113 113
0.52978089 -0.60978714 0.92977780 2 2 2
0.52506214 -0.60622024 0.94718145 91 102 98
0.53396756 -0.61510530 0.96169667 101 109 112
0.53001430 -0.61391979 1.09693189 104 114 113
0.52988793 -0.60406938 1.10314410 104 114 113
0.52155551 -0.59886776 0.93065035 19 21 22
0.52990915 -0.59045186 1.10986796 104 112 113
0.52968455 -0.57036512 1.11422404 106 111 114
0.52962823 -0.54999592 1.11533689 105 111 114
0.52998261 -0.53004897 1.11615355 104 111 113
0.53076174 -0.51005058 1.11723811 104 111 113
0.53067132 -0.49060247 1.11821237 103 111 112
0.52145305 -0.48478820 1.12019668 102 111 111
0.53371583 -0.47062849 1.11887743 103 109 111
0.52387906 -0.46950752 1.12055528 104 109 110
0.53480632 -0.45010532 1.11914323 101 110 112
0.52507176 -0.45026903 1.12071284 102 109 113
0.53109504 -0.42927170 1.11842432 102 109 113
0.52220027 -0.43460308 1.12034608 102 110 112
0.53026859 -0.41020559 1.11668637 102 108 112
0.53015591 -0.39033209 1.11432847 102 106 113
0.52983454 -0.37044208 1.11190596 101 106 111
0.53014549 -0.35058338 1.10957562 100 106 111
0.52952004 -0.33029212 1.10732774 99 105 110
0.53007746 -0.31025646 1.10450981 98 103 109
0.53892299 -0.28287835 1.09987119 93 97 105
0.53001868 -0.29020218 1.10191839 95 99 108
0.53302383 -0.26704765 1.09883326 93 98 104
0.52576876 -0.27309634 1.10087939 95 101 108
0.53026567 -0.25016381 1.09734532 93 98 105
0.52978293 -0.23017571 1.09541699 92 98 105
0.53005792 -0.21001504 1.09131201 91 97 103
0.53007292 -0.18970226 1.08546516 91 95 101
0.53491821 -0.16627163 1.07923700 57 57 59
0.52731354 -0.17175327 1.08131120 60 60 63
0.53027011 -0.14966051 1.07779195 57 57 57
0.52173825 -0.15804102 1.08036101 58 58 58
0.53018696 -0.12974940 1.07324633 58 57 57
0.52992800 -0.10957439 1.06837679 60 59 59
0.53241085 -0.08199506 1.05948716 57 57 57
0.52968950 -0.09128838 1.06297002 59 58 58
0.52996713 -0.07068940 1.05393574 66 65 66
0.53022042 -0.04425082 0.99203306 136 137 134
0.52966811 -0.05110398 1.00989108 132 131 126
0.52974722 -0.05748684 1.03042073 113 113 112
0.53009612 -0.02205556 0.95726480 131 131 130
0.52998730 -0.03148848 0.96904147 146 144 143
0.52993474 -0.03954850 0.98194752 127 127 127
0.52998783 -0.00946595 0.94713504 133 134 133
0.52998422 0.01084089 0.93636779 143 143 142
0.53040363 0.00113487 0.94063737 149 150 149
0.52999663 0.02999769 0.93006338 136 137 139
0.53001847 0.04994327 0.92552764 145 144 142
0.53000882 0.06980053 0.92230259 150 148 147
0.53012203 0.09415738 0.91933421 133 134 135
0.53000063 0.08378776 0.92047254 146 146 145
0.52990192 0.11036564 0.91780877 132 133 135
0.53011648 0.13017246 0.91625487 132 133 134
0.52991528 0.14958256 0.91498478 164 164 160
0.53019279 0.17021346 0.91385296 169 169 165
0.52976910 0.19045033 0.91292714 176 174 167
0.52997406 0.20989104 0.91216390 162 161 159
0.53021790 0.22972701 0.91148241 175 175 168
0.53015610 0.24985060 0.91088096 161 159 153
0.52984608 0.27015965 0.91034831 142 142 139
0.52956488 0.29046051 0.90986513 174 172 165
0.53005753 0.30992849 0.90948226 146 144 138
0.52992749 0.32951297 0.90913828 148 149 145
0.53035888 0.34996156 0.90882315 162 159 153
0.53037782 0.37013480 0.90856379 168 168 160
0.53025758 0.39046132 0.90835781 158 156 152
0.53019806 0.41004079 0.90825587 1 1 1
0.53017055 0.42964162 0.90820876 0 0 0
0.53014780 0.45002923 0.90816978 0 0 0
0.53011489 0.47040608 0.90811341 0 0 0
0.53007712 0.48999117 0.90804872 0 0 0
0.53003297 0.50799796 0.90797307 0 0 0
0.55979219 -0.66021183 1.04564011 103 116 113
0.55542694 -0.64179468 1.00819147 103 114 111
0.55089500 -0.65332289 1.03402378 100 115 113
0.55025687 -0.65621593 1.05287594 103 113 111
0.55001555 -0.65209420 1.07021046 104 113 113
0.55053866 -0.64466787 1.08353216 106 113 113
0.55016942 -0.62330823 0.92871918 0 0 0
0.54591336 -0.63000792 0.98791351 103 113 113
0.55007322 -0.62964608 1.08886761 104 114 112
0.54946302 -0.61270175 0.92956737 3 4 3
0.54955339 -0.61257199 0.94529200 90 97 97
0.54364077 -0.61968337 0.96559173 103 116 114
0.55008352 -0.61407321 1.09724572 105 113 112
0.54993045 -0.60389258 1.10290185 103 113 113
0.54981878 -0.58991164 1.10834469 104 113 112
0.55016752 -0.56985694 1.11141689 103 112 112
0.54967654 -0.55001059 1.11248523 104 111 112
0.54988999 -0.52980615 1.11342416 103 111 112
0.55032619 -0.51000598 1.11430742 104 111 112
0.55014079 -0.49001128 1.11501178 103 110 114
0.54929779 -0.47008120 1.11664270 103 110 112
0.54990490 -0.44995005 1.11685828 103 109 111
0.54994749 -0.42978570 1.11546138 102 109 112
0.55004134 -0.40972461 1.11338662 101 108 112
0.55016396 -0.39002025 1.11111013 101 107 111
0.54992212 -0.36947774 1.10870191 100 106 110
0.55010212 -0.34975630 1.10652658 100 104 110
0.54984400 -0.32973078 1.10441765 98 105 107
0.55576546 -0.30390052 1.09930729 94 102 108
0.54834312 -0.31129932 1.10175548 98 104 108
0.55082396 -0.28958295 1.09841677 94 100 106
0.54231665 -0.29670695 1.10039309 96 103 109
0.54989280 -0.27038196 1.09650373 94 99 105
0.55004516 -0.24997630 1.09420311 92 98 103
0.55004872 -0.23007040 1.09236004 92 97 104
0.54997587 -0.21040311 1.08865013 92 97 104
0.55844176 -0.18158575 1.07971984 85 89 90
0.54982409 -0.19070271 1.08313684 90 96 101
0.55039096 -0.16946106 1.07788763 59 59 59
0.54475447 -0.17935500 1.08033399 74 75 78
0.54992741 -0.15015281 1.07565036 57 57 57
