ply
format ascii 1.0
element vertex 1060
property float x
property float y
property float z
property uchar red
property uchar green
property uchar blue
end_header
1.02425659 0.18901207 0.87696230 141 144 145
1.02444708 0.18876787 0.87582928 136 140 141
1.02861881 0.18925691 0.87809825 130 134 134
1.02219200 0.18779734 0.87132627 143 147 146
-0.00680629 0.11782241 0.54231346 165 163 162
-0.00586426 0.11772823 0.54187995 173 169 168
-0.00492373 0.11763419 0.54144716 179 175 174
-0.00399426 0.11782241 0.54231346 182 180 180
-0.00305691 0.11782241 0.54231346 183 181 181
0.00069191 0.11772823 0.54187995 189 189 188
0.00162461 0.11744658 0.54058361 190 190 188
0.00255897 0.11744658 0.54058361 183 183 181
0.09375867 0.16202201 0.74575561 160 160 162
0.09591456 0.16131216 0.74248832 155 155 157
0.09709154 0.16113567 0.74167597 136 135 139
0.09826596 0.16095957 0.74086541 111 109 113
0.09943781 0.16078386 0.74005657 129 124 129
0.10049751 0.16043356 0.73844427 155 151 160
0.10188483 0.16060852 0.73924953 151 149 154
0.10606503 0.16113567 0.74167597 155 154 156
0.10758237 0.16148904 0.74330246 167 166 168
0.20645137 0.15198968 0.69957876 183 183 183
0.20766054 0.15198968 0.69957876 182 182 179
0.20886970 0.15198968 0.69957876 183 183 180
0.21128803 0.15198968 0.69957876 155 154 154
0.21249719 0.15198968 0.69957876 156 156 156
0.21370636 0.15198968 0.69957876 152 151 151
0.21513754 0.15214670 0.70030147 161 160 160
0.21612470 0.15198968 0.69957876 172 172 172
0.21710980 0.15183300 0.69885755 183 182 182
0.99068815 0.18761531 0.86355650 144 147 149
0.99344629 0.18785460 0.86465794 147 151 152
0.99621147 0.18809453 0.86576223 157 160 162
0.99898368 0.18833505 0.86686939 155 157 162
1.00048196 0.18833505 0.86686939 136 138 143
1.00326324 0.18857619 0.86797929 109 110 116
1.00605166 0.18881796 0.86909211 74 74 82
1.00755382 0.18881796 0.86909211 73 73 81
1.02087986 0.18906035 0.87020773 139 143 140
-0.00679542 0.11857004 0.54144716 168 164 165
-0.00585957 0.11857004 0.54144716 166 159 161
-0.00491980 0.11847541 0.54101503 173 168 168
-0.00398788 0.11857004 0.54144716 189 185 185
-0.00305447 0.11866482 0.54187995 186 182 183
-0.00118507 0.11904546 0.54361814 184 180 180
0.00069191 0.11866482 0.54187995 173 169 168
0.00162461 0.11838093 0.54058361 193 192 190
0.00255897 0.11838093 0.54058361 189 188 186
0.09709154 0.16241761 0.74167597 112 112 114
0.09826596 0.16224010 0.74086541 94 93 96
0.09943781 0.16206299 0.74005657 126 124 127
0.10060710 0.16188625 0.73924953 172 170 174
0.10188483 0.16188625 0.73924953 168 167 169
0.10327519 0.16206299 0.74005657 175 174 176
0.10489787 0.16259550 0.74248832 156 156 160
0.10618120 0.16259550 0.74248832 151 151 155
0.10770046 0.16295245 0.74411839 169 169 173
0.20645137 0.15319885 0.69957876 173 173 175
0.20766054 0.15319885 0.69957876 175 175 173
0.20886970 0.15319885 0.69957876 181 181 179
0.21007887 0.15319885 0.69957876 180 180 178
0.21128803 0.15319885 0.69957876 160 160 160
0.21249719 0.15319885 0.69957876 167 166 166
0.21370636 0.15319885 0.69957876 160 156 157
0.21513754 0.15335712 0.70030147 161 160 161
0.21612470 0.15319885 0.69957876 166 166 166
0.21710980 0.15304092 0.69885755 178 177 177
0.98121059 0.18814917 0.85917848 143 146 149
0.98269558 0.18814917 0.85917848 143 147 149
0.98668170 0.18862730 0.86136192 148 152 154
0.98691648 0.18838793 0.86026883 139 143 144
0.98840338 0.18838793 0.86026883 136 140 141
0.98989028 0.18838793 0.86026883 147 151 152
0.99263692 0.18862730 0.86136192 151 154 159
0.99412572 0.18862730 0.86136192 143 146 152
0.99561447 0.18862730 0.86136192 123 126 132
1.00091875 0.18934910 0.86465794 89 89 98
1.00241327 0.18934910 0.86465794 80 80 89
1.00689673 0.18934910 0.86465794 128 128 137
1.01826560 0.19007643 0.86797929 146 148 147
-0.00678458 0.11931529 0.54058361 167 165 165
-0.00585490 0.11941051 0.54101503 171 169 169
-0.00491587 0.11931529 0.54058361 175 174 174
-0.00305203 0.11950589 0.54144716 172 168 171
-0.00212127 0.11979293 0.54274768 166 165 165
-0.00118412 0.11988892 0.54318255 184 182 184
-0.00024488 0.11969709 0.54231346 158 155 158
0.00069136 0.11950589 0.54144716 151 147 148
0.00162461 0.11931529 0.54058361 181 177 178
0.00255897 0.11931529 0.54058361 176 173 173
0.09483898 0.16423860 0.74411839 166 165 165
0.09601972 0.16405852 0.74330246 153 153 153
0.09709154 0.16369954 0.74167597 153 153 155
0.09826596 0.16352062 0.74086541 154 153 154
0.09943781 0.16334210 0.74005657 158 154 153
0.10060710 0.16316397 0.73924953 179 178 176
0.10188483 0.16316397 0.73924953 170 170 168
0.10327519 0.16334210 0.74005657 165 166 164
0.10501289 0.16405852 0.74330246 162 163 164
0.10629763 0.16405852 0.74330246 161 161 163
0.10781881 0.16441908 0.74493611 152 152 154
0.10874786 0.16387883 0.74248832 148 146 148
0.20587960 0.15488754 0.70175141 170 170 173
0.20687836 0.15472737 0.70102566 170 169 171
0.20787506 0.15456754 0.70030147 167 166 166
0.20908548 0.15456754 0.70030147 167 166 166
0.21029589 0.15456754 0.70030147 162 161 161
0.21150631 0.15456754 0.70030147 153 152 152
0.21271671 0.15456754 0.70030147 165 164 165
0.21392713 0.15456754 0.70030147 159 158 160
0.21536003 0.15472737 0.70102566 156 156 157
0.21612470 0.15440802 0.69957876 172 171 172
0.98221534 0.19011611 0.86136192 151 153 155
0.98121059 0.18963419 0.85917848 151 154 156
0.98269558 0.18963419 0.85917848 150 154 155
0.98542958 0.18987484 0.86026883 154 158 159
0.98566568 0.18963419 0.85917848 149 153 154
0.98715067 0.18963419 0.85917848 140 144 145
0.98989028 0.18987484 0.86026883 142 146 147
0.99137723 0.18987484 0.86026883 147 150 152
0.99412572 0.19011611 0.86136192 144 148 150
0.99561447 0.19011611 0.86136192 131 135 137
0.99964368 0.19060047 0.86355650 111 112 119
1.00113630 0.19060047 0.86355650 105 105 113
1.00262880 0.19060047 0.86355650 103 103 110
1.00412142 0.19060047 0.86355650 86 87 93
1.00689673 0.19084358 0.86465794 113 114 120
1.00839114 0.19084358 0.86465794 133 134 138
1.01826560 0.19157666 0.86797929 144 145 145
1.00814819 0.18939415 0.85809094 145 146 146
-0.00118507 0.12092466 0.54361814 175 174 175
-0.00024508 0.12073103 0.54274768 154 153 154
0.00069191 0.12053801 0.54187995 140 138 140
0.00162461 0.12024964 0.54058361 150 149 151
0.00255897 0.12024964 0.54058361 161 160 162
0.09612513 0.16552475 0.74411839 163 162 160
0.09719788 0.16516216 0.74248832 164 162 161
0.09826596 0.16480115 0.74086541 157 154 153
0.09943781 0.16462123 0.74005657 156 152 150
0.10060710 0.16444172 0.73924953 164 162 160
0.10188483 0.16444172 0.73924953 159 159 157
0.10489787 0.16516216 0.74248832 164 165 165
0.10618120 0.16516216 0.74248832 170 170 170
0.10770046 0.16552475 0.74411839 170 170 171
0.10862888 0.16498145 0.74167597 170 166 168
0.20587960 0.15610047 0.70175141 171 171 173
0.20709252 0.15610047 0.70175141 172 171 173
0.20809004 0.15593904 0.70102566 156 155 155
0.20930170 0.15593904 0.70102566 158 156 156
0.21051337 0.15593904 0.70102566 163 160 161
0.21172503 0.15593904 0.70102566 161 159 160
0.21293670 0.15593904 0.70102566 167 166 167
0.21414836 0.15593904 0.70102566 165 164 166
0.21536003 0.15593904 0.70102566 163 162 164
0.21634796 0.15577795 0.70030147 180 181 183
0.97972554 0.19111921 0.85917848 158 159 161
0.97996855 0.19087729 0.85809094 158 159 161
0.98145169 0.19087729 0.85809094 157 158 160
0.98418063 0.19111921 0.85917848 160 162 164
0.98566568 0.19111921 0.85917848 158 160 161
0.98590112 0.19087729 0.85809094 148 152 152
0.98863572 0.19111921 0.85917848 143 147 146
0.99137723 0.19136174 0.86026883 145 148 148
0.99412572 0.19160490 0.86136192 149 151 151
0.99561447 0.19160490 0.86136192 146 148 148
0.99837184 0.19184867 0.86245781 138 137 140
0.99986255 0.19184867 0.86245781 132 130 134
1.00135326 0.19184867 0.86245781 128 125 129
1.00284398 0.19184867 0.86245781 112 109 112
1.00561404 0.19209306 0.86355650 124 122 124
1.00710666 0.19209306 0.86355650 141 139 141
1.01826560 0.19307689 0.86797929 140 140 140
-0.00024547 0.12186426 0.54361814 154 154 154
0.00069191 0.12147461 0.54187995 141 140 142
0.00162461 0.12118400 0.54058361 160 159 161
0.00255897 0.12118400 0.54058361 176 176 177
0.09591456 0.16644549 0.74248832 161 160 159
0.09709154 0.16626339 0.74167597 151 150 151
0.09815868 0.16590036 0.74005657 151 150 151
0.09943781 0.16590036 0.74005657 168 167 168
0.10478310 0.16626339 0.74167597 169 169 169
0.10606503 0.16626339 0.74167597 170 170 170
0.10758237 0.16662800 0.74330246 159 159 160
0.20387587 0.15763977 0.70320731 118 117 117
0.20466669 0.15731339 0.70175141 166 165 165
0.20652097 0.15780346 0.70393753 177 176 177
0.20752218 0.15763977 0.70320731 169 168 170
0.20852131 0.15747641 0.70247859 161 160 160
0.20951836 0.15731339 0.70175141 171 170 170
0.21194421 0.15731339 0.70175141 169 168 168
0.21293670 0.15715070 0.70102566 169 168 168
0.21414836 0.15715070 0.70102566 165 165 165
0.21558297 0.15731339 0.70175141 173 173 173
0.21657169 0.15715070 0.70102566 186 187 187
0.97848541 0.19236042 0.85809094 153 153 155
0.97996855 0.19236042 0.85809094 153 153 155
0.98021090 0.19211723 0.85700613 154 155 157
0.98293483 0.19236042 0.85809094 158 159 161
0.98441797 0.19236042 0.85809094 159 159 160
0.98465472 0.19211723 0.85700613 148 149 149
0.98738426 0.19236042 0.85809094 137 139 138
0.99012071 0.19260423 0.85917848 136 137 137
0.99160576 0.19260423 0.85917848 144 144 144
0.99309075 0.19260423 0.85917848 150 150 150
0.99710327 0.19309369 0.86136192 147 146 147
0.99859208 0.19309369 0.86136192 141 140 141
1.00008082 0.19309369 0.86136192 135 134 135
1.00156963 0.19309369 0.86136192 138 136 137
1.00305843 0.19309369 0.86136192 145 143 144
-0.00024547 0.12280386 0.54361814 166 166 166
0.00069191 0.12241121 0.54187995 174 173 174
0.00162461 0.12211835 0.54058361 177 177 179
0.00255693 0.12202105 0.54015285 166 166 168
0.09601972 0.16791274 0.74330246 159 159 159
0.09709154 0.16754532 0.74167597 155 155 156
0.09826596 0.16736220 0.74086541 155 155 157
0.09943781 0.16717950 0.74005657 177 176 178
0.10060710 0.16699718 0.73924953 176 175 175
0.10188483 0.16699718 0.73924953 181 180 179
0.10466859 0.16736220 0.74086541 155 155 155
0.10594911 0.16736220 0.74086541 166 165 166
0.10746454 0.16772883 0.74248832 157 157 159
0.21194421 0.15852632 0.70175141 169 168 168
0.21293670 0.15836237 0.70102566 173 172 172
0.21414836 0.15836237 0.70102566 162 161 161
0.21558297 0.15852632 0.70175141 170 169 169
0.97848541 0.19384356 0.85809094 147 147 151
0.97872967 0.19359851 0.85700613 155 155 159
0.97897327 0.19335406 0.85592407 157 156 159
0.98169219 0.19359851 0.85700613 156 156 158
0.98193204 0.19335406 0.85592407 153 152 154
0.98341149 0.19335406 0.85592407 140 139 140
0.98489088 0.19335406 0.85592407 134 133 133
0.98761725 0.19359851 0.85700613 133 132 132
0.99035054 0.19384356 0.85809094 140 140 140
0.99183369 0.19384356 0.85809094 140 140 140
0.99732482 0.19433555 0.86026883 137 137 137
0.99754584 0.19408925 0.85917848 132 132 132
0.99924940 0.19384356 0.85809094 150 149 149
0.00069247 0.12344648 0.54231346 175 175 177
0.09591456 0.16901216 0.74248832 167 166 166
0.09709154 0.16882724 0.74167597 167 166 167
0.09826596 0.16864273 0.74086541 162 161 162
0.09943781 0.16845863 0.74005657 169 168 167
0.10060710 0.16827491 0.73924953 161 159 158
0.10316257 0.16827491 0.73924953 175 172 172
0.10478310 0.16882724 0.74167597 154 151 151
0.10606503 0.16882724 0.74167597 168 165 165
0.10758237 0.16919747 0.74330246 162 162 165
0.21194421 0.15973923 0.70175141 168 166 167
0.21293670 0.15957405 0.70102566 167 165 166
0.21414836 0.15957405 0.70102566 148 147 148
0.21558297 0.15973923 0.70175141 149 148 149
0.21657169 0.15957405 0.70102566 171 170 170
0.97872967 0.19507977 0.85700613 155 155 157
0.97773874 0.19458777 0.85484469 157 156 158
0.98045266 0.19483346 0.85592407 155 154 155
0.98069382 0.19458777 0.85484469 147 147 148
0.98217136 0.19458777 0.85484469 143 143 143
0.00069247 0.12438382 0.54231346 172 172 174
0.09698543 0.16992326 0.74086541 166 164 164
0.09815868 0.16973774 0.74005657 170 169 169
0.09943781 0.16973774 0.74005657 165 164 162
0.10466859 0.16992326 0.74086541 156 151 152
0.10746454 0.17029549 0.74248832 168 162 162
0.21194421 0.16095215 0.70175141 156 154 155
0.21293670 0.16078570 0.70102566 152 148 151
0.21414836 0.16078570 0.70102566 154 152 155
0.21558297 0.16095215 0.70175141 162 161 163
0.21657169 0.16078570 0.70102566 162 161 163
0.97872967 0.19656104 0.85700613 156 156 156
0.97773874 0.19606529 0.85484469 156 155 156
0.98045266 0.19631284 0.85592407 156 155 155
0.98069382 0.19606529 0.85484469 154 154 154
0.98217136 0.19606529 0.85484469 154 153 153
0.98364890 0.19606529 0.85484469 154 154 154
0.09570491 0.17120378 0.74086541 153 149 152
0.09687955 0.17101687 0.74005657 163 160 163
0.09805164 0.17083038 0.73924953 169 168 170
0.09932937 0.17083038 0.73924953 161 161 163
0.10455432 0.17101687 0.74005657 168 163 166
0.10734696 0.17139110 0.74167597 167 162 161
0.21315713 0.16216508 0.70175141 126 125 128
0.20440945 0.15120797 0.65433574 172 172 172
0.20534220 0.15106216 0.65370476 157 157 156
0.20647208 0.15106216 0.65370476 163 162 161
0.20780236 0.15120797 0.65433574 180 178 172
0.21790172 0.15194128 0.65750909 169 169 169
0.98121059 0.19854431 0.85917848 154 153 154
0.98169219 0.19804230 0.85700613 154 154 154
0.98193204 0.19779225 0.85592407 154 154 154
0.09687955 0.17229600 0.74005657 160 160 163
0.20308246 0.15219204 0.65370476 172 171 169
0.20421234 0.15219204 0.65370476 171 170 168
0.20534220 0.15219204 0.65370476 162 161 159
0.20647208 0.15219204 0.65370476 161 160 158
0.21790172 0.15307774 0.65750909 167 167 167
0.22537623 0.15352446 0.65942788 179 178 180
0.98169219 0.19952357 0.85700613 152 152 155
0.98193204 0.19927163 0.85592407 148 148 151
0.98341149 0.19927163 0.85592407 150 151 153
0.98364890 0.19902036 0.85484469 159 160 162
0.20308246 0.15332191 0.65370476 174 173 169
0.20440945 0.15346991 0.65433574 165 164 162
0.20554042 0.15346991 0.65433574 165 165 163
0.21541989 0.15406474 0.65687191 155 150 153
0.21676528 0.15421419 0.65750909 153 153 155
0.21811329 0.15436390 0.65814739 183 183 184
0.21903817 0.15421419 0.65750909 185 185 185
0.22152595 0.15436390 0.65814739 175 175 174
0.22287989 0.15451391 0.65878701 179 179 178
0.22401854 0.15451391 0.65878701 187 183 184
0.22537623 0.15466422 0.65942788 183 181 182
0.97945869 0.20024537 0.85376805 142 143 147
0.20480482 0.15489991 0.65560138 170 169 167
0.20593798 0.15489991 0.65560138 181 180 180
0.21562883 0.15535063 0.65750909 163 159 159
0.21697573 0.15550146 0.65814739 154 153 154
0.21832526 0.15565258 0.65878701 166 166 168
0.21925084 0.15550146 0.65814739 177 177 179
0.22060257 0.15565258 0.65878701 183 183 183
0.22174123 0.15565258 0.65878701 181 181 180
0.22287989 0.15565258 0.65878701 182 182 180
0.22423647 0.15580399 0.65942788 177 173 172
0.22559568 0.15595570 0.66006994 166 162 161
0.22695756 0.15610771 0.66071332 166 163 162
0.20347489 0.15588230 0.65496796 161 158 159
0.20460695 0.15588230 0.65496796 176 175 175
0.20573901 0.15588230 0.65496796 182 182 182
0.20687106 0.15588230 0.65496796 177 178 180
0.20820428 0.15603305 0.65560138 178 179 180
0.21562883 0.15648708 0.65750909 175 170 169
0.21697573 0.15663901 0.65814739 172 168 169
0.21811329 0.15663901 0.65814739 163 162 163
0.21925084 0.15663901 0.65814739 169 168 169
0.22060257 0.15679124 0.65878701 176 176 176
0.22152595 0.15663901 0.65814739 182 182 181
0.22287989 0.15679124 0.65878701 170 170 170
0.22423647 0.15694375 0.65942788 159 156 155
0.22559568 0.15709658 0.66006994 158 155 154
0.22695756 0.15724969 0.66071332 173 173 172
0.20327848 0.15686281 0.65433574 161 160 160
0.20440945 0.15686281 0.65433574 160 159 159
0.20554042 0.15686281 0.65433574 171 170 170
0.20667139 0.15686281 0.65433574 178 179 179
0.20780236 0.15686281 0.65433574 182 183 183
0.21160375 0.15716621 0.65560138 181 175 176
0.21541989 0.15747079 0.65687191 179 173 172
0.21676528 0.15762353 0.65750909 174 172 170
0.21790172 0.15762353 0.65750909 174 173 172
0.21903817 0.15762353 0.65750909 178 177 176
0.22038840 0.15777656 0.65814739 178 177 175
0.22152595 0.15777656 0.65814739 180 179 177
0.22287989 0.15792990 0.65878701 179 178 176
0.22423647 0.15808353 0.65942788 174 174 172
0.22581556 0.15839168 0.66071332 178 177 176
0.22717898 0.15854621 0.66135788 178 178 178
0.20327848 0.15799376 0.65433574 172 171 171
0.20440945 0.15799376 0.65433574 168 167 167
0.20534220 0.15784141 0.65370476 174 173 173
0.20647208 0.15784141 0.65370476 188 187 187
0.20780236 0.15799376 0.65433574 189 188 188
0.20853074 0.15768935 0.65307498 180 179 179
0.20965953 0.15768935 0.65307498 168 164 165
0.21139930 0.15814643 0.65496796 182 177 179
0.21253136 0.15814643 0.65496796 181 175 176
0.21366341 0.15814643 0.65496796 170 164 165
0.21521135 0.15845262 0.65623605 168 162 164
0.21655524 0.15860614 0.65687191 171 170 169
0.21790172 0.15875998 0.65750909 175 174 173
0.21903817 0.15875998 0.65750909 177 176 174
0.22038840 0.15891412 0.65814739 165 164 162
0.22152595 0.15891412 0.65814739 170 169 167
0.22287989 0.15906855 0.65878701 180 179 178
0.22423647 0.15922329 0.65942788 175 175 175
0.22581556 0.15953366 0.66071332 175 175 175
0.22717898 0.15968931 0.66135788 175 176 176
-0.07891820 0.15581590 0.64072955 168 167 168
-0.07781075 0.15581590 0.64072955 174 174 176
-0.07573903 0.15611102 0.64194304 141 139 142
-0.07462949 0.15611102 0.64194304 146 143 146
-0.07365944 0.15640724 0.64316112 127 118 123
-0.07261669 0.15655577 0.64377195 126 117 121
-0.07143614 0.15640724 0.64316112 154 145 149
0.20367168 0.15943252 0.65560138 167 166 166
0.20460695 0.15927848 0.65496796 169 168 168
0.20573901 0.15927848 0.65496796 164 163 163
0.20687106 0.15927848 0.65496796 177 176 174
0.20800312 0.15927848 0.65496796 176 175 173
0.20893331 0.15912473 0.65433574 169 168 166
0.21006428 0.15912473 0.65433574 166 165 163
0.21160375 0.15943252 0.65560138 184 183 181
0.21294284 0.15958686 0.65623605 186 185 185
0.21407710 0.15958686 0.65623605 177 176 176
0.21541989 0.15974149 0.65687191 172 171 171
0.21676528 0.15989643 0.65750909 173 173 173
0.21811329 0.16005167 0.65814739 175 175 175
0.21903817 0.15989643 0.65750909 166 166 166
0.22060257 0.16020721 0.65878701 143 143 143
0.22152595 0.16005167 0.65814739 144 144 144
0.22287989 0.16020721 0.65878701 156 156 158
0.22445481 0.16051921 0.66006994 166 166 167
0.22603588 0.16083242 0.66135788 180 180 180
0.22740082 0.16098948 0.66200376 184 184 184
-0.08445545 0.15692335 0.64072955 173 173 172
-0.08326929 0.15677518 0.64012450 164 164 163
-0.08216289 0.15677518 0.64012450 168 168 167
-0.08105649 0.15677518 0.64012450 172 172 170
-0.08002565 0.15692335 0.64072955 164 164 162
-0.07891820 0.15692335 0.64072955 171 170 169
-0.07788437 0.15707181 0.64133573 154 153 153
-0.07684857 0.15722056 0.64194304 135 133 135
-0.07573903 0.15722056 0.64194304 144 142 144
-0.07462949 0.15722056 0.64194304 151 148 150
-0.07365944 0.15751889 0.64316112 129 122 127
-0.07261669 0.15766847 0.64377195 117 111 115
-0.07143614 0.15751889 0.64316112 155 150 154
0.20480482 0.16056567 0.65560138 161 160 163
0.20593798 0.16056567 0.65560138 167 166 168
0.20840584 0.16072111 0.65623605 187 186 185
0.20933744 0.16056567 0.65560138 179 179 177
0.21201384 0.16087686 0.65687191 188 187 185
0.21314919 0.16087686 0.65687191 182 181 181
0.21428454 0.16087686 0.65687191 179 178 177
0.21562883 0.16103289 0.65750909 178 177 177
0.21697573 0.16118923 0.65814739 175 175 174
0.21811329 0.16118923 0.65814739 175 175 174
0.21925084 0.16118923 0.65814739 174 174 172
0.22081716 0.16150282 0.65942788 155 155 154
0.22174123 0.16134588 0.65878701 148 148 148
0.22309670 0.16150282 0.65942788 162 162 163
0.22445481 0.16166009 0.66006994 164 164 165
0.22603588 0.16197552 0.66135788 166 166 166
0.22740082 0.16213369 0.66200376 167 167 164
-0.08437569 0.15788157 0.64012450 172 171 169
-0.08326929 0.15788157 0.64012450 146 145 143
-0.08208538 0.15773264 0.63952059 149 147 147
-0.08105649 0.15788157 0.64012450 166 164 167
-0.08002565 0.15803081 0.64072955 159 155 157
-0.07891820 0.15803081 0.64072955 157 153 155
-0.07788437 0.15818031 0.64133573 147 144 146
-0.07684857 0.15833010 0.64194304 139 135 136
-0.07573903 0.15833010 0.64194304 154 151 152
-0.07462949 0.15833010 0.64194304 150 149 149
-0.07358962 0.15848018 0.64255148 153 152 152
-0.07261669 0.15878119 0.64377195 143 142 143
-0.07143614 0.15863054 0.64316112 156 155 156
0.21335593 0.16216934 0.65750909 179 178 176
0.21562883 0.16216934 0.65750909 181 179 176
0.21697573 0.16232678 0.65814739 183 180 178
0.21811329 0.16232678 0.65814739 176 174 171
0.21925084 0.16232678 0.65814739 176 175 172
0.22081716 0.16264260 0.65942788 176 176 174
0.22174123 0.16248454 0.65878701 167 167 167
0.22309670 0.16264260 0.65942788 172 172 172
0.22445481 0.16280097 0.66006994 170 170 170
0.22603588 0.16311862 0.66135788 168 168 168
0.22740082 0.16327792 0.66200376 163 161 160
-0.08429610 0.15883799 0.63952059 164 163 163
-0.08319074 0.15883799 0.63952059 142 141 145
-0.08208538 0.15883799 0.63952059 132 131 135
-0.08098002 0.15883799 0.63952059 136 134 138
-0.07995009 0.15898798 0.64012450 132 129 133
-0.07884368 0.15898798 0.64012450 139 135 139
-0.07781075 0.15913825 0.64072955 152 148 151
-0.07677587 0.15928881 0.64133573 135 131 132
-0.07573903 0.15943965 0.64194304 143 141 141
-0.07462949 0.15943965 0.64194304 150 150 149
-0.07358962 0.15959078 0.64255148 163 163 161
-0.07261669 0.15989390 0.64377195 159 158 157
-0.07150398 0.15989390 0.64377195 155 154 153
-0.07032449 0.15974219 0.64316112 145 142 143
-0.06914723 0.15959078 0.64255148 157 154 154
0.21335593 0.16330579 0.65750909 178 177 177
0.21428454 0.16314755 0.65687191 164 162 162
0.21583818 0.16346434 0.65814739 156 152 152
0.21697573 0.16346434 0.65814739 160 156 157
0.21811329 0.16346434 0.65814739 157 153 153
0.22060257 0.16362320 0.65878701 173 171 171
0.22174123 0.16362320 0.65878701 170 170 170
0.22309670 0.16378236 0.65942788 170 170 170
0.22423647 0.16378236 0.65942788 176 176 176
0.22603588 0.16426173 0.66135788 171 170 170
0.22740082 0.16442214 0.66200376 167 164 164
-0.08421665 0.15979260 0.63891786 156 155 156
-0.08311233 0.15979260 0.63891786 149 148 151
-0.08200801 0.15979260 0.63891786 136 135 139
-0.08090369 0.15979260 0.63891786 137 138 142
-0.07987466 0.15994336 0.63952059 150 151 155
-0.07876930 0.15994336 0.63952059 154 155 158
-0.07773728 0.16009438 0.64012450 150 151 153
-0.07670330 0.16024570 0.64072955 141 141 143
-0.07566737 0.16039731 0.64133573 170 170 171
-0.07455888 0.16039731 0.64133573 174 174 173
-0.07358962 0.16070138 0.64255148 165 165 163
-0.07261669 0.16100660 0.64377195 146 146 145
-0.07143614 0.16085385 0.64316112 151 151 151
-0.07032449 0.16085385 0.64316112 152 148 147
0.21335593 0.16444224 0.65750909 170 169 169
0.21428454 0.16428290 0.65687191 145 144 144
0.21583818 0.16460189 0.65814739 141 140 140
0.21697573 0.16460189 0.65814739 162 161 162
0.21832526 0.16476186 0.65878701 171 170 172
0.21925084 0.16460189 0.65814739 164 163 163
0.22060257 0.16476186 0.65878701 167 166 167
0.22174123 0.16476186 0.65878701 163 162 164
0.22309670 0.16492213 0.65942788 169 165 168
0.22423647 0.16492213 0.65942788 171 165 169
0.22603588 0.16540483 0.66135788 168 162 164
0.22740082 0.16556635 0.66200376 167 161 162
-0.08421665 0.16089693 0.63891786 143 142 144
-0.08303407 0.16074541 0.63831621 125 123 130
-0.08090369 0.16089693 0.63891786 143 143 152
-0.07766394 0.16104871 0.63952059 162 166 169
-0.07663088 0.16120079 0.64012450 157 160 161
-0.07559586 0.16135316 0.64072955 173 175 177
-0.07448841 0.16135316 0.64072955 170 171 172
0.21335593 0.16557869 0.65750909 168 168 169
0.21428454 0.16541825 0.65687191 150 149 151
0.21562883 0.16557869 0.65750909 153 152 154
0.21811329 0.16573945 0.65814739 185 185 189
0.22152595 0.16573945 0.65814739 174 175 179
0.22287989 0.16590051 0.65878701 177 175 179
0.22401854 0.16590051 0.65878701 166 161 165
0.22581556 0.16638561 0.66071332 160 154 158
0.22717898 0.16654794 0.66135788 170 164 168
-0.08413735 0.16184869 0.63831621 160 159 161
-0.07766394 0.16215406 0.63952059 174 178 181
-0.07655858 0.16215406 0.63952059 169 173 176
-0.07552447 0.16230719 0.64012450 165 167 170
-0.07441807 0.16230719 0.64012450 161 161 163
0.21562883 0.16671515 0.65750909 163 163 164
0.21811329 0.16687700 0.65814739 175 175 176
0.22309670 0.16720167 0.65942788 177 179 181
0.22423647 0.16720167 0.65942788 162 161 162
0.22581556 0.16752760 0.66071332 159 154 156
-0.08413735 0.16295198 0.63831621 163 162 164
-0.07979938 0.16310556 0.63891786 169 170 172
-0.07869506 0.16310556 0.63891786 172 173 175
-0.07773728 0.16341360 0.64012450 171 172 174
-0.07670330 0.16356805 0.64072955 170 170 173
-0.07559586 0.16356805 0.64072955 166 166 169
-0.07448841 0.16356805 0.64072955 166 165 168
-0.07331166 0.16341360 0.64012450 164 163 163
-0.07254779 0.16418880 0.64316112 156 152 152
-0.07136843 0.16403317 0.64255148 153 144 145
-0.07025783 0.16403317 0.64255148 149 145 146
-0.06895116 0.16356805 0.64072955 158 154 155
-0.08413735 0.16405524 0.63831621 150 149 155
-0.08311233 0.16420987 0.63891786 175 175 179
-0.07987466 0.16436478 0.63952059 139 139 141
-0.07884368 0.16452000 0.64012450 146 147 149
-0.07795812 0.16498739 0.64194304 155 155 158
-0.07684857 0.16498739 0.64194304 149 149 152
-0.07581082 0.16514377 0.64255148 145 145 148
-0.07462949 0.16498739 0.64194304 157 156 158
-0.07351994 0.16498739 0.64194304 172 171 169
-0.07261669 0.16545743 0.64377195 153 151 150
-0.07150398 0.16545743 0.64377195 131 126 125
-0.07039127 0.16545743 0.64377195 129 124 125
-0.06914723 0.16514377 0.64255148 152 147 149
-0.07995009 0.16562639 0.64012450 136 135 137
-0.07899287 0.16593979 0.64133573 131 130 132
-0.07810605 0.16641210 0.64316112 143 142 148
-0.07699440 0.16641210 0.64316112 147 147 151
-0.07588275 0.16641210 0.64316112 152 152 156
-0.07470022 0.16625437 0.64255148 149 149 149
-0.07358962 0.16625437 0.64255148 151 150 149
-0.07275487 0.16688712 0.64499700 151 148 148
-0.07157195 0.16672848 0.64438391 144 135 137
-0.06921283 0.16641210 0.64316112 140 133 137
-0.06784371 0.16578294 0.64072955 172 168 170
-0.07470022 0.16736497 0.64255148 147 147 147
0.01598409 0.14390387 0.55247909 185 185 185
0.01689769 0.14355287 0.55113161 177 177 177
0.01787935 0.14378667 0.55202919 160 160 160
0.01881816 0.14366968 0.55158001 161 161 161
0.02166062 0.14355287 0.55113161 179 178 178
0.02259484 0.14343627 0.55068386 183 182 182
0.02638066 0.14331983 0.55023688 156 156 158
-0.07803202 0.16847557 0.64255148 161 159 163
-0.07692142 0.16847557 0.64255148 150 149 151
-0.07573903 0.16831602 0.64194304 158 159 159
-0.07455888 0.16815679 0.64133573 160 161 161
0.01408574 0.14497693 0.55292970 168 168 167
0.01502918 0.14485878 0.55247909 178 178 178
0.01598409 0.14485878 0.55247909 174 173 173
0.01691144 0.14462304 0.55158001 168 165 164
0.01786480 0.14462304 0.55158001 176 172 173
0.01881816 0.14462304 0.55158001 162 157 159
0.01977153 0.14462304 0.55158001 156 150 152
0.02072489 0.14462304 0.55158001 179 175 176
0.02166062 0.14450546 0.55113161 190 186 187
0.02257650 0.14427088 0.55023688 196 192 193
0.02447858 0.14427088 0.55023688 174 174 173
0.02638066 0.14427088 0.55023688 161 161 162
0.35317954 0.13107796 0.49992025 171 173 173
0.35456657 0.13127159 0.50065869 172 173 173
0.35490769 0.13107796 0.49992025 169 170 170
-0.07462949 0.16942556 0.64194304 177 177 175
0.01407426 0.14581369 0.55247909 166 165 165
0.01502918 0.14581369 0.55247909 183 180 180
0.01597108 0.14569496 0.55202919 179 175 175
0.01691144 0.14557640 0.55158001 170 166 165
0.01786480 0.14557640 0.55158001 168 162 162
0.01881816 0.14557640 0.55158001 140 134 135
0.01977153 0.14557640 0.55158001 128 122 124
0.02072489 0.14557640 0.55158001 162 159 160
0.02164303 0.14533989 0.55068386 171 167 167
0.02257650 0.14522192 0.55023688 166 161 161
0.02447858 0.14522192 0.55023688 178 173 174
0.02638066 0.14522192 0.55023688 168 167 167
0.02733170 0.14522192 0.55023688 166 160 162
0.37607777 0.18540248 0.70247859 170 170 170
0.37690136 0.18521056 0.70175141 159 159 159
0.37850612 0.18540248 0.70247859 154 154 154
0.37972030 0.18540248 0.70247859 145 145 145
0.38172561 0.18578754 0.70393753 146 145 145
0.38334039 0.18598066 0.70466930 164 163 163
0.39472535 0.18675721 0.70761150 157 157 157
0.39471236 0.18617420 0.70540255 147 147 147
0.35205585 0.13184480 0.49955183 177 179 179
0.35291928 0.13184480 0.49955183 173 174 174
0.35430491 0.13203941 0.50028920 171 172 172
0.35464615 0.13184480 0.49955183 171 172 172
-0.07484210 0.17102097 0.64377195 168 168 160
0.01408574 0.14688832 0.55292970 165 159 161
0.01502918 0.14676861 0.55247909 174 166 169
0.01598409 0.14676861 0.55247909 187 178 181
0.01691144 0.14652976 0.55158001 180 171 168
0.01787935 0.14664909 0.55202919 168 162 158
0.01881816 0.14652976 0.55158001 129 124 123
0.01977153 0.14652976 0.55158001 119 116 119
0.02072489 0.14652976 0.55158001 160 159 161
0.02164303 0.14629170 0.55068386 176 174 176
0.02257650 0.14617296 0.55023688 163 159 162
0.02447858 0.14617296 0.55023688 162 155 158
0.02542962 0.14617296 0.55023688 161 152 157
0.02635926 0.14605440 0.54979062 162 153 156
0.02730953 0.14605440 0.54979062 160 149 153
0.37403700 0.18681026 0.70320731 166 166 168
0.37525246 0.18681026 0.70320731 172 172 172
0.37607777 0.18661666 0.70247859 174 174 174
0.37729195 0.18661666 0.70247859 172 172 172
0.37850612 0.18661666 0.70247859 163 163 163
0.37972030 0.18661666 0.70247859 162 162 162
0.38172561 0.18700424 0.70393753 140 140 140
0.38334039 0.18719862 0.70466930 147 146 146
0.38535950 0.18758863 0.70613736 174 173 173
0.38698313 0.18778424 0.70687366 163 162 162
0.38659242 0.18700424 0.70393753 163 162 162
0.38821223 0.18719862 0.70466930 165 164 164
0.38943020 0.18719862 0.70466930 160 159 159
0.39472535 0.18798025 0.70761150 162 162 162
0.39471236 0.18739343 0.70540255 155 155 155
0.39634401 0.18758863 0.70613736 146 146 147
0.39797908 0.18778424 0.70687366 150 150 151
0.35127926 0.13241550 0.49844989 172 172 174
0.35214078 0.13241550 0.49844989 168 169 170
0.35352221 0.13261051 0.49918398 164 164 165
0.35386384 0.13241550 0.49844989 167 167 168
-0.07470022 0.17180736 0.64255148 143 140 136
0.01504144 0.14784402 0.55292970 160 152 156
0.01598409 0.14772353 0.55247909 166 157 162
0.01692521 0.14760323 0.55202919 157 148 154
0.01787935 0.14760323 0.55202919 152 144 148
0.01883349 0.14760323 0.55202919 136 129 133
0.01977153 0.14748313 0.55158001 155 155 157
0.02072489 0.14748313 0.55158001 172 172 172
0.02164303 0.14724351 0.55068386 173 171 172
0.02259484 0.14724351 0.55068386 166 162 163
0.02447858 0.14712399 0.55023688 167 161 165
0.02542962 0.14712399 0.55023688 165 159 163
0.02638066 0.14712399 0.55023688 161 152 155
0.02730953 0.14700468 0.54979062 153 143 147
0.37403700 0.18802568 0.70320731 164 163 165
0.37525246 0.18802568 0.70320731 159 158 159
0.37607777 0.18783084 0.70247859 165 164 164
0.37729195 0.18783084 0.70247859 178 177 177
0.37850612 0.18783084 0.70247859 177 176 176
0.37972030 0.18783084 0.70247859 171 171 171
0.38172561 0.18822093 0.70393753 141 141 141
0.38334039 0.18841660 0.70466930 133 132 132
0.38495851 0.18861265 0.70540255 153 152 152
0.38658002 0.18880913 0.70613736 163 162 162
0.38619137 0.18802568 0.70320731 160 159 159
0.38780910 0.18822093 0.70393753 157 156 156
0.38902581 0.18822093 0.70393753 160 159 159
0.39105466 0.18861265 0.70540255 156 155 155
0.39268252 0.18880913 0.70613736 149 149 149
0.39390302 0.18880913 0.70613736 159 160 160
0.39430204 0.18841660 0.70466930 169 170 170
0.39552000 0.18841660 0.70466930 167 168 168
0.39715081 0.18861265 0.70540255 164 164 165
0.39961755 0.18920331 0.70761150 167 167 167
0.34878680 0.13298368 0.49735278 152 151 151
0.35050610 0.13298368 0.49735278 153 152 154
0.35136572 0.13298368 0.49735278 157 157 159
0.35248396 0.13308132 0.49771795 164 164 166
0.35308498 0.13298368 0.49735278 163 163 165
0.01599713 0.14879970 0.55292970 172 163 168
0.01693901 0.14867844 0.55247909 155 151 152
0.01789392 0.14867844 0.55247909 160 156 157
0.01884884 0.14867844 0.55247909 158 154 155
0.01978763 0.14855736 0.55202919 167 168 168
0.02074176 0.14855736 0.55202919 168 168 168
0.02166062 0.14831580 0.55113161 170 169 169
0.02261321 0.14831580 0.55113161 168 164 164
0.02356580 0.14831580 0.55113161 178 174 174
0.02449846 0.14819533 0.55068386 182 178 179
0.02638066 0.14807503 0.55023688 157 153 154
0.02730953 0.14795494 0.54979062 153 149 150
0.37403700 0.18924113 0.70320731 175 175 177
0.37525246 0.18924113 0.70320731 166 166 167
0.37607777 0.18904501 0.70247859 164 164 164
0.37729195 0.18904501 0.70247859 174 174 174
0.37850612 0.18904501 0.70247859 177 176 176
0.37972030 0.18904501 0.70247859 172 171 171
0.38172561 0.18943764 0.70393753 163 162 162
0.38294232 0.18943764 0.70393753 152 151 151
0.38455835 0.18963456 0.70466930 156 155 155
0.38617775 0.18983188 0.70540255 161 161 161
0.38579118 0.18904501 0.70247859 154 153 154
0.38740683 0.18924113 0.70320731 144 143 144
0.38862225 0.18924113 0.70320731 143 142 143
0.39024252 0.18943764 0.70393753 143 142 144
0.39186612 0.18963456 0.70466930 152 153 155
0.39349312 0.18983188 0.70540255 161 162 164
0.39389259 0.18943764 0.70393753 168 169 171
0.39510930 0.18943764 0.70393753 172 173 174
0.39673799 0.18963456 0.70466930 172 173 173
0.39878502 0.19002964 0.70613736 170 170 170
0.39917392 0.18963456 0.70466930 170 170 170
0.34716305 0.13354938 0.49626049 162 161 160
0.34827578 0.13364722 0.49662405 158 157 157
0.34999251 0.13364722 0.49662405 160 159 161
0.35085088 0.13364722 0.49662405 160 159 161
0.35196713 0.13374519 0.49698815 166 165 167
0.35282612 0.13374519 0.49698815 161 160 162
0.01599713 0.14975540 0.55292970 168 164 165
0.01693901 0.14963335 0.55247909 172 169 169
0.01789392 0.14963335 0.55247909 166 163 164
0.01884884 0.14963335 0.55247909 140 138 139
0.01978763 0.14951150 0.55202919 124 125 127
0.02074176 0.14951150 0.55202919 138 136 137
0.02166062 0.14926839 0.55113161 166 163 163
0.02261321 0.14926839 0.55113161 166 159 159
0.02354665 0.14914714 0.55068386 175 168 168
0.02449846 0.14914714 0.55068386 183 178 178
0.02542962 0.14902608 0.55023688 173 172 170
0.02635926 0.14890522 0.54979062 168 167 167
0.02728740 0.14878455 0.54934508 159 158 158
0.37403700 0.19045655 0.70320731 169 169 171
0.37525246 0.19045655 0.70320731 163 163 164
0.37607777 0.19025920 0.70247859 164 164 164
0.37690136 0.19006224 0.70175141 168 168 168
0.37850612 0.19025920 0.70247859 174 174 174
0.37972030 0.19025920 0.70247859 172 172 172
0.38132963 0.19045655 0.70320731 169 169 169
0.38254505 0.19045655 0.70320731 161 162 162
0.38415900 0.19065434 0.70393753 162 162 162
0.38537571 0.19065434 0.70393753 168 168 169
0.38539180 0.19006224 0.70175141 154 154 156
0.38700536 0.19025920 0.70247859 144 144 147
0.38821954 0.19025920 0.70247859 150 150 154
0.38983768 0.19045655 0.70320731 157 157 162
0.39145920 0.19065434 0.70393753 158 159 164
0.39308408 0.19085252 0.70466930 160 161 165
0.39348400 0.19045655 0.70320731 164 165 167
0.39469942 0.19045655 0.70320731 170 171 172
0.39632601 0.19065434 0.70393753 171 172 172
0.39837006 0.19105113 0.70540255 165 166 166
0.39834574 0.19045655 0.70320731 158 159 159
0.34716305 0.13440712 0.49626049 160 155 156
0.34827578 0.13450558 0.49662405 151 150 150
0.34973630 0.13440712 0.49626049 146 145 145
0.35059404 0.13440712 0.49626049 153 152 152
0.35170928 0.13450558 0.49662405 158 158 159
0.35256764 0.13450558 0.49662405 159 158 160
0.01599713 0.15071110 0.55292970 161 159 160
0.01693901 0.15058827 0.55247909 165 165 166
0.01789392 0.15058827 0.55247909 123 122 125
0.01884884 0.15058827 0.55247909 64 62 67
0.01978763 0.15046564 0.55202919 78 77 83
0.02072489 0.15034321 0.55158001 157 152 155
0.02166062 0.15022098 0.55113161 177 171 172
0.02259484 0.15009895 0.55068386 171 162 162
0.02354665 0.15009895 0.55068386 175 166 165
0.02447858 0.14997712 0.55023688 185 179 178
0.02540900 0.14985548 0.54979062 174 173 172
0.02635926 0.14985548 0.54979062 152 152 151
0.02728740 0.14973404 0.54934508 157 156 154
0.37403700 0.19167200 0.70320731 169 169 169
0.37525246 0.19167200 0.70320731 168 168 168
0.37607777 0.19147338 0.70247859 159 159 159
0.37690136 0.19127516 0.70175141 165 165 165
0.37811428 0.19127516 0.70175141 175 175 175
0.37932721 0.19127516 0.70175141 177 177 177
0.38132963 0.19167200 0.70320731 169 170 170
0.38214865 0.19147338 0.70247859 161 162 162
0.38376051 0.19167200 0.70320731 156 157 157
0.38497594 0.19167200 0.70320731 166 167 168
0.38499326 0.19107735 0.70102566 153 154 156
0.38660473 0.19127516 0.70175141 143 144 147
0.38781765 0.19127516 0.70175141 157 157 161
0.38943371 0.19147338 0.70247859 166 166 171
0.39105311 0.19167200 0.70320731 161 161 168
0.39267591 0.19187103 0.70393753 159 159 165
0.39348400 0.19167200 0.70320731 162 162 166
0.39429042 0.19147338 0.70247859 168 168 172
0.39591488 0.19167200 0.70320731 172 173 176
0.39795595 0.19207048 0.70466930 169 170 172
0.39793295 0.19147338 0.70247859 163 164 166
0.34706753 0.13556258 0.49735278 152 151 151
0.34716305 0.13526486 0.49626049 147 146 146
0.34802082 0.13526486 0.49626049 147 146 146
0.34862334 0.13516591 0.49589747 150 149 149
0.34948045 0.13516591 0.49589747 154 153 153
0.35033756 0.13516591 0.49589747 158 157 157
0.35119471 0.13516591 0.49589747 162 161 162
0.35205182 0.13516591 0.49589747 165 165 167
0.02164303 0.15105076 0.55068386 170 164 164
0.02259484 0.15105076 0.55068386 167 157 157
0.02447858 0.15092815 0.55023688 183 178 178
0.02540900 0.15080574 0.54979062 167 167 167
0.02635926 0.15080574 0.54979062 153 153 153
0.02730953 0.15080574 0.54979062 164 160 160
0.37442541 0.19308773 0.70393753 173 172 172
0.37564212 0.19308773 0.70393753 173 172 172
0.37646788 0.19288744 0.70320731 160 160 162
0.37690136 0.19248809 0.70175141 169 169 171
0.37850612 0.19268756 0.70247859 171 171 172
0.37972030 0.19268756 0.70247859 172 172 172
0.38132963 0.19288744 0.70320731 168 169 171
0.38214865 0.19268756 0.70247859 165 166 168
0.38376051 0.19288744 0.70320731 166 170 169
0.38497594 0.19288744 0.70320731 159 163 162
0.38539180 0.19248809 0.70175141 156 157 159
0.38620493 0.19228902 0.70102566 145 146 148
0.38781765 0.19248809 0.70175141 153 154 158
0.39105311 0.19288744 0.70320731 164 164 169
0.39267591 0.19308773 0.70393753 158 158 163
0.39348400 0.19288744 0.70320731 155 155 159
0.39429042 0.19268756 0.70247859 154 155 159
0.39591488 0.19288744 0.70320731 160 162 165
0.39795595 0.19328845 0.70466930 153 155 158
0.39793295 0.19268756 0.70247859 148 150 152
0.34732237 0.13652238 0.49771795 157 156 154
0.34741738 0.13622233 0.49662405 157 156 154
0.34802082 0.13612261 0.49626049 158 157 155
0.34948045 0.13602303 0.49589747 164 164 163
0.35033756 0.13602303 0.49589747 168 168 168
0.35119471 0.13602303 0.49589747 177 177 177
0.35179448 0.13592359 0.49553499 178 178 180
0.02162546 0.15187919 0.55023688 162 154 155
0.02257650 0.15187919 0.55023688 163 156 157
0.02443891 0.15163304 0.54934508 177 176 175
0.02538840 0.15163304 0.54934508 173 172 172
0.37953869 0.41305777 1.49644995 180 180 180
0.37603259 0.19450641 0.70466930 164 163 163
0.37685880 0.19430444 0.70393753 159 159 160
0.37729195 0.19390173 0.70247859 166 166 168
0.37889877 0.19410287 0.70320731 169 169 171
0.37972030 0.19390173 0.70247859 171 171 173
0.38172561 0.19430444 0.70393753 171 172 174
0.38254505 0.19410287 0.70320731 178 179 181
0.38415900 0.19430444 0.70393753 180 184 185
0.38497594 0.19410287 0.70320731 161 165 166
0.38539180 0.19370100 0.70175141 154 158 160
0.38620493 0.19350070 0.70102566 148 152 155
0.39308408 0.19450641 0.70466930 162 163 167
0.39348400 0.19410287 0.70320731 157 160 162
0.39469942 0.19410287 0.70320731 154 157 159
0.39591488 0.19410287 0.70320731 156 160 161
0.39795595 0.19450641 0.70466930 146 150 151
0.34808910 0.13768592 0.49881667 167 165 160
0.34792718 0.13728185 0.49735278 178 176 171
0.34878680 0.13728185 0.49735278 180 178 173
0.34913415 0.13708071 0.49662405 179 176 172
0.34999251 0.13708071 0.49662405 176 174 171
0.35085088 0.13708071 0.49662405 173 171 170
0.35170928 0.13708071 0.49662405 174 172 172
0.35230955 0.13698035 0.49626049 171 171 171
0.02160792 0.15270628 0.54979062 154 145 148
0.02255819 0.15270628 0.54979062 173 169 171
0.02441912 0.15245898 0.54890031 174 174 174
0.37953869 0.41564426 1.49644995 178 175 175
0.37642390 0.19592804 0.70540255 150 149 151
0.37725055 0.19572437 0.70466930 151 151 153
0.37768331 0.19531831 0.70320731 159 159 161
0.37889877 0.19531831 0.70320731 169 169 171
0.37972030 0.19511591 0.70247859 171 171 172
0.38172561 0.19552113 0.70393753 169 169 170
0.38254505 0.19531831 0.70320731 169 169 170
0.38376051 0.19531831 0.70320731 166 168 169
0.38497594 0.19531831 0.70320731 162 165 165
0.34808910 0.13854809 0.49881667 171 171 165
0.34818265 0.13824292 0.49771795 180 179 172
0.34904289 0.13824292 0.49771795 183 181 174
0.34939012 0.13804021 0.49698815 180 176 170
0.35024911 0.13804021 0.49698815 174 170 164
0.35110810 0.13804021 0.49698815 166 164 159
0.35196713 0.13804021 0.49698815 163 160 155
0.35256764 0.13793908 0.49662405 160 159 160
0.02162546 0.15378128 0.55023688 165 159 159
0.02255819 0.15365656 0.54979062 185 183 185
0.02439936 0.15328360 0.54845619 179 179 177
0.37870270 0.41730955 1.49315381 152 148 149
0.38044551 0.41639239 1.48987222 163 162 162
0.39586130 0.41366491 1.48011315 161 160 159
0.39841956 0.41366491 1.48011315 167 167 167
0.40097782 0.41366491 1.48011315 182 182 184
0.37646788 0.19653374 0.70320731 171 170 171
0.37811428 0.19612685 0.70175141 175 175 174
0.38093448 0.19633009 0.70247859 176 174 173
0.38175306 0.19612685 0.70175141 167 164 164
0.34601182 0.13961571 0.49955183 169 168 166
0.34687525 0.13961571 0.49955183 150 149 147
0.34697160 0.13930774 0.49844989 152 151 149
0.34808910 0.13941026 0.49881667 168 166 163
0.34843847 0.13920538 0.49808365 180 177 173
0.34929937 0.13920538 0.49808365 178 176 171
0.34939012 0.13889922 0.49698815 169 167 162
0.35050610 0.13900112 0.49735278 164 162 157
0.35136572 0.13900112 0.49735278 164 163 157
0.35274294 0.13920538 0.49808365 162 162 155
0.35386384 0.13930774 0.49844989 160 160 157
0.37787041 0.41896749 1.48987222 154 153 157
0.37961122 0.41804871 1.48660493 159 158 160
0.38218069 0.41804871 1.48660493 174 173 174
0.38390827 0.41713393 1.48335195 191 190 190
0.38647211 0.41713393 1.48335195 187 186 186
0.38988912 0.41804871 1.48660493 167 166 166
0.39159983 0.41713393 1.48335195 167 166 166
0.39499888 0.41531637 1.47688854 173 172 173
0.39755154 0.41531637 1.47688854 173 172 172
0.40010422 0.41531637 1.47688854 175 174 178
0.40353608 0.41622317 1.48011315 169 168 172
0.34489420 0.14037570 0.49918398 167 167 166
0.34575701 0.14037570 0.49918398 164 164 164
0.34687525 0.14047915 0.49955183 154 153 153
0.34697160 0.14016928 0.49844989 145 144 144
0.34808910 0.14027241 0.49881667 150 149 148
0.34843847 0.14006628 0.49808365 163 162 160
0.34904289 0.13996345 0.49771795 164 162 160
0.34939012 0.13975821 0.49698815 162 162 158
0.34999251 0.13965583 0.49662405 160 160 156
0.35110810 0.13975821 0.49698815 159 159 155
0.35222536 0.13986076 0.49735278 160 160 156
0.35360384 0.14006628 0.49808365 160 160 157
0.37787041 0.42154261 1.48987222 179 180 183
0.37961122 0.42061818 1.48660493 182 183 184
0.38218069 0.42061818 1.48660493 194 194 194
0.38390827 0.41969779 1.48335195 198 197 196
0.38562828 0.41878143 1.48011315 187 185 185
0.38988912 0.42061818 1.48660493 159 157 157
0.39159983 0.41969779 1.48335195 160 159 161
0.39499888 0.41786906 1.47688854 164 162 164
0.39755154 0.41786906 1.47688854 164 163 165
0.39923444 0.41696063 1.47367787 169 168 171
0.40265691 0.41786906 1.47688854 172 171 175
0.40687585 0.41696063 1.47367787 166 166 172
0.34732237 0.14082371 0.49771795 140 139 141
0.34767210 0.14061722 0.49698815 143 139 138
0.34853110 0.14061722 0.49698815 150 146 145
0.34887856 0.14041135 0.49626049 164 163 160
0.35059404 0.14041135 0.49626049 167 167 163
0.35119471 0.14030863 0.49589747 165 165 161
0.35230955 0.14041135 0.49626049 164 164 161
0.37870270 0.42505193 1.49315381 184 185 187
0.37961122 0.42318767 1.48660493 188 189 188
0.38218069 0.42318767 1.48660493 181 182 180
0.38390827 0.42226166 1.48335195 175 174 172
0.38647211 0.42226166 1.48335195 171 168 167
0.38988912 0.42318767 1.48660493 165 162 161
0.39245859 0.42318767 1.48660493 166 165 165
0.39416367 0.42226166 1.48335195 169 166 169
0.39586130 0.42133969 1.48011315 169 165 168
0.39755154 0.42042172 1.47688854 166 166 168
0.39923444 0.41950777 1.47367787 165 165 169
0.40265691 0.42042172 1.47688854 168 168 174
0.40432870 0.41950777 1.47367787 176 176 183
0.40599325 0.41859779 1.47048128 170 170 178
0.40853485 0.41859779 1.47048128 157 157 165
0.41018668 0.41769171 1.46729839 152 153 158
0.34636477 0.14199674 0.49881667 168 167 167
0.34620792 0.14158003 0.49735278 169 167 168
0.34706753 0.14158003 0.49735278 146 144 145
0.34741738 0.14137258 0.49662405 142 138 139
0.34827578 0.14137258 0.49662405 145 141 142
0.34862334 0.14116575 0.49589747 148 146 147
0.35093796 0.14106256 0.49553499 157 157 153
0.35205182 0.14116575 0.49589747 165 165 161
0.37953869 0.42857671 1.49644995 172 173 177
0.38044551 0.42669287 1.48987222 177 177 179
0.38386431 0.42763272 1.49315381 173 173 174
0.38475016 0.42575714 1.48660493 171 171 169
0.39074603 0.42669287 1.48987222 171 170 168
0.39332113 0.42669287 1.48987222 166 161 162
0.39502805 0.42575714 1.48660493 177 173 174
0.39672753 0.42482549 1.48335195 176 172 173
0.39841956 0.42389792 1.48011315 175 175 175
0.40010422 0.42297441 1.47688854 177 177 178
0.40353608 0.42389792 1.48011315 176 176 178
0.40520960 0.42297441 1.47688854 174 174 181
0.40599325 0.42113939 1.47048128 168 168 176
0.40853485 0.42113939 1.47048128 143 143 152
0.40930074 0.41932020 1.46412921 122 122 129
0.34706753 0.14243966 0.49735278 153 150 151
0.34741738 0.14223096 0.49662405 150 146 147
0.34827578 0.14223096 0.49662405 144 140 141
0.34862334 0.14202286 0.49589747 136 133 134
0.36866885 0.42460203 1.47367787 170 171 171
0.37447226 0.42832661 1.48660493 165 166 166
0.37870270 0.43021351 1.49315381 170 170 170
0.38044551 0.42926800 1.48987222 175 175 175
0.38386431 0.43021351 1.49315381 175 175 175
0.38559577 0.42926800 1.48987222 168 167 166
0.39074603 0.42926800 1.48987222 174 168 168
0.39332113 0.42926800 1.48987222 162 148 150
0.39589626 0.42926800 1.48987222 158 147 148
0.39759755 0.42832661 1.48660493 160 155 154
0.39929137 0.42738935 1.48335195 172 171 171
0.40097782 0.42645618 1.48011315 177 177 176
0.40353608 0.42645618 1.48011315 183 183 183
0.40520960 0.42552710 1.47688854 183 184 185
0.40687585 0.42460203 1.47367787 181 182 184
0.40942296 0.42460203 1.47367787 165 166 167
0.41018668 0.42276394 1.46729839 139 142 143
0.41272280 0.42276394 1.46729839 123 127 128
0.34706753 0.14329930 0.49735278 139 139 141
0.34741738 0.14308932 0.49662405 139 138 141
0.36772048 0.42901444 1.48011315 184 183 182
0.36947206 0.42807978 1.47688854 179 179 177
0.37447226 0.43089610 1.48660493 175 175 173
0.37953869 0.43374971 1.49644995 174 174 174
0.38128349 0.43279430 1.49315381 177 177 177
0.38386431 0.43279430 1.49315381 172 172 172
0.38644511 0.43279430 1.49315381 166 160 160
0.38817090 0.43184310 1.48987222 161 152 153
0.39160669 0.43279430 1.49315381 156 140 143
0.39418748 0.43279430 1.49315381 144 130 132
0.39676827 0.43279430 1.49315381 160 147 149
0.39847139 0.43184310 1.48987222 167 158 159
0.40016702 0.43089610 1.48660493 175 173 171
0.40185523 0.42995322 1.48335195 175 175 173
0.40530598 0.43089610 1.48660493 174 174 174
0.40698293 0.42995322 1.48335195 179 179 179
0.40776229 0.42807978 1.47688854 177 177 177
0.41031495 0.42807978 1.47688854 176 177 177
0.41197011 0.42714918 1.47367787 175 177 177
0.41451722 0.42714918 1.47367787 158 162 162
0.49144238 0.25223187 0.87020773 150 149 151
0.49105537 0.25126421 0.86686939 158 157 157
0.49255368 0.25126421 0.86686939 155 155 155
0.49216390 0.25030398 0.86355650 158 158 158
0.49365649 0.25030398 0.86355650 165 165 165
0.49578065 0.25062323 0.86465794 168 168 166
0.49727514 0.25062323 0.86465794 168 168 166
0.50068551 0.25158593 0.86797929 169 168 166
