ply
format ascii 1.0
element vertex 1097
property float x
property float y
property float z
property uchar red
property uchar green
property uchar blue
end_header
0.12997530 -0.00979704 0.83333481 113 113 120
0.12998875 0.01036887 0.83342122 204 204 213
0.12999518 0.03053737 0.83346248 203 203 210
0.12999936 0.04998673 0.83348940 198 198 206
0.13000185 0.06943622 0.83350532 172 171 176
0.12979877 0.08945973 0.83220335 123 123 128
0.12987170 0.10991882 0.82930994 118 117 122
0.13039153 0.13032922 0.82684007 151 150 150
0.13008676 0.14998636 0.82490734 139 136 137
0.12983875 0.16962392 0.82333444 141 139 140
0.12962484 0.18994495 0.82197771 131 127 128
0.12949368 0.21029211 0.82080366 137 134 134
0.12997232 0.23262936 0.81968921 128 125 124
0.13004464 0.22283664 0.82014516 137 134 130
0.13051064 0.25006162 0.81893800 126 125 127
0.13043629 0.27037471 0.81815547 146 144 141
0.13033865 0.28995541 0.81754306 124 120 119
0.13025528 0.30954028 0.81702028 138 137 134
0.13018659 0.32984262 0.81658930 106 104 102
0.13014711 0.35020223 0.81634161 0 0 0
0.13012610 0.36989634 0.81620990 0 0 0
0.13010407 0.38958094 0.81607184 0 0 0
0.13008058 0.40995933 0.81592456 0 0 0
0.13005430 0.43032121 0.81575982 0 0 0
0.13002519 0.44996008 0.81557726 0 0 0
0.13000465 0.46186962 0.81544848 0 0 0
0.14936070 -0.54993823 0.82900657 0 0 0
0.14939687 -0.53000635 0.82920741 0 0 0
0.14944699 -0.51011230 0.82948573 0 0 0
0.14950580 -0.49023321 0.82981221 0 0 0
0.14975576 -0.47016537 0.83030681 2 3 3
0.14970378 -0.45018055 0.83178004 118 122 122
0.14977102 -0.42932049 0.83128436 58 59 61
0.14979183 -0.40998112 0.83140016 53 54 56
0.14979889 -0.39059993 0.83143940 53 53 57
0.14980555 -0.37049734 0.83147638 59 59 66
0.14981147 -0.35039124 0.83150918 175 176 179
0.14982110 -0.33029164 0.83156269 193 195 197
0.14983754 -0.31020364 0.83165403 194 195 197
0.14985281 -0.29010903 0.83173889 193 194 197
0.14986712 -0.27000851 0.83181841 146 147 150
0.14988229 -0.24990556 0.83190259 48 48 54
0.14989820 -0.22979969 0.83199099 44 44 47
0.14991506 -0.20969090 0.83208471 44 43 47
0.14993433 -0.18958064 0.83219184 48 47 55
0.14995105 -0.16946227 0.83228479 190 191 195
0.14978595 -0.14973924 0.83238808 194 194 200
0.15016853 -0.13035758 0.83248321 193 194 199
0.15000503 -0.11052202 0.83258447 192 192 197
0.15002635 -0.09038802 0.83270267 106 105 111
0.15005334 -0.07025104 0.83285256 40 39 46
0.15007978 -0.05010663 0.83299930 41 41 46
0.15009980 -0.02995388 0.83311052 45 44 51
0.15011700 -0.00979556 0.83320613 113 113 121
0.15012967 0.01036707 0.83327661 203 203 211
0.15013644 0.03053192 0.83331411 200 201 207
0.15014060 0.04997759 0.83333704 190 190 196
0.15014781 0.06942561 0.83337689 165 164 168
0.14991135 0.08944488 0.83206446 125 124 129
0.14982453 0.10989830 0.82920637 120 119 124
0.15038589 0.13031765 0.82676640 148 145 146
0.15003736 0.14997594 0.82485000 147 144 145
0.14975323 0.16961434 0.82328782 147 144 145
0.14950682 0.18993467 0.82193322 148 144 143
0.14995597 0.21027371 0.82076712 145 141 139
0.15062981 0.23251125 0.81965982 136 133 133
0.15027919 0.22275048 0.82011790 140 137 137
0.15037207 0.25009955 0.81890841 145 143 142
0.15023256 0.27037251 0.81814865 128 126 126
0.15011691 0.28994688 0.81751906 132 131 131
0.15002318 0.30953582 0.81700838 114 113 113
0.14994657 0.32984331 0.81659095 100 100 104
0.14990370 0.35020894 0.81635725 0 0 0
0.14987893 0.36990197 0.81622236 0 0 0
0.14985217 0.38958327 0.81607675 0 0 0
0.14982360 0.40995765 0.81592125 0 0 0
0.14979248 0.43031698 0.81575180 0 0 0
0.14975777 0.44995209 0.81556281 0 0 0
0.14973321 0.46185867 0.81542917 0 0 0
0.16942617 -0.54995535 0.82903235 0 0 0
0.16946573 -0.53001814 0.82922583 0 0 0
0.16952037 -0.51011696 0.82949329 0 0 0
0.16958680 -0.49023682 0.82981834 0 0 0
0.16988616 -0.46967438 0.83061988 31 32 31
0.16988818 -0.44964861 0.83202639 119 122 123
0.16988773 -0.42932416 0.83129110 57 58 59
0.16990264 -0.40996354 0.83136445 53 54 56
0.16990856 -0.39057836 0.83139346 54 54 59
0.16991637 -0.37047740 0.83143164 60 60 66
0.16992374 -0.35037374 0.83146769 179 180 183
0.16993460 -0.33027503 0.83152083 193 194 196
0.16995156 -0.31018497 0.83160394 194 195 197
0.16996735 -0.29008898 0.83168133 193 194 196
0.16998079 -0.26998542 0.83174723 143 143 147
0.16999674 -0.24988236 0.83182532 49 49 54
0.17001304 -0.22977602 0.83190519 45 45 50
0.17002941 -0.20966592 0.83198547 45 45 50
0.17004796 -0.18955437 0.83207644 51 51 58
0.17006570 -0.16943753 0.83216315 191 192 195
0.17008604 -0.15003804 0.83226259 194 194 198
0.17010760 -0.13063484 0.83236798 193 193 197
0.17012874 -0.11050702 0.83247145 190 191 195
0.17015412 -0.09037639 0.83259559 104 103 110
0.17018223 -0.07024100 0.83273326 42 41 48
0.17021037 -0.05009894 0.83287115 46 45 51
0.17023004 -0.02994877 0.83296752 51 50 58
0.17024563 -0.00979369 0.83304405 114 114 123
0.17025692 0.01036488 0.83309930 199 199 205
0.17026928 0.03052633 0.83315970 192 192 197
0.17027883 0.04996979 0.83320641 182 181 184
0.17029000 0.06941597 0.83326080 160 160 163
0.17002253 0.08943276 0.83195178 129 128 132
0.16977257 0.10987787 0.82910326 115 115 121
0.17037707 0.13030633 0.82669442 146 143 144
0.16998548 0.14996584 0.82479430 142 140 141
0.16966607 0.16960538 0.82324433 148 143 143
0.16968028 0.19009943 0.82187788 145 141 140
0.17045915 0.21014070 0.82073102 145 142 141
0.17034258 0.23191049 0.81965276 141 138 137
0.17043666 0.22211721 0.82010559 152 149 149
0.17018236 0.25009142 0.81888158 140 138 136
0.17002826 0.27036953 0.81813979 135 132 131
0.16989641 0.28994197 0.81750522 139 137 133
0.16978888 0.30952821 0.81698822 125 123 124
0.16970487 0.32984051 0.81658394 136 135 132
0.16966019 0.35021390 0.81636878 0 0 0
0.16963184 0.36990649 0.81623237 0 0 0
0.16960014 0.38958475 0.81607988 0 0 0
0.16956638 0.40995575 0.81591749 0 0 0
0.16953012 0.43031236 0.81574307 0 0 0
0.16948967 0.44994417 0.81554849 0 0 0
0.16946122 0.46184875 0.81541164 0 0 0
0.18949716 -0.54998470 0.82907658 0 0 0
0.18954005 -0.53004277 0.82926434 0 0 0
0.18960266 -0.51014442 0.82953801 0 0 0
0.18968013 -0.49027133 0.82987671 0 0 0
0.18984169 -0.46984810 0.83151085 65 66 66
0.19001497 -0.44900602 0.83202946 112 115 117
0.18990290 -0.42991872 0.83126270 71 72 75
0.19009420 -0.41055440 0.83130101 75 75 78
0.19000980 -0.39054414 0.83132059 82 83 86
0.19002012 -0.37044797 0.83136561 91 91 98
0.19003126 -0.35035115 0.83141413 157 158 161
0.19004365 -0.33025419 0.83146827 156 157 160
0.19006124 -0.31016308 0.83154522 151 152 156
0.19007745 -0.29006628 0.83161623 144 145 150
0.19009206 -0.26996370 0.83168032 132 132 138
0.19010834 -0.24986025 0.83175159 116 117 121
0.19012387 -0.22975240 0.83181966 120 121 126
0.19014085 -0.20964285 0.83189388 127 127 133
0.19015864 -0.18953053 0.83197169 132 132 138
0.19018096 -0.16941837 0.83206933 112 112 120
0.19020834 -0.15002475 0.83218898 105 105 112
0.19023272 -0.13062351 0.83229562 99 98 105
0.19025502 -0.11049663 0.83239323 92 93 100
0.19028340 -0.09036787 0.83251735 130 130 138
0.19031521 -0.07023455 0.83265657 155 155 160
0.19034381 -0.05009360 0.83278178 165 165 170
0.19036079 -0.02994484 0.83285631 171 171 176
0.19037324 -0.00979214 0.83291096 141 141 148
0.19038600 0.01036323 0.83296679 83 83 90
0.19040160 0.03052177 0.83303496 76 74 82
0.19041598 0.04996329 0.83309762 66 65 71
0.19043201 0.06940826 0.83316775 61 60 65
0.19013593 0.08942415 0.83187230 121 120 123
0.18972186 0.10986102 0.82902729 120 119 125
0.19036779 0.13029709 0.82663561 154 152 153
0.18993261 0.14995703 0.82474587 155 150 150
0.18957568 0.16959540 0.82319593 153 150 148
0.19011315 0.18985564 0.82184692 148 144 145
0.19041530 0.21021431 0.82068259 143 141 141
0.19036673 0.23143462 0.81962994 131 128 127
0.18930918 0.22172372 0.82007997 148 144 142
0.18999494 0.25008804 0.81887035 114 112 113
0.18982463 0.27036838 0.81813625 131 129 128
0.18968060 0.28994554 0.81751543 131 129 127
0.18955731 0.30952660 0.81698403 136 134 134
0.18946302 0.32983801 0.81657772 120 119 117
0.18978125 0.35038748 0.81637642 0 0 0
0.19008985 0.36990948 0.81623898 0 0 0
0.19005308 0.38958534 0.81608114 0 0 0
0.19001414 0.40995396 0.81591396 0 0 0
0.18997220 0.43030752 0.81573392 0 0 0
0.18992600 0.44993706 0.81553560 0 0 0
0.18989399 0.46184108 0.81539809 0 0 0
0.20957572 -0.55002833 0.82914229 0 0 0
0.20962330 -0.53008506 0.82933058 0 0 0
0.20970134 -0.51020646 0.82963909 0 0 0
0.20979931 -0.49035952 0.83002595 0 0 0
0.21014743 -0.47035314 0.83336522 40 41 43
0.20983798 -0.44883275 0.83212182 163 165 166
0.21009255 -0.42998963 0.83118837 191 193 192
0.21010037 -0.41061025 0.83121921 191 194 193
0.21010732 -0.39050939 0.83124665 191 194 194
0.21012545 -0.37042679 0.83131823 190 192 192
0.21014312 -0.35034011 0.83138801 68 69 75
0.21016202 -0.33025188 0.83146256 53 53 59
0.21018126 -0.31016070 0.83153871 51 51 58
0.21019517 -0.29005844 0.83159379 50 50 56
0.21020796 -0.26995213 0.83164452 116 116 123
0.21022081 -0.24984341 0.83169548 191 193 195
0.21023786 -0.22973673 0.83176293 192 193 196
0.21025749 -0.20962943 0.83184067 192 193 197
0.21027668 -0.18951801 0.83191663 190 191 195
0.21030085 -0.16940672 0.83201236 50 49 56
0.21033372 -0.15001633 0.83214230 42 41 46
0.21036077 -0.13061623 0.83224928 40 39 45
0.21038857 -0.11049212 0.83235925 42 41 47
0.21042007 -0.09036428 0.83248398 136 136 143
0.21045413 -0.07023136 0.83261873 191 191 196
0.21048228 -0.05009057 0.83273025 198 198 203
0.21049187 -0.02994176 0.83276858 201 201 205
0.21049476 -0.00979069 0.83278042 143 142 147
0.21051087 0.01036178 0.83284401 44 43 47
0.21053280 0.03051796 0.83293038 40 39 43
0.21055513 0.04995857 0.83301853 38 36 40
0.21057078 0.06940098 0.83308041 38 37 41
0.21025141 0.08941810 0.83181666 117 117 120
0.20972154 0.10988711 0.82896552 124 123 128
0.21035799 0.13028928 0.82658587 152 149 149
0.20987787 0.14994855 0.82469935 154 151 150
0.20958938 0.16967062 0.82314259 146 143 143
0.21041095 0.18978447 0.82180275 146 143 142
0.21026188 0.21020207 0.82063464 150 146 145
0.20999190 0.23118172 0.81958106 159 156 154
0.21011099 0.22139233 0.82004564 165 164 162
0.20980030 0.25007670 0.81883311 135 128 124
0.20961649 0.27036168 0.81811575 116 114 114
0.20956387 0.29002312 0.81749273 131 132 130
0.21003244 0.30952635 0.81698337 130 127 125
0.20992738 0.32983676 0.81657468 114 111 110
0.21021962 0.35005125 0.81638655 0 0 0
0.21054726 0.36991081 0.81624196 0 0 0
0.21050541 0.38958469 0.81607978 0 0 0
0.21046115 0.40995106 0.81590819 0 0 0
0.21041365 0.43030233 0.81572409 0 0 0
0.21036211 0.44993081 0.81552426 0 0 0
0.21032716 0.46183580 0.81538878 0 0 0
0.22966580 -0.55009202 0.82923825 0 0 0
0.22971900 -0.53014867 0.82943021 0 0 0
0.22981907 -0.51029973 0.82979106 0 0 0
0.23007858 -0.49035730 0.83029744 0 0 0
0.23016322 -0.47076159 0.83512813 45 46 50
0.23019639 -0.44840684 0.83202608 172 173 175
0.23019148 -0.42996327 0.83113733 192 194 194
0.23019840 -0.41058226 0.83116254 191 195 195
0.23020422 -0.39047978 0.83118361 192 194 194
0.23022193 -0.37039538 0.83124772 189 191 191
0.23024397 -0.35031447 0.83132731 60 61 64
0.23027087 -0.33023667 0.83142432 47 48 51
0.23029152 -0.31014581 0.83149882 46 46 49
0.23030739 -0.29004532 0.83155611 47 47 50
0.23031478 -0.26993224 0.83158300 118 118 125
0.23032077 -0.24981619 0.83160481 191 193 195
0.23034207 -0.22971422 0.83168158 192 193 197
0.23036325 -0.20960865 0.83175804 193 193 196
0.23037984 -0.18949558 0.83181810 190 190 193
0.23040569 -0.16938613 0.83191136 47 46 51
0.23044272 -0.14999881 0.83204511 40 39 42
0.23047578 -0.13060287 0.83216433 39 38 42
0.23050572 -0.11048062 0.83227245 42 41 46
0.23053611 -0.09035330 0.83238232 136 136 142
0.23056993 -0.07022172 0.83250444 190 190 194
0.23059797 -0.05008310 0.83260565 196 196 200
0.23060224 -0.02993651 0.83262107 197 198 202
0.23060137 -0.00978878 0.83261788 141 140 144
0.23062401 0.01036004 0.83269959 45 42 46
0.23015926 0.03035990 0.83283761 41 39 42
0.22997571 0.04995494 0.83295739 38 36 39
0.22999996 0.06939814 0.83304487 38 37 40
0.23027038 0.08950212 0.83177035 109 108 113
0.22972178 0.10984190 0.82893458 116 114 119
0.23035078 0.13028427 0.82655414 150 147 146
0.22982305 0.14994148 0.82466055 159 156 154
0.22974808 0.16965008 0.82309690 155 153 152
0.23043077 0.18989113 0.82174483 157 153 151
0.23010828 0.21019181 0.82059472 156 152 151
0.22983479 0.23048397 0.81961905 137 133 131
0.22995483 0.22068415 0.82004742 147 145 144
0.22960840 0.25007023 0.81881211 136 134 132
0.22976935 0.27052133 0.81808237 120 117 115
0.23003786 0.28985322 0.81748498 137 135 132
0.23050453 0.30952208 0.81697206 133 132 130
0.23039096 0.32983468 0.81656950 135 134 131
0.23033931 0.35022149 0.81638637 0 0 0
0.23029825 0.36991031 0.81624087 0 0 0
0.23025170 0.38958283 0.81607590 0 0 0
0.23020228 0.40994731 0.81590074 0 0 0
0.23014947 0.43029678 0.81571358 0 0 0
0.23009313 0.44992510 0.81551390 0 0 0
0.23005558 0.46183127 0.81538079 0 0 0
0.24976926 -0.55017482 0.82936308 0 0 0
0.24983002 -0.53023466 0.82956477 0 0 0
0.24995498 -0.51041536 0.82997938 0 0 0
0.25018986 -0.48994518 0.83063367 0 0 0
0.25007948 -0.47068599 0.83561412 57 59 62
0.25045333 -0.44854981 0.83155632 173 176 176
0.25028852 -0.42993816 0.83108857 191 194 193
0.25028633 -0.41054238 0.83108169 192 193 194
0.25029048 -0.39043835 0.83109540 191 193 193
0.25030373 -0.37034718 0.83113946 188 190 190
0.25032353 -0.35026310 0.83120533 54 55 59
0.25035250 -0.33018796 0.83130171 45 46 49
0.25037666 -0.31010219 0.83138194 44 44 47
0.25039572 -0.29000656 0.83144502 46 45 49
0.25040085 -0.26989301 0.83146198 120 120 126
0.25040123 -0.24977371 0.83146341 191 192 195
0.25043024 -0.22968053 0.83155972 192 193 195
0.25045518 -0.20957950 0.83164239 191 192 194
0.25047287 -0.18946892 0.83170092 185 186 188
0.25049647 -0.16935926 0.83177946 43 42 49
0.25053968 -0.14997671 0.83192281 39 39 41
0.25058564 -0.13058882 0.83207522 39 39 42
0.25062210 -0.11047052 0.83219609 44 43 46
0.25064235 -0.09034054 0.83226374 134 134 139
0.25012037 -0.07033923 0.83237702 188 188 191
0.24999607 -0.05007710 0.83250668 191 192 195
0.25000348 -0.02993329 0.83253116 190 190 193
0.25000279 -0.00978776 0.83252889 137 136 139
0.25002889 0.01035904 0.83261564 39 36 39
0.24955274 0.03066244 0.83277756 35 33 36
0.24939755 0.04995220 0.83291020 34 32 35
0.24945508 0.06940298 0.83310135 39 38 41
0.25014797 0.08949410 0.83179757 121 120 122
0.24973096 0.10988108 0.82892014 111 111 115
0.25034648 0.13028155 0.82653708 150 146 146
0.24976992 0.14993657 0.82463352 149 145 146
0.24995594 0.16957930 0.82306553 154 150 148
0.25030539 0.18988369 0.82171235 154 149 147
0.24996093 0.21018852 0.82058150 148 145 145
0.24966184 0.23047851 0.81959986 135 135 134
0.24980083 0.22068645 0.82005597 127 124 128
0.24971027 0.25024069 0.81879099 136 134 133
0.25023619 0.27016728 0.81804400 152 150 147
0.25042167 0.28992449 0.81745574 139 136 134
0.25026894 0.30951641 0.81695714 144 142 139
0.25014512 0.32982800 0.81655298 105 103 104
0.25009153 0.35021796 0.81637800 0 0 0
0.25004770 0.36990760 0.81623490 0 0 0
0.24999672 0.38957929 0.81606849 0 0 0
0.24994249 0.40994265 0.81589147 0 0 0
0.24988450 0.43029075 0.81570217 0 0 0
0.24982361 0.44991933 0.81550343 0 0 0
0.24978358 0.46182671 0.81537273 0 0 0
0.26989026 -0.55028095 0.82952318 0 0 0
0.26996349 -0.53035177 0.82974806 0 0 0
0.27027583 -0.51029171 0.83021390 0 0 0
0.27009140 -0.48952173 0.83128610 13 13 13
0.26973463 -0.47011348 0.83364489 59 59 63
0.27039651 -0.44949190 0.83139714 166 168 169
0.27039773 -0.42993568 0.83108340 190 193 193
0.27036595 -0.41049533 0.83098624 191 193 193
0.27037891 -0.39040564 0.83102607 191 193 193
0.27040744 -0.37033556 0.83111351 186 188 188
0.27042244 -0.35024404 0.83115979 49 50 54
0.27043134 -0.33014280 0.83118786 45 45 48
0.27045919 -0.31006165 0.83127346 44 43 48
0.27049886 -0.28998909 0.83139522 44 44 47
0.27051382 -0.26988617 0.83144089 121 121 126
0.27051252 -0.24976572 0.83143667 186 187 188
0.27053450 -0.22966527 0.83150424 183 183 185
0.27055717 -0.20956222 0.83157391 180 179 180
0.27058268 -0.18945786 0.83165231 172 170 169
0.27005388 -0.16947830 0.83173453 65 61 63
0.26993317 -0.14996640 0.83186542 66 62 60
0.26998215 -0.13057961 0.83201648 68 62 60
0.27002321 -0.11046349 0.83214282 72 67 66
0.27005200 -0.09033654 0.83222997 132 126 126
0.26894858 -0.07020611 0.83231268 167 163 164
0.26865731 -0.05006866 0.83236723 168 163 164
0.26869656 -0.02993131 0.83248675 164 158 157
0.26874148 -0.00978876 0.83262328 137 129 126
0.26880213 0.01036182 0.83281039 78 68 66
0.26949181 0.03060769 0.83331319 76 63 60
0.26985108 0.04994179 0.83365726 83 71 68
0.26982340 0.06945528 0.83373717 80 70 69
0.27004166 0.08943931 0.83188183 116 114 117
0.26974002 0.10983386 0.82892582 116 115 117
0.27034237 0.13027935 0.82652318 147 145 143
0.26971806 0.14993308 0.82461449 156 153 151
0.27016565 0.16951053 0.82304414 152 149 147
0.27018186 0.18987862 0.82169039 152 148 146
0.26981055 0.21018328 0.82056117 151 148 144
0.26954152 0.23051549 0.81956636 154 151 147
0.26963516 0.22067887 0.82002781 140 138 139
0.27020203 0.24988433 0.81877461 145 144 141
0.27039672 0.27033792 0.81804373 135 133 129
0.27020392 0.28992607 0.81746042 123 121 118
0.27003346 0.30951169 0.81694474 139 137 135
0.26989770 0.32982033 0.81653405 128 124 122
0.26984142 0.35021191 0.81636375 7 7 6
0.26979519 0.36990260 0.81622387 0 0 0
0.26974008 0.38957388 0.81605714 0 0 0
0.26968176 0.40993724 0.81588071 0 0 0
0.26961889 0.43028460 0.81569050 0 0 0
0.26955346 0.44991333 0.81549254 0 0 0
0.26951088 0.46182159 0.81536370 0 0 0
0.29003238 -0.55041244 0.82972157 0 0 0
0.29013177 -0.53051620 0.83000548 0 0 0
0.29030422 -0.51001703 0.83049886 0 0 0
0.28994975 -0.48961346 0.83166802 38 37 35
0.28979196 -0.47002130 0.83263604 91 87 84
0.28954079 -0.44989112 0.83165984 158 154 150
0.28926792 -0.43001869 0.83150891 165 162 157
0.28839565 -0.41031711 0.83128238 160 157 151
0.28848361 -0.39034465 0.83145336 155 149 144
0.28849793 -0.37053068 0.83195264 148 142 137
0.29876511 -0.36928656 0.84016526 99 95 86
0.28735750 -0.35062373 0.83186404 115 103 96
0.29825200 -0.34803527 0.84469809 112 101 97
0.28639851 -0.33018293 0.83153068 117 106 96
0.29941262 -0.33330121 0.85025148 112 101 95
0.28622141 -0.31047032 0.83200711 117 106 98
0.29615686 -0.31084974 0.84515423 119 103 98
0.28564509 -0.29050092 0.83241582 130 116 104
0.29578063 -0.28557990 0.84826461 110 99 101
0.28476339 -0.27046961 0.83218411 140 126 120
0.29241796 -0.26628555 0.84279854 120 111 108
0.28437411 -0.25011835 0.83216650 143 130 125
0.29402021 -0.24915102 0.84900311 111 103 99
0.29999861 -0.25002825 0.86464727 96 96 94
0.28360669 -0.22977614 0.83190652 144 127 123
0.29646945 -0.23719031 0.85875359 117 105 99
0.29812064 -0.22880134 0.86353641 108 99 88
0.28367579 -0.21057645 0.83286413 143 125 120
0.29145998 -0.20868119 0.84849116 123 106 101
0.29711233 -0.20750452 0.86494613 116 103 102
0.28362974 -0.18973411 0.83398102 137 123 115
0.28186621 -0.17011023 0.83313186 136 118 111
0.28882637 -0.16956723 0.84721560 118 103 99
0.29723740 -0.17256390 0.86968628 102 92 95
0.28093296 -0.14969402 0.83242695 133 117 104
0.28919834 -0.14964009 0.85046574 112 97 88
0.28131056 -0.13085118 0.83378636 131 109 98
0.28932381 -0.13162447 0.85168974 91 70 61
0.29485015 -0.12483018 0.86708641 73 50 43
0.28060224 -0.11066252 0.83366140 140 121 111
0.28687286 -0.11473733 0.84793702 100 83 76
0.29470047 -0.10931040 0.86973178 81 62 57
0.28122687 -0.09068513 0.83551717 125 106 101
0.28299813 -0.08036590 0.84077954 119 104 97
0.29555579 -0.09330527 0.87360196 71 56 54
0.29842096 -0.08507388 0.88207081 67 58 60
0.28079182 -0.07072615 0.83853056 132 119 110
0.28426505 -0.07038075 0.84646124 121 106 97
0.29352612 -0.06977070 0.87205789 98 83 77
0.29704742 -0.06223510 0.88251959 85 70 66
0.28155014 -0.04984918 0.84079515 133 114 110
0.29532172 -0.04368132 0.87739256 105 89 90
0.29734799 -0.05314411 0.88341256 83 70 67
0.28145485 -0.03021988 0.84051057 128 114 110
0.29533691 -0.02682833 0.87176283 113 107 107
0.29916001 -0.03341077 0.88245447 114 109 104
0.28097044 -0.00406500 0.83906398 125 101 92
0.28946104 -0.00631818 0.85378927 105 99 99
0.29559366 -0.01160748 0.86406568 99 97 101
0.28048226 0.01041805 0.83760612 125 108 97
0.29247573 0.01035167 0.85110859 104 98 95
0.28190543 0.03103730 0.83781742 120 101 94
0.29225633 0.02948724 0.84397783 113 106 102
0.28986588 0.05182680 0.83829269 114 102 98
0.29360279 0.04263304 0.84073466 109 100 98
0.29020173 0.06976884 0.83533091 112 104 102
0.28998417 0.08941563 0.83194054 113 112 117
0.28975108 0.10988072 0.82891810 122 122 123
0.29033689 0.13027683 0.82650730 151 147 146
0.28966458 0.14992927 0.82459344 150 146 146
0.29032751 0.16948823 0.82302459 157 155 152
0.29005959 0.18987507 0.82167496 150 147 146
0.28965925 0.21017804 0.82054095 149 146 145
0.29000647 0.23035612 0.81958009 140 137 135
0.28663525 0.22067257 0.82000440 150 149 148
0.29043847 0.25004812 0.81873967 151 150 146
0.29018619 0.27033282 0.81802832 139 135 130
0.28997357 0.28991492 0.81742900 149 148 144
0.28994898 0.30976358 0.81691432 137 135 132
0.28949104 0.33004979 0.81650557 132 130 128
0.28958593 0.35020020 0.81633637 13 13 12
0.28953948 0.36989421 0.81620535 0 0 0
0.28948137 0.38956642 0.81604151 0 0 0
0.28985370 0.41010366 0.81586590 0 0 0
0.29005735 0.43027802 0.81567803 0 0 0
0.28998746 0.44990722 0.81548147 0 0 0
0.28994199 0.46181587 0.81535358 0 0 0
0.31024327 -0.55051037 0.82995182 0 0 0
0.31029410 -0.52995987 0.83033342 0 0 0
0.31046217 -0.50952733 0.83079211 0 0 0
0.31637508 -0.50270318 0.85342416 101 105 104
0.31810888 -0.50395972 0.86772794 105 106 103
0.30774363 -0.49404951 0.83252952 32 31 28
0.31048642 -0.49007354 0.84998270 107 107 100
0.31845136 -0.48862686 0.87309348 103 108 105
0.30147895 -0.46982376 0.83561238 131 123 109
0.30848924 -0.47872923 0.85096616 113 110 99
0.31469771 -0.47049117 0.86857892 112 107 104
0.31973091 -0.46617149 0.88197625 111 105 111
0.30118574 -0.45298919 0.83766521 130 121 111
0.30406044 -0.45090098 0.84478406 125 114 107
0.31523528 -0.45764207 0.87374093 112 109 109
0.31891679 -0.45116327 0.88394500 109 107 105
0.30391842 -0.42998324 0.84836010 124 117 105
0.31245019 -0.43435325 0.87019027 113 111 105
0.31781744 -0.42728331 0.88513835 109 106 103
0.30579733 -0.41016226 0.85578120 115 109 103
0.31981448 -0.41843962 0.89070019 104 105 101
0.30684958 -0.39673853 0.85872597 106 105 103
0.30939465 -0.38653250 0.86584838 106 100 99
0.31657517 -0.38285952 0.88852233 107 101 101
0.30245784 -0.37090217 0.85054970 102 99 97
0.31091596 -0.37826066 0.87433499 107 106 105
0.31785541 -0.37516785 0.89457086 101 95 97
0.30243596 -0.35127366 0.85464218 102 97 96
0.30871660 -0.35555044 0.87239039 101 97 99
0.31694379 -0.35650859 0.89563930 100 98 98
0.31937205 -0.34754411 0.90250122 98 96 95
0.30086009 -0.32309872 0.85436192 101 94 90
0.30888816 -0.32035474 0.87715948 102 96 95
0.31455665 -0.32313807 0.89325647 99 95 93
0.31826193 -0.32148109 0.90377849 96 95 93
0.30152424 -0.31571675 0.85835114 105 96 93
0.30554563 -0.31201087 0.87087813 105 93 89
0.30983149 -0.30227814 0.88417806 105 94 96
0.31986008 -0.31917435 0.90831679 95 95 95
0.30330830 -0.28234951 0.86985308 106 101 102
0.31270908 -0.29210315 0.89435081 97 95 95
0.31601505 -0.28764618 0.90436952 99 97 98
0.31791093 -0.27781825 0.91173173 100 97 97
0.30381828 -0.25093768 0.87565619 97 95 95
0.30930464 -0.25316169 0.89146882 95 94 94
0.31654113 -0.25513211 0.91232564 98 97 98
0.31989662 -0.25386310 0.92199671 101 100 96
0.30132220 -0.22145684 0.87281007 106 90 90
0.30103302 -0.20797366 0.87635994 112 106 105
0.30649569 -0.21001256 0.89054168 110 97 94
0.31375239 -0.21802888 0.90881535 101 89 89
0.31776173 -0.21843188 0.92042881 96 90 90
0.30894159 -0.19944683 0.89938319 104 97 95
0.31233760 -0.19533273 0.90926958 95 91 91
0.31764557 -0.18987529 0.92472200 91 88 92
0.30377831 -0.17406138 0.88882428 103 93 97
0.31145918 -0.17372543 0.91129773 101 88 91
0.31664434 -0.16620807 0.92646899 86 81 84
0.31887736 -0.15046042 0.93300256 74 72 73
0.30164721 -0.11621884 0.88707501 65 54 54
0.31068929 -0.11337436 0.91366570 63 50 51
0.31461546 -0.10441805 0.92521165 60 51 54
0.30166090 -0.08214123 0.89164740 55 47 48
0.31782672 -0.09255385 0.93465524 62 53 55
0.31972010 -0.08255796 0.94022322 62 52 60
0.30401724 -0.07968112 0.89861226 55 45 50
0.30868396 -0.07220410 0.91240613 56 45 50
0.31154397 -0.06255372 0.92085973 50 41 41
0.31994282 -0.07529769 0.94087818 64 53 59
0.30319234 -0.04184987 0.89502613 116 106 102
0.31191648 -0.04581118 0.91048159 103 98 97
0.31707778 -0.05179042 0.92743557 77 72 74
0.30730357 -0.02248074 0.87695406 105 102 103
0.31097618 -0.03103719 0.88818468 118 112 112
0.31616112 -0.03892050 0.90334529 127 124 122
0.30348074 -0.00044870 0.85969298 97 98 101
0.31028781 -0.00956661 0.86715725 98 97 102
0.30982440 0.01003232 0.85430495 98 93 94
0.31779816 0.00103787 0.86023835 87 85 88
0.31001251 0.02952373 0.84565492 113 105 101
0.30970472 0.05410967 0.83874277 103 97 93
0.31045618 0.04409284 0.84113200 115 106 102
0.31001866 0.06958436 0.83555543 114 109 107
0.30996156 0.08941224 0.83194186 114 113 118
0.30980701 0.10987994 0.82891255 118 117 120
0.31032880 0.13027357 0.82648659 151 149 146
0.30966365 0.14997212 0.82457068 156 154 153
0.31039033 0.16950936 0.82300626 153 151 149
0.30993927 0.18987318 0.82166674 144 140 138
0.30961323 0.21025808 0.82051773 159 155 150
0.31011507 0.22997950 0.81957490 134 131 132
0.31498074 0.22067205 0.82000245 124 117 116
0.31024232 0.25004172 0.81871860 147 143 139
0.30997583 0.27032847 0.81801545 138 134 129
0.30974723 0.28990903 0.81741225 131 129 128
0.30954889 0.31019632 0.81688874 136 133 131
0.30990332 0.33063650 0.81646837 152 152 149
0.31003019 0.35018350 0.81629741 25 25 24
0.30998349 0.36988020 0.81617441 0 0 0
0.30992440 0.38955558 0.81601877 0 0 0
0.31027256 0.40974683 0.81585255 0 0 0
0.31049525 0.43027153 0.81566570 0 0 0
0.31042171 0.44990228 0.81547250 0 0 0
0.31037326 0.46181112 0.81534520 0 0 0
0.33037120 -0.55000097 0.83018356 0 0 0
0.33050148 -0.52952805 0.83063103 0 0 0
0.33634053 -0.52317005 0.89149752 98 105 105
0.32995052 -0.50959802 0.83106896 0 0 0
0.33060755 -0.50399601 0.84600721 76 84 81
0.32505856 -0.50943987 0.87463693 101 104 103
0.33328952 -0.50941704 0.89011486 100 104 104
0.32623650 -0.49818599 0.83206054 11 12 12
0.32217930 -0.49347474 0.87766853 102 106 105
0.33137953 -0.48980259 0.89035568 99 104 106
0.33901311 -0.48157352 0.90080690 98 103 105
0.32030830 -0.47847700 0.87937626 111 106 105
0.32718842 -0.47121670 0.89093227 102 104 107
0.33659830 -0.46859132 0.90477672 99 101 105
0.32505009 -0.45077388 0.89407897 104 105 104
0.33464173 -0.45027831 0.90822989 99 102 104
0.32437684 -0.43319486 0.89581812 102 103 104
0.33265990 -0.42877730 0.90972366 100 100 104
0.32156281 -0.41220257 0.89556940 105 103 104
0.33034452 -0.41019258 0.91045635 97 98 101
0.33883591 -0.40910734 0.92207342 93 98 101
0.32106761 -0.38716877 0.89851546 104 99 99
0.32849567 -0.38985973 0.91086070 96 97 98
0.33676347 -0.38803413 0.92373695 93 95 98
0.32626700 -0.37170954 0.91477229 96 95 98
0.33483520 -0.37006272 0.92687601 91 93 97
0.32543828 -0.34883718 0.91580209 95 95 94
0.33398598 -0.34979165 0.92714265 91 92 93
0.32400922 -0.33167896 0.91385252 94 94 93
0.33362894 -0.32913445 0.92858159 90 91 94
0.32212261 -0.31351496 0.91474179 94 94 97
0.33273565 -0.30992361 0.93196321 91 92 96
0.33938516 -0.30209234 0.94067740 89 89 93
0.32162219 -0.29554709 0.91782564 93 95 92
0.33067624 -0.29024917 0.93479274 92 93 95
0.33804926 -0.28944566 0.94172310 90 90 94
0.32068171 -0.27547892 0.91967803 99 96 99
0.32804647 -0.27552380 0.93521676 95 95 98
0.33454411 -0.26861448 0.94563738 90 92 97
0.32353504 -0.25190312 0.93248328 91 92 97
0.33608378 -0.25039508 0.95299329 87 89 98
0.33634908 -0.25046073 0.96302332 88 90 98
0.33614125 -0.23115467 0.95653743 85 87 92
0.33480260 -0.22329868 0.96196208 88 88 92
0.32273306 -0.21375417 0.93482876 96 88 85
0.33448969 -0.21225300 0.95561676 85 85 88
0.33632882 -0.20854964 0.96244494 83 83 89
0.32161509 -0.18739803 0.93627796 88 87 93
0.32812228 -0.18984921 0.95263651 87 85 90
0.33645368 -0.19015162 0.96623834 81 81 89
0.32931743 -0.17863111 0.95870084 85 79 82
0.33537831 -0.17075921 0.96968598 82 80 85
0.33063541 -0.14895116 0.95832165 58 53 55
0.33483951 -0.14901628 0.96464000 61 57 59
0.32070586 -0.13915853 0.93835258 60 52 52
0.32535783 -0.12696617 0.94980863 55 50 51
0.33464216 -0.13071613 0.96330777 53 49 50
0.32801601 -0.10945594 0.95315236 56 49 52
0.33658264 -0.11044000 0.96368247 54 48 50
0.32880220 -0.08980605 0.95307368 57 49 53
0.33758393 -0.08920852 0.96289753 54 47 51
0.32924306 -0.06940361 0.95168639 53 48 52
0.33826994 -0.07298151 0.96118512 51 47 51
0.32734805 -0.04169722 0.91719492 117 116 114
0.32949798 -0.04747708 0.93049019 91 86 88
0.33179650 -0.05568998 0.94647494 69 64 67
0.32113102 -0.02022201 0.87954760 100 101 105
0.32976612 -0.02603406 0.88939896 122 119 119
0.33105778 -0.03613310 0.90688972 118 116 113
0.32981359 -0.00914052 0.87019078 103 101 104
0.33611720 -0.01873204 0.88097061 117 116 117
0.32963144 0.01143785 0.85528879 91 89 89
0.33188608 0.00203073 0.86120954 89 87 88
0.32998116 0.02961495 0.84678333 106 102 99
0.32957803 0.05479713 0.83884522 109 102 95
0.33040262 0.04496988 0.84145141 120 111 105
0.33005405 0.06955955 0.83561891 113 110 109
0.32998344 0.08940317 0.83192632 114 114 116
0.32985256 0.10987584 0.82888159 120 120 122
0.33026780 0.13031626 0.82645516 144 141 140
0.32971064 0.14996173 0.82455305 139 137 137
0.33035017 0.16955148 0.82298295 159 156 153
0.32981292 0.18986798 0.82164458 146 143 142
0.32982114 0.21025949 0.82051400 135 131 130
0.33056477 0.23004462 0.81954258 148 145 143
0.32490302 0.22067281 0.82000531 131 123 123
0.33005159 0.25004019 0.81871362 144 141 137
0.32976072 0.27032094 0.81799233 134 132 129
0.32952218 0.28990481 0.81740044 138 136 131
0.33001333 0.31018835 0.81686779 140 140 136
0.33033698 0.33034947 0.81644646 141 138 135
0.33046793 0.35016190 0.81624712 33 32 31
0.33042086 0.36986048 0.81613081 0 0 0
0.33036375 0.38954171 0.81598967 0 0 0
0.33030009 0.40991299 0.81583239 0 0 0
0.33022792 0.43026542 0.81565410 0 0 0
0.33015190 0.44989887 0.81546631 0 0 0
0.33010117 0.46180874 0.81534099 0 0 0
0.35475568 -0.56003274 0.83016348 0 0 0
0.35028400 -0.54983302 0.83039598 0 0 0
0.35702408 -0.54170516 0.91667923 95 104 101
0.35977286 -0.54474950 0.92208982 96 105 104
0.34998335 -0.52959150 0.83088577 0 0 0
0.34093552 -0.52079952 0.87769824 95 105 97
0.34719385 -0.52989014 0.89651995 96 103 101
0.34979968 -0.52947725 0.91104865 98 102 103
0.35842805 -0.53026572 0.92185211 97 101 102
0.34903277 -0.51083239 0.83156543 2 3 3
0.34936445 -0.51019055 0.84912056 80 88 89
0.34801971 -0.51597041 0.86327145 97 105 107
0.34172928 -0.50511953 0.89975960 97 101 101
0.34858122 -0.51016913 0.90866887 98 102 103
0.35872419 -0.50966373 0.92349308 96 100 102
0.34012573 -0.48949808 0.89963159 97 104 106
0.34749550 -0.48959880 0.90872914 95 101 103
0.35824018 -0.48789313 0.92368259 95 99 102
0.34577418 -0.47060452 0.91360348 97 100 103
0.35496687 -0.46763872 0.92450402 96 98 100
0.34155479 -0.45326167 0.91793730 96 99 101
0.35119279 -0.44964727 0.92837899 96 97 100
0.34970699 -0.43033658 0.93246407 95 97 100
0.35875109 -0.42630078 0.94029817 91 95 96
0.34879875 -0.41021124 0.93294686 92 96 99
0.35784525 -0.40920280 0.94143521 90 94 99
0.34658901 -0.39065581 0.93508884 91 94 97
0.35586030 -0.38881741 0.94310257 90 93 98
0.34390165 -0.37076653 0.93705076 88 92 96
0.35334152 -0.36943152 0.94468127 88 91 97
0.34287217 -0.34981423 0.93646829 90 92 93
0.35275438 -0.35021138 0.94571266 89 91 94
0.34291917 -0.33086273 0.93750683 89 91 95
0.35300000 -0.32965876 0.94735586 88 89 94
0.34172285 -0.31392510 0.93885300 89 91 97
0.35029131 -0.30952068 0.94701702 88 90 95
0.34919212 -0.28959246 0.94919425 87 90 94
0.34816569 -0.27042531 0.95330564 87 88 94
0.35787292 -0.26680309 0.96196387 85 86 94
0.34551917 -0.25036130 0.95598167 85 87 95
0.35562678 -0.24945790 0.96406194 83 83 93
0.34398130 -0.23010325 0.95742527 82 84 90
0.35389718 -0.23000727 0.96500798 80 82 89
0.34220161 -0.21630428 0.95920485 81 82 87
0.35016566 -0.20907870 0.96584351 79 81 89
0.34875675 -0.18935550 0.96950898 78 80 88
0.34910389 -0.17067041 0.97659492 78 78 86
0.35468724 -0.16470707 0.98091305 76 78 86
0.34950934 -0.14973730 0.97170965 56 53 56
0.35915636 -0.15995727 0.98137313 76 75 82
0.34957056 -0.13026374 0.97120874 50 47 49
0.34923935 -0.11012029 0.97040994 51 47 49
0.34938934 -0.09065888 0.97131818 51 46 50
0.34931859 -0.06973516 0.96922453 49 46 49
0.34835440 -0.04261687 0.93082325 119 116 116
0.34924050 -0.05066461 0.95038211 82 78 81
0.35407027 -0.05668781 0.96450990 68 64 65
0.34974929 -0.02440850 0.89166235 127 122 121
0.34993429 -0.03379118 0.90912610 132 128 127
0.35461748 -0.03877718 0.92317850 111 110 106
0.34975868 -0.00777299 0.87130236 110 108 107
0.35115871 -0.01774302 0.88220472 118 111 112
0.34972600 0.01253572 0.85564484 89 85 86
0.35078256 0.00300289 0.86184466 96 95 92
0.35002732 0.02954674 0.84738427 103 99 98
0.34989706 0.05533969 0.83888627 111 103 96
0.35002171 0.04535387 0.84164692 116 108 103
0.35003031 0.06958037 0.83564770 116 112 109
0.35000025 0.08939296 0.83190043 108 108 112
0.34989449 0.10987109 0.82884552 117 117 120
0.35020393 0.13026571 0.82643672 140 139 137
0.34980749 0.14997546 0.82453078 157 155 153
0.35025811 0.16954838 0.82296772 151 148 146
0.34968869 0.18986461 0.82162977 150 147 145
0.35016154 0.21007815 0.82049501 156 154 151
0.35022323 0.22975806 0.81955736 136 134 130
0.34986417 0.25004123 0.81871727 142 140 137
0.34954846 0.27031628 0.81797827 146 143 141
0.34995430 0.28994356 0.81738588 139 137 134
0.35047609 0.31017980 0.81684531 144 141 136
0.35029229 0.33047863 0.81641695 138 133 127
0.35019662 0.35013911 0.81619408 40 38 36
0.35014881 0.36983868 0.81608264 0 0 0
0.35009504 0.38952627 0.81595726 0 0 0
0.35003253 0.40990251 0.81581151 0 0 0
0.34995986 0.43025911 0.81564209 0 0 0
0.34988249 0.44989636 0.81546174 0 0 0
0.34982985 0.46180763 0.81533903 0 0 0
0.37060917 -0.56013794 0.83031941 0 0 0
0.36996917 -0.54952656 0.83061563 0 0 0
0.37040669 -0.54514176 0.91210645 94 103 101
0.37210111 -0.54754889 0.93129842 96 102 102
0.36956310 -0.52983857 0.83119393 0 0 0
0.37186225 -0.52573781 0.87017588 87 103 101
0.36547672 -0.53338765 0.88940622 94 104 105
0.36903780 -0.53051055 0.93221205 95 100 101
0.37867441 -0.52856029 0.94093978 94 100 100
0.36911108 -0.51401837 0.83195915 1 1 1
0.36833070 -0.51427239 0.84696972 68 76 80
0.36872781 -0.51017669 0.93375625 94 100 101
0.37817954 -0.50864939 0.94176696 92 96 99
0.36747649 -0.49044263 0.93347790 95 99 101
0.37684005 -0.48851517 0.94331644 94 98 99
0.36490838 -0.47120368 0.93465823 94 98 101
0.37445649 -0.46872634 0.94551421 93 97 99
0.36231224 -0.45330860 0.93763768 96 97 99
0.37138291 -0.44945470 0.94880433 93 97 99
0.37975472 -0.44128716 0.96053761 94 96 98
0.36884329 -0.43076360 0.95146425 91 95 97
0.37832565 -0.42682407 0.96224994 89 94 97
0.36668038 -0.41025414 0.95198766 91 94 99
0.37659720 -0.40876836 0.96358596 90 94 97
0.36552013 -0.39017470 0.95319666 89 91 97
0.37563908 -0.38934876 0.96589803 89 92 98
0.36407683 -0.37077072 0.95497018 89 92 97
0.37382924 -0.36955283 0.96741417 88 92 96
0.36264718 -0.35107194 0.95657193 87 91 95
0.37264275 -0.35025907 0.96908706 87 90 95
0.36204951 -0.32987607 0.95761993 89 89 94
0.37124819 -0.33001996 0.96841669 89 89 95
0.36146374 -0.31022682 0.95825855 87 89 96
0.37070636 -0.30969218 0.96851843 87 89 96
0.36062085 -0.29364555 0.95822179 84 90 94
0.37007385 -0.28972626 0.96926499 86 88 94
0.37925899 -0.28274465 0.98072132 86 87 93
0.36808466 -0.27028902 0.97110278 84 87 94
0.37797330 -0.26746042 0.98207771 85 86 93
0.36632636 -0.25061651 0.97380831 82 83 92
0.37602176 -0.24964091 0.98354614 79 82 90
0.36478292 -0.23040242 0.97520665 79 81 89
0.37474322 -0.22968665 0.98549921 80 81 89
0.36368087 -0.21066351 0.97702400 78 81 88
0.37311088 -0.20958252 0.98637958 77 80 87
0.36194726 -0.19247273 0.97768420 77 79 86
0.37158286 -0.18973224 0.98762832 77 79 86
0.36011111 -0.17740211 0.97935662 77 78 83
0.36984159 -0.17003924 0.98933913 77 79 83
0.36200066 -0.14932141 0.97836196 51 49 51
0.37192286 -0.15001126 0.98734948 51 50 51
0.36164354 -0.12994483 0.97892268 50 46 49
0.37110404 -0.13004616 0.98830845 49 45 48
0.36186619 -0.10971116 0.97952536 49 46 47
0.37162447 -0.10999085 0.98968936 48 46 47
0.36013967 -0.09192596 0.97943427 48 46 48
0.36966256 -0.09003446 0.98914487 49 46 48
0.37996147 -0.08870885 1.00042343 49 45 48
0.36199660 -0.06458415 0.97835267 50 48 50
0.37067768 -0.07077315 0.98876804 48 46 48
0.37990667 -0.07745836 1.00027913 47 46 48
0.36877369 -0.04139961 0.93507092 140 136 135
0.37012046 -0.04578347 0.94953322 100 100 99
0.36974117 -0.05374583 0.96992640 76 73 74
0.37526479 -0.05798749 0.98283430 70 62 62
0.37017413 -0.02360074 0.89293428 135 132 132
0.36959665 -0.03191157 0.90903279 135 131 130
0.37004425 -0.03801043 0.92472147 113 110 110
0.37008254 -0.00724073 0.87184934 109 107 107
0.37006458 -0.01725640 0.88325289 121 117 119
0.37000316 0.01288364 0.85601992 101 98 97
0.37002499 0.00327395 0.86240646 102 97 97
0.36998151 0.02961391 0.84766481 102 97 96
0.37010258 0.05538626 0.83893139 116 109 105
0.36998730 0.04535376 0.84177213 118 110 104
0.36992838 0.06962963 0.83561193 121 119 115
0.37012892 0.08954034 0.83181635 117 117 120
0.36980134 0.11000617 0.82876702 120 120 121
0.37018209 0.13025874 0.82639252 139 138 137
0.36989387 0.14992980 0.82449683 148 146 144
0.37015700 0.16954143 0.82293407 154 153 149
0.36965735 0.18994478 0.82159997 148 146 144
0.37036044 0.21007460 0.82047245 158 154 150
0.37004425 0.22975152 0.81953423 146 145 143
0.36966195 0.25003225 0.81868748 138 136 134
0.36980971 0.27047323 0.81798383 129 126 124
0.37042367 0.28984551 0.81736483 137 136 132
0.37023257 0.31017189 0.81682448 138 135 132
0.37003644 0.33046843 0.81639177 130 129 125
0.36992575 0.35011915 0.81614765 46 45 46
0.36987475 0.36981717 0.81603516 0 0 0
0.36982334 0.38950931 0.81592169 0 0 0
0.36976230 0.40989020 0.81578696 0 0 0
0.36969012 0.43025153 0.81562768 0 0 0
0.36961195 0.44989275 0.81545518 0 0 0
0.36955737 0.46180521 0.81533477 0 0 0
0.39006661 -0.56025735 0.83049642 0 0 0
0.39023566 -0.56089578 0.93529137 97 103 103
0.39479315 -0.56366001 0.94592424 96 101 101
0.38955859 -0.54967049 0.83084127 0 0 0
0.39240516 -0.54222902 0.89301112 81 102 104
0.38621712 -0.54775529 0.90815904 91 100 103
0.38303239 -0.55208362 0.93780627 95 100 100
0.39216610 -0.54883822 0.94647414 95 98 99
0.38985048 -0.53007468 0.83156519 0 0 0
0.39041933 -0.52333789 0.85370547 74 92 91
0.39511599 -0.53180329 0.87005119 86 97 97
0.38169288 -0.53325529 0.88073152 88 102 104
0.38974870 -0.53018859 0.94945828 94 99 100
0.38892646 -0.51679096 0.83271030 5 6 6
0.38673291 -0.51706869 0.84197599 54 64 63
0.38943461 -0.51055630 0.95174002 94 98 99
0.39841746 -0.50640038 0.96105849 93 98 100
0.38689493 -0.49067609 0.95295617 93 98 100
0.39701815 -0.48892471 0.96301933 93 97 99
0.38460892 -0.47106008 0.95541596 92 97 98
0.39439891 -0.46900358 0.96555220 91 96 98
0.38201667 -0.45464661 0.95788308 91 97 99
0.39098426 -0.44961917 0.96894404 90 95 98
0.39945730 -0.44192642 0.98037070 89 93 99
0.38804875 -0.43095630 0.97175780 90 94 97
0.39760642 -0.42840762 0.98240693 90 92 96
0.38576826 -0.41072267 0.97360172 90 92 97
0.39567080 -0.40965320 0.98470054 88 91 97
0.38363382 -0.39081127 0.97546113 87 91 96
0.39348750 -0.38963021 0.98698856 87 92 94
0.38182415 -0.37134191 0.97733167 88 92 95
0.39228127 -0.36949323 0.98938630 87 90 94
0.38013074 -0.34471721 0.97860170 88 89 95
0.39148710 -0.35018564 0.99026918 87 89 94
0.38012177 -0.32940916 0.97857863 88 90 94
0.39121688 -0.32994034 0.98964489 87 89 93
0.38023956 -0.30928596 0.97888186 85 89 95
0.39109634 -0.31037565 0.99000204 86 89 94
0.38056596 -0.29769770 0.97972214 82 89 96
0.38965871 -0.29022337 0.99070853 85 86 93
0.39944222 -0.28615898 1.00157707 84 86 91
0.38734079 -0.27036424 0.99168804 84 86 91
0.39713509 -0.26781121 1.00278038 83 84 90
0.38541052 -0.25018786 0.99364964 79 82 88
0.39550697 -0.24914335 1.00476411 79 82 87
0.38416579 -0.22999944 0.99562593 80 80 88
0.39445462 -0.22990737 1.00615277 78 80 87
0.38357070 -0.21072833 0.99687624 78 79 87
0.39388197 -0.20966178 1.00661677 76 78 85
0.38199462 -0.19098247 0.99802616 77 79 86
0.39202835 -0.18946150 1.00750291 77 79 86
0.38131748 -0.17069101 0.99879857 75 75 81
0.39119664 -0.17029803 1.00823891 73 75 81
0.38275587 -0.14948998 0.99768917 48 48 48
0.39276847 -0.15003218 1.00722011 47 47 49
0.38120056 -0.13492386 0.99823318 49 46 49
0.39133249 -0.12960441 1.00997289 48 45 48
0.39097266 -0.11000608 1.01106971 47 46 48
0.38994780 -0.08967811 1.01062365 47 45 46
0.39983051 -0.09046551 1.02023714 46 45 46
0.38448528 -0.06288277 0.99757991 59 55 55
0.39152098 -0.07094158 1.00852419 47 45 45
0.39017341 -0.04092249 0.93574742 152 148 143
0.39000367 -0.04479768 0.94914219 100 99 100
0.38997611 -0.05072783 0.97034889 91 88 90
0.39017939 -0.05673286 0.98848871 66 62 64
0.38942246 -0.02328272 0.89355877 132 130 129
0.39008929 -0.03128553 0.90954888 135 129 128
0.39042265 -0.03793954 0.92661973 125 120 117
0.38992281 -0.00665175 0.87192471 115 111 111
0.39069626 -0.01662604 0.88345625 130 127 126
0.38988313 0.01351074 0.85591819 109 106 104
0.39009908 0.00394904 0.86240368 115 112 109
0.38999583 0.02959997 0.84772312 95 93 91
0.39013424 0.05545152 0.83884883 122 113 111
0.38989146 0.04543748 0.84172753 124 116 109
0.38989763 0.06962117 0.83551616 118 116 114
0.39001829 0.09016103 0.83161101 115 115 118
0.38989554 0.11055664 0.82860867 111 113 114
0.39019730 0.13020178 0.82633034 136 135 135
0.38996875 0.14991523 0.82443649 152 150 148
0.39004915 0.16953232 0.82288957 146 142 141
0.38980824 0.18994361 0.82156971 150 150 147
0.39009417 0.21925257 0.81999433 151 151 149
0.39032895 0.20945575 0.82048786 153 151 148
0.38985926 0.22974199 0.81950056 155 153 148
0.38966241 0.25017243 0.81866987 130 128 127
0.39027359 0.27015008 0.81795449 143 142 139
0.39024446 0.28988358 0.81734067 138 136 131
0.38998943 0.31016507 0.81680656 130 128 123
0.38978092 0.33045957 0.81636988 151 151 146
0.38965564 0.35010188 0.81610755 77 76 74
0.38960150 0.36979860 0.81599414 0 0 0
0.38955117 0.38949358 0.81588871 0 0 0
0.38949066 0.40987765 0.81576195 0 0 0
0.38988259 0.43039728 0.81561064 0 0 0
0.39004405 0.44988711 0.81544495 0 0 0
0.38998759 0.46180076 0.81532691 0 0 0
0.40955891 -0.56041279 0.83072684 0 0 0
0.40826327 -0.56555633 0.93275233 86 101 105
0.41069784 -0.56932043 0.95517576 94 100 101
0.41770462 -0.56448166 0.96178059 94 98 98
0.40976372 -0.54991704 0.83114202 0 0 0
0.41121721 -0.54741799 0.89308127 93 100 103
0.41685039 -0.55369125 0.90415949 92 100 104
0.40479313 -0.55208798 0.95609950 94 98 98
0.41384320 -0.54895328 0.96475528 93 97 99
0.41012226 -0.53021354 0.83220413 1 1 1
0.41069030 -0.52583497 0.84790892 79 89 92
0.41261505 -0.53573604 0.86809608 86 99 99
0.40187168 -0.53213634 0.95868456 93 98 100
0.41159996 -0.52964496 0.96752592 93 97 101
0.40367556 -0.51908977 0.83315715 11 12 12
0.41004387 -0.50989170 0.97071250 93 97 101
0.40883850 -0.49032692 0.97307760 92 96 97
0.41845768 -0.48692501 0.98148261 93 96 98
0.40590300 -0.47114819 0.97528407 92 96 98
0.41521991 -0.46835287 0.98373916 91 95 97
0.40203560 -0.45504638 0.97762664 91 95 98
0.41140822 -0.44952348 0.98779004 88 94 98
0.40917095 -0.43078256 0.99254215 88 93 96
0.41831529 -0.42548984 1.00151650 85 94 94
0.40587768 -0.41058512 0.99488547 87 92 96
0.41561888 -0.40925730 1.00320090 88 92 97
0.40351805 -0.39069900 0.99686720 87 91 94
0.41373522 -0.38943637 1.00470995 87 91 94
0.40211117 -0.37191748 0.99834205 86 90 95
0.41202555 -0.37008791 1.00535662 86 90 94
0.40215071 -0.34869595 0.99970320 86 89 94
0.41128922 -0.35018763 1.00572072 86 88 95
0.40194188 -0.32951574 0.99918409 87 88 94
0.41187936 -0.32993207 1.00650954 86 88 94
0.40077257 -0.30932214 0.99949780 87 89 94
0.41095400 -0.30993533 1.00754011 84 86 94
0.41072238 -0.29024399 1.01043119 84 85 91
0.40989256 -0.27048525 1.01300042 81 83 90
0.41902620 -0.26166397 1.02081904 79 82 89
0.40709560 -0.25061271 1.01490332 77 81 86
0.41655653 -0.24916574 1.02117954 78 81 86
0.40652702 -0.22995760 1.01618129 78 79 87
0.41597027 -0.22965526 1.02183121 78 79 86
0.40722881 -0.20935537 1.01629052 77 78 85
0.41724685 -0.20992274 1.02140328 78 78 85
0.40653905 -0.19006411 1.01718775 76 79 85
0.41623785 -0.19008937 1.02123504 75 77 84
0.40597660 -0.17008514 1.01726816 69 69 77
0.41556255 -0.17051962 1.02156773 71 71 78
0.40481903 -0.15128794 1.01617681 47 46 48
0.41457912 -0.14915793 1.02391100 47 46 47
0.40197455 -0.13685567 1.01864682 47 46 49
0.41083983 -0.12964688 1.02661808 46 45 47
0.41114702 -0.10977738 1.02761523 47 45 47
0.41138100 -0.08982187 1.02729291 47 45 46
0.40757146 -0.06620583 1.01393410 53 51 52
0.41260132 -0.07399332 1.02379907 44 43 43
0.41028702 -0.04099294 0.93735848 151 150 143
0.40980216 -0.04481408 0.95049138 95 93 96
0.41020067 -0.04995437 0.96972506 94 92 93
0.40959179 -0.05553681 0.99016144 75 70 73
0.41261392 -0.05953256 1.00412198 64 59 61
0.40991639 -0.02282384 0.89366029 135 135 132
0.41001864 -0.03037671 0.90857838 129 123 122
0.40959740 -0.03730339 0.92605363 137 131 126
0.40992278 -0.00650257 0.87207912 118 115 112
0.41018139 -0.01650745 0.88390072 122 119 118
0.40999526 0.01356376 0.85582814 106 103 100
0.40998520 0.00399598 0.86245464 116 110 106
0.41003288 0.02959579 0.84760764 97 95 93
0.41000552 0.05538220 0.83873858 130 123 118
0.40992838 0.04538533 0.84162051 124 119 111
0.40994703 0.06960277 0.83538482 117 114 112
0.41003612 0.09010117 0.83150309 126 126 126
0.40989983 0.11054422 0.82851517 122 122 123
0.41019918 0.13023373 0.82623370 147 143 140
0.41003385 0.14988410 0.82436439 152 149 145
0.40993608 0.16952191 0.82283893 151 150 147
0.41000156 0.18984522 0.82154566 146 143 140
0.40992524 0.21924668 0.81997232 157 155 150
0.41017021 0.20944924 0.82046235 158 156 151
0.40968578 0.22974006 0.81949329 130 127 125
0.41002263 0.24999826 0.81866143 131 131 129
0.41030398 0.27029109 0.81790216 152 151 146
0.41000372 0.28987049 0.81730375 136 135 133
0.40974177 0.31015554 0.81678142 142 142 137
0.40952500 0.33045123 0.81634927 145 145 142
0.40999728 0.35016889 0.81607416 85 83 80
0.41003521 0.36978345 0.81596071 0 0 0
0.40998484 0.38948010 0.81586045 0 0 0
0.40992452 0.40986684 0.81574039 0 0 0
0.41029427 0.43007753 0.81559693 0 0 0
0.41047466 0.44988040 0.81543278 0 0 0
0.41041589 0.46179459 0.81531601 0 0 0
0.42995058 -0.58182708 0.95666562 90 100 102
0.43511753 -0.58284581 0.96364225 93 99 101
0.42981468 -0.56061348 0.83102433 0 0 0
0.42794754 -0.56770127 0.92702413 92 101 104
0.42441063 -0.57713240 0.95565662 93 99 101
0.43058132 -0.56932886 0.96834395 93 98 99
0.43003403 -0.55011979 0.83144854 0 0 0
0.42968291 -0.54410678 0.87614048 89 99 91
0.42757898 -0.55074980 0.89182156 89 98 99
0.42878056 -0.55125760 0.97488923 92 98 99
0.43660127 -0.54455777 0.98197127 91 99 99
0.42958042 -0.53265045 0.83254690 1 2 1
0.42877768 -0.53237085 0.85040205 70 84 80
0.42922343 -0.53746687 0.86305010 84 101 90
0.42365033 -0.53187165 0.97720976 93 97 100
0.43327361 -0.52950434 0.98512206 91 96 99
0.42083533 -0.51653166 0.97885798 90 97 103
0.43046727 -0.50973468 0.98675210 92 96 99
0.43016123 -0.48996112 0.98942071 91 95 96
0.42980069 -0.47024363 0.99367046 89 95 96
0.43805640 -0.46282668 1.00130145 86 94 96
0.42446401 -0.45206742 0.99664414 88 93 96
0.43371857 -0.44854226 1.00406935 88 93 96
0.42093768 -0.43831657 0.99918100 90 96 95
0.43019529 -0.42972281 1.00745847 87 92 95
0.43052780 -0.40985344 1.01115718 87 91 96
0.43066294 -0.39004269 1.01248899 86 91 94
0.43041053 -0.36970625 1.01260137 85 90 92
0.43025092 -0.34986982 1.01289214 85 89 94
0.42999591 -0.33016597 1.01423055 85 88 92
0.43025400 -0.31029011 1.01693016 84 87 93
0.43596040 -0.30088409 1.02019082 82 84 92
0.42373573 -0.29229772 1.01849105 85 85 92
0.43299757 -0.28929068 1.02215962 82 84 92
0.42112905 -0.27532724 1.01914762 80 82 91
