ply
format ascii 1.0
element vertex 1076
property float x
property float y
property float z
property uchar red
property uchar green
property uchar blue
end_header
0.56980346 0.22975476 0.88207984 139 150 156
0.56980346 0.24957461 0.88207984 131 141 146
0.56980346 0.26939446 0.88207984 136 145 152
0.56980346 0.28997661 0.88207984 125 134 140
0.56980346 0.31055876 0.88207984 123 138 145
0.56980346 0.33037860 0.88207984 146 156 162
0.56980346 0.35019845 0.88207984 125 136 144
0.56980346 0.37001830 0.88207984 107 122 131
0.56980346 0.38983814 0.88207984 78 89 100
0.56980346 0.40965799 0.88207984 0 0 0
0.56980346 0.42947784 0.88207984 0 0 0
0.56980346 0.45005999 0.88207984 0 0 0
0.56980346 0.47064214 0.88207984 0 0 0
0.56980346 0.49046198 0.88207984 0 0 0
0.56980346 0.50113421 0.88207984 0 0 0
0.58962331 -0.58819508 0.88207984 143 144 137
0.58962331 -0.57066214 0.88207984 160 160 154
0.58962331 -0.55007999 0.88207984 157 156 151
0.58962331 -0.52949784 0.88207984 158 158 150
0.58962331 -0.50967800 0.88207984 159 159 152
0.58962331 -0.48985815 0.88207984 159 159 150
0.58962331 -0.47003830 0.88207984 160 159 151
0.58988671 -0.44255493 0.65855139 96 132 145
0.58962331 -0.45021846 0.88207984 160 158 151
0.58988671 -0.43003415 0.65855139 95 133 146
0.58962331 -0.43039861 0.88207984 159 159 151
0.58988671 -0.41011473 0.65855139 97 133 148
0.58962331 -0.41057876 0.88207984 158 157 151
0.58988671 -0.39019530 0.65855139 98 133 147
0.58962331 -0.38999661 0.88207984 159 158 151
0.58988671 -0.36970675 0.65855139 96 132 148
0.58962331 -0.36941446 0.88207984 156 155 148
0.58988671 -0.34978733 0.65855139 96 131 147
0.58962331 -0.34959462 0.88207984 155 153 148
0.58988671 -0.32986790 0.65855139 93 130 144
0.58962331 -0.32977477 0.88207984 154 152 146
0.58988671 -0.30994848 0.65855139 89 127 143
0.58962331 -0.30995492 0.88207984 156 153 146
0.58988671 -0.29002906 0.65855139 88 124 141
0.58962331 -0.29013507 0.88207984 156 153 147
0.58988671 -0.27010963 0.65855139 88 121 140
0.58962331 -0.27031523 0.88207984 155 150 147
0.58988671 -0.25019021 0.65855139 84 120 139
0.58962331 -0.25049538 0.88207984 155 152 147
0.58988671 -0.22970166 0.65855139 84 118 136
0.58962331 -0.22991323 0.88207984 153 149 145
0.58988671 -0.20978223 0.65855139 82 116 138
0.58962331 -0.20933108 0.88207984 153 149 142
0.58988671 -0.18986281 0.65855139 81 115 134
0.58962331 -0.18951124 0.88207984 153 150 142
0.58988671 -0.16994339 0.65855139 79 113 132
0.58962331 -0.16969139 0.88207984 155 149 145
0.58988671 -0.15002396 0.65855139 77 109 131
0.58962331 -0.14987154 0.88207984 153 147 142
0.58988671 -0.13010454 0.65855139 73 107 129
0.58962331 -0.13005169 0.88207984 155 149 143
0.58988671 -0.11530725 0.65855139 76 105 124
0.58962331 -0.11023185 0.88207984 151 146 141
0.58962331 -0.09041200 0.88207984 152 145 141
0.58962331 -0.07059215 0.88207984 150 144 140
0.58962331 -0.05001000 0.88207984 150 143 139
0.58962331 -0.02942785 0.88207984 150 144 140
0.58962331 -0.00960801 0.88207984 147 143 138
0.58962331 0.01021184 0.88207984 147 143 138
0.58962331 0.03003169 0.88207984 145 138 134
0.58962331 0.04985153 0.88207984 146 137 133
0.58962331 0.06967138 0.88207984 145 138 134
0.58962331 0.08949123 0.88207984 146 140 135
0.58962331 0.11007338 0.88207984 143 137 131
0.58962331 0.13065553 0.88207984 144 138 133
0.58962331 0.15047537 0.88207984 141 135 130
0.58962331 0.17029522 0.88207984 132 129 127
0.58962331 0.19011507 0.88207984 114 126 132
0.58962331 0.20993492 0.88207984 139 149 155
0.58962331 0.22975476 0.88207984 153 164 167
0.58962331 0.24957461 0.88207984 136 145 149
0.58962331 0.26939446 0.88207984 119 130 139
0.58962331 0.28997661 0.88207984 143 154 158
0.58962331 0.31055876 0.88207984 133 144 151
0.58962331 0.33037860 0.88207984 118 127 136
0.58962331 0.35019845 0.88207984 128 135 142
0.58962331 0.37001830 0.88207984 135 145 150
0.58962331 0.38983814 0.88207984 111 126 136
0.58962331 0.40965799 0.88207984 0 0 0
0.58962331 0.42947784 0.88207984 0 0 0
0.58962331 0.45005999 0.88207984 0 0 0
0.58962331 0.47064214 0.88207984 0 0 0
0.58962331 0.49046198 0.88207984 0 0 0
0.58962331 0.50113421 0.88207984 0 0 0
0.60944315 -0.58819508 0.88207984 158 159 151
0.60944315 -0.57066214 0.88207984 159 160 151
0.60944315 -0.55007999 0.88207984 159 160 151
0.60944315 -0.52949784 0.88207984 155 155 147
0.60944315 -0.50967800 0.88207984 158 157 151
0.60944315 -0.48985815 0.88207984 155 155 148
0.60944315 -0.47003830 0.88207984 158 158 153
0.60980614 -0.44255493 0.65855139 98 133 144
0.60944315 -0.45021846 0.88207984 159 157 151
0.60980614 -0.43003415 0.65855139 97 133 147
0.60944315 -0.43039861 0.88207984 160 160 152
0.60980614 -0.41011473 0.65855139 97 133 147
0.60944315 -0.41057876 0.88207984 159 159 153
0.60980614 -0.39019530 0.65855139 96 133 147
0.60944315 -0.38999661 0.88207984 160 158 152
0.60980614 -0.36970675 0.65855139 95 132 146
0.60944315 -0.36941446 0.88207984 159 159 151
0.60980614 -0.34978733 0.65855139 94 131 146
0.60944315 -0.34959462 0.88207984 158 155 150
0.60980614 -0.32986790 0.65855139 92 128 144
0.60944315 -0.32977477 0.88207984 155 154 148
0.60980614 -0.30994848 0.65855139 90 128 142
0.60944315 -0.30995492 0.88207984 155 152 146
0.60980614 -0.29002906 0.65855139 87 124 141
0.60944315 -0.29013507 0.88207984 156 153 146
0.60980614 -0.27010963 0.65855139 86 122 139
0.60944315 -0.27031523 0.88207984 154 150 146
0.60980614 -0.25019021 0.65855139 83 120 137
0.60944315 -0.25049538 0.88207984 154 151 144
0.60980614 -0.22970166 0.65855139 82 117 136
0.60944315 -0.22991323 0.88207984 152 149 143
0.60980614 -0.20978223 0.65855139 81 116 135
0.60944315 -0.20933108 0.88207984 156 151 146
0.60980614 -0.18986281 0.65855139 81 114 135
0.60944315 -0.18951124 0.88207984 153 147 144
0.60980614 -0.16994339 0.65855139 79 112 133
0.60944315 -0.16969139 0.88207984 152 145 141
0.60980614 -0.15002396 0.65855139 75 108 130
0.60944315 -0.14987154 0.88207984 149 145 139
0.60980614 -0.13010454 0.65855139 73 107 128
0.60944315 -0.13005169 0.88207984 152 146 140
0.60980614 -0.11587638 0.65855139 79 105 123
0.60944315 -0.11023185 0.88207984 153 147 142
0.60944315 -0.09041200 0.88207984 151 146 141
0.60944315 -0.07059215 0.88207984 149 144 139
0.60944315 -0.05001000 0.88207984 150 142 138
0.60944315 -0.02942785 0.88207984 147 142 138
0.60944315 -0.00960801 0.88207984 148 141 137
0.60944315 0.01021184 0.88207984 146 139 136
0.60944315 0.03003169 0.88207984 146 140 137
0.60944315 0.04985153 0.88207984 144 139 134
0.60944315 0.06967138 0.88207984 144 138 134
0.60944315 0.08949123 0.88207984 146 139 136
0.60944315 0.11007338 0.88207984 145 137 132
0.60944315 0.13065553 0.88207984 145 139 133
0.60944315 0.15047537 0.88207984 137 131 126
0.60944315 0.17029522 0.88207984 113 117 118
0.60944315 0.19011507 0.88207984 123 134 140
0.60944315 0.20993492 0.88207984 143 154 159
0.60944315 0.22975476 0.88207984 139 148 155
0.60944315 0.24957461 0.88207984 135 142 146
0.60944315 0.26939446 0.88207984 150 160 165
0.60944315 0.28997661 0.88207984 143 155 159
0.60944315 0.31055876 0.88207984 122 133 142
0.60944315 0.33037860 0.88207984 135 144 147
0.60944315 0.35019845 0.88207984 132 140 145
0.60944315 0.37001830 0.88207984 130 146 153
0.60944315 0.38983814 0.88207984 148 161 167
0.60944315 0.40965799 0.88207984 8 9 10
0.60944315 0.42947784 0.88207984 0 0 0
0.60944315 0.45005999 0.88207984 0 0 0
0.60944315 0.47064214 0.88207984 0 0 0
0.60944315 0.49046198 0.88207984 0 0 0
0.60944315 0.50113421 0.88207984 0 0 0
0.63002530 -0.58819508 0.88207984 160 161 153
0.63002530 -0.57066214 0.88207984 159 160 150
0.63002530 -0.55007999 0.88207984 159 160 152
0.63002530 -0.52949784 0.88207984 157 157 149
0.63002530 -0.50967800 0.88207984 158 158 152
0.63002530 -0.48985815 0.88207984 156 156 148
0.63002530 -0.47003830 0.88207984 157 157 150
0.62972556 -0.44255493 0.65855139 97 134 145
0.63002530 -0.45021846 0.88207984 159 158 153
0.62972556 -0.43003415 0.65855139 96 133 147
0.63002530 -0.43039861 0.88207984 159 159 150
0.62972556 -0.41011473 0.65855139 95 134 147
0.63002530 -0.41057876 0.88207984 160 159 152
0.62972556 -0.39019530 0.65855139 95 132 146
0.63002530 -0.38999661 0.88207984 158 157 151
0.62972556 -0.36970675 0.65855139 91 131 145
0.63002530 -0.36941446 0.88207984 158 156 151
0.62972556 -0.34978733 0.65855139 92 129 145
0.63002530 -0.34959462 0.88207984 156 155 149
0.62972556 -0.32986790 0.65855139 90 129 142
0.63002530 -0.32977477 0.88207984 157 155 149
0.62972556 -0.30994848 0.65855139 87 126 141
0.63002530 -0.30995492 0.88207984 156 154 147
0.62972556 -0.29002906 0.65855139 83 124 140
0.63002530 -0.29013507 0.88207984 157 153 147
0.62972556 -0.27010963 0.65855139 84 122 137
0.63002530 -0.27031523 0.88207984 154 151 146
0.62972556 -0.25019021 0.65855139 83 119 137
0.63002530 -0.25049538 0.88207984 153 151 144
0.62972556 -0.22970166 0.65855139 81 117 135
0.63002530 -0.22991323 0.88207984 150 147 142
0.62972556 -0.20978223 0.65855139 82 115 134
0.63002530 -0.20933108 0.88207984 153 150 145
0.62972556 -0.18986281 0.65855139 79 114 134
0.63002530 -0.18951124 0.88207984 152 148 143
0.62972556 -0.16994339 0.65855139 75 111 133
0.63002530 -0.16969139 0.88207984 151 147 142
0.62972556 -0.15002396 0.65855139 76 108 129
0.63002530 -0.14987154 0.88207984 152 146 140
0.62972556 -0.13010454 0.65855139 74 105 129
0.63002530 -0.13005169 0.88207984 153 148 142
0.62972556 -0.11587638 0.65855139 75 101 124
0.63002530 -0.11023185 0.88207984 152 146 141
0.63002530 -0.09041200 0.88207984 149 144 140
0.63002530 -0.07059215 0.88207984 148 144 140
0.63002530 -0.05001000 0.88207984 149 143 138
0.63002530 -0.02942785 0.88207984 148 143 137
0.63002530 -0.00960801 0.88207984 146 141 136
0.63002530 0.01021184 0.88207984 148 141 138
0.63002530 0.03003169 0.88207984 149 143 139
0.63002530 0.04985153 0.88207984 145 141 135
0.63002530 0.06967138 0.88207984 145 139 134
0.63002530 0.08949123 0.88207984 144 138 134
0.63002530 0.11007338 0.88207984 146 140 135
0.63002530 0.13065553 0.88207984 142 136 131
0.63002530 0.15047537 0.88207984 126 123 121
0.63002530 0.17029522 0.88207984 128 141 146
0.63002530 0.19011507 0.88207984 146 157 161
0.63002530 0.20993492 0.88207984 141 152 157
0.63002530 0.22975476 0.88207984 152 162 165
0.63002530 0.24957461 0.88207984 145 153 157
0.63002530 0.26939446 0.88207984 144 154 160
0.63002530 0.28997661 0.88207984 141 151 156
0.63002530 0.31055876 0.88207984 136 146 150
0.63002530 0.33037860 0.88207984 144 157 162
0.63002530 0.35019845 0.88207984 132 146 151
0.63002530 0.37001830 0.88207984 144 155 160
0.63002530 0.38983814 0.88207984 137 144 152
0.63002530 0.40965799 0.88207984 29 31 33
0.63002530 0.42947784 0.88207984 0 0 0
0.63002530 0.45005999 0.88207984 0 0 0
0.63002530 0.47064214 0.88207984 0 0 0
0.63002530 0.49046198 0.88207984 0 0 0
0.63002530 0.50113421 0.88207984 0 0 0
0.65060745 -0.58819508 0.88207984 158 159 149
0.65060745 -0.57066214 0.88207984 159 159 151
0.65060745 -0.55007999 0.88207984 160 161 153
0.65060745 -0.52949784 0.88207984 160 160 153
0.65060745 -0.50967800 0.88207984 158 158 153
0.65060745 -0.48985815 0.88207984 160 159 153
0.65060745 -0.47003830 0.88207984 158 159 152
0.65021411 -0.44255493 0.65855139 96 135 147
0.65060745 -0.45021846 0.88207984 158 158 151
0.65021411 -0.43003415 0.65855139 94 134 146
0.65060745 -0.43039861 0.88207984 157 156 150
0.65021411 -0.41011473 0.65855139 96 133 147
0.65060745 -0.41057876 0.88207984 158 157 151
0.65021411 -0.39019530 0.65855139 93 133 145
0.65060745 -0.38999661 0.88207984 157 156 149
0.65021411 -0.36970675 0.65855139 92 130 143
0.65060745 -0.36941446 0.88207984 157 157 149
0.65021411 -0.34978733 0.65855139 94 129 144
0.65060745 -0.34959462 0.88207984 155 154 147
0.65021411 -0.32986790 0.65855139 87 128 140
0.65060745 -0.32977477 0.88207984 157 155 149
0.65021411 -0.30994848 0.65855139 85 126 140
0.65060745 -0.30995492 0.88207984 157 156 151
0.65021411 -0.29002906 0.65855139 85 123 139
0.65060745 -0.29013507 0.88207984 158 156 149
0.65021411 -0.27010963 0.65855139 83 120 137
0.65060745 -0.27031523 0.88207984 155 153 146
0.65021411 -0.25019021 0.65855139 81 119 138
0.65060745 -0.25049538 0.88207984 154 151 144
0.65021411 -0.22970166 0.65855139 79 116 135
0.65060745 -0.22991323 0.88207984 152 149 143
0.65021411 -0.20978223 0.65855139 78 115 133
0.65060745 -0.20933108 0.88207984 151 151 144
0.65021411 -0.18986281 0.65855139 78 113 132
0.65060745 -0.18951124 0.88207984 152 147 143
0.65021411 -0.16994339 0.65855139 77 108 132
0.65060745 -0.16969139 0.88207984 150 148 141
0.65021411 -0.15002396 0.65855139 76 106 129
0.65060745 -0.14987154 0.88207984 151 146 141
0.65021411 -0.13010454 0.65855139 73 104 128
0.65060745 -0.13005169 0.88207984 148 147 140
0.65021411 -0.11587638 0.65855139 73 100 120
0.65060745 -0.11023185 0.88207984 150 145 140
0.65060745 -0.09041200 0.88207984 151 145 141
0.65060745 -0.07059215 0.88207984 148 144 139
0.65060745 -0.05001000 0.88207984 149 145 138
0.65060745 -0.02942785 0.88207984 147 144 137
0.65060745 -0.00960801 0.88207984 147 142 137
0.65060745 0.01021184 0.88207984 147 143 138
0.65060745 0.03003169 0.88207984 147 143 139
0.65060745 0.04985153 0.88207984 146 141 135
0.65060745 0.06967138 0.88207984 144 140 135
0.65060745 0.08949123 0.88207984 142 137 132
0.65060744 0.11007338 0.88207983 143 139 135
0.65060742 0.13065552 0.88207980 138 135 129
0.65060741 0.15047537 0.88207978 131 138 139
0.65060745 0.17029522 0.88207984 136 150 156
0.65060745 0.19011507 0.88207984 140 151 155
0.65060745 0.20993492 0.88207984 151 160 165
0.65060745 0.22975476 0.88207984 149 160 165
0.65060745 0.24957461 0.88207984 149 160 165
0.65060745 0.26939446 0.88207984 132 140 147
0.65060745 0.28997661 0.88207984 145 155 161
0.65060745 0.31055876 0.88207984 142 154 159
0.65060745 0.33037860 0.88207984 142 157 163
0.65060745 0.35019845 0.88207984 140 156 160
0.65060745 0.37001830 0.88207984 120 136 145
0.65060745 0.38983814 0.88207984 108 116 126
0.65060745 0.40965799 0.88207984 39 44 49
0.65060745 0.42947784 0.88207984 0 0 0
0.65060745 0.45005999 0.88207984 0 0 0
0.65060745 0.47064214 0.88207984 0 0 0
0.65060745 0.49046198 0.88207984 0 0 0
0.65060745 0.50113421 0.88207984 0 0 0
0.67042730 -0.58819508 0.88207984 157 158 152
0.67042730 -0.57066214 0.88207984 156 157 150
0.67042730 -0.55007999 0.88207984 157 159 151
0.67042730 -0.52949784 0.88207984 157 158 153
0.67042730 -0.50967800 0.88207984 157 158 152
0.67042730 -0.48985815 0.88207984 157 158 151
0.67042730 -0.47003830 0.88207984 156 157 152
0.67013353 -0.44255493 0.65855139 97 137 150
0.67042730 -0.45021846 0.88207984 155 156 149
0.67013353 -0.43003415 0.65855139 97 135 149
0.67042730 -0.43039861 0.88207984 152 153 149
0.67013353 -0.41011473 0.65855139 94 133 146
0.67042729 -0.41057876 0.88207984 151 152 149
0.67013353 -0.39019530 0.65855139 91 132 145
0.67042729 -0.38999661 0.88207983 149 151 149
0.67013353 -0.36970675 0.65855139 91 129 143
0.67273476 -0.36105762 0.86930090 97 123 139
0.67042729 -0.36941446 0.88207983 149 149 145
0.67013353 -0.34978733 0.65855139 91 128 143
0.67042727 -0.34959460 0.88207980 143 144 143
0.67013353 -0.32986790 0.65855139 87 126 141
0.67042721 -0.32977472 0.88207972 143 146 146
0.67013353 -0.30994848 0.65855139 85 124 141
0.67042718 -0.30995487 0.88207969 141 142 142
0.67013353 -0.29002906 0.65855139 84 120 139
0.67042711 -0.29013499 0.88207959 139 142 142
0.67013353 -0.27010963 0.65855139 82 120 136
0.67042704 -0.27031512 0.88207950 137 139 141
0.67013353 -0.25019021 0.65855139 83 118 135
0.67042688 -0.25049523 0.88207930 133 136 139
0.67013353 -0.22970166 0.65855139 79 115 133
0.66985517 -0.23022031 0.88207787 131 134 136
0.67013353 -0.20978223 0.65855139 81 114 131
0.66803751 -0.20981101 0.88207874 134 138 138
0.67013353 -0.18986281 0.65855139 77 112 133
0.66692977 -0.18979077 0.88207888 137 139 138
0.67013353 -0.16994339 0.65855139 75 109 130
0.66692648 -0.16941065 0.88207457 134 135 134
0.67013353 -0.15002396 0.65855139 74 106 128
0.66898756 -0.14896717 0.88207689 117 121 127
0.67013353 -0.13010454 0.65855139 72 105 126
0.67042668 -0.13005157 0.88207903 97 101 105
0.66959151 -0.11614739 0.65855139 70 100 118
0.67042693 -0.11023179 0.88207935 95 98 104
0.67042701 -0.09041196 0.88207946 97 100 104
0.67042704 -0.07059213 0.88207951 95 96 101
0.67042710 -0.05000999 0.88207958 109 113 121
0.67042718 -0.02942785 0.88207968 131 142 150
0.67042720 -0.00960801 0.88207972 138 150 158
0.67042723 0.01021184 0.88207975 136 147 155
0.67042723 0.03003168 0.88207975 127 138 148
0.67042724 0.04985153 0.88207976 147 159 164
0.67042726 0.06967138 0.88207978 143 151 156
0.67042725 0.08949122 0.88207978 130 141 148
0.67042725 0.11007337 0.88207978 116 127 135
0.67042725 0.13065552 0.88207978 115 129 135
0.67042725 0.15047536 0.88207978 143 157 162
0.67042729 0.17029522 0.88207983 145 158 162
0.67042730 0.19011507 0.88207984 141 152 155
0.67042730 0.20993492 0.88207984 149 162 165
0.67042730 0.22975476 0.88207984 140 153 157
0.67042730 0.24957461 0.88207984 139 148 153
0.67042730 0.26939446 0.88207984 137 148 154
0.67042730 0.28997661 0.88207984 153 164 169
0.67042730 0.31055876 0.88207984 132 148 153
0.67042730 0.33037860 0.88207984 123 138 145
0.67042730 0.35019845 0.88207984 123 137 143
0.67042730 0.37001830 0.88207984 121 135 143
0.67042730 0.38983814 0.88207984 116 133 138
0.67042730 0.40965799 0.88207984 70 77 80
0.67042730 0.42947784 0.88207984 0 0 0
0.67042730 0.45005999 0.88207984 0 0 0
0.67042730 0.47064214 0.88207984 0 0 0
0.67042730 0.49046198 0.88207984 0 0 0
0.67042730 0.50113421 0.88207984 0 0 0
0.68231636 -0.58895494 0.88207617 119 130 135
0.68186176 -0.57066208 0.88207975 115 130 137
0.68250640 -0.54943461 0.88207926 117 132 135
0.68262351 -0.52949737 0.88207904 116 132 138
0.68262362 -0.50967762 0.88207918 117 131 137
0.68391050 -0.48907889 0.88207257 115 133 140
0.68414629 -0.47003663 0.88207670 112 131 140
0.69005296 -0.44255493 0.65855139 101 138 151
0.68414597 -0.45021664 0.88207629 109 128 139
0.69005296 -0.43003415 0.65855139 98 136 149
0.68414284 -0.43039495 0.88207228 107 128 140
0.69005296 -0.41011473 0.65855139 93 133 145
0.68279832 -0.41101785 0.88206475 106 128 140
0.69005296 -0.39019530 0.65855139 91 129 143
0.68206594 -0.39282700 0.88206780 105 126 138
0.69005296 -0.36970675 0.65855139 90 128 141
0.68099456 -0.36701163 0.87997413 97 123 139
0.68170730 -0.36995750 0.88203571 104 126 137
0.69005296 -0.34978733 0.65855139 90 126 141
0.68109520 -0.34959241 0.88207424 101 125 137
0.69005296 -0.32986790 0.65855139 85 124 141
0.68108727 -0.32976886 0.88206398 101 123 139
0.69005296 -0.30994848 0.65855139 82 122 138
0.68108427 -0.30994799 0.88206008 100 123 136
0.69005296 -0.29002906 0.65855139 82 120 137
0.68107694 -0.29012548 0.88205059 96 123 137
0.69005296 -0.27010963 0.65855139 81 120 134
0.68107169 -0.27030420 0.88204379 94 119 135
0.69005296 -0.25019021 0.65855139 78 117 135
0.68105651 -0.25047966 0.88202414 94 117 135
0.69005296 -0.22970166 0.65855139 76 114 132
0.68082768 -0.23668016 0.88172778 91 116 135
0.69005296 -0.20978223 0.65855139 76 112 131
0.69005296 -0.18986281 0.65855139 74 110 131
0.69005296 -0.16994339 0.65855139 72 109 129
0.69005296 -0.15002396 0.65855139 72 106 127
0.69080423 -0.14549574 0.87410992 89 109 125
0.68986509 -0.14362280 0.88206298 75 90 105
0.69005296 -0.13010454 0.65855139 71 104 125
0.69024497 -0.13005127 0.88207706 63 73 85
0.69005296 -0.11701463 0.65855139 73 101 124
0.69024624 -0.11023170 0.88207868 63 71 84
0.69024649 -0.09041191 0.88207900 65 74 85
0.69024661 -0.07059210 0.88207916 65 73 84
0.69024678 -0.05000998 0.88207937 90 103 114
0.69024693 -0.02942784 0.88207957 124 145 158
0.69024699 -0.00960800 0.88207965 132 152 165
0.69024703 0.01021184 0.88207969 130 153 168
0.69024705 0.03003168 0.88207972 114 138 154
0.69024706 0.04985153 0.88207973 146 161 169
0.69024710 0.06967138 0.88207978 128 144 153
0.69024710 0.08949122 0.88207978 116 134 145
0.69024710 0.11007337 0.88207978 111 131 142
0.69024710 0.13065552 0.88207978 105 122 134
0.69024710 0.15047536 0.88207978 128 141 149
0.69024714 0.17029522 0.88207983 145 158 166
0.69024715 0.19011507 0.88207984 144 156 159
0.69024715 0.20993492 0.88207984 130 140 144
0.69024715 0.22975476 0.88207984 143 154 158
0.69024715 0.24957461 0.88207984 135 143 149
0.69024715 0.26939446 0.88207984 149 161 165
0.69024715 0.28997661 0.88207984 149 160 164
0.69024715 0.31055876 0.88207984 144 155 161
0.69024715 0.33037860 0.88207984 121 134 142
0.69024715 0.35019845 0.88207984 112 127 135
0.69024715 0.37001830 0.88207984 126 144 151
0.69024715 0.38983814 0.88207984 130 147 154
0.69024715 0.40965799 0.88207984 77 88 92
0.69024715 0.42947784 0.88207984 0 0 0
0.69024715 0.45005999 0.88207984 0 0 0
0.69024715 0.47064214 0.88207984 0 0 0
0.69024715 0.49046198 0.88207984 0 0 0
0.69024715 0.50113421 0.88207984 0 0 0
0.70997238 -0.44255493 0.65855139 98 135 145
0.70997238 -0.43003415 0.65855139 95 135 147
0.70997238 -0.41011473 0.65855139 94 131 144
0.70997238 -0.39019530 0.65855139 86 127 140
0.70997238 -0.36970675 0.65855139 86 125 140
0.70997238 -0.34978733 0.65855139 87 124 138
0.70997238 -0.32986790 0.65855139 83 122 138
0.70997238 -0.30994848 0.65855139 80 120 136
0.70997238 -0.29002906 0.65855139 80 119 135
0.70997238 -0.27010963 0.65855139 79 117 134
0.70997238 -0.25019021 0.65855139 76 114 134
0.70997238 -0.22970166 0.65855139 76 112 133
0.70997238 -0.20978223 0.65855139 74 111 131
0.70997238 -0.18986281 0.65855139 73 108 130
0.70997238 -0.16994339 0.65855139 71 106 128
0.70997238 -0.15002396 0.65855139 73 104 127
0.70548498 -0.14467076 0.87827361 73 98 113
0.70774194 -0.14236709 0.88200536 63 80 98
0.70997238 -0.13010454 0.65855139 72 103 126
0.71006325 -0.13005099 0.88207520 61 71 84
0.70997238 -0.11701463 0.65855139 72 99 121
0.71006553 -0.11023162 0.88207803 61 69 80
0.71006603 -0.09041188 0.88207865 63 73 84
0.71006628 -0.07059208 0.88207896 62 71 82
0.71006654 -0.05000997 0.88207928 90 103 117
0.71006675 -0.02942784 0.88207954 128 148 161
0.71006682 -0.00960800 0.88207963 129 152 164
0.71006686 0.01021184 0.88207968 135 157 172
0.71006690 0.03003168 0.88207972 114 136 153
0.71006690 0.04985153 0.88207972 138 156 164
0.71006694 0.06967138 0.88207978 125 140 153
0.71006694 0.08949122 0.88207978 122 141 150
0.71006694 0.11007337 0.88207978 101 121 132
0.71006694 0.13065552 0.88207978 99 117 129
0.71006694 0.15047536 0.88207978 140 156 162
0.71006698 0.17029522 0.88207983 150 163 168
0.71006699 0.19011507 0.88207984 139 153 157
0.71006699 0.20993492 0.88207984 141 153 157
0.71006699 0.22975476 0.88207984 153 167 170
0.71006699 0.24957461 0.88207984 148 159 164
0.71006699 0.26939446 0.88207984 131 141 149
0.71006699 0.28997661 0.88207984 135 147 153
0.71006699 0.31055876 0.88207984 118 132 142
0.71006699 0.33037860 0.88207984 126 141 146
0.71006699 0.35019845 0.88207984 126 141 148
0.71006699 0.37001830 0.88207984 102 113 127
0.71006699 0.38983814 0.88207984 132 146 153
0.71006699 0.40965799 0.88207984 101 112 118
0.71006699 0.42947784 0.88207984 0 0 0
0.71006699 0.45005999 0.88207984 0 0 0
0.71006699 0.47064214 0.88207984 0 0 0
0.71006699 0.49046198 0.88207984 0 0 0
0.71006699 0.50113421 0.88207984 0 0 0
0.72989181 -0.44255493 0.65855139 97 132 144
0.72989181 -0.43003415 0.65855139 93 132 145
0.72989181 -0.41011473 0.65855139 89 129 143
0.72989181 -0.39019530 0.65855139 82 123 140
0.72989181 -0.36970675 0.65855139 83 120 137
0.72989181 -0.34978733 0.65855139 80 120 137
0.72989181 -0.32986790 0.65855139 81 118 137
0.72989181 -0.30994848 0.65855139 80 118 135
0.72989181 -0.29002906 0.65855139 79 116 136
0.72989181 -0.27010963 0.65855139 76 115 135
0.72989181 -0.25019021 0.65855139 76 113 133
0.72989181 -0.22970166 0.65855139 75 110 132
0.72989181 -0.20978223 0.65855139 72 108 130
0.72989181 -0.18986281 0.65855139 71 107 128
0.72989181 -0.16994339 0.65855139 70 105 127
0.72989181 -0.15002396 0.65855139 70 103 126
0.72862822 -0.14263411 0.87505159 64 83 97
0.73223972 -0.14150002 0.88194117 58 70 87
0.72989181 -0.13010454 0.65855139 69 103 126
0.72988064 -0.13005056 0.88207235 60 69 83
0.72989181 -0.11701463 0.65855139 71 99 122
0.72988480 -0.11023154 0.88207738 60 68 77
0.72988565 -0.09041185 0.88207840 61 71 82
0.72988599 -0.07059207 0.88207881 59 68 80
0.72988632 -0.05000997 0.88207921 90 106 117
0.72988657 -0.02942784 0.88207952 132 150 160
0.72988666 -0.00960800 0.88207962 128 150 164
0.72988670 0.01021184 0.88207967 138 160 174
0.72988674 0.03003168 0.88207972 111 137 153
0.72988674 0.04985153 0.88207972 140 159 167
0.72988678 0.06967138 0.88207977 123 140 150
0.72988679 0.08949122 0.88207978 125 142 152
0.72988679 0.11007337 0.88207978 107 128 141
0.72988679 0.13065552 0.88207978 90 110 123
0.72988679 0.15047536 0.88207978 132 145 153
0.72988682 0.17029522 0.88207982 144 159 163
0.72988684 0.19011507 0.88207984 147 162 165
0.72988684 0.20993492 0.88207984 148 161 167
0.72988684 0.22975476 0.88207984 141 152 157
0.72988684 0.24957461 0.88207984 131 141 147
0.72988684 0.26939446 0.88207984 144 155 159
0.72988684 0.28997661 0.88207984 151 165 170
0.72988684 0.31055876 0.88207984 140 152 159
0.72988684 0.33037860 0.88207984 145 159 164
0.72988684 0.35019845 0.88207984 130 141 147
0.72988684 0.37001830 0.88207984 102 113 122
0.72988684 0.38983814 0.88207984 114 126 132
0.72988684 0.40965799 0.88207984 101 114 123
0.72988684 0.42947784 0.88207984 0 0 0
0.72988684 0.45005999 0.88207984 0 0 0
0.72988684 0.47064214 0.88207984 0 0 0
0.72988684 0.49046198 0.88207984 0 0 0
0.72988684 0.50113421 0.88207984 0 0 0
0.74981123 -0.44255493 0.65855139 89 131 144
0.74981123 -0.43003415 0.65855139 90 128 143
0.74981123 -0.41011473 0.65855139 88 126 141
0.74981123 -0.39019530 0.65855139 81 121 136
0.74981123 -0.36970675 0.65855139 80 117 135
0.74981123 -0.34978733 0.65855139 79 115 135
0.74981123 -0.32986790 0.65855139 79 116 133
0.74981123 -0.30994848 0.65855139 78 115 133
0.74981123 -0.29002906 0.65855139 76 114 134
0.74981123 -0.27010963 0.65855139 75 113 132
0.74981123 -0.25019021 0.65855139 75 111 132
0.74981123 -0.22970166 0.65855139 74 107 130
0.74981123 -0.20978223 0.65855139 74 106 128
0.74981123 -0.18986281 0.65855139 71 106 127
0.74981123 -0.16994339 0.65855139 70 102 126
0.74981123 -0.15002396 0.65855139 69 101 123
0.74981087 -0.14295143 0.88199119 59 75 86
0.74981123 -0.13010454 0.65855139 69 102 124
0.74970154 -0.13005079 0.88207378 55 69 81
0.74981123 -0.11701463 0.65855139 70 98 117
0.74970435 -0.11023150 0.88207709 58 68 78
0.74970535 -0.09041184 0.88207826 58 70 86
0.74970574 -0.07059206 0.88207873 56 68 79
0.74970613 -0.05000996 0.88207919 92 109 121
0.74970640 -0.02942784 0.88207950 131 150 159
0.74970650 -0.00960800 0.88207962 124 147 162
0.74970654 0.01021184 0.88207966 141 166 177
0.74970659 0.03003168 0.88207972 113 140 153
0.74970659 0.04985153 0.88207972 136 158 166
0.74970663 0.06967138 0.88207977 133 145 157
0.74970664 0.08949122 0.88207978 125 140 153
0.74970664 0.11007337 0.88207978 101 120 135
0.74970664 0.13065552 0.88207978 103 123 135
0.74970664 0.15047536 0.88207978 136 154 159
0.74970667 0.17029522 0.88207982 148 166 170
0.74970669 0.19011507 0.88207984 149 164 168
0.74970669 0.20993492 0.88207984 142 155 160
0.74970669 0.22975476 0.88207984 138 146 151
0.74970669 0.24957461 0.88207984 140 154 157
0.74970669 0.26939446 0.88207984 152 164 168
0.74970669 0.28997661 0.88207984 147 159 163
0.74970669 0.31055876 0.88207984 149 163 167
0.74970669 0.33037860 0.88207984 142 155 160
0.74970669 0.35019845 0.88207984 124 136 142
0.74970669 0.37001830 0.88207984 110 123 128
0.74970669 0.38983814 0.88207984 106 120 127
0.74970669 0.40965799 0.88207984 96 111 121
0.74970669 0.42947784 0.88207984 5 6 6
0.74970669 0.45005999 0.88207984 0 0 0
0.74970669 0.47064214 0.88207984 0 0 0
0.74970669 0.49046198 0.88207984 0 0 0
0.74970669 0.50113421 0.88207984 0 0 0
0.76973065 -0.44255493 0.65855139 85 126 138
0.76973065 -0.43003415 0.65855139 85 123 138
0.76973065 -0.41011473 0.65855139 83 120 136
0.76973065 -0.39019530 0.65855139 80 117 133
0.76973065 -0.36970675 0.65855139 77 113 134
0.76973065 -0.34978733 0.65855139 78 113 133
0.76973065 -0.32986790 0.65855139 78 112 133
0.76973065 -0.30994848 0.65855139 74 111 133
0.76973065 -0.29002906 0.65855139 76 111 131
0.76973065 -0.27010963 0.65855139 74 109 130
0.76973065 -0.25019021 0.65855139 74 108 129
0.76973065 -0.22970166 0.65855139 71 105 127
0.76973065 -0.20978223 0.65855139 73 103 129
0.76973065 -0.18986281 0.65855139 69 103 127
0.76973065 -0.16994339 0.65855139 71 100 126
0.76973065 -0.15002396 0.65855139 69 98 123
0.76994246 -0.14356674 0.88204085 58 72 82
0.76973065 -0.13010454 0.65855139 68 100 123
0.76952169 -0.13005087 0.88207429 56 68 81
0.76973065 -0.11701463 0.65855139 67 98 118
0.76952393 -0.11023147 0.88207685 58 66 78
0.76952503 -0.09041182 0.88207812 58 69 83
0.76952552 -0.07059206 0.88207867 56 68 79
0.76952595 -0.05000996 0.88207917 95 112 123
0.76952624 -0.02942784 0.88207950 132 151 160
0.76952634 -0.00960800 0.88207962 128 151 162
0.76952638 0.01021184 0.88207966 147 168 179
0.76952643 0.03003168 0.88207972 122 145 158
0.76952643 0.04985153 0.88207972 131 153 161
0.76952647 0.06967138 0.88207977 113 136 147
0.76952648 0.08949122 0.88207978 126 143 151
0.76952648 0.11007337 0.88207978 104 127 138
0.76952648 0.13065552 0.88207978 91 115 130
0.76952648 0.15047536 0.88207978 144 161 165
0.76952652 0.17029522 0.88207982 143 158 162
0.76952653 0.19011507 0.88207984 129 141 149
0.76952653 0.20993492 0.88207984 145 159 163
0.76952653 0.22975476 0.88207984 148 160 163
0.76952653 0.24957461 0.88207984 145 157 162
0.76952653 0.26939446 0.88207984 139 151 157
0.76952653 0.28997661 0.88207984 130 142 148
0.76952653 0.31055876 0.88207984 119 137 143
0.76952653 0.33037860 0.88207984 119 135 145
0.76952653 0.35019845 0.88207984 119 132 137
0.76952653 0.37001830 0.88207984 103 120 129
0.76952653 0.38983814 0.88207984 110 127 136
0.76952653 0.40965799 0.88207984 110 131 139
0.76952653 0.42947784 0.88207984 23 25 26
0.76952653 0.45005999 0.88207984 0 0 0
0.76952653 0.47064214 0.88207984 0 0 0
0.76952653 0.49046198 0.88207984 0 0 0
0.76952653 0.50113421 0.88207984 0 0 0
0.79021920 -0.44255493 0.65855139 85 118 134
0.79021920 -0.43003415 0.65855139 83 118 135
0.79021920 -0.41011473 0.65855139 82 116 133
0.79021920 -0.39019530 0.65855139 80 114 131
0.79021920 -0.36970675 0.65855139 78 111 130
0.79021920 -0.34978733 0.65855139 77 110 130
0.79021920 -0.32986790 0.65855139 74 108 131
0.79021920 -0.30994848 0.65855139 71 108 130
0.79021920 -0.29002906 0.65855139 72 107 130
0.79021920 -0.27010963 0.65855139 73 106 129
0.79021920 -0.25019021 0.65855139 72 105 127
0.79021920 -0.22970166 0.65855139 70 104 127
0.79021920 -0.20978223 0.65855139 69 103 127
0.79021920 -0.18986281 0.65855139 69 100 127
0.79021920 -0.16994339 0.65855139 69 99 123
0.79021920 -0.15002396 0.65855139 67 98 122
0.78949317 -0.14381658 0.88206317 58 71 79
0.79021920 -0.13010454 0.65855139 69 96 122
0.78934132 -0.13005085 0.88207418 56 68 78
0.79012878 -0.11704123 0.65855139 67 93 119
0.78934354 -0.11023145 0.88207666 57 66 80
0.78934478 -0.09041181 0.88207805 58 70 82
0.78934531 -0.07059206 0.88207864 56 66 80
0.78934578 -0.05000996 0.88207917 101 117 128
0.78934608 -0.02942784 0.88207950 130 151 160
0.78934618 -0.00960800 0.88207961 126 151 163
0.78934622 0.01021184 0.88207966 151 168 178
0.78934627 0.03003168 0.88207972 114 139 153
0.78934627 0.04985153 0.88207972 125 145 158
0.78934631 0.06967138 0.88207976 126 149 159
0.78934633 0.08949122 0.88207978 138 155 164
0.78934633 0.11007337 0.88207978 103 127 139
0.78934633 0.13065552 0.88207978 93 118 130
0.78934633 0.15047536 0.88207978 126 143 151
0.78934636 0.17029522 0.88207982 148 165 168
0.78934638 0.19011507 0.88207984 145 161 165
0.78934638 0.20993492 0.88207984 145 159 164
0.78934638 0.22975476 0.88207984 144 156 160
0.78934638 0.24957461 0.88207984 144 156 160
0.78934638 0.26939446 0.88207984 124 140 144
0.78934638 0.28997661 0.88207984 137 150 154
0.78934638 0.31055876 0.88207984 132 149 153
0.78934638 0.33037860 0.88207984 137 152 158
0.78934638 0.35019845 0.88207984 139 152 157
0.78934638 0.37001830 0.88207984 134 148 155
0.78934638 0.38983814 0.88207984 124 140 148
0.78934638 0.40965799 0.88207984 110 126 137
0.78934638 0.42947784 0.88207984 26 32 37
0.78934638 0.45005999 0.88207984 0 0 0
0.78934638 0.47064214 0.88207984 0 0 0
0.78934638 0.49046198 0.88207984 0 0 0
0.78934638 0.50113421 0.88207984 0 0 0
0.80387824 -0.44255493 0.65855139 83 116 132
0.80387824 -0.43003415 0.65855139 79 116 133
0.80387824 -0.41011473 0.65855139 81 114 132
0.80387824 -0.39019530 0.65855139 77 113 130
0.80387824 -0.36970675 0.65855139 76 110 129
0.80387824 -0.34978733 0.65855139 76 107 130
0.80387824 -0.32986790 0.65855139 75 107 129
0.80387824 -0.30994848 0.65855139 72 106 128
0.80387824 -0.29002906 0.65855139 71 105 128
0.80387824 -0.27010963 0.65855139 69 106 127
0.80387824 -0.25019021 0.65855139 70 103 126
0.80387824 -0.22970166 0.65855139 72 101 123
0.80387824 -0.20978223 0.65855139 69 101 124
0.80387824 -0.18986281 0.65855139 72 99 125
0.80387824 -0.16994339 0.65855139 68 98 120
0.80387824 -0.15002396 0.65855139 64 96 121
0.81033504 -0.14435811 0.88204513 59 70 84
0.80387824 -0.13010454 0.65855139 65 96 118
0.80992366 -0.13005091 0.88207454 57 66 80
0.80397003 -0.11747360 0.65855139 68 95 116
0.80992568 -0.11023145 0.88207673 57 66 80
0.80992690 -0.09041182 0.88207806 58 69 82
0.80992743 -0.07059205 0.88207864 56 67 80
0.80992791 -0.05000996 0.88207916 106 121 132
0.80992822 -0.02942784 0.88207950 130 151 163
0.80992832 -0.00960800 0.88207961 129 156 166
0.80992837 0.01021184 0.88207966 145 166 176
0.80992842 0.03003168 0.88207972 113 139 154
0.80992842 0.04985153 0.88207972 125 145 154
0.80992846 0.06967138 0.88207976 120 140 153
0.80992848 0.08949122 0.88207978 139 158 165
0.80992848 0.11007337 0.88207978 109 130 142
0.80992848 0.13065552 0.88207978 94 118 132
0.80992848 0.15047536 0.88207978 126 146 152
0.80992851 0.17029522 0.88207982 145 159 164
0.80992853 0.19011507 0.88207984 134 150 156
0.80992853 0.20993492 0.88207984 141 157 161
0.80992853 0.22975476 0.88207984 131 148 153
0.80992853 0.24957461 0.88207984 138 150 153
0.80992853 0.26939446 0.88207984 130 146 150
0.80992853 0.28997661 0.88207984 138 147 152
0.80992853 0.31055876 0.88207984 150 165 169
0.80992853 0.33037860 0.88207984 144 159 163
0.80992853 0.35019845 0.88207984 150 166 170
0.80992853 0.37001830 0.88207984 127 143 149
0.80992853 0.38983814 0.88207984 129 141 148
0.80992853 0.40965799 0.88207984 113 127 135
0.80992853 0.42947784 0.88207984 44 48 53
0.80992853 0.45005999 0.88207984 0 0 0
0.80992853 0.47064214 0.88207984 0 0 0
0.80992853 0.49046198 0.88207984 0 0 0
0.80992853 0.50113421 0.88207984 0 0 0
0.83049710 -0.14453304 0.88206542 58 68 82
0.83050573 -0.13005091 0.88207458 56 66 81
0.83050780 -0.11023146 0.88207678 56 66 76
0.83050903 -0.09041182 0.88207809 60 70 83
0.83050956 -0.07059206 0.88207865 58 68 80
0.83051005 -0.05000996 0.88207917 110 126 135
0.83051036 -0.02942784 0.88207950 130 151 161
0.83051046 -0.00960800 0.88207961 131 155 164
0.83051051 0.01021184 0.88207966 139 161 173
0.83051056 0.03003168 0.88207972 109 135 150
0.83051057 0.04985153 0.88207972 113 138 151
0.83051060 0.06967138 0.88207976 122 145 156
0.83051062 0.08949122 0.88207978 139 156 164
0.83051062 0.11007337 0.88207978 110 130 143
0.83051062 0.13065552 0.88207978 103 124 136
0.83051062 0.15047536 0.88207978 126 147 153
0.83051065 0.17029522 0.88207981 136 151 158
0.83051068 0.19011507 0.88207984 141 157 161
0.83051068 0.20993492 0.88207984 151 169 172
0.83051068 0.22975476 0.88207984 144 160 163
0.83051068 0.24957461 0.88207984 141 156 160
0.83051068 0.26939446 0.88207984 130 143 148
0.83051068 0.28997661 0.88207984 113 124 130
0.83051068 0.31055876 0.88207984 131 142 149
0.83051068 0.33037860 0.88207984 130 145 151
0.83051068 0.35019845 0.88207984 123 136 143
0.83051068 0.37001830 0.88207984 138 153 157
0.83051068 0.38983814 0.88207984 118 128 132
0.83051068 0.40965799 0.88207984 99 119 126
0.83051068 0.42947784 0.88207984 65 75 80
0.83051068 0.45005999 0.88207984 0 0 0
0.83051068 0.47064214 0.88207984 0 0 0
0.83051068 0.49046198 0.88207984 0 0 0
0.83051068 0.50113421 0.88207984 0 0 0
0.85032004 -0.14453363 0.88206895 54 68 80
0.85032558 -0.13005093 0.88207471 55 67 76
0.85032763 -0.11023147 0.88207683 56 67 78
0.85032886 -0.09041182 0.88207811 59 69 84
0.85032941 -0.07059206 0.88207868 57 68 80
0.85032989 -0.05000996 0.88207918 110 128 138
0.85033019 -0.02942784 0.88207949 134 157 164
0.85033030 -0.00960800 0.88207961 136 159 169
0.85033035 0.01021184 0.88207966 140 162 172
0.85033040 0.03003168 0.88207971 116 140 155
0.85033041 0.04985153 0.88207972 114 138 148
0.85033045 0.06967138 0.88207976 112 137 150
0.85033047 0.08949122 0.88207978 138 157 168
0.85033047 0.11007337 0.88207978 111 133 145
0.85033047 0.13065552 0.88207978 89 109 125
0.85033047 0.15047536 0.88207978 128 149 156
0.85033050 0.17029522 0.88207981 146 161 165
0.85033053 0.19011507 0.88207984 148 163 167
0.85033053 0.20993492 0.88207984 142 160 163
0.85033053 0.22975476 0.88207984 138 151 156
0.85033053 0.24957461 0.88207984 143 157 163
0.85033053 0.26939446 0.88207984 131 141 143
0.85033053 0.28997661 0.88207984 123 134 137
0.85033053 0.31055876 0.88207984 121 133 136
0.85033053 0.33037860 0.88207984 135 148 152
0.85033053 0.35019845 0.88207984 129 147 152
0.85033053 0.37001830 0.88207984 144 160 162
0.85033053 0.38983814 0.88207984 117 131 139
0.85033053 0.40965799 0.88207984 132 148 155
0.85033053 0.42947784 0.88207984 76 89 96
0.85033053 0.45005999 0.88207984 0 0 0
0.85033053 0.47064214 0.88207984 0 0 0
0.85033053 0.49046198 0.88207984 0 0 0
0.85033053 0.50113421 0.88207984 0 0 0
0.87014098 -0.14453386 0.88207031 51 67 81
0.87014538 -0.13005094 0.88207478 53 67 74
0.87014742 -0.11023147 0.88207684 54 66 78
0.87014870 -0.09041182 0.88207814 58 70 80
0.87014924 -0.07059206 0.88207869 56 68 80
0.87014972 -0.05000996 0.88207918 110 128 141
0.87015003 -0.02942784 0.88207949 138 161 167
0.87015013 -0.00960800 0.88207960 142 166 173
0.87015020 0.01021184 0.88207966 137 158 165
0.87015025 0.03003168 0.88207971 115 140 155
0.87015026 0.04985153 0.88207972 122 142 152
0.87015029 0.06967138 0.88207975 114 136 152
0.87015032 0.08949122 0.88207978 135 155 162
0.87015032 0.11007337 0.88207978 105 126 138
0.87015032 0.13065552 0.88207978 105 125 139
0.87015032 0.15047536 0.88207978 127 148 154
0.87015034 0.17029522 0.88207981 137 155 159
0.87015037 0.19011507 0.88207984 130 145 149
0.87015037 0.20993492 0.88207984 124 139 146
0.87015037 0.22975476 0.88207984 135 152 157
0.87015037 0.24957461 0.88207984 123 140 147
0.87015037 0.26939446 0.88207984 132 144 149
0.87015037 0.28997661 0.88207984 116 132 140
0.87015037 0.31055876 0.88207984 125 144 148
0.87015037 0.33037860 0.88207984 126 143 147
0.87015037 0.35019845 0.88207984 135 151 156
0.87015037 0.37001830 0.88207984 137 155 160
0.87015037 0.38983814 0.88207984 132 149 154
0.87015037 0.40965799 0.88207984 125 140 148
0.87015037 0.42947784 0.88207984 99 112 117
0.87015037 0.45005999 0.88207984 0 0 0
0.87015037 0.47064214 0.88207984 0 0 0
0.87015037 0.49046198 0.88207984 0 0 0
0.87015037 0.50113421 0.88207984 0 0 0
0.88996099 -0.14453392 0.88207069 50 65 78
0.88996508 -0.13005094 0.88207475 52 66 76
0.88996717 -0.11023146 0.88207681 51 66 77
0.88996848 -0.09041182 0.88207812 55 69 80
0.88996906 -0.07059206 0.88207869 56 68 79
0.88996956 -0.05000996 0.88207918 110 132 141
0.88996987 -0.02942784 0.88207949 139 159 167
0.88996998 -0.00960800 0.88207960 142 167 175
0.88997004 0.01021184 0.88207966 137 159 167
0.88997009 0.03003168 0.88207971 120 144 158
0.88997010 0.04985153 0.88207972 117 141 153
0.88997013 0.06967138 0.88207975 122 142 156
0.88997016 0.08949122 0.88207978 145 167 171
0.88997016 0.11007337 0.88207978 110 133 141
0.88997016 0.13065552 0.88207978 100 122 134
0.88997016 0.15047536 0.88207978 139 156 161
0.88997018 0.17029521 0.88207980 145 164 167
0.88997022 0.19011507 0.88207984 142 163 164
0.88997022 0.20993492 0.88207984 145 162 165
0.88997022 0.22975476 0.88207984 143 161 165
0.88997022 0.24957461 0.88207984 140 155 160
0.88997022 0.26939446 0.88207984 134 144 150
0.88997022 0.28997661 0.88207984 143 157 160
0.88997022 0.31055876 0.88207984 113 127 135
0.88997022 0.33037860 0.88207984 99 117 129
0.88997022 0.35019845 0.88207984 138 154 159
0.88997022 0.37001830 0.88207984 113 130 138
0.88997022 0.38983814 0.88207984 129 148 153
0.88997022 0.40965799 0.88207984 125 141 147
0.88997022 0.42947784 0.88207984 90 103 114
0.88997022 0.45005999 0.88207984 0 0 0
0.88997022 0.47064214 0.88207984 0 0 0
0.88997022 0.49046198 0.88207984 0 0 0
0.88997022 0.50113421 0.88207984 0 0 0
0.90131574 -0.15099810 0.87976074 69 91 105
0.91014701 -0.14581416 0.88203766 55 68 79
0.90978485 -0.13005094 0.88207478 51 65 75
0.90978695 -0.11023146 0.88207682 52 66 75
0.90978828 -0.09041182 0.88207810 54 68 80
0.90978888 -0.07059206 0.88207869 55 67 77
0.90978940 -0.05000996 0.88207919 114 133 144
0.90978971 -0.02942784 0.88207949 140 160 166
0.90978982 -0.00960800 0.88207960 139 162 172
0.90978988 0.01021184 0.88207966 134 154 165
0.90978993 0.03003168 0.88207971 122 147 159
0.90978995 0.04985153 0.88207972 106 133 147
0.90978997 0.06967138 0.88207975 116 141 150
0.90979001 0.08949122 0.88207978 147 168 172
0.90979001 0.11007337 0.88207978 114 135 143
0.90979001 0.13065552 0.88207978 97 119 133
0.90979001 0.15047536 0.88207978 125 145 153
0.90979003 0.17029521 0.88207980 137 153 158
0.90979007 0.19011507 0.88207984 130 148 152
0.90979007 0.20993492 0.88207984 130 147 150
0.90979007 0.22975476 0.88207984 143 160 163
0.90979007 0.24957461 0.88207984 137 152 155
0.90979007 0.26939446 0.88207984 129 140 144
0.90979007 0.28997661 0.88207984 132 144 150
0.90979007 0.31055876 0.88207984 110 126 135
0.90979007 0.33037860 0.88207984 107 122 129
0.90979007 0.35019845 0.88207984 123 139 145
0.90979007 0.37001830 0.88207984 123 135 141
0.90979007 0.38983814 0.88207984 109 130 135
0.90979007 0.40965799 0.88207984 126 143 147
0.90979007 0.42947784 0.88207984 106 126 134
0.90979007 0.45005999 0.88207984 0 0 0
0.90979007 0.47064214 0.88207984 0 0 0
0.90979007 0.49046198 0.88207984 0 0 0
0.90979007 0.50113421 0.88207984 0 0 0
0.92958700 -0.14605635 0.88205808 51 67 78
0.92960466 -0.13005095 0.88207485 51 63 74
0.92960677 -0.11023147 0.88207686 52 64 74
0.92960807 -0.09041182 0.88207809 56 67 79
0.92960870 -0.07059206 0.88207869 55 67 74
0.92960923 -0.05000996 0.88207919 115 132 140
0.92960955 -0.02942784 0.88207949 140 162 167
0.92960966 -0.00960800 0.88207960 140 163 172
0.92960973 0.01021184 0.88207966 139 159 169
0.92960978 0.03003168 0.88207971 118 143 155
0.92960979 0.04985153 0.88207972 107 133 149
0.92960982 0.06967138 0.88207975 113 137 149
0.92960985 0.08949122 0.88207978 140 160 166
0.92960985 0.11007337 0.88207978 122 139 148
0.92960985 0.13065552 0.88207978 93 117 129
0.92960985 0.15047536 0.88207978 131 152 157
0.92960987 0.17029521 0.88207980 144 160 163
0.92960992 0.19011507 0.88207984 142 162 165
0.92960992 0.20993492 0.88207984 141 156 160
0.92960992 0.22975476 0.88207984 145 163 165
0.92960992 0.24957461 0.88207984 143 159 163
0.92960992 0.26939446 0.88207984 127 143 148
0.92960992 0.28997661 0.88207984 144 159 165
0.92960992 0.31055876 0.88207984 136 152 157
0.92960992 0.33037860 0.88207984 105 123 132
0.92960992 0.35019845 0.88207984 117 133 139
0.92960992 0.37001830 0.88207984 110 130 138
0.92960992 0.38983814 0.88207984 112 131 140
0.92960992 0.40965799 0.88207984 132 148 153
0.92960992 0.42947784 0.88207984 140 157 162
0.92960992 0.45005999 0.88207984 4 4 5
0.92960992 0.47064214 0.88207984 0 0 0
0.92960992 0.49046198 0.88207984 0 0 0
0.92960992 0.50113421 0.88207984 0 0 0
0.94941322 -0.14605744 0.88206446 52 67 77
0.94942460 -0.13005098 0.88207504 51 62 76
0.94942666 -0.11023148 0.88207695 51 62 72
0.94942789 -0.09041182 0.88207810 54 64 80
0.94942851 -0.07059206 0.88207868 52 65 76
0.94942907 -0.05000997 0.88207919 115 131 140
0.94942939 -0.02942784 0.88207949 134 160 164
0.94942950 -0.00960800 0.88207960 140 165 172
0.94942957 0.01021184 0.88207966 139 160 169
0.94942962 0.03003168 0.88207971 117 144 154
0.94942963 0.04985153 0.88207972 108 134 147
0.94942966 0.06967138 0.88207975 116 143 152
0.94942970 0.08949122 0.88207978 144 166 172
0.94942970 0.11007337 0.88207978 125 144 153
0.94942970 0.13065552 0.88207978 108 132 139
0.94942970 0.15047536 0.88207978 130 149 154
0.94942972 0.17029521 0.88207980 144 161 164
0.94942976 0.19011507 0.88207984 144 161 165
0.94942976 0.20993492 0.88207984 133 150 154
0.94942976 0.22975476 0.88207984 144 162 165
0.94942976 0.24957461 0.88207984 139 155 159
0.94942976 0.26939446 0.88207984 129 146 151
0.94942976 0.28997661 0.88207984 135 152 159
0.94942976 0.31055876 0.88207984 146 164 168
0.94942976 0.33037860 0.88207984 132 148 153
0.94942976 0.35019845 0.88207984 108 127 134
0.94942976 0.37001830 0.88207984 115 131 140
0.94942976 0.38983814 0.88207984 121 141 146
0.94942976 0.40965799 0.88207984 134 150 155
0.94942976 0.42947784 0.88207984 139 156 162
0.94942976 0.45005999 0.88207984 14 15 16
0.94942976 0.47064214 0.88207984 0 0 0
0.94942976 0.49046198 0.88207984 0 0 0
0.94942976 0.50113421 0.88207984 0 0 0
0.96999714 -0.14605777 0.88206641 50 64 81
0.97000685 -0.13005101 0.88207524 49 62 75
0.97000887 -0.11023150 0.88207707 50 62 70
0.97001004 -0.09041182 0.88207814 54 64 74
0.97001064 -0.07059206 0.88207868 50 65 75
0.97001122 -0.05000997 0.88207921 115 133 140
0.97001153 -0.02942784 0.88207949 136 158 165
0.97001165 -0.00960800 0.88207960 139 163 171
0.97001172 0.01021184 0.88207966 132 153 164
0.97001177 0.03003168 0.88207971 116 143 156
0.97001178 0.04985153 0.88207972 106 134 148
0.97001182 0.06967138 0.88207975 116 141 151
0.97001185 0.08949122 0.88207978 142 159 167
0.97001185 0.11007337 0.88207978 121 141 150
0.97001185 0.13065552 0.88207978 105 129 136
0.97001185 0.15047536 0.88207978 126 147 154
0.97001187 0.17029521 0.88207980 146 163 166
0.97001191 0.19011507 0.88207984 138 155 159
0.97001191 0.20993492 0.88207984 122 140 146
0.97001191 0.22975476 0.88207984 130 147 151
0.97001191 0.24957461 0.88207984 132 150 153
0.97001191 0.26939446 0.88207984 120 138 144
0.97001191 0.28997661 0.88207984 109 128 137
0.97001191 0.31055876 0.88207984 113 130 139
0.97001191 0.33037860 0.88207984 124 137 144
0.97001191 0.35019845 0.88207984 102 122 132
0.97001191 0.37001830 0.88207984 117 131 136
0.97001191 0.38983814 0.88207984 111 128 133
0.97001191 0.40965799 0.88207984 119 137 142
0.97001191 0.42947784 0.88207984 95 113 128
0.97001191 0.45005999 0.88207984 21 25 26
0.97001191 0.47064214 0.88207984 0 0 0
0.97001191 0.49046198 0.88207984 0 0 0
0.97001191 0.50113421 0.88207984 0 0 0
0.99058028 -0.14605797 0.88206757 50 64 78
0.99058907 -0.13005103 0.88207539 50 60 72
0.99059108 -0.11023151 0.88207719 50 60 70
0.99059219 -0.09041183 0.88207818 51 62 72
0.99059279 -0.07059206 0.88207871 52 64 76
0.99059337 -0.05000997 0.88207922 117 135 144
0.99059368 -0.02942784 0.88207950 136 156 164
0.99059380 -0.00960800 0.88207961 137 163 169
0.99059386 0.01021184 0.88207966 124 150 162
0.99059392 0.03003168 0.88207971 107 138 152
0.99059393 0.04985153 0.88207972 110 136 149
0.99059396 0.06967138 0.88207975 114 137 148
0.99059399 0.08949122 0.88207978 139 155 162
0.99059399 0.11007337 0.88207978 131 146 151
0.99059399 0.13065552 0.88207978 110 133 140
0.99059399 0.15047536 0.88207978 116 138 143
0.99059402 0.17029521 0.88207980 141 159 163
0.99059406 0.19011507 0.88207984 140 157 160
0.99059406 0.20993492 0.88207984 142 160 164
0.99059406 0.22975476 0.88207984 138 157 160
0.99059406 0.24957461 0.88207984 144 163 166
0.99059406 0.26939446 0.88207984 145 163 167
0.99059406 0.28997661 0.88207984 131 151 154
0.99059406 0.31055876 0.88207984 119 139 145
0.99059406 0.33037860 0.88207984 125 142 148
0.99059406 0.35019845 0.88207984 128 147 153
0.99059406 0.37001830 0.88207984 122 141 146
0.99059406 0.38983814 0.88207984 124 143 151
0.99059406 0.40965799 0.88207984 125 143 150
0.99059406 0.42947784 0.88207984 97 119 136
