ply
format ascii 1.0
element vertex 1078
property float x
property float y
property float z
property uchar red
property uchar green
property uchar blue
end_header
0.17888995 -0.28340590 0.71507579 52 53 57
0.18012589 -0.28340590 0.71507579 51 52 56
-0.05637326 -0.24164148 0.61236840 60 61 69
-0.05541494 -0.24207884 0.61347675 61 61 70
-0.05435460 -0.24207884 0.61347675 61 61 70
-0.05324607 -0.24185996 0.61292207 63 63 72
-0.05223391 -0.24207884 0.61347675 65 65 74
-0.05117357 -0.24207884 0.61347675 66 65 74
-0.05011322 -0.24207884 0.61347675 70 69 79
-0.04905288 -0.24207884 0.61347675 65 65 79
-0.04799253 -0.24207884 0.61347675 49 48 62
-0.04688975 -0.24185996 0.61292207 140 140 151
-0.05417582 -0.29266644 0.74167597 199 200 202
-0.05289390 -0.29266644 0.74167597 199 200 202
-0.05166850 -0.29298699 0.74248832 199 200 202
-0.05038517 -0.29298699 0.74248832 199 200 202
-0.04910184 -0.29298699 0.74248832 199 200 202
-0.04781851 -0.29298699 0.74248832 199 200 202
-0.04658620 -0.29330823 0.74330246 199 200 204
-0.04545097 -0.29427627 0.74575561 198 200 204
-0.04377672 -0.29170895 0.73924953 198 202 205
0.00486196 -0.29688913 0.75237721 198 199 202
0.00614873 -0.29623157 0.75071079 198 199 201
0.00742162 -0.29525068 0.74822497 196 200 201
0.00870526 -0.29492515 0.74740005 196 200 201
0.01000811 -0.29525068 0.74822497 196 200 201
0.01130136 -0.29525068 0.74822497 198 199 201
0.01259461 -0.29525068 0.74822497 197 198 200
0.01388785 -0.29525068 0.74822497 196 197 198
0.01516436 -0.29492515 0.74740005 194 195 195
0.01647434 -0.29525068 0.74822497 200 201 199
0.01776759 -0.29525068 0.74822497 175 177 177
0.01906084 -0.29525068 0.74822497 63 66 68
0.02033164 -0.29492515 0.74740005 60 64 71
0.02162346 -0.29492515 0.74740005 63 67 75
0.02294058 -0.29525068 0.74822497 61 65 72
0.02423382 -0.29525068 0.74822497 58 63 70
0.02552707 -0.29525068 0.74822497 55 60 67
0.02682032 -0.29525068 0.74822497 56 61 68
0.02814463 -0.29557693 0.74905175 56 61 68
0.02943930 -0.29557693 0.74905175 56 59 67
0.03066621 -0.29492515 0.74740005 55 58 65
0.08206758 -0.29395288 0.74493611 56 56 60
0.08289964 -0.29234657 0.74086541 58 58 62
0.08436458 -0.29298699 0.74248832 58 58 62
0.08574182 -0.29330823 0.74330246 59 59 62
0.08702656 -0.29330823 0.74330246 59 60 63
0.08831130 -0.29330823 0.74330246 60 61 65
0.08959603 -0.29330823 0.74330246 62 63 67
0.09078123 -0.29298699 0.74248832 63 64 72
0.09206456 -0.29298699 0.74248832 65 65 74
0.09334789 -0.29298699 0.74248832 58 58 67
0.09463122 -0.29298699 0.74248832 164 164 173
0.09591456 -0.29298699 0.74248832 195 195 204
0.09709154 -0.29266644 0.74167597 193 193 196
0.09848122 -0.29298699 0.74248832 195 195 198
0.09976455 -0.29298699 0.74248832 195 195 198
0.10104788 -0.29298699 0.74248832 196 196 198
0.10233121 -0.29298699 0.74248832 195 196 198
0.10384201 -0.29363021 0.74411839 195 196 198
0.10512816 -0.29363021 0.74411839 195 196 198
0.10676590 -0.29460034 0.74657691 195 196 198
0.10734696 -0.29266644 0.74167597 195 196 198
0.10886711 -0.29330823 0.74330246 194 195 198
0.15293498 -0.28216994 0.71507579 192 195 197
0.15417093 -0.28216994 0.71507579 192 195 197
0.15540689 -0.28216994 0.71507579 191 195 196
0.15631306 -0.28157592 0.71357036 191 195 196
0.15787879 -0.28216994 0.71507579 192 195 196
0.15945113 -0.28276649 0.71658754 192 195 196
0.16068970 -0.28276649 0.71658754 192 194 196
0.16192825 -0.28276649 0.71658754 193 194 196
0.16316682 -0.28276649 0.71658754 192 193 195
0.16423178 -0.28246790 0.71583086 192 193 195
0.16546904 -0.28246790 0.71583086 195 195 197
0.16688251 -0.28276649 0.71658754 183 183 185
0.16794355 -0.28246790 0.71583086 91 91 93
0.16900234 -0.28216994 0.71507579 55 55 58
0.17041805 -0.28246790 0.71583086 64 63 67
0.17165531 -0.28246790 0.71583086 64 64 68
0.17289257 -0.28246790 0.71583086 60 61 65
0.17394614 -0.28216994 0.71507579 59 60 64
0.17518209 -0.28216994 0.71507579 58 58 62
0.17660433 -0.28246790 0.71583086 56 57 61
0.17802958 -0.28276649 0.71658754 54 55 59
0.17888995 -0.28216994 0.71507579 53 54 58
0.18012589 -0.28216994 0.71507579 51 52 56
-0.05647529 -0.24101849 0.61347675 58 61 67
-0.05551543 -0.24145551 0.61458915 60 60 69
-0.05445316 -0.24145551 0.61458915 62 62 71
-0.05334253 -0.24123681 0.61403245 63 63 72
-0.05232862 -0.24145551 0.61458915 64 64 73
-0.05121992 -0.24123681 0.61403245 66 66 75
-0.05020409 -0.24145551 0.61458915 67 67 76
-0.04914182 -0.24145551 0.61458915 64 69 77
-0.04803601 -0.24123681 0.61403245 61 62 69
-0.04693219 -0.24101849 0.61347675 143 144 150
-0.05417582 -0.29138449 0.74167597 198 201 202
-0.05166850 -0.29170364 0.74248832 199 200 202
-0.05038517 -0.29170364 0.74248832 199 200 202
-0.04910184 -0.29170364 0.74248832 199 200 202
-0.04781851 -0.29170364 0.74248832 199 200 202
-0.04658620 -0.29202351 0.74330246 199 200 204
-0.04545097 -0.29298729 0.74575561 198 200 204
-0.04377672 -0.29043123 0.73924953 197 201 204
0.00614873 -0.29493403 0.75071079 198 199 203
0.00742162 -0.29395744 0.74822497 196 200 201
0.00870526 -0.29363334 0.74740005 196 200 201
0.01000811 -0.29395744 0.74822497 196 200 201
0.01130136 -0.29395744 0.74822497 196 199 199
0.01259461 -0.29395744 0.74822497 195 196 196
0.01388785 -0.29395744 0.74822497 195 196 196
0.01518110 -0.29395744 0.74822497 196 197 197
0.01647434 -0.29395744 0.74822497 199 200 200
0.01776759 -0.29395744 0.74822497 174 175 176
0.01906084 -0.29395744 0.74822497 62 66 69
0.02035408 -0.29395744 0.74822497 64 69 74
0.02164733 -0.29395744 0.74822497 62 67 73
0.02294058 -0.29395744 0.74822497 60 65 72
0.02426060 -0.29428226 0.74905175 58 63 70
0.02552707 -0.29395744 0.74822497 57 61 69
0.02684995 -0.29428226 0.74905175 57 60 68
0.02814463 -0.29428226 0.74905175 56 59 67
0.02943930 -0.29428226 0.74905175 55 58 66
0.03066621 -0.29363334 0.74740005 55 58 66
0.08206758 -0.29266530 0.74493611 56 57 61
0.08289964 -0.29106605 0.74086541 57 58 62
0.08436458 -0.29170364 0.74248832 57 58 62
0.08574182 -0.29202351 0.74330246 58 59 63
0.08702656 -0.29202351 0.74330246 58 59 63
0.08831130 -0.29202351 0.74330246 59 60 64
0.08959603 -0.29202351 0.74330246 61 61 68
0.09088077 -0.29202351 0.74330246 65 65 73
0.09206456 -0.29170364 0.74248832 64 65 74
0.09334789 -0.29170364 0.74248832 58 58 67
0.09463122 -0.29170364 0.74248832 166 167 174
0.09591456 -0.29170364 0.74248832 199 199 205
0.09719788 -0.29170364 0.74248832 194 194 196
0.09848122 -0.29170364 0.74248832 195 195 197
0.09976455 -0.29170364 0.74248832 195 195 197
0.10104788 -0.29170364 0.74248832 195 195 197
0.10244341 -0.29202351 0.74330246 195 196 198
0.10384201 -0.29234406 0.74411839 195 196 198
0.10512816 -0.29234406 0.74411839 195 196 198
0.10676590 -0.29330996 0.74657691 196 197 199
0.10746454 -0.29170364 0.74248832 195 196 198
0.10874786 -0.29170364 0.74248832 193 197 200
0.15309648 -0.28123066 0.71583086 194 195 197
0.15417093 -0.28093401 0.71507579 194 195 197
0.15557098 -0.28123066 0.71583086 193 194 196
0.15631306 -0.28034255 0.71357036 193 194 196
0.15787879 -0.28093401 0.71507579 193 194 196
0.15961987 -0.28182584 0.71734589 193 194 196
0.16068970 -0.28152794 0.71658754 193 194 196
0.16192825 -0.28152794 0.71658754 192 193 195
0.16316682 -0.28152794 0.71658754 192 193 195
0.16440539 -0.28152794 0.71658754 192 193 195
0.16564395 -0.28152794 0.71658754 194 195 197
0.16688251 -0.28152794 0.71658754 179 179 181
0.16794355 -0.28123066 0.71583086 90 91 93
0.16918080 -0.28123066 0.71583086 54 54 57
0.17041805 -0.28123066 0.71583086 63 64 68
0.17165531 -0.28123066 0.71583086 61 61 65
0.17289257 -0.28123066 0.71583086 58 59 63
0.17412983 -0.28123066 0.71583086 59 59 63
0.17518209 -0.28093401 0.71507579 58 58 62
0.17660433 -0.28123066 0.71583086 57 57 61
0.17802958 -0.28152794 0.71658754 54 55 59
0.17888995 -0.28093401 0.71507579 52 53 58
0.17993610 -0.28063798 0.71432227 51 51 57
-0.05779716 -0.24104887 0.61626530 57 60 66
-0.05652644 -0.24017550 0.61403245 58 61 67
-0.05556580 -0.24061139 0.61514688 60 60 69
-0.05450257 -0.24061139 0.61514688 63 62 71
-0.05339089 -0.24039325 0.61458915 64 63 72
-0.05237611 -0.24061139 0.61514688 65 64 73
-0.05126636 -0.24039325 0.61458915 66 66 75
-0.05024965 -0.24061139 0.61514688 67 66 75
-0.04918642 -0.24061139 0.61514688 66 67 76
-0.04807955 -0.24039325 0.61458915 71 71 77
-0.04697470 -0.24017550 0.61403245 164 164 168
-0.04595502 -0.24039325 0.61458915 199 203 206
-0.05044042 -0.29073876 0.74330246 199 200 204
-0.04910184 -0.29042032 0.74248832 199 200 204
-0.04781851 -0.29042032 0.74248832 199 200 204
-0.04663734 -0.29105791 0.74411839 198 201 204
-0.04545097 -0.29169831 0.74575561 197 201 204
-0.04387241 -0.28978553 0.74086541 197 201 204
0.00614873 -0.29363650 0.75071079 199 200 204
0.00742982 -0.29298759 0.74905175 196 200 202
0.00871487 -0.29266420 0.74822497 196 200 202
0.01001917 -0.29298759 0.74905175 195 199 201
0.01131385 -0.29298759 0.74905175 195 198 200
0.01259461 -0.29266420 0.74822497 195 196 198
0.01388785 -0.29266420 0.74822497 195 196 197
0.01518110 -0.29266420 0.74822497 196 197 199
0.01649255 -0.29298759 0.74905175 200 200 202
0.01778722 -0.29298759 0.74905175 172 173 175
0.01908190 -0.29298759 0.74905175 65 69 72
0.02035408 -0.29266420 0.74822497 61 64 70
0.02164733 -0.29266420 0.74822497 60 63 70
0.02294058 -0.29266420 0.74822497 60 62 71
0.02426060 -0.29298759 0.74905175 59 62 70
0.02555528 -0.29298759 0.74905175 57 60 68
0.02684995 -0.29298759 0.74905175 56 59 67
0.02814463 -0.29298759 0.74905175 55 58 66
0.02947187 -0.29331169 0.74988037 55 58 66
0.03066621 -0.29234150 0.74740005 55 58 66
0.08206758 -0.29137775 0.74493611 57 57 62
0.08289964 -0.28978553 0.74086541 56 58 63
0.08436458 -0.29042032 0.74248832 56 58 64
0.08564791 -0.29042032 0.74248832 57 57 63
0.08702656 -0.29073876 0.74330246 57 57 65
0.08831130 -0.29073876 0.74330246 58 58 67
0.08959603 -0.29073876 0.74330246 60 60 69
0.09078123 -0.29042032 0.74248832 63 65 74
0.09206456 -0.29042032 0.74248832 55 58 67
0.09334789 -0.29042032 0.74248832 58 58 67
0.09463122 -0.29042032 0.74248832 171 172 178
0.09591456 -0.29042032 0.74248832 199 200 204
0.09709154 -0.29010257 0.74167597 195 195 197
0.09848122 -0.29042032 0.74248832 195 195 197
0.09976455 -0.29042032 0.74248832 195 195 197
0.10104788 -0.29042032 0.74248832 195 195 198
0.10233121 -0.29042032 0.74248832 195 196 198
0.10384201 -0.29105791 0.74411839 196 196 198
0.10512816 -0.29105791 0.74411839 195 196 199
0.10664845 -0.29169831 0.74575561 194 196 199
0.10746454 -0.29042032 0.74248832 192 196 199
0.15293498 -0.27969804 0.71507579 193 194 196
0.15417093 -0.27969804 0.71507579 191 192 193
0.15557098 -0.27999341 0.71583086 193 194 195
0.15631306 -0.27910921 0.71357036 193 194 196
0.15787879 -0.27969804 0.71507579 192 193 195
0.15961987 -0.28058597 0.71734589 194 195 197
0.16085973 -0.28058597 0.71734589 193 194 196
0.16192825 -0.28028938 0.71658754 193 193 195
0.16316682 -0.28028938 0.71658754 193 193 195
0.16440539 -0.28028938 0.71658754 193 193 195
0.16564395 -0.28028938 0.71658754 196 197 199
0.16688251 -0.28028938 0.71658754 174 175 177
0.16794355 -0.27999341 0.71583086 84 88 89
0.16918080 -0.27999341 0.71583086 58 60 63
0.17041805 -0.27999341 0.71583086 67 68 74
0.17165531 -0.27999341 0.71583086 61 61 67
0.17289257 -0.27999341 0.71583086 58 58 65
0.17412983 -0.27999341 0.71583086 58 58 64
0.17518209 -0.27969804 0.71507579 56 56 63
0.17660433 -0.27999341 0.71583086 56 56 63
0.17802958 -0.28028938 0.71658754 54 54 62
0.17888995 -0.27969804 0.71507579 52 52 59
0.18012589 -0.27969804 0.71507579 50 50 57
-0.05784975 -0.24020207 0.61682606 57 60 66
-0.05657769 -0.23933098 0.61458915 58 61 67
-0.05561627 -0.23976573 0.61570555 61 61 70
-0.05455207 -0.23976573 0.61570555 62 62 71
-0.05343934 -0.23954816 0.61514688 63 63 72
-0.05237611 -0.23954816 0.61514688 63 63 72
-0.05131288 -0.23954816 0.61514688 65 65 74
-0.05029529 -0.23976573 0.61570555 66 66 75
-0.04923109 -0.23976573 0.61570555 64 64 73
-0.04812318 -0.23954816 0.61514688 74 74 80
-0.04705995 -0.23954816 0.61514688 158 158 162
-0.04599672 -0.23954816 0.61514688 201 204 207
-0.05044042 -0.28945401 0.74330246 199 200 204
-0.04910184 -0.28913698 0.74248832 199 200 204
-0.04781851 -0.28913698 0.74248832 199 200 204
-0.04663734 -0.28977177 0.74411839 198 200 204
-0.04545097 -0.29040933 0.74575561 198 200 204
-0.04387241 -0.28850499 0.74086541 199 201 205
0.00615555 -0.29266304 0.75154305 197 201 204
0.01001917 -0.29169288 0.74905175 193 197 199
0.01131385 -0.29169288 0.74905175 194 196 199
0.01260852 -0.29169288 0.74905175 197 198 200
0.01390320 -0.29169288 0.74905175 197 198 200
0.01518110 -0.29137093 0.74822497 196 197 199
0.01649255 -0.29169288 0.74905175 197 197 199
0.01778722 -0.29169288 0.74905175 174 174 176
0.01908190 -0.29169288 0.74905175 70 70 73
0.02035408 -0.29137093 0.74822497 61 61 69
0.02164733 -0.29137093 0.74822497 63 63 72
0.02294058 -0.29137093 0.74822497 62 62 71
0.02426060 -0.29169288 0.74905175 59 60 69
0.02555528 -0.29169288 0.74905175 58 59 68
0.02684995 -0.29169288 0.74905175 58 59 67
0.02814463 -0.29169288 0.74905175 58 58 67
0.02947187 -0.29201555 0.74988037 57 57 66
0.03066621 -0.29104969 0.74740005 56 56 65
0.08289964 -0.28850499 0.74086541 56 57 65
0.08436458 -0.28913698 0.74248832 56 57 66
0.08564791 -0.28913698 0.74248832 57 57 66
0.08702656 -0.28945401 0.74330246 58 57 66
0.08831130 -0.28945401 0.74330246 59 58 67
0.08959603 -0.28945401 0.74330246 61 61 70
0.09078123 -0.28913698 0.74248832 66 68 76
0.09206456 -0.28913698 0.74248832 55 59 66
0.09334789 -0.28913698 0.74248832 61 61 70
0.09463122 -0.28913698 0.74248832 173 173 179
0.09591456 -0.28913698 0.74248832 199 199 203
0.09709154 -0.28882065 0.74167597 194 194 198
0.09837347 -0.28882065 0.74167597 195 195 199
0.09976455 -0.28913698 0.74248832 195 195 199
0.10093732 -0.28882065 0.74167597 195 195 199
0.10233121 -0.28913698 0.74248832 195 195 199
0.10384201 -0.28977177 0.74411839 195 195 199
0.10512816 -0.28977177 0.74411839 196 196 200
0.10664845 -0.29040933 0.74575561 195 196 200
0.10734696 -0.28882065 0.74167597 194 195 200
0.15309648 -0.27875614 0.71583086 193 194 196
0.15433374 -0.27875614 0.71583086 193 194 196
0.15573545 -0.27905083 0.71658754 193 194 196
0.15631306 -0.27787587 0.71357036 192 193 195
0.15787879 -0.27846211 0.71507579 192 193 195
0.15961987 -0.27934611 0.71734589 194 195 197
0.16085973 -0.27934611 0.71734589 193 194 196
0.16192825 -0.27905083 0.71658754 192 193 195
0.16316682 -0.27905083 0.71658754 192 193 195
0.16440539 -0.27905083 0.71658754 192 193 195
0.16564395 -0.27905083 0.71658754 198 199 201
0.16688251 -0.27905083 0.71658754 172 173 175
0.16794355 -0.27875614 0.71583086 80 83 87
0.16918080 -0.27875614 0.71583086 55 57 64
0.17041805 -0.27875614 0.71583086 66 66 75
0.17165531 -0.27875614 0.71583086 61 61 70
0.17289257 -0.27875614 0.71583086 59 59 68
0.17412983 -0.27875614 0.71583086 58 58 66
0.17518209 -0.27846211 0.71507579 57 57 66
0.17660433 -0.27875614 0.71583086 56 56 65
0.17802958 -0.27905083 0.71658754 55 55 64
0.17888995 -0.27846211 0.71507579 53 53 62
0.17993610 -0.27816868 0.71432227 52 52 61
-0.05790244 -0.23935373 0.61738783 59 60 65
-0.05662904 -0.23848493 0.61514688 60 60 67
-0.05566683 -0.23891854 0.61626530 61 61 68
-0.05455207 -0.23870154 0.61570555 61 61 68
-0.05348788 -0.23870154 0.61570555 61 61 68
-0.05242368 -0.23870154 0.61570555 61 61 68
-0.05135948 -0.23870154 0.61570555 64 64 72
-0.05034101 -0.23891854 0.61626530 66 66 75
-0.04927585 -0.23891854 0.61626530 65 65 74
-0.04812318 -0.23848493 0.61514688 73 73 80
-0.04705995 -0.23848493 0.61514688 160 160 164
-0.04599672 -0.23848493 0.61514688 202 203 205
-0.05049578 -0.28848562 0.74411839 199 200 203
-0.04915568 -0.28816929 0.74330246 199 200 204
-0.04787094 -0.28816929 0.74330246 199 200 204
-0.04663734 -0.28848562 0.74411839 199 200 204
-0.04545097 -0.28912035 0.74575561 199 200 204
-0.04387241 -0.28722447 0.74086541 200 201 203
0.01001917 -0.29039821 0.74905175 195 196 198
0.01131385 -0.29039821 0.74905175 195 196 198
0.01259461 -0.29007769 0.74822497 195 196 198
0.01388785 -0.29007769 0.74822497 194 195 197
0.01518110 -0.29007769 0.74822497 193 194 196
0.01649255 -0.29039821 0.74905175 199 199 201
0.01778722 -0.29039821 0.74905175 173 174 177
0.01906084 -0.29007769 0.74822497 66 65 75
0.02035408 -0.29007769 0.74822497 63 62 72
0.02164733 -0.29007769 0.74822497 63 63 73
0.02294058 -0.29007769 0.74822497 62 62 71
0.02426060 -0.29039821 0.74905175 60 60 69
0.02552707 -0.29007769 0.74822497 59 59 68
0.02684995 -0.29039821 0.74905175 58 58 67
0.03066621 -0.28975788 0.74740005 56 56 65
0.08289964 -0.28722447 0.74086541 58 57 64
0.08427227 -0.28753871 0.74167597 59 58 65
0.08564791 -0.28785366 0.74248832 59 58 65
0.08693124 -0.28785366 0.74248832 59 58 65
0.08821457 -0.28785366 0.74248832 59 58 65
0.08949790 -0.28785366 0.74248832 60 62 70
0.09078123 -0.28785366 0.74248832 64 68 75
0.09206456 -0.28785366 0.74248832 54 59 66
0.09324576 -0.28753871 0.74167597 58 58 67
0.09463122 -0.28785366 0.74248832 174 173 180
0.09591456 -0.28785366 0.74248832 199 199 203
0.09709154 -0.28753871 0.74167597 195 195 199
0.09837347 -0.28753871 0.74167597 195 195 199
0.09965540 -0.28753871 0.74167597 195 195 199
0.10093732 -0.28753871 0.74167597 195 195 199
0.10233121 -0.28785366 0.74248832 195 195 199
0.10384201 -0.28848562 0.74411839 195 195 199
0.10501289 -0.28816929 0.74330246 194 195 199
0.10664845 -0.28912035 0.74575561 195 196 201
0.10746454 -0.28785366 0.74248832 195 195 201
0.15106164 -0.27606133 0.71207124 194 195 197
0.15309648 -0.27751890 0.71583086 194 195 197
0.15433374 -0.27751890 0.71583086 194 195 197
0.15590024 -0.27810624 0.71734589 193 194 196
0.15631306 -0.27664250 0.71357036 193 194 196
0.15787879 -0.27722615 0.71507579 193 194 196
0.15961987 -0.27810624 0.71734589 194 195 197
0.16085973 -0.27810624 0.71734589 192 193 195
0.16192825 -0.27781224 0.71658754 192 193 195
0.16316682 -0.27781224 0.71658754 192 193 195
0.16440539 -0.27781224 0.71658754 193 194 196
0.16564395 -0.27781224 0.71658754 197 198 200
0.16688251 -0.27781224 0.71658754 171 172 174
0.16794355 -0.27751890 0.71583086 77 77 87
0.16918080 -0.27751890 0.71583086 51 50 62
0.17041805 -0.27751890 0.71583086 62 62 75
0.17165531 -0.27751890 0.71583086 61 61 70
0.17289257 -0.27751890 0.71583086 60 60 69
0.17412983 -0.27751890 0.71583086 59 59 68
0.17518209 -0.27722615 0.71507579 57 57 66
0.17660433 -0.27751890 0.71583086 55 55 64
0.17802958 -0.27781224 0.71658754 53 53 62
0.17888995 -0.27722615 0.71507579 53 53 62
0.17993610 -0.27693403 0.71432227 53 53 62
-0.05795522 -0.23850384 0.61795062 58 58 65
-0.05668047 -0.23763734 0.61570555 58 60 66
-0.05571748 -0.23806980 0.61682606 61 61 68
-0.05460167 -0.23785338 0.61626530 61 61 68
-0.05353650 -0.23785338 0.61626530 60 60 67
-0.05247134 -0.23785338 0.61626530 60 60 69
-0.05140617 -0.23785338 0.61626530 66 66 75
-0.05034101 -0.23785338 0.61626530 70 70 80
-0.04927585 -0.23785338 0.61626530 74 76 85
-0.04816689 -0.23763734 0.61570555 65 67 75
-0.04705995 -0.23742169 0.61514688 159 161 164
-0.04792349 -0.28719947 0.74411839 199 199 206
-0.04668859 -0.28751507 0.74493611 199 199 205
-0.04550103 -0.28814834 0.74657691 199 200 204
-0.04392041 -0.28625679 0.74167597 200 201 205
0.01130136 -0.28878444 0.74822497 195 196 198
0.01259461 -0.28878444 0.74822497 194 195 197
0.01388785 -0.28878444 0.74822497 194 195 197
0.01518110 -0.28878444 0.74822497 196 197 199
0.01649255 -0.28910354 0.74905175 198 200 202
0.01778722 -0.28910354 0.74905175 170 172 175
0.01906084 -0.28878444 0.74822497 61 63 74
0.02033164 -0.28846604 0.74740005 60 60 71
0.02162346 -0.28846604 0.74740005 63 63 74
0.02291528 -0.28846604 0.74740005 62 62 71
0.02423382 -0.28878444 0.74822497 60 60 69
0.02552707 -0.28878444 0.74822497 59 59 68
0.02682032 -0.28878444 0.74822497 58 58 67
0.08418018 -0.28594396 0.74086541 61 61 65
0.08555420 -0.28625679 0.74167597 60 60 64
0.08683613 -0.28625679 0.74167597 60 60 65
0.08811805 -0.28625679 0.74167597 59 60 65
0.08939998 -0.28625679 0.74167597 60 63 68
0.09068191 -0.28625679 0.74167597 64 69 75
0.09196384 -0.28625679 0.74167597 55 60 67
0.09324576 -0.28625679 0.74167597 56 55 64
0.09452769 -0.28625679 0.74167597 175 174 181
0.09580962 -0.28625679 0.74167597 197 196 202
0.09698543 -0.28594396 0.74086541 195 195 199
0.09826596 -0.28594396 0.74086541 195 195 198
0.09965540 -0.28625679 0.74167597 195 195 198
0.10093732 -0.28625679 0.74167597 194 195 197
0.10221925 -0.28625679 0.74167597 194 195 197
0.10372815 -0.28688455 0.74330246 194 195 197
0.10501289 -0.28688455 0.74330246 194 195 197
0.10664845 -0.28783137 0.74575561 195 195 198
0.15106164 -0.27483058 0.71207124 194 195 197
0.15309648 -0.27628163 0.71583086 194 195 197
0.15433374 -0.27628163 0.71583086 194 195 197
0.15590024 -0.27686635 0.71734589 194 195 197
0.15614869 -0.27511957 0.71281999 194 195 197
0.15787879 -0.27599019 0.71507579 193 194 196
0.15978895 -0.27715966 0.71810579 193 194 196
0.16085973 -0.27686635 0.71734589 192 193 195
0.16192825 -0.27657369 0.71658754 192 193 195
0.16316682 -0.27657369 0.71658754 192 193 195
0.16440539 -0.27657369 0.71658754 192 193 195
0.16564395 -0.27657369 0.71658754 197 198 201
0.16688251 -0.27657369 0.71658754 170 171 175
0.16794355 -0.27628163 0.71583086 70 69 84
0.16918080 -0.27628163 0.71583086 51 50 67
0.17041805 -0.27628163 0.71583086 64 62 82
0.17165531 -0.27628163 0.71583086 61 59 78
0.17289257 -0.27628163 0.71583086 60 58 75
0.17394614 -0.27599019 0.71507579 59 59 68
0.17518209 -0.27599019 0.71507579 56 56 65
0.17660433 -0.27628163 0.71583086 54 54 63
0.17802958 -0.27657369 0.71658754 51 51 60
0.17888995 -0.27599019 0.71507579 52 52 61
0.17993610 -0.27569938 0.71432227 53 53 62
-0.05800810 -0.23765239 0.61851448 57 57 64
-0.05668047 -0.23657314 0.61570555 58 58 65
-0.05571748 -0.23700367 0.61682606 60 60 67
-0.05465135 -0.23700367 0.61682606 62 62 69
-0.05353650 -0.23678821 0.61626530 61 60 67
-0.05251908 -0.23700367 0.61682606 61 60 69
-0.05140617 -0.23678821 0.61626530 66 65 75
-0.05038682 -0.23700367 0.61682606 70 72 81
-0.04932068 -0.23700367 0.61682606 63 68 77
-0.04821068 -0.23678821 0.61626530 65 70 78
-0.04710269 -0.23657314 0.61570555 157 160 167
-0.04550103 -0.28685796 0.74657691 197 201 204
0.01130136 -0.28749120 0.74822497 195 196 198
0.01258072 -0.28717422 0.74740005 195 196 198
0.01387254 -0.28717422 0.74740005 196 197 199
0.01516436 -0.28717422 0.74740005 197 198 200
0.01647434 -0.28749120 0.74822497 197 201 202
0.01776759 -0.28749120 0.74822497 163 171 170
0.01903982 -0.28717422 0.74740005 53 60 67
0.02030925 -0.28685796 0.74657691 56 59 68
0.02159965 -0.28685796 0.74657691 63 63 74
0.02289005 -0.28685796 0.74657691 61 61 72
0.08930228 -0.28466341 0.74086541 59 63 66
0.09186333 -0.28466341 0.74086541 56 60 66
0.09314385 -0.28466341 0.74086541 60 60 69
0.09442438 -0.28466341 0.74086541 178 177 186
0.09570491 -0.28466341 0.74086541 197 196 205
0.09698543 -0.28466341 0.74086541 195 195 198
0.09826596 -0.28466341 0.74086541 195 195 197
0.09954648 -0.28466341 0.74086541 195 195 197
0.10082701 -0.28466341 0.74086541 196 196 198
0.10489787 -0.28528699 0.74248832 195 195 197
0.15325831 -0.27533513 0.71658754 194 195 197
0.15433374 -0.27504438 0.71583086 194 195 197
0.15623088 -0.27621105 0.71886730 194 195 197
0.15614869 -0.27388752 0.71281999 193 194 196
0.15787879 -0.27475426 0.71507579 193 194 196
0.15978895 -0.27591845 0.71810579 193 194 196
0.16103014 -0.27591845 0.71810579 192 193 195
0.16209961 -0.27562648 0.71734589 191 192 194
0.16333948 -0.27562648 0.71734589 191 192 194
0.16440539 -0.27533513 0.71658754 194 194 198
0.16564395 -0.27533513 0.71658754 197 198 202
0.16688251 -0.27533513 0.71658754 169 170 174
0.16794355 -0.27504438 0.71583086 68 67 83
0.16918080 -0.27504438 0.71583086 53 53 71
0.17041805 -0.27504438 0.71583086 62 63 83
0.17165531 -0.27504438 0.71583086 59 60 79
0.17289257 -0.27504438 0.71583086 58 59 75
0.17394614 -0.27475426 0.71507579 57 59 67
0.17499749 -0.27446473 0.71432227 55 57 65
0.17660433 -0.27504438 0.71583086 52 55 63
0.17802958 -0.27533513 0.71658754 51 54 62
0.17870145 -0.27446473 0.71432227 52 54 61
0.17993610 -0.27446473 0.71432227 52 53 59
-0.05806107 -0.23679940 0.61907929 58 58 66
-0.05678362 -0.23593754 0.61682606 58 58 66
-0.05576823 -0.23615241 0.61738783 60 60 68
-0.05470112 -0.23615241 0.61738783 60 60 69
-0.05363402 -0.23615241 0.61738783 60 60 68
-0.05256692 -0.23615241 0.61738783 63 62 71
-0.05145295 -0.23593754 0.61682606 66 65 74
-0.05043270 -0.23615241 0.61738783 67 70 78
-0.04936560 -0.23615241 0.61738783 61 66 75
-0.04825455 -0.23593754 0.61682606 68 73 82
-0.04714552 -0.23572305 0.61626530 160 163 173
0.01776759 -0.28619796 0.74822497 159 168 167
0.01903982 -0.28588241 0.74740005 46 54 60
0.02030925 -0.28556755 0.74657691 54 57 67
0.15433374 -0.27380714 0.71583086 194 195 197
0.15656294 -0.27555296 0.72039515 193 194 196
0.15565766 -0.27179804 0.71057844 193 194 196
0.15787879 -0.27351829 0.71507579 193 194 196
0.15995839 -0.27496856 0.71886730 193 194 196
0.16103014 -0.27467728 0.71810579 192 193 195
0.16209961 -0.27438661 0.71734589 191 192 196
0.16333948 -0.27438661 0.71734589 191 192 196
0.16440539 -0.27409655 0.71658754 194 194 198
0.16564395 -0.27409655 0.71658754 198 198 201
0.16688251 -0.27409655 0.71658754 163 164 165
0.16794355 -0.27380714 0.71583086 68 68 80
0.16918080 -0.27380714 0.71583086 56 57 70
0.17041805 -0.27380714 0.71583086 61 63 77
0.17147425 -0.27351829 0.71507579 59 61 73
0.17271020 -0.27351829 0.71507579 58 60 70
0.17394614 -0.27351829 0.71507579 56 59 67
0.17499749 -0.27323008 0.71432227 54 57 65
0.17641805 -0.27351829 0.71507579 52 55 63
0.17802958 -0.27409655 0.71658754 51 54 60
0.17870145 -0.27323008 0.71432227 51 54 61
0.17993610 -0.27323008 0.71432227 49 52 59
0.86291492 -0.60867453 1.59129536 84 87 95
0.86770225 -0.61010671 1.59503961 86 90 96
0.86841577 -0.60867453 1.59129536 86 91 96
-0.05816732 -0.23616073 0.62021214 58 58 67
-0.05683533 -0.23508531 0.61738783 59 59 68
-0.05581907 -0.23529960 0.61795062 60 60 69
-0.05475099 -0.23529960 0.61795062 60 60 69
-0.05368291 -0.23529960 0.61795062 59 59 68
-0.05261483 -0.23529960 0.61795062 63 62 70
-0.05149981 -0.23508531 0.61738783 66 66 73
-0.05047868 -0.23529960 0.61795062 67 70 76
-0.04936560 -0.23508531 0.61738783 66 70 77
-0.04825455 -0.23487140 0.61682606 68 73 80
-0.04718841 -0.23487140 0.61682606 159 161 169
0.15468480 -0.26887882 0.70613736 193 194 197
0.15995839 -0.27372605 0.71886730 193 194 197
0.16120090 -0.27372605 0.71886730 192 193 197
0.16227132 -0.27343610 0.71810579 192 193 197
0.16333948 -0.27314675 0.71734589 193 194 197
0.16440539 -0.27285799 0.71658754 195 195 198
0.16564395 -0.27285799 0.71658754 200 200 201
0.16688251 -0.27285799 0.71658754 156 156 156
0.16794355 -0.27256986 0.71583086 67 67 74
0.16918080 -0.27256986 0.71583086 57 58 65
0.17023829 -0.27228233 0.71507579 61 63 72
0.17147425 -0.27228233 0.71507579 60 61 70
0.17271020 -0.27228233 0.71507579 58 60 68
0.17376284 -0.27199543 0.71432227 55 58 66
0.17481329 -0.27170911 0.71357036 52 55 63
0.17641805 -0.27228233 0.71507579 52 54 62
0.17802958 -0.27285799 0.71658754 52 54 62
0.17870145 -0.27199543 0.71432227 53 54 62
0.86089408 -0.60450506 1.58756876 84 89 96
0.86566538 -0.60592407 1.59129536 84 89 94
0.86841577 -0.60592407 1.59129536 82 88 91
0.87116623 -0.60592407 1.59129536 83 88 91
0.87186998 -0.60450506 1.58756876 85 89 92
0.87666708 -0.60592407 1.59129536 86 90 93
-0.05967609 -0.23682210 0.62478513 59 59 68
-0.05822058 -0.23530401 0.62078005 58 58 67
-0.05688714 -0.23423153 0.61795062 58 58 67
-0.05587000 -0.23444524 0.61851448 60 60 69
-0.05480094 -0.23444524 0.61851448 60 60 69
-0.05368291 -0.23423153 0.61795062 60 60 69
-0.05261483 -0.23423153 0.61795062 63 63 72
-0.05154676 -0.23423153 0.61795062 65 65 72
-0.05052473 -0.23444524 0.61851448 67 67 76
-0.04941060 -0.23423153 0.61795062 62 63 71
-0.04834252 -0.23423153 0.61795062 74 77 85
-0.04723139 -0.23401821 0.61738783 164 164 173
0.16120090 -0.27248356 0.71886730 193 194 196
0.16227132 -0.27219489 0.71810579 193 194 196
0.16316682 -0.27161944 0.71658754 193 194 196
0.16423178 -0.27133262 0.71583086 194 194 195
0.16546904 -0.27133262 0.71583086 200 200 200
0.16670629 -0.27133262 0.71583086 154 154 154
0.16776639 -0.27104640 0.71507579 69 68 75
0.16882426 -0.27076077 0.71432227 58 57 65
0.17234659 -0.27047578 0.71357036 58 58 67
0.17339742 -0.27019137 0.71281999 56 55 64
0.17784159 -0.27133262 0.71583086 54 53 62
0.86566538 -0.60317367 1.59129536 82 87 89
0.86638200 -0.60176110 1.58756876 81 86 87
0.87116623 -0.60317367 1.59129536 84 89 90
0.87186998 -0.60176110 1.58756876 84 90 90
0.87666708 -0.60317367 1.59129536 85 90 91
-0.05967609 -0.23574221 0.62478513 58 58 65
-0.05827395 -0.23444574 0.62134910 58 58 65
-0.05699105 -0.23358932 0.61907929 57 57 64
-0.05592102 -0.23358932 0.61907929 59 59 66
-0.05485099 -0.23358932 0.61907929 61 61 68
-0.05373189 -0.23337619 0.61851448 61 61 70
-0.05266284 -0.23337619 0.61851448 62 62 71
-0.05159379 -0.23337619 0.61851448 63 63 71
-0.05057088 -0.23358932 0.61907929 65 65 74
-0.04945568 -0.23337619 0.61851448 60 60 70
-0.04838663 -0.23337619 0.61851448 81 83 94
0.16175726 -0.27009535 0.71583086 192 193 195
0.16863731 -0.26727304 0.70835096 65 64 74
0.16986163 -0.26727304 0.70835096 59 58 69
0.17162396 -0.26811352 0.71057844 59 58 68
0.17249052 -0.26755261 0.70909190 56 56 64
0.17299232 -0.26643783 0.70613736 55 54 61
0.85888261 -0.59761751 1.58385944 85 89 92
0.86566538 -0.60042322 1.59129536 86 90 92
0.86638200 -0.59901708 1.58756876 85 89 91
0.86912602 -0.59901708 1.58756876 85 89 90
0.87186998 -0.59901708 1.58756876 85 89 90
0.87666708 -0.60042322 1.59129536 84 88 89
0.87941748 -0.60042322 1.59129536 83 87 88
-0.05962114 -0.23444624 0.62420982 57 56 63
-0.05827395 -0.23337179 0.62134910 58 58 65
-0.05699105 -0.23251928 0.61907929 58 58 66
-0.05597214 -0.23273183 0.61964518 58 58 66
-0.05485099 -0.23251928 0.61907929 61 60 67
-0.05378096 -0.23251928 0.61907929 61 61 69
-0.05266284 -0.23230714 0.61851448 62 63 71
-0.05159379 -0.23230714 0.61851448 60 62 70
-0.05057088 -0.23251928 0.61907929 66 68 79
-0.04945568 -0.23230714 0.61851448 58 61 72
-0.04838663 -0.23230714 0.61851448 78 82 94
-0.04731758 -0.23230714 0.61851448 183 183 194
0.16827907 -0.26357001 0.70175141 61 59 68
0.16966763 -0.26384312 0.70247859 60 58 66
0.17105907 -0.26411682 0.70320731 57 57 62
0.17209598 -0.26384312 0.70247859 55 54 60
0.85216296 -0.59211308 1.57649267 86 90 91
0.85688055 -0.59349328 1.58016741 86 91 91
0.86363804 -0.59627312 1.58756876 86 91 92
0.86435777 -0.59487998 1.58385944 85 91 91
0.86912602 -0.59627312 1.58756876 84 90 90
0.86983293 -0.59487998 1.58385944 83 89 89
0.87666708 -0.59767282 1.59129536 82 86 89
0.87735796 -0.59627312 1.58756876 83 86 90
0.88010192 -0.59627312 1.58756876 83 84 90
-0.05956629 -0.23315266 0.62363553 57 56 63
-0.05827395 -0.23229784 0.62134910 58 57 66
-0.05699105 -0.23144926 0.61907929 58 58 66
-0.05597214 -0.23166083 0.61964518 58 58 66
-0.05490113 -0.23166083 0.61964518 60 59 67
-0.05378096 -0.23144926 0.61907929 56 57 66
-0.05271094 -0.23144926 0.61907929 65 67 75
-0.05164091 -0.23144926 0.61907929 64 67 76
-0.05061710 -0.23166083 0.61964518 68 73 82
-0.04950085 -0.23144926 0.61907929 58 63 73
-0.04843082 -0.23144926 0.61907929 75 79 89
-0.04731758 -0.23123808 0.61851448 180 181 186
0.17070492 -0.26235709 0.70175141 57 56 63
0.85216296 -0.58938825 1.57649267 86 92 92
0.85688055 -0.59076208 1.58016741 87 93 94
0.86363804 -0.59352911 1.58756876 87 92 94
0.86638200 -0.59352911 1.58756876 86 90 93
0.86912602 -0.59352911 1.58756876 85 89 92
0.86983293 -0.59214240 1.58385944 84 89 92
0.87666708 -0.59492242 1.59129536 84 88 93
0.87941748 -0.59492242 1.59129536 84 89 94
0.88010192 -0.59352911 1.58756876 82 82 89
-0.05945690 -0.23164853 0.62249023 57 57 62
-0.05822058 -0.23101214 0.62078005 58 59 64
-0.05699105 -0.23037924 0.61907929 59 59 65
-0.05597214 -0.23058982 0.61964518 59 59 66
-0.05490113 -0.23058982 0.61964518 55 57 65
-0.05383012 -0.23058982 0.61964518 52 57 65
-0.05271094 -0.23037924 0.61907929 61 68 76
-0.05168811 -0.23058982 0.61964518 64 68 77
-0.05061710 -0.23058982 0.61964518 64 69 78
-0.04954610 -0.23058982 0.61964518 50 55 63
-0.04847509 -0.23058982 0.61964518 72 75 83
-0.04736079 -0.23037924 0.61907929 174 176 181
0.85216296 -0.58666337 1.57649267 86 92 94
0.85688055 -0.58803093 1.58016741 87 93 95
0.86566538 -0.59217197 1.59129536 86 91 93
0.86638200 -0.59078515 1.58756876 85 91 93
0.86912602 -0.59078515 1.58756876 84 89 94
0.87186998 -0.59078515 1.58756876 85 90 94
0.88148671 -0.59356534 1.59503961 84 89 94
0.88424361 -0.59356534 1.59503961 79 83 86
0.88491833 -0.59217197 1.59129536 81 85 88
0.88558990 -0.59078515 1.58756876 87 90 92
-0.05822058 -0.22993918 0.62078005 58 58 65
-0.05704314 -0.22951882 0.61964518 59 59 66
-0.05597214 -0.22951882 0.61964518 60 60 67
-0.05490113 -0.22951882 0.61964518 55 56 65
-0.05383012 -0.22951882 0.61964518 57 60 69
-0.05275911 -0.22951882 0.61964518 60 64 73
-0.05168811 -0.22951882 0.61964518 62 67 76
-0.05061710 -0.22951882 0.61964518 65 71 80
-0.04954610 -0.22951882 0.61964518 53 60 68
-0.04847509 -0.22951882 0.61964518 78 82 90
-0.04740408 -0.22951882 0.61964518 174 175 181
0.85018581 -0.58258373 1.57283485 86 92 94
0.85688055 -0.58529973 1.58016741 86 92 94
0.86566538 -0.58942157 1.59129536 85 91 93
0.86638200 -0.58804119 1.58756876 85 91 93
0.86912602 -0.58804119 1.58756876 85 91 93
0.87186998 -0.58804119 1.58756876 84 90 92
0.88080227 -0.59220183 1.59880149 84 90 93
0.88148671 -0.59080839 1.59503961 84 90 92
0.88700050 -0.59080839 1.59503961 85 90 92
0.88558990 -0.58804119 1.58756876 86 91 94
-0.05827395 -0.22907598 0.62134910 58 59 63
-0.05704314 -0.22844781 0.61964518 59 61 64
-0.05602334 -0.22865681 0.62021214 59 63 66
-0.05495136 -0.22865681 0.62021214 61 61 72
-0.05387937 -0.22865681 0.62021214 60 61 72
-0.05275911 -0.22844781 0.61964518 61 64 74
-0.05168811 -0.22844781 0.61964518 63 66 76
-0.05066341 -0.22865681 0.62021214 67 70 80
-0.04959143 -0.22865681 0.62021214 55 60 69
-0.04851944 -0.22865681 0.62021214 79 82 92
-0.04740408 -0.22844781 0.61964518 174 175 183
-0.04629076 -0.22823918 0.61907929 201 201 208
0.85018581 -0.57986522 1.57283485 86 92 94
0.85488784 -0.58121371 1.57649267 86 92 94
0.86363804 -0.58529717 1.58756876 86 92 94
0.86638200 -0.58529717 1.58756876 85 91 93
0.86912602 -0.58529717 1.58756876 85 90 94
0.86983293 -0.58392966 1.58385944 84 89 93
0.87941748 -0.58667111 1.59129536 85 88 94
0.88284594 -0.58529717 1.58756876 86 92 94
0.88146126 -0.58256853 1.58016741 84 93 94
-0.05832741 -0.22821121 0.62191910 58 59 64
-0.05709533 -0.22758482 0.62021214 58 60 65
-0.05607465 -0.22779323 0.62078005 58 60 66
-0.05500168 -0.22779323 0.62078005 61 61 69
-0.05387937 -0.22758482 0.62021214 60 61 70
-0.05280739 -0.22758482 0.62021214 61 63 73
-0.05173540 -0.22758482 0.62021214 66 66 77
-0.05070981 -0.22779323 0.62078005 66 67 78
-0.04963684 -0.22779323 0.62078005 57 59 69
-0.04856387 -0.22779323 0.62078005 76 75 86
-0.04744745 -0.22758482 0.62021214 177 176 185
-0.04633308 -0.22737680 0.61964518 200 200 207
0.85018581 -0.57714665 1.57283485 84 90 95
0.85688055 -0.57983732 1.58016741 81 86 92
0.86566538 -0.58392072 1.59129536 85 89 94
0.86638200 -0.58255321 1.58756876 86 90 95
0.86709535 -0.58119208 1.58385944 86 90 95
0.86983293 -0.58119208 1.58385944 85 89 94
0.88078320 -0.58119208 1.58385944 80 88 90
0.87941140 -0.57848889 1.57649267 80 88 92
-0.05951154 -0.22755380 0.62306237 56 56 65
-0.05832741 -0.22713627 0.62191910 58 58 65
-0.05709533 -0.22651283 0.62021214 58 58 65
-0.05607465 -0.22672027 0.62078005 59 59 66
-0.05500168 -0.22672027 0.62078005 60 60 67
-0.05392871 -0.22672027 0.62078005 60 60 68
-0.05280739 -0.22651283 0.62021214 62 62 71
-0.05173540 -0.22651283 0.62021214 66 65 75
-0.05070981 -0.22672027 0.62078005 69 68 79
-0.04963684 -0.22672027 0.62078005 67 65 78
-0.04856387 -0.22672027 0.62078005 75 73 84
-0.04744745 -0.22651283 0.62021214 178 177 186
-0.04637547 -0.22651283 0.62021214 201 202 204
0.85414940 -0.57710612 1.58016741 86 90 96
0.85888261 -0.57845449 1.58385944 86 89 95
0.86770225 -0.58253771 1.59503961 86 89 95
0.86841577 -0.58117026 1.59129536 87 90 96
0.86912602 -0.57980919 1.58756876 87 90 96
0.87186998 -0.57980919 1.58756876 86 90 95
0.88284594 -0.57980919 1.58756876 80 87 89
0.88146126 -0.57710612 1.58016741 82 88 90
-0.05951154 -0.22647689 0.62306237 56 56 65
-0.05832741 -0.22606133 0.62191910 58 59 66
-0.05714761 -0.22564730 0.62078005 58 60 66
-0.05612605 -0.22585413 0.62134910 57 60 64
-0.05505209 -0.22585413 0.62134910 58 61 65
-0.05392871 -0.22564730 0.62078005 58 62 66
-0.05285574 -0.22564730 0.62078005 61 61 68
-0.05178278 -0.22564730 0.62078005 64 64 72
-0.05070981 -0.22564730 0.62078005 66 65 75
-0.04968234 -0.22585413 0.62134910 63 60 79
-0.04860839 -0.22585413 0.62134910 77 76 87
-0.04749090 -0.22564730 0.62078005 182 181 189
-0.04637547 -0.22544086 0.62021214 201 201 203
-0.04530348 -0.22544086 0.62021214 200 201 203
0.85614502 -0.57571697 1.58385944 89 89 96
0.85888261 -0.57571697 1.58385944 88 89 96
0.86566538 -0.57841986 1.59129536 87 89 96
0.86709535 -0.57571697 1.58385944 88 89 94
0.86983293 -0.57571697 1.58385944 87 90 94
0.88010192 -0.57706523 1.58756876 83 88 89
0.88078320 -0.57571697 1.58385944 85 89 91
0.87941140 -0.57303917 1.57649267 86 90 93
-0.05956629 -0.22560734 0.62363553 55 58 64
-0.05838097 -0.22519299 0.62249023 57 60 65
-0.05714761 -0.22457433 0.62078005 57 61 64
-0.05612605 -0.22478017 0.62134910 57 61 64
-0.05505209 -0.22478017 0.62134910 58 62 65
-0.05397814 -0.22478017 0.62134910 58 62 65
-0.05290419 -0.22478017 0.62134910 60 60 70
-0.05183024 -0.22478017 0.62134910 61 61 71
-0.05075629 -0.22478017 0.62134910 64 64 74
-0.04968234 -0.22478017 0.62134910 61 59 77
-0.04860839 -0.22478017 0.62134910 90 88 103
-0.04749090 -0.22457433 0.62078005 185 184 195
-0.04641794 -0.22457433 0.62078005 202 202 204
-0.04534497 -0.22457433 0.62078005 200 200 202
0.84671330 -0.57031435 1.57649267 88 88 96
0.84943813 -0.57031435 1.57649267 89 89 96
0.85614502 -0.57297939 1.58385944 89 89 96
0.85888261 -0.57297939 1.58385944 88 88 95
0.88078320 -0.57297939 1.58385944 86 90 93
0.87941140 -0.57031435 1.57649267 86 90 93
-0.05956629 -0.22452943 0.62363553 57 58 62
-0.05838097 -0.22411707 0.62249023 58 59 63
-0.05720000 -0.22370623 0.62134910 59 60 64
-0.05617754 -0.22391146 0.62191910 59 59 66
-0.05510260 -0.22391146 0.62191910 60 60 67
-0.05397814 -0.22370623 0.62134910 60 60 69
-0.05290419 -0.22370623 0.62134910 62 62 72
-0.05183024 -0.22370623 0.62134910 64 64 74
-0.05075629 -0.22370623 0.62134910 65 65 75
-0.04968234 -0.22370623 0.62134910 67 66 81
-0.04860839 -0.22370623 0.62134910 101 100 111
-0.04749090 -0.22350137 0.62078005 188 187 195
-0.04641794 -0.22350137 0.62078005 202 202 204
-0.04534497 -0.22350137 0.62078005 200 200 202
0.84671330 -0.56758952 1.57649267 88 89 93
0.85141820 -0.56891257 1.58016741 88 89 93
0.85815006 -0.57157725 1.58756876 88 89 93
0.86089408 -0.57157725 1.58756876 87 88 92
0.86770225 -0.57426703 1.59503961 85 86 90
0.87941748 -0.57291901 1.59129536 88 89 93
0.88010192 -0.57157725 1.58756876 87 89 92
0.88078320 -0.57024181 1.58385944 86 89 92
0.87941140 -0.56758952 1.57649267 85 89 92
-0.05956629 -0.22345152 0.62363553 57 56 64
-0.05838097 -0.22304115 0.62249023 58 57 65
-0.05720000 -0.22263227 0.62134910 59 58 65
-0.05617754 -0.22283652 0.62191910 60 59 67
-0.05510260 -0.22283652 0.62191910 61 60 68
-0.05402767 -0.22283652 0.62191910 63 62 70
-0.05290419 -0.22263227 0.62134910 64 63 73
-0.05183024 -0.22263227 0.62134910 66 64 75
-0.05075629 -0.22263227 0.62134910 69 67 79
-0.04972792 -0.22283652 0.62191910 61 59 73
-0.04865298 -0.22283652 0.62191910 101 100 110
-0.04753443 -0.22263227 0.62134910 187 187 192
-0.04641794 -0.22242840 0.62078005 201 202 205
-0.04534497 -0.22242840 0.62078005 199 200 203
0.84550554 -0.56224954 1.56919408 88 89 93
0.85216296 -0.56486470 1.57649267 87 88 93
0.85688055 -0.56618136 1.58016741 86 87 92
0.87735796 -0.56883329 1.58756876 87 89 94
0.88216794 -0.57016855 1.59129536 85 88 94
0.88284594 -0.56883329 1.58756876 85 88 93
0.87737095 -0.56355411 1.57283485 85 89 93
-0.05956629 -0.22237362 0.62363553 55 54 61
-0.05838097 -0.22196522 0.62249023 57 56 63
-0.05720000 -0.22155832 0.62134910 59 58 65
-0.05617754 -0.22176158 0.62191910 61 60 67
-0.05510260 -0.22176158 0.62191910 62 60 68
-0.05402767 -0.22176158 0.62191910 63 62 71
-0.05295273 -0.22176158 0.62191910 64 63 73
-0.05187779 -0.22176158 0.62191910 65 64 74
-0.05080285 -0.22176158 0.62191910 68 67 77
-0.04972792 -0.22176158 0.62191910 49 45 57
-0.04865298 -0.22176158 0.62191910 105 102 111
-0.04753443 -0.22155832 0.62134910 187 186 190
-0.04641794 -0.22135542 0.62078005 201 202 206
-0.04534497 -0.22135542 0.62078005 198 199 204
0.84279335 -0.55953735 1.56919408 88 88 97
0.84550554 -0.55953735 1.56919408 88 88 95
0.85216296 -0.56213981 1.57649267 87 87 94
0.85688055 -0.56345016 1.58016741 87 87 94
0.88216794 -0.56741816 1.59129536 84 87 93
0.88284594 -0.56608927 1.58756876 85 88 93
0.87941140 -0.56213981 1.57649267 85 88 93
-0.05962114 -0.22149949 0.62420982 56 56 63
-0.05843463 -0.22109233 0.62306237 57 57 64
-0.05720000 -0.22048438 0.62134910 59 58 65
-0.05622913 -0.22088930 0.62249023 59 59 67
-0.05515320 -0.22088930 0.62249023 60 60 69
-0.05402767 -0.22068664 0.62191910 64 63 72
-0.05295273 -0.22068664 0.62191910 64 63 72
-0.05187779 -0.22068664 0.62191910 66 64 75
-0.05080285 -0.22068664 0.62191910 74 68 83
-0.04977358 -0.22088930 0.62249023 50 45 55
-0.04865298 -0.22068664 0.62191910 105 101 110
-0.04753443 -0.22048438 0.62134910 187 185 192
-0.04646048 -0.22048438 0.62134910 202 202 209
-0.04538653 -0.22048438 0.62134910 197 197 204
0.84595579 -0.56071901 1.58016741 88 88 95
0.84868699 -0.56071901 1.58016741 89 89 96
0.85141820 -0.56071901 1.58016741 88 88 95
0.85815006 -0.56334531 1.58756876 87 87 94
0.86291492 -0.56466770 1.59129536 86 86 93
0.86770225 -0.56599635 1.59503961 87 87 94
0.87045914 -0.56599635 1.59503961 87 87 95
0.87116623 -0.56466770 1.59129536 86 86 94
0.87391663 -0.56466770 1.59129536 84 84 91
0.88424361 -0.56599635 1.59503961 85 85 93
0.88491833 -0.56466770 1.59129536 85 87 92
0.88146126 -0.56071901 1.58016741 86 87 93
-0.05962114 -0.22042060 0.62420982 57 57 65
-0.05848839 -0.22021782 0.62363553 57 57 66
-0.05725247 -0.21961172 0.62191910 58 58 67
-0.05622913 -0.21981338 0.62249023 58 58 67
-0.05515320 -0.21981338 0.62249023 59 59 68
-0.05407728 -0.21981338 0.62249023 61 61 70
-0.05300135 -0.21981338 0.62249023 60 59 68
-0.05187779 -0.21961172 0.62191910 59 58 67
-0.05080285 -0.21961172 0.62191910 66 65 79
-0.04977358 -0.21981338 0.62249023 45 42 52
-0.04865298 -0.21961172 0.62191910 108 106 114
-0.04753443 -0.21941042 0.62134910 187 186 192
-0.04646048 -0.21941042 0.62134910 203 204 207
0.84991813 -0.56060135 1.58756876 85 88 94
0.85466367 -0.56191730 1.59129536 88 90 95
0.85741407 -0.56191730 1.59129536 88 88 95
0.86626500 -0.56590253 1.60258114 87 87 94
0.86903489 -0.56590253 1.60258114 83 83 90
0.87594640 -0.56859088 1.61019444 86 86 93
0.87664723 -0.56724352 1.60637879 85 86 94
0.88775319 -0.56724352 1.60637879 86 86 95
0.89052969 -0.56724352 1.60637879 84 84 92
0.88909250 -0.56456786 1.59880149 84 84 91
0.88766879 -0.56191730 1.59129536 87 87 94
-0.05848839 -0.21913992 0.62363553 56 59 67
-0.05725247 -0.21853678 0.62191910 55 58 66
-0.05622913 -0.21873745 0.62249023 57 58 67
-0.05515320 -0.21873745 0.62249023 59 59 68
-0.05407728 -0.21873745 0.62249023 60 60 69
-0.05300135 -0.21873745 0.62249023 62 62 71
-0.05192543 -0.21873745 0.62249023 61 61 70
-0.05084950 -0.21873745 0.62249023 66 66 77
-0.04977358 -0.21873745 0.62249023 45 45 52
-0.04869766 -0.21873745 0.62249023 107 108 113
-0.04753443 -0.21833646 0.62134910 190 190 191
0.90645671 -0.57816768 1.64536858 85 88 94
0.90272737 -0.57398814 1.63347435 86 87 94
0.89905149 -0.56986862 1.62175083 85 87 93
0.89330620 -0.56446701 1.60637879 85 88 92
-0.05854224 -0.21826281 0.62420982 56 58 67
-0.05730505 -0.21766153 0.62249023 57 59 67
-0.05628081 -0.21786158 0.62306237 58 59 68
-0.05520389 -0.21786158 0.62306237 60 60 69
-0.05407728 -0.21766153 0.62249023 61 61 70
-0.05300135 -0.21766153 0.62249023 62 62 71
-0.05192543 -0.21766153 0.62249023 64 64 73
-0.05084950 -0.21766153 0.62249023 64 66 76
-0.04981933 -0.21786158 0.62306237 46 48 56
-0.04869766 -0.21766153 0.62249023 101 104 111
-0.04753443 -0.21726252 0.62134910 194 194 194
0.89542806 -0.56302470 1.61019444 87 88 92
-0.05854224 -0.21718390 0.62420982 56 56 65
-0.05730505 -0.21658561 0.62249023 57 57 66
-0.05628081 -0.21678467 0.62306237 59 59 68
-0.05520389 -0.21678467 0.62306237 60 60 69
-0.05412698 -0.21678467 0.62306237 60 60 69
-0.05300135 -0.21658561 0.62249023 60 60 69
-0.05197315 -0.21678467 0.62306237 60 60 69
-0.05089624 -0.21678467 0.62306237 57 60 70
-0.04981933 -0.21678467 0.62306237 44 46 56
-0.04869766 -0.21658561 0.62249023 103 103 114
-0.04757804 -0.21638690 0.62191910 197 197 197
0.90709889 -0.57109374 1.64138460 85 87 91
0.90555066 -0.56834149 1.63347435 83 86 90
0.89970219 -0.56291580 1.61788034 87 87 94
0.89396429 -0.55759275 1.60258114 89 89 96
-0.05633258 -0.21590620 0.62363553 59 58 67
-0.05525468 -0.21590620 0.62363553 59 59 68
-0.05412698 -0.21570776 0.62306237 60 60 69
-0.05305007 -0.21570776 0.62306237 60 60 69
-0.05197315 -0.21570776 0.62306237 61 61 70
-0.05089624 -0.21570776 0.62306237 59 62 72
-0.04986516 -0.21590620 0.62363553 54 56 65
-0.04874242 -0.21570776 0.62306237 108 108 117
-0.04757804 -0.21531196 0.62191910 200 200 200
0.91056812 -0.56688416 1.63741994 84 84 91
-0.05628081 -0.21463084 0.62306237 58 58 69
-0.05525468 -0.21482830 0.62363553 59 59 68
-0.05412698 -0.21463084 0.62306237 60 60 69
-0.05305007 -0.21463084 0.62306237 60 60 69
-0.05197315 -0.21463084 0.62306237 61 61 69
-0.05089624 -0.21463084 0.62306237 60 63 73
-0.04986516 -0.21482830 0.62363553 50 53 62
-0.04874242 -0.21463084 0.62306237 113 114 123
-0.04757804 -0.21423703 0.62191910 197 199 199
0.21264441 -0.21988547 0.63831621 46 46 48
0.21234803 -0.21844561 0.63413644 47 47 49
0.92273855 -0.57516837 1.66968429 86 87 91
0.92108709 -0.57234895 1.66149962 86 87 92
0.91277289 -0.56541973 1.64138460 85 87 92
-0.05628081 -0.21355394 0.62306237 59 58 66
-0.05525468 -0.21375039 0.62363553 60 59 65
-0.05412698 -0.21355394 0.62306237 61 60 67
-0.05305007 -0.21355394 0.62306237 62 62 68
-0.05197315 -0.21355394 0.62306237 62 61 68
-0.05094307 -0.21375039 0.62363553 62 66 77
-0.04986516 -0.21375039 0.62363553 49 55 66
-0.04874242 -0.21355394 0.62306237 106 111 123
-0.04757804 -0.21316209 0.62191910 193 198 200
0.21264441 -0.21878219 0.63831621 48 48 50
0.21254686 -0.21755306 0.63473016 47 47 49
-0.05525468 -0.21267249 0.62363553 60 59 61
-0.05412698 -0.21247703 0.62306237 61 61 64
-0.05305007 -0.21247703 0.62306237 62 61 65
-0.05197315 -0.21247703 0.62306237 62 62 68
-0.05094307 -0.21267249 0.62363553 65 68 79
-0.04986516 -0.21267249 0.62363553 49 53 67
-0.04874242 -0.21247703 0.62306237 106 110 124
0.21284483 -0.21788406 0.63891786 49 49 51
0.21294564 -0.21686210 0.63592106 48 48 50
0.21545961 -0.21829556 0.64012450 25 24 23
-0.05535653 -0.21198462 0.62478513 60 59 63
-0.05422666 -0.21178943 0.62420982 61 60 64
-0.05309887 -0.21159458 0.62363553 61 61 65
-0.05206887 -0.21178943 0.62420982 60 60 67
-0.05098997 -0.21178943 0.62420982 57 58 70
0.21284483 -0.21677975 0.63891786 49 49 51
0.21294564 -0.21576296 0.63592106 47 46 47
0.21566325 -0.21739444 0.64072955 33 32 30
-0.05540759 -0.21109930 0.62536150 59 58 65
-0.05427664 -0.21090473 0.62478513 59 58 65
-0.05319675 -0.21090473 0.62478513 59 58 66
-0.05108405 -0.21109930 0.62536150 58 58 70
0.21334918 -0.21731399 0.64377195 48 48 51
0.21304563 -0.21587890 0.63952059 48 48 50
0.21294564 -0.21466382 0.63592106 43 43 45
0.21586730 -0.21649161 0.64133573 26 26 28
0.21738711 -0.21690203 0.64255148 122 121 122
-0.05432671 -0.21001841 0.62536150 59 59 67
-0.05319675 -0.20982485 0.62478513 60 60 67
0.21355198 -0.21640681 0.64438391 48 48 52
0.21304563 -0.21477354 0.63952059 48 48 52
0.21314558 -0.21376522 0.63651818 46 47 51
0.21627651 -0.21579143 0.64255148 25 25 27
