ply
format ascii 1.0
element vertex 1063
property float x
property float y
property float z
property uchar red
property uchar green
property uchar blue
end_header
-0.16599792 -0.00026208 0.50214213 205 205 206
-0.16488573 -0.00026170 0.50139928 206 207 209
-0.16401911 -0.00026170 0.50139928 199 200 201
-0.17371328 0.00060853 0.50438380 191 190 188
-0.17297019 0.00060899 0.50475937 194 192 189
-0.17222600 0.00060944 0.50513548 195 191 189
-0.17122531 0.00060899 0.50475937 195 190 189
-0.17022613 0.00060853 0.50438380 194 189 189
-0.16922843 0.00060808 0.50400883 195 192 192
-0.16848256 0.00060853 0.50438380 201 200 200
-0.16748615 0.00060808 0.50400883 213 213 213
-0.16624421 0.00060673 0.50288713 217 217 218
-0.16513000 0.00060583 0.50214213 216 217 218
-0.16438386 0.00060628 0.50251436 202 202 204
-0.17345516 0.00147812 0.50363433 191 190 190
-0.17209776 0.00148142 0.50475937 196 193 190
-0.17122531 0.00148142 0.50475937 195 191 189
-0.17022613 0.00148032 0.50438380 193 190 189
-0.16935435 0.00148032 0.50438380 196 195 195
-0.16848256 0.00148032 0.50438380 209 209 209
-0.16761076 0.00148032 0.50438380 214 214 214
0.89655352 0.00355912 1.21268666 106 85 75
0.89068282 0.00352757 1.20193589 109 83 76
0.88960558 0.00351511 1.19768882 109 83 76
-0.17358412 0.00235036 0.50400883 198 198 198
-0.17222600 0.00235561 0.50513548 194 194 194
-0.17135291 0.00235561 0.50513548 192 192 192
-0.17035288 0.00235386 0.50475937 189 189 189
-0.16948044 0.00235386 0.50475937 199 199 198
-0.16873364 0.00235561 0.50513548 211 211 210
-0.16786057 0.00235561 0.50513548 214 214 212
-0.16649123 0.00234861 0.50363433 210 210 208
0.89977276 0.00567546 1.21704102 106 84 77
0.89704484 0.00564505 1.21052110 109 83 76
0.89276022 0.00560502 1.20193589 109 83 76
0.89010310 0.00557536 1.19557643 109 83 77
-0.17371328 0.00322389 0.50438380 207 207 207
-0.17235443 0.00323110 0.50551218 200 201 199
-0.17148069 0.00323110 0.50551218 192 193 191
-0.17047982 0.00322870 0.50513548 195 195 195
-0.16960673 0.00322870 0.50513548 197 197 197
-0.16885948 0.00323110 0.50551218 202 202 202
-0.16798574 0.00323110 0.50551218 207 207 207
0.90253019 0.00782114 1.22363150 106 85 79
0.89977276 0.00777902 1.21704102 107 86 80
0.89704484 0.00773734 1.21052110 107 84 78
0.89434594 0.00769611 1.20407081 107 84 78
0.89010310 0.00764182 1.19557643 107 84 78
0.89059883 0.00762837 1.19347155 107 84 78
0.89423603 0.00764182 1.19557643 106 83 77
-0.17345516 0.00408959 0.50363433 208 207 206
-0.16960673 0.00410178 0.50513548 202 202 201
-0.16798574 0.00410484 0.50551218 201 201 201
0.90090400 0.00991819 1.22142673 106 85 79
0.89816022 0.00986486 1.21485996 105 84 78
0.89544582 0.00981211 1.20836341 107 84 78
0.89276022 0.00975992 1.20193589 107 84 78
0.89010310 0.00970828 1.19557643 107 84 78
0.89423603 0.00970828 1.19557643 106 83 78
-0.17345516 0.00496008 0.50363433 202 201 201
0.89977276 0.01198613 1.21704102 105 85 81
0.89544582 0.01190067 1.20836341 106 83 81
0.89276022 0.01183737 1.20193589 106 82 81
0.89010310 0.01177473 1.19557643 106 82 81
0.89059883 0.01175400 1.19347155 106 81 81
0.89581591 0.01179554 1.19768882 107 82 82
-0.17332639 0.00582625 0.50326043 201 200 200
0.89864951 0.01403928 1.21268666 108 85 81
0.89276022 0.01391481 1.20193589 107 82 80
0.89010310 0.01384119 1.19557643 106 81 79
0.88903362 0.01379254 1.19137406 105 78 78
-0.17319781 0.00669113 0.50288713 204 203 203
0.90026003 0.01616422 1.21485996 106 83 80
0.89434594 0.01602067 1.20407081 107 82 79
0.88853604 0.01587964 1.19347155 106 80 78
-0.17332639 0.00756594 0.50326043 194 193 193
0.90301514 0.01836273 1.22142673 106 84 81
0.90187627 0.01829680 1.21704102 105 82 79
0.89434594 0.01810181 1.20407081 105 81 78
0.88853604 0.01794246 1.19347155 104 80 77
0.88747394 0.01787950 1.18928397 104 79 76
0.90580022 0.02058514 1.22806489 108 87 81
0.90464514 0.02051083 1.22363150 106 85 79
0.90676010 0.02051083 1.22363150 103 80 76
0.89913708 0.02029107 1.21052110 101 74 74
0.88853604 0.02000528 1.19347155 103 76 76
0.88747394 0.01993508 1.18928397 103 76 76
0.89423603 0.02004056 1.19557643 102 75 75
0.91074997 0.02283184 1.23477566 108 88 77
0.90792286 0.02270775 1.22806489 108 87 79
0.91169709 0.02274896 1.23029375 108 86 80
0.90560573 0.02254439 1.21922994 109 82 82
0.89167571 0.02214608 1.19768882 109 82 82
0.89581591 0.02214608 1.19768882 107 80 80
0.91407996 0.02505733 1.23929036 107 90 75
0.91122437 0.02492066 1.23253059 105 87 75
0.91335469 0.02492066 1.23253059 106 87 75
0.90887505 0.02474072 1.22363150 107 85 78
0.89642709 0.02434522 1.20407081 106 85 77
0.89374584 0.02421618 1.19768882 108 83 78
0.89899260 0.02430206 1.20193589 108 83 79
0.89630246 0.02417348 1.19557643 108 83 79
0.89836895 0.02417348 1.19557643 108 83 79
0.90043539 0.02417348 1.19557643 108 83 79
0.92127466 0.02734934 1.24612474 107 88 75
0.91668814 0.02714971 1.23702896 105 86 74
0.91216809 0.02695297 1.22806489 104 85 75
0.90771306 0.02675907 1.21922994 104 85 75
0.90818697 0.02671103 1.21704102 106 84 77
0.90541399 0.02656793 1.21052110 107 84 78
0.90427667 0.02647338 1.20621324 107 84 78
0.90475166 0.02642636 1.20407081 107 84 78
0.90362275 0.02633282 1.19980860 107 84 78
0.90569651 0.02633282 1.19980860 107 84 78
0.90777034 0.02633282 1.19980860 107 84 78
0.92173409 0.02944903 1.24383819 107 87 76
0.91548502 0.02918131 1.23253059 105 84 77
0.91429067 0.02907559 1.22806489 105 84 77
0.91641331 0.02907559 1.22806489 103 81 76
0.91357082 0.02891842 1.22142673 102 79 76
0.91403508 0.02886641 1.21922994 106 83 80
0.91449761 0.02881458 1.21704102 106 83 80
0.91169083 0.02866022 1.21052110 106 82 80
0.91053122 0.02855823 1.20621324 107 83 80
0.91261607 0.02855823 1.20621324 107 83 80
0.90984410 0.02840659 1.19980860 107 83 80
0.91882622 0.03142592 1.23702896 105 84 78
0.91761535 0.03131164 1.23253059 105 84 78
0.91807646 0.03125482 1.23029375 103 81 76
0.91521990 0.03108557 1.22363150 101 77 74
0.91733485 0.03108557 1.22363150 101 77 74
0.91779310 0.03102956 1.22142673 103 80 79
0.91495854 0.03086273 1.21485996 104 82 81
0.91215426 0.03069769 1.20836341 104 82 81
0.91424280 0.03069769 1.20836341 105 81 80
0.91145730 0.03053440 1.20193589 106 82 81
0.91678572 0.03064307 1.20621324 106 82 81
0.91928679 0.03350289 1.23477566 105 84 78
0.91974568 0.03344197 1.23253059 105 84 79
0.91687489 0.03326055 1.22584414 105 83 80
0.91899365 0.03326055 1.22584414 103 82 78
0.91779310 0.03314069 1.22142673 110 90 87
0.91660118 0.03302170 1.21704102 107 87 85
0.91215426 0.03278625 1.20836341 101 81 79
0.91587538 0.03284479 1.21052110 103 81 79
0.91145730 0.03261185 1.20193589 103 81 79
0.92005998 0.03284479 1.21052110 102 81 79
0.92878646 0.03308109 1.21922994 102 82 80
-0.20373677 0.01312191 0.45465583 219 223 224
0.91974568 0.03557231 1.23253059 102 86 78
0.91687489 0.03537933 1.22584414 101 87 78
0.91899365 0.03537933 1.22584414 102 88 79
0.91944981 0.03531547 1.22363150 104 89 80
0.91660118 0.03512526 1.21704102 103 87 79
0.91215426 0.03487481 1.20836341 101 85 77
0.91751385 0.03499958 1.21268666 102 83 77
0.91307622 0.03475092 1.20407081 100 82 75
0.92335767 0.03506231 1.21485996 99 82 77
0.93045992 0.03525183 1.22142673 99 82 79
0.93257105 0.03525183 1.22142673 99 83 79
0.93132609 0.03512526 1.21704102 98 83 77
-0.20929402 0.01396394 0.45649281 214 214 215
-0.20822456 0.01394516 0.45587885 214 214 216
-0.20544624 0.01391708 0.45496097 213 214 216
-0.20360023 0.01389842 0.45435110 217 220 221
0.92142099 0.03777131 1.23477566 104 85 77
0.91853589 0.03756603 1.22806489 104 88 79
0.92232943 0.03763421 1.23029375 104 88 80
0.92278111 0.03756603 1.22806489 104 87 79
0.91990423 0.03736297 1.22142673 103 86 78
0.91705835 0.03716210 1.21485996 103 86 78
0.92080832 0.03722881 1.21704102 103 85 78
0.91796768 0.03702937 1.21052110 100 81 75
0.92834878 0.03736297 1.22142673 99 82 76
0.93045992 0.03736297 1.22142673 100 84 78
0.93257105 0.03736297 1.22142673 100 84 78
-0.20915318 0.01474302 0.45618564 215 215 217
-0.20808463 0.01472321 0.45557249 210 210 212
-0.20530845 0.01469358 0.45465583 211 212 214
-0.20346385 0.01467390 0.45404679 213 214 214
0.92020291 0.03976067 1.23029375 109 85 80
0.92400634 0.03983296 1.23253059 108 85 80
0.92445588 0.03976067 1.23029375 107 84 80
0.92156476 0.03954536 1.22363150 106 84 79
0.91870475 0.03933237 1.21704102 106 84 79
0.92412651 0.03947411 1.22142673 106 84 79
0.92125791 0.03926188 1.21485996 106 83 79
0.93213946 0.03954536 1.22363150 104 84 78
0.93257105 0.03947411 1.22142673 104 84 78
-0.20887205 0.01551063 0.45557249 214 214 216
-0.20780532 0.01548981 0.45496097 211 211 213
-0.20701896 0.01548981 0.45496097 206 207 209
-0.20623259 0.01548981 0.45496097 200 201 204
-0.20517084 0.01546904 0.45435110 202 203 205
-0.20424864 0.01545868 0.45404679 212 213 215
-0.20346385 0.01545868 0.45404679 208 208 208
-0.20254341 0.01544833 0.45374286 206 206 206
-0.20189428 0.01545868 0.45404679 206 207 207
-0.20110950 0.01545868 0.45404679 210 212 212
0.93425441 0.04166031 1.22363150 105 83 80
-0.20873177 0.01628710 0.45526651 205 206 208
-0.20766595 0.01626525 0.45465583 211 212 214
-0.20688012 0.01626525 0.45465583 213 214 217
-0.20609428 0.01626525 0.45465583 205 206 210
-0.20517084 0.01625435 0.45435110 204 205 208
-0.20424864 0.01624346 0.45404679 207 208 210
-0.20346385 0.01624346 0.45404679 204 204 204
-0.20254341 0.01623259 0.45374286 205 205 205
-0.20189428 0.01624346 0.45404679 207 208 208
-0.20124429 0.01625435 0.45435110 213 214 214
-0.20019062 0.01623259 0.45374286 210 213 212
-0.19940636 0.01623259 0.45374286 212 215 214
-0.19862211 0.01623259 0.45374286 215 217 216
-0.20766595 0.01705109 0.45465583 201 205 206
-0.20701896 0.01706253 0.45496097 213 217 219
-0.20609428 0.01705109 0.45465583 212 217 220
-0.20517084 0.01703966 0.45435110 207 212 213
-0.20424864 0.01702825 0.45404679 206 211 213
-0.20346385 0.01702825 0.45404679 211 213 213
-0.20267907 0.01702825 0.45404679 214 215 215
-0.20189428 0.01702825 0.45404679 216 217 217
-0.20124429 0.01703966 0.45435110 210 211 211
-0.20019062 0.01701685 0.45374286 205 206 207
-0.19940636 0.01701685 0.45374286 208 209 210
-0.19862211 0.01701685 0.45374286 213 213 215
-0.19783784 0.01701685 0.45374286 217 217 218
-0.19705360 0.01701685 0.45374286 218 218 219
-0.20752677 0.01782497 0.45435110 197 202 203
-0.20688012 0.01783692 0.45465583 206 212 212
-0.20595615 0.01782497 0.45435110 207 214 215
-0.20503342 0.01781303 0.45404679 208 215 216
-0.20411192 0.01780111 0.45374286 210 216 217
-0.20332767 0.01780111 0.45374286 209 213 214
-0.20254341 0.01780111 0.45374286 209 212 213
-0.20175914 0.01780111 0.45374286 209 210 212
-0.20110950 0.01781303 0.45404679 203 204 206
-0.20005672 0.01778920 0.45343935 209 209 211
-0.19927298 0.01778920 0.45343935 215 215 217
-0.19862211 0.01780111 0.45374286 211 211 214
-0.19770551 0.01778920 0.45343935 211 211 215
-0.19692178 0.01778920 0.45343935 215 215 219
-0.20674145 0.01861028 0.45435110 201 204 206
-0.20581821 0.01859781 0.45404679 205 211 211
-0.20489618 0.01858537 0.45374286 209 215 215
-0.20397539 0.01857293 0.45343935 212 218 218
-0.20332767 0.01858537 0.45374286 214 220 220
-0.20254341 0.01858537 0.45374286 207 213 213
-0.20175914 0.01858537 0.45374286 203 205 207
-0.20110950 0.01859781 0.45404679 203 205 206
-0.20005672 0.01857293 0.45343935 210 210 212
-0.19927298 0.01857293 0.45343935 218 218 221
-0.19862211 0.01858537 0.45374286 216 216 220
-0.19770551 0.01857293 0.45343935 216 216 220
-0.19692178 0.01857293 0.45343935 217 217 221
0.27762681 0.05360335 1.30867147 163 163 162
0.27934945 0.05350007 1.30614996 157 157 157
0.28215066 0.05360335 1.30867147 174 174 178
0.28893647 0.05360335 1.30867147 185 185 187
0.29176164 0.05370703 1.31120276 186 186 187
0.29574406 0.05402050 1.31885576 194 194 194
-0.20674145 0.01939559 0.45435110 200 201 201
-0.20581821 0.01938260 0.45404679 207 208 208
-0.20489618 0.01936962 0.45374286 212 214 214
-0.20411192 0.01936962 0.45374286 211 215 216
-0.20332767 0.01936962 0.45374286 210 214 215
-0.20254341 0.01936962 0.45374286 207 212 212
-0.20175914 0.01936962 0.45374286 207 211 212
-0.20110950 0.01938260 0.45404679 204 208 209
-0.20005672 0.01935667 0.45343935 210 211 213
-0.19927298 0.01935667 0.45343935 217 218 221
-0.19862211 0.01936962 0.45374286 215 215 219
-0.19770551 0.01935667 0.45343935 216 216 220
-0.19705360 0.01936962 0.45374286 216 216 220
0.27762681 0.05586528 1.30867147 163 163 163
0.28612217 0.05575764 1.30614996 201 201 201
0.28949535 0.05597334 1.31120276 198 197 197
0.29176164 0.05597334 1.31120276 192 191 191
0.29574406 0.05630003 1.31885576 194 193 193
-0.20581821 0.02016738 0.45404679 193 193 194
-0.20489618 0.02015388 0.45374286 204 205 207
-0.20411192 0.02015388 0.45374286 211 212 215
-0.20332767 0.02015388 0.45374286 210 212 214
-0.20254341 0.02015388 0.45374286 209 210 212
-0.20162418 0.02014040 0.45343935 209 210 212
-0.20110950 0.02016738 0.45404679 209 210 212
-0.20005672 0.02014040 0.45343935 213 214 216
-0.19913977 0.02012694 0.45313627 209 210 212
-0.19848925 0.02014040 0.45343935 209 209 212
-0.19757336 0.02012694 0.45313627 208 209 212
0.27870288 0.05835252 1.31374383 187 185 186
0.29005638 0.05835252 1.31374383 195 194 194
0.29232708 0.05835252 1.31374383 196 194 194
0.29574406 0.05857957 1.31885576 196 193 193
-0.20660299 0.02095216 0.45404679 177 177 177
-0.20568043 0.02093814 0.45374286 174 173 181
-0.20489618 0.02093814 0.45374286 181 180 188
-0.20411192 0.02093814 0.45374286 197 195 205
-0.20319165 0.02092413 0.45343935 208 208 213
-0.20240793 0.02092413 0.45343935 211 211 213
-0.20162418 0.02092413 0.45343935 211 211 213
-0.20005672 0.02092413 0.45343935 213 213 215
-0.19913977 0.02091015 0.45313627 212 213 215
-0.19848925 0.02092413 0.45343935 207 208 210
-0.19757336 0.02091015 0.45313627 210 211 213
0.27924404 0.06074093 1.31629479 191 187 192
0.28097358 0.06062321 1.31374383 179 178 176
0.28379425 0.06074093 1.31629479 192 191 189
0.28551498 0.06062321 1.31374383 191 190 188
0.28778568 0.06062321 1.31374383 193 191 189
0.29061958 0.06074093 1.31629479 198 194 193
0.29346454 0.06085910 1.31885576 201 197 196
0.29632056 0.06097773 1.32142663 195 191 191
-0.20660299 0.02173695 0.45404679 179 180 179
-0.20568043 0.02172240 0.45374286 162 160 174
-0.20489618 0.02172240 0.45374286 168 165 179
-0.20397539 0.02170787 0.45343935 185 182 196
-0.20319165 0.02170787 0.45343935 202 200 208
-0.20227262 0.02169336 0.45313627 211 211 213
0.27924404 0.06301604 1.31629479 187 182 187
0.28043011 0.06277227 1.31120276 184 180 179
0.28379425 0.06301604 1.31629479 199 196 195
0.28551498 0.06289391 1.31374383 193 191 189
0.28834447 0.06301604 1.31629479 195 191 190
0.29118499 0.06313864 1.31885576 198 193 193
0.29346454 0.06313864 1.31885576 196 191 192
0.29632056 0.06326172 1.32142663 193 189 190
0.30036104 0.06363384 1.32919967 203 197 198
0.30325308 0.06375886 1.33181107 200 194 194
0.30555499 0.06375886 1.33181107 196 190 190
0.30846295 0.06388437 1.33443272 189 180 181
0.31015885 0.06375886 1.33181107 188 180 181
-0.20489618 0.02250665 0.45374286 180 177 183
-0.20397539 0.02249160 0.45343935 201 198 204
0.27816379 0.06503857 1.31120276 195 191 193
0.27988875 0.06491301 1.30867147 198 194 193
0.28269643 0.06503857 1.31120276 203 199 196
0.28496271 0.06503857 1.31120276 197 192 188
0.29061958 0.06529114 1.31629479 201 192 194
0.29232708 0.06516461 1.31374383 199 188 192
0.29516980 0.06529114 1.31629479 189 186 187
0.29977325 0.06580223 1.32659853 193 188 188
0.30265847 0.06593126 1.32919967 193 187 187
0.30495587 0.06593126 1.32919967 199 192 192
0.30846295 0.06619083 1.33443272 190 182 183
0.31015885 0.06606079 1.33181107 188 181 182
0.31307587 0.06619083 1.33443272 194 191 192
-0.20503342 0.02330651 0.45404679 209 208 208
-0.20411192 0.02329091 0.45374286 222 222 222
0.27709189 0.06704552 1.30614996 194 193 193
0.28949535 0.06730488 1.31120276 189 179 181
0.29119840 0.06717495 1.30867147 195 185 188
0.29459777 0.06743532 1.31374383 196 195 195
0.30206618 0.06809515 1.32659853 196 194 194
0.30435908 0.06809515 1.32659853 199 193 193
0.30846295 0.06849729 1.33443272 186 181 181
0.31015885 0.06836271 1.33181107 183 178 177
-0.20581821 0.02409129 0.45404679 200 200 200
-0.20530845 0.02412361 0.45465583 215 215 216
-0.20438553 0.02410744 0.45435110 215 215 217
0.27655900 0.06916981 1.30363810 192 185 186
0.28949535 0.06957119 1.31120276 179 170 172
0.29063731 0.06930309 1.30614996 192 183 186
0.29402795 0.06957119 1.31120276 194 193 193
0.30955070 0.07052609 1.32919967 195 194 192
-0.20503342 0.02487608 0.45404679 207 206 207
-0.20424864 0.02487608 0.45404679 200 203 205
0.29005638 0.07197671 1.31374383 187 183 186
0.29119840 0.07169881 1.30867147 188 184 187
0.29402795 0.07183749 1.31120276 185 184 186
-0.20503342 0.02566086 0.45404679 203 202 202
-0.20424864 0.02566086 0.45404679 199 199 199
0.28496271 0.07410379 1.31120276 196 193 192
0.28722903 0.07410379 1.31120276 205 201 201
0.29118499 0.07453631 1.31885576 197 193 193
0.29289469 0.07439158 1.31629479 190 186 187
0.29516980 0.07439158 1.31629479 176 175 177
-0.20503342 0.02644564 0.45404679 195 196 197
0.28269643 0.07637011 1.31120276 163 162 163
0.28496271 0.07637011 1.31120276 189 188 190
0.28778568 0.07651811 1.31374383 203 199 200
0.29118499 0.07681584 1.31885576 193 189 190
0.29232708 0.07651811 1.31374383 183 179 180
0.29459777 0.07651811 1.31374383 174 173 173
-0.20517084 0.02724868 0.45435110 197 203 203
0.28441259 0.07848460 1.30867147 179 178 180
0.29005638 0.07878881 1.31374383 181 178 179
0.29176164 0.07863642 1.31120276 177 174 175
0.29402795 0.07863642 1.31120276 170 169 169
0.28215066 0.08074654 1.30867147 179 178 179
0.28441259 0.08074654 1.30867147 188 187 188
0.28667453 0.08074654 1.30867147 193 192 192
0.28949535 0.08090272 1.31120276 192 191 191
0.29119840 0.08074654 1.30867147 187 187 187
0.29346034 0.08074654 1.30867147 168 168 168
0.28215066 0.08300847 1.30867147 189 189 189
0.28441259 0.08300847 1.30867147 178 178 178
0.28667453 0.08300847 1.30867147 194 193 193
0.28893647 0.08300847 1.30867147 202 201 200
0.29063731 0.08284853 1.30614996 190 190 189
0.29289490 0.08284853 1.30614996 173 173 172
0.28893647 0.08527040 1.30867147 200 199 195
0.29063731 0.08510610 1.30614996 196 196 194
0.29289490 0.08510610 1.30614996 190 189 187
0.28837976 0.08736368 1.30614996 198 197 193
0.29063731 0.08736368 1.30614996 201 199 198
0.29289490 0.08736368 1.30614996 187 185 183
0.29798418 0.08753233 1.30867147 197 188 187
0.28893647 0.08979427 1.30867147 190 184 185
0.29063731 0.08962125 1.30614996 203 197 198
0.29289490 0.08962125 1.30614996 193 186 188
0.29798418 0.08979427 1.30867147 191 182 181
0.28496271 0.09223426 1.31120276 195 189 190
0.28722903 0.09223426 1.31120276 199 193 195
0.29005638 0.09241301 1.31374383 199 193 195
0.29176164 0.09223426 1.31120276 200 194 196
0.29402795 0.09223426 1.31120276 199 192 194
0.29572228 0.09205620 1.30867147 197 188 189
0.29972002 0.09259245 1.31629479 182 173 173
0.28496271 0.09450057 1.31120276 192 189 189
0.28778568 0.09468371 1.31374383 196 192 193
0.29061958 0.09486756 1.31629479 191 187 188
0.29232708 0.09468371 1.31374383 194 190 191
0.29459777 0.09468371 1.31374383 195 191 192
0.29686847 0.09468371 1.31374383 195 190 190
0.30030313 0.09505213 1.31885576 194 189 189
0.28496271 0.09676687 1.31120276 190 187 188
0.28722903 0.09676687 1.31120276 190 186 187
0.29005638 0.09695441 1.31374383 184 180 181
0.29176164 0.09676687 1.31120276 188 184 185
0.29402795 0.09676687 1.31120276 192 188 189
0.29629427 0.09676687 1.31120276 192 188 189
0.29972002 0.09714267 1.31629479 195 193 193
0.29176164 0.09903318 1.31120276 189 183 184
0.29402795 0.09903318 1.31120276 196 190 190
0.29686847 0.09922511 1.31374383 191 187 186
1.33667994 0.16831434 1.99968100 123 97 90
1.31248593 0.17177063 1.99968100 126 101 89
1.31207180 0.17126542 1.99379957 125 100 88
1.31939852 0.17177063 1.99968100 125 99 90
1.33322358 0.17177063 1.99968100 123 97 90
1.33274853 0.17126542 1.99379957 123 96 91
1.31248593 0.19596463 1.99968100 128 104 87
1.31594217 0.19596463 1.99968100 127 102 90
1.30902958 0.19942091 1.99968100 127 103 84
1.31248593 0.19942091 1.99968100 128 104 85
0.15258673 0.04646984 0.45803502 189 183 184
0.15179506 0.04726152 0.45803502 179 173 175
0.15258673 0.04726152 0.45803502 184 179 178
0.15327485 0.04722961 0.45772576 193 187 183
0.15406598 0.04722961 0.45772576 181 176 171
0.15496176 0.04726152 0.45803502 181 175 172
0.15169255 0.04802075 0.45772576 176 171 173
0.15238081 0.04798835 0.45741689 178 173 174
0.15317142 0.04798835 0.45741689 178 171 171
0.15396203 0.04798835 0.45741689 172 163 163
0.15485713 0.04802075 0.45772576 176 167 167
0.15159020 0.04877896 0.45741689 173 167 169
0.15227807 0.04874607 0.45710847 168 162 164
0.15306814 0.04874607 0.45710847 166 162 163
0.15385821 0.04874607 0.45710847 185 177 178
0.15148799 0.04953614 0.45710847 188 187 186
0.15217544 0.04950276 0.45680043 179 178 177
0.15296499 0.04950276 0.45680043 176 175 174
0.15375453 0.04950276 0.45680043 195 192 192
1.32976735 0.21670236 1.99968100 122 100 87
0.15138590 0.05029230 0.45680043 194 193 191
0.15207297 0.05025844 0.45649281 183 182 180
0.15275912 0.05022462 0.45618564 177 176 174
0.15354760 0.05022462 0.45618564 200 198 197
1.32585621 0.21951111 1.99379957 127 102 88
0.15197064 0.05101310 0.45618564 186 185 183
0.15265639 0.05097879 0.45587885 180 176 173
0.15197064 0.05180158 0.45618564 190 186 182
0.15265639 0.05176674 0.45587885 187 179 175
0.15138590 0.05266093 0.45680043 192 188 180
0.15197064 0.05259005 0.45618564 184 179 172
0.15255380 0.05251937 0.45557249 187 179 175
0.15039368 0.05337853 0.45618564 192 188 186
0.15128396 0.05341448 0.45649281 181 177 175
0.15186843 0.05334264 0.45587885 177 173 172
0.15245134 0.05327099 0.45526651 178 171 170
0.15303268 0.05319953 0.45465583 194 186 185
0.15549448 0.05323524 0.45496097 197 191 191
0.15617602 0.05319953 0.45465583 186 185 183
0.15685666 0.05316387 0.45435110 192 191 190
0.15899944 0.05309271 0.45374286 190 190 192
0.15978371 0.05309271 0.45374286 180 180 182
0.15049495 0.05420349 0.45649281 186 184 185
0.15138590 0.05424002 0.45680043 179 178 178
0.15197064 0.05416701 0.45618564 177 176 177
0.15245134 0.05405788 0.45526651 175 173 173
0.15303268 0.05398537 0.45465583 188 186 185
0.15549448 0.05402160 0.45496097 193 191 189
0.15617602 0.05398537 0.45465583 181 180 179
0.15685666 0.05394918 0.45435110 185 184 183
0.15753637 0.05391305 0.45404679 189 188 188
0.15832116 0.05391305 0.45404679 185 185 186
0.15910594 0.05391305 0.45404679 175 174 176
0.15989073 0.05391305 0.45404679 181 180 182
0.16056797 0.05387696 0.45374286 173 172 174
0.15118216 0.05495549 0.45618564 181 180 182
0.15176637 0.05488163 0.45557249 181 181 183
0.15224685 0.05477120 0.45465583 176 176 178
0.15293011 0.05473449 0.45435110 181 181 182
0.15439725 0.05469783 0.45404679 190 189 189
0.15539019 0.05477120 0.45465583 191 190 190
0.15607135 0.05473449 0.45435110 186 183 184
0.15685666 0.05473449 0.45435110 188 184 185
0.15753637 0.05469783 0.45404679 190 187 188
0.15821519 0.05466122 0.45374286 189 185 187
0.15899944 0.05466122 0.45374286 177 171 175
0.15019153 0.05566905 0.45557249 188 187 187
0.15118216 0.05574397 0.45618564 184 183 183
0.15166445 0.05563166 0.45526651 188 187 189
0.15224685 0.05555704 0.45465583 186 185 187
0.15303268 0.05555704 0.45465583 184 183 185
0.15371542 0.05551980 0.45435110 183 182 183
0.15439725 0.05548262 0.45404679 191 189 190
0.15539019 0.05555704 0.45465583 188 184 185
0.15607135 0.05551980 0.45435110 184 180 181
0.15675159 0.05548262 0.45404679 183 179 180
0.15743093 0.05544548 0.45374286 180 176 177
0.15009066 0.05641855 0.45526651 190 189 188
0.15118216 0.05653245 0.45618564 180 178 178
0.15176637 0.05645647 0.45557249 185 182 185
0.15234903 0.05638069 0.45496097 189 187 190
0.15313539 0.05638069 0.45496097 186 185 187
0.15371542 0.05630511 0.45435110 186 185 187
0.15439725 0.05626740 0.45404679 192 191 193
0.15539019 0.05634288 0.45465583 193 190 191
0.15607135 0.05630511 0.45435110 190 187 187
0.15675159 0.05626740 0.45404679 179 175 176
0.14988934 0.05712871 0.45465583 174 168 170
0.15087755 0.05720545 0.45526651 169 163 166
0.15156266 0.05716705 0.45496097 184 178 182
0.15214480 0.05709042 0.45435110 186 180 184
0.15293011 0.05709042 0.45435110 177 176 178
0.15361246 0.05705218 0.45404679 186 186 188
0.15439725 0.05705218 0.45404679 193 193 195
0.15528604 0.05709042 0.45435110 192 191 191
0.15586242 0.05701400 0.45374286 190 187 188
0.15664667 0.05701400 0.45374286 178 174 175
0.15732563 0.05697586 0.45343935 177 173 174
0.15097895 0.05803131 0.45557249 161 160 162
0.15156266 0.05795342 0.45496097 179 178 180
0.15214480 0.05787573 0.45435110 187 186 188
0.15293011 0.05787573 0.45435110 181 181 182
0.15361246 0.05783696 0.45404679 187 187 189
0.15429389 0.05779825 0.45374286 183 183 185
0.15518203 0.05783696 0.45404679 180 179 179
0.15586242 0.05779825 0.45374286 186 184 185
0.15108049 0.05885829 0.45587885 183 183 182
0.15156266 0.05873978 0.45496097 183 183 183
0.15282768 0.05862175 0.45404679 185 186 186
0.15361246 0.05862175 0.45404679 187 187 187
0.15429389 0.05858251 0.45374286 190 190 190
0.15146101 0.05948622 0.45465583 187 188 186
0.15272538 0.05936677 0.45374286 192 191 191
0.15361246 0.05940653 0.45404679 188 187 187
0.15429389 0.05936677 0.45374286 188 187 187
0.15586242 0.05936677 0.45374286 202 198 197
-0.02196752 0.09226451 0.69598752 173 165 168
-0.02076456 0.09226451 0.69598752 169 160 157
-0.01952151 0.09207544 0.69456130 148 143 138
0.15135950 0.06023166 0.45435110 187 186 186
0.15194112 0.06015103 0.45374286 187 187 187
0.15419069 0.06011079 0.45343935 190 189 189
0.15497443 0.06011079 0.45343935 198 197 195
0.15575816 0.06011079 0.45343935 197 196 194
-0.02565541 0.09375624 0.69813782 155 154 156
-0.02442358 0.09365979 0.69741958 154 153 155
-0.02319429 0.09356353 0.69670284 148 143 147
-0.02196752 0.09346747 0.69598752 170 164 168
-0.02076456 0.09346747 0.69598752 159 157 159
-0.01954154 0.09337161 0.69527370 127 126 128
0.15125811 0.06097610 0.45404679 189 188 190
0.15194112 0.06093528 0.45374286 193 192 193
-0.02562902 0.09486523 0.69741958 159 154 156
-0.02442358 0.09486523 0.69741958 165 164 164
-0.02319429 0.09476773 0.69670284 169 167 168
-0.02196752 0.09467043 0.69598752 164 160 163
-0.02076456 0.09467043 0.69598752 163 163 165
-0.01954154 0.09457333 0.69527370 154 154 156
-0.01832102 0.09447643 0.69456130 145 145 147
-0.02444874 0.09616960 0.69813782 157 151 153
-0.02321815 0.09607065 0.69741958 154 150 152
-0.02199009 0.09597192 0.69670284 153 152 154
-0.02078590 0.09597192 0.69670284 161 161 163
-0.01956160 0.09587339 0.69598752 158 158 160
-0.01835864 0.09587339 0.69598752 155 155 157
-0.02442358 0.09727609 0.69741958 157 148 151
-0.02321815 0.09727609 0.69741958 155 149 151
-0.02199009 0.09717611 0.69670284 157 153 154
-0.02078590 0.09717611 0.69670284 161 161 161
-0.01958170 0.09717611 0.69670284 158 158 160
-0.01837751 0.09717611 0.69670284 141 141 144
-0.01719098 0.09727609 0.69741958 150 149 151
-0.02442358 0.09848152 0.69741958 153 144 145
-0.02319429 0.09838030 0.69670284 161 154 155
-0.02199009 0.09838030 0.69670284 157 153 154
-0.02078590 0.09838030 0.69670284 146 145 147
-0.01956160 0.09827930 0.69598752 156 155 159
-0.01837751 0.09838030 0.69670284 134 133 138
-0.01717331 0.09838030 0.69670284 148 147 153
-0.03406705 0.09968696 0.69741958 144 141 142
-0.02442358 0.09968696 0.69741958 153 148 150
-0.02321815 0.09968696 0.69741958 153 149 150
-0.02199009 0.09958450 0.69670284 145 141 142
-0.02078590 0.09958450 0.69670284 137 133 141
-0.01956160 0.09948226 0.69598752 150 147 156
-0.01837751 0.09958450 0.69670284 142 141 150
-0.03640301 0.10068522 0.69598752 140 134 136
-0.03530881 0.10099629 0.69813782 144 139 141
-0.03413729 0.10110041 0.69885755 144 141 140
-0.03296335 0.10120475 0.69957876 146 145 145
-0.02326602 0.10110041 0.69885755 138 136 138
-0.02203539 0.10099629 0.69813782 122 119 122
-0.03640301 0.10188817 0.69598752 144 139 139
-0.03530881 0.10220297 0.69813782 142 138 137
-0.03413729 0.10230833 0.69885755 148 147 146
-0.03296335 0.10241392 0.69957876 141 140 140
-0.03178699 0.10251971 0.70030147 148 147 148
-0.03054502 0.10241392 0.69957876 149 149 153
-0.02329003 0.10241392 0.69957876 148 148 151
-0.02208087 0.10241392 0.69957876 148 147 151
-0.03752891 0.10287988 0.69456130 145 135 140
-0.03640301 0.10309114 0.69598752 130 120 126
-0.03530881 0.10340964 0.69813782 134 125 131
-0.03410213 0.10340964 0.69813782 151 147 152
-0.03296335 0.10362308 0.69957876 156 154 158
-0.03175419 0.10362308 0.69957876 155 153 157
-0.03051353 0.10351625 0.69885755 158 157 158
-0.02818487 0.10383740 0.70102566 140 138 142
-0.02697320 0.10383740 0.70102566 133 132 138
-0.02329003 0.10362308 0.69957876 135 134 140
-0.02205810 0.10351625 0.69885755 150 150 154
-0.02085018 0.10351625 0.69885755 159 159 161
-0.01964227 0.10351625 0.69885755 164 164 165
0.71319646 0.16989978 1.14702511 151 153 146
-0.03745216 0.10386753 0.69314092 137 126 132
-0.03636568 0.10418712 0.69527370 127 117 123
-0.03527248 0.10450869 0.69741958 150 142 148
-0.03406705 0.10450869 0.69741958 164 159 163
-0.03292937 0.10472417 0.69885755 160 156 158
-0.03172145 0.10472417 0.69885755 160 156 158
-0.03048211 0.10461632 0.69813782 162 159 159
-0.02930561 0.10472417 0.69885755 163 161 163
-0.02812669 0.10483225 0.69957876 143 141 146
-0.02329003 0.10483225 0.69957876 138 137 141
-0.02205810 0.10472417 0.69885755 142 142 142
-0.02085018 0.10472417 0.69885755 162 162 162
-0.01962204 0.10461632 0.69813782 165 165 165
0.71079105 0.17130260 1.14315653 147 149 140
-0.03741391 0.10495825 0.69243294 151 144 147
-0.03523623 0.10560548 0.69670284 156 152 154
-0.03403204 0.10560548 0.69670284 154 150 151
-0.03289546 0.10582300 0.69813782 150 146 147
-0.02927543 0.10582300 0.69813782 154 152 152
-0.02806876 0.10582300 0.69813782 139 137 139
-0.02688978 0.10593209 0.69885755 137 136 142
-0.02565541 0.10582300 0.69813782 162 161 167
-0.02449920 0.10604141 0.69957876 162 162 165
-0.02326602 0.10593209 0.69885755 153 153 153
-0.02205810 0.10593209 0.69885755 138 138 137
-0.02082871 0.10582300 0.69813782 149 149 149
-0.01962204 0.10582300 0.69813782 160 160 160
-0.01843435 0.10593209 0.69885755 163 163 163
-0.01724420 0.10604141 0.69957876 168 164 165
-0.01603504 0.10604141 0.69957876 162 159 160
0.71001250 0.17357115 1.14508760 150 151 144
0.71199173 0.17357115 1.14508760 142 143 136
-0.03737573 0.10604674 0.69172639 165 163 163
-0.03625412 0.10626361 0.69314092 141 140 140
-0.03520005 0.10670001 0.69598752 147 147 147
-0.03403204 0.10680967 0.69670284 149 148 148
-0.03289546 0.10702967 0.69813782 153 151 152
-0.02562902 0.10691956 0.69741958 169 169 172
-0.02449920 0.10725058 0.69957876 169 169 170
-0.02326602 0.10714000 0.69885755 156 156 154
-0.02208087 0.10725058 0.69957876 150 150 148
-0.02085018 0.10714000 0.69885755 135 135 135
-0.01724420 0.10725058 0.69957876 149 148 148
0.71362889 0.17644450 1.15091991 145 145 140
0.71440524 0.17614543 1.14896917 139 138 133
-0.03523623 0.10801386 0.69670284 158 157 157
-0.03403204 0.10801386 0.69670284 140 140 141
-0.03289546 0.10823634 0.69813782 151 149 151
-0.02326602 0.10834792 0.69885755 157 157 157
-0.02208087 0.10845974 0.69957876 148 148 148
0.70288664 0.17873722 1.15287733 149 148 148
0.71284992 0.17873722 1.15287733 151 150 148
0.71362889 0.17843376 1.15091991 151 149 147
0.71561813 0.17843376 1.15091991 151 148 146
0.71037108 0.17663443 1.13931406 146 144 141
-0.03403204 0.10921805 0.69670284 137 136 136
-0.02329003 0.10966890 0.69957876 156 156 154
-0.02208087 0.10966890 0.69957876 156 148 149
0.70288664 0.18072988 1.15287733 158 157 157
0.70487928 0.18072988 1.15287733 162 161 161
0.70886457 0.18072988 1.15287733 163 162 162
0.70965034 0.18042304 1.15091991 163 162 161
0.71284992 0.18072988 1.15287733 153 152 150
0.71362889 0.18042304 1.15091991 153 150 149
0.71561813 0.18042304 1.15091991 158 152 152
0.71037108 0.17860365 1.13931406 147 142 141
0.71234030 0.17860365 1.13931406 137 134 132
-0.03403204 0.11042225 0.69670284 142 142 142
-0.02331409 0.11099262 0.70030147 152 141 143
0.70528555 0.18334617 1.15681207 154 153 149
0.70728499 0.18334617 1.15681207 162 161 156
0.70928442 0.18334617 1.15681207 153 150 148
0.71007216 0.18303382 1.15484130 134 130 131
0.71085721 0.18272254 1.15287733 121 117 118
0.71284992 0.18272254 1.15287733 123 119 119
0.71362889 0.18241231 1.15091991 143 138 139
0.71561813 0.18241231 1.15091991 157 148 152
0.70917916 0.18026988 1.13740242 146 138 142
0.71114504 0.18026988 1.13740242 130 131 131
0.70528555 0.18534562 1.15681207 150 148 143
0.70728499 0.18534562 1.15681207 155 152 145
0.70928442 0.18534562 1.15681207 156 152 147
0.71007216 0.18502986 1.15484130 145 140 138
0.71085721 0.18471520 1.15287733 121 116 116
0.71284992 0.18471520 1.15287733 98 94 98
0.71362889 0.18440159 1.15091991 114 109 113
0.71440524 0.18408903 1.14896917 132 124 132
0.70799124 0.18193054 1.13549721 125 117 125
0.70995384 0.18193054 1.13549721 123 123 126
0.70528555 0.18734507 1.15681207 152 147 143
0.70728499 0.18734507 1.15681207 155 151 145
0.70928442 0.18734507 1.15681207 156 151 146
0.71007216 0.18702592 1.15484130 157 151 149
0.71085721 0.18670784 1.15287733 147 142 140
0.71406430 0.18702592 1.15484130 125 123 123
0.71484256 0.18670784 1.15287733 126 124 124
0.71561813 0.18639085 1.15091991 127 125 128
0.71156698 0.18482190 1.14123201 124 122 126
0.71234030 0.18451129 1.13931406 124 123 126
0.70528555 0.18934453 1.15681207 157 151 149
0.70728499 0.18934453 1.15681207 160 156 153
0.70928442 0.18934453 1.15681207 156 152 149
0.71128392 0.18934453 1.15681207 155 150 151
0.71206826 0.18902196 1.15484130 163 159 159
0.71528280 0.18934453 1.15681207 159 158 158
0.71606034 0.18902196 1.15484130 159 159 159
0.71683520 0.18870050 1.15287733 159 159 159
0.71397090 0.18742549 1.14508760 153 153 154
0.71474278 0.18710944 1.14315653 144 142 143
0.70649117 0.19167107 1.15878952 159 158 154
0.70849401 0.19167107 1.15878952 152 151 147
0.71049690 0.19167107 1.15878952 146 145 141
0.71128392 0.19134398 1.15681207 138 135 135
0.71328336 0.19134398 1.15681207 153 149 150
0.71650553 0.19167107 1.15878952 159 157 158
0.71728230 0.19134398 1.15681207 160 159 159
0.71805638 0.19101802 1.15484130 157 156 156
0.71639115 0.19004674 1.14896917 150 150 150
0.71837705 0.19004674 1.14896917 146 144 144
0.70770091 0.19400558 1.16077375 158 157 152
0.70849401 0.19367394 1.15878952 154 150 147
0.71049690 0.19367394 1.15878952 143 139 136
0.71249980 0.19367394 1.15878952 131 126 126
0.71450263 0.19367394 1.15878952 145 141 142
0.71773243 0.19400558 1.16077375 152 149 150
0.71850842 0.19367394 1.15878952 146 144 145
0.71928173 0.19334345 1.15681207 139 137 138
0.71882784 0.19268581 1.15287733 140 138 139
0.72082049 0.19268581 1.15287733 149 145 146
0.01473348 0.13404091 0.79378438 167 163 166
0.01751849 0.13435556 0.79564768 155 154 154
0.70649117 0.19567682 1.15878952 146 144 139
0.70849401 0.19567682 1.15878952 146 141 140
0.71049690 0.19567682 1.15878952 140 134 134
0.71249980 0.19567682 1.15878952 129 124 124
0.71450263 0.19567682 1.15878952 135 132 133
0.71650553 0.19567682 1.15878952 147 143 144
0.71850842 0.19567682 1.15878952 145 139 142
0.71928173 0.19534290 1.15681207 143 137 140
0.72005242 0.19501011 1.15484130 144 138 140
0.72204846 0.19501011 1.15484130 155 149 151
0.01336149 0.13541290 0.79378438 160 156 158
0.01471625 0.13525453 0.79285598 164 161 161
0.01608664 0.13525453 0.79285598 174 171 172
0.01749795 0.13557166 0.79471493 165 164 165
0.01882741 0.13525453 0.79285598 156 155 156
0.70649117 0.19767968 1.15878952 144 143 142
0.70849401 0.19767968 1.15878952 146 141 142
0.71049690 0.19767968 1.15878952 141 135 137
0.71249980 0.19767968 1.15878952 136 131 133
0.71450263 0.19767968 1.15878952 144 140 141
0.71773243 0.19801818 1.16077375 151 147 149
0.71850842 0.19767968 1.15878952 147 141 145
0.72051126 0.19767968 1.15878952 164 158 162
0.72128117 0.19734235 1.15681207 161 155 157
0.00376195 0.13694525 0.79471493 160 153 155
0.00512354 0.13662492 0.79285598 156 147 148
0.01334586 0.13662492 0.79285598 161 157 160
0.01469906 0.13646530 0.79192972 161 157 158
0.01608664 0.13662492 0.79285598 167 166 166
0.01747747 0.13678490 0.79378438 168 167 167
0.70849401 0.19968256 1.15878952 150 147 148
0.71049690 0.19968256 1.15878952 145 139 141
0.71371979 0.20002449 1.16077375 138 132 134
0.71572614 0.20002449 1.16077375 137 131 131
0.71773243 0.20002449 1.16077375 145 138 139
0.71973872 0.20002449 1.16077375 142 134 137
0.72174501 0.20002449 1.16077375 165 156 160
0.72251415 0.19968256 1.15878952 150 148 148
0.00376637 0.13848120 0.79564768 152 144 145
0.00512954 0.13815689 0.79378438 150 137 139
0.00650153 0.13815689 0.79378438 153 142 144
0.01471625 0.13799530 0.79285598 161 154 157
0.01751849 0.13848120 0.79564768 169 163 164
0.70928442 0.20134127 1.15681207 146 140 142
0.71249980 0.20168544 1.15878952 139 133 135
0.71450263 0.20168544 1.15878952 114 108 108
0.71650553 0.20168544 1.15878952 129 123 123
0.71850842 0.20168544 1.15878952 155 149 149
0.72051126 0.20168544 1.15878952 166 160 160
0.00377523 0.14018549 0.79751980 142 134 136
0.00514158 0.13985641 0.79564768 152 136 139
0.00651679 0.13985641 0.79564768 157 142 145
0.00789200 0.13985641 0.79564768 148 141 142
0.00925635 0.13969246 0.79471493 137 136 137
0.01336149 0.13952889 0.79378438 154 148 156
0.01473348 0.13952889 0.79378438 164 157 161
0.01753908 0.14002076 0.79658264 175 169 168
0.70928442 0.20334072 1.15681207 138 134 134
0.71249980 0.20368831 1.15878952 141 137 137
0.71450263 0.20368831 1.15878952 130 128 127
0.71650553 0.20368831 1.15878952 135 134 132
0.71728230 0.20334072 1.15681207 159 155 154
0.71928173 0.20334072 1.15681207 152 147 147
0.71882784 0.20264909 1.15287733 132 126 126
0.00102073 0.14189781 0.79940075 149 145 146
0.00240243 0.14189781 0.79940075 165 159 161
0.00377968 0.14173068 0.79845917 165 159 161
0.00514762 0.14139758 0.79658264 156 147 150
0.00652445 0.14139758 0.79658264 153 144 147
0.00789200 0.14123163 0.79564768 152 145 149
0.00926722 0.14123163 0.79564768 145 141 146
0.01061751 0.14090087 0.79378438 124 119 128
0.01197548 0.14073607 0.79285598 135 130 138
0.01336149 0.14090087 0.79378438 157 152 159
0.01473348 0.14090087 0.79378438 150 149 151
0.01612435 0.14106606 0.79471493 148 147 143
0.01751849 0.14123163 0.79564768 147 146 144
0.70928442 0.20534018 1.15681207 150 149 147
0.71249980 0.20569119 1.15878952 151 150 148
0.71450263 0.20569119 1.15878952 147 147 145
0.71650553 0.20569119 1.15878952 143 142 140
0.71850842 0.20569119 1.15878952 155 154 152
0.71805638 0.20499036 1.15484130 151 150 148
0.71882784 0.20464174 1.15287733 133 131 130
-0.00175092 0.14395855 0.80318940 153 151 155
-0.00036268 0.14395855 0.80318940 158 157 161
0.00102315 0.14361823 0.80129057 165 161 164
0.00240527 0.14344867 0.80034459 165 158 161
0.00378413 0.14327951 0.79940075 165 157 159
0.00515368 0.14294238 0.79751980 164 155 158
0.00653213 0.14294238 0.79751980 160 153 155
0.00790128 0.14277442 0.79658264 158 152 154
0.00927811 0.14277442 0.79658264 159 153 155
0.01064243 0.14260684 0.79564768 139 133 134
0.01200355 0.14243965 0.79471493 149 146 146
0.01337715 0.14243965 0.79471493 158 157 156
0.01475075 0.14243965 0.79471493 160 159 156
0.01614328 0.14260684 0.79564768 152 151 149
0.01753908 0.14277442 0.79658264 147 146 145
0.71049690 0.20769405 1.15878952 140 138 137
0.71371979 0.20804970 1.16077375 140 139 137
0.71695375 0.20840655 1.16276479 151 151 149
0.71773243 0.20804970 1.16077375 160 160 158
0.71928173 0.20733963 1.15681207 158 157 156
-0.00175092 0.14534681 0.80318940 157 156 158
-0.00036225 0.14517480 0.80223888 164 163 165
0.00102194 0.14483200 0.80034459 170 166 169
0.00240527 0.14483200 0.80034459 169 162 165
0.00378413 0.14466120 0.79940075 166 157 160
0.00515368 0.14432083 0.79751980 172 167 168
0.00653982 0.14449082 0.79845917 163 160 160
0.00791057 0.14432083 0.79751980 164 160 161
0.00928902 0.14432083 0.79751980 164 158 159
0.01064243 0.14398205 0.79564768 162 156 155
0.01200355 0.14381325 0.79471493 168 165 162
0.01337715 0.14381325 0.79471493 159 159 155
0.01475075 0.14381325 0.79471493 145 145 139
0.01614328 0.14398205 0.79564768 153 153 149
0.71494401 0.21041630 1.16276479 139 139 137
0.71695375 0.21041630 1.16276479 150 147 146
-0.00174678 0.14638816 0.80129057 172 171 171
-0.00036139 0.14621533 0.80034459 162 160 161
0.00101953 0.14587089 0.79845917 167 163 165
0.00239960 0.14587089 0.79845917 170 166 167
0.00377523 0.14569928 0.79751980 174 170 171
0.00514158 0.14535727 0.79564768 182 182 183
0.00652445 0.14552806 0.79658264 158 158 159
0.00789200 0.14535727 0.79564768 160 158 158
0.00927811 0.14552806 0.79658264 160 151 152
0.01062995 0.14518686 0.79471493 147 139 135
0.01336149 0.14501685 0.79378438 171 168 162
0.01473348 0.14501685 0.79378438 136 136 129
-0.00036182 0.14777313 0.80129057 158 154 155
0.00102073 0.14742461 0.79940075 157 149 155
0.00240243 0.14742461 0.79940075 169 163 167
0.00377523 0.14707772 0.79751980 187 182 185
0.00514762 0.14690490 0.79658264 191 190 192
0.00652445 0.14690490 0.79658264 161 160 161
0.00790128 0.14690490 0.79658264 145 142 143
0.00928902 0.14707772 0.79751980 154 143 145
0.01062995 0.14656046 0.79471493 135 124 122
-0.00036225 0.14933461 0.80223888 168 164 168
0.00102194 0.14898199 0.80034459 149 139 151
0.00240527 0.14898199 0.80034459 152 145 156
0.00378413 0.14880630 0.79940075 159 155 165
0.00515368 0.14845617 0.79751980 154 149 158
0.00653982 0.14863104 0.79845917 158 150 158
0.00791989 0.14863104 0.79845917 147 137 144
0.00931093 0.14880630 0.79940075 127 116 123
0.01065494 0.14828172 0.79658264 130 120 125
0.00102436 0.15072122 0.80223888 151 148 152
0.00240811 0.15054306 0.80129057 152 149 155
0.00378860 0.15036532 0.80034459 143 141 150
0.00515975 0.15001111 0.79845917 133 128 138
0.00656301 0.15054306 0.80129057 110 102 114
0.14825352 0.11623781 0.59673578 176 173 176
0.15341055 0.11623781 0.59673578 170 169 169
0.14722210 0.11726922 0.59673578 184 182 182
0.14812312 0.11716608 0.59621096 185 183 184
0.14928491 0.11726922 0.59673578 190 189 191
0.15044877 0.11737254 0.59726155 207 206 207
0.15161467 0.11747605 0.59778821 209 208 208
0.15251340 0.11737254 0.59726155 185 185 185
0.15354572 0.11737254 0.59726155 181 177 177
0.14683433 0.11798904 0.59516406 186 182 181
0.14773332 0.11788554 0.59464198 189 185 185
0.14889172 0.11798904 0.59516406 196 193 194
0.15005216 0.11809272 0.59568703 191 187 188
0.15314095 0.11809272 0.59568703 191 183 180
0.14657696 0.11880911 0.59412080 186 182 182
0.14760384 0.11880911 0.59412080 187 183 183
0.14876111 0.11891333 0.59464198 193 189 188
0.14992042 0.11901774 0.59516406 192 185 187
0.15184449 0.11891333 0.59464198 182 173 174
0.15300649 0.11901774 0.59516406 185 176 175
0.15376519 0.11880911 0.59412080 182 173 172
0.14670554 0.11994112 0.59464198 173 169 170
0.14760384 0.11983600 0.59412080 175 170 171
0.14876111 0.11994112 0.59464198 191 184 185
0.14992042 0.12004643 0.59516406 194 185 186
0.15081669 0.11994112 0.59464198 191 182 183
0.15197779 0.12004643 0.59516406 193 184 183
0.15314095 0.12015191 0.59568703 197 188 187
0.15403518 0.12004643 0.59516406 181 173 172
0.15465653 0.11973107 0.59360057 173 167 167
0.15670851 0.11973107 0.59360057 182 177 178
0.14542261 0.12075706 0.59360057 190 186 187
0.14683433 0.12107512 0.59516406 175 169 171
0.14773332 0.12096892 0.59464198 172 166 168
0.14876111 0.12096892 0.59464198 186 177 180
0.15005216 0.12118151 0.59568703 189 180 180
0.15094911 0.12107512 0.59516406 189 180 179
0.15197779 0.12107512 0.59516406 201 192 191
0.15314095 0.12118151 0.59568703 199 192 191
0.15403518 0.12107512 0.59516406 174 167 165
0.15479207 0.12086289 0.59412080 179 175 174
0.15595564 0.12096892 0.59464198 188 184 184
0.15684585 0.12086289 0.59412080 183 179 180
0.15801123 0.12096892 0.59464198 180 176 177
0.15903902 0.12096892 0.59464198 181 180 180
0.14349629 0.12188978 0.59412080 167 158 157
0.14452317 0.12188978 0.59412080 179 170 169
0.14555007 0.12188978 0.59412080 191 178 180
0.14683433 0.12210381 0.59516406 173 163 165
0.14786303 0.12210381 0.59516406 173 164 166
0.14889172 0.12210381 0.59516406 179 170 173
0.15005216 0.12221111 0.59568703 177 168 170
0.15094911 0.12210381 0.59516406 176 167 168
0.15197779 0.12210381 0.59516406 184 175 174
0.15314095 0.12221111 0.59568703 180 174 173
0.15403518 0.12210381 0.59516406 178 174 173
0.15479207 0.12188978 0.59412080 190 189 186
0.15581897 0.12188978 0.59412080 188 186 185
0.15684585 0.12188978 0.59412080 176 173 174
0.15801123 0.12199670 0.59464198 163 160 161
0.15903902 0.12199670 0.59464198 176 174 175
0.15992652 0.12188978 0.59412080 179 180 180
0.16081247 0.12178305 0.59360057 186 187 186
0.14567775 0.12302449 0.59464198 172 163 164
0.14709261 0.12334909 0.59621096 172 163 165
0.14799295 0.12324070 0.59568703 184 175 177
0.14902255 0.12324070 0.59568703 188 179 180
0.15031633 0.12345768 0.59673578 188 179 180
0.15108176 0.12324070 0.59568703 188 179 180
0.15211135 0.12324070 0.59568703 189 180 178
0.15327564 0.12334909 0.59621096 187 181 179
0.15417054 0.12324070 0.59568703 186 184 182
0.15492785 0.12302449 0.59464198 185 185 181
0.15595564 0.12302449 0.59464198 187 187 184
0.15684585 0.12291667 0.59412080 189 188 187
0.15787274 0.12291667 0.59412080 169 168 168
0.15889964 0.12291667 0.59412080 172 172 172
0.15992652 0.12291667 0.59412080 179 179 179
0.14722210 0.12448909 0.59673578 169 161 163
0.14812312 0.12437960 0.59621096 177 170 173
0.14902255 0.12427031 0.59568703 179 170 171
0.15031633 0.12448909 0.59673578 183 174 175
0.15121463 0.12437960 0.59621096 191 180 180
0.15224513 0.12437960 0.59621096 193 183 180
0.15327564 0.12437960 0.59621096 189 182 178
0.15430613 0.12437960 0.59621096 178 179 172
0.15506388 0.12416120 0.59516406 176 176 170
0.15595564 0.12405229 0.59464198 188 189 183
0.15684585 0.12394356 0.59412080 198 197 193
0.15787274 0.12394356 0.59412080 178 177 176
0.14786303 0.12518989 0.59516406 182 177 178
0.14889172 0.12518989 0.59516406 181 173 171
0.15005216 0.12529990 0.59568703 181 173 170
0.15492785 0.12508008 0.59464198 192 187 182
0.15581897 0.12497045 0.59412080 186 181 176
0.15670851 0.12486102 0.59360057 172 165 164
0.15773450 0.12486102 0.59360057 170 165 164
0.14760384 0.12599733 0.59412080 189 185 182
0.14850059 0.12588701 0.59360057 189 184 178
0.15479207 0.12599733 0.59412080 186 176 174
0.15568252 0.12588701 0.59360057 173 162 161
0.15657140 0.12577687 0.59308124 160 151 155
0.14747460 0.12691300 0.59360057 174 170 167
0.14837067 0.12680197 0.59308124 188 183 177
0.14952658 0.12691300 0.59360057 185 180 173
0.15055257 0.12691300 0.59360057 179 170 164
0.15157856 0.12691300 0.59360057 176 166 160
0.15273829 0.12702423 0.59412080 181 169 164
0.15376519 0.12702423 0.59412080 165 154 154
0.15465653 0.12691300 0.59360057 160 149 151
0.15554631 0.12680197 0.59308124 160 149 153
0.15643455 0.12669112 0.59256279 163 156 159
0.15745874 0.12669112 0.59256279 182 178 179
0.14747460 0.12793899 0.59360057 168 167 165
0.14837067 0.12782706 0.59308124 176 173 172
0.14952658 0.12793899 0.59360057 176 171 171
0.15055257 0.12793899 0.59360057 176 171 167
0.15157856 0.12793899 0.59360057 178 172 170
0.15273829 0.12805112 0.59412080 179 170 170
0.15376519 0.12805112 0.59412080 150 141 142
0.15465653 0.12793899 0.59360057 172 163 165
0.15554631 0.12782706 0.59308124 192 184 186
0.15643455 0.12771532 0.59256279 188 187 186
0.14657696 0.12907802 0.59412080 173 172 173
0.14747460 0.12896498 0.59360057 168 167 168
0.14837067 0.12885216 0.59308124 164 163 163
0.14952658 0.12896498 0.59360057 160 159 159
0.15055257 0.12896498 0.59360057 174 173 172
0.15273829 0.12907802 0.59412080 174 168 170
0.15376519 0.12907802 0.59412080 134 128 131
0.15465653 0.12896498 0.59360057 157 151 154
0.15554631 0.12885216 0.59308124 186 180 183
0.14747460 0.12999097 0.59360057 170 170 172
0.14837067 0.12987724 0.59308124 158 158 160
0.14952658 0.12999097 0.59360057 144 143 144
0.15055257 0.12999097 0.59360057 153 150 153
0.14734557 0.13090234 0.59308124 152 151 158
0.14952658 0.13101697 0.59360057 168 167 169
