ply
format ascii 1.0
element vertex 490
property float x
property float y
property float z
property uchar red
property uchar green
property uchar blue
end_header
-0.84023261 -0.18183890 1.71618187 207 208 211
-0.84455935 -0.18675292 1.72241393 208 212 214
-0.84171575 -0.17738947 1.71618187 211 212 213
-0.84533900 -0.17932661 1.72053766 212 213 215
-0.83331128 -0.18282766 1.71618187 204 205 207
-0.83167043 -0.18964295 1.72751448 204 207 208
-0.83009658 -0.16473384 1.69614538 204 204 210
-0.82968442 -0.16939527 1.71029297 204 209 214
-0.82855677 -0.17292531 1.72304042 206 211 214
-0.82481728 -0.15364970 1.69306014 210 214 218
-0.83198955 -0.15598363 1.70916399 209 214 216
-0.82987675 -0.15776692 1.72687377 206 212 213
-0.81650233 -0.18183890 1.71618187 201 210 208
-0.81946862 -0.16849063 1.71618187 210 215 216
-0.80823491 -0.14381853 1.67231526 207 210 211
-0.81104587 -0.14371331 1.68631903 212 214 217
-0.81784546 -0.15160062 1.70969212 211 211 213
-0.80963711 -0.13773732 1.67587858 210 211 214
-0.80979745 -0.13560208 1.68525726 206 207 211
-0.38353761 -0.10176453 0.63443470 167 169 171
-0.38151628 -0.09527101 0.63228787 166 170 173
-0.36430180 -0.10538199 0.58392135 188 188 190
-0.36230982 -0.09784731 0.58117301 191 193 193
-0.36459382 -0.08181420 0.61881082 144 143 152
-0.37220853 -0.09070134 0.62900956 145 144 150
-0.36387970 -0.07877863 0.61872032 166 166 170
-0.36633846 -0.07803205 0.62336243 179 179 183
-0.35860898 -0.10265207 0.58204941 186 188 190
-0.35664815 -0.09663705 0.57901042 188 191 192
-0.35838723 -0.09861179 0.58038688 186 191 192
-0.35889170 -0.08250557 0.61750081 191 192 194
-0.35896407 -0.07852882 0.61701332 188 189 190
-0.30312247 0.51705399 1.49053717 177 171 164
-0.30166808 0.52111590 1.49480188 181 178 172
-0.30222672 0.53332742 1.51181841 187 188 186
-0.30542850 0.54038680 1.51993692 196 200 197
-0.30366338 0.54962558 1.52955623 184 185 186
-0.28051367 0.21359205 0.70976914 97 94 99
-0.28013077 0.21822003 0.72269917 121 114 118
-0.28152851 0.22433996 0.71829777 112 103 106
-0.28169123 0.22909818 0.72380371 103 97 101
-0.28861254 0.51520650 1.49182168 160 153 148
-0.28715560 0.52788703 1.49538449 184 183 181
-0.29262549 0.53502768 1.50364280 185 186 186
-0.29034552 0.54495512 1.51186685 192 193 193
-0.29821587 0.54950011 1.52335250 188 189 191
-0.26797529 0.19810097 0.70229830 152 148 150
-0.27414099 0.20904318 0.70880070 125 120 123
-0.27891800 0.21741450 0.72085531 126 118 121
-0.27686803 0.22594246 0.71887074 124 118 119
-0.27817771 0.22526211 0.72152125 120 115 116
-0.27806813 0.51571343 1.49711797 155 148 146
-0.27674809 0.52673295 1.49976075 185 185 182
-0.27572980 0.53029326 1.50502225 186 185 184
-0.27853310 0.54442030 1.51653659 198 198 198
-0.24462422 -0.20313554 0.48602029 187 190 192
-0.24349013 -0.19919893 0.48566698 185 188 190
-0.23684160 -0.20141621 0.48400960 191 193 193
-0.23291721 -0.19904133 0.48347831 187 188 189
-0.22362842 0.29668913 0.76791422 186 182 175
-0.22512812 0.30677108 0.76888265 188 185 184
-0.20428481 0.01693145 0.45427587 208 210 211
-0.20402790 0.02221918 0.45380385 199 199 202
-0.21645102 0.29606521 0.76383910 189 186 185
-0.21727803 0.30555570 0.76409407 190 190 190
-0.19825818 0.01796989 0.45360797 214 215 217
-0.19840080 0.02052312 0.45323730 209 210 212
-0.18311177 0.90707004 1.88303292 0 0 0
-0.19503465 0.94925940 1.97061586 0 0 0
-0.16179623 -0.08166700 0.59024191 205 205 209
-0.16230457 -0.07385581 0.59218773 196 196 198
-0.16379186 -0.00861061 0.49768098 192 192 192
-0.16955709 -0.00250408 0.50194765 192 190 189
-0.17031709 0.00239562 0.50439467 200 199 199
-0.15794547 -0.08149299 0.59008716 188 188 190
-0.15762062 -0.07490545 0.59264393 190 191 194
-0.15988189 -0.00970132 0.49662405 197 197 193
-0.12271724 -0.06962934 0.47928741 194 195 197
-0.12130142 -0.06732821 0.48137343 189 189 191
-0.12364544 0.29037021 0.79343068 185 185 185
-0.12278616 0.29838172 0.80034459 182 182 181
-0.12056882 0.30217496 0.79940075 189 188 185
-0.12370926 0.30240551 0.80184375 187 187 186
-0.10755507 -0.88147664 1.95922494 81 64 64
-0.10797134 -0.88772334 1.96680784 79 63 61
-0.10755507 -0.87470388 1.95922494 76 60 60
-0.10277256 -0.87554118 1.96490383 76 60 60
-0.11891022 -0.07816288 0.47955014 173 171 178
-0.11554512 -0.07084559 0.48181213 179 179 181
-0.11464128 0.29183808 0.79388664 190 190 188
-0.11552069 0.30186425 0.79676001 185 186 185
-0.09257375 -0.90304358 1.95022993 92 73 70
-0.09775051 -0.90166487 1.96633184 85 71 67
-0.08194679 -0.89282080 1.92766833 87 76 65
-0.08767931 -0.89217699 1.95539721 86 71 67
-0.09662395 -0.88858946 1.96542311 84 67 65
-0.08900989 -0.87067784 1.95299470 77 61 58
-0.09824432 -0.87610722 1.96490383 75 58 57
-0.08816564 -0.85711318 1.94238353 68 57 54
-0.08523259 -0.10008588 0.45132613 173 169 168
-0.08774807 -0.09867499 0.45022716 162 160 162
-0.07609077 -0.89021865 1.93407482 89 75 69
-0.07669433 -0.89220782 1.94938463 89 75 72
-0.07664031 -0.87305099 1.94798118 80 65 61
-0.02311916 0.09624908 0.69690096 156 153 154
-0.02967701 0.10498549 0.69792477 148 146 148
-0.02756479 0.10529678 0.70066357 143 139 142
-0.01878911 0.09656990 0.69603956 147 146 149
-0.01826345 0.10560301 0.69896100 161 160 160
-0.00088238 0.14601874 0.80212146 161 159 161
-0.00428004 0.19173044 0.75290170 149 145 146
0.01199042 0.13728357 0.79401846 158 152 154
0.00866145 0.14427216 0.79661723 156 151 152
0.00240669 0.14768675 0.80081781 152 147 153
0.00467040 0.17775253 0.75154570 154 152 151
0.00443241 0.19069765 0.75624447 157 152 152
0.00776573 0.19028053 0.76082134 149 145 147
0.00510669 0.20167199 0.75588177 162 155 151
0.03967241 0.45183979 1.10676885 163 158 160
0.05592651 0.43546630 1.09208764 179 178 180
0.05019492 0.44630838 1.09610248 182 183 183
0.04969493 0.45461861 1.10239491 180 179 179
0.05304212 0.46315388 1.10316915 12 12 12
0.06210384 0.43762507 1.09750688 184 184 185
0.06210030 0.44544470 1.09742114 188 187 188
0.09927603 -0.26227323 0.53410976 89 71 68
0.09908627 -0.25726496 0.53438840 92 73 69
0.09731412 -0.06797789 0.65167258 169 168 170
0.10181634 -0.26144657 0.53345859 88 72 67
0.10377016 -0.25641665 0.53494120 94 74 68
0.10474524 -0.06479894 0.65360323 169 167 170
0.10290136 -0.05871836 0.65370557 168 161 163
0.15703552 -0.13446802 0.47083312 19 17 26
0.15372965 0.05415215 0.45525130 184 181 181
0.15306045 0.06037521 0.45374310 191 190 190
0.15028889 0.11834199 0.59541828 186 181 182
0.15226243 0.12602711 0.59431828 176 171 171
0.16137397 -0.13369433 0.47004145 18 16 25
0.16056797 0.05387696 0.45374286 173 172 174
0.16081247 0.12178305 0.59360057 186 187 186
0.19211110 -0.02346506 0.53019189 185 182 182
0.19135083 -0.01762533 0.52947782 193 191 190
0.21726922 0.27728393 0.73355047 157 152 146
0.23633321 0.25909103 0.73302565 159 158 159
0.23098523 0.27007039 0.73388512 165 163 161
0.22054867 0.28016004 0.73444402 145 134 134
0.25548157 0.12715034 0.45136820 158 152 151
0.24046887 0.26893453 0.73325289 152 152 150
0.27832649 0.05533030 1.30930918 167 167 167
0.27836525 0.06498731 1.31037531 192 188 190
0.26068935 0.13332624 0.45057622 135 127 124
0.26725310 0.17797087 0.57523946 158 154 154
0.27030704 0.18240367 0.57470428 164 160 160
0.29089487 0.05583847 1.31283238 191 191 191
0.28928417 0.06924555 1.31350292 189 186 186
0.29747145 0.06334723 1.32315060 193 189 189
0.29094060 0.08990496 1.31016255 191 188 188
0.31260713 -0.04568467 0.73276351 185 183 182
0.31371864 -0.03670948 0.72919989 189 187 186
0.30678004 0.06617841 1.33111880 193 187 187
0.30030313 0.09505213 1.31885576 194 189 189
0.32111719 -0.04235737 0.73219765 181 179 179
0.32139516 -0.03878570 0.72852448 174 174 174
0.39649050 -0.52590865 1.38744149 25 24 33
0.39439481 -0.51584373 1.37261969 25 24 32
0.41751920 -0.56133646 1.43723226 26 23 31
0.41505971 -0.56636013 1.44540098 25 24 33
0.41643133 -0.54358260 1.40838015 25 23 30
0.41397848 -0.55275485 1.42957741 26 23 31
0.40626984 -0.52295911 1.37133412 25 24 29
0.40818202 -0.52989417 1.38759428 25 23 30
0.40090638 -0.53775489 1.41228080 24 24 33
0.40207860 -0.51141176 1.35850072 25 23 31
0.40319631 -0.51078903 1.36626651 24 22 29
0.40448270 -0.51177083 1.38165974 22 20 28
0.41821472 -0.06631349 0.60634010 81 88 112
0.40555349 -0.04474837 0.53972280 97 79 78
0.40836825 -0.04659711 0.55089479 97 83 82
0.41185190 -0.05034941 0.56233338 105 83 82
0.41895446 -0.05896331 0.60352476 94 104 129
0.40621634 -0.03813599 0.54864986 101 87 94
0.41712897 0.25605284 0.95639652 163 163 162
0.41643789 0.25226715 0.96332441 164 163 162
0.41802460 0.26134625 0.95882863 158 158 156
0.41638873 0.26632864 0.96560750 160 159 158
0.41675728 0.41556625 1.03712957 153 142 135
0.41528764 0.41701415 1.04130852 154 143 135
0.42871448 -0.58536083 1.44851333 29 28 37
0.43554774 -0.59421474 1.46729839 31 30 39
0.42127183 -0.56004906 1.39483917 25 23 30
0.42321683 -0.56465778 1.40934467 25 23 32
0.42414360 -0.56839058 1.43088054 25 24 31
0.42167413 -0.56804541 1.45098145 26 23 31
0.42574909 -0.57901284 1.46413606 24 24 34
0.42040679 -0.55649316 1.39197505 25 23 32
0.42253457 -0.55029345 1.41523540 25 21 30
0.42321516 -0.55651134 1.42457441 26 21 29
0.43870319 -0.08066783 0.61570609 97 84 81
0.43147544 -0.06678904 0.59486766 101 85 86
0.42799629 -0.06923876 0.60460939 97 97 110
0.43154120 -0.05738357 0.59259867 100 87 88
0.42984661 -0.05699377 0.60267930 98 101 122
0.42371292 0.25401020 0.95361010 164 163 164
0.42260708 0.25092905 0.96209657 167 167 163
0.42232164 0.26165294 0.95792705 169 167 165
0.42259417 0.27039724 0.96859552 162 161 161
0.42818775 0.41280738 1.03575310 152 139 133
0.42734582 0.41494619 1.04167823 149 138 130
0.43391712 0.42554088 1.03851846 153 143 138
0.43493979 0.42794375 1.04232086 155 144 139
0.45955576 -0.10019723 0.67959100 63 67 90
0.45598661 -0.09332284 0.67040323 71 76 95
0.45300471 0.31181143 1.09063055 120 113 116
0.45980638 0.31421982 1.10047376 125 119 123
0.45790431 0.32087710 1.10047376 130 114 121
0.46376637 -0.10053627 0.67870693 95 98 114
0.47216733 -0.10324902 0.68423008 97 92 96
0.46325867 -0.09688269 0.67374115 99 100 112
0.46273968 -0.04295438 0.67345973 115 98 94
0.47349667 -0.04555519 0.69347765 115 97 90
0.47791889 -0.05098584 0.70797155 117 98 93
0.47956502 -0.05522105 0.72116154 124 104 96
0.46665716 0.31371056 1.09869015 110 99 109
0.46524388 0.31568220 1.10350103 119 105 113
0.47183318 0.32671481 1.11089077 117 102 106
0.47334160 0.33457992 1.13138929 118 106 111
0.47682218 0.35211457 1.03878300 168 163 161
0.47770845 0.35449054 1.04162893 163 162 158
0.47612194 0.34150639 1.11192429 112 95 99
0.47523763 0.34393320 1.13550791 119 109 110
0.47120323 0.34429944 1.14399343 134 130 130
0.49676103 -0.33357748 0.70918198 193 198 203
0.49877734 -0.14272348 0.76597998 50 49 66
0.49205113 -0.12079980 0.73507299 76 81 102
0.49555236 -0.12700446 0.75266262 53 52 71
0.49741073 -0.13328083 0.76323867 51 50 69
0.48361115 -0.11329303 0.71791661 73 75 94
0.49040407 -0.11742581 0.72513149 87 89 105
0.48352215 -0.06007910 0.71963042 88 87 85
0.48552382 -0.06056171 0.72541115 94 88 87
0.48122444 -0.05557461 0.71484585 108 94 92
0.48456662 -0.05782409 0.72445060 113 95 94
0.48127332 0.33858892 1.11495364 135 123 127
0.48361253 0.33699498 1.13171065 107 87 97
0.49101724 0.35276901 1.03694221 166 165 164
0.48310956 0.35845070 1.04162893 169 170 170
0.48197972 0.34194858 1.13247426 109 91 96
0.49228951 0.36308743 1.03873157 172 169 169
0.48908010 0.36211970 1.04130852 158 156 157
0.50886763 -0.33275269 0.71135298 186 190 195
0.50562879 -0.14486813 0.77231303 51 50 67
0.50779980 -0.14947026 0.78399791 51 50 67
0.50736120 -0.13010319 0.75520992 88 90 105
0.50603124 -0.13624175 0.76472036 67 68 84
0.50317900 0.35388724 1.03726451 173 173 174
0.50014228 0.36011347 1.03811920 175 175 175
0.52100022 -0.33133948 0.71237139 196 203 205
0.57880998 -0.26752544 0.71158751 174 174 179
0.57997447 -0.25540674 0.71281999 177 178 181
0.57697157 -0.08703075 0.54203621 177 184 187
0.59246051 -0.32121573 0.70969576 185 192 195
0.59451831 -0.31697995 0.71105992 181 185 189
0.58466701 -0.26743595 0.71459445 173 174 176
0.59100561 -0.26384273 0.72112551 167 170 175
0.58570546 -0.25717407 0.71592461 174 176 180
0.58262160 -0.08794330 0.54271531 179 187 189
0.60616475 -0.32084136 0.71190557 183 193 193
0.60496499 -0.31668545 0.71150194 176 184 185
0.62655890 -0.14284764 0.51879766 49 50 77
0.63370359 -0.15059600 0.52773382 51 54 80
0.63530395 -0.09358575 0.53536790 147 147 159
0.63913588 -0.09039760 0.54137272 174 177 181
0.63835366 0.29709173 0.92624831 127 106 105
0.64668461 -0.16294356 0.53719411 53 55 76
0.65352818 -0.16461108 0.54463800 54 56 79
0.64298573 -0.15629599 0.53412204 51 54 79
0.64934015 -0.15862631 0.54101664 52 56 81
0.64478701 -0.10001885 0.53929341 75 78 99
0.64384824 -0.10055254 0.54217104 121 125 139
0.64216687 -0.09560551 0.53729873 100 99 116
0.64161711 -0.09027395 0.54295480 165 168 175
0.64769232 0.29363257 0.91979897 127 103 87
0.64673971 0.29635039 0.92748306 128 102 93
0.65290744 0.30849681 0.93274382 125 102 96
0.65553866 0.31668726 0.94348708 127 107 106
0.66327971 -0.16874814 0.55429458 55 56 81
0.67140476 -0.16924044 0.56257419 55 55 81
0.67411697 -0.12026612 0.55977857 68 73 91
0.66907680 -0.11179638 0.55480132 59 63 82
0.67557536 -0.11335369 0.56163485 57 60 81
0.69087490 -0.12474685 0.57596956 55 61 78
0.69971460 -0.12605872 0.58438951 55 60 79
0.71725422 -0.14029272 0.59990430 71 72 92
0.71896852 -0.14196199 0.60196042 72 74 93
0.70976009 -0.13120293 0.59364080 57 63 80
0.71831270 -0.13183547 0.60235111 58 62 82
0.71102748 0.17794724 1.13931406 143 139 138
0.71190094 0.17552766 1.14878404 147 147 142
0.71012192 0.18178243 1.13702266 129 126 130
0.71191920 0.18922649 1.15522157 146 142 142
0.71438859 0.19534311 1.16077375 153 151 150
0.71511661 0.20402809 1.15747346 142 139 138
0.71635787 0.20504850 1.16143743 144 141 140
0.72381063 -0.14528247 0.60699032 67 75 89
0.72200605 -0.13246723 0.60580633 58 62 83
0.72120466 0.19623511 1.15615851 153 148 150
0.72051126 0.20168544 1.15878952 166 160 160
0.72174501 0.20002449 1.16077375 165 156 160
0.77811974 -0.28604051 0.66919231 52 49 67
0.77665875 -0.27668122 0.66893018 52 52 69
0.77059768 -0.14409440 0.66701273 175 181 185
0.77175348 -0.13518217 0.65833459 158 159 167
0.77343687 -0.13535631 0.66561890 170 175 178
0.78564279 -0.28650797 0.67731726 52 51 67
0.79564914 -0.28904725 0.68808008 51 50 71
0.78549939 -0.27848920 0.67755324 48 46 66
0.80634680 -0.30203305 0.69813782 54 55 72
0.81606463 -0.30537880 0.70814312 51 53 71
0.80303603 -0.29405236 0.69560360 49 50 70
0.80787905 -0.29758008 0.70138854 48 49 69
0.82798669 -0.32139246 0.71848655 54 57 72
0.83227416 -0.32422162 0.72285870 52 56 72
0.82306589 -0.31215464 0.71475478 52 52 72
0.83053085 -0.31686594 0.72232012 51 50 72
0.85735538 -0.23102847 0.91798050 180 189 194
0.85823295 -0.22748886 0.92167526 179 187 191
0.87231534 -0.24143494 0.92245974 188 189 191
0.86548206 -0.23100459 0.91612204 176 181 185
0.86405295 -0.22840642 0.92178623 179 185 190
0.89041627 0.01162586 1.19426505 106 81 78
0.89569024 0.00969235 1.20838985 106 83 78
0.89409728 0.02241445 1.19618104 106 80 78
0.89818559 0.02297945 1.20550927 105 80 76
0.90106815 0.01723051 1.21595049 105 82 79
0.90214978 0.01203402 1.22216165 106 84 79
0.90547382 0.02631570 1.19896216 107 83 78
0.91252155 0.03099683 1.21102614 104 83 79
0.91499363 0.02940192 1.22842220 104 84 77
0.92426607 0.03543402 1.21559217 101 82 78
0.92666728 0.03819716 1.22556683 103 84 78
0.92150438 0.02839919 1.24498147 107 87 75
0.93425441 0.04166031 1.22363150 105 83 80
1.09882614 0.37823982 1.13123596 122 109 100
1.08610356 0.38804305 1.11863339 115 96 76
1.09553975 0.38626343 1.12642352 116 103 90
1.09504185 0.55081657 1.17120768 154 156 163
1.09758320 0.57256326 1.17379564 63 63 65
1.09876776 0.58049297 1.17420177 0 0 0
1.11045483 0.37706112 1.11314174 138 131 130
1.11108660 0.37757263 1.13023148 126 119 110
1.10824822 0.38255883 1.11313571 130 119 118
1.11144417 0.38540124 1.12840867 130 120 115
1.10918847 0.55220987 1.17689721 154 158 162
1.11315150 0.55307637 1.18377773 148 152 154
1.10584167 0.57543038 1.17355608 30 30 31
1.11383544 0.57126930 1.18550596 122 123 127
1.10632408 0.58106081 1.17588701 0 0 0
1.11386071 0.58249572 1.18374795 0 0 0
1.12274547 0.37575088 1.13340359 132 127 122
1.13096778 0.37634451 1.14380240 133 126 122
1.12107108 0.38612411 1.13227556 132 124 121
1.12327522 0.55309370 1.18487798 154 161 164
1.12452734 0.57249828 1.19006243 149 150 154
1.13997674 0.57898092 1.20193589 164 164 168
1.13597190 0.58004357 1.19698715 156 156 161
1.15362906 -0.90207015 1.48987579 193 201 200
1.14005152 0.57416193 1.19910200 159 161 164
1.14773057 0.57873263 1.20922956 166 167 167
1.16375427 -0.90310978 1.49843643 188 195 195
1.17439413 -0.90911534 1.50710328 194 200 200
1.16841674 -0.89540508 1.49810535 199 204 203
1.16215336 -0.54020834 1.04774630 58 60 73
1.16601634 -0.53473370 1.05122897 57 59 73
1.17763448 -0.53631227 1.06336039 55 57 71
1.18935050 -0.92142114 1.51696353 195 199 200
1.19174159 -0.90352163 1.49976075 201 203 202
1.19295738 -0.91028095 1.50727522 197 200 201
1.19237572 -0.89589620 1.49893305 191 192 192
1.19398210 -0.89166581 1.50969010 196 199 200
1.19318631 -0.87889794 1.50978887 197 206 206
1.18827605 -0.56077754 1.09869015 61 70 92
1.19214034 -0.56450641 1.10226321 60 67 88
1.18582746 -0.54487233 1.07391146 55 56 74
1.19188741 -0.54796057 1.08867278 53 57 80
1.18249734 -0.53709887 1.07278389 50 53 73
1.19084495 -0.53867754 1.08289433 48 55 78
1.20645647 -0.90268441 1.51123428 192 192 196
1.20591666 -0.89577168 1.51503543 189 194 197
1.20662382 -0.56161703 1.09295648 55 58 72
1.21471653 -0.56697024 1.10769043 55 57 73
1.21385483 -0.57543480 1.12233953 61 67 88
1.20557652 -0.55784667 1.09666249 52 54 71
1.20410198 -0.55540963 1.10405985 55 60 81
1.23169279 -0.58385007 1.11740482 60 62 73
1.23510123 -0.58597814 1.13236088 56 57 76
1.23683497 -0.59310466 1.14267704 58 56 82
1.22359710 -0.57434700 1.11130745 56 58 73
1.22930795 -0.57662133 1.12454615 54 56 75
1.25218042 -0.60354734 1.15256325 51 50 74
1.24404559 -0.59121401 1.13574731 54 56 73
1.24616099 -0.59461359 1.14380629 55 54 75
1.26693058 -0.60514757 1.15435201 57 58 73
1.27675879 -0.61310127 1.16376370 56 59 74
1.26282275 -0.59839821 1.15287733 51 53 68
1.29123759 -0.62410919 1.17758016 56 58 73
1.29814672 -0.62673833 1.18512801 57 58 73
1.28457326 -0.61733702 1.17181051 55 56 74
1.31190777 -0.64339367 1.19768882 62 62 71
1.31655991 -0.64879137 1.20193589 63 63 71
1.30500643 -0.63408247 1.19139248 58 59 72
1.31465209 0.17160223 1.99772052 125 100 89
1.31248590 0.19769277 1.99968100 127 103 86
1.32863373 -0.64633062 1.21487552 57 58 71
1.33579838 -0.65297890 1.22142673 61 61 71
1.33421735 0.17045013 1.99772052 123 96 90
1.32781178 0.21810673 1.99674028 124 101 87
1.35815859 -0.66496015 1.24383819 59 59 70
1.34826303 -0.65798104 1.23477566 58 57 71
1.36567605 -0.67080253 1.25072300 60 60 69
1.40751672 0.62813807 1.61019444 112 91 78
1.41651183 0.63200328 1.62369537 112 89 77
1.42941940 0.63682179 1.64337659 110 86 75
1.43459837 0.64351783 1.65207338 107 86 73
1.44021881 0.63797331 1.65743732 105 79 73
1.45109999 0.63263029 1.67107213 111 88 79
1.45875394 0.63584208 1.68211377 110 88 78
1.44885702 0.64568428 1.67278653 108 85 74
1.46238267 0.63159454 1.68629813 106 83 72
1.46262550 0.64573832 1.68770683 109 85 73
1.47657344 0.65251715 1.70863044 111 88 76
1.48158121 0.64905423 1.71184814 113 90 79
1.49077975 0.65341504 1.72960643 110 87 77
1.49518987 0.65571382 1.74265254 112 88 78
1.48815215 0.66200539 1.73154992 111 89 76
1.49565747 0.66551989 1.74625027 111 89 76
1.50137043 0.64802390 1.73818421 106 86 76
1.50407292 0.65282483 1.75241876 111 89 78
1.51365085 0.65407594 1.76535130 110 89 77
1.51057380 0.66620782 1.76651365 111 88 77
1.52536082 0.65591319 1.77305766 111 90 78
1.53123542 0.65388912 1.78706388 112 89 75
1.52145946 0.66333151 1.77924371 111 89 78
1.52908471 0.66903588 1.79042287 110 89 77
1.54619135 0.65114693 1.80954351 109 85 72
1.55721509 0.64875622 1.82474583 106 87 74
1.54681420 0.67104819 1.81255800 107 89 78
1.55931091 0.67173660 1.82720172 106 91 78
1.56776249 0.64044929 1.83710527 106 91 76
1.56352532 0.66405195 1.83214009 110 83 72
1.57202280 0.67243680 1.84209740 112 88 75
1.58607876 0.68626404 1.86234021 106 91 78
1.86780810 -0.88957065 1.76075804 90 97 123
1.89737773 -0.90674508 1.78863287 90 94 122
1.91618431 -0.92945570 1.82720172 98 120 142
1.91449189 -0.91641706 1.80771160 98 102 130
1.92339480 -0.93131810 1.83710527 90 112 134
1.97535020 -0.96215865 1.88829279 89 112 131
1.96918422 -0.95125166 1.87005001 92 105 131
1.99924707 -0.98124820 1.90955448 94 114 139
1.99140540 -0.96446666 1.88960409 96 107 135
1.99430740 -0.97134507 1.90956962 86 108 128
2.00654948 -0.98567501 1.91494870 94 113 141
2.01508498 -0.98488548 1.92310125 95 114 139
2.01102090 -0.97246897 1.89885676 78 81 116
2.01416278 -0.97611634 1.90597852 85 93 125
2.00962877 -0.97962523 1.92582905 86 109 127
2.03193939 -1.00315368 1.94238353 97 116 146
2.03222165 -0.99187306 1.93023093 89 102 133
2.02858222 -0.99476054 1.94238353 93 113 135
2.02144384 -0.97740042 1.91494870 99 103 135
2.05977035 -1.02624953 1.97061586 100 119 142
2.05069681 -1.00742118 1.95172371 90 105 137
2.05489984 -1.01359790 1.97010864 93 113 136
2.04545426 -0.99775076 1.90955448 64 73 89
2.04205918 -0.98909241 1.93131578 84 90 124
2.04574788 -0.99568674 1.95080423 85 102 126
2.06879105 -1.02753329 1.97380763 93 110 137
2.07149890 -1.03150807 1.98732201 96 113 136
2.07402349 -1.01061279 1.95359498 73 83 110
2.06568658 -1.01818067 1.96490383 86 100 133
2.06153798 -1.01512110 1.98213995 84 103 121
2.08726037 -1.04598606 1.99526992 94 108 129
2.08850058 -1.02257502 1.95922494 62 71 92
2.09625220 -1.02836913 1.96490383 62 72 88
2.09029567 -1.03204656 1.98504627 78 89 124
2.08323145 -1.01782048 1.94796503 63 74 89
2.10927383 -1.04416887 1.97444598 60 68 89
2.11371568 -1.04869439 1.98650801 56 68 93
2.10269773 -1.03666365 1.96775985 58 70 88
2.10123348 -1.03832304 1.99379957 71 81 116
