ply
format ascii 1.0
element vertex 1084
property float x
property float y
property float z
property uchar red
property uchar green
property uchar blue
end_header
-0.50969779 -0.00976150 0.77346515 32 31 37
-0.50975998 0.01029262 0.77355972 32 30 37
-0.50977360 0.03034892 0.77358060 31 30 37
-0.50975290 0.05040273 0.77354956 30 29 35
-0.50961161 0.07043797 0.77333560 31 30 37
-0.51006272 0.09031355 0.77261158 100 100 104
-0.51003109 0.11013821 0.77019456 81 81 87
-0.51001968 0.13012612 0.76654029 47 47 50
-0.50997920 0.14998574 0.76322202 34 33 39
-0.51168812 0.17487024 0.75918544 33 32 36
-0.50862758 0.16547845 0.76089623 33 32 37
-0.50998384 0.19002800 0.75702133 34 32 38
-0.50998604 0.21015142 0.75424900 33 31 37
-0.50996164 0.23023602 0.75187492 30 28 32
-0.51008984 0.25019306 0.74983874 27 25 30
-0.51009148 0.27002960 0.74814200 25 24 28
-0.50995229 0.29010710 0.74673750 25 23 28
-0.50996441 0.30994776 0.74552670 26 24 28
-0.50991059 0.32985039 0.74465068 27 25 29
-0.51004920 0.34991988 0.74376719 26 24 30
-0.51005979 0.36980319 0.74262412 26 23 28
-0.51377252 0.39862004 0.73973585 21 19 23
-0.50968122 0.38931548 0.74117399 24 22 27
-0.50995529 0.40707813 0.73296885 0 0 0
-0.49010066 -0.49092465 0.73905082 0 0 0
-0.48931846 -0.48138829 0.74021913 0 0 0
-0.49000445 -0.46983504 0.74202922 0 0 0
-0.48996630 -0.44994430 0.74739012 0 0 0
-0.48950226 -0.43620437 0.75373067 1 1 1
-0.49040225 -0.42847222 0.76608585 45 47 58
-0.48983719 -0.41029661 0.76748201 45 47 55
-0.49029511 -0.39010065 0.76819997 44 45 53
-0.49051725 -0.36968823 0.76854806 43 45 54
-0.48992959 -0.34981564 0.76881426 43 44 53
-0.48943102 -0.33000097 0.76892854 46 47 55
-0.48971070 -0.31019720 0.76882927 143 143 148
-0.48952734 -0.29005959 0.76894874 172 175 175
-0.48962847 -0.27030280 0.76923860 172 174 175
-0.48982190 -0.25045838 0.76954246 170 174 175
-0.49015645 -0.23022341 0.76981678 170 173 174
-0.49008679 -0.20972822 0.77021096 168 172 172
-0.49034889 -0.18967522 0.77063549 168 170 171
-0.48977928 -0.16947762 0.77102876 167 169 170
-0.48967480 -0.14973274 0.77140572 167 169 171
-0.48986278 -0.12978330 0.77170188 166 167 168
-0.48997086 -0.10980026 0.77187233 114 115 119
-0.49008270 -0.08980871 0.77204856 37 36 43
-0.49025311 -0.06981665 0.77231690 33 32 39
-0.49033263 -0.04992242 0.77264112 33 32 37
-0.48999537 -0.02979491 0.77296317 32 32 37
-0.48968514 -0.00960613 0.77319257 33 32 37
-0.48955953 0.01028969 0.77333005 32 32 36
-0.48962428 0.03034334 0.77343261 32 31 37
-0.48968698 0.05040191 0.77353206 31 31 35
-0.48963245 0.07044835 0.77344640 32 31 37
-0.48992766 0.09044442 0.77292827 108 110 114
-0.49004399 0.11028742 0.77121635 114 114 119
-0.49017393 0.13004337 0.76797561 62 61 65
-0.48981726 0.14996446 0.76475125 42 41 47
-0.49753093 0.17859628 0.75978547 36 34 39
-0.48971823 0.16974634 0.76180141 38 37 42
-0.49092767 0.19126872 0.75849362 38 37 42
-0.48398572 0.18300389 0.76037534 40 39 44
-0.49002458 0.21005419 0.75605901 37 36 40
-0.48988842 0.22988260 0.75379666 34 33 36
-0.48995908 0.24990512 0.75182009 30 28 32
-0.49002347 0.27006242 0.75005789 27 25 30
-0.48997814 0.29001962 0.74858507 27 24 29
-0.49009842 0.31006737 0.74731941 26 24 29
-0.49003626 0.33013381 0.74643161 27 24 31
-0.49001126 0.34995931 0.74553934 26 25 30
-0.49006568 0.37011610 0.74437357 26 24 28
-0.48879661 0.39859927 0.73803308 0 0 0
-0.49004238 0.38909034 0.74269891 23 21 26
-0.48991891 0.40694210 0.73186517 0 0 0
-0.47013315 -0.49163747 0.73911044 0 0 0
-0.46965154 -0.48236120 0.74029809 0 0 0
-0.46992769 -0.46998202 0.74225395 0 0 0
-0.46999090 -0.45004170 0.74751381 0 0 0
-0.46956577 -0.43479440 0.75358669 0 1 1
-0.47036091 -0.42675336 0.76538415 48 51 63
-0.46977926 -0.40993949 0.76701565 49 51 60
-0.47017081 -0.38992795 0.76786021 47 49 58
-0.47040072 -0.36953806 0.76823584 46 48 57
-0.47043294 -0.34984578 0.76849373 46 47 56
-0.46997163 -0.32986845 0.76862003 48 49 55
-0.47031404 -0.30975539 0.76858228 148 149 153
-0.46976001 -0.28995978 0.76871884 171 173 174
-0.46953157 -0.27021464 0.76898761 172 173 173
-0.46970970 -0.25037278 0.76927937 170 173 174
-0.46986903 -0.23050615 0.76954025 171 172 173
-0.47011875 -0.21000108 0.76994925 169 171 171
-0.47037227 -0.18947600 0.77036439 167 169 170
-0.47028932 -0.16975253 0.77071887 167 169 169
-0.46955211 -0.14958935 0.77106666 168 169 170
-0.46964833 -0.12972604 0.77136204 166 167 168
-0.46978555 -0.10975963 0.77158761 118 118 121
-0.46991045 -0.08977897 0.77179274 41 39 46
-0.47007241 -0.06979332 0.77205881 38 36 44
-0.47025226 -0.04979570 0.77235432 37 35 41
-0.47044372 -0.02978352 0.77266867 37 35 42
-0.47016085 -0.00990977 0.77291858 37 36 42
-0.46989070 0.01039951 0.77308975 37 36 42
-0.46946064 0.03033628 0.77324944 36 35 40
-0.46959199 0.05039791 0.77346616 35 34 39
-0.46961074 0.07045322 0.77349734 35 34 39
-0.46979909 0.09051703 0.77314230 110 112 117
-0.47019553 0.11045363 0.77203409 138 139 142
-0.47000318 0.12997099 0.76962068 83 81 87
-0.46998594 0.14999963 0.76654956 52 52 56
-0.47018733 0.17007818 0.76360403 44 43 48
-0.47469920 0.19574338 0.75946243 41 40 44
-0.46843215 0.18806373 0.76123371 44 43 47
-0.47023117 0.21011608 0.75814911 42 40 44
-0.46108660 0.20150688 0.76017852 47 44 44
-0.47007368 0.23010597 0.75593074 38 37 40
-0.47005528 0.25001995 0.75400138 33 32 35
-0.46998243 0.26983713 0.75228270 30 29 33
-0.46987323 0.29001155 0.75076736 28 26 31
-0.46994591 0.31000995 0.74942673 28 26 30
-0.47002406 0.33002162 0.74843583 27 25 30
-0.47008119 0.35015958 0.74744142 27 25 29
-0.47002142 0.36994967 0.74621448 27 25 29
-0.46908761 0.39727645 0.73771075 0 0 0
-0.47014714 0.38796468 0.74406931 21 19 23
-0.47015453 0.40679884 0.73130647 0 0 0
-0.45022908 -0.49261389 0.73921347 0 0 0
-0.44971067 -0.48323694 0.74041213 0 0 0
-0.44994649 -0.47001120 0.74249014 0 0 0
-0.45002516 -0.45003141 0.74750246 0 0 0
-0.44981548 -0.43333647 0.75380615 1 2 2
-0.45047542 -0.42511049 0.76473405 103 106 116
-0.44975615 -0.41003131 0.76640040 117 118 126
-0.44997263 -0.39033913 0.76736422 119 119 129
-0.45025088 -0.37001061 0.76783936 117 118 125
-0.45044020 -0.34958743 0.76816276 113 113 122
-0.45052721 -0.32973587 0.76831123 110 110 117
-0.45056138 -0.30984015 0.76836987 122 125 129
-0.44995487 -0.28998433 0.76854402 120 123 125
-0.44951099 -0.27016454 0.76884511 121 123 124
-0.44969031 -0.25033128 0.76915192 125 127 129
-0.44984997 -0.23047171 0.76942513 130 133 132
-0.45007383 -0.20996249 0.76980788 135 137 137
-0.45030652 -0.18943712 0.77020579 140 142 143
-0.45049285 -0.16953865 0.77052429 145 148 147
-0.44978784 -0.14953343 0.77084809 147 149 149
-0.44950762 -0.12968514 0.77111873 150 151 151
-0.44966173 -0.10973042 0.77138319 123 123 126
-0.44978199 -0.08975549 0.77158954 64 63 73
-0.44991929 -0.06977212 0.77182474 62 61 70
-0.45010883 -0.04978245 0.77214982 60 59 68
-0.45030006 -0.02977611 0.77247809 59 58 68
-0.45047715 -0.00975260 0.77278227 59 58 67
-0.45039078 0.01025591 0.77301302 60 59 67
-0.44940960 0.03033617 0.77324426 68 67 76
-0.44956584 0.05040112 0.77351320 68 66 75
-0.44962687 0.07046443 0.77361841 67 66 74
-0.44965843 0.09060432 0.77343134 110 114 119
-0.45001351 0.11034151 0.77284510 140 143 146
-0.45001460 0.13036676 0.77121704 102 101 105
-0.45021077 0.15002780 0.76847742 66 65 69
-0.44991434 0.16993820 0.76570835 51 51 55
-0.45001255 0.19014637 0.76294647 49 48 50
-0.45521215 0.21437992 0.75937627 45 43 49
-0.44775277 0.20804831 0.76098413 47 45 48
-0.45027751 0.23020259 0.75833703 41 41 44
-0.44172331 0.22220929 0.76020756 45 45 47
-0.44994521 0.25011355 0.75651781 37 37 40
-0.45018162 0.27025984 0.75474787 33 32 36
-0.44994076 0.28991200 0.75333782 32 30 34
-0.44996224 0.31000355 0.75196970 31 28 33
-0.44986214 0.32996450 0.75083161 29 28 32
-0.45006014 0.34999617 0.74965914 28 26 31
-0.44993406 0.37021326 0.74819871 28 25 30
-0.44964142 0.39611360 0.73712091 0 0 0
-0.45034409 0.38661835 0.74496928 16 15 18
-0.45001175 0.40675731 0.73045818 0 0 0
-0.43042448 -0.49367839 0.73935613 0 0 0
-0.42945528 -0.48413429 0.74049273 0 0 0
-0.43003251 -0.47017530 0.74255729 0 0 0
-0.43013639 -0.45015792 0.74711208 0 0 0
-0.42954609 -0.43217823 0.75333987 2 2 2
-0.43055316 -0.42375885 0.76380959 170 172 173
-0.43012645 -0.41012189 0.76558613 174 176 175
-0.42972213 -0.39001620 0.76672972 174 176 175
-0.43014795 -0.37027543 0.76730294 173 175 174
-0.43020328 -0.34994530 0.76776883 172 173 172
-0.43045919 -0.32962183 0.76804611 169 171 170
-0.43052902 -0.30975982 0.76817088 80 80 85
-0.43003750 -0.28993564 0.76839939 41 40 48
-0.42951694 -0.27012626 0.76873628 40 39 47
-0.42970597 -0.25030607 0.76907477 40 40 46
-0.42986721 -0.23045325 0.76936331 40 40 46
-0.43018375 -0.21010439 0.76970767 41 41 46
-0.43013013 -0.18958787 0.77006226 41 41 48
-0.43041960 -0.16950064 0.77035135 42 42 48
-0.43030214 -0.14976254 0.77067716 42 42 47
-0.42947627 -0.12961904 0.77097366 43 43 50
-0.42957951 -0.10970927 0.77123361 106 107 112
-0.42968498 -0.08973614 0.77142291 171 173 174
-0.42979455 -0.06975363 0.77161958 173 173 175
-0.42996683 -0.04976818 0.77192880 174 175 176
-0.43016783 -0.02976877 0.77228962 174 175 177
-0.43036754 -0.00975075 0.77264822 174 175 176
-0.43044617 0.01020700 0.77294018 173 175 176
-0.42983075 0.03047281 0.77322101 173 174 176
-0.42952863 0.05040319 0.77354316 171 172 175
-0.42964692 0.07047735 0.77375671 170 171 174
-0.42965003 0.09053815 0.77376304 119 119 126
-0.42967107 0.11068400 0.77346489 43 43 48
-0.43011601 0.13032968 0.77245322 77 77 80
-0.43005220 0.14995552 0.77026696 79 79 82
-0.43010853 0.17005707 0.76773798 63 61 67
-0.42995663 0.19004808 0.76526698 55 54 57
-0.42998095 0.21003245 0.76300391 49 49 52
-0.43697578 0.23597919 0.75956465 43 43 45
-0.42888049 0.22912547 0.76132182 46 45 47
-0.43216231 0.25134499 0.75889193 40 40 42
-0.42384673 0.24596840 0.76057820 43 42 44
-0.43005132 0.26988144 0.75764227 37 35 40
-0.43018647 0.29021592 0.75616695 34 33 36
-0.42987164 0.30983312 0.75488655 33 30 36
-0.42998112 0.33007845 0.75359460 31 30 33
-0.42988780 0.34995321 0.75217980 29 27 32
-0.43008419 0.36984179 0.75042825 28 26 30
-0.42950409 0.39464360 0.73666212 0 0 0
-0.43033495 0.38485405 0.74509759 11 10 12
-0.43012561 0.40655393 0.72967357 0 0 0
-0.41018332 -0.49450129 0.73949673 0 0 0
-0.40988975 -0.48503651 0.74051773 0 0 0
-0.40998683 -0.47019507 0.74255847 0 0 0
-0.41000291 -0.45017362 0.74670494 0 0 0
-0.40981565 -0.43068576 0.75321971 4 5 4
-0.41204192 -0.42202556 0.76269706 173 179 177
-0.41011066 -0.41025489 0.76469469 176 178 177
-0.40954061 -0.38988620 0.76608659 174 177 177
-0.40984896 -0.37014296 0.76673953 174 175 175
-0.41030696 -0.35011690 0.76731028 173 174 173
-0.41020684 -0.32974869 0.76769995 169 171 171
-0.41046734 -0.30964948 0.76789764 77 78 82
-0.41023633 -0.28990984 0.76820445 38 38 44
-0.40950215 -0.27007040 0.76857753 36 36 41
-0.40969076 -0.25025944 0.76893157 35 34 40
-0.40984868 -0.23041278 0.76922810 35 34 40
-0.41000348 -0.21054892 0.76951849 35 35 40
-0.41017030 -0.19001042 0.76983138 35 35 40
-0.41031009 -0.16944400 0.77009369 36 35 41
-0.41048428 -0.14954155 0.77042048 37 36 41
-0.41003761 -0.12966610 0.77074353 40 38 44
-0.40952213 -0.10959267 0.77095858 105 106 110
-0.40952183 -0.08970033 0.77111529 174 174 176
-0.40962112 -0.06972498 0.77130217 175 177 178
-0.40977340 -0.04974626 0.77158878 176 178 180
-0.40995233 -0.02975479 0.77192563 177 178 180
-0.41015501 -0.00974638 0.77230737 177 178 181
-0.41033803 0.01028118 0.77265224 176 178 180
-0.41034617 0.03019340 0.77298667 175 176 179
-0.40978752 0.05056107 0.77339934 174 175 178
-0.40955536 0.07047217 0.77369750 172 174 176
-0.40961810 0.09054456 0.77381627 125 124 132
-0.40952944 0.11058253 0.77364932 33 32 38
-0.41006754 0.13048383 0.77307677 53 53 56
-0.41003921 0.15044647 0.77157481 82 79 82
-0.41001232 0.16985330 0.76962885 71 71 74
-0.40996200 0.18993974 0.76750819 60 58 60
-0.41000405 0.21011094 0.76555567 52 52 54
-0.41016353 0.22989095 0.76388417 47 46 49
-0.41002779 0.25010594 0.76224795 44 42 45
-0.41644542 0.27313089 0.75943886 38 36 40
-0.40754096 0.26899512 0.76111478 40 38 42
-0.41263169 0.29081535 0.75881794 35 34 38
-0.40317527 0.28732028 0.76051466 37 36 39
-0.41002773 0.31017492 0.75792433 34 31 35
-0.40992343 0.32986452 0.75655907 31 30 34
-0.41000538 0.34998440 0.75483389 30 27 33
-0.40987715 0.37056466 0.75257777 27 25 29
-0.40972567 0.39338619 0.73607429 0 0 0
-0.41100044 0.38301795 0.74379995 2 2 2
-0.40996930 0.40657421 0.72887729 0 0 0
-0.38991160 -0.49499142 0.73954026 0 0 0
-0.39006704 -0.48547104 0.74050919 0 0 0
-0.38998134 -0.47002089 0.74250444 0 0 0
-0.38995939 -0.45000210 0.74634896 0 0 0
-0.39012212 -0.42956328 0.75258967 2 2 2
-0.39496193 -0.42096025 0.76221494 171 178 177
-0.38267312 -0.41950585 0.75728590 17 17 17
-0.38990484 -0.41038436 0.76391628 176 177 176
-0.39000112 -0.39002877 0.76541613 176 177 178
-0.38966161 -0.36984991 0.76613274 175 177 177
-0.38997890 -0.35027211 0.76675689 174 175 175
-0.39032577 -0.33006483 0.76724115 170 172 171
-0.39027413 -0.30964618 0.76754385 76 77 83
-0.39044178 -0.28985425 0.76791471 37 36 43
-0.38957041 -0.26987176 0.76831878 34 33 39
-0.38963122 -0.25017968 0.76868653 33 32 38
-0.38979041 -0.23034456 0.76900061 32 32 37
-0.38993366 -0.21048466 0.76928334 32 32 37
-0.39022549 -0.19033025 0.76955215 32 32 36
-0.39003899 -0.16978736 0.76979373 33 32 38
-0.39034589 -0.14947870 0.77009630 34 34 39
-0.39049855 -0.12956374 0.77039734 37 36 42
-0.39002232 -0.10969904 0.77058576 101 102 107
-0.39000279 -0.08965588 0.77073341 175 175 177
-0.38973078 -0.06951943 0.77092060 177 177 179
-0.38955698 -0.04971927 0.77116933 177 179 180
-0.38972247 -0.02973829 0.77149687 178 179 181
-0.38991545 -0.00974092 0.77187882 178 180 182
-0.39011440 0.01027627 0.77227280 177 178 181
-0.39032003 0.03031456 0.77268009 176 178 181
-0.39030655 0.05021385 0.77316114 175 176 179
-0.38971896 0.07062992 0.77354272 172 174 176
-0.38949872 0.09053129 0.77370230 130 130 135
-0.38946819 0.11058192 0.77364206 32 31 37
-0.38970506 0.13077153 0.77347314 33 33 37
-0.39028433 0.15047167 0.77270850 61 59 63
-0.39004150 0.17039403 0.77132554 70 69 72
-0.39004759 0.18987194 0.76961854 59 58 61
-0.38991809 0.20998023 0.76795482 52 51 54
-0.39012507 0.23001349 0.76644469 48 47 50
-0.38999597 0.25000567 0.76502013 44 43 46
-0.39004162 0.26985301 0.76364999 41 39 41
-0.39003843 0.29013714 0.76236906 37 34 37
-0.39750273 0.31410793 0.75961070 32 31 35
-0.38854948 0.30901563 0.76131041 34 31 35
-0.39254855 0.33162352 0.75893739 32 30 34
-0.38399947 0.32678127 0.76055651 32 29 34
-0.38996411 0.35007259 0.75745904 31 28 32
-0.39007952 0.37130019 0.75259468 21 20 23
-0.38980479 0.39185350 0.73570025 0 0 0
-0.39091322 0.38211781 0.74126292 0 0 0
-0.38997088 0.40624703 0.72837860 0 0 0
-0.36979961 -0.49479445 0.73956445 0 0 0
-0.37019404 -0.48506728 0.74051898 0 0 0
-0.37003083 -0.47007291 0.74237100 0 0 0
-0.37001972 -0.44982919 0.74602892 0 0 0
-0.36990342 -0.42974236 0.75144176 0 0 0
-0.36898969 -0.41803314 0.75655723 22 23 23
-0.37013978 -0.40891038 0.76294346 177 178 177
-0.37043932 -0.39014165 0.76472149 176 178 177
-0.36946711 -0.36984468 0.76551731 176 177 177
-0.36983986 -0.35002611 0.76621861 175 176 176
-0.37009092 -0.33038554 0.76673889 171 172 172
-0.37026674 -0.30999164 0.76710322 80 80 84
-0.37047792 -0.28960549 0.76754103 36 36 42
-0.36993196 -0.26981576 0.76797442 33 32 38
-0.36953829 -0.25006879 0.76834571 32 32 36
-0.36969081 -0.23024336 0.76866287 32 31 37
-0.36983945 -0.21039945 0.76897200 32 31 37
-0.36995752 -0.19052388 0.76921750 32 31 37
-0.37019199 -0.17013577 0.76944724 33 32 37
-0.37007487 -0.14959295 0.76972703 33 33 38
-0.37032645 -0.12949440 0.76998429 36 36 41
-0.37040912 -0.10955622 0.77015598 101 101 107
-0.37048226 -0.08960636 0.77030810 176 176 178
-0.37024196 -0.06982645 0.77052339 177 178 180
-0.36990623 -0.04958213 0.77078853 178 179 182
-0.36952936 -0.02972295 0.77109823 178 180 183
-0.36970739 -0.00973576 0.77146971 179 180 182
-0.36990539 0.01027115 0.77188291 178 179 182
-0.37011880 0.03030083 0.77232841 177 178 181
-0.37037342 0.05035913 0.77285984 175 176 180
-0.37023926 0.07026371 0.77330002 172 173 176
-0.37001342 0.09050824 0.77350404 136 136 140
-0.37003678 0.11056949 0.77355329 33 32 38
-0.36938917 0.13063201 0.77359764 28 26 33
-0.37023910 0.15044852 0.77338010 34 33 37
-0.37021374 0.17044914 0.77269250 47 45 48
-0.37009876 0.19044962 0.77153219 48 47 51
-0.36978486 0.20994428 0.77025441 46 46 49
-0.37045051 0.23000637 0.76885712 45 44 47
-0.36971801 0.25008319 0.76770626 43 42 45
-0.37010798 0.27003483 0.76650474 41 39 42
-0.37009485 0.28997847 0.76539305 39 36 40
-0.36994198 0.31012761 0.76406327 36 34 38
-0.37993934 0.33979512 0.75993240 32 30 36
-0.36984949 0.32998846 0.76233345 36 33 39
-0.37267161 0.35303795 0.75913735 34 32 36
-0.36669548 0.34591886 0.76089527 35 33 37
-0.36981593 0.37080843 0.75171195 19 18 20
-0.36977853 0.39096370 0.73503299 0 0 0
-0.37268337 0.38092133 0.74067378 0 0 0
-0.37015471 0.40632344 0.72763854 0 0 0
-0.34974739 -0.49459896 0.73958729 0 0 0
-0.35027735 -0.48507430 0.74048315 0 0 0
-0.35001645 -0.46990305 0.74227801 0 0 0
-0.35002580 -0.45021382 0.74566617 0 0 0
-0.35015104 -0.43019184 0.75065266 0 0 0
-0.34924305 -0.41658826 0.75589637 21 21 21
-0.35014886 -0.40737335 0.76237376 177 179 178
-0.35022406 -0.39005958 0.76403817 177 178 177
-0.34980283 -0.36987111 0.76494720 176 177 177
-0.34973219 -0.34978354 0.76568781 175 175 176
-0.34998621 -0.33017220 0.76624392 172 172 172
-0.35022915 -0.31036133 0.76660964 79 81 84
-0.35028664 -0.29000323 0.76706021 36 36 42
-0.35035703 -0.26984877 0.76751809 33 33 38
-0.34962713 -0.24977345 0.76790157 32 31 36
-0.34955398 -0.23010612 0.76820466 31 31 36
-0.34969941 -0.21027690 0.76852423 31 30 36
-0.34981828 -0.19041685 0.76878563 31 30 34
-0.34992473 -0.17053694 0.76901968 32 31 36
-0.35004494 -0.14998587 0.76928388 33 32 37
-0.35015239 -0.12941634 0.76951981 36 35 41
-0.35021672 -0.10948588 0.76966108 99 99 104
-0.35027966 -0.08954715 0.76979935 176 177 179
-0.35039646 -0.06961224 0.77005619 178 179 180
-0.35040424 -0.04977442 0.77035030 178 179 181
-0.35001115 -0.02970656 0.77067351 179 180 183
-0.34954488 -0.00968852 0.77102201 179 179 181
-0.34969541 0.01026544 0.77144602 179 180 181
-0.34991731 0.03028551 0.77193574 178 179 181
-0.35016570 0.05033466 0.77248381 176 177 179
-0.35038139 0.07040527 0.77295973 173 174 176
-0.35049997 0.09047535 0.77322156 142 144 148
-0.35055398 0.11053923 0.77334100 33 32 36
-0.34995109 0.13061351 0.77348610 28 26 32
-0.35022032 0.15015664 0.77353037 27 26 31
-0.35072702 0.16967999 0.77336980 27 27 31
-0.35028127 0.19012781 0.77287334 31 30 34
-0.34989540 0.21031562 0.77212952 38 38 40
-0.35023030 0.23018794 0.77116913 45 43 45
-0.34990084 0.24996156 0.77035464 46 44 48
-0.34983188 0.27005432 0.76953526 47 45 48
-0.35031953 0.28995995 0.76863617 51 49 53
-0.34992528 0.31007275 0.76744310 61 59 63
-0.35006353 0.32993359 0.76524248 57 55 58
-0.35735713 0.35902530 0.75986009 55 52 56
-0.34975080 0.34982773 0.76207834 66 65 68
-0.34241877 0.37942360 0.73987886 0 0 0
-0.35025732 0.37046382 0.74980141 26 25 26
-0.34491079 0.36135385 0.76022468 94 91 95
-0.35001501 0.38999294 0.73456273 0 0 0
-0.35001101 0.40601758 0.72688449 0 0 0
-0.32997934 -0.49440287 0.73960402 0 0 0
-0.32990886 -0.48482799 0.74050388 0 0 0
-0.33004310 -0.46992642 0.74224612 0 0 0
-0.33001369 -0.45005354 0.74550571 0 0 0
-0.33001709 -0.43017755 0.75022154 0 0 0
-0.32969761 -0.41570975 0.75561255 11 11 11
-0.33011467 -0.40659075 0.76183226 176 178 177
-0.33020932 -0.39029350 0.76338739 176 178 178
-0.33018851 -0.37016186 0.76439383 176 177 177
-0.32952607 -0.35003086 0.76515036 175 176 176
-0.32990215 -0.32995393 0.76573732 173 173 173
-0.33004923 -0.31023974 0.76607861 78 79 83
-0.33038375 -0.29009680 0.76652778 37 36 42
-0.33030124 -0.26974564 0.76699795 33 33 37
-0.33018486 -0.24991397 0.76739613 33 31 37
-0.32967101 -0.22978851 0.76769011 31 30 36
-0.32954405 -0.21012988 0.76798699 31 30 36
-0.32966686 -0.19028987 0.76827322 31 30 36
-0.32977655 -0.17042809 0.76852891 31 31 36
-0.32989296 -0.15055607 0.76880032 33 32 39
-0.32998813 -0.12999727 0.76902218 37 36 42
-0.33004227 -0.10941296 0.76914837 98 97 104
-0.33010237 -0.08948768 0.76928841 177 178 179
-0.33021938 -0.06956746 0.76956109 178 179 181
-0.33035224 -0.04963550 0.76987069 179 180 182
-0.33050086 -0.02968892 0.77021712 179 180 183
-0.33003369 -0.00976864 0.77057043 180 180 183
-0.32958627 0.01033717 0.77099660 179 180 182
-0.32972339 0.03026898 0.77151325 178 180 182
-0.32996270 0.05030794 0.77207327 177 178 181
-0.33017532 0.07036990 0.77257078 175 175 178
-0.33029227 0.09043123 0.77284439 149 149 152
-0.33036176 0.11049171 0.77300733 32 32 36
-0.33046999 0.13057578 0.77326109 27 25 31
-0.33054076 0.14998733 0.77342736 27 25 31
-0.33058440 0.16939338 0.77353027 26 24 31
-0.33058089 0.18944642 0.77352375 25 24 29
-0.33059194 0.20955382 0.77337293 29 28 32
-0.33043904 0.22976256 0.77300585 35 34 37
-0.33018155 0.24997750 0.77259655 41 39 44
-0.32997496 0.27008412 0.77218362 43 42 45
-0.33022980 0.29017763 0.77155786 49 48 52
-0.33016462 0.31000306 0.77021086 78 78 83
-0.32992208 0.33011176 0.76735254 86 84 86
-0.33003825 0.35038679 0.76316366 110 110 109
-0.32791981 0.37888460 0.73938238 0 0 0
-0.33020941 0.36963078 0.74762337 18 18 18
-0.32949354 0.36156401 0.76037378 119 118 116
-0.32995401 0.38989243 0.73364960 0 0 0
-0.33016927 0.40577237 0.72601059 0 0 0
-0.31046599 -0.49495163 0.73959062 0 0 0
-0.30977638 -0.48526892 0.74049643 0 0 0
-0.30998670 -0.47008404 0.74226711 0 0 0
-0.30998621 -0.45017799 0.74544397 0 0 0
-0.30991288 -0.43011473 0.74981633 0 0 0
-0.30960875 -0.41404476 0.75508044 15 15 15
-0.31031565 -0.40491974 0.76123152 175 178 176
-0.31018985 -0.39000770 0.76282828 176 177 177
-0.31020338 -0.37007732 0.76383262 176 177 176
-0.30958271 -0.34993995 0.76458440 174 175 175
-0.30982012 -0.32970983 0.76517078 172 173 173
-0.30995901 -0.31001106 0.76551395 77 77 81
-0.31012848 -0.29032229 0.76593238 36 36 40
-0.31032837 -0.26997637 0.76642593 33 32 38
-0.31049759 -0.24957998 0.76684391 32 31 36
-0.31022657 -0.22995008 0.76712999 31 30 37
-0.30969750 -0.20980112 0.76740767 31 31 36
-0.30950779 -0.19014196 0.76767619 31 30 36
-0.30961560 -0.17029827 0.76794361 32 31 37
-0.30973452 -0.15044603 0.76823869 33 32 38
-0.30982893 -0.13056858 0.76847298 36 35 41
-0.30988694 -0.11000156 0.76861699 92 91 99
-0.30994723 -0.08942695 0.76876656 178 178 180
-0.31005618 -0.06952011 0.76903680 179 180 182
-0.31017175 -0.04960024 0.76932330 180 180 183
-0.31031407 -0.02966805 0.76967623 180 180 183
-0.31047339 -0.00971806 0.77007156 180 180 183
-0.31008355 0.01017158 0.77052309 180 181 183
-0.30953684 0.03025102 0.77105442 180 180 183
-0.30976592 0.05027875 0.77162508 178 178 181
-0.30995961 0.07032763 0.77210751 175 176 178
-0.31006694 0.09037639 0.77237503 155 155 157
-0.31015478 0.11043271 0.77259380 31 31 37
-0.31028069 0.13051628 0.77290753 26 25 31
-0.31023698 0.15039469 0.77317750 26 25 30
-0.31063684 0.16980217 0.77340847 26 25 31
-0.31055217 0.18946192 0.77358509 26 25 29
-0.31060742 0.20955536 0.77372337 26 24 31
-0.31062638 0.22962937 0.77377206 26 25 30
-0.31025826 0.24985111 0.77377207 28 27 32
-0.31021011 0.26954878 0.77365342 29 29 33
-0.31048896 0.28972621 0.77317071 33 31 36
-0.30985331 0.30994494 0.77165721 71 71 77
-0.31008331 0.33021235 0.76813631 91 91 96
-0.30996522 0.35056776 0.76343016 117 117 119
-0.30960717 0.37819207 0.73886335 0 0 0
-0.30991658 0.36749150 0.74672420 6 6 6
-0.31461791 0.36118279 0.76025469 124 124 124
-0.30997782 0.39022230 0.73257419 0 0 0
-0.30996331 0.40570681 0.72514327 0 0 0
-0.29018682 -0.49528763 0.73966428 0 0 0
-0.28996992 -0.48569736 0.74053552 0 0 0
-0.28997382 -0.46983392 0.74237621 0 0 0
-0.28998735 -0.44994935 0.74550968 0 0 0
-0.28994117 -0.42980014 0.74949732 0 0 0
-0.28987781 -0.41248423 0.75457742 17 18 18
-0.29009122 -0.40361207 0.76116964 176 177 177
-0.29025135 -0.38979159 0.76240496 176 177 176
-0.29021042 -0.36980372 0.76334025 176 176 176
-0.28961796 -0.35024474 0.76401062 175 175 175
-0.28969017 -0.33003732 0.76459114 173 173 173
-0.28990949 -0.30979457 0.76497948 76 76 79
-0.29006257 -0.29011426 0.76538338 38 37 42
-0.29031529 -0.27034219 0.76585004 34 33 39
-0.29032246 -0.24996852 0.76625993 33 32 38
-0.29051926 -0.22962206 0.76658852 33 32 37
-0.29028127 -0.20999365 0.76686337 33 32 38
-0.28964068 -0.18983536 0.76709791 33 32 38
-0.28948226 -0.17016701 0.76735175 34 33 38
-0.28959613 -0.15033145 0.76765354 34 33 39
-0.28969193 -0.13047245 0.76790748 36 36 41
-0.28982877 -0.11049319 0.76806860 85 85 92
-0.28973831 -0.08994384 0.76822290 178 178 180
-0.28991517 -0.06947162 0.76849963 179 179 181
-0.29001567 -0.04956431 0.76876604 179 180 182
-0.29014652 -0.02964632 0.76911282 179 180 182
-0.29030342 -0.00971115 0.76952886 179 180 182
-0.29049092 0.01024670 0.77002596 180 181 183
-0.28984487 0.03036907 0.77057402 179 180 183
-0.28957563 0.05024672 0.77113281 178 178 181
-0.28976278 0.07028428 0.77163126 175 175 178
-0.28987085 0.09032304 0.77191901 161 161 163
-0.28995570 0.11036853 0.77214497 33 31 39
-0.29006801 0.13043801 0.77244384 27 26 32
-0.29019221 0.15052902 0.77277460 27 25 31
-0.29013781 0.17024049 0.77307490 27 26 31
-0.29056304 0.18965440 0.77332411 28 27 32
-0.29047524 0.20950307 0.77352939 28 26 31
-0.29055423 0.22962034 0.77374015 27 26 31
-0.29028419 0.24957268 0.77394099 28 26 32
-0.29031167 0.27000866 0.77401511 29 28 32
-0.29052803 0.28977371 0.77367270 31 30 34
-0.28995190 0.30988054 0.77213898 63 63 67
-0.29013683 0.33016537 0.76816268 106 107 113
-0.28862936 0.35819677 0.75311381 19 18 18
-0.29032037 0.34920639 0.76328975 162 161 159
-0.28958286 0.37716785 0.73851358 0 0 0
-0.29030177 0.36726391 0.74455998 0 0 0
-0.29000491 0.38989204 0.73193528 0 0 0
-0.28991294 0.40537109 0.72459425 0 0 0
-0.27067895 -0.49619728 0.73977294 0 0 0
-0.26950783 -0.48660205 0.74061542 0 0 0
-0.27005733 -0.47016579 0.74246343 0 0 0
-0.26999114 -0.45025559 0.74549869 0 0 0
-0.27009489 -0.43025354 0.74909683 0 0 0
-0.26976322 -0.41217115 0.75408338 11 11 11
-0.27027549 -0.40271710 0.76088622 176 176 174
-0.27048415 -0.38990167 0.76195415 174 175 174
-0.26978953 -0.37000155 0.76290759 173 174 174
-0.26958020 -0.35013831 0.76357515 173 174 174
-0.26976784 -0.32991127 0.76410607 173 173 172
-0.26989987 -0.30959225 0.76447990 77 77 81
-0.27003230 -0.28991396 0.76485481 42 41 47
-0.27019474 -0.27024651 0.76531472 40 39 44
-0.27049913 -0.25013814 0.76574433 39 38 45
-0.27031582 -0.22974968 0.76609635 39 38 45
-0.27057291 -0.20969204 0.76638627 38 38 43
-0.27003800 -0.18989261 0.76662064 38 37 43
-0.26941245 -0.17005663 0.76685363 40 39 45
-0.26951058 -0.15022951 0.76713279 40 39 46
-0.26959166 -0.13038003 0.76736333 41 40 46
-0.26964520 -0.11050714 0.76751571 84 84 92
-0.26971979 -0.08996951 0.76772845 177 177 179
-0.26982981 -0.06943017 0.76804159 178 178 180
-0.26992355 -0.04953479 0.76830851 178 179 181
-0.27004502 -0.02962866 0.76865444 178 179 182
-0.27019393 -0.00970544 0.76907826 178 179 181
-0.27037312 0.01024087 0.76958817 179 179 181
-0.27039982 0.03008279 0.77014443 178 179 181
-0.26960222 0.05035143 0.77070553 177 177 179
-0.26960215 0.07024382 0.77118776 175 175 177
-0.26970018 0.09027042 0.77146820 164 164 166
-0.26978070 0.11030469 0.77169877 36 34 43
-0.26986516 0.13035282 0.77193988 32 31 37
-0.26997436 0.15042721 0.77225195 32 31 38
-0.27008880 0.17052098 0.77257919 33 32 38
-0.27002608 0.19023504 0.77287761 35 32 38
-0.27045191 0.20965586 0.77314722 34 32 38
-0.27037794 0.22952164 0.77340706 34 32 38
-0.27047639 0.24966422 0.77368904 35 34 39
-0.27055054 0.26979697 0.77390200 35 34 39
-0.27049491 0.28980095 0.77374429 37 36 42
-0.26997624 0.30992894 0.77226063 91 91 97
-0.27015782 0.32999530 0.76775826 168 168 166
-0.26943856 0.35617554 0.75144525 3 3 3
-0.27016131 0.34746621 0.76301832 176 175 170
-0.26943534 0.37638923 0.73807603 0 0 0
-0.27034163 0.36647003 0.74376172 0 0 0
-0.27007019 0.38975703 0.73133866 0 0 0
-0.26999923 0.40516507 0.72414845 0 0 0
-0.25229080 -0.49778963 0.73987946 0 0 0
-0.24962137 -0.48840559 0.74070495 0 0 0
-0.24994002 -0.47028114 0.74269318 0 0 0
-0.24997705 -0.45000834 0.74566114 0 0 0
-0.25004809 -0.43006418 0.74892067 0 0 0
-0.24968185 -0.41038460 0.75444187 10 10 11
-0.25575919 -0.40126297 0.76041487 124 128 123
-0.24266577 -0.39967056 0.75988582 43 43 50
-0.25026399 -0.39014620 0.76148393 78 81 82
-0.24966045 -0.37028566 0.76267153 74 77 79
-0.24970277 -0.35002561 0.76332914 75 76 79
-0.24989708 -0.33039180 0.76379780 79 80 85
-0.24992487 -0.31006762 0.76412558 142 141 143
-0.25008501 -0.28977839 0.76449687 149 147 150
-0.25023272 -0.27011711 0.76494836 147 146 148
-0.25036924 -0.25042157 0.76536571 146 145 149
-0.25049066 -0.23002858 0.76573671 145 144 149
-0.25058572 -0.20959383 0.76602724 143 142 147
-0.25004410 -0.18978055 0.76626334 145 144 149
-0.24941345 -0.16997678 0.76649357 151 149 154
-0.24949702 -0.15015465 0.76675044 151 149 154
-0.24957087 -0.13031454 0.76697754 150 150 154
-0.24962876 -0.11045517 0.76715585 139 139 143
-0.24986714 -0.09027373 0.76739639 85 85 91
-0.24964093 -0.06976210 0.76768312 80 80 86
-0.24990526 -0.04951524 0.76800579 81 81 87
-0.25002362 -0.02961762 0.76836962 79 81 85
-0.25016010 -0.00970180 0.76878903 80 80 86
-0.25031906 0.01023668 0.76927736 78 78 83
-0.25049461 0.03020244 0.76981657 77 76 80
-0.24996320 0.05021514 0.77036986 69 69 75
-0.24949234 0.07021133 0.77083073 65 65 71
-0.24958840 0.09023066 0.77112765 78 78 85
-0.24966460 0.11025653 0.77136256 153 152 156
-0.24971820 0.13028300 0.77152773 153 152 155
-0.24980522 0.15033845 0.77179628 153 152 156
-0.24990623 0.17041705 0.77210826 153 152 156
-0.24999787 0.19050474 0.77239112 153 153 155
-0.24993042 0.21022425 0.77269877 155 154 156
-0.25036851 0.22966540 0.77302798 153 153 156
-0.25030496 0.24955189 0.77334070 153 152 157
-0.25040213 0.26970635 0.77364126 154 154 157
-0.25041790 0.28978166 0.77369127 155 154 157
-0.24998528 0.30987536 0.77223482 145 144 144
-0.25012228 0.32978631 0.76723639 186 185 179
-0.24958319 0.35442647 0.75061641 1 1 1
-0.25031538 0.34555195 0.76280184 183 180 175
-0.24973321 0.37574146 0.73762903 0 0 0
-0.25030241 0.36567807 0.74301082 0 0 0
-0.24993146 0.39035794 0.73045700 0 0 0
-0.25007425 0.40543990 0.72355840 0 0 0
-0.23822011 -0.49917946 0.73995773 0 0 0
-0.22995761 -0.48999189 0.74094575 0 0 0
-0.23001333 -0.47009315 0.74304106 0 0 0
-0.23005691 -0.45042224 0.74577885 0 0 0
-0.22993511 -0.43010496 0.74873272 0 0 0
-0.22998908 -0.40963449 0.75400651 4 4 5
-0.22870858 -0.39831780 0.75955452 36 37 42
-0.23031702 -0.38878566 0.76123850 37 37 42
-0.22966930 -0.37008341 0.76252207 37 36 41
-0.22985894 -0.34994424 0.76315151 37 37 42
-0.22999006 -0.33034736 0.76358683 42 41 48
-0.23006649 -0.30999331 0.76384000 154 154 156
-0.23017212 -0.28966221 0.76419039 175 176 176
-0.23030362 -0.27000362 0.76462686 177 177 178
-0.23042714 -0.25031399 0.76503680 178 178 179
-0.23062787 -0.23004384 0.76536934 177 178 180
-0.23050411 -0.20962678 0.76563867 178 178 180
-0.22971301 -0.18977569 0.76587022 179 179 180
-0.22942500 -0.16989063 0.76610520 179 179 181
-0.22950490 -0.15008051 0.76637222 179 179 182
-0.22957911 -0.13025374 0.76662022 178 178 182
-0.22964290 -0.11040882 0.76683350 153 154 157
-0.22971283 -0.09055498 0.76706700 39 38 44
-0.22980728 -0.07003359 0.76738266 34 32 39
-0.22991795 -0.04949883 0.76775263 33 32 38
-0.23002922 -0.02960816 0.76812422 32 31 37
-0.23015528 -0.00969874 0.76854507 33 32 38
-0.23029165 0.01023285 0.76900030 32 31 36
-0.23044416 0.03019041 0.76950952 32 30 34
-0.23039388 0.05002466 0.77004859 30 29 34
-0.22953498 0.07028914 0.77049929 29 28 33
-0.22949394 0.09019029 0.77078424 47 47 54
-0.22953093 0.11019144 0.77090796 174 174 176
-0.22956819 0.13019937 0.77103307 177 177 179
-0.22963771 0.15023510 0.77126626 178 178 179
-0.22971802 0.17029055 0.77153561 178 178 181
-0.22979116 0.19035422 0.77178101 178 179 180
-0.22988655 0.21045113 0.77210121 179 180 182
-0.22983711 0.23035880 0.77244485 181 181 182
-0.23024518 0.24980705 0.77278399 180 181 182
-0.23018896 0.26952371 0.77311698 182 183 184
-0.23024438 0.28963697 0.77330378 186 186 187
-0.22997123 0.30977675 0.77197633 147 145 147
-0.23006740 0.32962261 0.76681938 189 186 183
-0.22942525 0.35257110 0.74983272 0 0 0
-0.23063100 0.34379635 0.76252532 179 178 174
-0.22972478 0.37473453 0.73734707 0 0 0
-0.23054834 0.36466019 0.74246124 0 0 0
-0.22999248 0.39012530 0.72997142 0 0 0
-0.22999036 0.40518294 0.72313486 0 0 0
-0.20988247 -0.48997174 0.74151328 0 0 0
-0.21007275 -0.47014687 0.74341516 0 0 0
-0.21000240 -0.45024254 0.74599659 0 0 0
-0.21000422 -0.43002260 0.74865465 0 0 0
-0.21005936 -0.40964044 0.75344322 1 1 2
-0.20944725 -0.39749144 0.75921648 33 33 37
-0.20989019 -0.38774144 0.76105375 34 33 37
-0.20984756 -0.36999072 0.76233133 33 33 38
-0.21002136 -0.34985772 0.76296270 34 33 39
-0.21013233 -0.33025174 0.76336558 40 39 45
-0.21022871 -0.30992722 0.76357510 155 155 157
-0.21024379 -0.28960605 0.76391887 176 176 176
-0.21039624 -0.26989683 0.76432407 177 177 178
-0.21050048 -0.25020467 0.76470250 178 179 180
-0.21058294 -0.23046914 0.76500191 179 179 181
-0.21014397 -0.20991307 0.76523717 178 179 181
-0.20947662 -0.18966644 0.76544995 179 179 182
-0.20944968 -0.16979900 0.76569230 180 180 182
-0.20953115 -0.15000566 0.76599030 180 180 183
-0.20960460 -0.13019235 0.76625902 179 179 182
-0.20966788 -0.11035940 0.76649040 153 154 157
-0.20973481 -0.09051580 0.76673523 37 36 43
-0.20982941 -0.07000599 0.76708153 32 31 36
-0.20994554 -0.04948287 0.76750636 31 29 35
-0.21004835 -0.02959890 0.76788212 29 28 35
-0.21015708 -0.00969541 0.76827931 29 28 33
-0.21027674 0.01022903 0.76871665 28 27 32
-0.21040928 0.03017822 0.76920080 28 27 32
-0.21054270 0.05015229 0.76968797 27 26 31
-0.21012818 0.07003150 0.77009166 28 27 31
-0.20959961 0.09028865 0.77033306 43 43 50
-0.20941343 0.11012264 0.77042702 173 174 176
-0.20944699 0.13011779 0.77055026 177 178 181
-0.20949986 0.15013342 0.77074476 178 178 181
-0.20956491 0.17016874 0.77098399 179 179 181
-0.20962395 0.19021112 0.77120101 179 180 181
-0.20970268 0.21028457 0.77149039 181 181 183
-0.20979006 0.23038219 0.77181155 182 182 184
-0.20987755 0.25049689 0.77213321 181 181 183
-0.20981942 0.27020577 0.77249073 185 185 185
-0.21014614 0.28967901 0.77272185 188 188 189
-0.20983800 0.31000559 0.77151187 149 148 149
-0.21001947 0.33017540 0.76625618 191 189 185
-0.20984371 0.35103860 0.74936454 1 1 1
-0.21101098 0.34217406 0.76210349 179 177 174
-0.20978989 0.37379396 0.73711201 0 0 0
-0.21025215 0.36410639 0.74187708 0 0 0
-0.21001649 0.38984543 0.72951273 0 0 0
-0.20997617 0.40491712 0.72264644 0 0 0
-0.19001282 -0.50021800 0.74149721 0 0 0
-0.18989202 -0.48959533 0.74216053 0 0 0
-0.18998094 -0.46967596 0.74387909 0 0 0
-0.19002298 -0.44995576 0.74623360 0 0 0
-0.18999082 -0.42995125 0.74869964 0 0 0
-0.18996217 -0.40973051 0.75316393 0 0 0
-0.18973903 -0.39694292 0.75898723 31 31 34
-0.18993273 -0.38684672 0.76090434 33 32 37
-0.19002886 -0.36988497 0.76211367 33 32 36
-0.19018151 -0.34974912 0.76272568 34 33 37
-0.19027214 -0.33013201 0.76308861 40 39 45
-0.19031983 -0.31042586 0.76328022 156 155 157
-0.19040679 -0.29010936 0.76362923 177 177 178
-0.19051025 -0.26979795 0.76404411 178 178 179
-0.19028234 -0.24994925 0.76440891 178 178 180
-0.19000275 -0.23036565 0.76465812 179 179 181
-0.18956478 -0.21006504 0.76485799 179 179 182
-0.18944415 -0.18949677 0.76507085 179 179 182
-0.18950336 -0.16971421 0.76530991 179 179 183
-0.18957889 -0.14993215 0.76561512 180 180 183
-0.18965111 -0.13013248 0.76590714 179 179 182
-0.18971462 -0.11031230 0.76616358 155 155 158
-0.18978237 -0.09048057 0.76643751 35 34 40
-0.18988476 -0.06998486 0.76685156 31 29 35
-0.18999425 -0.04946917 0.76729376 29 27 33
-0.19008253 -0.02959004 0.76765008 28 26 33
-0.19017123 -0.00969204 0.76800797 27 26 30
-0.19027106 0.01022486 0.76841058 27 25 32
-0.19037483 0.03016345 0.76882903 26 25 31
-0.19047744 0.05012320 0.76924296 27 26 30
-0.19056982 0.07010055 0.76961561 27 25 31
-0.19018585 0.08992185 0.76981435 39 38 47
-0.18997420 0.11004689 0.76989733 171 172 174
-0.19000261 0.13002703 0.77001266 178 177 181
-0.18964015 0.15019261 0.77020635 179 178 181
-0.18943871 0.17004532 0.77042495 179 179 183
-0.18948809 0.19006914 0.77062565 180 180 183
-0.18955051 0.21011792 0.77087924 182 182 184
-0.18961958 0.23018754 0.77115974 183 183 186
-0.18969364 0.25027877 0.77146084 182 182 184
-0.18979238 0.27042065 0.77186265 186 186 188
-0.18985506 0.29052753 0.77211764 190 190 192
-0.18990444 0.31074089 0.77096793 154 150 149
-0.18258235 0.33961280 0.75607703 5 5 5
-0.19001467 0.33049450 0.76580656 191 190 185
-0.18998379 0.34980652 0.74877054 0 0 0
-0.19428258 0.34118860 0.76157865 138 137 134
-0.18963482 0.37314982 0.73668865 0 0 0
-0.19056306 0.36308372 0.74151643 0 0 0
-0.19003994 0.39000472 0.72879843 0 0 0
-0.18076725 0.40904124 0.71998084 0 0 0
-0.19019499 0.40468571 0.72208996 0 0 0
-0.17027443 -0.50058863 0.74204661 0 0 0
-0.17013642 -0.49022817 0.74262508 0 0 0
-0.17000658 -0.46977621 0.74420299 0 0 0
-0.16998210 -0.44997715 0.74639236 0 0 0
-0.16999537 -0.43015605 0.74876372 0 0 0
-0.16999377 -0.40985856 0.75308619 0 0 0
-0.16916698 -0.39553501 0.75884352 29 28 31
-0.17055179 -0.38543195 0.76068266 32 32 35
-0.17034530 -0.36997019 0.76176783 32 32 34
-0.17018040 -0.34987340 0.76239978 33 33 36
-0.17041436 -0.32998893 0.76275794 40 39 46
-0.17046361 -0.31030315 0.76297879 158 157 160
-0.17050608 -0.28996805 0.76336543 177 177 177
-0.16998158 -0.26970321 0.76377582 178 178 179
-0.16975802 -0.25016924 0.76410846 178 179 181
-0.16944226 -0.23026389 0.76432018 179 179 181
-0.16948306 -0.21049865 0.76450410 180 180 183
-0.16952511 -0.19006415 0.76469355 179 180 183
-0.16957766 -0.16963011 0.76493059 179 179 183
-0.16964606 -0.14985845 0.76523908 180 180 183
-0.16972201 -0.13007712 0.76558190 179 179 182
-0.16978115 -0.11026701 0.76584884 158 157 162
-0.16984208 -0.09044346 0.76612372 34 34 39
-0.16994058 -0.06995898 0.76656803 30 28 34
-0.17003721 -0.04945051 0.76700375 27 26 32
-0.17011518 -0.02957870 0.76735566 26 25 30
-0.17018755 -0.00968805 0.76768195 26 25 29
-0.17026563 0.01021974 0.76803380 26 25 30
-0.17034587 0.03014631 0.76839533 26 24 30
-0.17042832 0.05009207 0.76876683 26 24 30
-0.17050158 0.07005319 0.76909681 27 25 31
-0.17053877 0.09001212 0.76926407 37 36 44
-0.17055140 0.10996445 0.76932083 169 169 172
-0.17058050 0.12993249 0.76945231 178 177 181
-0.17024051 0.14975767 0.76966966 179 179 182
-0.17000920 0.16992444 0.76987734 180 180 184
-0.16955305 0.19006234 0.77006115 181 181 184
-0.16943440 0.20995663 0.77028789 182 183 186
-0.16948814 0.23000009 0.77053184 184 184 187
-0.16955132 0.25007049 0.77081884 184 184 187
-0.16964030 0.27019671 0.77122346 185 186 188
-0.16969841 0.29029063 0.77148770 190 190 191
-0.16986035 0.31054629 0.77053175 143 141 142
-0.16936081 0.33834695 0.75484201 0 0 0
-0.17011988 0.32988945 0.76545758 176 174 172
-0.16989745 0.34994271 0.74736691 0 0 0
-0.16982866 0.37224070 0.73633735 0 0 0
-0.17128254 0.36211594 0.74110109 0 0 0
-0.17000501 0.39032799 0.72796370 0 0 0
-0.16851015 0.40862267 0.71976558 0 0 0
-0.17029936 0.40420312 0.72165693 0 0 0
-0.14979877 -0.50073816 0.74226826 0 0 0
-0.14992445 -0.49024162 0.74289163 0 0 0
-0.15011719 -0.47009403 0.74438067 0 0 0
-0.15000273 -0.45002731 0.74647539 0 0 0
-0.14997993 -0.42998182 0.74886220 0 0 0
-0.15002794 -0.40974309 0.75307947 0 0 0
-0.14933519 -0.39331260 0.75868776 28 27 31
-0.15140248 -0.38324215 0.76038643 32 31 34
-0.15033918 -0.37011786 0.76123823 32 31 35
-0.15047750 -0.35004677 0.76193924 33 32 36
-0.15055326 -0.32980079 0.76232316 41 40 46
-0.15007091 -0.31004239 0.76258393 161 160 161
-0.15009049 -0.29002743 0.76300050 177 177 178
-0.14934502 -0.26971440 0.76341438 179 179 180
-0.14951362 -0.24989124 0.76374377 178 179 180
-0.14955332 -0.23015139 0.76394670 180 179 181
-0.14958808 -0.21039410 0.76412437 180 180 182
-0.14962371 -0.18996794 0.76430634 179 180 183
-0.14966908 -0.16954301 0.76453798 178 178 182
-0.14973293 -0.14978507 0.76486438 179 179 182
-0.14979921 -0.13001271 0.76520269 178 178 181
-0.14984844 -0.11021017 0.76545402 159 158 161
-0.14990296 -0.09039728 0.76573243 35 33 39
-0.15012714 -0.07013289 0.76615735 30 29 34
-0.14992331 -0.04965297 0.76657114 27 26 31
-0.15013764 -0.02956230 0.76693052 27 25 30
-0.15020208 -0.00968273 0.76725981 26 24 30
-0.15026619 0.01021373 0.76758734 26 24 29
-0.15032926 0.03012710 0.76790890 26 24 30
-0.15039471 0.05005788 0.76824283 26 24 30
-0.15045505 0.07000342 0.76855112 26 25 30
-0.15048203 0.08994482 0.76868906 34 32 39
-0.15049027 0.10988010 0.76873082 166 166 169
-0.15052054 0.12983686 0.76888562 177 177 180
-0.15056745 0.14981796 0.76912527 179 179 182
-0.15060539 0.16980113 0.76931877 180 180 183
-0.15015940 0.18965109 0.76948545 182 182 184
-0.15001237 0.20979294 0.76968763 184 184 186
-0.14963944 0.22996871 0.76987761 185 185 188
-0.14943360 0.24984742 0.77013139 185 185 188
-0.14951041 0.26995273 0.77052694 186 186 188
-0.14956538 0.29003578 0.77081029 188 188 190
-0.14983425 0.31037623 0.77005802 146 143 146
-0.14900733 0.33701197 0.75435152 0 0 0
-0.15026350 0.32861952 0.76547748 173 172 171
-0.15010120 0.35005134 0.74640175 0 0 0
-0.14989825 0.37134890 0.73608527 0 0 0
-0.15106467 0.36155719 0.74061051 0 0 0
-0.14999239 0.39002851 0.72749822 0 0 0
-0.14966996 0.40804497 0.71951529 0 0 0
-0.15018858 0.40353984 0.72139567 0 0 0
-0.12991174 -0.50073182 0.74225886 0 0 0
-0.13002906 -0.49026667 0.74292987 0 0 0
-0.12998388 -0.46986918 0.74446251 0 0 0
-0.13000755 -0.45003797 0.74649303 0 0 0
-0.12993080 -0.43023094 0.74885132 0 0 0
-0.13011135 -0.40964973 0.75296557 0 0 0
-0.12984059 -0.39072842 0.75847814 28 28 31
-0.13619234 -0.38087875 0.76012772 32 32 36
-0.12362735 -0.37874224 0.75988309 33 32 35
-0.13080995 -0.36948904 0.76067086 32 32 35
-0.13013616 -0.35006740 0.76138033 33 32 36
-0.12986847 -0.32986047 0.76177158 41 40 46
-0.12956784 -0.31003907 0.76207397 161 159 162
-0.12950003 -0.29033591 0.76249113 177 177 178
-0.12957658 -0.27006796 0.76294192 178 179 180
-0.12963454 -0.24974054 0.76328331 179 179 181
-0.12967104 -0.23001637 0.76349851 180 180 182
-0.12970135 -0.21027083 0.76367674 180 180 182
-0.12987678 -0.19028868 0.76386469 179 179 183
-0.12963083 -0.16989288 0.76408887 179 178 181
-0.12982910 -0.14969984 0.76442897 179 178 182
-0.12988168 -0.12993392 0.76473836 178 178 181
-0.12992086 -0.11014031 0.76496898 159 158 163
-0.12996957 -0.09034104 0.76525592 35 33 39
-0.13003257 -0.07053505 0.76562667 31 29 35
-0.13009971 -0.05004912 0.76602152 28 26 32
-0.13016169 -0.02954130 0.76638643 27 25 31
-0.13021896 -0.00967594 0.76672369 26 25 31
-0.13027600 0.01020667 0.76705961 25 24 30
-0.13032341 0.03010462 0.76733855 25 23 30
-0.13037423 0.05001838 0.76763733 25 23 30
-0.13042601 0.06994798 0.76794199 26 25 30
-0.13045125 0.08987475 0.76809053 31 30 37
-0.13045476 0.10979148 0.76811084 164 164 168
-0.13048366 0.12973484 0.76828127 177 177 180
-0.13052240 0.14969790 0.76850915 178 178 181
-0.13054935 0.16965725 0.76866740 180 179 182
-0.13057579 0.18962442 0.76882285 181 181 184
-0.13060937 0.20961111 0.76902063 184 184 187
-0.13024947 0.22943178 0.76918534 184 184 187
-0.12996488 0.24966073 0.76941998 185 185 187
-0.12940563 0.26968605 0.76976597 186 186 188
-0.12944761 0.28973652 0.77001520 187 188 189
-0.12977279 0.31014600 0.76948213 151 148 148
-0.12972771 0.33604193 0.75375336 0 0 0
-0.13022862 0.32726538 0.76531817 173 170 167
-0.13000476 0.35015884 0.74569816 0 0 0
-0.12992812 0.37085336 0.73587292 0 0 0
-0.13107946 0.36104817 0.74035832 0 0 0
-0.12996812 0.38985639 0.72714340 0 0 0
-0.13026126 0.40746154 0.71938980 0 0 0
-0.12997779 0.40291455 0.72126940 0 0 0
-0.11000160 -0.50061862 0.74209107 0 0 0
-0.11010958 -0.49019394 0.74282007 0 0 0
-0.11004915 -0.47017310 0.74438696 0 0 0
-0.10999976 -0.45000099 0.74643161 0 0 0
-0.11007303 -0.42990334 0.74880783 0 0 0
-0.10991299 -0.41027166 0.75252202 0 0 0
-0.11027939 -0.39060993 0.75776363 28 27 31
-0.10805544 -0.37439624 0.75963386 33 32 35
-0.11221666 -0.36540234 0.76029260 33 32 34
-0.10948292 -0.35016365 0.76076256 33 33 36
-0.10954574 -0.32997240 0.76119977 42 41 49
-0.10959171 -0.30970955 0.76151946 162 162 164
-0.10965158 -0.29012432 0.76193553 177 177 179
-0.10981689 -0.26999709 0.76238837 179 178 180
-0.10966314 -0.24970097 0.76273856 180 179 182
-0.10980044 -0.22985716 0.76296992 180 180 182
-0.10982499 -0.21012324 0.76314072 180 180 183
-0.10985167 -0.19038399 0.76332606 180 180 183
-0.10988534 -0.16998594 0.76355999 179 179 182
-0.10993162 -0.14959265 0.76388141 179 178 181
-0.10997481 -0.12983928 0.76418144 179 178 181
-0.11000892 -0.11006094 0.76441830 160 160 163
-0.11005245 -0.09027791 0.76472109 34 32 39
-0.11010454 -0.07048500 0.76508288 30 28 33
-0.11015683 -0.05001159 0.76544582 27 25 31
-0.11020827 -0.02951877 0.76580278 26 25 30
-0.11025594 -0.00966853 0.76613391 26 24 30
-0.11030328 0.01019872 0.76646301 25 24 30
-0.11034263 0.03008097 0.76673642 25 23 29
-0.11038230 0.04997758 0.76701194 25 24 29
-0.11042325 0.06988916 0.76729614 26 24 31
-0.11044481 0.08979930 0.76744602 31 30 36
-0.11044619 0.10969780 0.76745568 161 160 165
-0.11046895 0.12962199 0.76761333 177 177 181
-0.11049613 0.14955998 0.76780151 179 178 182
-0.11051630 0.16949695 0.76794125 180 180 184
-0.11049612 0.18948982 0.76808673 181 181 185
-0.11050245 0.20959392 0.76829238 182 182 186
-0.11053842 0.22978316 0.76845961 184 184 186
-0.11060763 0.24977043 0.76865894 186 185 187
-0.11005388 0.26969580 0.76899174 186 186 188
-0.10936465 0.28981439 0.76917534 188 187 189
-0.11027276 0.31018313 0.76882643 149 147 147
-0.10960188 0.33462482 0.75370815 0 0 0
-0.11058064 0.32587114 0.76550577 176 174 167
-0.11003889 0.35008159 0.74528203 0 0 0
-0.10999573 0.37043540 0.73582419 0 0 0
-0.10974335 0.36047045 0.74034952 0 0 0
-0.10995798 0.38977475 0.72696107 0 0 0
-0.11034748 0.40739189 0.71926682 0 0 0
-0.10990840 0.40284866 0.72113991 0 0 0
-0.09009245 -0.50046193 0.74185880 0 0 0
-0.09018393 -0.49005639 0.74261181 0 0 0
-0.08981102 -0.46983920 0.74424930 0 0 0
-0.08998291 -0.44990188 0.74626711 0 0 0
-0.09000731 -0.43012695 0.74859842 0 0 0
-0.09006052 -0.40997463 0.75230311 0 0 0
-0.08998621 -0.39036770 0.75714371 30 29 32
-0.08947119 -0.36993076 0.75926035 33 33 36
-0.09843172 -0.36078438 0.76005028 34 33 36
-0.08514795 -0.35418340 0.75983078 33 33 35
-0.09194960 -0.34770406 0.76025154 33 33 36
-0.08986718 -0.33018927 0.76060784 41 40 46
-0.08966068 -0.30997585 0.76096866 162 161 163
-0.08983303 -0.28991675 0.76139024 176 177 178
-0.08988117 -0.27032140 0.76179763 178 178 180
-0.08992445 -0.25003291 0.76216431 179 179 181
-0.08995453 -0.22969137 0.76241979 180 180 182
-0.08997781 -0.20997913 0.76261745 180 180 182
-0.08999978 -0.19025369 0.76280359 180 179 182
-0.09018443 -0.17016401 0.76302499 179 178 180
-0.08990176 -0.14980150 0.76332198 178 178 181
-0.09009679 -0.12974482 0.76362553 179 177 180
-0.09012637 -0.10998291 0.76387649 161 160 163
-0.09016352 -0.09021547 0.76419224 34 32 39
-0.09020319 -0.07043387 0.76452741 31 29 35
-0.09024059 -0.04997236 0.76484326 29 27 32
-0.09027659 -0.02949354 0.76514725 28 27 31
-0.09031507 -0.00966022 0.76547304 27 26 31
-0.09035420 0.01019002 0.76580455 27 25 32
-0.09038809 0.03005572 0.76609215 26 24 29
-0.09042001 0.04993523 0.76636284 26 24 30
-0.09045250 0.06982924 0.76663839 27 25 31
-0.09047092 0.08972316 0.76679485 31 29 36
-0.09047119 0.10960364 0.76679703 158 157 161
-0.09048768 0.12950759 0.76693629 177 177 180
-0.09037779 0.14960527 0.76708367 179 178 181
-0.09054107 0.17003778 0.76719485 179 179 182
-0.09064138 0.19044769 0.76734976 181 181 184
-0.09055850 0.21053262 0.76753437 182 182 185
-0.09057957 0.23048552 0.76771326 183 183 186
-0.09060101 0.25044893 0.76789482 184 184 186
-0.09064048 0.27047521 0.76822881 185 185 188
-0.09004003 0.29040094 0.76836916 186 186 187
-0.09059174 0.31032553 0.76816976 144 140 143
