ply
format ascii 1.0
element vertex 1067
property float x
property float y
property float z
property uchar red
property uchar green
property uchar blue
end_header
0.37011967 0.01009024 0.93241225 160 158 162
0.36994252 0.02986325 0.93059906 166 165 168
0.37009146 0.05028210 0.92895076 158 157 159
0.36986609 0.07004365 0.92741897 157 155 157
0.36999328 0.08987404 0.92591104 166 162 163
0.37017880 0.10987494 0.92448404 160 157 158
0.36975404 0.13035225 0.92313678 148 147 149
0.37005887 0.15009732 0.92190832 156 155 157
0.37022141 0.16994746 0.92076109 156 154 156
0.37053243 0.19204130 0.91955829 151 151 152
0.36736566 0.18235870 0.92011859 153 153 155
0.36973632 0.20976660 0.91866178 155 155 156
0.36995309 0.22951217 0.91769311 148 145 147
0.37034780 0.24986353 0.91670729 149 148 150
0.36995989 0.27017818 0.91574708 153 149 151
0.36963990 0.29040226 0.91481528 158 155 155
0.37002388 0.30993048 0.91395012 160 159 160
0.37031942 0.32953189 0.91315384 162 162 163
0.37019744 0.34963062 0.91243128 154 154 155
0.36993322 0.36986853 0.91178016 157 156 158
0.36974815 0.39016090 0.91132419 43 43 43
0.36958588 0.41045750 0.91092424 0 0 0
0.36960332 0.42980429 0.91051076 0 0 0
0.37001907 0.44938858 0.91005299 0 0 0
0.37038326 0.46965983 0.90943509 0 0 0
0.37029858 0.48961484 0.90880882 0 0 0
0.37006157 0.50813938 0.90822710 0 0 0
0.39010844 -0.68117534 1.01103427 0 0 0
0.38982939 -0.66963758 1.01177748 0 0 0
0.39022105 -0.64974010 1.01400291 0 0 0
0.38942971 -0.63273885 1.01767501 0 0 0
0.39087838 -0.62283851 1.02113798 0 0 0
0.39220893 -0.62267506 1.05348774 145 152 152
0.39063329 -0.62671337 1.07784006 169 170 170
0.38413452 -0.62977613 1.08023504 165 165 165
0.38955214 -0.61499698 1.02515370 3 3 3
0.38449933 -0.61649464 1.04404020 123 132 131
0.38998908 -0.60981061 1.07465147 168 169 168
0.39001447 -0.58970369 1.06850520 172 172 173
0.39028472 -0.56290745 1.05884502 173 174 175
0.38940829 -0.57257982 1.06249141 172 173 173
0.39015213 -0.55008527 1.05410723 173 174 174
0.39001898 -0.53016374 1.04684939 176 177 178
0.39042491 -0.50580829 1.03788767 174 175 175
0.38923071 -0.51578146 1.04167585 175 176 175
0.39023067 -0.48970845 1.03200076 176 177 178
0.38994631 -0.47002844 1.02493209 176 176 178
0.39057093 -0.44794006 1.01684492 178 178 180
0.38807569 -0.45818763 1.02078272 177 177 177
0.38967675 -0.42968707 1.01041220 177 178 178
0.38996659 -0.41002387 1.00370388 176 176 178
0.39019937 -0.38941260 0.99677497 171 171 174
0.38823766 -0.39929602 1.00021390 175 175 176
0.39018983 -0.36977637 0.99033345 172 172 173
0.38993653 -0.34950691 0.98492772 174 174 176
0.39815169 -0.32599243 0.97993776 138 125 125
0.38970313 -0.32963138 0.98107539 152 143 141
0.39003785 -0.31028643 0.98208249 110 85 77
0.38995491 -0.29032416 0.98469728 108 80 71
0.39003901 -0.26988095 0.98732116 107 78 71
0.39002538 -0.24964499 0.99067719 110 82 71
0.39004606 -0.22999861 0.99454889 112 84 72
0.39087041 -0.21090599 0.99798568 112 82 71
0.38425278 -0.20238552 1.00049292 115 83 70
0.39750296 -0.18447113 0.97104171 150 136 129
0.39755682 -0.19101640 0.99549491 125 102 93
0.38863484 -0.18954147 1.00221945 115 88 75
0.39340797 -0.16716685 0.95501113 168 166 165
0.39012402 -0.17221832 0.96713375 150 138 135
0.39272380 -0.17191751 0.99166784 144 127 122
0.38724792 -0.17089062 1.00573166 120 92 82
0.38950078 -0.14978288 0.95217891 171 170 172
0.38135215 -0.15846530 0.96883057 142 132 128
0.38399213 -0.15583169 0.98928465 147 129 123
0.38329696 -0.15324399 1.00891776 126 100 91
0.38986735 -0.12991410 0.94871927 172 172 175
0.39013158 -0.10970383 0.94561032 172 171 171
0.39018806 -0.08943228 0.94277544 168 167 168
0.39232684 -0.06432126 0.93944321 167 167 170
0.38837099 -0.07307955 0.94081116 169 167 168
0.39005711 -0.04979232 0.93788158 164 164 166
0.38988641 -0.03058833 0.93575148 161 160 162
0.39003131 -0.01011552 0.93361985 159 156 156
0.38997091 0.00986837 0.93175230 160 159 163
0.39008587 0.03015988 0.93004012 159 157 159
0.38994500 0.04987318 0.92851103 147 147 150
0.39009512 0.07021655 0.92695810 157 155 157
0.38989661 0.08989497 0.92550055 159 156 158
0.38998534 0.10961612 0.92412729 163 162 163
0.39016215 0.13044254 0.92275549 158 156 158
0.38983594 0.15004315 0.92157521 156 154 155
0.39380491 0.17845075 0.91993077 155 154 159
0.38956809 0.16867739 0.92052352 157 156 159
0.39019297 0.19039459 0.91934990 152 149 152
0.39006226 0.20983721 0.91835759 153 151 151
0.38965648 0.22943942 0.91740225 151 147 147
0.39002710 0.24978252 0.91641009 158 159 160
0.39029355 0.27019320 0.91544465 158 159 163
0.39001457 0.29036617 0.91452376 152 152 154
0.38969748 0.31056101 0.91364801 153 153 154
0.38989139 0.32990096 0.91287582 152 151 152
0.39023579 0.34973058 0.91216214 157 157 158
0.39029812 0.36975256 0.91149447 140 140 143
0.39008478 0.39002051 0.91099641 52 52 53
0.38991352 0.41030986 0.91059647 0 0 0
0.38974202 0.43058100 0.91019588 0 0 0
0.38955893 0.45003435 0.90976820 0 0 0
0.38990790 0.46924721 0.90919816 0 0 0
0.39026914 0.48968810 0.90856924 0 0 0
0.39037106 0.50801201 0.90799943 0 0 0
0.41046002 -0.68159900 1.01166313 0 0 0
0.41005797 -0.66982389 1.01248499 0 0 0
0.41015400 -0.64975535 1.01507891 0 0 0
0.40874831 -0.63505115 1.01831940 0 0 0
0.41073305 -0.62541371 1.02219716 1 1 1
0.41077971 -0.62655193 1.05172578 136 139 138
0.41007034 -0.62953241 1.07723714 167 170 169
0.40868967 -0.61777110 1.02586096 5 5 5
0.41007101 -0.61002799 1.07362243 173 174 174
0.41008675 -0.59018145 1.06722659 174 175 175
0.41088582 -0.56533799 1.05787262 174 175 175
0.40932902 -0.57547481 1.06187431 172 174 174
0.40993877 -0.54977972 1.05221676 176 177 178
0.40999083 -0.52980800 1.04493657 174 176 177
0.41069849 -0.50821142 1.03693777 176 176 177
0.40678833 -0.51763824 1.04079962 177 178 178
0.40994202 -0.49019938 1.03033856 177 177 177
0.41456370 -0.46104786 1.01941296 175 177 177
0.40947527 -0.47085789 1.02342603 176 177 179
0.41005243 -0.44987528 1.01583346 176 177 178
0.41007221 -0.43029686 1.00900903 176 177 179
0.41337841 -0.40204449 0.99943561 177 178 179
0.40955333 -0.41156568 1.00284218 175 176 177
0.41004250 -0.39037204 0.99580040 172 173 175
0.40994863 -0.36981513 0.98915331 171 172 174
0.40971599 -0.34970516 0.98394355 173 173 174
0.41130715 -0.32592749 0.97941158 132 116 113
0.40871579 -0.33512376 0.98101754 161 158 156
0.41519393 -0.31746008 0.97974176 117 92 84
0.40937135 -0.30886546 0.98117547 112 86 77
0.40999105 -0.29028020 0.98328798 109 81 72
0.40990772 -0.27047615 0.98563362 110 82 73
0.41013319 -0.24994241 0.98878921 110 83 73
0.41838078 -0.22374012 0.97708066 151 139 133
0.41012380 -0.22988338 0.99105880 115 88 77
0.41788982 -0.20270109 0.95694065 167 168 169
0.41306256 -0.20853672 0.97313466 143 129 124
0.40588037 -0.21109772 0.99267633 118 93 82
0.41198857 -0.18799520 0.95470153 170 169 169
0.40533105 -0.19317082 0.96938431 139 127 125
0.40195733 -0.19511491 0.99367482 129 105 97
0.41001211 -0.17027969 0.95180624 170 169 172
0.40993093 -0.15067046 0.94923818 168 167 172
0.41004094 -0.13044266 0.94644537 170 170 173
0.41002038 -0.11055433 0.94389421 166 164 166
0.41679398 -0.08063118 0.93985981 171 166 169
0.40965777 -0.09055239 0.94148516 166 164 167
0.41064335 -0.06864962 0.93887880 167 166 168
0.40372795 -0.07712113 0.94022990 166 166 168
0.40986239 -0.05003109 0.93688921 163 161 163
0.40999941 -0.03038422 0.93486497 160 159 161
0.40996588 -0.01016562 0.93294947 131 129 135
0.41000781 0.00997317 0.93121305 154 154 156
0.40997508 0.02992837 0.92961415 158 157 158
0.41009284 0.05014492 0.92804690 156 155 157
0.40991225 0.06977218 0.92655548 153 151 152
0.41012271 0.09004623 0.92508234 162 161 162
0.40991453 0.10968242 0.92374810 165 165 168
0.40993463 0.13010311 0.92243754 162 160 162
0.41021212 0.15013118 0.92125248 156 154 155
0.41106868 0.17629643 0.91981118 154 153 154
0.40933786 0.16633760 0.92036714 154 152 154
0.40991574 0.18995243 0.91910336 155 154 156
0.41014181 0.21076238 0.91803557 154 152 154
0.41012855 0.23015311 0.91708586 156 155 156
0.40970396 0.24970793 0.91613646 151 151 155
0.40993962 0.26990248 0.91518587 153 153 155
0.41032804 0.29038412 0.91425239 153 152 154
0.41005338 0.31052888 0.91338754 147 146 148
0.40971203 0.32998822 0.91262716 146 147 149
0.40981231 0.34923814 0.91194033 150 151 152
0.41012698 0.36982124 0.91122735 145 146 148
0.41041409 0.38988714 0.91068509 63 63 65
0.41023037 0.41016616 0.91027745 0 0 0
0.41005855 0.43043924 0.90989614 0 0 0
0.41003814 0.45044424 0.90947035 0 0 0
0.40944787 0.46978906 0.90893320 0 0 0
0.40977236 0.48916832 0.90835769 0 0 0
0.41011383 0.50802578 0.90777484 0 0 0
0.42995380 -0.68201044 1.01227375 0 0 0
0.43041156 -0.67009448 1.01335057 0 0 0
0.42989885 -0.65023892 1.01622020 0 0 0
0.43419968 -0.64167173 1.07769978 175 176 176
0.42797880 -0.63768940 1.01916966 0 0 0
0.43010488 -0.62766611 1.02322348 3 3 3
0.42889405 -0.63067180 1.05101864 153 154 154
0.42977080 -0.63050817 1.07705699 172 174 175
0.42328101 -0.61930747 1.02578473 0 0 0
0.43000409 -0.61011125 1.07201100 170 173 173
0.42979845 -0.58980587 1.06512556 175 178 177
0.43031353 -0.56811813 1.05701326 177 178 179
0.42792841 -0.57736733 1.06074805 175 179 179
0.43010815 -0.55020320 1.05042172 175 175 176
0.43689755 -0.52209802 1.03950277 175 178 178
0.42946555 -0.53077218 1.04345592 177 178 179
0.42994332 -0.51007885 1.03573360 177 178 178
0.43029581 -0.48976643 1.02818526 178 179 179
0.43132717 -0.46373168 1.01876426 175 176 177
0.42930316 -0.47310497 1.02230718 177 177 178
0.43016032 -0.44995141 1.01396499 174 175 176
0.42996444 -0.42956748 1.00698730 176 176 177
0.43138206 -0.40401102 0.99860664 175 176 177
0.42902519 -0.41361720 1.00188148 177 177 179
0.42998054 -0.38972277 0.99414532 175 175 176
0.42981000 -0.37012558 0.98811585 174 175 177
0.43003679 -0.35044475 0.98303950 175 175 175
0.43031612 -0.32752190 0.97849719 132 117 111
0.42845649 -0.33818558 0.98054703 167 168 164
0.43187289 -0.31314727 0.97929001 111 87 76
0.42792078 -0.30441215 0.98058976 110 85 73
0.42978865 -0.28987828 0.98192482 108 79 72
0.43824414 -0.26460835 0.97850042 148 136 130
0.42957773 -0.27023590 0.98375138 110 85 78
0.43425400 -0.24805362 0.97769581 138 127 121
0.42618955 -0.25156591 0.98534497 121 96 89
0.43589822 -0.22476793 0.95795262 170 171 170
0.42973825 -0.23045542 0.97374129 132 121 120
0.42223964 -0.23565026 0.98505209 135 112 102
0.43045048 -0.20905229 0.95588016 170 169 171
0.42309198 -0.21540360 0.97042401 131 121 120
0.43011363 -0.19034255 0.95283606 174 174 174
0.42998159 -0.17058614 0.95018129 164 164 166
0.43001444 -0.15017219 0.94748829 163 162 165
0.43000272 -0.13030248 0.94493724 170 169 172
0.42993878 -0.11063850 0.94259690 169 168 171
0.43147621 -0.08405973 0.93951220 172 170 172
0.42876960 -0.09383498 0.94074224 170 169 172
0.43008677 -0.06959193 0.93806553 166 164 166
0.42994159 -0.04983824 0.93606694 169 168 170
0.43009718 -0.03021363 0.93418120 160 160 162
0.42992502 -0.01021689 0.93239615 138 137 143
0.43004570 0.01007817 0.93072716 153 152 155
0.42997764 0.03002535 0.92915145 164 163 164
0.42992828 0.04990795 0.92762083 162 161 162
0.43010892 0.07000132 0.92609953 164 161 162
0.42990891 0.08962744 0.92472003 162 160 162
0.43014174 0.10984316 0.92336997 160 159 161
0.42990434 0.13020663 0.92210433 158 156 158
0.42996525 0.14980021 0.92098066 155 153 154
0.43106420 0.17377785 0.91966659 158 156 157
0.42880888 0.16383400 0.92022614 161 161 160
0.42996146 0.19009125 0.91882026 154 152 153
0.42983248 0.21029739 0.91779607 154 151 151
0.43009402 0.23025654 0.91681554 150 149 150
0.43016405 0.24963537 0.91587030 151 150 152
0.42972014 0.26993575 0.91492513 147 147 148
0.42995523 0.29009641 0.91402058 153 152 153
0.43029055 0.31058861 0.91314364 148 148 149
0.43025491 0.33009560 0.91238936 145 145 147
0.42964291 0.34952462 0.91170873 142 141 142
0.42968651 0.36938547 0.91101330 146 145 147
0.42996422 0.38977320 0.91041913 83 84 86
0.43043345 0.41013889 0.90998704 0 0 0
0.43036922 0.43030500 0.90961237 0 0 0
0.43017210 0.45053683 0.90919572 0 0 0
0.43009238 0.47046253 0.90866508 0 0 0
0.42948831 0.48977564 0.90812365 0 0 0
0.42960973 0.50764327 0.90758070 0 0 0
0.45044109 -0.68197704 1.01316545 0 0 0
0.44994517 -0.66972015 1.01435890 0 0 0
0.44971398 -0.64996966 1.01748186 0 0 0
0.45688773 -0.64099639 1.02032761 0 0 0
0.45629811 -0.64095124 1.05709487 147 152 153
0.44888281 -0.64313123 1.07612552 175 177 178
0.45330275 -0.64569302 1.08086608 173 175 176
0.44110572 -0.63864391 1.01985639 0 0 0
0.44958369 -0.63231993 1.02339541 1 1 1
0.44836816 -0.63402238 1.04717638 134 137 136
0.44987327 -0.62972078 1.07633122 175 177 178
0.44997144 -0.61023719 1.07021274 177 178 179
0.45546234 -0.58161889 1.05940141 173 177 177
0.44975986 -0.59101696 1.06343027 175 177 177
0.44992048 -0.56968316 1.05546268 178 178 178
0.44115643 -0.57962687 1.06022382 166 168 169
0.45009958 -0.54957310 1.04815439 177 177 178
0.45187134 -0.52348942 1.03852637 172 174 175
0.44909972 -0.53315730 1.04238788 174 176 176
0.44999054 -0.50972774 1.03355459 178 179 179
0.45002025 -0.49005980 1.02631495 175 177 177
0.45096781 -0.46615571 1.01765902 176 176 176
0.44864681 -0.47620672 1.02143268 175 175 176
0.44977843 -0.44983245 1.01199450 176 176 176
0.45008724 -0.43033119 1.00532705 176 176 177
0.45072314 -0.40708750 0.99789067 176 176 178
0.44845763 -0.41680472 1.00113725 176 176 178
0.45005138 -0.38986011 0.99264241 175 175 176
0.44997381 -0.36986130 0.98677730 169 171 172
0.45635388 -0.34130966 0.97974349 164 167 169
0.44958861 -0.35067675 0.98204013 169 170 171
0.45042076 -0.32971513 0.97766065 140 134 132
0.44173966 -0.33934866 0.98019361 163 163 164
0.45051244 -0.31026579 0.97751160 123 109 105
0.44088206 -0.30037520 0.98017013 100 74 70
0.45277576 -0.28984596 0.97702221 132 120 116
0.44247615 -0.29015367 0.98066470 99 78 74
0.45088263 -0.26958359 0.97522080 131 120 118
0.44059904 -0.27646014 0.98067164 108 94 86
0.45427494 -0.24398697 0.95919287 167 167 168
0.44857827 -0.25160652 0.97021125 132 122 122
0.45025347 -0.22955706 0.95709380 171 170 171
0.44141358 -0.23820892 0.96580012 123 119 119
0.45002712 -0.21009996 0.95420351 172 172 174
0.44994520 -0.19028670 0.95140138 166 165 167
0.45010793 -0.17001744 0.94870210 166 165 168
0.44990968 -0.15025281 0.94618410 169 169 171
0.45000151 -0.13032857 0.94380870 166 166 170
0.45002361 -0.11015224 0.94152112 167 167 169
0.45086586 -0.08879975 0.93917997 164 165 168
0.44642283 -0.09771108 0.94031609 165 165 166
0.45002798 -0.07021627 0.93734513 165 164 166
0.45004679 -0.04965277 0.93537376 165 164 166
0.44999159 -0.03048622 0.93363221 159 159 162
0.45007778 -0.00995343 0.93185852 146 144 149
0.44990834 0.00985867 0.93025575 160 157 160
0.45007535 0.03019006 0.92866090 158 157 160
0.44988599 0.04999271 0.92715406 165 165 167
0.45003254 0.06996214 0.92567260 166 165 167
0.45009824 0.08977842 0.92429889 161 161 164
0.44989232 0.10939004 0.92302667 162 161 163
0.45016422 0.13035251 0.92176103 152 149 150
0.44992262 0.14989589 0.92067002 145 142 144
0.45056590 0.17079729 0.91954056 155 153 153
0.44599962 0.16140075 0.92009926 158 157 155
0.45017764 0.19022636 0.91853748 155 152 154
0.44996744 0.21043769 0.91751652 155 154 155
0.44975491 0.22985769 0.91657319 154 153 154
0.45014344 0.24976115 0.91561052 155 154 153
0.45015489 0.26986193 0.91467494 148 148 149
0.44971652 0.29013140 0.91378419 145 145 146
0.44989554 0.31022720 0.91293803 153 151 150
0.45032120 0.33074874 0.91215671 150 150 150
0.45015828 0.35005420 0.91148055 150 150 151
0.44982805 0.36947555 0.91081185 141 140 142
0.44952727 0.38968054 0.91020287 90 91 92
0.44996863 0.40982643 0.90976654 0 0 0
0.45003584 0.43030422 0.90937950 0 0 0
0.45048495 0.45042054 0.90896095 0 0 0
0.45023190 0.47057973 0.90845029 0 0 0
0.45001531 0.49063861 0.90790015 0 0 0
0.44962546 0.50837914 0.90737154 0 0 0
0.46983170 -0.68232647 1.01396915 0 0 0
0.47009721 -0.66988572 1.01550320 0 0 0
0.46878242 -0.65286790 1.01830347 0 0 0
0.47271400 -0.64363094 1.02087584 0 0 0
0.47268709 -0.64282462 1.05208790 140 149 148
0.47067516 -0.64531266 1.07723188 174 178 178
0.47065778 -0.64947719 1.08114332 174 176 176
0.46903803 -0.63554017 1.02474399 4 5 5
0.46361275 -0.63832553 1.04680043 106 109 111
0.47035266 -0.62961138 1.07476411 176 177 177
0.46986564 -0.60984570 1.06810842 176 177 178
0.47095482 -0.58393776 1.05851956 179 181 180
0.46923787 -0.59331464 1.06219549 176 178 178
0.47031477 -0.57017312 1.05339580 177 178 179
0.47000915 -0.55037595 1.04630497 176 178 179
0.47101393 -0.52660968 1.03768763 176 177 178
0.46871360 -0.53629259 1.04147915 176 177 177
0.46977671 -0.51015513 1.03166273 177 178 179
0.47725909 -0.48001474 1.01989329 179 179 180
0.47020815 -0.48986909 1.02418145 177 177 178
0.47064171 -0.46931652 1.01680611 175 175 175
0.46389290 -0.47811663 1.02054480 175 176 176
0.46990028 -0.45012321 1.01015054 176 176 176
0.47727600 -0.42036926 0.99962306 179 179 179
0.46967123 -0.43007419 1.00343424 177 177 178
0.47037257 -0.40943020 0.99686855 177 177 178
0.46326574 -0.41859422 1.00033567 178 179 180
0.47010298 -0.39029293 0.99109057 177 177 178
0.46992733 -0.37007526 0.98536369 176 177 178
0.47184808 -0.34384086 0.97894815 166 164 164
0.46887686 -0.35339062 0.98131049 164 164 164
0.47003895 -0.32950456 0.97561870 154 151 152
0.47029059 -0.30971987 0.97308541 149 145 146
0.47012476 -0.28983920 0.97042500 150 144 144
0.46968350 -0.27041825 0.96389307 165 164 164
0.47072320 -0.24800558 0.95851168 173 174 176
0.46658328 -0.25774282 0.96062244 167 167 167
0.46988212 -0.22987938 0.95578447 169 169 169
0.47007384 -0.21031629 0.95289127 171 172 174
0.46999793 -0.19021753 0.95013825 168 168 171
0.47001087 -0.17020745 0.94756956 169 169 171
0.46996321 -0.14991694 0.94509937 168 167 169
0.47004772 -0.12985229 0.94278715 167 167 169
0.47328539 -0.10275640 0.93975906 160 159 160
0.46923958 -0.11198201 0.94087652 164 162 164
0.46999463 -0.09047633 0.93863467 165 165 170
0.47006447 -0.06995258 0.93663562 167 167 168
0.46994251 -0.04991296 0.93479890 163 163 165
0.47004314 -0.03013618 0.93307258 163 163 164
0.46995237 -0.01034487 0.93140696 161 159 160
0.47011065 0.01014390 0.92975098 163 159 159
0.46989489 0.02982072 0.92823221 159 159 161
0.47009635 0.05015963 0.92668563 161 160 162
0.46987723 0.06977629 0.92527036 166 166 167
0.47007621 0.08988618 0.92389851 162 163 165
0.47002590 0.10955200 0.92264816 163 163 164
0.46989577 0.12991797 0.92146068 155 155 156
0.47383998 0.15718100 0.91989702 146 138 139
0.46947337 0.14859867 0.92043177 154 152 153
0.46991644 0.16953695 0.91931403 152 147 146
0.46985557 0.18978008 0.91826934 154 150 150
0.47020319 0.21054374 0.91722470 154 152 153
0.46995765 0.22995495 0.91629616 149 149 152
0.46977888 0.24930977 0.91538342 157 157 157
0.47016959 0.26999358 0.91442678 151 150 151
0.47012748 0.29005660 0.91354852 149 149 151
0.46969837 0.31030015 0.91271463 153 153 153
0.46990728 0.33038799 0.91196473 148 148 149
0.47028688 0.35014329 0.91128082 143 143 143
0.47019966 0.36940187 0.91063013 139 139 140
0.46988088 0.38959914 0.91001281 107 108 109
0.46965726 0.40985168 0.90957964 0 0 0
0.46956894 0.43000164 0.90919000 0 0 0
0.47002511 0.45032641 0.90877095 0 0 0
0.47038138 0.47062893 0.90827135 0 0 0
0.47027211 0.49060366 0.90773178 0 0 0
0.46999864 0.50835109 0.90720394 0 0 0
0.49089160 -0.68284085 1.01517036 0 0 0
0.48979397 -0.67001023 1.01686761 0 0 0
0.48749178 -0.65650586 1.01926369 0 0 0
0.49116877 -0.64699947 1.02296747 2 2 2
0.49067759 -0.64633547 1.04909623 137 142 141
0.49174889 -0.64939640 1.07736501 174 177 177
0.48520395 -0.65313322 1.08040602 174 178 176
0.48680268 -0.63811072 1.02604223 3 3 4
0.48971525 -0.62995288 1.07305585 177 179 179
0.49036023 -0.61027557 1.06621246 177 179 179
0.49051563 -0.58659029 1.05741801 178 180 180
0.48856251 -0.59665713 1.06146626 178 180 180
0.48998092 -0.56985625 1.05108752 175 177 177
0.49919333 -0.54154465 1.03988004 177 178 175
0.48999351 -0.55003732 1.04391405 175 176 176
0.49039523 -0.52930415 1.03652418 176 177 177
0.48577359 -0.53841639 1.04028511 175 175 175
0.49024532 -0.50968934 1.02932610 176 177 178
0.49367963 -0.48243978 1.01922271 172 172 173
0.48929192 -0.49148226 1.02285993 175 176 176
0.49012970 -0.46990352 1.01516408 174 174 175
0.48970366 -0.44972577 1.00819058 176 177 177
0.49116092 -0.42287491 0.99920770 175 175 176
0.48963636 -0.43245420 1.00240602 177 178 178
0.48996374 -0.41004882 0.99531943 175 176 177
0.49040425 -0.38982756 0.98910796 174 175 177
0.49924002 -0.36129922 0.97999328 175 175 175
0.48981015 -0.36999707 0.98348916 173 174 174
0.49095384 -0.34884860 0.97776778 172 171 170
0.48603630 -0.35738212 0.98053169 170 169 169
0.48991516 -0.33022557 0.97325728 168 169 171
0.48979828 -0.31015621 0.96946414 169 169 171
0.48999005 -0.28995256 0.96532285 169 169 170
0.49322903 -0.26249209 0.95959999 168 168 170
0.48932901 -0.27151863 0.96148614 171 172 173
0.49004419 -0.24984486 0.95778146 167 168 169
0.49000352 -0.23004536 0.95468462 172 172 174
0.49002613 -0.21037569 0.95183784 171 171 173
0.48999619 -0.18993274 0.94909964 168 168 169
0.48998257 -0.16962949 0.94653841 170 171 173
0.48998973 -0.14982534 0.94421892 169 168 169
0.48998807 -0.13012691 0.94202336 171 171 174
0.49119472 -0.10595977 0.93944398 169 168 168
0.48844946 -0.11520126 0.94047717 171 171 173
0.49005142 -0.09041836 0.93795084 166 165 167
0.48996975 -0.07020723 0.93604732 161 161 162
0.49004464 -0.04954373 0.93418040 162 162 163
0.48989301 -0.03049511 0.93254340 167 166 168
0.49005835 -0.00996683 0.93084930 162 160 162
0.48992457 0.00976409 0.92929123 155 153 154
0.49008715 0.03012496 0.92774512 157 157 161
0.48987935 0.04975434 0.92629557 161 161 164
0.49009765 0.07002436 0.92485073 158 158 160
0.48993593 0.08969995 0.92354387 165 165 165
0.49005592 0.10983769 0.92228504 158 158 160
0.48994336 0.13006748 0.92111785 157 156 157
0.49110148 0.15473548 0.91976221 148 142 144
0.48892221 0.14550974 0.92029157 150 150 154
0.49022924 0.16962127 0.91899289 153 151 151
0.48985247 0.18991416 0.91796387 155 154 156
0.48986176 0.21013609 0.91697888 154 153 153
0.49028011 0.22999085 0.91602941 147 147 147
0.48991902 0.24943213 0.91512434 154 154 155
0.48978160 0.26952293 0.91421586 155 155 156
0.49024338 0.29017686 0.91332097 143 142 144
0.49009273 0.31022814 0.91250267 142 142 143
0.48969194 0.33046120 0.91175644 154 154 155
0.49002871 0.35007029 0.91108051 148 144 145
0.49010828 0.36981602 0.91043102 143 142 143
0.49023089 0.38952166 0.90983177 124 125 126
0.49000099 0.40977306 0.90940512 0 0 0
0.48978805 0.43001995 0.90900987 0 0 0
0.48957185 0.45024598 0.90860860 0 0 0
0.48990577 0.47026527 0.90812904 0 0 0
0.49029798 0.49071159 0.90757754 0 0 0
0.49029983 0.50826484 0.90705003 0 0 0
0.50975471 -0.68311179 1.01661243 0 0 0
0.50918821 -0.67157200 1.01832174 0 0 0
0.51419784 -0.66272937 1.02057281 0 0 0
0.51311127 -0.66141606 1.07468225 173 177 178
0.50102251 -0.65977522 1.01982307 0 0 0
0.50939319 -0.65066540 1.02404151 2 2 2
0.51054527 -0.65277337 1.05178565 156 162 163
0.50970301 -0.65108935 1.07666938 173 176 176
0.51021781 -0.62980517 1.07118690 177 178 178
0.50981600 -0.60971319 1.06415142 177 178 178
0.51068666 -0.58923956 1.05626731 177 179 179
0.50699718 -0.59875781 1.06043415 176 178 178
0.50992668 -0.56983798 1.04883794 175 178 178
0.51215354 -0.54267466 1.03883062 177 177 178
0.50937172 -0.55240195 1.04256482 177 177 178
0.51001269 -0.52981018 1.03449713 178 179 178
0.51000084 -0.51018676 1.02745315 174 175 174
0.51100333 -0.48445681 1.01831561 172 172 172
0.50884032 -0.49462170 1.02205010 173 173 174
0.51019371 -0.47004029 1.01339796 172 172 174
0.51004919 -0.45020071 1.00650136 173 174 175
0.51099099 -0.42548526 0.99829201 175 174 175
0.50886884 -0.43519316 1.00156896 175 175 176
0.51001455 -0.40999951 0.99353488 176 177 177
0.50977251 -0.39010234 0.98730504 174 175 176
0.51222914 -0.36321084 0.97909773 168 168 170
0.50947596 -0.37272883 0.98209720 170 171 172
0.50994685 -0.34971389 0.97589875 170 170 171
0.50998224 -0.32957963 0.97128297 170 170 171
0.51003913 -0.30983520 0.96733317 169 169 171
0.50997644 -0.29027188 0.96348369 168 168 169
0.51093694 -0.26555812 0.95901162 174 174 175
0.50859703 -0.27574113 0.96087281 172 172 174
0.50998773 -0.24992766 0.95664273 173 173 175
0.51009413 -0.23025556 0.95368056 171 172 173
0.51005045 -0.20991517 0.95079443 171 171 174
0.50998515 -0.18981953 0.94815076 172 172 174
0.50995981 -0.16987525 0.94572174 171 172 172
0.51002781 -0.14974791 0.94343080 165 164 165
0.51947594 -0.12071757 0.93998539 177 177 178
0.50995509 -0.12969531 0.94125284 173 173 174
0.51061505 -0.10913305 0.93911658 164 163 165
0.50496313 -0.11803548 0.94018964 169 168 169
0.51003503 -0.09051345 0.93733385 169 168 170
0.51006296 -0.06980418 0.93541571 165 163 165
0.50990921 -0.04990322 0.93365607 160 159 160
0.51002177 -0.03014740 0.93196745 164 163 164
0.50987835 -0.01031800 0.93036783 161 160 162
0.51008487 0.00994766 0.92880372 160 158 160
0.50995191 0.02987672 0.92733948 159 158 160
0.51008309 0.04992449 0.92588624 160 160 161
0.50986571 0.06964466 0.92451274 162 162 164
0.51016690 0.09046360 0.92314197 158 158 159
0.50987951 0.11007260 0.92193007 160 160 161
0.51015610 0.13021238 0.92076959 156 154 154
0.51069233 0.15235616 0.91956965 153 151 151
0.50736408 0.14287942 0.92012511 149 149 150
0.50976465 0.16989849 0.91867323 154 154 154
0.51025831 0.18990998 0.91766961 154 154 155
0.50977816 0.21025148 0.91670424 154 152 153
0.51007420 0.23025138 0.91575806 151 148 148
0.51015311 0.24989255 0.91485495 151 150 151
0.50983978 0.26965523 0.91397417 154 154 154
0.50983396 0.28972456 0.91312030 150 151 150
0.51029965 0.31029441 0.91227845 155 155 156
0.51005721 0.33038259 0.91153948 154 153 153
0.50968075 0.35060551 0.91086663 140 139 141
0.50984939 0.36986692 0.91025612 148 147 147
0.51028924 0.38963912 0.90965829 137 136 138
0.51034709 0.40970268 0.90924877 0 0 0
0.51012784 0.42994818 0.90885812 0 0 0
0.50990382 0.45017184 0.90845900 0 0 0
0.50963591 0.47033705 0.90798169 0 0 0
0.50980227 0.49025382 0.90744504 0 0 0
0.51029418 0.50832658 0.90689380 0 0 0
0.52921349 -0.68393788 1.01869679 0 0 0
0.53849463 -0.68172007 1.02013008 0 0 0
0.52536995 -0.67568990 1.01933635 0 0 0
0.53171242 -0.66804519 1.02159037 0 0 0
0.53242511 -0.66256258 1.05951476 176 181 186
0.53097418 -0.66440380 1.07519383 173 176 177
0.52890733 -0.65390618 1.02576409 2 2 2
0.52904728 -0.65594257 1.04667134 120 126 128
0.52958351 -0.65042595 1.07519066 174 177 177
0.53018672 -0.63032171 1.06937270 176 179 179
0.53259465 -0.60266870 1.05897954 176 178 180
0.52917883 -0.61233535 1.06299658 175 178 178
0.52992515 -0.58996861 1.05432851 177 178 178
0.53024438 -0.57017279 1.04663644 177 178 177
0.53118101 -0.54635018 1.03794713 176 176 177
0.52841477 -0.55587736 1.04158690 176 176 176
0.52983018 -0.53021318 1.03242128 176 176 175
0.53011440 -0.50990845 1.02527330 172 172 172
0.53085109 -0.48767462 1.01747532 169 169 169
0.52802454 -0.49694336 1.02091308 170 169 169
0.53003028 -0.46988889 1.01143365 171 170 171
0.52974668 -0.44964943 1.00441159 175 177 178
0.53044806 -0.42819790 0.99736691 175 177 178
0.52811731 -0.43784061 1.00062947 176 177 177
0.53019849 -0.40968657 0.99165634 176 177 179
0.52988754 -0.38964462 0.98532732 174 175 176
0.53052453 -0.36645444 0.97819988 167 169 171
0.52834813 -0.37621984 0.98120740 169 170 172
0.53006671 -0.35009295 0.97432186 167 167 168
0.52991551 -0.33009080 0.96991725 167 168 169
0.53025315 -0.30972326 0.96574432 167 168 169
0.53795611 -0.28089498 0.95991528 173 174 179
0.52988659 -0.28995742 0.96194917 173 173 175
0.53050567 -0.26901994 0.95844756 169 169 172
0.52431125 -0.27832263 0.96028674 172 172 177
0.53006172 -0.25003518 0.95563173 167 167 168
0.53003710 -0.23031418 0.95277982 169 169 171
0.53002233 -0.20990362 0.94992199 170 170 173
0.52999233 -0.18956938 0.94728484 170 169 171
0.52996576 -0.16933599 0.94490242 167 167 168
0.53001421 -0.14953587 0.94271025 168 168 169
0.53223654 -0.12220178 0.93976563 163 164 167
0.52943396 -0.13179570 0.94083697 172 172 174
0.52994628 -0.10989416 0.93861333 166 166 167
0.53009732 -0.09017409 0.93671984 171 169 170
0.52994209 -0.07018246 0.93488889 167 166 168
0.53005169 -0.04957443 0.93308695 162 162 163
0.52992522 -0.03036066 0.93147526 158 158 160
0.52995430 -0.01013145 0.92986539 158 157 158
0.53010803 0.01009021 0.92835390 159 158 158
0.52994123 0.02989662 0.92693082 162 162 163
0.53008237 0.05005096 0.92550734 157 157 160
0.52989789 0.06979792 0.92416061 158 158 160
0.53011412 0.09058108 0.92280573 157 158 159
0.53002243 0.11022432 0.92159963 156 155 158
0.53392567 0.13854593 0.91991890 156 155 155
0.52940034 0.12881167 0.92053671 159 158 158
0.53020004 0.15057901 0.91934412 153 153 151
0.52974251 0.17015370 0.91835288 154 152 152
0.53004286 0.18984461 0.91738679 157 157 158
0.53021402 0.21018732 0.91642427 154 152 152
0.52967839 0.23054574 0.91549841 152 152 153
0.53009025 0.25018838 0.91460080 154 154 155
0.53024144 0.26958670 0.91374178 156 156 157
0.52975200 0.28985019 0.91289833 153 154 155
0.52987529 0.30993761 0.91208561 155 154 153
0.53036241 0.33036395 0.91133274 156 153 152
0.53003541 0.35053145 0.91067421 141 139 139
0.52968638 0.36996320 0.91007447 144 142 141
0.52982066 0.38918428 0.90949995 150 150 151
0.53002615 0.40973888 0.90908620 9 9 9
0.53046313 0.42987831 0.90871039 0 0 0
0.53022980 0.45009833 0.90831068 0 0 0
0.52995085 0.47025993 0.90783281 0 0 0
0.52963431 0.49036519 0.90729057 0 0 0
0.52977710 0.50794826 0.90675577 0 0 0
0.54135493 -0.68652615 1.01976094 0 0 0
0.55101453 -0.68462345 1.02137066 0 0 0
0.55013170 -0.66972897 1.02415989 0 0 0
0.55049076 -0.66379492 1.05037485 130 134 134
0.55057596 -0.66744876 1.07569339 174 177 177
0.54810003 -0.65695077 1.02870816 8 8 8
0.54782045 -0.65976185 1.04350114 134 137 137
0.54984491 -0.65020109 1.07386960 178 179 178
0.54975959 -0.62997762 1.06742793 177 178 179
0.55145631 -0.60544560 1.05785725 178 180 181
0.54919268 -0.61498901 1.06191692 178 179 179
0.54970796 -0.58988401 1.05194227 178 180 180
0.55850884 -0.56131850 1.03988564 170 171 173
0.54991572 -0.57006403 1.04425463 178 178 178
0.55037346 -0.54939088 1.03671621 173 174 174
0.54557883 -0.55850677 1.04050717 174 175 176
0.55021796 -0.52981023 1.02994430 171 171 171
0.55635919 -0.50155287 1.01948016 168 167 166
0.54965821 -0.51065917 1.02338209 170 171 170
0.55004852 -0.48962741 1.01612419 171 170 168
0.54267817 -0.49958565 1.02026105 177 177 177
0.55021685 -0.47014568 1.00953606 164 164 164
0.55437487 -0.44161941 0.99948935 171 173 175
0.54951259 -0.45125054 1.00310003 176 178 178
0.55014138 -0.43011893 0.99625571 173 176 178
0.54056947 -0.43956139 1.00004780 179 181 181
0.54991150 -0.41039193 0.99023576 173 174 177
0.54985282 -0.39012511 0.98386358 171 173 175
0.55056823 -0.36938514 0.97736626 166 167 171
0.54537076 -0.37836675 0.98032783 147 149 153
0.54997170 -0.35023001 0.97288972 163 163 166
0.55000252 -0.33032492 0.96865355 167 167 168
0.54971295 -0.31029356 0.96459952 163 163 166
0.55175152 -0.28253695 0.95954284 174 175 177
0.54973187 -0.29256247 0.96133082 159 159 163
0.54980128 -0.26992251 0.95765514 166 167 169
0.55022786 -0.25014725 0.95472220 168 167 170
0.55001636 -0.22993577 0.95182885 170 170 172
0.54998788 -0.20960966 0.94906257 171 172 173
0.55001994 -0.18949696 0.94654069 159 159 161
0.54996289 -0.16960911 0.94424130 168 168 169
0.55000514 -0.14953324 0.94207931 164 163 164
0.55102682 -0.12478868 0.93949399 167 168 168
0.54899237 -0.13434231 0.94052749 167 166 168
0.55002442 -0.10993430 0.93805528 163 163 164
0.54999628 -0.09046841 0.93619159 169 168 169
0.55002172 -0.06975542 0.93431979 167 167 169
0.54997656 -0.04970245 0.93259662 149 147 149
0.54997700 -0.03031529 0.93100659 158 157 158
0.55010794 -0.00992711 0.92942488 153 151 153
0.54991590 0.00979734 0.92797365 156 153 153
0.55011700 0.03014708 0.92652534 161 160 161
0.54985720 0.04974519 0.92517596 159 158 160
0.55010124 0.06997711 0.92380939 161 160 162
0.54985451 0.09025797 0.92251318 157 156 157
0.55015547 0.11037683 0.92127744 155 154 154
0.55089731 0.13623891 0.91977615 152 152 153
0.54926463 0.12627548 0.92036559 160 159 160
0.54999813 0.15042538 0.91904546 151 149 149
0.55019596 0.17009760 0.91805014 147 146 146
0.54974941 0.18963424 0.91711503 150 148 148
0.55016320 0.21031904 0.91614105 147 145 146
0.55009762 0.23048231 0.91524633 152 152 153
0.54970306 0.24991852 0.91438495 152 152 154
0.55016756 0.26971706 0.91351884 149 148 149
0.55013465 0.28978191 0.91268319 149 149 151
0.54965430 0.31001860 0.91188625 152 150 150
0.54999059 0.33023699 0.91113782 151 148 147
0.55037073 0.35045057 0.91046413 151 150 149
0.55014279 0.37048844 0.90985205 148 148 149
0.54951539 0.38988483 0.90929449 153 153 152
0.54954476 0.40944710 0.90891099 27 27 27
0.54999199 0.42979702 0.90853854 0 0 0
0.55047829 0.45006888 0.90813809 0 0 0
0.55025211 0.47017688 0.90767245 0 0 0
0.54992688 0.49028164 0.90713595 0 0 0
0.54960570 0.50801610 0.90660612 0 0 0
0.57026439 -0.68559511 1.02416465 0 0 0
0.57412743 -0.68137894 1.07798426 174 174 176
0.57764874 -0.68138325 1.08015680 175 177 177
0.56958159 -0.67077284 1.02772780 1 1 1
0.57019570 -0.66815082 1.04818219 140 141 140
0.57013429 -0.67012944 1.07712206 175 177 177
0.56164415 -0.65950113 1.03134143 24 24 24
0.56959489 -0.64970470 1.07241770 176 178 179
0.57022768 -0.62975421 1.06521275 176 178 179
0.57074558 -0.60831216 1.05668277 178 178 179
0.56628065 -0.61747604 1.06098674 175 176 176
0.57005737 -0.58997745 1.04940513 175 176 177
0.57141273 -0.56290989 1.03884123 174 176 176
0.56911004 -0.57248160 1.04276387 177 179 180
0.57006629 -0.54979494 1.03436537 171 171 170
0.57017228 -0.52998642 1.02756264 173 172 172
0.57131042 -0.50410557 1.01870158 168 168 168
0.56883114 -0.51371695 1.02222890 167 167 167
0.57025366 -0.49002235 1.01410532 170 170 168
0.56995170 -0.46980258 1.00739293 174 174 175
0.57081179 -0.44368828 0.99871587 176 177 179
0.56911661 -0.45343690 1.00200239 174 174 177
0.57011660 -0.42958494 0.99445482 174 176 178
0.57004377 -0.40979288 0.98854041 172 173 175
0.57377148 -0.38215740 0.97945723 167 168 172
0.56951434 -0.39139396 0.98280534 173 175 177
0.57000903 -0.37009610 0.97633339 164 167 170
0.57004519 -0.34983944 0.97156616 162 163 167
0.56991298 -0.32996231 0.96744610 169 170 171
0.56998982 -0.31028847 0.96358661 167 168 171
0.57087485 -0.28513654 0.95908060 173 173 174
0.56913371 -0.29529959 0.96089318 162 161 166
0.56999673 -0.27002188 0.95673233 168 168 171
0.56992842 -0.25024332 0.95383966 165 165 167
0.56997918 -0.22981695 0.95095207 168 168 171
0.57000941 -0.20951048 0.94826912 168 170 171
0.57003616 -0.18927399 0.94580995 168 168 168
0.56996547 -0.16908957 0.94352832 170 170 171
0.57004929 -0.14929560 0.94143699 161 160 161
0.57068377 -0.12758406 0.93921499 168 169 170
0.56768012 -0.13691045 0.94025096 167 167 167
0.57001698 -0.10991659 0.93749946 171 171 171
0.57004906 -0.09005026 0.93563498 169 169 171
0.56996840 -0.07001783 0.93386297 165 165 167
0.56996953 -0.04968491 0.93212283 159 158 159
0.57009027 -0.03005389 0.93053328 159 158 158
0.56991688 -0.01031813 0.92903198 161 159 159
0.57012299 0.01007572 0.92754000 160 158 159
0.56989114 0.02972218 0.92618113 163 162 162
0.57010764 0.04997044 0.92481093 155 153 155
0.56984843 0.06954243 0.92351734 155 155 157
0.57014999 0.09042680 0.92218470 154 155 156
0.56985535 0.10996137 0.92099831 148 148 150
0.57087664 0.13362244 0.91962952 155 155 156
0.56893972 0.12368651 0.92022044 153 152 154
0.56979323 0.15027463 0.91876279 151 150 151
0.57012729 0.17021474 0.91775701 150 149 149
0.57006144 0.18967838 0.91682360 150 148 148
0.56977900 0.20987488 0.91590366 150 150 149
0.57021300 0.23061045 0.91498916 151 150 150
0.56998307 0.24995864 0.91415624 148 148 149
0.56975663 0.26927271 0.91332999 153 153 154
0.57027561 0.28988437 0.91246395 150 149 149
0.57001697 0.30994961 0.91168326 149 148 148
0.56961397 0.33011226 0.91094876 152 151 152
0.57016047 0.35054347 0.91024580 144 143 142
0.57030074 0.37056548 0.90962264 143 143 144
0.56994884 0.38997763 0.90906138 146 144 145
0.56971597 0.40945100 0.90868995 47 47 47
0.56949336 0.42970068 0.90833486 0 0 0
0.56996729 0.44985609 0.90794281 0 0 0
0.57047483 0.47013730 0.90748781 0 0 0
0.57020324 0.49019014 0.90696663 0 0 0
0.56987774 0.50792797 0.90644883 0 0 0
0.59028335 -0.68653988 1.02747355 0 0 0
0.59030112 -0.68423767 1.07276451 176 178 177
0.59138371 -0.68401010 1.08184992 174 176 176
0.58888634 -0.67388403 1.03086202 0 0 0
0.59074697 -0.67492415 1.04823450 82 83 82
0.58966993 -0.66905183 1.07724986 174 176 176
0.59190321 -0.67824926 1.08061675 177 179 180
0.58998062 -0.65013475 1.07072915 174 176 176
0.59458881 -0.62181258 1.05908770 178 178 179
0.58929088 -0.63097683 1.06344335 176 177 177
0.58976899 -0.60997503 1.05488630 175 177 177
0.58041553 -0.61992956 1.06020236 177 178 178
0.59030647 -0.59003757 1.04676021 174 176 177
0.59109759 -0.56624298 1.03756896 173 173 174
0.58795939 -0.57586166 1.04157337 176 177 177
0.58997725 -0.54979856 1.03186478 171 171 171
0.58976152 -0.53002721 1.02523951 172 172 172
0.59100781 -0.50717393 1.01753617 170 171 170
0.58840544 -0.51693614 1.02107144 169 169 169
0.58970297 -0.48985363 1.01200887 168 168 168
0.59018828 -0.47031233 1.00550934 175 176 178
0.59078681 -0.44690574 0.99804327 178 178 178
0.58852466 -0.45665808 1.00128001 177 177 179
0.58973617 -0.43037925 0.99319813 174 175 176
0.59014962 -0.40984662 0.98718063 174 176 178
0.59099253 -0.38373215 0.97875114 168 169 173
0.58956245 -0.39337950 0.98203968 173 176 178
0.59003131 -0.36952694 0.97493159 165 166 168
0.58995610 -0.34935212 0.97028044 156 157 161
0.58995550 -0.32952817 0.96628211 170 172 174
0.59002226 -0.30991594 0.96254589 170 171 173
0.59065817 -0.28763839 0.95860485 172 172 173
0.58757649 -0.29759361 0.96042782 170 168 169
0.59002148 -0.26984881 0.95582047 165 165 166
0.58999919 -0.25007276 0.95297953 166 166 168
0.58995935 -0.22959518 0.95014794 164 164 166
0.58997529 -0.20933267 0.94753544 166 166 168
0.58987262 -0.18981242 0.94520798 170 170 172
0.59011346 -0.16997383 0.94299632 169 169 170
0.59475972 -0.14094560 0.93986440 153 151 152
0.58962524 -0.15023418 0.94094582 162 160 161
0.59004312 -0.12926661 0.93883294 168 168 170
0.58123556 -0.13859426 0.94002008 165 165 164
0.59006105 -0.10968807 0.93692884 170 169 170
0.58992886 -0.09039195 0.93515546 165 165 166
0.59002424 -0.06985988 0.93336296 165 166 168
0.59008838 -0.04941269 0.93163511 164 163 163
0.58989843 -0.03041549 0.93011546 160 158 158
0.59002616 -0.00997214 0.92856339 164 163 163
0.58995509 0.00984328 0.92713857 160 158 158
0.59002322 0.02991643 0.92576723 161 160 160
0.58998702 0.04984749 0.92445699 160 160 161
0.58996380 0.06972322 0.92317026 149 149 152
0.59006127 0.09042896 0.92187362 151 151 151
0.58997217 0.11011596 0.92069312 152 152 153
0.59050885 0.13102801 0.91949605 153 154 157
0.58603491 0.12136877 0.92010270 142 142 146
0.59013424 0.15033105 0.91846859 152 153 154
0.58975732 0.16982736 0.91749237 145 146 147
0.59019166 0.18981364 0.91654347 149 148 148
0.58990113 0.21000811 0.91564257 146 145 146
0.58981098 0.23016622 0.91477098 157 157 154
0.59031118 0.24995068 0.91392201 147 146 147
0.58984601 0.26939951 0.91310721 152 153 155
0.58984250 0.28947587 0.91227796 154 154 155
0.59037481 0.30988288 0.91148688 146 146 146
0.58990220 0.33009905 0.91075723 145 145 146
0.58967450 0.35012048 0.91005257 141 139 140
0.59030038 0.37066209 0.90938928 147 146 146
0.59040802 0.39037088 0.90881733 153 155 156
0.58978130 0.40980999 0.90844767 61 61 62
0.58975091 0.42958978 0.90810049 0 0 0
0.58950603 0.44980738 0.90772339 0 0 0
0.59001033 0.46998011 0.90729248 0 0 0
0.59046073 0.49008931 0.90678001 0 0 0
0.59013660 0.50783461 0.90628218 0 0 0
0.61024526 -0.68787725 1.03141535 0 0 0
0.61061174 -0.68302355 1.05435981 127 128 126
0.61082686 -0.69120702 1.07415559 169 173 170
0.61091404 -0.68747356 1.08281062 173 176 176
0.60744423 -0.67714448 1.03420550 2 2 2
0.60880748 -0.67841604 1.04418042 61 62 61
0.61046223 -0.66831994 1.07588008 175 176 176
0.60618716 -0.67789907 1.08055453 176 179 178
0.61026727 -0.64995625 1.06867765 177 179 178
0.61115122 -0.62450839 1.05805187 174 175 175
0.60885148 -0.63429264 1.06255017 173 175 176
0.60985184 -0.60992151 1.05218938 176 179 179
0.61763403 -0.58091325 1.03957033 174 178 179
0.60995575 -0.59023921 1.04425157 173 177 178
0.61052403 -0.56955401 1.03623808 170 170 171
0.60456932 -0.57886329 1.04049941 176 177 179
0.60970821 -0.55013422 1.02947256 167 167 167
0.61547037 -0.52163071 1.01948144 171 171 171
0.60955410 -0.53070369 1.02311127 170 171 170
0.61019778 -0.50990348 1.01630176 171 171 171
0.60171695 -0.51895194 1.02019906 173 173 172
0.60997358 -0.49018127 1.00994885 170 170 170
0.61812098 -0.46013156 0.99967444 176 176 178
0.60978884 -0.46987802 1.00345388 175 176 177
0.61039580 -0.44889667 0.99697635 177 177 179
0.60397158 -0.45822426 1.00036018 179 179 179
0.60995653 -0.42970509 0.99143947 175 176 177
0.61003230 -0.41023179 0.98575660 174 175 176
0.61073121 -0.38557410 0.97803592 170 173 176
0.60899830 -0.39594708 0.98145809 168 169 174
0.60989683 -0.36986314 0.97378352 163 166 167
0.60991990 -0.35033236 0.96942877 167 168 171
0.61016056 -0.32983502 0.96523699 171 173 174
0.61590828 -0.30135790 0.95975573 167 171 172
0.60947916 -0.31033917 0.96163466 165 165 167
0.61012907 -0.29013340 0.95813745 169 170 171
0.60109684 -0.29919204 0.96006471 168 168 170
0.61006834 -0.27030841 0.95505058 167 167 168
0.61004941 -0.24979466 0.95213046 167 167 169
0.61000049 -0.22941149 0.94938964 166 167 168
0.60999775 -0.20996272 0.94694843 166 166 169
0.60998298 -0.19058905 0.94468605 169 169 172
0.61005367 -0.17052960 0.94247429 170 170 172
0.61134421 -0.14302912 0.93960856 165 166 167
0.60929530 -0.15360942 0.94072248 166 166 168
0.60997200 -0.12954085 0.93831636 169 170 171
0.61002418 -0.10991424 0.93643263 166 167 170
0.61001161 -0.09000337 0.93461672 169 170 171
0.61007227 -0.06970398 0.93288453 169 169 171
0.60992286 -0.04976695 0.93123442 161 161 162
0.61006215 -0.03011036 0.92967219 142 140 141
0.61000290 -0.01011301 0.92816920 159 158 159
0.60993063 0.00986897 0.92674595 164 164 163
0.61015049 0.03011104 0.92537401 164 163 162
0.60985225 0.04972495 0.92410479 165 165 166
0.61012663 0.06990276 0.92282571 162 161 162
0.60983320 0.09016759 0.92158838 153 153 154
0.61350378 0.11806369 0.91991979 155 156 157
0.60969948 0.10921066 0.92047154 155 154 155
0.60980162 0.12975602 0.91931384 149 150 153
0.61018101 0.15049263 0.91819905 152 152 155
0.60994603 0.16994509 0.91722681 150 151 152
0.60981704 0.18937804 0.91632286 152 153 155
0.61025435 0.21000813 0.91539618 147 146 147
0.60973615 0.23030304 0.91453416 153 152 151
0.61017900 0.25058488 0.91366938 149 149 151
0.61009031 0.26998694 0.91286361 143 143 146
0.60967266 0.28958866 0.91207436 142 141 143
0.61019064 0.30999251 0.91128824 141 141 142
0.61023367 0.33002724 0.91055915 145 145 145
0.60975289 0.35021092 0.90984177 150 150 150
0.60978580 0.37019473 0.90919185 145 147 148
0.61042907 0.39061706 0.90859117 147 148 150
0.61020898 0.41000620 0.90818027 80 80 79
0.60997721 0.42946437 0.90783532 0 0 0
0.60973978 0.44968776 0.90748190 0 0 0
0.60952624 0.46981448 0.90708070 0 0 0
0.61023224 0.49017475 0.90657792 0 0 0
0.61038034 0.50773490 0.90610418 0 0 0
0.63777589 -0.70055107 1.08212933 171 175 174
0.62943669 -0.68984796 1.03524862 1 1 1
0.63072889 -0.68612368 1.04836191 117 120 119
0.63217765 -0.68904470 1.07524881 174 177 175
0.62987921 -0.69152747 1.08260120 175 176 176
0.62196900 -0.67939985 1.03631383 3 3 3
0.63010950 -0.67020516 1.07480284 177 179 179
0.62994614 -0.65007529 1.06657432 176 179 180
0.63043671 -0.62729081 1.05689095 174 176 177
0.62891794 -0.63709560 1.06143269 175 177 178
0.63016329 -0.60989058 1.04958315 178 180 181
0.63150215 -0.58333362 1.03874032 172 173 173
0.62914492 -0.59272546 1.04275722 176 178 179
0.62997282 -0.57001702 1.03392339 169 169 168
0.62992355 -0.54998998 1.02689220 172 173 173
0.63195994 -0.52467164 1.01851510 175 175 174
0.62893974 -0.53394203 1.02183273 173 173 172
0.62977862 -0.50998203 1.01411002 170 171 171
0.62993298 -0.48990963 1.00777775 175 175 175
0.63273057 -0.46304847 0.99920132 176 177 177
0.62948979 -0.47235338 1.00233774 173 174 175
0.62993272 -0.45035049 0.99569489 174 176 178
0.62995859 -0.43002789 0.98986704 170 173 174
0.63014790 -0.40983131 0.98400232 173 175 176
0.63051296 -0.38856647 0.97772840 170 173 176
0.62780939 -0.39783173 0.98062404 169 175 176
0.63000138 -0.37052064 0.97292085 165 168 170
0.63011153 -0.35036935 0.96838927 170 171 173
0.62988818 -0.33040802 0.96436458 168 169 171
0.63163676 -0.30327071 0.95940446 171 171 172
0.62944784 -0.31337335 0.96124145 170 171 173
0.63004480 -0.29008534 0.95729633 168 169 169
0.62990672 -0.27026971 0.95428427 167 166 167
0.63005312 -0.24969362 0.95138898 168 169 170
0.62985335 -0.23003112 0.94880846 168 169 170
0.63009533 -0.21069496 0.94642371 167 168 171
0.62999039 -0.19073503 0.94411501 169 170 171
0.63002842 -0.17082425 0.94194345 172 172 173
0.63076337 -0.14586462 0.93936949 152 151 152
0.62891880 -0.15612318 0.94043137 160 159 161
0.62995459 -0.12926422 0.93775927 168 170 171
0.63004845 -0.10948483 0.93587871 166 167 169
0.63000451 -0.09013832 0.93414333 167 168 169
0.62997735 -0.06996769 0.93245617 163 164 166
0.63003169 -0.04941430 0.93078176 165 164 164
0.63000407 -0.03020193 0.92927533 163 163 159
0.62996555 -0.01025350 0.92777931 164 163 162
0.63010131 0.01010707 0.92634533 163 164 163
0.62988615 0.02968706 0.92504280 161 159 160
0.63012165 0.04991295 0.92374429 163 163 165
0.62984015 0.06946929 0.92254345 162 161 162
0.63011324 0.09034008 0.92129886 152 153 155
0.63090756 0.11619347 0.91981504 132 131 130
0.62933892 0.10676869 0.92036246 136 134 136
0.63017700 0.12983501 0.91906938 139 140 142
0.62984941 0.15004957 0.91799794 148 146 148
0.63021012 0.17004209 0.91699554 155 155 153
0.62977304 0.18952630 0.91608844 153 153 153
0.63012221 0.21001695 0.91516730 147 146 147
0.63012758 0.23024543 0.91430538 153 152 152
0.62972068 0.25041667 0.91346662 146 145 145
0.63024868 0.27023555 0.91264703 145 145 145
0.63002702 0.28952457 0.91187253 145 145 146
0.62972329 0.30958006 0.91110147 144 145 146
0.63026790 0.33014712 0.91036043 139 140 141
0.63006393 0.35013721 0.90965031 148 148 148
0.62960366 0.37030601 0.90898581 156 157 157
0.63009748 0.39055897 0.90838128 146 146 148
0.63062788 0.41032078 0.90790727 95 95 95
0.62998146 0.42974102 0.90756039 0 0 0
0.62995187 0.44956043 0.90722484 0 0 0
0.62968869 0.46974881 0.90684577 0 0 0
0.62965440 0.48968412 0.90638365 0 0 0
0.63038886 0.50776040 0.90591860 0 0 0
0.65132115 -0.70181525 1.07240742 166 170 171
0.65190046 -0.70332755 1.08433593 172 177 176
0.64942263 -0.69451972 1.03775260 0 0 0
0.65142590 -0.69225335 1.04667028 54 55 56
0.65035659 -0.68479503 1.07723731 175 178 177
0.64867507 -0.69332027 1.08217820 176 178 177
0.64998242 -0.67018218 1.07283727 173 178 178
0.65806198 -0.64169149 1.05982620 178 178 178
0.64985834 -0.65020424 1.06433540 176 178 178
0.65031168 -0.62965329 1.05553295 176 177 178
0.64280141 -0.63833580 1.06033774 174 175 177
0.65032769 -0.60991677 1.04702863 175 177 178
0.65070301 -0.58632281 1.03744698 173 173 174
0.64833538 -0.59612552 1.04167609 172 173 174
0.64979786 -0.56987956 1.03143924 171 171 170
0.65031058 -0.54974552 1.02436795 172 173 174
0.65067646 -0.52824989 1.01750296 173 173 172
0.64590695 -0.53726292 1.02087673 176 177 178
0.65020580 -0.51006950 1.01187911 174 174 174
0.64998424 -0.48989525 1.00569212 168 169 169
0.65124404 -0.46560744 0.99828849 174 175 176
0.64830067 -0.47510837 1.00133287 171 173 174
0.64997648 -0.44979333 0.99385416 176 177 180
0.65003750 -0.43023344 0.98833605 174 175 177
0.65438097 -0.40082250 0.97971801 171 175 178
0.64950438 -0.41068697 0.98284909 172 174 178
0.65014737 -0.38981373 0.97697972 169 173 177
0.64998755 -0.36998459 0.97190550 159 161 165
0.65006135 -0.34998148 0.96738440 169 171 174
0.65005532 -0.33022192 0.96343445 167 170 171
0.65075281 -0.30549588 0.95901110 166 167 170
0.64887513 -0.31564742 0.96082306 166 167 170
0.65003108 -0.28985436 0.95649437 169 169 171
