ply
format ascii 1.0
element vertex 58
property float x
property float y
property float z
property uchar red
property uchar green
property uchar blue
end_header
-0.22356734 -0.00113419 0.13890036 255 12 12
-0.22040675 -0.00087740 0.14098102 255 12 12
-0.21600053 -0.00050353 0.14214099 255 12 12
-0.21219784 -0.00018944 0.14408075 255 12 12
-0.20772906 0.00019083 0.14513762 255 12 12
-0.20192556 0.00069868 0.14497586 255 12 12
-0.19691459 0.00113263 0.14533385 255 12 12
-0.19192358 0.00156945 0.14518710 255 12 12
-0.18835142 0.00187021 0.14638457 255 12 12
-0.18538267 0.00211494 0.14795204 255 12 12
-0.18180880 0.00241718 0.14900319 255 12 12
-0.17776524 0.00276648 0.14938745 255 12 12
-0.17388729 0.00310022 0.14989387 255 12 12
-0.17109657 0.00333032 0.15136268 255 12 12
-0.16689129 0.00369726 0.15136025 255 12 12
-0.16333355 0.00400134 0.15205636 255 12 12
-0.16135536 0.00415362 0.15428349 255 12 12
-0.15837710 0.00440388 0.15533581 255 12 12
-0.15552249 0.00464185 0.15655305 255 12 12
-0.15221639 0.00492521 0.15711197 255 12 12
-0.14856563 0.00524248 0.15725175 255 12 12
-0.14529064 0.00552439 0.15767210 255 12 12
-0.14199061 0.00580881 0.15805780 255 12 12
-0.13813836 0.00614667 0.15786732 255 12 12
-0.13527943 0.00638810 0.15874577 255 12 12
-0.13317648 0.00655500 0.16056388 255 12 12
-0.12988123 0.00684103 0.16072718 255 12 12
-0.12704241 0.00708501 0.16113397 255 12 12
-0.07523655 0.01223088 0.09255083 255 12 12
-0.07315824 0.01241978 0.09172223 255 12 12
-0.07255004 0.01245681 0.09348008 255 12 12
-0.07176215 0.01251144 0.09502711 255 12 12
-0.07093726 0.01256935 0.09656882 255 12 12
-0.07018288 0.01261911 0.09832984 255 12 12
-0.06896946 0.01268472 0.10274350 255 12 12
-0.06741407 0.01281922 0.10287597 255 12 12
-0.06593282 0.01294529 0.10322377 255 12 12
-0.06456514 0.01305963 0.10377061 255 12 12
-0.06359793 0.01312845 0.10547757 255 12 12
-0.06218351 0.01324232 0.10652406 255 12 12
-0.06039897 0.01340204 0.10608359 255 12 12
-0.05893786 0.01352515 0.10656327 255 12 12
-0.05775636 0.01361534 0.10797749 255 12 12
-0.05687550 0.01367319 0.11006064 255 12 12
-0.05538003 0.01379987 0.11047768 255 12 12
-0.05390527 0.01392501 0.11086492 255 12 12
-0.05239795 0.01405314 0.11123634 255 12 12
-0.05059024 0.01421877 0.11037016 255 12 12
-0.05225251 0.01361499 0.16065434 255 12 12
-0.04874450 0.01384051 0.16948567 255 12 12
-0.04620941 0.01407042 0.16852956 255 12 12
-0.04387284 0.01426750 0.16927470 255 12 12
-0.04169535 0.01443055 0.17222730 255 12 12
-0.03935174 0.01461976 0.17390194 255 12 12
-0.03683864 0.01484685 0.17304497 255 12 12
-0.03423171 0.01508017 0.17240322 255 12 12
-0.03175564 0.01529107 0.17296734 255 12 12
-0.02930493 0.01551151 0.17224280 255 12 12
