ply
format ascii 1.0
element vertex 378
property float x
property float y
property float z
property uchar red
property uchar green
property uchar blue
end_header
0.01645448 -0.00147881 2.47226076 255 12 12
0.04768469 0.00110925 2.48726144 255 12 12
0.07884655 0.00364690 2.50713468 255 12 12
0.11127179 0.00628509 2.52807015 255 12 12
0.14324192 0.00892799 2.54413577 255 12 12
0.17653824 0.01166587 2.56247587 255 12 12
0.20985265 0.01438606 2.58292718 255 12 12
0.24442720 0.01721862 2.60311323 255 12 12
0.27862861 0.02003799 2.62117573 255 12 12
0.31405776 0.02296723 2.63893763 255 12 12
0.34982619 0.02589343 2.66027759 255 12 12
0.38793114 0.02896815 2.68768481 255 12 12
0.49568104 0.03798596 2.72973681 255 12 12
0.53687361 0.04128552 2.76202861 255 12 12
0.56989547 0.04435231 2.74168929 255 12 12
0.59750137 0.04708474 2.70620304 255 12 12
0.02802890 0.02067375 0.15473497 255 12 12
0.03813405 0.02142837 0.16866416 255 12 12
0.03668957 0.02150710 0.14621928 255 12 12
0.03855007 0.02167283 0.14584750 255 12 12
0.04443413 0.02215773 0.14897108 255 12 12
0.04698500 0.02237486 0.14956799 255 12 12
0.05108269 0.02270376 0.15270618 255 12 12
0.05908645 0.02335256 0.15813687 255 12 12
0.06182638 0.02358828 0.15850397 255 12 12
0.06945373 0.02420629 0.16371003 255 12 12
0.07228441 0.02444850 0.16423333 255 12 12
0.07447729 0.02464515 0.16365113 255 12 12
0.07628010 0.02481947 0.16178491 255 12 12
0.07810236 0.02499039 0.16047828 255 12 12
0.07957148 0.02513409 0.15877749 255 12 12
0.04099738 0.02232893 0.09733592 255 12 12
0.07726227 0.02520137 0.12931716 255 12 12
0.01617441 0.02051961 0.05825416 255 12 12
0.01673605 0.02057371 0.05769469 255 12 12
1.09593623 0.10585981 1.03071610 255 12 12
1.10605070 0.10688743 1.01480991 255 12 12
1.11704870 0.10799428 0.99866987 255 12 12
1.13004234 0.10925442 0.98481343 255 12 12
1.14859482 0.11095353 0.97600505 255 12 12
1.16502376 0.11249021 0.96469046 255 12 12
1.17837728 0.11383018 0.94552535 255 12 12
1.18943828 0.11494749 0.92884156 255 12 12
1.20268643 0.11624069 0.91379536 255 12 12
1.21656319 0.11758520 0.89913653 255 12 12
1.22874793 0.11875184 0.88779261 255 12 12
1.24309155 0.12012668 0.87427492 255 12 12
1.25623141 0.12140033 0.86033546 255 12 12
1.26902791 0.12265150 0.84557685 255 12 12
1.28186870 0.12390706 0.83076108 255 12 12
1.29518227 0.12520208 0.81614092 255 12 12
1.30855119 0.12649817 0.80193324 255 12 12
1.32392834 0.12796457 0.78826402 255 12 12
1.33830181 0.12935023 0.77384562 255 12 12
1.34989487 0.13050847 0.75776325 255 12 12
1.36198562 0.13170401 0.74235236 255 12 12
1.37098975 0.13264988 0.72478775 255 12 12
0.67978032 0.07575277 0.35071616 255 12 12
0.69313663 0.07695882 0.34625684 255 12 12
0.70930858 0.07840377 0.34253982 255 12 12
0.72412641 0.07973924 0.33787330 255 12 12
0.73779183 0.08098147 0.33240430 255 12 12
0.75366340 0.08240842 0.32778788 255 12 12
0.76706449 0.08363401 0.32161556 255 12 12
0.20944929 0.03725662 0.07214292 255 12 12
0.20483338 0.03689233 0.06792682 255 12 12
0.20308141 0.03677137 0.06442969 255 12 12
0.20126599 0.03664382 0.06104853 255 12 12
0.19868272 0.03645069 0.05751098 255 12 12
0.19677105 0.03631369 0.05424529 255 12 12
0.18447088 0.03531197 0.04640721 255 12 12
0.17946098 0.03490672 0.04291307 255 12 12
0.17414402 0.03447328 0.03957273 255 12 12
0.16238574 0.03350652 0.03308541 255 12 12
0.16411973 0.03367849 0.03081911 255 12 12
0.16507793 0.03378323 0.02850240 255 12 12
0.16601224 0.03388657 0.02611149 255 12 12
0.16863178 0.03413224 0.02423631 255 12 12
0.17199579 0.03444601 0.02201644 255 12 12
0.17533259 0.03475762 0.01977316 255 12 12
0.17914349 0.03511170 0.01740875 255 12 12
0.16350073 0.03381881 0.00951858 255 12 12
0.16245679 0.03374960 0.00712029 255 12 12
0.16039187 0.03358978 0.00488945 255 12 12
0.15220325 0.03291333 0.00072117 255 12 12
0.14906970 0.03265825 -0.00128770 255 12 12
0.14813931 0.03259737 -0.00351245 255 12 12
0.14966436 0.03275236 -0.00591575 255 12 12
0.15264732 0.03303600 -0.00847799 255 12 12
0.15608188 0.03336077 -0.01122897 255 12 12
0.15678296 0.03344304 -0.01354172 255 12 12
0.15571604 0.03336980 -0.01571759 255 12 12
0.15265750 0.03311967 -0.01755117 255 12 12
0.15179016 0.03306360 -0.01970080 255 12 12
0.15380661 0.03326541 -0.02253610 255 12 12
0.15580002 0.03346481 -0.02532863 255 12 12
0.15581493 0.03348781 -0.02770711 255 12 12
0.14387717 0.03246414 -0.02967246 255 12 12
0.02139447 0.02153310 -0.00291343 255 12 12
0.02810410 0.02215861 -0.00730700 255 12 12
0.02740406 0.02210215 -0.00781288 255 12 12
0.02668353 0.02204419 -0.00835070 255 12 12
0.02596419 0.02198605 -0.00885849 255 12 12
0.02477155 0.02188496 -0.00918389 255 12 12
0.02311837 0.02174172 -0.00929416 255 12 12
0.01983640 0.02145621 -0.00938688 255 12 12
0.01636386 0.02115163 -0.00921195 255 12 12
0.01632506 0.02115431 -0.00987764 255 12 12
0.01018215 0.02060835 -0.00878435 255 12 12
0.00926299 0.02052937 -0.00891769 255 12 12
0.00834679 0.02045047 -0.00903121 255 12 12
0.00829623 0.02045147 -0.00962501 255 12 12
0.00804069 0.02043317 -0.01006271 255 12 12
0.00776781 0.02041351 -0.01051752 255 12 12
0.00791124 0.02043256 -0.01123447 255 12 12
0.00590327 0.02025644 -0.01113347 255 12 12
0.00624217 0.02029367 -0.01197297 255 12 12
0.00554393 0.02023400 -0.01211060 255 12 12
0.00613439 0.02030148 -0.01385996 255 12 12
0.00561630 0.02025884 -0.01414080 255 12 12
0.00529377 0.02023457 -0.01456548 255 12 12
0.00594212 0.02030205 -0.01576162 255 12 12
0.00635724 0.02034811 -0.01683953 255 12 12
0.00618491 0.02033858 -0.01744275 255 12 12
0.00544347 0.02027486 -0.01754950 255 12 12
0.00413511 0.02015712 -0.01715750 255 12 12
0.00268030 0.02002459 -0.01654422 255 12 12
-0.00537029 0.01927088 -0.01092335 255 12 12
-0.00654908 0.01916276 -0.01034594 255 12 12
-0.00901301 0.01894416 -0.00995001 255 12 12
-0.00928307 0.01892283 -0.01019477 255 12 12
-0.01004627 0.01885328 -0.00987056 255 12 12
-0.00884286 0.01900218 -0.01468203 255 12 12
-0.00896384 0.01899531 -0.01508567 255 12 12
-0.00776748 0.01912835 -0.01822665 255 12 12
-0.00813882 0.01909831 -0.01848620 255 12 12
-0.00784832 0.01914382 -0.02069572 255 12 12
-0.00776042 0.01916986 -0.02270928 255 12 12
-0.00831425 0.01912194 -0.02275410 255 12 12
-0.00887542 0.01907336 -0.02279605 255 12 12
-0.00930253 0.01903834 -0.02304165 255 12 12
-0.00946369 0.01904069 -0.02484061 255 12 12
-0.01003002 0.01899142 -0.02485681 255 12 12
-0.01048223 0.01895407 -0.02508806 255 12 12
-0.01104604 0.01890489 -0.02508894 255 12 12
-0.01154158 0.01886382 -0.02532683 255 12 12
-0.01200961 0.01882497 -0.02554409 255 12 12
-0.01248031 0.01878583 -0.02575544 255 12 12
-0.01314812 0.01872523 -0.02550072 255 12 12
-0.01398565 0.01864548 -0.02476852 255 12 12
-0.01472108 0.01857665 -0.02425778 255 12 12
-0.01498821 0.01855919 -0.02489835 255 12 12
-0.01519331 0.01854930 -0.02577615 255 12 12
-0.01564601 0.01851129 -0.02594008 255 12 12
-0.01635115 0.01844477 -0.02539210 255 12 12
-0.01711799 0.01837059 -0.02459494 255 12 12
-0.01764064 0.01832412 -0.02450033 255 12 12
-0.01804659 0.01829222 -0.02488635 255 12 12
-0.01864480 0.01823688 -0.02454093 255 12 12
-0.01928796 0.01817530 -0.02394242 255 12 12
-0.02494121 0.01756061 -0.01063210 255 12 12
-0.02509493 0.01755439 -0.01142020 255 12 12
-0.02614093 0.01745302 -0.01031301 255 12 12
-0.02632776 0.01744382 -0.01109166 255 12 12
-0.02656532 0.01742792 -0.01162100 255 12 12
-0.02688326 0.01739818 -0.01140109 255 12 12
-0.02757695 0.01732214 -0.00970101 255 12 12
-0.02859826 0.01724256 -0.01074516 255 12 12
-0.02887908 0.01721352 -0.01024865 255 12 12
-0.02917330 0.01718557 -0.00999853 255 12 12
-0.02945330 0.01716339 -0.01024478 255 12 12
-0.03027472 0.01709143 -0.01021327 255 12 12
-0.03060454 0.01706932 -0.01094386 255 12 12
-0.03123215 0.01699574 -0.00888103 255 12 12
-0.03151686 0.01697290 -0.00910041 255 12 12
-0.03177461 0.01695011 -0.00906802 255 12 12
-0.03239464 0.01688593 -0.00796311 255 12 12
-0.03322295 0.01682850 -0.00959021 255 12 12
-0.04027367 0.01635213 -0.02480672 255 12 12
-0.04177085 0.01623627 -0.02642619 255 12 12
-0.04241352 0.01618301 -0.02673512 255 12 12
-0.04306589 0.01612882 -0.02703386 255 12 12
-0.04353135 0.01608664 -0.02686201 255 12 12
-0.04365391 0.01606575 -0.02574441 255 12 12
-0.04402081 0.01602995 -0.02532957 255 12 12
-0.04477456 0.01596875 -0.02582988 255 12 12
-0.04526637 0.01592392 -0.02561977 255 12 12
-0.04563303 0.01588796 -0.02518425 255 12 12
-0.04588648 0.01585977 -0.02451861 255 12 12
-0.04634137 0.01581812 -0.02430348 255 12 12
-0.04679353 0.01577665 -0.02408263 255 12 12
-0.04712957 0.01574323 -0.02363340 255 12 12
-0.04780545 0.01568619 -0.02384521 255 12 12
-0.04848943 0.01562834 -0.02404554 255 12 12
-0.04892845 0.01558782 -0.02380311 255 12 12
-0.04937413 0.01554662 -0.02354972 255 12 12
-0.05006075 0.01548833 -0.02372687 255 12 12
-0.05102358 0.01540968 -0.02431367 255 12 12
-0.05189199 0.01533704 -0.02465725 255 12 12
-0.05261799 0.01527488 -0.02478691 255 12 12
-0.05280049 0.01525241 -0.02407001 255 12 12
-0.05296882 0.01523120 -0.02335435 255 12 12
-0.05329418 0.01520076 -0.02313001 255 12 12
-0.05307999 0.01520125 -0.02113486 255 12 12
-0.05316684 0.01518741 -0.02044886 255 12 12
-0.05287949 0.01520016 -0.01909812 255 12 12
-0.05295689 0.01518707 -0.01840301 255 12 12
-0.05364044 0.01512826 -0.01849439 255 12 12
-0.05358559 0.01511862 -0.01691382 255 12 12
-0.05361654 0.01510965 -0.01622592 255 12 12
-0.05412592 0.01506412 -0.01610699 255 12 12
-0.05464366 0.01501772 -0.01597272 255 12 12
-0.05480506 0.01499914 -0.01548013 255 12 12
-0.05898855 0.01465409 -0.01766894 255 12 12
-0.05919285 0.01463107 -0.01709948 255 12 12
-0.05937197 0.01461040 -0.01654637 255 12 12
-0.06063810 0.01450419 -0.01701382 255 12 12
-0.06192806 0.01439557 -0.01744524 255 12 12
-0.06229313 0.01435992 -0.01702861 255 12 12
-0.06284308 0.01430956 -0.01676903 255 12 12
-0.06376819 0.01422939 -0.01682809 255 12 12
-0.06373726 0.01422521 -0.01607465 255 12 12
-0.06538652 0.01408055 -0.01599104 255 12 12
-0.06552603 0.01406290 -0.01539133 255 12 12
-0.06525358 0.01407852 -0.01449798 255 12 12
-0.06167694 0.01434986 -0.01003281 255 12 12
-0.06304578 0.01422793 -0.00975891 255 12 12
-0.07339569 0.01335758 -0.01334399 255 12 12
-0.07501703 0.01321761 -0.01350861 255 12 12
-0.07576407 0.01314940 -0.01317651 255 12 12
-0.07607457 0.01311692 -0.01258596 255 12 12
-0.07681594 0.01304899 -0.01222990 255 12 12
-0.06975770 0.01361504 -0.00677104 255 12 12
-0.10278287 0.01078600 -0.01252496 255 12 12
-0.10860867 0.01027544 -0.01227942 255 12 12
-0.10914428 0.01022019 -0.01134506 255 12 12
-0.11401880 0.00978749 -0.01053545 255 12 12
-0.11549511 0.00965188 -0.00979108 255 12 12
-0.11696581 0.00951647 -0.00901368 255 12 12
-0.11940792 0.00929777 -0.00839813 255 12 12
-0.12062434 0.00918336 -0.00749053 255 12 12
-0.12085483 0.00915294 -0.00636065 255 12 12
-0.12180610 0.00906086 -0.00536547 255 12 12
-0.12275558 0.00896828 -0.00429826 255 12 12
-0.12368879 0.00887716 -0.00323535 255 12 12
-0.12411340 0.00882979 -0.00210454 255 12 12
-0.12452808 0.00878298 -0.00093940 255 12 12
-0.12467498 0.00875966 0.00021194 255 12 12
-0.12481096 0.00873704 0.00139120 255 12 12
-0.12468462 0.00873707 0.00259643 255 12 12
-0.12429512 0.00875990 0.00381827 255 12 12
-0.12439080 0.00874037 0.00504483 255 12 12
-0.12571235 0.00861478 0.00617150 255 12 12
-0.12776563 0.00842562 0.00726779 255 12 12
-0.12781601 0.00840988 0.00851171 255 12 12
-0.12859958 0.00832957 0.00982101 255 12 12
-0.13011248 0.00818599 0.01108906 255 12 12
-0.13011490 0.00817417 0.01236227 255 12 12
-0.13010094 0.00816352 0.01366309 255 12 12
-0.13057232 0.00811166 0.01483922 255 12 12
-0.13177205 0.00799485 0.01616843 255 12 12
-0.13270714 0.00790124 0.01748669 255 12 12
-0.13213236 0.00793978 0.01875956 255 12 12
-0.13253753 0.00789249 0.02006816 255 12 12
-0.13465977 0.00769358 0.02157354 255 12 12
-0.13626787 0.00753977 0.02305308 255 12 12
-0.13735718 0.00743111 0.02454619 255 12 12
-0.13818266 0.00734576 0.02600683 255 12 12
-0.13849114 0.00730567 0.02745022 255 12 12
-0.13903141 0.00724520 0.02891138 255 12 12
-0.14052994 0.00709921 0.03058218 255 12 12
-0.14151897 0.00699839 0.03217451 255 12 12
-0.14076774 0.00705188 0.03349582 255 12 12
-0.13903160 0.00719355 0.03457085 255 12 12
-0.13873977 0.00720639 0.03595474 255 12 12
-0.14086414 0.00700360 0.03786599 255 12 12
-0.14198256 0.00688994 0.03962770 255 12 12
-0.14235876 0.00684274 0.04120397 255 12 12
-0.14222413 0.00684089 0.04269448 255 12 12
-0.14207882 0.00684024 0.04415525 255 12 12
-0.14309915 0.00673435 0.04600368 255 12 12
-0.14386279 0.00665154 0.04777724 255 12 12
-0.14411609 0.00661416 0.04945225 255 12 12
-0.14412023 0.00659942 0.05102771 255 12 12
-0.14432693 0.00656592 0.05272336 255 12 12
-0.14569004 0.00642779 0.05482787 255 12 12
-0.14607548 0.00637754 0.05664928 255 12 12
-0.14667791 0.00630767 0.05854658 255 12 12
-0.14700771 0.00626195 0.06040326 255 12 12
-0.14801107 0.00615496 0.06253525 255 12 12
-0.15033390 0.00592675 0.06533355 255 12 12
-0.15171298 0.00578436 0.06775209 255 12 12
-0.15235847 0.00570818 0.06992880 255 12 12
-0.15320920 0.00561319 0.07220520 255 12 12
-0.15378274 0.00554281 0.07443396 255 12 12
-0.15411606 0.00549453 0.07653803 255 12 12
-0.15439841 0.00545023 0.07869401 255 12 12
-0.15400947 0.00546793 0.08047367 255 12 12
-0.15314266 0.00552924 0.08204301 255 12 12
-0.15292233 0.00553113 0.08394291 255 12 12
-0.15372374 0.00543769 0.08652091 255 12 12
-0.15407619 0.00538583 0.08883502 255 12 12
-0.15289417 0.00547586 0.09027151 255 12 12
-0.15232305 0.00550903 0.09209764 255 12 12
-0.15193304 0.00552515 0.09406008 255 12 12
-0.15112495 0.00558061 0.09570988 255 12 12
-0.15169853 0.00550612 0.09838988 255 12 12
-0.15224830 0.00543375 0.10106362 255 12 12
-0.15172494 0.00546125 0.10305498 255 12 12
-0.15119641 0.00548950 0.10501369 255 12 12
-0.16129180 0.00446453 0.12081086 255 12 12
-0.16647916 0.00391964 0.13092622 255 12 12
-0.16653929 0.00388729 0.13389776 255 12 12
-0.16596023 0.00391478 0.13642236 255 12 12
-0.16570506 0.00391087 0.13929086 255 12 12
-0.16521977 0.00392851 0.14199951 255 12 12
-0.16497291 0.00392141 0.14513858 255 12 12
-0.16611318 0.00378058 0.14966912 255 12 12
-0.17545086 0.00277605 0.17047362 255 12 12
-0.17663045 0.00262428 0.17582793 255 12 12
-0.17823890 0.00242984 0.18175780 255 12 12
-0.19523370 0.00058960 0.22093374 255 12 12
-0.19419480 0.00064371 0.22493931 255 12 12
-0.19296481 0.00071361 0.22904042 255 12 12
-0.19216089 0.00074122 0.23370304 255 12 12
-0.19132747 0.00077168 0.23833478 255 12 12
-0.19162848 0.00068584 0.24486493 255 12 12
-0.19332596 0.00045976 0.25341179 255 12 12
-0.19394637 0.00033796 0.26082940 255 12 12
-1.07547133 -0.08950575 1.67796499 255 12 12
-1.05357892 -0.08772827 1.69250916 255 12 12
-1.03592293 -0.08635729 1.71109345 255 12 12
-1.01808807 -0.08497102 1.72971339 255 12 12
-0.99921484 -0.08348056 1.74684348 255 12 12
-0.98209372 -0.08214397 1.76408214 255 12 12
-0.96490751 -0.08082501 1.78387654 255 12 12
-0.94783617 -0.07952272 1.80439943 255 12 12
-0.92829102 -0.07796442 1.82051912 255 12 12
-0.90836483 -0.07639175 1.83870899 255 12 12
-0.88936156 -0.07490995 1.85803145 255 12 12
-0.87072582 -0.07346051 1.87738650 255 12 12
-0.85173328 -0.07199078 1.89792970 255 12 12
-0.83142000 -0.07041023 1.91895757 255 12 12
-0.81108873 -0.06880748 1.93772437 255 12 12
-0.79050559 -0.06718294 1.95651085 255 12 12
-0.76966400 -0.06553600 1.97531471 255 12 12
-0.74997608 -0.06399483 1.99467746 255 12 12
-0.72950299 -0.06240411 2.01611846 255 12 12
-0.70852123 -0.06074814 2.03527314 255 12 12
-0.68708091 -0.05906486 2.05581895 255 12 12
-0.66706398 -0.05750331 2.07609464 255 12 12
-0.64432609 -0.05566853 2.09244434 255 12 12
-0.62135250 -0.05381309 2.10878421 255 12 12
-0.59755224 -0.05186560 2.12294018 255 12 12
-0.57163917 -0.04973096 2.13678839 255 12 12
-0.54750666 -0.04777940 2.15367568 255 12 12
-0.52356819 -0.04583880 2.16990898 255 12 12
-0.49840360 -0.04377658 2.18453739 255 12 12
-0.47280225 -0.04166686 2.19813586 255 12 12
-0.44684184 -0.03951856 2.21093948 255 12 12
-0.42114512 -0.03738495 2.22283253 255 12 12
-0.39506323 -0.03524065 2.23723632 255 12 12
-0.36959216 -0.03316399 2.25321324 255 12 12
-0.34282795 -0.03095003 2.26650735 255 12 12
-0.31646435 -0.02877188 2.27989582 255 12 12
-0.28954114 -0.02656991 2.29602507 255 12 12
-0.26218466 -0.02432038 2.31108549 255 12 12
-0.23455945 -0.02205120 2.32656180 255 12 12
-0.20727466 -0.01981504 2.34240105 255 12 12
-0.17909223 -0.01751162 2.35945341 255 12 12
-0.15313373 -0.01540696 2.37702280 255 12 12
-0.12477211 -0.01307248 2.39238434 255 12 12
-0.09671193 -0.01076327 2.40763245 255 12 12
-0.06771466 -0.00840810 2.42680603 255 12 12
-0.03627049 -0.00582030 2.44388206 255 12 12
-0.00576150 -0.00326937 2.45605548 255 12 12
0.02450231 -0.00078660 2.47335433 255 12 12
0.05592513 0.00178502 2.49199969 255 12 12
