ply
format ascii 1.0
element vertex 1137
property float x
property float y
property float z
property uchar red
property uchar green
property uchar blue
end_header
0.14674516 0.30378816 1.39246995 14 15 15
0.14709736 0.30598561 1.40945768 14 15 15
0.14555922 0.31093964 1.42679453 14 15 15
0.14757531 0.31456666 1.44912201 14 15 15
0.15378609 0.31772366 1.51594377 15 16 17
0.15163341 0.31287256 1.52427053 13 14 16
0.15783257 0.30602025 1.55450098 11 12 14
0.14756046 0.31474403 1.57695699 11 12 14
0.14895233 0.31649606 1.59117943 12 13 15
0.14023328 0.30830419 1.60680473 14 15 17
0.14330658 0.31096300 1.62733901 14 15 17
0.14598998 0.31964341 1.67276549 13 14 16
0.14947094 0.32308064 1.47342706 14 15 15
0.15184726 0.33109533 1.48901466 14 15 15
0.15092239 0.33222719 1.50326812 14 15 15
0.15851793 0.32436725 1.55055439 14 15 17
0.15814735 0.32668939 1.56873274 14 15 17
0.14863357 0.32070231 1.59506879 11 12 14
0.15932135 0.32633716 1.62733901 12 13 15
0.14978164 0.35185501 1.03831029 41 36 38
0.15023227 0.35220516 1.04114398 41 36 38
0.15779830 0.37898755 1.13121171 41 36 37
0.15191288 0.38103911 1.13650719 40 36 37
0.15274895 0.38558446 1.15587878 40 38 38
0.15121774 0.38794681 1.16158974 40 37 38
0.15611129 0.39596013 1.18838909 39 38 38
0.15883057 0.40364344 1.95006719 14 15 15
0.14898559 0.40941994 1.98450987 13 14 14
0.14079466 0.41080391 2.00140309 14 15 15
0.14025241 0.43793648 1.35107982 26 27 27
0.15256973 0.42237945 2.05385923 14 15 15
0.14810593 0.42337174 2.07057436 14 16 16
0.15060265 0.42815328 2.09396780 14 16 16
0.14877333 0.42952583 2.10915642 13 17 17
0.14554155 0.43269930 2.12232137 13 17 17
0.14128861 0.43759912 2.14015603 14 17 16
0.14100042 0.44134152 1.35828567 26 27 28
0.14084228 0.44359457 1.36191982 26 27 29
0.14378961 0.46705856 1.42477512 27 28 28
0.14324275 0.55056667 1.75004023 14 22 19
0.14549444 0.55255511 1.76248133 16 23 20
0.14823999 0.55960673 1.78721797 16 22 20
0.15759891 1.15865779 4.78269577 15 19 20
0.15380258 1.16639304 4.80525589 14 18 19
0.15054041 1.17154083 4.82802963 14 18 19
0.15294035 1.17699564 4.87423086 13 17 18
0.15560357 1.17879844 4.89766455 13 17 18
0.14839292 1.18666744 4.85101986 15 19 20
0.14680048 1.19081032 4.87423086 14 18 19
0.14789183 1.18651015 4.89766455 13 17 18
0.14279456 1.19999099 4.92132473 13 17 18
0.14738104 1.19802964 4.94521475 13 17 18
0.14279456 1.20386553 4.92132473 14 18 19
0.14348774 1.20192289 4.94521475 13 17 18
0.14882594 1.20584353 4.99369717 13 17 18
0.15668888 1.34934211 4.99369717 14 15 15
0.16983162 -0.08567178 0.40438153 45 43 49
0.16032868 -0.08289832 0.43491584 46 43 50
0.16225704 -0.08615026 0.44494217 47 43 52
0.16947032 -0.07310356 0.40705340 44 42 47
0.17689226 -0.06237819 0.42786116 44 41 45
0.16142504 -0.07287498 0.45346566 44 42 47
0.16106448 -0.07407887 0.46458328 45 43 48
0.16986939 -0.07763514 0.49442490 44 42 47
0.16550560 -0.05052897 0.40732565 42 40 44
0.17090565 -0.05826411 0.42184965 42 39 45
0.16914268 -0.05436295 0.44725150 41 40 44
0.16305462 -0.03689562 0.40220792 39 38 42
0.16469868 -0.02983685 0.42812076 39 37 42
0.16220902 -0.02839364 0.44280116 38 38 41
0.16870144 -0.00841659 0.40556028 37 35 39
0.16705231 -0.00831576 0.42584839 36 34 39
0.16682715 0.01046417 0.40624004 35 33 37
0.16496065 0.01261265 0.42653103 35 31 37
0.17665521 0.00129409 0.45917293 35 31 38
0.17764433 0.00429448 0.46599412 35 32 38
0.16525411 0.02726967 0.40525685 35 32 37
0.16555266 0.03632076 0.43450323 33 31 34
0.16586961 0.04896776 0.41156822 27 25 26
0.16391174 0.04243761 0.42174072 35 30 34
0.16909658 0.05151336 0.46837482 32 28 30
0.16415223 0.07172668 0.40634765 47 40 42
0.16448525 0.07368859 0.42450213 47 40 42
0.16740841 0.09036454 0.40296671 49 42 44
0.16674731 0.11057515 0.40337666 50 42 44
0.16068442 0.10898222 0.42350720 50 41 43
0.16980257 0.10970519 1.27583740 14 14 16
0.17380361 0.11052569 1.29508644 15 15 17
0.17386526 0.11425776 1.30735572 12 12 14
0.17424640 0.11375832 1.32150403 9 10 12
0.16964722 0.12839443 0.40264057 49 43 45
0.17755786 0.12094129 1.31617039 18 18 20
0.16339861 0.13886895 1.51498033 10 11 13
0.16722691 0.14378009 1.51409684 10 10 12
0.17026567 0.14543394 1.52668488 10 11 13
0.17872626 0.14569721 1.54584861 10 11 13
0.17676713 0.20610487 1.35580176 24 24 26
0.17713893 0.20323533 1.36070518 19 19 21
0.16409253 0.25161414 1.48500609 13 14 16
0.16440129 0.25614522 1.51192809 13 14 16
0.16173042 0.25828932 1.52617133 14 15 17
0.16896905 0.25153417 1.55687431 11 12 12
0.16981921 0.25609479 1.57614704 10 12 13
0.17338728 0.25754501 1.58762234 10 12 13
0.16997957 0.25976412 1.61701481 10 12 12
0.16477263 0.26022705 1.51820302 14 15 17
0.16534748 0.26369750 1.53049716 13 14 16
0.16956479 0.27424232 1.55255442 13 14 16
0.17079090 0.27765937 1.56839014 12 13 15
0.17519538 0.27331962 1.58842789 12 13 15
0.16976721 0.26124939 1.61700666 11 12 12
0.17143385 0.26977376 1.62900805 11 12 14
0.17154341 0.26985895 1.64914209 11 12 13
0.17352621 0.27474958 1.67003901 10 11 13
0.16640027 0.28623911 1.51669685 13 14 16
0.16722751 0.28883702 1.53153384 13 14 16
0.16998562 0.29500128 1.54938059 12 13 15
0.17256379 0.28220701 1.56725264 14 15 17
0.17616194 0.29396819 1.59423196 15 16 16
0.17727162 0.29392543 1.60427439 15 16 18
0.17007555 0.28280999 1.63460750 13 14 16
0.17255860 0.28831855 1.64893769 11 12 14
0.17335779 0.29457904 1.67003222 13 14 16
0.17869878 0.28026238 1.68940997 12 13 15
0.17810625 0.28355405 1.70925200 11 12 14
0.17727752 0.28546995 1.72080100 11 12 14
0.16717026 0.30705084 1.41524063 14 15 15
0.16933373 0.31046498 1.43005474 14 15 15
0.17264600 0.31645657 1.44816522 14 15 15
0.16162315 0.31978604 1.46788788 14 15 15
0.16874903 0.30373220 1.55033187 13 14 16
0.16998078 0.30867709 1.57155972 12 13 15
0.17012830 0.31360449 1.58929554 12 13 15
0.17119701 0.31240977 1.61794148 12 13 15
0.17026243 0.31236469 1.62865728 13 14 16
0.17195625 0.31246644 1.64708519 15 16 17
0.17653742 0.30829675 1.67136014 14 15 17
0.17551589 0.30959863 1.68622393 13 14 16
0.17792199 0.31353612 1.70926250 13 14 16
0.16644207 0.32025149 1.45947599 14 15 15
0.16684425 0.32314689 1.47319930 14 15 15
0.17342761 0.33054142 1.48633713 14 15 16
0.16580347 0.33266056 1.50463653 13 14 14
0.17097844 0.32213892 1.59549211 13 14 16
0.17003683 0.33050790 1.61319107 14 15 17
0.17303816 0.33809424 1.62540595 14 15 16
0.16258398 0.33704109 1.67414346 12 13 14
0.17818127 0.32087394 1.71212792 14 16 18
0.17848350 0.32423934 1.73250723 15 16 18
0.17138991 0.35208944 1.03863183 43 36 39
0.16861386 0.35234154 1.04180526 43 36 38
0.17879948 0.35016879 1.52365763 14 15 17
0.16889721 0.34562841 1.61274920 14 15 15
0.17282187 0.34594620 1.63128122 14 15 15
0.17818241 0.34887994 1.64517485 14 15 15
0.17934708 0.35870171 1.66456568 15 16 16
0.17399517 0.37613642 1.11701119 42 36 38
0.17363107 0.37942654 1.13316797 42 36 38
0.17934708 0.36001220 1.66456568 15 16 16
0.16863883 0.38098741 1.13620109 41 36 38
0.17140318 0.38660789 1.15894675 40 36 37
0.17166424 0.38771123 1.16225427 39 35 36
0.17246322 0.39622234 1.19101368 39 35 36
0.17240369 0.39981183 1.94040799 14 14 15
0.16761676 0.40317940 1.94957556 14 15 15
0.17152412 0.40523253 1.97425979 14 15 15
0.16816284 0.40839920 1.98968756 14 15 15
0.17399505 0.41083524 2.00732452 14 15 15
0.17550429 0.41578515 2.03661504 12 13 13
0.17742730 0.41624470 2.05150972 12 13 13
0.17442204 0.41904608 2.07336863 14 15 16
0.17391986 0.42196926 2.06930418 13 14 14
0.17301466 0.42621367 2.09253601 14 15 15
0.16744713 0.42927770 2.10709640 15 16 16
0.16149839 0.43178032 2.12232137 15 17 17
0.17165843 0.48433212 1.45018655 33 33 34
0.17252116 0.49224040 1.47213042 34 34 35
0.17414203 0.49670108 1.48198247 34 33 34
0.17482357 0.50199784 1.49429297 34 33 34
0.17610566 0.50858267 1.51033252 35 34 34
0.17758128 0.51660308 1.53594545 35 34 34
0.17770014 0.51653914 1.54117131 34 33 34
0.17791632 0.52060491 1.53884327 34 33 33
0.17697214 0.52017921 1.54117131 35 34 34
0.17973718 1.13944101 4.67300081 14 18 19
0.17973718 1.14312005 4.67300081 15 19 20
0.17851482 1.15720534 4.73820543 14 18 19
0.17934901 1.15699124 4.76034689 13 17 18
0.17851482 1.16280079 4.73820543 13 17 18
0.17642567 1.16807115 4.78269577 13 17 18
0.17725787 1.17925560 4.80525589 13 17 18
0.17049587 1.16964030 4.82802963 13 17 18
0.17894603 1.17521000 4.85101986 13 17 18
0.16138735 1.17879844 4.89766455 13 17 18
0.17681080 1.18843806 4.89766455 13 17 18
0.17852741 1.19413638 4.94521475 13 17 18
0.17634621 1.20977497 4.99369717 13 17 18
0.16586230 1.34999736 4.99369717 14 14 14
0.18941972 -0.08872852 0.40527399 46 45 49
0.19296228 -0.08276508 0.43360371 48 43 49
0.19191907 -0.08662953 0.44336616 48 44 50
0.18883439 -0.07129990 0.40616060 44 42 47
0.19151822 -0.06232530 0.43003958 44 43 48
0.18166943 -0.07787566 0.49559307 42 40 45
0.19239147 -0.05148318 0.40344677 42 41 45
0.18034564 -0.05328642 0.45187621 41 40 45
0.19849376 -0.02602174 1.55291796 21 21 24
0.19696054 -0.02401326 1.57245617 18 17 21
0.19531460 -0.02570027 1.58329069 16 16 18
0.18426545 -0.00556619 0.41825337 37 34 40
0.18874662 -0.00843772 0.42561786 38 35 40
0.19622113 -0.01233885 1.56997479 16 17 21
0.19678749 -0.01824271 1.58514088 16 16 17
0.18014021 0.00134184 0.45867366 36 32 37
0.18172796 0.00484462 0.46945552 35 32 38
0.18636106 0.09526668 0.40214136 49 43 46
0.18375039 0.11970892 0.40043798 48 44 44
0.18913055 0.12992791 0.40351688 50 43 44
0.18689472 0.13863571 1.51220383 11 11 13
0.18324772 0.13992287 1.52274168 11 12 14
0.19125718 0.14357067 1.47484086 16 17 20
0.19061489 0.14632994 1.49029828 15 16 18
0.18922649 0.14728275 1.51138874 13 14 16
0.18322052 0.14796726 1.52703893 11 11 13
0.18392377 0.15215995 1.54350638 11 12 14
0.18782945 0.17043288 1.41291845 10 10 12
0.19057537 0.17449140 1.44499246 10 10 12
0.19301395 0.17863721 1.47373286 9 9 11
0.19360287 0.17938994 1.48717403 10 10 12
0.19538238 0.17467244 1.51231416 12 13 15
0.19296119 0.17665427 1.52752937 14 14 16
0.18719716 0.17727789 1.54769648 11 12 14
0.19177896 0.17936969 1.59363830 11 12 14
0.19301745 0.18114619 1.48717403 9 9 11
0.19567574 0.18084108 1.51072558 12 13 14
0.19134538 0.18130305 1.53138138 11 12 14
0.18663418 0.18172301 1.54978957 12 13 15
0.18743929 0.18304911 1.57404118 12 13 15
0.18948793 0.18180042 1.59126449 11 11 13
0.19124723 0.18243315 1.61240857 11 11 13
0.19231646 0.18274701 1.62647386 10 12 14
0.19308343 0.18567430 1.64919410 10 11 12
0.19539221 0.18536478 1.66729009 10 11 13
0.18153955 0.20415311 1.37701542 14 14 17
0.18198130 0.20291294 1.38037157 9 10 12
0.18517780 0.21085683 1.42677057 12 13 15
0.18646615 0.21276470 1.45323516 10 11 13
0.18840478 0.21734361 1.47854018 12 13 15
0.18474858 0.23806149 1.41488087 31 30 30
0.18491881 0.23972626 1.42477512 30 29 29
0.18837238 0.23506026 1.46922171 22 22 24
0.18884273 0.23745112 1.48198247 20 21 23
0.19007664 0.22812369 1.50861603 16 17 19
0.18942281 0.22996629 1.53193766 14 15 17
0.18961428 0.22917998 1.54878225 14 15 17
0.18841772 0.23021315 1.56777279 14 15 17
0.18862115 0.23619253 1.58555219 13 14 16
0.19113536 0.23657149 1.60934317 14 15 17
0.18560916 0.24101663 1.42577285 29 29 29
0.18754017 0.24579006 1.45468680 26 26 26
0.18859681 0.24957733 1.47640111 25 25 25
0.18946224 0.25355465 1.49298688 23 23 24
0.19013126 0.24734937 1.51248139 18 19 21
0.19059605 0.25151725 1.53472780 16 18 20
0.19366281 0.25125315 1.55436788 16 17 19
0.19313250 0.25393393 1.56899083 15 16 18
0.19322065 0.25787686 1.58785644 14 15 17
0.18716530 0.25940279 1.60427439 13 14 16
0.19404914 0.24904583 1.67434674 11 12 14
0.19553920 0.25394325 1.69128708 10 12 13
0.19455258 0.25249931 1.70401102 13 14 16
0.19082946 0.26129859 1.53554337 18 18 20
0.19065736 0.26339708 1.55214410 15 16 18
0.19224662 0.27637327 1.56717810 16 17 19
0.19508287 0.27295344 1.59071009 15 16 18
0.19362843 0.26912809 1.60508265 14 15 17
0.19260756 0.26918530 1.63096540 13 14 16
0.19631194 0.27175125 1.65606422 14 15 17
0.19361015 0.27364301 1.67025357 13 14 16
0.19332265 0.27635779 1.68677913 12 13 15
0.19427519 0.27992338 1.70353544 13 14 16
0.18462759 0.28954333 1.53420818 15 16 18
0.18635414 0.29251334 1.54350638 15 16 18
0.19223625 0.28204974 1.57177157 16 17 18
0.19439257 0.28683938 1.59291339 16 17 18
0.19614557 0.29065877 1.61131410 15 16 17
0.19149504 0.28744999 1.63208754 14 15 16
0.19521190 0.28882690 1.65060649 14 15 17
0.19508502 0.29036756 1.67326220 14 15 17
0.19673994 0.28898956 1.68826078 14 15 17
0.19577753 0.28969043 1.71003220 13 14 16
0.19250658 0.28867048 1.72738700 12 13 15
0.19130251 0.29374094 1.74787725 13 14 16
0.19201284 0.29672178 1.76765589 11 12 14
0.19804789 0.30690830 1.41292322 37 31 35
0.19707337 0.31010447 1.42345218 37 31 35
0.19920418 0.31491858 1.44293797 37 31 35
0.19166999 0.31920820 1.46788788 32 29 32
0.18410009 0.31746235 1.52981415 16 16 18
0.18801175 0.30549525 1.55469841 15 16 18
0.18969645 0.31064846 1.57267235 15 16 18
0.18992805 0.31367111 1.59136987 15 16 17
0.19419801 0.30814072 1.61053887 15 16 18
0.19305552 0.31027058 1.62735253 14 15 17
0.19222746 0.31266597 1.64955755 14 15 16
0.19536017 0.31164579 1.67164724 14 15 16
0.19668927 0.31404004 1.68866363 14 15 16
0.19342441 0.31255016 1.70970704 14 15 17
0.19641400 0.31190960 1.72579102 14 15 17
0.19613680 0.31469641 1.75380592 14 15 17
0.19804207 0.31054313 1.76706851 12 13 15
0.18179306 0.32302824 1.47213042 18 18 18
0.18740182 0.32870393 1.48864051 22 22 23
0.19700339 0.33501357 1.50901106 30 28 30
0.19121067 0.33226436 1.53320359 20 20 21
0.18963580 0.32225297 1.55213010 17 18 20
0.19345967 0.32508332 1.56894853 19 19 21
0.18931354 0.32809472 1.59095856 16 16 18
0.19147078 0.33082371 1.61308846 15 16 17
0.18404449 0.33364046 1.62620028 14 15 16
0.18963185 0.33386415 1.67277586 14 15 15
0.19202738 0.32175677 1.68382514 13 14 16
0.19441023 0.32735704 1.71129104 14 15 17
0.19580490 0.32877139 1.72511750 13 14 16
0.19566625 0.32502233 1.74586970 13 14 16
0.18832513 0.35119804 1.03629296 44 37 39
0.19361433 0.35245585 1.04293202 43 38 39
0.19773124 0.35263645 1.51485570 33 30 30
0.19195992 0.34899265 1.52727259 25 24 24
0.19908958 0.35399739 1.54670753 29 27 27
0.19029022 0.34129792 1.59286624 14 15 15
0.19110066 0.34438963 1.61175913 14 15 15
0.18879654 0.34584255 1.63059699 14 15 15
0.18274160 0.35252482 1.64789295 14 15 15
0.18134411 0.35909781 1.66185021 14 15 15
0.18689777 0.37946208 1.13484720 44 35 38
0.19734816 0.36068898 1.51594377 34 30 31
0.19829291 0.36396986 1.53479716 33 29 30
0.19857540 0.36484607 1.54878700 30 27 27
0.18167120 0.36073324 1.66185021 14 15 15
0.18880171 0.38085007 1.13552445 44 35 38
0.18329115 0.38187259 1.14205635 44 35 38
0.18665635 0.39130277 1.17163952 43 36 38
0.18746589 0.39686290 1.19118434 42 37 38
0.19538431 0.40216371 1.20557892 42 36 38
0.18947128 0.40313760 1.94578430 15 16 18
0.18768034 0.40677311 1.96854645 14 15 17
0.18545537 0.40836811 1.98193431 14 15 17
0.19080333 0.41161260 2.00534296 14 15 16
0.18864306 0.41859939 2.03742838 14 15 16
0.19131198 0.41812632 2.04809041 13 14 15
0.19056863 0.42480490 2.05385923 14 15 17
0.18697772 0.42279685 2.06775737 13 14 14
0.19765415 0.42683515 2.09468516 13 14 14
0.19299804 0.42845370 2.10479320 12 13 13
0.19941660 0.51810733 1.54585568 41 37 38
0.18153995 0.52139404 1.56484890 34 33 35
0.18481389 0.52837864 1.59524356 33 33 35
0.18470041 0.53835505 1.61957741 33 33 34
0.18650672 0.53749594 1.63219365 32 32 34
0.18346700 0.54259736 1.63255489 32 32 34
0.18542273 0.54406688 1.64866735 32 32 33
0.18728972 0.54582795 1.66293640 32 32 33
0.18836176 0.55333477 1.68661296 32 32 34
0.18864858 0.79795800 2.89202482 31 26 26
0.19674364 0.81166372 2.91063583 36 28 27
0.19641778 0.80944154 2.93155777 32 27 27
0.19842438 0.81298238 2.95279479 30 26 25
0.18274087 1.12578803 4.60956669 15 19 20
0.18357152 1.13637352 4.63051939 15 19 20
0.18525566 1.13576198 4.67300081 15 19 20
0.18440975 1.14522469 4.65166330 14 18 19
0.18795734 1.14838783 4.69453573 15 19 20
0.18224514 1.15160990 4.73820543 14 18 19
0.19059226 1.15449270 4.76034689 14 19 20
0.18511446 1.16484356 4.71626949 13 17 18
0.18846234 1.16653117 4.73820543 13 17 18
0.19434002 1.17198229 4.76034689 14 18 19
0.19901776 1.16995382 4.78269577 15 19 20
0.19112926 1.16412318 4.80525589 14 19 20
0.18696704 1.16710631 4.82802963 14 17 19
0.19422258 1.16884478 4.85101986 14 18 19
0.19259361 1.17571648 4.87423086 14 18 19
0.18837839 1.17751312 4.89766455 13 17 18
0.19087706 1.18606520 4.80525589 13 17 18
0.18066667 1.18265426 4.89766455 13 17 18
0.18242072 1.19024301 4.94521475 13 17 18
0.19316292 1.21936345 4.92132473 12 16 17
0.19113515 1.26451415 4.96933746 9 13 14
0.19030632 1.32724911 4.89766455 18 18 18
0.18670544 1.33172365 4.92132473 16 16 16
0.19020730 1.33559279 4.94521475 16 16 16
0.18578174 1.34501750 4.99369717 14 15 15
0.20835536 -0.08927626 0.40570525 45 44 47
0.20365842 -0.08203150 0.43270322 44 43 46
0.21787849 -0.08360315 0.46762915 43 43 46
0.20889286 -0.07234890 0.40636226 42 41 46
0.21512055 -0.06343340 0.42751486 42 41 44
0.20698024 -0.05367671 0.41088288 41 40 43
0.20977078 -0.05795037 0.42188310 41 41 45
0.20027634 -0.00162989 0.42641880 39 34 40
0.20001678 -0.01518041 1.56966746 18 19 23
0.20183550 0.09755620 0.40043798 50 43 44
0.20926192 0.13185433 0.40265150 49 44 45
0.20658898 0.25654078 1.59174097 26 26 28
0.20458154 0.27881658 1.56486545 33 29 30
0.20343720 0.27070411 1.58679765 26 24 25
0.20169809 0.27812381 1.61274381 19 19 21
0.20325423 0.27155714 1.62809128 17 18 20
0.21031414 0.27159203 1.65339565 23 23 24
0.21426650 0.27537266 1.67004327 26 25 25
0.21593742 0.27959703 1.68941462 25 25 25
0.20392350 0.29394792 1.55031806 34 30 32
0.20448508 0.28776930 1.56486097 31 29 29
0.20761382 0.28875521 1.58681313 32 29 30
0.20751627 0.28308530 1.61259716 27 25 26
0.20997310 0.28812330 1.63179692 26 25 26
0.21221758 0.29075135 1.64759533 27 25 26
0.21020679 0.29393949 1.66548808 23 22 23
0.21583766 0.28174761 1.69034541 25 25 25
0.21194964 0.28570139 1.71173363 19 20 21
0.20471079 0.28950068 1.72665411 16 17 18
0.20042019 0.29548097 1.75340494 14 14 17
0.20030303 0.29757687 1.76860106 13 14 16
0.20286092 0.30658333 1.40816711 39 33 37
0.20062608 0.31932589 1.46577585 37 31 35
0.20260668 0.31776302 1.53317026 31 30 31
0.20458238 0.30866099 1.55346045 32 30 30
0.20600123 0.31105322 1.56776724 31 29 29
0.21116717 0.31686952 1.59054685 30 29 30
0.20411992 0.31555205 1.60514100 23 23 24
0.20854818 0.31028609 1.63152589 25 24 25
0.20885325 0.31412264 1.65120662 22 22 23
0.21194818 0.31044735 1.67126102 22 22 23
0.21095155 0.30998524 1.68358266 20 20 21
0.20131822 0.30609793 1.70927367 14 15 17
0.20098879 0.30868280 1.72832217 15 16 17
0.20217409 0.32260967 1.47285996 36 31 34
0.20724270 0.32905533 1.49154881 37 32 36
0.20327859 0.33312672 1.51056407 35 31 34
0.20151425 0.32447376 1.53011210 31 29 31
0.20264221 0.32777721 1.54984847 29 29 29
0.20166354 0.32797941 1.56581655 26 25 26
0.20358958 0.33058926 1.59140339 24 24 25
0.20438773 0.33041422 1.60979572 22 22 23
0.20336020 0.33389629 1.63157074 19 19 21
0.20521552 0.33453820 1.64883051 18 18 20
0.20968565 0.33239881 1.66813485 21 21 23
0.20050246 0.35101392 1.51723477 33 31 31
0.20092987 0.34620410 1.52046895 35 31 31
0.20156506 0.35672174 1.57210481 28 26 26
0.20501342 0.34390676 1.58926325 27 25 27
0.20881947 0.34479977 1.61447363 26 26 27
0.20692825 0.34854350 1.63101510 22 21 22
0.20623185 0.35747844 1.64486734 19 20 20
0.21126211 0.34066043 1.66820709 23 23 25
0.20172218 0.36369222 1.57817942 27 26 26
0.20369299 0.37107590 1.59112984 29 26 27
0.20587434 0.36482869 1.61064053 27 25 26
0.20525028 0.36290383 1.63430325 20 20 20
0.20733579 0.37160003 1.64875721 22 22 22
0.20739530 0.37475521 1.66702207 18 19 19
0.20667066 0.38479809 1.61192590 32 28 29
0.20754830 0.38907694 1.63255489 30 26 27
0.20735825 0.39292008 1.64868499 28 25 26
0.20631318 0.39591502 1.66779757 25 24 24
0.20861137 0.38492890 1.68568675 21 21 21
0.21352572 0.39551089 1.70816418 23 23 23
0.21319619 0.39871946 1.72861313 21 21 21
0.21281863 0.40334958 1.72665411 22 22 22
0.21504410 0.40816054 1.74139178 23 23 23
0.20527665 0.40569778 1.95280838 14 15 17
0.20892387 0.40807429 1.96863955 14 15 17
0.21026762 0.40956685 1.98775208 14 15 17
0.21347498 0.41241929 2.00773172 14 15 17
0.21777859 0.41487935 2.02125835 14 15 17
0.20700395 0.41934231 2.04562744 14 15 16
0.21819940 0.41847904 2.07056300 14 14 14
0.21687748 0.42080238 2.05800843 14 15 15
0.21343077 0.42302849 2.07324867 14 15 15
0.20665535 0.42470847 2.08985908 13 14 15
0.21464693 0.42955099 2.11177278 14 15 15
0.20376603 0.46207596 1.59036741 26 27 29
0.20538155 0.46390101 1.60680473 29 29 30
0.20577216 0.47403836 1.62964234 25 27 28
0.20743154 0.47373170 1.64309168 29 28 30
0.20783957 0.48295133 1.63780415 29 29 31
0.20838951 0.48781877 1.64044154 31 28 29
0.20914657 0.49156839 1.66185021 28 27 29
0.21191216 0.48481193 1.68382514 29 28 30
0.21645784 0.49078727 1.70925200 28 30 30
0.21729611 0.49596312 1.73203353 26 29 29
0.20278673 0.51997900 1.56244516 39 38 38
0.20505811 0.51748043 1.60427439 35 34 35
0.20725444 0.51796233 1.63367794 33 33 35
0.21766868 0.50955585 1.72956574 28 28 30
0.21833106 0.50622784 1.76707119 24 27 27
0.20155664 0.52120912 1.56244516 40 38 38
0.20630288 0.53222340 1.59923744 39 38 38
0.20731097 0.52831405 1.62995527 35 34 34
0.20723143 0.52586300 1.64765542 34 33 34
0.20657560 0.53352626 1.66827961 33 32 33
0.20645823 0.53851199 1.68802071 32 31 33
0.20739793 0.54322010 1.63518161 36 35 36
0.20787934 0.54611992 1.64946695 35 34 36
0.21131016 0.55175420 1.67025383 37 35 37
0.20813259 0.55426061 1.68542874 35 34 36
0.20848450 0.54639393 1.70639849 33 32 33
0.21463273 0.54917958 1.73135457 33 32 33
0.21431519 0.55128388 1.75036812 30 31 32
0.21801166 0.55679735 1.77056036 31 31 32
0.21152610 0.56024730 1.67551684 40 37 38
0.20987456 0.56638495 1.70998423 36 35 37
0.21079552 0.56723049 1.72642709 35 33 35
0.21384046 0.57344767 1.75213069 34 33 35
0.21605385 0.57145956 1.76758716 34 32 33
0.21634469 0.57580356 1.78377932 34 32 32
0.21100296 0.58076125 1.75338078 36 34 37
0.21567824 0.58252305 1.78722892 34 33 34
0.21679988 0.58603028 1.80945055 33 32 32
0.21787246 0.59213978 1.82238674 34 33 33
0.21931872 0.60548931 1.85896754 33 33 35
0.21657696 0.63582665 1.99552435 24 27 27
0.21506267 0.63930672 2.01497773 23 26 26
0.21522734 0.63192043 2.03285939 22 26 26
0.21674624 0.63842651 2.04151154 23 26 25
0.21417103 0.64275241 2.01725578 23 27 28
0.21619467 0.65086974 2.03113857 25 27 27
0.21557330 0.65304493 2.04625493 24 27 27
0.21406946 0.65381771 2.06217456 25 28 27
0.21466935 0.66078474 2.03201151 27 28 29
0.21570026 0.66905022 2.04824363 28 29 30
0.21712260 0.67419243 2.06343453 29 30 30
0.21841836 0.66210476 2.09611988 25 27 27
0.20189530 0.80596256 2.91895199 33 27 27
0.20132313 0.81058317 2.92733979 35 28 28
0.20191142 0.81298238 2.95279479 30 26 25
0.21209368 0.84908044 3.03188753 39 29 27
0.20976182 0.84696102 3.05004263 38 29 30
0.21042152 0.85447890 3.06841636 39 28 29
0.20865884 0.85965753 3.08701277 39 29 30
0.21108921 0.86330310 3.08701277 40 29 29
0.20993115 0.86856714 3.10583591 40 29 30
0.21193935 0.86587274 3.15391397 29 25 24
0.21836814 0.87044466 3.19346142 26 25 23
0.21721584 0.87593642 3.21360946 25 25 24
0.21157164 0.88691445 3.16699394 40 29 29
0.21790323 0.88251543 3.22377920 28 25 24
0.21796804 0.89670378 3.27560830 27 25 24
0.21333134 0.91027296 3.24431276 40 29 29
0.21823997 0.91641292 3.28617477 39 28 30
0.21978229 0.90742433 3.32913136 25 25 25
0.21435922 0.92029363 3.28617477 40 29 30
0.21978229 0.92708164 3.32913136 39 28 30
0.21787332 0.92486215 3.34004664 34 28 28
0.21555699 0.92911022 3.41164412 23 23 23
0.21817562 0.93582263 3.44160199 23 23 23
0.20816217 1.16726429 4.78269577 15 19 20
0.20373963 1.17358094 4.80525589 15 19 20
0.21382771 1.16964030 4.82802963 16 20 21
0.20758958 1.17330045 4.85101986 16 20 21
0.20666412 1.17699564 4.87423086 16 20 21
0.21344149 1.17879844 4.89766455 15 19 20
0.20752273 1.18303871 4.80525589 14 18 19
0.20280470 1.19054604 4.82802963 13 17 18
0.20380184 1.18265426 4.89766455 16 20 21
0.20866088 1.18255579 4.92132473 14 18 19
0.21746039 1.18634975 4.94521475 15 18 20
0.20580623 1.19311485 4.96933746 14 18 19
0.21050154 1.23839426 4.87423086 11 15 16
0.20383385 1.22528267 4.94521475 12 16 17
0.21050154 1.24223161 4.87423086 12 16 17
0.21151356 1.24357688 4.89766455 10 14 15
0.21097156 1.24994024 4.94521475 9 13 14
0.20779796 1.27071273 4.99369717 11 15 16
0.20933104 1.29191041 4.76034689 19 19 19
0.21784450 1.29421031 4.78269577 18 18 18
0.21508896 1.30031514 4.80525589 18 18 18
0.21357432 1.30394367 4.82802963 17 17 17
0.20949915 1.31269904 4.85101986 18 18 18
0.21433894 1.31130505 4.87423086 15 16 16
0.21536943 1.31760943 4.89766455 15 16 16
0.20765769 1.32339323 4.89766455 17 17 17
0.20866088 1.32784917 4.92132473 17 17 17
0.20707826 1.33169949 4.94521475 15 16 16
0.21069659 1.33297920 4.96933746 14 15 15
0.21762662 1.33558202 4.99369717 14 15 15
0.20578049 1.34402829 4.94521475 22 22 22
0.20287201 1.34080374 4.96933746 17 17 17
0.22104931 -0.08892557 0.40691879 43 43 47
0.22060440 -0.08344431 0.46719631 42 41 44
0.22829601 -0.08356521 0.49657511 43 42 47
0.23793667 -0.08030893 0.50678282 45 41 46
0.22127019 -0.07557574 0.40512706 42 40 47
0.23159305 -0.07715294 0.49351149 43 41 45
0.23751153 -0.07929608 0.50531558 44 42 46
0.23079661 0.00539243 0.40537691 37 35 39
0.23570523 0.02734575 0.40607307 36 33 37
0.23808105 0.04863154 0.40413124 40 35 37
0.23403383 0.09631805 0.40125366 48 45 46
0.23126508 0.10576116 0.40087391 50 44 45
0.22983663 0.13216646 0.40234368 50 44 45
0.23437005 0.25941530 1.60175192 37 29 31
0.23674783 0.27648240 1.60934317 40 31 35
0.23801038 0.27271143 1.62839050 38 30 33
0.22281149 0.26957747 1.65644586 35 31 32
0.22311224 0.27298815 1.67065163 34 30 31
0.22380094 0.27828672 1.68549967 33 30 31
0.23834569 0.28181082 1.63038647 39 30 35
0.22372234 0.28709165 1.65646453 35 29 31
0.22291373 0.29263422 1.66893544 34 30 31
0.22564198 0.29034208 1.68944345 33 30 31
0.22542907 0.28298599 1.70582778 32 31 31
0.22636212 0.28825013 1.72663426 32 30 31
0.23650260 0.29125069 1.75565067 35 31 31
0.23518462 0.29445757 1.76492922 35 30 31
0.23857626 0.29877803 1.78408790 35 31 31
0.23932151 0.30421913 1.38475879 43 35 38
0.23466431 0.30500758 1.55766702 43 34 37
0.23666767 0.30655312 1.56345874 42 34 37
0.22991357 0.31770062 1.59401948 36 33 34
0.23626161 0.31931452 1.60175192 38 33 34
0.22073377 0.31210315 1.63780415 36 31 33
0.22086470 0.31369065 1.64840484 36 31 33
0.22188975 0.31258535 1.66913464 36 31 34
0.22378919 0.31117005 1.68726198 34 31 32
0.22575045 0.30757359 1.70069146 34 32 32
0.22994397 0.32091795 1.59852123 37 32 34
0.23195346 0.32307609 1.61107703 38 33 34
0.23531835 0.33643680 1.67114179 37 32 33
0.23425316 0.33937226 1.68243587 36 31 33
0.22705671 0.34754816 1.63316410 37 32 35
0.23181051 0.35066853 1.64937465 37 32 35
0.23483640 0.34087932 1.68661296 37 31 33
0.22250239 0.41890404 2.07266581 14 15 15
0.22173820 0.42134246 2.05800843 14 14 16
0.22345618 0.42151838 2.07177441 14 15 15
0.22738410 0.42272976 2.08752918 14 15 15
0.22110922 0.50638358 1.77168763 27 28 28
0.22212583 0.52607001 1.78848975 25 27 28
0.22301115 0.52836168 1.80303407 23 27 28
0.22121297 0.55558020 1.77065519 31 31 32
0.22175133 0.57733583 1.77682833 35 33 34
0.22232599 0.57874048 1.78330815 36 33 33
0.22312945 0.58253940 1.80303407 34 33 33
0.22138844 0.59907949 1.86407149 31 30 30
0.22078227 0.60475755 1.85896754 33 33 33
0.22118589 0.60366380 1.86236608 33 32 32
0.22614707 0.60970843 1.90413868 32 31 32
0.22649435 0.61783565 1.92770817 32 31 32
0.23025753 0.63131003 1.97808588 31 31 33
0.23054444 0.62913636 1.98298795 28 29 30
0.23764300 0.84180117 3.02289081 38 29 28
0.23719576 0.85528413 3.06841636 38 29 28
0.22297929 0.87997741 3.22377920 27 25 23
0.23949412 0.88625860 3.17356443 38 29 28
0.23415326 0.89348827 3.18597680 38 29 27
0.23517966 0.89884455 3.21216580 38 29 27
0.22044127 0.88378444 3.22377920 29 25 24
0.22335865 0.89575931 3.29680967 25 24 24
0.23313144 0.90028167 3.22377920 38 29 28
0.23841274 0.91808087 3.29680967 38 29 28
0.23918681 0.90153196 3.30751371 28 26 25
0.23191442 0.91099665 3.34828693 26 24 24
0.23729963 0.91545963 3.37322593 26 25 25
0.23409122 0.91850108 3.38443255 25 24 24
0.23451944 0.92067641 3.29680967 38 29 28
0.22661589 0.92759922 3.34279341 36 28 29
0.22979627 0.92470145 3.39007330 26 25 24
0.22249095 0.92478506 3.41088192 24 23 23
0.22104156 0.93627226 3.43001413 25 25 25
0.22389950 0.93446374 3.45326853 24 24 24
0.22374196 0.94167304 3.43001413 29 26 24
0.22449784 0.94214487 3.44160199 27 25 24
0.22299382 0.94948371 3.47092736 26 25 24
0.22095656 1.17330045 4.85101986 16 20 21
0.22524698 1.19024301 4.94521475 17 19 20
0.22243346 1.19213676 4.96933746 16 18 20
0.22352383 1.33951342 4.99369717 15 16 16
0.24099732 -0.08273496 0.51223091 44 42 48
0.24183657 -0.07800859 0.49704869 43 40 45
0.24671906 -0.00285545 0.40327030 38 35 39
0.25405717 -0.00174833 0.42026165 37 36 38
0.24829107 0.00774672 0.40483680 37 35 39
0.25467637 0.01504397 0.43164682 38 36 39
0.25400341 0.00873969 0.44023952 40 37 40
0.24879145 0.02796527 0.40744630 35 33 37
0.25598892 0.03692928 0.42164654 34 32 36
0.24687345 0.04650996 0.40602975 37 33 35
0.25657134 0.08908397 0.43055758 53 45 47
0.24750315 0.13343982 0.40272084 50 43 45
0.24054796 0.26611578 1.63517535 38 29 30
0.24119636 0.26826882 1.64840484 38 29 30
0.24427469 0.27219065 1.66877211 37 29 31
0.24320376 0.27576353 1.68943359 38 29 31
0.24363394 0.27636409 1.70639133 38 29 30
0.25952327 0.28496992 1.51312983 41 36 39
0.24161877 0.28124299 1.63081904 40 31 35
0.24208257 0.28960096 1.67369583 39 30 34
0.24245750 0.29301321 1.68920336 39 30 34
0.24595383 0.28694199 1.71047529 38 30 32
0.25043702 0.28837328 1.72686140 37 30 31
0.25014745 0.29177708 1.75206726 37 30 31
0.24627900 0.29580101 1.76825743 37 30 30
0.24364342 0.29982823 1.79035890 37 31 30
0.24195550 0.30451492 1.38839771 44 34 38
0.24640636 0.30664586 1.41088409 43 34 38
0.25003039 0.31310062 1.43423540 43 35 38
0.25756387 0.31791574 1.45012918 44 35 38
0.25735140 0.30500758 1.55766702 40 34 36
0.24476694 0.30768128 1.56672808 42 34 37
0.24800183 0.31740132 1.59133501 41 34 36
0.24312328 0.31181651 1.63517952 39 33 35
0.24339064 0.31384642 1.64922453 38 32 34
0.24563926 0.31657110 1.67277232 39 33 35
0.24665937 0.31265882 1.69402761 39 31 34
0.24803398 0.31093113 1.71225735 39 31 34
0.24793676 0.31070292 1.72405779 37 30 33
0.25887182 0.31655771 1.75036812 39 32 34
0.24788824 0.30084091 1.78801140 36 31 31
0.24501557 0.30434357 1.80880890 35 31 31
0.24772777 0.30861342 1.82565272 34 31 32
0.25008400 0.32233600 1.47161463 43 35 38
0.25916940 0.32867092 1.48717403 44 35 38
0.24707930 0.32077468 1.59423867 42 33 36
0.24957299 0.32375130 1.61444414 40 34 36
0.25500257 0.33988723 1.62474358 40 34 38
0.24572641 0.33538758 1.66593009 39 33 35
0.24407315 0.32242593 1.69081312 38 32 34
0.24604587 0.32251814 1.71058974 38 32 35
0.24562675 0.32286302 1.72152892 37 31 35
0.24911082 0.34462392 1.59923744 40 31 36
0.25183454 0.34544138 1.61374890 40 31 36
0.25215996 0.34599428 1.62847445 40 32 36
0.24429330 0.34981459 1.64811819 39 31 34
0.25893888 0.39980724 1.94782829 33 32 32
0.25997528 0.40363598 1.94411111 33 32 32
0.25801697 0.53771752 1.61957741 41 37 38
0.25944176 0.53945553 1.63255489 41 37 38
0.24553661 0.87318191 3.20350385 35 29 29
0.24049422 0.88077092 3.15391397 39 30 29
0.24124110 0.88350624 3.16370869 38 29 28
0.24024254 0.89153445 3.18348193 38 29 28
0.24251613 0.89491165 3.21360946 38 29 29
0.24483316 0.88430524 3.24431276 35 29 29
0.24293463 0.89140467 3.27035904 32 28 27
0.24349593 0.89396443 3.28830175 30 26 25
0.24492827 0.89783367 3.31469615 27 26 24
0.24227896 0.90346175 3.24431276 38 29 29
0.24203722 0.91217685 3.27560830 38 29 29
0.24100827 0.91808087 3.29680967 38 29 29
0.24699868 0.91845769 3.30751371 38 29 29
0.24206061 0.90218237 3.32913136 26 25 24
0.24761044 0.91524097 3.35103369 32 27 27
0.24128316 0.91280395 3.37322593 25 25 25
0.24337110 0.92446071 3.32913136 38 29 29
0.24896942 0.92562488 3.34279341 37 29 29
0.24048685 0.93361378 3.36209321 37 28 29
0.24474929 0.92649460 3.38443255 31 26 26
0.24218544 0.93014671 3.41088192 28 25 25
0.25487424 0.94698966 3.44937968 34 28 28
0.24185143 0.95179141 3.47684026 29 25 24
0.25229293 0.95779759 3.48874736 32 28 27
0.25126728 0.96440309 3.51280761 31 27 26
0.25670317 1.16223162 4.80525589 15 16 18
0.25778392 1.18458217 4.89766455 15 16 18
0.25515476 1.18836761 4.92132473 17 18 20
0.27849076 -0.07274040 0.60859892 41 40 46
0.27012157 0.01340308 0.43322332 35 34 39
0.27343014 0.01493262 0.44101867 36 34 39
0.26094187 0.03336509 0.41558197 34 33 37
0.26669996 0.03354787 0.43329562 34 33 36
0.26667257 0.03807069 0.44074750 36 35 39
0.26069288 0.04281793 0.41618665 33 32 34
0.26318602 0.04186011 0.42809253 33 32 34
0.26223520 0.08902132 0.43068440 49 44 46
0.26234879 0.28498449 1.51439685 41 35 38
0.26343120 0.29048310 1.52428426 42 36 40
0.26700206 0.29812037 1.54444564 42 36 40
0.26035783 0.28663151 1.72371268 37 31 32
0.27201103 0.30717497 1.41480829 45 36 39
0.26912448 0.31058828 1.42669437 45 36 39
0.26900767 0.31596854 1.44594281 45 36 39
0.26678621 0.31971079 1.46578189 43 35 38
0.26435814 0.30265548 1.53733074 43 35 38
0.27002392 0.30310420 1.54586522 42 35 39
0.26991129 0.31687374 1.58896790 43 34 37
0.26093887 0.31655771 1.75036812 39 31 34
0.26902498 0.32219612 1.46939144 44 35 38
0.27055699 0.32962588 1.48953467 45 35 38
0.27220790 0.33439098 1.51050063 45 36 39
0.27397651 0.33531819 1.52595370 44 35 38
0.27058173 0.32286637 1.59480109 43 34 38
0.26524418 0.32273027 1.60935255 42 34 37
0.26667586 0.33206585 1.64943050 42 33 36
0.26642771 0.33883957 1.67652059 41 32 35
0.27508876 0.33975431 1.68104661 44 35 38
0.26736716 0.34421600 1.63517813 41 34 39
0.27035262 0.35068084 1.64935016 42 34 39
0.27258509 0.35498904 1.66504531 42 34 39
0.27854040 0.36092845 1.57695699 46 37 40
0.27005772 0.36743176 1.67253234 42 33 37
0.27405266 0.37129519 1.68605909 44 35 39
0.27802360 0.37842261 1.70925683 44 35 40
0.26890597 0.38084929 1.67552131 44 35 38
0.27352782 0.38391277 1.68899968 43 35 38
0.27584990 0.39431724 1.71265582 42 36 39
0.27741025 0.39733099 1.72246906 42 36 40
0.27807756 0.39981069 1.94226307 37 33 34
0.26987883 0.40242948 1.94587749 36 33 33
0.27435192 0.40444936 1.97044422 36 32 33
0.26776243 0.40740330 1.98483562 34 32 32
0.27539424 0.41839405 2.05097980 36 31 31
0.27848151 0.41801892 2.06426597 37 31 31
0.26072705 0.53945553 1.63255489 41 37 38
0.26533352 0.54785422 1.65324852 41 37 38
0.26815015 0.54980833 1.66729135 41 36 39
0.27865937 0.56465881 1.71583618 43 37 41
0.27935739 0.57161349 1.72371763 42 38 39
0.27751029 1.16601473 4.80525589 14 15 17
0.26823688 1.17126930 4.82802963 15 16 17
0.27060539 1.17139089 4.85101986 15 16 18
0.27452719 1.18449306 4.92132473 14 16 18
0.27312392 1.30457717 4.82802963 22 22 22
0.27442452 1.31078947 4.85101986 22 22 22
0.27513529 1.31760943 4.89766455 21 21 21
0.26935148 1.32146525 4.89766455 22 22 22
0.27196655 1.33818829 4.94521475 23 23 23
0.27329323 1.33689153 4.96933746 21 21 21
0.27856436 1.33951342 4.99369717 18 19 19
0.27720550 1.34862840 4.96933746 23 23 23
0.29840750 -0.12096334 0.57310108 44 43 46
0.29855190 -0.11966450 0.57009170 44 43 45
0.28350871 -0.07515459 0.61620655 42 41 47
0.28915410 -0.07555681 0.62003303 43 40 45
0.29457247 -0.02111094 0.47454460 37 36 41
0.29291737 -0.01792226 0.47082119 39 38 40
0.29913807 0.01525692 0.51668086 40 35 38
0.29946672 0.01523735 0.52145774 39 34 37
0.29616085 0.25878477 1.60175192 40 33 36
0.29268464 0.26618463 1.63040453 42 33 35
0.29784882 0.26976590 1.65415837 42 33 35
0.29775518 0.27260914 1.66901511 42 33 35
0.29843388 0.27478333 1.68708527 42 33 35
0.29561714 0.28351502 1.63714695 42 33 38
0.29524590 0.28478147 1.64864097 42 33 37
0.29749403 0.29014520 1.66976481 42 34 38
0.29786458 0.29179936 1.68582567 42 33 37
0.29972637 0.29686216 1.70069146 41 34 38
0.28303000 0.30673741 1.41498730 45 36 39
0.28777297 0.31136487 1.42924015 45 36 39
0.28873015 0.31762922 1.44925514 45 37 40
0.28419729 0.30536332 1.55440296 43 37 40
0.28953787 0.30860279 1.56970483 42 36 39
0.28859186 0.31566345 1.58718195 43 36 39
0.29213247 0.31410349 1.63147833 42 36 39
0.29403891 0.31387198 1.64635376 41 37 40
0.29679322 0.31609628 1.66912570 42 36 39
0.29886695 0.31724871 1.68452904 42 35 38
0.28918400 0.32117063 1.45843202 44 38 40
0.29494486 0.32481557 1.47380649 44 37 39
0.29154997 0.32948045 1.48764018 45 37 40
0.28461590 0.33199657 1.50096675 45 36 39
0.28752428 0.32474539 1.59341850 42 35 40
0.28952343 0.33534619 1.61400678 43 35 39
0.29482521 0.33870746 1.62215638 44 35 38
0.28156459 0.33511468 1.66457458 42 33 36
0.28714094 0.33899115 1.68382978 42 33 36
0.28267830 0.34304494 1.59840186 43 35 38
0.28360001 0.34311509 1.61180351 43 34 38
0.29134017 0.34641071 1.63164363 44 35 39
0.28595172 0.35001730 1.64621957 44 35 40
0.28842539 0.35909374 1.66638490 44 35 39
0.28690852 0.34201184 1.69221628 42 33 36
0.28595290 0.34420453 1.70638895 43 34 37
0.28214601 0.36310235 1.59523616 45 36 39
0.28798112 0.36940819 1.61957741 45 36 39
0.28830091 0.36774273 1.67140567 44 35 39
0.28261722 0.36432821 1.68452904 44 35 40
0.28287029 0.37029827 1.71212471 44 35 40
0.28512801 0.38071047 1.67781709 45 35 39
0.28131104 0.38270651 1.68661296 45 36 39
0.28429429 0.38874230 1.71186706 44 35 38
0.28582526 0.39664753 1.72936322 43 35 38
0.29193782 0.39702289 1.75038052 44 35 38
0.28216813 0.39980954 1.94411814 37 33 34
0.29208439 0.40101187 1.73251293 43 34 39
0.29197079 0.40403930 1.75353231 43 35 38
0.28998971 0.40513152 1.76502685 42 35 38
0.28904679 0.40287784 1.94702234 38 33 35
0.29530134 0.40482690 1.96663707 38 32 34
0.29896379 0.40839687 1.98967624 40 34 36
0.28055358 0.41910902 2.04972672 36 32 33
0.28230786 0.41805691 2.06847441 37 31 32
0.28984606 0.42273717 2.07225432 37 32 33
0.29222549 0.42530054 2.09289616 37 31 33
0.29468971 0.42799085 2.10261154 37 31 33
0.28730722 0.55257996 1.67512379 42 36 39
0.28775004 0.55659544 1.68945181 42 36 39
0.29035383 0.55929255 1.70069146 42 36 40
0.28389317 0.56067830 1.69409343 42 37 39
0.28535786 0.56374829 1.70904585 42 36 39
0.28499586 0.56901701 1.72425108 43 37 39
0.28500865 0.57758555 1.74586970 43 37 39
0.29349487 0.58700778 1.79355526 43 38 41
0.29407713 0.58775760 1.80577745 41 37 38
0.29504570 0.59536386 1.82347540 40 37 38
0.28821033 1.09686267 4.52761889 14 16 16
0.29010680 1.13208306 4.67300081 16 17 18
0.29303086 1.15074495 4.76034689 16 17 19
0.28696805 1.16349266 4.80525589 14 16 17
0.28452703 1.16583931 4.82802963 15 16 18
0.28206280 1.17139089 4.85101986 15 16 18
0.29684332 1.17315817 4.87423086 17 18 20
0.28808791 1.18449306 4.92132473 15 16 18
0.28979775 1.24736106 4.60956669 22 22 22
0.28341237 1.31706119 4.87423086 23 22 22
0.28091908 1.31760943 4.89766455 22 21 21
0.28808790 1.32591194 4.92132473 22 22 22
0.28249583 1.33951342 4.99369717 19 19 19
0.28111780 1.34862840 4.96933746 22 22 22
0.29625598 1.34934211 4.99369717 23 22 22
0.30944777 -0.12166305 0.57474884 45 43 46
0.30149284 -0.12387032 0.58212239 44 44 46
0.30857382 -0.11951752 0.56974678 43 42 44
0.30138288 0.01490708 0.51674251 40 35 39
0.30203320 0.01502203 0.52380579 39 35 38
0.30544150 0.26920008 1.65813529 41 32 36
0.31047315 0.27326523 1.67046385 41 32 36
0.31230901 0.27915905 1.68712993 42 33 36
0.30089816 0.27925280 1.70353544 42 33 36
0.30024138 0.28960982 1.65914369 42 36 40
0.30073074 0.28276971 1.67277008 42 33 36
0.30191623 0.28542764 1.69046701 41 33 35
0.30981288 0.28464762 1.70927785 41 33 35
0.31055719 0.28755452 1.72518636 42 33 35
0.31156043 0.29246873 1.74994802 41 32 34
0.31094756 0.29519876 1.76963170 41 32 33
0.30480665 0.30472766 1.55445553 44 37 39
0.31034004 0.31325760 1.57300095 44 37 40
0.30667970 0.31620714 1.58777082 43 37 40
0.30595022 0.31462926 1.60680473 44 38 40
0.30990116 0.31958421 1.63430464 43 37 40
0.31207321 0.31648785 1.65126618 45 36 39
0.31350094 0.31664670 1.66995103 43 36 39
0.31334513 0.31416184 1.68575739 42 36 40
0.31139704 0.31215288 1.70897821 42 36 39
0.30475409 0.30456720 1.72664416 41 35 38
0.31533939 0.31769105 1.79732234 41 35 38
0.31916797 0.30679515 1.81913257 42 33 34
0.30044395 0.32349572 1.47426081 44 38 40
0.30316021 0.32998119 1.49045771 43 37 39
0.30899793 0.32474548 1.55528891 45 36 39
0.31517164 0.32927058 1.57696074 46 37 39
0.30502047 0.32051439 1.59205234 43 37 41
0.31127111 0.33731171 1.61523696 46 36 38
0.30657394 0.33918454 1.62400438 46 35 37
0.31296467 0.32061119 1.65734514 46 37 38
0.31240563 0.33055093 1.67095907 43 37 40
0.31118500 0.32119316 1.71009481 43 36 40
0.30705990 0.32329303 1.73842013 42 35 37
0.30848125 0.32827105 1.75036812 41 34 37
0.31055653 0.33106667 1.77270754 40 34 36
0.31356854 0.33412673 1.78721797 40 34 36
0.31944713 0.32500631 1.82893038 44 35 40
0.30311669 0.34644917 1.51369458 46 37 40
0.30379118 0.34933895 1.52807442 46 37 39
0.30534494 0.35363027 1.54507142 46 37 39
0.31040155 0.35853642 1.57374962 46 36 39
0.31469011 0.34294791 1.59340421 46 37 40
0.31562319 0.34531107 1.61389393 45 36 39
0.31018639 0.34651597 1.63224163 45 36 38
0.30658148 0.35045970 1.64245408 44 35 38
0.31068000 0.36024457 1.57940185 46 37 40
0.31359717 0.36237204 1.59423196 46 37 40
0.31381536 0.36471187 1.60175192 46 37 40
0.31704074 0.36994697 1.62474358 46 37 40
0.31001769 0.37854880 1.67003499 45 36 39
0.31545440 0.37945825 1.68104661 45 36 39
0.30680596 0.38073994 1.67670110 44 35 38
0.31519158 0.38520950 1.68885429 45 36 39
0.31981033 0.38790944 1.70069146 45 36 39
0.31574273 0.39725557 1.72518454 45 36 39
0.31881656 0.39924014 1.75036812 44 35 38
0.30472934 0.39905173 1.93671906 39 33 35
0.30607359 0.39981183 1.94040799 39 33 35
0.31200029 0.40116920 1.73016400 44 36 40
0.31583556 0.40298453 1.75296375 44 35 38
0.31408502 0.40408440 1.76248133 45 36 38
0.30644468 0.40210125 1.93671906 39 34 37
0.31088324 0.40241304 1.94437027 40 34 37
0.30309873 0.40579143 1.96568608 37 31 34
0.30373190 0.40919712 1.99357498 39 33 35
0.30744876 0.41242445 2.00929832 39 33 35
0.30618231 0.41995397 2.05385923 37 33 34
0.30959721 0.42375315 2.07564178 39 33 35
0.31166341 0.42635422 2.09446443 40 33 35
0.30751643 0.42753804 2.10391887 38 32 34
0.30886945 0.42810437 2.12232137 38 32 34
0.30257407 0.61106473 1.87608516 40 36 38
0.30221018 0.61332375 1.88302076 42 38 39
0.30848247 0.62453985 1.92210233 42 38 39
0.31873640 1.16964030 4.82802963 14 15 16
0.31643507 1.17139089 4.85101986 15 16 17
0.30497763 1.30887985 4.85101986 23 23 23
0.30259946 1.31322378 4.87423086 23 23 23
0.30019838 1.31760943 4.89766455 24 24 24
0.30019838 1.32146525 4.89766455 23 23 23
0.31241611 1.33689153 4.96933746 24 24 24
0.31001610 1.33951342 4.99369717 24 24 24
0.30215317 1.34541065 4.99369717 22 22 22
0.32170860 -0.12433295 0.58429652 47 45 47
0.32402469 -0.04064752 1.59923744 30 28 32
0.32676317 -0.04320697 1.61409531 32 30 34
0.33003386 -0.04589315 1.63090097 31 31 34
0.33382297 -0.05078705 1.64964599 32 31 34
0.33677831 -0.05489643 1.66867124 32 31 33
0.33953270 -0.05433494 1.69221628 32 31 33
0.33824097 -0.05017209 1.70925200 33 32 34
0.33049899 -0.03660569 0.57914394 40 39 43
0.33527886 -0.03590674 0.58580037 40 39 43
0.32423454 -0.03896878 1.59923744 26 25 29
0.32568982 -0.03581257 1.60825370 17 16 22
0.32673244 -0.03585390 1.62659746 15 15 21
0.32127842 0.27668460 1.68382514 42 33 37
0.32570979 0.27992338 1.70353544 42 33 38
0.32825551 0.28513365 1.71444480 43 34 37
0.32771926 0.28850234 1.72638852 42 33 36
0.32394537 0.29170850 1.75113288 42 33 36
0.32505727 0.29613628 1.76553945 42 33 36
0.32607634 0.29886784 1.78253117 41 33 36
0.32491586 0.30699083 1.55528891 45 38 40
0.33183519 0.31416092 1.57791955 43 37 40
0.32992089 0.31615265 1.58384254 43 37 40
0.32241102 0.31826738 1.67662096 44 37 40
0.32416774 0.31757874 1.68789698 44 38 40
0.32539245 0.31768929 1.70467684 43 38 39
0.32792112 0.30272293 1.79415358 41 33 35
0.32491172 0.30549449 1.80999865 41 33 35
0.32528710 0.31115401 1.86236608 42 33 33
0.32336784 0.33599848 1.67551684 45 35 39
0.32405692 0.32122579 1.68104661 46 37 39
0.32973331 0.32015845 1.70353544 45 39 41
0.32446024 0.32564446 1.74736571 42 37 41
0.32563030 0.33082090 1.77299971 42 36 39
0.32804873 0.33547267 1.79100921 42 36 40
0.32769951 0.33885798 1.80303407 43 37 40
0.32556219 0.33047260 1.85558450 43 34 39
0.32767193 0.33572504 1.87264655 44 35 39
0.33320609 0.32173274 1.90770447 42 33 34
0.33547354 0.32311034 1.92938304 43 32 34
0.32062322 0.34527047 1.61700666 46 37 40
0.33076398 0.34605623 1.63041551 45 36 40
0.33565224 0.34941062 1.64979804 45 37 40
0.33801918 0.35157481 1.66185021 45 38 40
0.32911903 0.34027749 1.80303407 44 38 42
0.33445874 0.34480181 1.91487634 44 35 38
0.33471406 0.34665446 1.92938304 44 35 38
0.32244712 0.37712660 1.65914369 46 37 40
0.32348349 0.37856235 1.67125509 46 37 40
0.32703472 0.37482613 1.68104661 46 37 40
0.32248819 0.38790944 1.70069146 45 36 39
0.32535931 0.39783450 1.72633754 45 36 39
0.33810912 0.39924014 1.75036812 46 37 40
0.32607585 0.39905173 1.93671906 44 35 38
0.32364164 0.39981183 1.94040799 43 35 38
0.33212877 0.40096376 1.72927660 45 36 39
0.33640297 0.40294112 1.74775259 45 36 38
0.33973151 0.40794681 1.77323091 45 35 37
0.32625705 0.40133875 1.93598406 44 35 38
0.32631312 0.40235056 1.94597873 44 35 38
0.33558328 0.40475454 1.96739640 44 35 38
0.32918674 0.40799882 1.98773694 44 35 38
0.33884136 0.41246966 2.01725578 44 35 38
0.32953529 0.41621474 2.02932401 41 34 36
0.32460102 0.42654262 2.09325631 39 32 34
0.33151678 0.42918179 2.10884597 40 32 35
0.33351483 0.43332588 2.12232137 38 32 34
0.33985877 0.46413541 1.59673470 46 38 41
0.33214072 0.53146306 1.81240286 42 37 39
0.32902264 0.53363321 1.82347540 42 37 39
0.33420584 0.59108239 1.81913257 42 38 39
0.33392901 0.59260239 1.82676486 42 38 39
0.33910298 0.60550386 1.86577690 42 38 39
0.33849119 0.62871448 1.97808588 42 36 38
0.33675465 1.14574802 4.76034689 14 15 17
0.33774161 1.16773981 4.82802963 14 15 15
0.32693770 1.17043611 4.85101986 14 15 17
0.33713615 1.17699564 4.87423086 14 15 17
0.33233057 1.17879844 4.89766455 14 16 18
0.33329874 1.18083298 4.87423086 14 15 15
0.33104529 1.18361822 4.89766455 14 15 16
0.33784600 1.19409293 4.96933746 15 16 18
0.35279846 -0.06118300 1.75489229 31 31 33
0.35346645 -0.06026855 1.76860106 32 32 34
0.35795796 -0.06538374 1.79037322 32 32 35
0.35064740 -0.04018488 0.57815957 44 38 42
0.34679936 -0.04015108 0.58317942 41 38 44
0.34038107 -0.05179898 1.69644451 33 32 34
0.34194735 -0.05184202 1.71022994 32 31 34
0.34477281 -0.05131474 1.73105891 32 31 34
0.35163501 -0.05718591 1.75943732 32 32 34
0.35346645 -0.05887615 1.76860106 32 32 34
0.35048746 -0.03334049 0.57781279 39 38 42
0.34947262 -0.03566333 0.58678650 39 38 42
0.34981957 0.13890786 0.55871818 49 43 45
0.35341811 0.13904218 0.56224464 47 44 45
0.34990451 0.14107175 0.55853685 50 46 47
0.35288788 0.14127969 0.56221023 50 46 46
0.35141930 0.27809653 1.62994277 45 37 40
0.35254744 0.28027666 1.63517535 44 37 38
0.35507949 0.28417370 1.64842540 43 37 38
0.35705182 0.28946839 1.66784802 44 37 39
0.34298014 0.31632852 1.58412523 44 39 42
0.35311425 0.31296277 1.63780415 44 37 39
0.35476985 0.31469931 1.64774773 44 36 39
0.35701367 0.31799729 1.66808127 44 37 39
0.35979044 0.31857887 1.68104661 44 38 40
0.35860693 0.32280737 1.67551684 46 37 40
0.34255415 0.34569188 1.61957741 44 38 42
0.34213982 0.34717141 1.63227717 45 37 41
0.34128330 0.34693309 1.64399087 45 37 40
0.34240165 0.35934868 1.67368261 46 37 40
0.34296366 0.36221124 1.68289896 46 37 40
0.34168195 0.40406853 1.75338078 46 36 38
0.35057496 0.40374526 1.94957315 44 35 38
0.34460297 0.40696360 1.96853356 44 35 38
0.34305060 0.41148883 1.98193431 45 36 41
0.35294442 0.41570416 2.02527666 44 35 38
0.34418121 0.41672003 2.05385923 43 35 38
0.34605268 0.41933018 2.07477427 44 35 38
0.35550001 0.42157096 2.05385923 44 35 38
0.34383540 0.42169608 2.06635737 43 35 38
0.34682483 0.42907841 2.09525905 43 35 38
0.34587875 0.42773747 2.10406816 42 35 37
0.34225387 0.46457074 1.59715116 44 38 40
0.34428277 0.46580407 1.60682725 43 38 39
