ply
format ascii 1.0
element vertex 1066
property float x
property float y
property float z
property uchar red
property uchar green
property uchar blue
end_header
-0.72404955 -0.31361972 1.82721059 82 72 65
-0.70961376 -0.30840269 1.81053327 85 70 65
-0.71341901 -0.30995532 1.82425466 85 70 66
-0.70883965 -0.29856557 1.81254506 89 69 67
-0.68108293 -0.33108112 1.77691483 86 67 65
-0.68583655 -0.32561693 1.79337093 85 65 64
-0.68518560 -0.31065449 1.79682423 84 68 64
-0.68960226 -0.30197181 1.80482697 87 68 68
-0.68455160 -0.29411779 1.79812157 89 69 68
-0.69104646 -0.29697746 1.80290389 88 68 67
-0.66488091 -0.62653160 1.33050903 67 59 55
-0.66597992 -0.61030135 1.32691675 72 61 59
-0.66174132 -0.59403723 1.31629879 74 62 58
-0.66152684 -0.59529833 1.32314722 74 63 58
-0.67344910 -0.33210574 1.76942875 84 67 65
-0.67849746 -0.32356769 1.78627938 86 65 64
-0.67577930 -0.31027982 1.79086546 84 66 64
-0.67295716 -0.30200254 1.80634165 85 67 65
-0.67833579 -0.29618973 1.79812157 89 69 69
-0.67257868 -0.29777024 1.80771675 86 67 66
-0.65801399 -0.62780412 1.32631853 66 58 54
-0.65059628 -0.60591294 1.31464826 67 60 54
-0.65849606 -0.61032850 1.32349336 68 59 56
-0.65020837 -0.59094397 1.31234524 72 60 58
-0.65838259 -0.59376285 1.32142663 75 63 60
-0.64625609 -0.57862079 1.30614996 74 61 62
-0.56392449 -0.66395861 1.75165856 55 46 45
-0.56247109 -0.65771770 1.74714386 54 45 44
-0.54229589 -0.68625696 1.63190746 49 40 41
-0.54281658 -0.67280465 1.63347435 50 41 42
-0.54402786 -0.66160917 1.69897699 53 44 43
-0.54513715 -0.66450080 1.71401501 53 45 44
-0.55173085 -0.66531222 1.72768266 52 44 43
-0.54288256 -0.65958643 1.68629813 53 44 43
-0.55658233 -0.65734911 1.73818421 53 44 44
-0.52115625 -0.68203276 1.57649267 44 38 38
-0.52862513 -0.68232453 1.59629945 48 40 40
-0.53416103 -0.68548846 1.61021264 48 40 40
-0.52115625 -0.67930794 1.57649267 44 38 38
-0.52378717 -0.67344349 1.59398489 48 40 41
-0.52726332 -0.67317189 1.60951552 49 41 41
-0.53004386 -0.66943051 1.62784980 50 42 43
-0.53352581 -0.66596973 1.64652904 51 42 43
-0.53281915 -0.66263494 1.70539099 54 45 44
-0.52085632 -0.65799254 1.61788034 50 41 41
-0.52367564 -0.65710489 1.62955399 50 41 42
-0.52915879 -0.65574709 1.65365720 52 42 43
-0.52810713 -0.65473570 1.66655197 53 44 44
-0.53220501 -0.65667452 1.68630509 53 44 43
-0.51670617 -0.68465812 1.56630158 46 37 38
-0.50018626 -0.67033440 1.53716969 44 38 38
-0.50620672 -0.67034586 1.54794791 44 38 38
-0.51083823 -0.66957752 1.56436765 47 40 39
-0.51310268 -0.67077973 1.59009005 49 40 41
-0.51350886 -0.66788653 1.60715518 49 42 42
-0.51111166 -0.66796945 1.62721682 51 43 44
-0.51896083 -0.66286603 1.64737022 51 42 43
-0.51188493 -0.65513900 1.61088596 51 42 43
-0.51018693 -0.65584938 1.62844733 51 42 43
-0.51610927 -0.65559142 1.64939358 51 42 42
-0.51894027 -0.65148342 1.66558194 53 44 43
-0.50148219 0.35193008 1.24383819 108 116 131
-0.48207776 0.33864540 1.21922994 114 122 136
-0.48577184 0.34224674 1.21704884 115 125 133
-0.48703163 0.35073717 1.23346075 104 112 122
-0.49197999 0.35665037 1.24156010 99 105 118
-0.48497738 0.36276661 1.23416337 88 101 113
-0.47523587 0.33450649 1.20882418 111 119 131
-0.47853073 0.33986795 1.22363150 108 117 129
-0.46069947 0.35776774 1.13296966 98 105 119
-0.46197488 0.35434784 1.19109859 93 108 123
-0.46899810 0.35322740 1.21148241 94 106 122
-0.47759204 0.35208601 1.22665609 91 103 112
-0.46296984 0.36742625 1.13254100 82 88 103
-0.46721189 0.37019579 1.14412206 97 102 114
-0.47555739 0.36036697 1.22142673 88 98 116
-0.44141170 -0.75122309 1.84711671 54 45 46
-0.44266295 0.17767217 0.88845996 91 93 108
-0.44190276 0.18105763 0.89001765 87 90 103
-0.45492882 0.18510680 0.90992194 83 83 96
-0.44195704 0.20954199 1.11532226 115 122 135
-0.44717059 0.21109311 1.12357835 117 123 141
-0.45375065 0.35854478 1.13172605 88 94 112
-0.44496705 0.35435029 1.16818283 96 104 113
-0.45528955 0.35247646 1.18721236 94 108 118
-0.44141553 0.36850538 1.11801910 88 96 109
-0.45170094 0.36508393 1.12745755 78 83 102
-0.44014877 0.37139314 1.15091991 90 98 120
-0.44405404 0.36145742 1.16376370 115 125 133
-0.44757959 0.37692407 1.98795259 89 96 108
-0.44783504 0.38204144 1.99674028 97 105 115
-0.44181100 0.45806956 1.11495364 91 105 116
-0.44136178 0.45985159 1.13359845 73 81 100
-0.44466006 0.46984861 1.13317768 88 96 106
-0.45047143 0.46716451 1.14537277 78 91 105
-0.44345246 0.49062217 1.13476691 85 102 118
-0.44949199 0.48789664 1.14288533 81 91 107
-0.44765144 0.50449088 1.14655302 92 110 122
-0.42420248 -0.74611266 1.81255983 55 46 45
-0.42942664 -0.74439609 1.82776525 55 47 46
-0.43702829 -0.74918174 1.84209740 54 46 46
-0.42721991 -0.73834313 1.82906029 55 47 47
-0.42639330 0.15824666 0.87866771 123 129 142
-0.42392691 0.15923536 0.88234500 126 133 143
-0.42573696 0.15623731 1.49375974 117 121 133
-0.42426931 0.15222609 1.51148895 130 132 136
-0.43010430 0.16906064 0.87721438 99 107 120
-0.42753729 0.16777426 0.88259385 113 119 131
-0.42668183 0.16618642 1.49378929 110 116 131
-0.42606900 0.17384393 1.51124933 97 102 125
-0.42455553 0.17614429 1.52793229 106 113 132
-0.43728624 0.18073992 0.88845587 91 99 110
-0.43152872 0.18047576 1.51993692 89 92 117
-0.42832270 0.18190533 1.53197658 95 100 125
-0.42587143 0.20594248 1.09869015 99 110 122
-0.42701034 0.21190750 1.10675970 100 108 120
-0.42413568 0.22078371 1.10405838 119 128 134
-0.43595422 0.35734080 1.11434744 101 111 128
-0.43864939 0.35612279 1.16276479 97 105 113
-0.43298012 0.36450975 1.10754884 85 93 106
-0.43453151 0.36518909 1.12823885 88 96 115
-0.43388270 0.38081878 1.97253092 116 122 133
-0.43812320 0.38951668 1.99968100 112 118 129
-0.43735431 0.47035352 1.12747481 84 92 104
-0.43850902 0.48687693 1.12961503 82 101 117
-0.41001042 -0.74333316 1.81295432 56 46 46
-0.41500582 -0.74506311 1.82228994 56 47 45
-0.40800857 -0.73638328 1.81343328 56 47 46
-0.41973034 -0.73797637 1.82228994 56 48 47
-0.40136766 -0.14233880 0.66415330 131 125 110
-0.40686142 -0.13485123 0.66554482 133 125 114
-0.41167052 0.15738706 0.87668537 125 133 141
-0.41836660 0.15865696 0.88095143 131 139 148
-0.41062789 0.15702653 1.49420388 138 140 142
-0.41405509 0.15213478 1.50811130 138 140 143
-0.41294586 0.16425480 0.87753204 134 144 150
-0.41718292 0.16221609 0.88166807 144 151 160
-0.41022148 0.16308875 1.49777573 112 112 125
-0.41474791 0.16866102 1.51048394 106 110 125
-0.41757815 0.17737065 1.52335250 116 123 131
-0.40653025 0.21822750 1.09603395 86 97 109
-0.41201630 0.21395923 1.10505868 94 100 113
-0.40672889 0.22587056 1.09179353 97 105 116
-0.41335943 0.22204527 1.10204241 93 101 115
-0.40432747 0.37385866 1.94517428 91 98 116
-0.40724808 0.38163629 1.95922494 86 94 111
-0.41665548 0.38723212 1.98795259 82 90 107
-0.38503933 -0.78207958 1.83710527 57 48 47
-0.38608564 -0.78420481 1.84209740 57 48 47
-0.38091022 -0.76583961 1.81740439 57 48 47
-0.39108600 -0.76933519 1.83070417 56 47 46
-0.38981040 -0.74620687 1.81740439 56 47 47
-0.39259514 -0.75201499 1.82342343 56 48 47
-0.39001598 -0.73447737 1.81315733 57 47 48
-0.39275707 -0.14160708 0.65910745 130 125 109
-0.39738684 -0.14299997 0.66330179 130 125 110
-0.39765622 -0.13683936 0.66431672 131 124 110
-0.39925016 0.15727805 1.49096608 139 144 145
-0.39833596 0.21448796 1.09869015 103 110 124
-0.39993367 0.21626272 1.10047376 94 103 113
-0.37755987 -0.78634161 1.84711671 59 48 49
-0.37139642 -0.76423711 1.81406683 57 47 48
-0.37507521 -0.77629435 1.82721502 58 46 47
-0.37285414 -0.75082544 1.81110019 57 49 47
-0.37837487 -0.73578161 1.80530775 56 47 48
-0.35653257 -0.75761974 1.80530775 57 48 48
-0.34021080 0.21363444 0.73924953 51 51 60
-0.34282572 0.21257973 0.74422866 52 51 62
-0.34064201 0.22274679 0.74767502 52 51 62
-0.34401017 0.26867419 1.29864335 104 111 122
-0.34503342 0.27581733 1.30250168 80 86 100
-0.34227048 0.28809440 1.29715354 116 123 133
-0.34568194 0.28295978 1.30176154 79 85 99
-0.34046113 0.30230720 1.29368675 104 111 123
-0.32820172 0.21527146 0.73482762 71 74 82
-0.33799424 0.21445927 0.74179558 61 61 70
-0.32929453 0.22141804 0.73804512 84 89 93
-0.33404247 0.22255333 0.74257634 75 77 84
-0.33727637 0.27765258 1.29864335 82 86 101
-0.33368984 0.27797046 1.30363973 113 118 129
-0.33188211 0.29033173 1.29436771 91 97 113
-0.33332841 0.28504008 1.30163643 108 114 127
-0.32406566 0.30696979 1.27134132 96 107 124
-0.33262481 0.30166364 1.29299877 85 93 110
-0.33567482 0.30067459 1.30113602 73 79 98
-0.31166190 0.20970993 0.71149362 73 76 85
-0.31726672 0.21486904 0.72193035 76 79 88
-0.30298610 0.25851424 0.75401834 91 101 113
-0.30551428 0.25774787 0.76103507 89 104 116
-0.30475767 0.26262111 0.75229667 96 103 112
-0.31179820 0.26368139 0.76139128 88 95 110
-0.31741302 0.29817995 1.26947639 107 120 130
-0.31665118 0.30561502 1.26119524 95 105 124
-0.28455678 0.25665194 0.73816685 94 102 110
-0.29032240 0.25523456 0.74741589 84 91 100
-0.28611453 0.26114072 0.73854579 86 95 107
-0.29183346 0.26417230 0.74582435 101 112 119
-0.26124632 0.24509263 0.71545333 90 102 114
-0.27352547 0.25330800 0.73160361 107 114 125
-0.27584602 0.26142384 0.73754182 123 132 141
-0.27813595 0.26408918 0.74135458 127 138 144
-0.20261988 0.16564930 0.66991693 117 126 137
-0.20129810 0.35591033 0.84438062 185 194 194
-0.20325984 0.36120421 0.85055441 184 193 194
-0.18573997 0.01538084 0.59217008 91 87 92
-0.18947465 0.02306346 0.59926885 105 107 116
-0.19104306 0.02551803 0.60062355 120 122 128
-0.18829039 0.16796422 0.65313469 101 109 122
-0.19663919 0.16321669 0.66379595 115 125 134
-0.18416554 0.16939995 0.93510483 110 114 128
-0.18791828 0.17654967 0.94447725 102 108 127
-0.18099268 0.18251144 0.93696222 93 96 117
-0.18933759 0.18349578 0.94774877 97 102 122
-0.18208418 0.33784572 0.82649747 177 183 185
-0.18702384 0.34735796 0.83474575 178 185 188
-0.18976623 0.35628117 0.84343322 176 182 186
-0.18607068 0.36266429 0.84812585 175 182 185
-0.17943946 0.01466838 0.58852740 93 88 93
-0.17016754 0.15901192 0.91360751 88 99 118
-0.17920215 0.15914755 0.92355835 123 128 135
-0.16512506 0.17357357 0.89906079 92 100 117
-0.16847063 0.16895617 0.91153274 97 105 122
-0.17674922 0.17136683 0.92825696 104 109 126
-0.17956329 0.18107627 0.93373710 94 96 117
-0.17652789 0.33672115 0.82600234 177 183 187
-0.17750248 0.34754565 0.83462739 174 182 188
-0.17630720 0.35681952 0.84120688 164 172 181
-0.17762968 0.36135059 0.84372536 171 179 184
-0.14644478 0.15741419 0.50601531 99 114 127
-0.14902324 0.17240748 0.49367060 119 130 141
-0.14756945 0.16354099 0.50478390 104 115 125
-0.14486797 0.18188540 0.49740284 180 190 191
-0.12463874 -0.07123090 0.56902281 108 88 85
-0.13986972 0.15552440 0.50494742 92 101 116
-0.13990858 0.16821584 0.48980623 134 139 148
-0.11983255 -0.06988662 0.56707036 110 89 87
-0.08779116 -0.02047010 0.67667475 110 97 91
-0.08645178 -0.00955249 0.67214973 136 120 115
-0.08236938 0.00080684 0.66875235 142 128 123
-0.09107937 0.10917160 0.49199652 120 125 136
-0.07895401 -0.00266256 0.66919231 143 126 121
-0.02488702 0.23938897 0.60504663 150 154 155
-0.02291166 0.24372626 0.60852524 145 149 151
-0.02097709 0.39061880 1.07772946 140 145 148
-0.02206878 0.39531224 1.08550438 135 139 145
-0.02128186 0.40385826 1.09338721 140 146 154
-0.02323219 0.41236901 1.10608256 130 136 147
-0.02270252 0.42118372 1.11679053 127 131 139
-0.02274283 0.43115984 1.12941979 135 141 145
-0.02772389 0.43729109 1.15158347 114 122 129
-0.03067121 0.43952718 1.16276479 111 117 125
-0.02179803 0.44664457 1.13242665 151 157 161
-0.02437311 0.44977576 1.14996700 143 149 154
-0.02762905 0.45129133 1.16532765 129 136 141
-0.03174763 0.45646920 1.19035590 119 126 131
-0.02323221 0.46352937 1.15249915 160 166 169
-0.02513386 0.46746343 1.16226703 158 164 166
-0.03023921 0.46423202 1.19080108 126 131 136
-0.03464299 0.46764055 1.20766970 127 131 135
-0.00856344 0.12826303 0.47114708 165 168 173
-0.00714005 0.12270522 0.48066147 160 161 166
-0.00159732 0.17366333 0.59197181 151 153 158
-0.01725295 0.23942719 0.60624310 134 141 145
-0.01699493 0.24552701 0.60606138 145 149 155
-0.00233403 0.37858305 1.07134417 143 151 157
-0.00844609 0.38876648 1.07268459 144 151 157
-0.01385827 0.39677052 1.08289748 147 155 161
-0.01182707 0.40456207 1.09250956 153 161 166
-0.01416622 0.41440994 1.10678528 150 158 162
-0.00483768 0.43331235 1.11450575 137 143 149
-0.00983094 0.43300266 1.12740207 145 151 155
-0.00847523 0.43773746 1.15171485 145 149 155
-0.01323814 0.44193384 1.11605942 153 158 163
-0.01185107 0.44407424 1.12631857 151 156 160
-0.00902979 0.44500390 1.15237728 145 152 155
-0.01103733 0.44825227 1.16454523 145 152 155
0.00864048 0.13284669 0.46996006 149 154 160
0.00168265 0.12645226 0.48092121 167 170 176
0.01104016 0.14145980 0.47073466 147 151 160
0.01947095 0.17897008 0.47454809 153 161 165
0.00272197 0.17006761 0.59201499 134 137 146
0.01816368 0.17599559 0.89169212 149 154 165
0.01513364 0.17558528 0.90637606 127 129 142
0.01926542 0.18436637 0.47709877 147 154 163
0.01936286 0.19421468 0.48469536 153 160 163
0.01888570 0.18326768 0.87745040 159 163 171
0.01634472 0.18399289 0.89068382 152 156 165
0.00815619 0.18399485 0.90806763 150 151 160
0.00141666 0.41938519 1.10947931 148 153 158
0.00142132 0.42365111 1.11312586 146 152 157
0.00207706 0.42830128 1.12110070 141 148 149
0.01601919 0.42655558 1.87677932 144 145 155
0.01472245 0.42906540 1.88653624 136 137 148
0.02476852 0.17900745 0.47149997 141 146 153
0.03865162 0.17208892 0.49170670 147 153 159
0.02172264 0.17861120 0.87651318 160 167 173
0.02187112 0.17373018 0.88668287 156 162 172
0.02521650 0.18505283 0.47333762 146 150 157
0.03815435 0.18532911 0.49505467 149 153 158
0.03885116 0.18239343 0.50243494 151 156 163
0.02076196 0.18239852 0.87432343 156 160 168
0.03994401 0.41778728 1.68211377 132 137 145
0.03403735 0.40791893 1.83380409 156 160 167
0.03351725 0.41330762 1.84901960 155 157 167
0.02497730 0.41734884 1.86748197 155 158 166
0.03769130 0.42517239 1.71184814 131 136 144
0.03788263 0.42435682 1.72053766 123 128 137
0.03836955 0.42679924 1.74265254 118 120 135
0.03581815 0.43693240 1.76535529 131 134 145
0.03638644 0.43921933 1.79336464 126 129 139
0.03828899 0.43706417 1.81013693 132 135 145
0.03556743 0.43106911 1.83116312 163 167 174
0.03400903 0.42845516 1.85407333 157 162 173
0.02663010 0.42993895 1.87032363 150 153 164
0.02193241 0.43351561 1.88303292 143 144 160
0.03778672 0.44997904 1.71618187 158 161 167
0.03791476 0.44554855 1.72199698 162 167 174
0.03358295 0.44625217 1.80932275 136 138 148
0.03203492 0.44965311 1.82819471 144 145 155
0.03113480 0.45140366 1.84966767 149 152 160
0.02892220 0.44697526 1.86748323 156 161 168
0.03100737 0.46389031 1.84209740 137 136 150
0.04362373 0.16725113 0.47856826 159 162 168
0.04188609 0.17371935 0.48730618 149 154 159
0.04078393 0.18299772 0.49104538 150 154 157
0.05818275 0.20932514 0.67255903 146 147 151
0.05955390 0.22441703 0.67908069 159 161 167
0.05824791 0.22951255 0.68715934 160 165 167
0.05493489 0.37348963 1.61019897 156 158 165
0.05316185 0.37788284 1.64138460 152 155 164
0.05094157 0.37677023 1.66149962 126 128 147
0.04952646 0.37783176 1.71184814 139 139 142
0.05753972 0.38564219 1.53138395 163 168 174
0.05403627 0.39612138 1.58385944 159 164 171
0.05312073 0.39095844 1.61147237 145 147 154
0.05252594 0.39999184 1.62175083 143 148 157
0.05181866 0.38730209 1.66663283 152 153 162
0.05170190 0.39550951 1.68629813 160 161 164
0.04948498 0.38786364 1.71041443 132 131 146
0.04719340 0.38740744 1.73485014 135 134 145
0.04553171 0.39334334 1.74791574 145 144 155
0.04225049 0.39578229 1.77924371 156 156 165
0.04236168 0.39374045 1.78392589 161 161 170
0.05202806 0.40175343 1.60637879 154 158 168
0.05290565 0.41135332 1.63347435 158 163 170
0.05178317 0.41083699 1.65180120 146 150 161
0.05049969 0.41350939 1.67073527 141 145 155
0.04886513 0.41243016 1.68883808 140 143 151
0.04952646 0.41925481 1.71184814 136 138 148
0.04968886 0.41035126 1.73044135 154 154 160
0.04679999 0.40853214 1.74828419 167 169 176
0.04506584 0.41062200 1.76904037 161 163 173
0.04260484 0.40996018 1.79416585 157 158 167
0.04001543 0.41212401 1.81740439 163 163 172
0.04030364 0.41351318 1.83049397 156 157 169
0.05869373 0.42649767 1.63741994 135 135 142
0.05780178 0.43182813 1.65239882 136 137 144
0.05197743 0.43208859 1.66653640 155 158 164
0.04878751 0.43048574 1.68630648 158 165 172
0.04474846 0.43065563 1.71012332 144 150 161
0.04474142 0.42373890 1.72712132 129 132 143
0.04607544 0.42542839 1.74940121 128 130 143
0.04657997 0.42557295 1.76882440 139 140 150
0.04377469 0.42636669 1.79149191 155 157 166
0.04094773 0.42876979 1.81257089 164 167 173
0.04033988 0.42021561 1.83214009 159 161 175
0.05490379 0.44221587 1.67278144 125 129 137
0.05027596 0.44874247 1.69286764 133 136 146
0.04508498 0.44810355 1.71186444 154 158 166
0.04145120 0.44814730 1.72053766 159 165 171
0.06885636 0.04550213 0.45028697 103 108 122
0.07466975 0.17780651 0.48816906 130 136 141
0.07878898 0.18272560 0.47739843 160 163 167
0.07733726 0.18265008 0.48787607 152 157 163
0.07942791 0.19955328 0.66853237 130 137 147
0.07185413 0.21133740 0.67301830 126 132 141
0.07083412 0.20638803 0.68221545 83 87 107
0.07500775 0.21324189 0.85770449 148 148 156
0.07407732 0.21570420 0.86494280 150 152 159
0.07141750 0.22409808 0.67291791 131 137 144
0.06403439 0.22258354 0.68095654 149 152 156
0.07447974 0.22525764 0.86795067 124 126 140
0.06874718 0.23028596 0.88411544 96 100 118
0.06955987 0.26992697 0.69648613 131 137 144
0.06630379 0.27389123 0.70227087 129 134 141
0.07455631 0.28402399 0.69867873 140 148 158
0.07796549 0.28354494 0.70172308 149 157 163
0.06521857 0.37554451 1.48923311 154 157 163
0.06427035 0.37592006 1.50308609 156 161 168
0.06412816 0.38286504 1.49976075 151 152 156
0.06215482 0.38278668 1.51484400 156 162 166
0.06194990 0.38787947 1.52826720 154 158 163
0.06335820 0.39954066 1.54417276 139 139 148
0.06259404 0.40321462 1.55837202 146 147 153
0.06408813 0.41224286 1.56196272 127 128 139
0.06283624 0.41782047 1.59880149 131 131 141
0.06064497 0.41761515 1.61402822 146 146 152
0.06268840 0.42097270 1.59503961 121 122 134
0.06071733 0.42230472 1.61595428 128 128 138
0.06093514 0.42802247 1.62175083 117 117 132
0.08706462 0.17606896 0.47150208 95 102 115
0.08161251 0.17784490 0.48642978 113 117 125
0.08705651 0.18532267 0.47399988 103 110 122
0.08279329 0.18448490 0.48388898 127 130 139
0.09696083 0.18831811 0.77354263 149 156 166
0.09541627 0.19860729 0.78596604 136 142 161
0.08693001 0.21375042 0.65810145 131 135 145
0.08359499 0.20872447 0.66587543 149 156 163
0.09721511 0.20341388 0.77327035 146 149 154
0.09544003 0.20405745 0.78430100 138 145 150
0.08215716 0.21648085 0.86309964 131 132 141
0.08404505 0.22077075 0.65942788 160 162 166
0.08186766 0.22174717 0.66525332 150 157 165
0.08257005 0.22421069 0.86551704 150 154 160
0.08523827 0.27653695 0.69714109 155 163 168
0.08327073 0.27886571 0.70088098 160 169 172
0.08206266 0.28719777 0.69831812 111 115 117
0.08301787 0.28425868 0.70251228 155 162 166
0.09709092 0.66714685 1.96833105 168 172 177
0.09702457 0.68273529 1.98796976 164 168 172
0.11854897 0.08639075 0.72846036 109 112 131
0.11101343 0.15921779 0.57323756 141 144 151
0.11162766 0.16305427 0.57351054 126 130 141
0.11780979 0.17880228 0.75954294 133 140 146
0.10196096 0.17907882 0.76540377 156 157 166
0.11833280 0.18253297 0.75869477 138 141 148
0.10944245 0.18953496 0.77074128 147 150 156
0.10616422 0.19914268 0.78008264 153 155 163
0.10943752 0.20332612 0.77638830 120 123 137
0.10789501 0.20764081 0.78426790 110 111 131
0.11913246 0.58952487 1.77924371 135 144 150
0.11298568 0.59404657 1.78746026 144 151 154
0.11099826 0.60664573 1.79693234 141 144 148
0.10697752 0.61302309 1.80772018 150 153 158
0.10423744 0.61671829 1.84209740 156 160 168
0.10626630 0.62268561 1.82228994 162 168 170
0.10562135 0.63073089 1.85520818 161 164 169
0.10358690 0.63544293 1.88827813 161 164 171
0.10773473 0.64563715 1.87522310 163 166 168
0.10440405 0.64688036 1.88830018 165 169 171
0.10270746 0.65499258 1.93315514 166 170 174
0.10334603 0.65626824 1.94517428 166 170 176
0.10594786 0.66661656 1.93131578 163 164 166
0.10540830 0.67202678 1.95680518 165 166 170
0.10114487 0.66900221 1.96775985 166 170 174
0.11279403 0.69187995 1.97197352 143 143 148
0.10468656 0.69142034 1.98330247 156 158 163
0.11394639 0.70334703 1.97348845 131 134 140
0.10913320 0.71117765 1.98942722 136 140 146
0.13279136 0.07625328 0.72171164 103 107 125
0.12644132 0.08552588 0.72549879 101 103 118
0.13829020 0.31569713 1.71184814 167 172 180
0.13899218 0.31432587 1.72053766 166 169 179
0.12485137 0.58189869 1.75167018 149 157 163
0.12371359 0.58696081 1.77151318 143 151 157
0.12269099 0.59185195 1.78627938 138 147 152
0.15800901 0.27081297 1.67519146 125 128 143
0.15662921 0.27601566 1.68630509 125 128 144
0.15643798 0.27793473 1.71618187 115 113 132
0.15709642 0.28988577 1.67157673 130 131 141
0.15481798 0.29068195 1.68931985 139 140 149
0.15436933 0.29016841 1.70970953 148 148 157
0.15585318 0.30074510 1.67795014 145 146 148
0.15526955 0.31078317 1.69273213 142 144 150
0.14758125 0.31302348 1.71239664 163 166 173
0.14232722 0.31512567 1.72491562 170 173 181
0.14742319 0.32253511 1.71000322 156 158 168
0.17773724 0.11193627 0.53331561 148 152 159
0.16935157 0.15939753 0.67463721 138 142 146
0.17220557 0.16485104 0.67364475 144 148 157
0.16572999 0.16593494 0.68438446 143 150 157
0.16165358 0.27319320 1.67795014 159 163 176
0.16617222 0.27183116 1.69167702 155 161 167
0.17361754 0.27368337 1.70480794 159 164 168
0.16256922 0.28530286 1.67243958 121 120 136
0.16677587 0.29306750 1.68992511 138 139 146
0.17461514 0.28355573 1.70539372 139 139 148
0.16952019 0.30478830 1.69232810 128 128 135
0.17116394 0.31328219 1.70725880 129 130 137
0.17765170 0.31729966 1.72053766 150 151 154
0.16661121 0.32202183 1.71401501 122 126 135
0.17661306 0.32108843 1.72491562 137 140 144
0.19939026 0.09776016 0.95545056 129 132 136
0.19688352 0.08801587 0.97701336 100 104 122
0.19191243 0.08916034 0.98198009 93 97 118
0.18260473 0.11350325 0.53334074 142 144 153
0.18564366 0.23675580 1.07687956 135 139 149
0.18467716 0.23770645 1.09162700 113 118 128
0.18883506 0.24735917 1.07915958 140 142 153
0.19133342 0.24992511 1.08703527 134 137 148
0.19926023 0.24720173 1.11129808 156 160 167
0.19696678 0.26115641 1.07772946 141 144 150
0.19310089 0.26070971 1.08754257 122 125 136
0.18168407 0.31274467 1.71185537 140 139 145
0.18062551 0.32027349 1.72053766 139 140 144
0.20684401 0.07827763 0.97503561 135 138 147
0.20351074 0.09749851 0.95774673 116 117 128
0.20587090 0.08819296 0.97214283 104 108 125
0.21035731 0.15743879 0.51525165 143 146 153
0.21047899 0.16847577 0.51339626 137 140 145
0.21597096 0.18179983 0.51679002 139 142 146
0.20190635 0.24898049 1.07824540 148 150 158
0.20125642 0.24491076 1.08836412 152 156 163
0.20206969 0.24327828 1.10718145 156 159 165
0.20244396 0.24775523 1.12544783 158 160 167
0.21746037 0.30375257 1.69472957 137 139 151
0.21669579 0.30978154 1.71185899 168 171 179
0.21686165 0.31512567 1.72491562 165 169 173
0.21471575 0.35632214 0.89212328 134 135 140
0.21040105 0.35868383 0.90345462 117 121 129
0.21154157 0.36696203 0.89307591 93 96 99
0.20808189 0.36602411 0.90599290 127 131 136
0.22098230 0.17927507 0.51297188 138 144 147
0.22359943 0.18341391 0.51598621 147 150 154
0.23924530 0.27583358 1.63347435 165 169 172
0.23814349 0.27784207 1.64536858 164 171 172
0.23950115 0.28706074 1.65474884 156 160 166
0.23285774 0.29382272 1.66858205 140 144 154
0.23299437 0.30049757 1.67656910 114 119 135
0.23082623 0.30498220 1.69179643 114 119 134
0.23070897 0.31453882 1.70932317 130 132 144
0.23697051 0.32424279 1.71401501 111 115 129
0.23336143 0.32451524 1.72199698 129 131 140
0.22130878 0.35904564 0.89079088 137 138 140
0.22179462 0.36369212 0.89274639 129 130 133
0.25430877 0.27675030 1.63054821 155 156 166
0.25240779 0.28966696 1.64960521 158 160 165
0.24764344 0.29371911 1.66494583 159 160 167
0.24063255 0.29791915 1.70324588 159 161 168
0.25315112 0.30845411 1.67164354 123 122 135
0.24697551 0.31132888 1.69023980 127 128 140
0.24794096 0.31500343 1.70809144 127 129 142
0.24673985 0.32523244 1.69474367 121 125 144
0.25383467 0.32763189 1.71066123 133 137 149
0.24557827 0.32638711 1.72141325 109 113 131
0.26431438 0.13241826 0.45958769 124 129 131
0.27371076 0.13542625 0.46602769 124 130 135
0.27447214 0.14202763 0.46657606 131 139 145
0.26058060 0.30354017 1.66149962 114 113 129
0.28526822 -0.20719127 0.67993164 82 73 76
0.29539229 -0.20553771 0.69254185 82 72 74
0.29862650 -0.19792684 0.69274841 82 72 75
0.28656374 0.24665110 0.67705424 130 131 134
0.28853560 0.25323486 0.68914010 138 143 146
0.28927165 0.25893065 0.70102566 147 156 156
0.29222013 0.26504830 0.69466140 158 163 166
0.29288580 0.27258893 0.70961655 151 159 162
0.28947310 0.28494073 0.70937757 140 145 148
0.28939046 0.28397528 0.72384392 143 150 154
0.30486754 -0.20587365 0.69160889 81 71 71
0.30180892 -0.19725184 0.69144650 82 72 74
0.31965839 -0.06616510 0.45197537 134 129 124
0.31947102 -0.05006355 0.45271003 134 129 124
0.31902494 -0.03896617 0.45268242 133 128 119
0.31119391 0.13961549 0.72970057 151 161 164
0.31358769 0.14537069 0.73260179 139 143 151
0.31721155 0.15421779 0.74305787 150 154 157
0.31859919 0.17568988 0.49245100 150 151 154
0.31944656 0.16014878 0.74905175 150 155 162
0.32147329 -0.14411234 0.45117839 132 132 124
0.32176205 -0.12627942 0.45264265 134 132 127
0.32217401 -0.10844643 0.45423350 135 130 127
0.32252257 -0.09077611 0.45562445 134 129 126
0.32519161 -0.08870505 0.46206620 134 129 125
0.32171636 -0.07253156 0.45549268 134 129 124
0.32515516 -0.07013019 0.46322694 134 129 124
0.32169080 -0.05110184 0.45714501 133 128 125
0.32516149 -0.04860044 0.46476727 133 128 124
0.32152103 -0.02978132 0.45819165 133 128 123
0.32442395 -0.03100963 0.46463359 132 128 123
0.32330540 -0.01903662 0.46273020 132 128 122
0.32176445 0.14858872 0.73585079 148 152 158
0.32393994 0.15429527 0.74491653 142 147 153
0.32638954 0.17522938 0.48912084 130 135 138
0.32363031 0.16200151 0.75238345 152 157 164
0.32152979 0.18372833 0.49274395 140 144 146
0.35197274 -0.30928796 0.71592248 49 41 42
0.35070762 -0.31524613 0.72158155 49 42 43
0.34720371 -0.29883499 0.71257239 52 43 44
0.35930525 0.16436374 0.78301179 169 174 178
0.35892398 0.19705237 0.47385250 155 165 163
0.37148717 0.15933493 0.79269024 160 165 170
0.37814627 0.15893761 0.80452420 157 164 169
0.37207684 0.16401367 0.78796917 154 158 162
0.37537681 0.16071336 0.80366862 154 160 167
0.36550678 0.19233882 0.47751348 136 144 145
0.36827524 0.19006529 0.48030608 131 138 139
0.39664062 -0.40575189 1.44893939 94 85 86
0.39827560 -0.39007681 1.43356112 94 82 82
0.39739431 -0.39755341 1.44386071 94 83 83
0.39272295 0.05596068 0.49113481 105 111 118
0.39023677 0.06118272 0.48869168 106 114 124
0.41689265 -0.42084855 1.46412921 94 84 85
0.41488751 -0.40319933 1.43649579 97 84 83
0.40870806 -0.40812126 1.44590467 93 84 84
0.41436201 -0.41831794 1.46412921 94 85 86
0.41038974 -0.39095074 1.43190046 94 81 82
0.40071183 -0.39962298 1.44232309 93 83 83
0.41269808 -0.37611814 1.42807199 94 83 85
0.43229605 0.17552150 0.57621575 151 160 162
0.43480717 0.17797880 0.58414290 145 155 158
0.43370350 0.18179613 0.57851756 154 161 161
0.43504655 0.18552979 0.58527081 158 164 164
0.43963334 0.47511566 1.28632224 127 137 140
0.44255152 0.19576101 0.59832106 140 144 147
0.44478115 0.19756607 0.60495307 138 143 146
0.44608096 0.20237051 0.60887860 127 134 139
0.45301786 0.20696654 0.62518248 132 137 141
0.45996836 0.24012488 0.85917848 161 164 171
0.45608893 0.45600762 1.24920722 166 171 174
0.44567576 0.45877588 1.27184212 140 150 158
0.45829006 0.45894468 1.28878947 141 149 155
0.45048313 0.46622970 1.23793514 143 147 151
0.45484582 0.46862763 1.25223793 145 148 154
0.45475644 0.47001286 1.26872539 140 144 152
0.45515425 0.47085527 1.29020322 144 151 158
0.45468769 0.48129484 1.25226990 143 146 153
0.45396896 0.48397902 1.26189916 127 130 138
0.45656068 0.48149235 1.29272170 127 130 139
0.45405754 0.48563248 1.30867147 128 131 139
0.46725924 0.23814109 0.87186864 132 137 146
0.47576615 0.23804691 0.89094776 124 126 138
0.47832383 0.23530450 0.90338659 152 154 155
0.46304323 0.24160910 0.87079100 157 162 167
0.47191195 0.24333143 0.89303496 132 134 141
0.47192356 0.24804256 0.90940451 137 139 146
0.47113665 0.25440329 0.92552790 130 132 142
0.47113210 0.26006851 0.92481834 115 121 129
0.46107876 0.48187315 1.29452384 133 133 146
0.49905914 -0.02888031 0.76641273 102 92 90
0.48129377 0.23676284 0.89708241 104 106 118
0.48356779 0.23630126 0.90587962 138 140 142
0.48426151 0.24107775 0.90748572 107 107 121
0.51007015 -0.04080948 0.77918601 101 91 87
0.51072880 -0.02901155 0.77604219 102 93 91
0.51536512 -0.03066138 0.78205979 101 93 91
0.50313578 0.23552817 0.59491381 99 103 107
0.51223204 0.23543141 0.60793615 111 116 119
0.50453389 0.24021840 0.59726155 134 136 136
0.51790672 0.24321411 0.60566414 98 105 109
0.50555608 0.52538165 1.35578912 155 159 164
0.51273233 0.53640187 1.37503421 155 160 164
0.51720715 0.53858680 1.38063514 156 162 165
0.51784608 0.54421329 1.39198089 155 159 165
0.51166373 0.57039309 1.41818380 138 144 146
0.51434626 0.57628582 1.42757445 136 139 141
0.51486641 0.58292465 1.43393746 134 135 137
0.53784031 -0.15418223 0.45208332 129 127 121
0.53375747 -0.04916214 0.79653291 103 95 93
0.53562874 -0.05181269 0.80459616 100 93 89
0.52473910 -0.02318635 0.77774827 112 101 100
0.52419366 -0.03206729 0.78648684 104 95 93
0.52949284 0.23381241 0.61284280 122 128 131
0.53353930 0.23328631 0.62178045 125 129 132
0.52525420 0.24186856 0.61051307 109 113 118
0.52169713 0.54608181 1.34905052 151 154 159
0.53174537 0.55303830 1.37503421 154 157 162
0.53496021 0.55472243 1.39271155 156 159 163
0.52888766 0.55459692 1.40533629 157 161 165
0.53699338 0.56100386 1.39483917 152 155 161
0.53426860 0.56580457 1.41614068 152 156 161
0.53227991 0.57279005 1.42927075 149 155 159
0.53397369 0.57884055 1.44539833 144 152 156
0.53542976 0.58419380 1.43290959 150 155 159
0.53420528 0.58724425 1.44540917 143 147 152
0.53904527 0.59329358 1.46255147 143 146 153
0.55031403 -0.16071766 0.45588269 84 95 105
0.54400389 -0.15469264 0.45400952 118 117 113
0.55998564 -0.15491673 0.46367431 84 92 97
0.54224653 -0.06183807 0.80496678 105 99 94
0.54183855 -0.05814441 0.79902412 107 105 97
0.54090390 -0.05855882 0.80091264 106 101 94
0.55767240 0.17269837 0.52764517 144 153 154
0.54123453 0.56800228 1.41326159 151 155 159
0.54264847 0.57349298 1.42414248 149 153 157
0.54352951 0.58019793 1.41818380 149 153 158
0.54317248 0.58344620 1.43015158 150 155 158
0.54108679 0.59641850 1.45783186 154 160 163
0.54324007 0.59905189 1.47048128 150 154 160
0.54337096 0.60239939 1.46627867 145 150 157
0.56828859 -0.14678082 0.47466390 115 114 111
0.57100233 -0.14433799 0.48188327 129 126 119
0.57122525 -0.13150780 0.47735273 123 121 115
0.57247430 -0.13430981 0.48214578 128 127 119
0.56539079 0.17399507 0.52984164 152 158 160
0.59867113 -0.10263411 0.50251632 129 127 120
0.59904701 -0.09592780 0.50344817 126 125 119
0.60192114 -0.10781790 0.49982814 115 111 110
0.60328701 -0.10295324 0.50196957 115 113 112
0.60704908 -0.09088389 0.50662077 114 113 109
0.61739425 -0.07791177 0.51804058 125 121 115
0.61688298 0.19581950 0.61955086 154 164 164
0.61867420 0.19584931 0.62134941 141 150 151
0.62194838 -0.08269616 0.51724136 95 91 90
0.62326695 -0.07722183 0.51841519 96 91 94
0.63273883 -0.06813763 0.52827889 106 103 100
0.63487132 -0.05853216 0.53108572 113 110 106
0.63103724 0.18800189 0.61907929 112 121 120
0.63045394 0.19169347 0.62950076 138 145 146
0.63241273 0.19895934 0.64296180 142 152 152
0.62816432 0.20177567 0.63345073 153 162 163
0.63528230 0.20341730 0.64418339 144 154 154
0.63603486 0.31777251 0.82408668 117 121 128
0.64044261 -0.06260374 0.53029356 56 56 61
0.64494439 -0.05106063 0.53710845 91 90 88
0.64442225 -0.05482250 0.54094393 127 123 115
0.64942388 0.20779748 0.63711752 144 148 151
0.65488841 0.21064694 0.64366975 139 142 145
0.65932512 0.22814981 0.65732785 124 126 132
0.65882777 0.22477828 0.66078520 124 128 134
0.64594024 0.31205304 0.83566720 125 132 135
0.64475238 0.31478378 0.84186242 122 126 131
0.64368878 0.32249895 0.83690861 120 123 128
0.64642576 0.32472295 0.84781365 116 119 123
0.67871287 -0.84528264 1.60447997 42 33 34
0.66414905 -0.82508686 1.57649267 43 34 34
0.67511052 -0.83368218 1.59379152 43 34 34
0.67519848 -0.28426613 0.68656913 137 137 129
0.67246301 -0.27935373 0.68563001 135 135 127
0.67490074 -0.24732377 0.67241929 136 134 129
0.67175261 -0.23633639 0.66815890 136 134 125
0.67818366 -0.16340286 0.68687915 138 132 123
0.67978132 -0.15858179 0.68699466 137 129 124
0.66442006 0.21810764 0.65598931 120 123 128
0.66489286 0.21765838 0.66289857 135 142 144
0.66279598 0.22621124 0.65754612 106 111 119
0.66924065 0.22882803 0.66346122 108 114 121
0.66450793 0.37467194 0.89509218 116 121 125
0.66781927 0.37667592 0.90300095 108 114 119
0.66690876 0.38575309 0.89338753 127 132 133
0.67123974 0.39213549 0.90906972 128 132 134
0.67459098 0.39770948 0.92397950 107 113 117
0.67078310 0.40101653 0.91453344 121 127 130
0.67335089 0.40566798 0.93142492 103 109 114
0.67234578 0.40944905 0.94304934 129 134 136
0.69657824 -0.86186614 1.61633949 42 33 34
0.69609486 -0.86486632 1.62564929 41 33 34
0.69461777 -0.84900571 1.61004433 43 34 34
0.69609310 -0.85783350 1.62563992 43 34 35
0.69240737 -0.83740422 1.60863288 44 35 35
0.69442779 -0.83615977 1.62175083 46 37 38
0.68192940 -0.28536347 0.68636307 138 136 130
0.68172877 -0.27862851 0.68626635 136 135 126
0.68292121 -0.25010039 0.67461626 136 134 129
0.68208522 -0.25151690 0.68543160 136 134 131
0.68267414 -0.23920229 0.67002057 138 136 128
0.69334085 -0.16880456 0.69227647 134 130 125
0.68074843 -0.15757155 0.68647292 137 129 124
0.69940558 0.16677544 0.68095630 145 153 155
0.68029004 0.23941817 0.66853237 117 120 126
0.68477679 0.24260805 0.67385882 117 120 125
0.71056327 -0.88397153 1.63414456 39 31 32
0.71211310 -0.88960880 1.64881955 39 32 32
0.71288398 -0.89685863 1.66149962 40 32 32
0.70409559 -0.86722105 1.61499354 40 32 32
0.71087355 -0.87135891 1.62848537 41 32 32
0.70370732 -0.85154498 1.61019847 41 32 32
0.71748221 -0.85989559 1.62954772 42 33 32
0.70172805 -0.83934009 1.60637879 44 35 34
0.71199030 -0.18025178 0.69849768 133 132 125
0.70939270 -0.17458801 0.69697807 132 132 125
0.71435481 -0.17408967 0.70042217 133 133 125
0.70829762 0.15498318 0.67913749 139 146 144
0.70968928 0.15728968 0.68908795 141 145 146
0.70605106 0.16295775 0.68761285 142 148 148
0.72543146 -0.88335128 1.64437258 38 32 31
0.72399565 -0.87155359 1.63663082 40 33 33
0.77671653 -0.16518778 1.12700301 128 123 117
0.77530822 -0.16565029 1.14886693 103 95 90
0.79501149 -0.18307436 1.16722212 109 99 98
0.78846044 -0.16839651 1.13550599 130 125 120
0.78986324 -0.16752129 1.15001585 117 110 106
0.79320329 -0.17663491 1.16436626 108 98 97
0.79833835 -0.17780460 1.18512559 103 92 89
0.79483420 -0.15947171 1.14896917 126 121 121
0.80773351 -0.20217261 1.17791897 109 102 102
0.81275052 -0.20673555 1.18650037 110 100 101
0.80526069 -0.18155677 1.15681541 134 129 122
0.80519998 -0.18795009 1.17051517 118 114 110
0.81140532 -0.19599069 1.18513217 113 106 105
0.80160294 -0.16646007 1.15264097 134 128 124
0.80052668 -0.15802146 1.15287733 130 128 124
0.83904855 -0.33051912 1.27567799 93 84 81
0.83696747 -0.25768840 1.23929036 97 89 87
0.83048746 -0.22166514 1.20807048 111 107 103
0.83436579 -0.22359756 1.22855197 104 95 92
0.82426537 -0.21344233 1.19536661 118 114 109
0.83119909 -0.21823859 1.20364382 121 115 110
0.82701421 -0.21808463 1.22142673 105 93 91
0.83639097 0.13216767 1.23040799 102 109 118
0.82836147 0.14404941 1.21758923 96 103 111
0.83539398 0.14344124 1.22331936 95 103 111
0.84759604 -0.32698617 1.27489785 95 88 84
0.85191270 -0.32499780 1.28909755 95 86 84
0.84949970 -0.32677078 1.30113602 95 87 88
0.85531628 -0.30756854 1.27415317 96 87 84
0.85311393 -0.31041951 1.28717774 95 86 84
0.85383142 -0.29313667 1.27200468 95 88 84
0.85695537 -0.29359462 1.28948340 94 87 83
0.84817435 -0.26355650 1.25188318 101 92 90
0.85909843 -0.26103171 1.26237134 101 93 90
0.85212497 -0.25064984 1.25212305 102 94 90
0.85639970 -0.24928169 1.26444799 99 91 88
0.84365016 -0.22456680 1.21650162 125 125 121
0.84772059 -0.23024451 1.23160034 114 110 107
0.84911641 -0.23468751 1.25035536 101 94 94
0.85037353 -0.23630749 1.26237134 97 90 90
0.84566678 0.11473442 1.23443406 137 141 144
0.84714945 0.13178924 1.23026660 112 118 126
0.84133184 0.14266278 1.21922994 124 133 139
0.84260470 0.14106316 1.22363412 82 89 99
0.86307669 -0.32195876 1.27904117 94 85 85
0.86073045 -0.32441086 1.28877707 96 86 86
0.86623194 -0.30554160 1.27378380 98 91 87
0.87088066 -0.31072649 1.28459406 97 89 85
0.86460662 -0.28759876 1.25768435 105 96 95
0.86934266 -0.29033218 1.27022781 102 96 92
0.87471118 -0.29113129 1.28683929 98 93 88
0.86243284 -0.26151308 1.25768435 109 100 98
0.87014192 -0.26981532 1.27024561 107 100 99
0.87614899 -0.27860509 1.28471359 99 96 91
0.86139220 -0.24756212 1.26413697 102 93 92
0.86357605 -0.23888861 1.25303483 110 104 102
0.86109740 0.13084777 1.23702896 99 103 117
0.88203764 -0.29036171 1.27252897 122 115 117
0.88887843 -0.28450418 1.29229602 108 104 102
0.88545023 -0.27088721 1.27623701 128 125 121
0.88930378 -0.27645837 1.28529411 120 118 115
0.90521431 -0.28346436 1.30364299 125 125 122
0.90225887 -0.27847472 1.29616034 134 131 128
0.93787616 0.37171668 1.49315866 141 144 146
0.93981105 0.37750733 1.51993692 137 137 142
0.93771350 0.37700509 1.53716969 128 131 136
0.93931210 0.37732934 1.54066324 131 135 139
0.93472099 0.39143881 1.49032701 118 125 134
0.93627544 0.39074871 1.50896326 114 120 130
0.93741089 0.38897326 1.53349317 131 135 140
0.93664920 0.38664952 1.54066324 147 150 154
0.93666464 0.40018907 1.50642633 93 106 115
0.94594367 0.37117844 1.49669166 144 148 150
0.94952944 0.37173208 1.50930064 149 151 153
0.94892487 0.37349028 1.52874230 146 147 149
0.94530368 0.37799507 1.54066324 133 134 140
0.94452895 0.38495267 1.49579803 147 153 157
0.94791968 0.38406476 1.50955995 148 153 156
0.94765583 0.38871631 1.53142977 130 133 138
0.94990291 0.38775859 1.54110193 134 136 140
0.94506526 0.40115112 1.51993692 96 106 121
0.94857045 0.40167632 1.53197658 96 103 117
0.96409726 0.36885199 1.07944560 153 158 159
0.97354243 0.36727569 1.08917651 141 148 152
0.97590566 0.38240418 1.09691238 153 159 159
0.99259918 0.35422453 1.11285276 149 156 157
0.99768837 0.35933305 1.12358244 151 155 157
0.99061522 0.36548970 1.11021241 150 155 157
0.99571076 0.36665714 1.12967931 139 145 149
0.99926567 0.37283966 1.14315653 107 116 121
0.98226339 0.38298711 1.10405838 150 156 158
1.00251311 0.37211534 1.13052892 147 152 156
1.00554785 0.37665628 1.15019618 108 115 120
1.00637335 0.38670933 1.13170749 150 156 157
1.01409629 0.38361721 1.15289785 125 132 137
1.01348634 0.38432463 1.16356666 105 112 119
1.02517498 0.39003723 1.15703701 139 145 149
1.02781811 0.39291517 1.16760143 128 136 141
1.03225822 0.39669732 1.18559490 110 117 123
1.03303076 0.40316581 1.17098509 138 146 151
1.03751306 0.40287713 1.18779239 122 128 134
1.02889693 0.62610030 1.90955448 119 120 125
1.03433728 0.63143635 1.92582905 127 128 132
1.05470109 0.37829262 1.49535124 164 175 174
1.05904019 0.37935919 1.50642633 162 174 174
1.05916512 0.38283844 1.50475621 163 175 175
1.04495565 0.40898548 1.19255575 128 136 141
1.05177675 0.41242222 1.20870025 127 132 137
1.05725129 0.41184120 1.49579072 126 126 131
1.05708194 0.42864457 1.19980860 136 138 143
1.04378265 0.63079709 1.93407482 112 113 118
1.04857292 0.63648329 1.95359175 129 130 133
1.05328250 0.63930881 1.97061586 144 146 147
1.04248810 0.64053488 1.95357883 141 142 146
1.04829868 0.64322960 1.96872290 146 147 151
1.06638348 0.37843740 1.51315141 156 162 164
1.06883308 0.38627479 1.51570165 163 173 173
1.07599179 0.39533305 1.52679556 163 171 172
1.07778347 0.39863262 1.54066324 154 160 162
1.06004393 0.41647717 1.21268666 128 137 141
1.06591627 0.41702119 1.22974461 128 131 136
1.06321616 0.41689721 1.49909859 114 115 126
1.06898225 0.41319238 1.51035560 129 129 133
1.07655340 0.40962766 1.53024277 148 152 153
1.07741630 0.40900329 1.54183308 143 146 147
1.06638473 0.42729130 1.21215495 132 140 143
1.07720347 0.43311674 1.22747175 131 138 141
1.06613725 0.42257600 1.49810535 104 108 120
1.07053981 0.42196054 1.50979882 116 118 130
1.07567406 0.42153557 1.53197658 135 135 137
1.07968771 0.44272542 1.23029375 134 140 145
1.06163746 0.63682973 1.97348845 128 130 131
1.06770301 0.63806123 1.98795259 152 155 157
1.06186759 0.64327488 1.98990158 150 156 156
1.08580296 0.38787901 1.51470933 160 163 165
1.08836920 0.39312071 1.52922203 166 172 173
1.09491889 0.39286062 1.54418480 162 170 170
1.08791750 0.40761083 1.53216313 154 157 159
1.09043698 0.41072846 1.54147313 151 155 156
1.08239120 0.43125141 1.23702896 127 133 138
1.08889689 0.43474880 1.24786171 127 133 137
1.08430088 0.42216784 1.51993692 119 124 135
1.09472733 0.42401630 1.53232276 128 133 138
1.09493824 0.44590346 1.25151160 129 137 140
1.10808313 -0.64825298 1.83132597 82 74 76
1.11711448 -0.64663625 1.84850313 85 74 76
1.11976552 -0.63948238 1.84711671 90 78 80
1.11347814 -0.60191528 1.81093391 86 79 81
1.11416399 -0.60883945 1.82228994 87 81 83
1.11454785 -0.59851888 1.81012833 87 77 81
1.10560064 0.39859610 1.53369200 152 153 156
1.10403818 0.38618845 1.54948533 154 162 163
1.11141987 0.38902295 1.56630154 154 159 161
1.10511098 0.40464997 1.53485644 159 160 163
1.10934292 0.41547192 1.54434445 146 152 154
1.10897076 0.43649700 1.28389066 130 132 135
1.10615933 0.42854843 1.53716969 135 143 148
1.10925098 0.42543368 1.54183308 140 148 151
1.10530126 0.44476595 1.26948118 124 131 135
1.11996424 0.45510593 1.28632224 120 132 135
1.12646168 -0.64824346 1.83463271 86 78 78
1.12970346 -0.64750503 1.85057276 87 77 79
1.13543224 -0.64153397 1.86234021 88 79 80
1.12872016 -0.63117078 1.82843853 86 79 78
1.13305587 -0.63229770 1.85145438 87 79 78
1.13194129 -0.63452479 1.86507832 85 77 77
1.12060070 -0.60720718 1.81740439 87 78 80
1.12498534 -0.61422531 1.83050734 86 78 79
1.12909758 -0.22192236 1.15878952 133 131 121
1.13647826 -0.22711550 1.16445791 133 131 122
1.13592935 -0.21903881 1.16476607 134 133 124
1.12192214 0.38610443 1.57649267 163 172 171
1.12705922 0.39179038 1.58853093 159 163 165
1.13771832 0.38972393 1.60258114 168 175 171
1.12323778 0.41711006 1.55195475 148 157 159
1.13706806 0.43326293 1.34536041 159 161 164
1.12411571 0.42099550 1.54946911 151 160 164
1.12171352 0.44599757 1.29864335 131 133 140
1.12854719 0.45010733 1.31422113 142 145 147
1.12848995 0.45230830 1.32968791 160 165 165
1.13542298 0.45091579 1.34532535 158 163 165
1.13497823 0.46325235 1.30616939 121 130 135
1.13143318 0.46041451 1.33393526 163 168 168
1.13534057 0.46237705 1.34860663 155 163 165
1.14187002 -0.63509613 1.86234021 87 81 78
1.15266909 -0.24288555 1.17706733 132 132 125
1.15503811 -0.24543520 1.18145430 134 132 126
1.15038618 -0.23068948 1.17173382 132 131 123
1.14887869 -0.21834004 1.17181281 132 131 122
1.14448398 0.38786027 1.61211133 169 173 173
1.15376359 0.42757404 1.33574873 110 111 115
1.14962791 0.43250589 1.35048954 148 152 153
1.15567148 0.43881346 1.37087584 165 169 170
1.14637462 0.45465910 1.33444742 141 144 145
1.14995501 0.44696463 1.35106452 140 144 148
1.15262918 0.45178403 1.36782632 154 161 163
1.14378977 0.46912697 1.31629980 121 130 136
1.14932491 0.46954304 1.33062251 120 124 130
1.15512476 0.46562854 1.34905771 140 143 145
1.15678183 0.46810967 1.37689737 156 163 164
1.15912616 0.46699733 1.38063514 155 161 162
1.16504323 -0.24187250 1.17791897 133 131 123
1.16604072 -0.24475903 1.18202680 131 131 124
1.16349008 -0.22987620 1.17627342 132 130 123
1.16988351 -0.22926861 1.18266612 132 129 122
1.16199774 -0.21928629 1.17689908 132 129 122
1.16298282 -0.21903083 1.18099630 133 130 122
1.16383067 0.43521211 1.35529463 124 127 129
1.16153312 0.43508908 1.37782896 151 155 156
1.16389871 0.43597521 1.38063514 148 154 155
1.16442329 0.44654357 1.35714221 127 131 136
1.16871244 0.45546524 1.36397302 134 135 139
1.16843019 0.45084665 1.38971529 158 166 168
1.17831111 0.44470149 1.40060294 155 159 160
1.16356494 0.46646037 1.35687268 149 151 152
1.17106716 0.47410387 1.36672115 147 149 149
1.16705887 0.46671896 1.39008641 159 166 167
1.17589951 0.46794443 1.40254017 160 168 168
1.18326050 0.47331344 1.41374886 160 168 169
1.19406132 0.47269372 1.42665154 161 169 170
1.20850229 0.47641212 1.44539833 161 167 167
1.21130658 0.76931983 1.89245996 108 115 122
1.21251730 0.77022558 1.90907511 102 107 116
1.21396375 0.77901202 1.92037344 98 106 114
1.21182317 0.78819676 1.89753073 116 125 131
1.21494973 0.79208537 1.90889156 115 123 129
1.21562332 0.78399089 1.92037344 101 108 117
1.21143281 0.79815876 1.95922494 154 155 157
1.21494412 0.79707611 1.96490383 153 154 156
1.21677196 0.80310380 1.89885676 94 104 109
1.21452358 0.80376388 1.90822107 99 107 111
1.21143281 0.80662468 1.95922494 156 157 158
1.21468203 0.81002654 1.96833436 158 160 161
1.21874964 0.81434590 1.98213995 165 168 169
1.21854419 0.82443556 1.97348845 147 149 151
1.21874964 0.82119781 1.98213995 162 163 164
1.23383810 0.75444268 1.94877161 125 126 132
1.23871744 0.75971812 1.96490383 133 135 141
1.22333598 0.76700163 1.89885676 117 122 129
1.23043205 0.76849891 1.90841155 118 123 127
1.22642801 0.77059882 1.93071311 111 116 123
1.23272812 0.76859176 1.94973751 114 117 123
1.23733252 0.77081249 1.96958635 126 128 133
1.22005403 0.79818079 1.89885676 109 116 122
1.22018981 0.79877728 1.90419054 110 120 124
1.22262339 0.78958521 1.93407482 106 112 122
1.22694813 0.78995157 1.95128057 114 118 126
1.23146341 0.79145145 1.97010563 128 131 135
1.23428302 0.79653395 1.98577714 139 141 144
1.22037232 0.80619160 1.91135255 99 108 112
1.22417931 0.80604029 1.92950769 110 117 123
1.23058687 0.80953105 1.95172730 111 118 124
1.22829294 0.80978476 1.97212037 138 140 143
1.22976686 0.80400571 1.99047809 152 153 155
1.22755706 0.82017022 1.93131578 99 107 112
1.23833096 0.82287145 1.95357883 102 107 112
1.23550161 0.82437387 1.97062691 116 120 124
1.23224489 0.82820093 1.98797168 141 143 144
1.24780273 0.73212671 1.93683386 150 151 153
1.25497401 0.73970127 1.94796503 142 146 149
1.25137596 0.74950992 1.93201730 122 125 127
1.24948513 0.75404703 1.94992069 125 126 131
1.25020105 0.75381942 1.96871738 130 134 139
1.25986123 0.75953043 1.98213995 132 138 142
1.24032295 0.76688194 1.91494870 129 132 134
1.24661458 0.77156522 1.93499450 115 117 122
1.25032767 0.76864237 1.95142713 107 109 117
1.24594021 0.76073200 1.97636104 134 137 143
1.24908926 0.76474087 1.98679693 133 137 142
1.24617084 0.78927377 1.99548490 132 135 138
1.24568565 0.83229408 1.96948009 103 109 115
1.24896653 0.83603706 1.99576004 116 121 124
1.26553252 0.75078439 1.97176490 141 146 149
1.26862526 0.75525336 1.98620880 140 146 151
1.26222813 0.77276105 1.95922494 104 104 113
1.26161977 0.84753583 1.99577153 105 113 120
1.35481074 0.31447289 1.21187896 148 156 157
1.35710804 0.32261806 1.21442685 149 156 157
1.37073551 0.31475558 1.21649827 150 158 159
1.37101575 0.31103276 1.23029603 143 151 153
1.36900077 0.32340056 1.21786284 147 153 154
1.37320699 0.32996262 1.22550400 152 161 161
1.38544714 0.31799347 1.21922994 128 133 138
1.38815455 0.31645529 1.22142673 127 134 138
1.38607935 0.32178670 1.21922994 131 137 139
1.38853228 0.33025570 1.22574369 138 147 148
1.38611156 0.33580913 1.24384242 153 163 163
1.38913139 0.34091896 1.23253334 149 157 158
1.39658645 0.34377050 1.25130945 152 159 160
1.40457851 0.34900281 1.25651979 150 158 161
1.41777551 0.34731543 1.27423275 153 162 162
1.42312562 0.35083675 1.27904117 148 155 156
1.43395305 0.35684943 1.28877240 147 156 158
1.43129444 0.75536954 1.69261646 76 80 89
1.43880892 0.75864303 1.70324588 74 77 86
1.43948185 0.76350528 1.70753610 84 91 96
1.43565559 0.77512956 1.76075804 132 136 137
1.43939424 0.78019935 1.76534331 129 134 135
1.44217324 0.36225340 1.29616034 155 162 163
