ply
format ascii 1.0
element vertex 1105
property float x
property float y
property float z
property uchar red
property uchar green
property uchar blue
end_header
0.31048343 -0.55847254 0.91960593 0 0 0
0.30983097 -0.54813635 0.92251480 1 1 1
0.30765011 -0.55206577 0.95315849 32 30 28
0.31489368 -0.55647289 0.96019369 37 33 29
0.30995444 -0.55035399 1.02943691 44 36 37
0.30266507 -0.53939857 0.92639175 6 5 5
0.31001677 -0.53037498 1.03559293 46 39 40
0.31176695 -0.51561260 1.03917302 47 41 43
0.30878333 -0.50627577 1.04132364 51 42 43
0.30994384 -0.49022343 1.04457604 52 45 45
0.31000188 -0.47050557 1.04793347 57 48 48
0.31007681 -0.45002899 1.05072926 63 54 53
0.31034598 -0.42979731 1.05282515 67 58 58
0.30957493 -0.40999895 1.05520792 78 69 67
0.31018867 -0.38979724 1.05730036 83 72 72
0.31081187 -0.37042774 1.05895204 86 75 75
0.30139265 -0.36197445 1.06010166 86 75 77
0.31489681 -0.35699716 1.05965750 86 76 75
0.30796006 -0.34884355 1.06079197 87 76 76
0.30995601 -0.32974821 1.06208099 90 79 80
0.31020495 -0.30940198 1.06362390 91 81 82
0.31025328 -0.28955733 1.06556129 95 83 83
0.30972071 -0.27013732 1.06829749 95 84 84
0.31041152 -0.25038099 1.07099480 99 85 85
0.30956982 -0.23078107 1.07355371 100 86 86
0.30998109 -0.21063647 1.07560816 102 88 85
0.31046255 -0.19048320 1.07727796 102 88 88
0.31072925 -0.17014790 1.07820201 103 90 87
0.31000618 -0.14979703 1.07892713 105 91 89
0.30006572 -0.14057307 1.08005714 102 94 90
0.31323877 -0.13104220 1.07957150 107 91 91
0.30438462 -0.12719148 1.08038637 107 89 91
0.31822637 -0.11675655 1.07991952 109 92 90
0.30929836 -0.10958904 1.08088000 107 90 90
0.31021611 -0.09040278 1.08291549 110 91 90
0.30999039 -0.07000458 1.08814177 107 91 91
0.31016173 -0.05082085 1.09435856 95 81 82
0.30872132 -0.04083739 1.10120252 45 36 41
0.30979855 -0.02283165 1.03168001 130 110 108
0.30993640 -0.02687962 1.04894528 120 103 100
0.30983187 -0.03104074 1.06871261 108 95 93
0.31031435 -0.03542270 1.08987051 97 87 85
0.30978964 -0.03864726 1.10136552 68 59 62
0.31039497 -0.00298715 0.97401592 141 125 121
0.30987453 -0.00984707 0.98961724 135 121 116
0.31094452 -0.01657745 1.00878603 134 117 113
0.30651356 -0.01993927 1.02071866 134 114 112
0.31006841 0.01250424 0.94926039 145 133 129
0.30977101 0.00277874 0.96324111 144 130 126
0.31025180 0.03087392 0.93481463 103 94 96
0.30914002 0.02063448 0.94017369 150 138 135
0.31004236 0.05004287 0.92807882 116 116 121
0.31003474 0.07242258 0.91665321 123 125 134
0.30994919 0.06247121 0.92140832 135 135 140
0.30998879 0.08995072 0.90944225 112 114 128
0.30990815 0.11032633 0.90271935 118 121 131
0.30999623 0.12981334 0.89777514 119 122 135
0.31007094 0.15012933 0.89367748 150 153 162
0.31016706 0.17038711 0.89036507 151 153 162
0.30972702 0.18984218 0.88774422 151 155 162
0.31028261 0.20997125 0.88546552 143 147 155
0.30965400 0.23017319 0.88349233 150 154 161
0.31036381 0.25013003 0.88184148 144 148 153
0.30913113 0.27736573 0.87982081 159 164 167
0.31032459 0.26776030 0.88050114 142 146 152
0.30956838 0.28975187 0.87909110 141 143 147
0.31009681 0.30977085 0.87799764 150 157 160
0.31036171 0.33000506 0.87703947 132 136 143
0.31007215 0.35014267 0.87622113 124 129 136
0.30984818 0.37032095 0.87558823 43 43 45
0.30967993 0.38978331 0.87511279 0 0 0
0.30951221 0.40998062 0.87463881 0 0 0
0.31006237 0.43022937 0.87421189 0 0 0
0.30997604 0.44961839 0.87381554 0 0 0
0.31009346 0.46961840 0.87342251 0 0 0
0.31046392 0.48846640 0.87306388 0 0 0
0.33032541 -0.60761329 0.91120354 0 0 0
0.32982722 -0.58995939 0.91344679 0 0 0
0.33024454 -0.58537087 1.01743408 37 32 32
0.33124711 -0.58248437 1.02062247 40 33 33
0.33002652 -0.57014719 0.91677669 0 0 0
0.33855797 -0.56107299 0.95671797 39 30 31
0.32264777 -0.56443102 0.97102946 38 30 32
0.33236723 -0.57423489 0.98848943 37 31 31
0.32381023 -0.57968898 1.00324512 33 33 31
0.32986464 -0.57020367 1.02370161 42 34 35
0.33043127 -0.55749450 0.91929671 0 0 0
0.32929564 -0.54880933 0.92206293 1 1 1
0.32744768 -0.55295584 0.94613549 34 28 29
0.33003297 -0.54994020 1.02915658 44 35 36
0.32993469 -0.52968723 1.03462737 46 39 39
0.33065597 -0.51144597 1.03843795 47 41 42
0.32748603 -0.50222531 1.04049016 50 43 43
0.32983450 -0.49012275 1.04279936 53 44 44
0.33017176 -0.46973889 1.04660816 55 47 47
0.32977808 -0.44965122 1.04984921 60 51 51
0.33049697 -0.42972023 1.05213690 66 58 58
0.32949866 -0.40991915 1.05445551 78 68 67
0.33011820 -0.38959430 1.05650622 81 72 72
0.33051644 -0.36994913 1.05802186 83 73 75
0.33137696 -0.35162137 1.05918298 86 75 76
0.32396543 -0.34427945 1.06025764 87 76 77
0.33630796 -0.33681631 1.05980341 89 77 79
0.32856706 -0.32965072 1.06085852 88 78 78
0.32987427 -0.31016201 1.06226209 89 80 79
0.33068183 -0.28957610 1.06406742 91 81 80
0.32953212 -0.26972762 1.06667658 96 84 85
0.33035896 -0.25007291 1.06935287 98 84 85
0.32962126 -0.23028411 1.07187288 100 86 86
0.32990247 -0.21029917 1.07388380 100 87 84
0.33037603 -0.19015577 1.07542641 103 89 87
0.33069625 -0.16987405 1.07646932 104 89 87
0.32963744 -0.14954090 1.07743146 103 89 88
0.32946621 -0.13012009 1.07853172 105 91 88
0.33078055 -0.11195499 1.07941861 107 91 89
0.32437729 -0.10364399 1.08020197 107 91 88
0.33772061 -0.09874104 1.07988372 107 90 87
0.32992873 -0.09007267 1.08170771 108 90 88
0.32997166 -0.07020541 1.08685103 107 90 90
0.33022364 -0.04999859 1.09360457 90 78 78
0.32373599 -0.04050912 1.10023120 50 41 45
0.33088454 -0.02299330 1.02962983 127 110 106
0.33042986 -0.02739304 1.04858870 118 100 96
0.32898012 -0.03138605 1.06786756 110 92 93
0.33000582 -0.03639701 1.09069201 91 79 80
0.32082219 -0.03860004 1.10001981 74 64 65
0.33001984 -0.00303769 0.97300381 138 125 118
0.33066586 -0.01041075 0.98947313 136 119 116
0.32956080 -0.01749445 1.00989435 132 115 112
0.32999529 0.01186624 0.94962701 144 133 128
0.33019597 0.00199430 0.96368703 140 129 124
0.32985409 0.03017939 0.93510326 102 94 95
0.33003383 0.05000241 0.92792823 118 119 124
0.32998438 0.07240136 0.91657261 130 131 139
0.33001732 0.06241933 0.92133500 121 121 128
0.33000797 0.08994073 0.90938222 104 108 124
0.32988129 0.11034057 0.90268561 106 109 122
0.32997833 0.12996185 0.89771166 124 128 138
0.33009176 0.15018109 0.89365495 154 158 164
0.33011160 0.17035079 0.89036669 138 141 152
0.32978556 0.18982981 0.88772871 151 154 161
0.33017127 0.20996658 0.88544596 149 153 159
0.32973893 0.23022209 0.88347760 151 155 160
0.33034536 0.25026140 0.88182570 128 133 144
0.33006841 0.27737510 0.87985046 150 153 154
0.32965957 0.26774692 0.88045692 161 166 170
0.32975620 0.28994364 0.87912379 133 137 142
0.33038162 0.30983418 0.87802606 134 139 144
0.33006605 0.33000266 0.87703310 148 153 156
0.32975322 0.35013504 0.87620207 152 156 161
0.32951290 0.37031052 0.87556359 56 58 61
0.33008767 0.38976934 0.87508142 0 0 0
0.32991145 0.40996912 0.87461423 0 0 0
0.33044715 0.43011836 0.87419646 0 0 0
0.33035890 0.44960960 0.87379844 0 0 0
0.33020933 0.46978564 0.87340283 0 0 0
0.33007557 0.48845810 0.87304903 0 0 0
0.35025261 -0.60747749 0.91076387 0 0 0
0.34993003 -0.58989907 0.91304329 0 0 0
0.34716331 -0.58189570 0.99810919 37 30 30
0.35141601 -0.58573718 1.01622782 39 30 31
0.34433104 -0.58183580 1.02058142 41 32 33
0.34998397 -0.56978542 0.91645919 0 0 0
0.35747853 -0.56198120 0.94986816 35 31 29
0.34785784 -0.56747406 0.96682216 36 30 30
0.34995038 -0.57039028 1.02392577 40 33 33
0.35007951 -0.55732886 0.91910087 0 0 0
0.34887765 -0.55112995 0.92227751 3 2 2
0.35293388 -0.55998267 0.94649023 29 21 24
0.35001683 -0.55010823 1.02867798 43 35 36
0.34999190 -0.53032902 1.03335416 46 38 39
0.34977766 -0.51034258 1.03732595 48 41 41
0.35288471 -0.49769010 1.03945355 51 42 43
0.34943251 -0.48773133 1.04178834 51 44 44
0.35005147 -0.46970475 1.04528708 54 47 47
0.34981653 -0.45030455 1.04856977 60 52 52
0.35022668 -0.43013111 1.05110797 66 57 57
0.34990591 -0.41034388 1.05356485 76 67 67
0.34983197 -0.39008512 1.05560739 81 71 73
0.35031452 -0.36961424 1.05706365 84 73 74
0.35041415 -0.34970373 1.05816685 85 74 76
0.35068612 -0.33154307 1.05927886 87 77 76
0.34366640 -0.32376821 1.06028278 88 78 77
0.35709501 -0.31855920 1.05983105 92 77 77
0.34946368 -0.31011843 1.06103195 90 79 78
0.35021266 -0.29011201 1.06281599 92 80 81
0.34978863 -0.26979915 1.06540095 93 82 83
0.35032364 -0.24981085 1.06823347 98 84 84
0.34955704 -0.22998947 1.07078727 98 86 86
0.34997016 -0.21008860 1.07280946 99 87 85
0.35047933 -0.18996913 1.07437028 102 87 87
0.35054722 -0.16987901 1.07530263 103 88 86
0.34949381 -0.14919843 1.07632634 104 89 87
0.34961503 -0.12998697 1.07742843 104 90 86
0.34993152 -0.11053335 1.07840516 106 91 88
0.35194087 -0.09586633 1.07943223 106 90 88
0.34896423 -0.08636563 1.08118217 107 90 88
0.34992793 -0.07006981 1.08573795 105 90 88
0.35001694 -0.04962698 1.09189551 87 76 76
0.35007968 -0.02368034 1.02956228 124 106 104
0.34974865 -0.02867285 1.05110278 114 97 97
0.35054281 -0.03298235 1.07177699 107 88 87
0.34975728 -0.03729576 1.09078770 88 75 77
0.34985118 -0.00303444 0.97202993 137 125 119
0.35013255 -0.01078724 0.98897879 135 119 114
0.35008157 -0.01797415 1.00903655 130 114 111
0.35006305 0.01177052 0.94940117 145 133 129
0.34993734 0.00199293 0.96300747 140 129 124
0.34991190 0.03035123 0.93519027 100 92 94
0.35001894 0.05007140 0.92790056 111 112 119
0.35010702 0.07239435 0.91648041 127 129 138
0.35009717 0.06237015 0.92129959 126 127 135
0.34997558 0.08986851 0.90936548 109 113 126
0.34998329 0.11030385 0.90269126 114 119 131
0.34996721 0.12989722 0.89771707 131 134 143
0.35006293 0.15017360 0.89366091 154 158 164
0.35011831 0.17035102 0.89036818 155 158 164
0.34984170 0.18981664 0.88770862 144 147 155
0.35006199 0.20996363 0.88543407 143 147 154
0.34994644 0.23014895 0.88350295 142 145 151
0.35011910 0.25023239 0.88172366 156 162 166
0.35045420 0.27759957 0.87984468 141 143 147
0.34941322 0.26793030 0.88049324 134 137 144
0.35023939 0.28957834 0.87911881 136 140 144
0.35015120 0.30987299 0.87798287 142 146 151
0.34977488 0.33000497 0.87703937 127 135 142
0.34971914 0.35031198 0.87618897 149 154 158
0.34993465 0.37030164 0.87554268 72 74 76
0.35049263 0.38975390 0.87504673 0 0 0
0.35030906 0.40995703 0.87458840 0 0 0
0.35014494 0.43016292 0.87417860 0 0 0
0.34998669 0.44960191 0.87378351 0 0 0
0.34982875 0.46977831 0.87338919 0 0 0
0.34968756 0.48845118 0.87303667 0 0 0
0.36976589 -0.60694519 0.91043761 0 0 0
0.37008837 -0.58984613 0.91268746 0 0 0
0.36749303 -0.58599043 0.99543868 37 31 31
0.37042910 -0.58726722 1.01471143 38 29 31
0.36997271 -0.56987368 0.91617747 0 0 0
0.37105616 -0.56014306 0.93853581 32 28 29
0.37169751 -0.56558417 0.94996637 32 29 29
0.37499512 -0.57796813 0.97404393 36 31 32
0.37003414 -0.57873154 1.01905838 39 30 31
0.37004742 -0.56883068 1.02322041 40 33 33
0.36987556 -0.55717564 0.91900571 0 0 0
0.36737506 -0.55377184 0.92279436 5 4 4
0.36976993 -0.54996018 1.02797962 44 35 36
0.37022454 -0.52992398 1.03239672 44 37 38
0.37005023 -0.50992467 1.03626716 47 40 40
0.37047474 -0.49536594 1.03896022 49 43 42
0.36948127 -0.48562020 1.04099336 51 44 45
0.36991693 -0.47068417 1.04381442 53 47 46
0.37007824 -0.45021558 1.04732743 59 52 52
0.36978435 -0.42979174 1.05009269 66 57 58
0.37027786 -0.40964849 1.05248725 76 66 68
0.36946402 -0.39019850 1.05448114 80 71 72
0.37028112 -0.36970084 1.05606953 82 72 73
0.37047789 -0.34957765 1.05724961 84 73 73
0.36990765 -0.32987054 1.05846716 89 76 75
0.37076509 -0.31566820 1.05960493 88 78 76
0.36882392 -0.30622819 1.06044923 89 78 79
0.37029806 -0.29056531 1.06197387 90 78 78
0.36971522 -0.27004081 1.06472794 92 80 79
0.37031083 -0.24972174 1.06752287 95 83 82
0.36952002 -0.22983288 1.07013041 98 85 83
0.37014435 -0.20996168 1.07216189 99 85 83
0.37050612 -0.18998434 1.07366212 100 85 86
0.36979337 -0.16938519 1.07462135 101 88 85
0.36950956 -0.14930195 1.07570924 101 88 86
0.36987986 -0.12990984 1.07678768 103 89 85
0.37022796 -0.11047123 1.07780051 104 90 87
0.37068290 -0.09438844 1.07912438 105 90 86
0.36920386 -0.08412230 1.08082391 105 90 87
0.36993653 -0.06993642 1.08464344 106 89 86
0.37019491 -0.04940987 1.08970709 88 76 76
0.37193468 -0.02166067 1.01870419 127 112 105
0.36947436 -0.02446330 1.02938236 124 106 101
0.37065803 -0.02918568 1.04885889 114 96 94
0.37057183 -0.03378726 1.07018876 102 88 87
0.36801332 -0.03751492 1.08686647 88 73 75
0.37012375 -0.00373796 0.97259025 136 124 117
0.36996542 -0.01147079 0.98933903 134 118 111
0.36993655 -0.01793560 1.00690335 130 114 107
0.37007369 0.01181485 0.94911349 145 133 129
0.37008206 0.00202481 0.96232875 139 128 125
0.37012420 0.03011494 0.93558887 104 96 97
0.36996936 0.05004372 0.92800760 119 121 126
0.37005587 0.07234918 0.91643791 127 129 137
0.37018817 0.06247381 0.92119886 125 127 130
0.36994220 0.08979616 0.90934687 108 112 125
0.37007972 0.11028369 0.90267893 106 110 125
0.36995919 0.12990649 0.89771546 131 133 142
0.37004000 0.15016828 0.89368057 139 141 149
0.37012721 0.17035232 0.89037514 137 141 149
0.36990244 0.18980607 0.88770157 153 155 162
0.36995139 0.20996043 0.88541996 149 152 160
0.37013937 0.23006576 0.88349116 137 143 150
0.36996146 0.25025323 0.88179615 145 149 153
0.36951978 0.27734241 0.87981825 154 159 162
0.36993803 0.26790565 0.88053174 140 143 149
0.37034293 0.28974958 0.87908421 137 142 149
0.36989133 0.30988319 0.87801211 137 139 144
0.36971696 0.33015389 0.87701610 149 155 158
0.37013832 0.34995163 0.87618956 147 151 154
0.37035543 0.37029277 0.87552182 67 68 71
0.37014032 0.38973904 0.87501336 0 0 0
0.36995039 0.40994576 0.87456430 0 0 0
0.36978080 0.43015543 0.87416337 0 0 0
0.36961519 0.44959591 0.87377183 0 0 0
0.36978497 0.46996394 0.87337603 0 0 0
0.37005511 0.48844644 0.87302819 0 0 0
0.38967083 -0.60683085 0.91003005 0 0 0
0.39005600 -0.58950369 0.91237130 0 0 0
0.39146715 -0.58058659 0.97187608 32 28 28
0.38963907 -0.58823792 0.98848150 34 29 31
0.39038658 -0.58894882 1.01324164 37 30 31
0.39003184 -0.56969264 0.91601818 0 0 0
0.38810769 -0.56152432 0.93274868 28 24 22
0.39058328 -0.57118064 0.95200155 32 25 27
0.39202599 -0.57811220 1.01923129 38 32 32
0.38944623 -0.56856772 1.02200596 40 33 33
0.38836366 -0.55823644 0.91884394 0 0 0
0.38808866 -0.55797636 0.92376678 14 12 12
0.39029356 -0.55043297 1.02714270 43 35 36
0.39000120 -0.53006985 1.03155603 44 37 37
0.38988584 -0.50983292 1.03535339 47 40 41
0.39044635 -0.49275150 1.03859496 50 42 43
0.38844102 -0.48316771 1.04057185 52 43 43
0.39013775 -0.46993472 1.04288135 53 45 46
0.39006578 -0.44986098 1.04629290 57 50 50
0.38965217 -0.43030629 1.04903051 63 54 54
0.39040059 -0.41022545 1.05150793 74 63 65
0.38985163 -0.39029283 1.05346910 78 69 71
0.38990491 -0.36995219 1.05542513 81 71 72
0.39048644 -0.34949365 1.05699731 82 72 72
0.39003795 -0.32979134 1.05825998 83 74 74
0.39020635 -0.31369763 1.05950050 85 74 76
0.38882279 -0.30408533 1.06032083 90 76 76
0.39033957 -0.29058717 1.06177497 89 76 76
0.38970836 -0.27005998 1.06466292 90 78 78
0.39025158 -0.24976880 1.06745052 93 80 79
0.38972248 -0.22987049 1.06994689 95 83 81
0.39037236 -0.20999622 1.07194304 96 84 82
0.38990316 -0.18966430 1.07348988 99 85 84
0.38954706 -0.16957302 1.07456269 101 85 83
0.38995586 -0.14929943 1.07569063 101 85 85
0.39030301 -0.12989300 1.07664863 101 87 84
0.39033312 -0.11067505 1.07761093 102 87 85
0.38984668 -0.09277442 1.07898640 100 88 87
0.38960699 -0.08285649 1.08063962 104 89 89
0.39009507 -0.06986843 1.08407296 102 88 86
0.39021638 -0.04986879 1.08772797 89 76 75
0.39042043 -0.02161182 1.01640696 127 109 106
0.38969216 -0.02546963 1.02999757 119 102 98
0.39050375 -0.03048860 1.04972193 108 94 93
0.39116904 -0.03526141 1.07010304 96 84 84
0.38953107 -0.03883276 1.08375189 75 62 65
0.38995210 -0.00387967 0.97232641 135 123 116
0.39023946 -0.01225363 0.99026771 133 117 112
0.38899455 -0.01851317 1.00690171 130 110 107
0.38996068 0.01183334 0.94897934 144 133 129
0.39033237 0.00199100 0.96206012 139 127 122
0.38994460 0.03019857 0.93595973 100 93 94
0.38997858 0.05003116 0.92808035 121 122 128
0.39025582 0.07191092 0.91654110 122 124 131
0.39006029 0.06159373 0.92151068 123 123 127
0.38979967 0.09019952 0.90911935 105 110 124
0.39010838 0.11032487 0.90263172 113 117 130
0.38994981 0.12986981 0.89771881 120 125 135
0.39000505 0.15015815 0.89367067 144 146 153
0.39012306 0.17034787 0.89035142 156 159 164
0.38997131 0.18979965 0.88771398 149 154 160
0.38985184 0.20996331 0.88543265 148 152 158
0.39026737 0.23002971 0.88345629 157 162 167
0.38978634 0.25026070 0.88182238 133 138 144
0.39044479 0.27784452 0.87987117 149 154 157
0.39010184 0.26807823 0.88048580 148 154 159
0.39011816 0.28976601 0.87913487 137 139 145
0.38961593 0.30988007 0.87800348 143 147 151
0.39015623 0.32984229 0.87701435 141 145 149
0.39031760 0.35012300 0.87617205 126 129 135
0.39001532 0.37028079 0.87549355 73 75 79
0.38978588 0.38972354 0.87497854 0 0 0
0.38958987 0.40993369 0.87453850 0 0 0
0.38983412 0.43032550 0.87414260 0 0 0
0.38999790 0.44958949 0.87375934 0 0 0
0.39013652 0.46958042 0.87337577 0 0 0
0.39042336 0.48844307 0.87302217 0 0 0
0.40964302 -0.60692733 0.90957078 0 0 0
0.41254964 -0.60099175 1.00823268 34 29 30
0.41008301 -0.59010832 0.91180152 0 0 0
0.41610754 -0.58133531 0.96014112 24 23 27
0.41171549 -0.59360237 0.98887218 30 26 26
0.41001858 -0.59014582 1.01340310 36 29 30
0.40981715 -0.57066434 0.91528370 0 0 0
0.40892827 -0.56534674 0.92844041 18 16 18
0.40626529 -0.57313221 0.94875926 27 23 25
0.40498089 -0.57871651 0.96130431 29 25 25
0.41002204 -0.57561243 1.01893495 37 31 31
0.40985021 -0.56587868 1.02188128 38 32 32
0.41007166 -0.55070400 1.02667901 42 34 35
0.40999088 -0.52995734 1.03110055 44 36 37
0.40991907 -0.50950363 1.03494065 47 38 39
0.41027607 -0.49065211 1.03837698 50 41 42
0.40779992 -0.48109312 1.04026728 51 42 43
0.41015984 -0.46972065 1.04220657 52 45 45
0.40989632 -0.44973470 1.04551163 55 48 47
0.41015487 -0.42987179 1.04828627 62 54 53
0.41000914 -0.41012053 1.05084621 73 63 64
0.41007787 -0.38999238 1.05293456 76 66 68
0.40985944 -0.36984940 1.05513451 79 70 70
0.41037284 -0.34969781 1.05705313 81 72 72
0.40969303 -0.32959799 1.05839849 83 72 74
0.40840306 -0.31431619 1.05952733 84 74 75
0.41167560 -0.30516955 1.06040932 87 75 75
0.41023685 -0.29067696 1.06187101 87 76 77
0.40988113 -0.27013784 1.06466455 89 78 76
0.40997325 -0.24961438 1.06752688 89 79 78
0.41006952 -0.22987240 1.06995744 93 81 79
0.41013022 -0.21005699 1.07206739 93 82 81
0.40962194 -0.18983828 1.07363089 95 82 81
0.41005956 -0.16960705 1.07477744 97 83 82
0.41023137 -0.14951011 1.07584746 98 85 84
0.40991176 -0.12991493 1.07682932 100 85 83
0.40991662 -0.11024117 1.07778684 101 86 86
0.40989225 -0.09319747 1.07911173 101 86 84
0.41030650 -0.08314630 1.08058648 100 85 86
0.41003378 -0.06972849 1.08389994 99 85 85
0.41007757 -0.05026550 1.08686924 87 76 76
0.40994238 -0.02157590 1.01471780 124 108 103
0.40999991 -0.02540343 1.02734581 118 101 101
0.41039734 -0.03139624 1.04956339 106 89 88
0.40968258 -0.03649233 1.07058535 96 82 82
0.41004843 -0.03984218 1.08211725 59 52 55
0.40997477 -0.00387821 0.97198454 133 120 113
0.40946460 -0.01251247 0.99026701 132 115 110
0.41005330 -0.01879184 1.00638643 130 112 106
0.41000368 0.01175073 0.94877457 142 132 127
0.41014757 0.00199032 0.96173603 137 125 119
0.40989536 0.03030691 0.93615164 101 94 95
0.40997176 0.05010913 0.92805675 118 120 125
0.41001671 0.07239819 0.91617840 130 132 139
0.41018279 0.06166548 0.92133028 125 126 131
0.41001470 0.09064281 0.90885765 111 116 126
0.41001117 0.11030223 0.90259699 115 120 129
0.40999545 0.12985881 0.89770684 116 121 131
0.40995869 0.15014392 0.89363662 146 150 157
0.41007642 0.17037733 0.89036164 141 144 153
0.41001986 0.18978380 0.88768113 155 159 165
0.40974401 0.20996182 0.88542611 149 153 159
0.41031021 0.23006377 0.88348565 149 153 157
0.40973867 0.25037518 0.88174790 151 158 163
0.41022560 0.27785174 0.87989401 120 127 133
0.41042487 0.26809615 0.88049584 129 136 142
0.40988189 0.28977317 0.87915687 132 137 143
0.40978036 0.31006347 0.87797997 142 146 151
0.41038778 0.32998661 0.87699062 144 147 151
0.40999394 0.35011379 0.87614907 145 151 155
0.40967252 0.37026752 0.87546222 94 99 103
0.40979084 0.38988767 0.87493960 0 0 0
0.40998473 0.40992239 0.87451435 0 0 0
0.41019787 0.42995828 0.87413112 0 0 0
0.41037969 0.44958269 0.87374609 0 0 0
0.41020083 0.46976547 0.87336528 0 0 0
0.41003713 0.48844003 0.87301673 0 0 0
0.43016206 -0.60704631 0.90917443 0 0 0
0.43402728 -0.60202418 0.99621342 27 23 26
0.43118211 -0.60185515 1.00596934 31 27 28
0.42993077 -0.59022228 0.91132393 0 0 0
0.43060585 -0.58320224 0.95549972 28 24 27
0.42740069 -0.58960855 0.97194846 25 23 27
0.42617030 -0.59659751 0.98819367 27 24 27
0.42986152 -0.59013148 1.01348497 36 29 30
0.42960799 -0.57270771 0.91421624 0 0 0
0.43019405 -0.57088033 0.92799847 20 17 18
0.42361650 -0.57620721 0.94359054 26 19 23
0.43028735 -0.57490538 1.01864352 37 30 31
0.42966663 -0.56509312 1.02177172 37 31 32
0.43001008 -0.55036756 1.02641076 41 33 34
0.42986203 -0.53011959 1.03075962 44 35 36
0.43020823 -0.50967495 1.03454605 46 38 38
0.43024018 -0.48961241 1.03820336 50 41 42
0.42198271 -0.48052066 1.04006588 51 42 42
0.42997008 -0.46968712 1.04180133 51 44 44
0.42968972 -0.44988290 1.04484951 55 47 47
0.43051907 -0.43006205 1.04761620 61 53 53
0.42979078 -0.40993150 1.05036260 71 61 62
0.43006965 -0.38990580 1.05266117 76 66 69
0.42992683 -0.36985461 1.05515077 77 69 70
0.43014147 -0.34963884 1.05729865 80 71 72
0.42963969 -0.33000187 1.05893672 82 72 73
0.42716510 -0.31810278 1.05983629 82 72 75
0.43092799 -0.30881350 1.06072560 84 74 75
0.42993675 -0.29044487 1.06240052 85 74 76
0.43008245 -0.27020123 1.06491403 87 76 75
0.42980010 -0.24953443 1.06785253 88 77 78
0.43019222 -0.23020714 1.07040135 90 78 76
0.42984820 -0.20985466 1.07257737 91 80 79
0.43020914 -0.19002637 1.07425847 93 80 79
0.42982354 -0.16970892 1.07542331 91 81 81
0.43003409 -0.14923171 1.07662954 95 82 81
0.42978697 -0.13001521 1.07765999 99 83 82
0.43010473 -0.11053906 1.07845659 98 85 83
0.42855762 -0.09443150 1.07933236 98 84 83
0.43175748 -0.08500661 1.08078719 97 84 82
0.42989599 -0.07003322 1.08387959 97 83 83
0.42973641 -0.05033314 1.08648768 84 73 72
0.42997101 -0.02249398 1.01646356 122 106 101
0.43067125 -0.02724975 1.03206514 111 97 94
0.42918376 -0.03208050 1.04981600 101 87 85
0.43046540 -0.03746537 1.07054161 85 72 73
0.42145460 -0.03977081 1.08017874 64 60 61
0.43003354 -0.00382054 0.97128098 134 120 113
0.42969772 -0.01250339 0.98956231 131 114 111
0.43008982 -0.01873402 1.00531499 126 109 105
0.43019875 0.01117957 0.94899313 142 131 126
0.42821771 0.00149251 0.96199232 137 123 118
0.43009094 0.03023218 0.93628306 101 94 96
0.42999529 0.05005371 0.92802289 123 124 129
0.43010141 0.07233156 0.91605276 126 128 134
0.43000891 0.06157318 0.92122071 128 130 135
0.43001991 0.09064994 0.90873825 110 115 126
0.42989663 0.11025712 0.90253501 116 121 131
0.43003013 0.12984477 0.89767299 104 109 120
0.42994630 0.15011035 0.89356379 151 155 161
0.43005385 0.17031313 0.89031183 147 153 160
0.43002966 0.18978601 0.88769147 141 144 151
0.42974576 0.21005697 0.88540635 156 161 164
0.43023037 0.23012080 0.88349773 152 158 162
0.42988370 0.25030775 0.88177088 150 154 159
0.42996473 0.27783136 0.87982955 157 163 166
0.43031659 0.26816459 0.88054906 118 123 131
0.42966490 0.28980437 0.87908813 147 153 158
0.43025080 0.30968633 0.87800337 131 136 141
0.43009783 0.32998998 0.87699992 131 137 143
0.42967432 0.35010868 0.87613634 147 152 156
0.42992461 0.37038504 0.87544024 133 137 140
0.43016936 0.38951745 0.87492086 0 0 0
0.43038222 0.40991464 0.87449778 0 0 0
0.43019285 0.43013067 0.87411301 0 0 0
0.43000689 0.44957706 0.87373513 0 0 0
0.42982203 0.46976236 0.87335949 0 0 0
0.42965157 0.48843802 0.87301313 0 0 0
0.45018717 -0.60709093 0.90903300 0 0 0
0.45014653 -0.60474354 0.99519178 27 23 25
0.45020084 -0.60281466 1.00413458 30 24 26
0.44992844 -0.59016434 0.91101513 0 0 0
0.45173246 -0.58702015 0.95187146 32 25 28
0.44841432 -0.59617139 0.97352797 29 25 26
0.44128251 -0.59854256 0.98294884 26 22 25
0.45003056 -0.59031901 1.01285317 35 29 30
0.44893157 -0.57471487 0.91382976 2 1 1
0.45357885 -0.57600031 0.92677208 33 25 26
0.44370189 -0.57964575 0.94122916 33 25 27
0.45028355 -0.57419605 1.01853652 36 30 32
0.44974053 -0.56454706 1.02139225 37 30 32
0.44997452 -0.55018371 1.02568971 40 32 32
0.45006359 -0.53030375 1.03027731 42 35 35
0.45008202 -0.51006085 1.03424275 45 37 39
0.45001234 -0.48956375 1.03800518 48 40 41
0.45788679 -0.47867145 1.03995391 48 42 42
0.44973119 -0.46941773 1.04162728 50 44 44
0.45010516 -0.45001227 1.04447009 52 46 46
0.45023444 -0.43043432 1.04724146 59 53 52
0.44978002 -0.40993609 1.05002818 69 60 60
0.45010282 -0.38982334 1.05251996 73 64 65
0.45004871 -0.36990371 1.05529215 77 68 69
0.44996386 -0.34965768 1.05763633 79 71 71
0.44836382 -0.33301723 1.05928309 80 72 73
0.45345020 -0.32479392 1.06043727 81 72 74
0.45024433 -0.31043695 1.06159636 83 72 74
0.44976964 -0.28974462 1.06348843 83 74 75
0.44997405 -0.26953417 1.06591308 84 75 76
0.44997403 -0.25009826 1.06865694 86 75 75
0.44994288 -0.22991372 1.07127480 88 76 77
0.44991614 -0.21046894 1.07351555 88 79 77
0.45019080 -0.19007555 1.07545051 91 78 79
0.44992747 -0.16992934 1.07682166 89 78 78
0.44952103 -0.14962989 1.07807932 92 80 78
0.44815016 -0.13078882 1.07904397 95 81 79
0.45710865 -0.12635358 1.08042961 93 80 78
0.44440018 -0.11286871 1.07953234 95 84 83
0.45347821 -0.10889627 1.08091832 94 80 80
0.44189640 -0.09949342 1.07994604 100 83 84
0.44992946 -0.09034032 1.08194269 94 81 80
0.45017843 -0.06980989 1.08542206 95 81 81
0.45003113 -0.05017810 1.08602627 82 69 70
0.44992598 -0.02248138 1.01589598 119 101 99
0.44990422 -0.02728363 1.03129666 107 93 88
0.45059535 -0.03276923 1.05058933 94 83 83
0.44911477 -0.03778899 1.06942163 80 68 69
0.45007437 -0.00387337 0.97078867 133 120 113
0.44979301 -0.01243635 0.98884253 129 113 108
0.44988405 -0.01880635 1.00514369 127 107 103
0.44989679 0.01097695 0.94885215 142 130 126
0.44929380 0.00116053 0.96190939 137 125 121
0.44995488 0.03026838 0.93613922 97 91 93
0.45001336 0.04997596 0.92786606 122 125 128
0.45002492 0.07234034 0.91587124 117 118 127
0.45009117 0.06160244 0.92101460 138 141 142
0.45006949 0.09058162 0.90862037 117 122 132
0.45458539 0.11930590 0.89997130 102 107 116
0.44970753 0.10988774 0.90252534 124 128 137
0.45009057 0.12983930 0.89757184 126 130 136
0.44998753 0.15009822 0.89349082 150 153 158
0.45002733 0.17035431 0.89024119 149 152 158
0.45001971 0.18977117 0.88766357 143 147 153
0.44985726 0.21002398 0.88540789 150 155 159
0.45007037 0.23011490 0.88347480 157 162 167
0.45004490 0.25024905 0.88182443 122 127 135
0.45044132 0.27742427 0.87982472 159 164 168
0.44982490 0.26782172 0.88051158 145 151 155
0.44981377 0.28986897 0.87905148 155 159 164
0.45028753 0.30985894 0.87794374 146 152 156
0.44979718 0.32998540 0.87698752 143 149 154
0.44980364 0.35029747 0.87613003 155 161 164
0.45033459 0.37012844 0.87544543 120 123 129
0.45024278 0.38969211 0.87490790 0 0 0
0.45002632 0.40990973 0.87448733 0 0 0
0.44982767 0.43012491 0.87410130 0 0 0
0.44963443 0.44957226 0.87372579 0 0 0
0.44977868 0.46995043 0.87335087 0 0 0
0.45002159 0.48843742 0.87301204 0 0 0
0.46987166 -0.60690900 0.90917856 0 0 0
0.47283172 -0.60238990 0.97270116 33 27 27
0.47130601 -0.60874900 0.99459991 29 24 25
0.47012162 -0.60461091 1.00440249 29 24 26
0.47007212 -0.59030628 0.91101675 0 0 0
0.47189434 -0.58433476 0.93314167 30 23 24
0.46908019 -0.58880873 0.94656754 33 27 27
0.46872598 -0.59856140 0.96833213 31 25 26
0.46989587 -0.59023097 1.01254777 35 28 29
0.46853571 -0.57786247 0.91385926 2 1 1
0.46825791 -0.57826166 0.92152503 24 19 19
0.46974747 -0.57447382 1.01856059 37 29 31
0.47010121 -0.56446843 1.02132028 36 30 31
0.47000400 -0.54995024 1.02536351 38 31 31
0.47007983 -0.53028964 1.03005791 41 34 35
0.47000122 -0.50998786 1.03404315 44 36 38
0.46988784 -0.48939682 1.03783460 47 39 40
0.47040048 -0.47860162 1.03980219 50 41 42
0.46963356 -0.46907580 1.04120331 49 43 42
0.47029057 -0.45026328 1.04382533 51 45 45
0.46990270 -0.43021153 1.04670029 58 52 51
0.46979472 -0.40970087 1.04965095 69 60 60
0.47003617 -0.38989623 1.05251367 71 63 64
0.47009336 -0.37013893 1.05556383 75 66 67
0.46975207 -0.34965973 1.05806520 77 69 69
0.46921224 -0.33672850 1.05958841 78 70 70
0.47077004 -0.32739132 1.06077573 80 70 72
0.46985861 -0.31000473 1.06280980 81 71 72
0.47005230 -0.28971589 1.06488053 82 72 73
0.46998951 -0.26991954 1.06743725 84 72 73
0.47002064 -0.25007973 1.07022193 84 73 74
0.46992547 -0.23070958 1.07279580 85 74 74
0.47011114 -0.21032474 1.07524481 86 75 75
0.46981024 -0.19058601 1.07739197 86 76 76
0.46841973 -0.17208125 1.07893739 87 76 75
0.47604694 -0.16604905 1.08063230 84 74 74
0.46198767 -0.15356578 1.07953741 89 78 76
0.47120048 -0.14920922 1.08139380 89 76 76
0.47003466 -0.12965129 1.08240359 89 77 77
0.47042007 -0.11017008 1.08353024 92 78 77
0.46947264 -0.09019213 1.08468200 89 77 76
0.47017237 -0.07001034 1.08726651 90 78 76
0.46699333 -0.04161973 1.07970951 55 48 49
0.47034342 -0.05106557 1.08695676 81 70 70
0.46785451 -0.02214855 1.01575355 118 98 97
0.47004778 -0.02648916 1.02997510 105 91 88
0.46974455 -0.03257323 1.05045249 91 79 78
0.47054646 -0.03802886 1.06939046 75 66 66
0.47009447 -0.00387232 0.97055033 132 117 111
0.46992629 -0.01246636 0.98884965 127 113 104
0.47022511 -0.01874081 1.00567364 122 103 100
0.46989241 0.01102372 0.94867150 142 130 125
0.46999203 0.00116032 0.96173738 135 121 116
0.47001512 0.03025144 0.93594248 101 95 94
0.46998952 0.05007991 0.92751917 121 123 127
0.47017942 0.07196118 0.91587102 127 129 133
0.46905430 0.06134084 0.92093996 130 130 132
0.47005414 0.09060483 0.90847256 119 123 130
0.46931690 0.11929426 0.89988346 106 111 124
0.46997075 0.10949914 0.90250932 125 128 135
0.47014332 0.12980588 0.89746844 120 123 132
0.46998088 0.15010176 0.89343641 156 158 164
0.47000564 0.17029215 0.89020207 151 154 159
0.47006899 0.18975682 0.88763794 141 144 150
0.46995336 0.20998415 0.88538056 150 156 161
0.46993403 0.23012110 0.88349792 144 147 152
0.47014002 0.25015308 0.88174883 152 157 162
0.46878976 0.27742337 0.87982186 156 162 162
0.47011456 0.26781595 0.88049209 142 146 151
0.47018542 0.28968307 0.87914871 138 142 147
0.47001330 0.30985801 0.87794139 156 162 164
0.46973715 0.33013575 0.87696755 152 159 161
0.47023467 0.34992411 0.87615828 136 139 142
0.47018283 0.37025462 0.87543179 123 127 134
0.46990053 0.38969130 0.87490617 7 7 7
0.46966901 0.40990400 0.87447512 0 0 0
0.46970429 0.43027437 0.87408559 0 0 0
0.47001541 0.44956631 0.87371421 0 0 0
0.47012933 0.46956663 0.87335006 0 0 0
0.47039001 0.48843520 0.87300806 0 0 0
0.48998147 -0.60717581 0.90936774 0 0 0
0.49017630 -0.60611462 0.97126293 33 27 27
0.49051113 -0.61087864 0.99334909 31 24 26
0.49057345 -0.60461161 1.00491811 30 25 27
0.48977139 -0.59029946 0.91142286 0 0 0
0.49119213 -0.58640105 0.92653756 27 22 21
0.49138354 -0.59625986 0.94807327 31 25 25
0.48992188 -0.59002846 1.01322916 34 27 28
0.48189972 -0.57988277 0.91341448 0 0 0
0.48978761 -0.57495106 1.01882035 34 28 30
0.49026956 -0.56490025 1.02139238 35 29 31
0.48994679 -0.54990261 1.02529754 37 30 31
0.49026093 -0.53001927 1.03037120 40 33 34
0.48982594 -0.50985186 1.03456850 42 36 37
0.48977314 -0.48970148 1.03825720 44 38 39
0.49837168 -0.48050904 1.04004073 46 38 39
0.48484148 -0.47866394 1.03993759 46 41 41
0.49031908 -0.46926088 1.04139103 48 41 42
0.48994708 -0.45018756 1.04402757 50 44 44
0.48997439 -0.43036065 1.04706395 57 50 50
0.48992993 -0.40976382 1.05022163 67 57 56
0.48997971 -0.39008535 1.05327376 70 61 61
0.49005781 -0.37043041 1.05649029 73 64 65
0.48886323 -0.35238906 1.05898739 75 67 68
0.49364020 -0.34423653 1.06049414 77 67 68
0.48128805 -0.33943841 1.05981946 78 70 71
0.49018322 -0.32968469 1.06196291 78 69 70
0.49007877 -0.30982934 1.06459080 79 70 71
0.48991613 -0.29007692 1.06680789 80 70 71
0.49019660 -0.27034604 1.06945374 81 71 70
0.49007478 -0.25050514 1.07222967 82 71 72
0.48998439 -0.22999850 1.07487029 84 71 73
0.48998283 -0.21004525 1.07743833 84 72 73
0.49922943 -0.20094839 1.08014202 83 72 72
0.48528710 -0.19224635 1.07896269 84 74 74
0.49425667 -0.18724075 1.08109477 83 72 72
0.48102988 -0.17973287 1.07979989 83 74 75
0.49019292 -0.17026537 1.08268894 84 72 73
0.48983151 -0.15043180 1.08511805 85 72 73
0.48983056 -0.13018798 1.08688980 87 74 74
0.49023897 -0.10945653 1.08840905 87 74 76
0.48988864 -0.08998281 1.08910617 85 74 75
0.49054151 -0.07030913 1.09056312 87 74 75
0.49038746 -0.05045913 1.08897314 76 67 68
0.48956005 -0.02160628 1.01614617 111 93 93
0.48962995 -0.02545043 1.02924615 105 90 86
0.49015692 -0.03147903 1.05027918 89 77 76
0.48972510 -0.03756356 1.07026312 76 67 67
0.49011716 -0.00387170 0.97033811 132 115 112
0.49011960 -0.01244062 0.98915267 125 109 102
0.49045516 -0.01880679 1.00717542 116 97 95
0.49749158 0.01900371 0.93988909 149 139 133
0.48984196 0.01073105 0.94880053 141 129 125
0.49062225 0.00115997 0.96144689 135 119 116
0.49014522 0.03021381 0.93538563 97 92 92
0.48993630 0.04992503 0.92730274 111 113 118
0.49008057 0.07154889 0.91591797 124 126 131
0.48988922 0.06080713 0.92101545 131 131 133
0.48997477 0.09055572 0.90835989 116 121 131
0.48947567 0.11927935 0.89977101 109 115 127
0.49005894 0.10947570 0.90239901 117 121 131
0.49013751 0.12986385 0.89735748 129 134 142
0.48996944 0.15007979 0.89338103 152 155 160
0.49005199 0.17031333 0.89017049 154 158 163
0.49010802 0.18973879 0.88759667 153 159 162
0.48999501 0.20994913 0.88535475 154 158 163
0.48977261 0.23011487 0.88347474 143 148 154
0.49023437 0.25014552 0.88176720 155 160 162
0.49021497 0.27744662 0.87981525 140 145 149
0.48952951 0.26781519 0.88048959 146 150 154
0.49027768 0.28966655 0.87912859 130 138 145
0.48974696 0.30986234 0.87795341 153 158 160
0.49003136 0.32996570 0.87700389 140 144 146
0.49025521 0.35011410 0.87615006 119 124 131
0.48984620 0.37024925 0.87541912 137 143 149
0.48955523 0.38968814 0.87489910 23 24 25
0.49001404 0.40994663 0.87445858 0 0 0
0.49007020 0.42995928 0.87407517 0 0 0
0.49039356 0.44955825 0.87369855 0 0 0
0.49018909 0.46974881 0.87333425 0 0 0
0.49000021 0.48842943 0.87299775 0 0 0
0.51019898 -0.60733936 0.90942656 0 0 0
0.50985816 -0.60163436 0.94943837 29 24 23
0.51287494 -0.61327459 0.97337904 28 23 23
0.51073714 -0.61205420 0.99120407 34 27 29
0.50956853 -0.60458722 1.00482197 34 28 29
0.50935206 -0.59313248 0.91124754 0 0 0
0.51007452 -0.59266871 0.92806734 26 22 22
0.51201856 -0.59943320 0.94420975 28 24 25
0.51047158 -0.58992610 1.01236229 32 26 28
0.51059036 -0.57425952 1.01851126 32 26 28
0.50976106 -0.56451741 1.02138632 33 27 29
0.51016194 -0.54992955 1.02539424 34 29 30
0.51008950 -0.52971301 1.03088907 37 31 32
0.51007783 -0.50969282 1.03536505 40 34 35
0.50956289 -0.49183757 1.03872352 42 36 37
0.51187223 -0.48210789 1.04035820 44 37 39
0.50995648 -0.46969378 1.04197850 46 39 40
0.51031767 -0.44971577 1.04478025 50 42 43
0.50990532 -0.43035170 1.04786056 55 47 47
0.51002549 -0.41033325 1.05123252 62 53 53
0.51012272 -0.38952252 1.05460712 66 57 56
0.50998939 -0.36968666 1.05790570 69 59 61
0.50735923 -0.35746971 1.05957327 72 62 62
0.51073570 -0.34765315 1.06118287 72 63 65
0.51009046 -0.32988686 1.06375119 73 66 66
0.50999921 -0.31040069 1.06672990 73 65 64
0.51034936 -0.29018771 1.06970429 76 65 67
0.51005198 -0.26974838 1.07255167 77 67 68
0.51004663 -0.24972233 1.07530503 78 68 69
0.51024547 -0.22986513 1.07795702 80 68 68
0.51758531 -0.22086148 1.08013725 74 65 65
0.50484263 -0.21423431 1.07908570 82 72 72
0.51264833 -0.20792412 1.08133187 77 68 69
0.50988595 -0.18972594 1.08360211 80 69 70
0.51023189 -0.16958943 1.08670091 78 69 70
0.51080932 -0.14984477 1.08968269 81 68 70
0.50961855 -0.13019710 1.09151377 81 69 71
0.51041176 -0.11011587 1.09274889 83 69 70
0.51069494 -0.09004798 1.09250664 81 68 69
0.51117634 -0.07033971 1.09218219 79 67 68
0.51881502 -0.04316009 1.07736515 69 64 65
0.51129507 -0.05061763 1.08923155 73 64 64
0.50841832 -0.02166147 1.01874219 106 90 88
0.50963233 -0.02494790 1.03050967 97 84 82
0.51164653 -0.03040394 1.04964512 76 67 67
0.51067125 -0.03701951 1.06991029 71 64 66
0.51020656 -0.00381568 0.97045760 131 114 110
0.50965393 -0.01199814 0.98914990 121 105 100
0.51075128 -0.01813341 1.00717173 112 97 92
0.51035512 0.01899879 0.93964579 149 139 131
0.50994018 0.01019498 0.94910689 140 128 121
0.51051215 0.00115985 0.96134777 133 117 113
0.50996432 0.03024228 0.93470474 95 91 91
0.50995869 0.05000336 0.92698079 113 116 121
0.50999246 0.07156397 0.91577582 127 129 135
0.51010237 0.06082712 0.92083600 131 132 134
0.50995293 0.09060717 0.90821371 107 112 122
0.51112651 0.11898186 0.89972708 98 105 119
0.50992898 0.10934267 0.90232220 106 111 121
0.51006875 0.12981469 0.89727223 120 123 133
0.50999675 0.15006612 0.89329965 160 165 167
0.51003329 0.17030677 0.89013518 147 150 155
0.51009656 0.18975958 0.88756785 161 165 168
0.51001785 0.20994928 0.88539053 146 151 155
0.50977123 0.23023050 0.88340733 159 164 167
0.51019255 0.25025948 0.88181836 133 138 141
0.51100908 0.27720019 0.87979659 159 163 168
0.50948455 0.26775400 0.88053092 135 140 146
0.51010583 0.28973582 0.87904234 153 159 162
0.50974163 0.31004949 0.87802124 121 127 135
0.51026187 0.32986468 0.87701810 140 147 151
0.50993304 0.35010807 0.87613499 145 150 153
0.50968848 0.37037203 0.87539750 155 160 164
0.50996059 0.38968111 0.87488329 38 40 42
0.51040208 0.40983545 0.87444343 0 0 0
0.51023145 0.43010068 0.87405209 0 0 0
0.51001331 0.44954788 0.87367839 0 0 0
0.50980158 0.46973883 0.87331569 0 0 0
0.50960606 0.48841992 0.87298075 0 0 0
0.53603474 -0.62045478 0.97694902 30 26 26
0.53123355 -0.62037855 0.98121056 29 23 25
0.53024324 -0.60678840 0.90975779 0 0 0
0.53316112 -0.60180247 0.93272064 33 26 30
0.52768698 -0.60622547 0.94751830 31 26 27
0.53260815 -0.61800910 0.97573271 30 24 25
0.53033210 -0.61025579 0.98935516 29 25 26
0.52327057 -0.60285932 1.00223309 30 24 26
0.52887978 -0.59567785 0.91160476 2 2 2
0.52900725 -0.59581626 0.92260353 29 23 27
0.53567762 -0.59214022 0.99645702 33 27 29
0.52682579 -0.58846959 1.00587557 32 25 27
0.53922226 -0.57818818 0.99915364 36 27 30
0.53041823 -0.57017829 1.01043860 33 27 29
0.52077089 -0.56199501 1.02087290 30 25 26
0.53351477 -0.55080412 1.01290813 36 30 32
0.52407332 -0.54833090 1.02281420 32 27 29
0.53622706 -0.53116873 1.01505781 39 32 34
0.52687626 -0.52931119 1.02615217 35 29 31
0.53815666 -0.51180356 1.01743282 42 36 37
0.52894892 -0.50957947 1.02899477 38 32 34
0.53928697 -0.49764902 1.01918502 45 37 38
0.53066268 -0.48989002 1.03092966 41 35 36
0.52091410 -0.48147440 1.04018474 37 33 32
0.53285816 -0.47030179 1.03197801 46 39 40
0.52256408 -0.46828667 1.04136250 41 34 35
0.53430102 -0.45029196 1.03358305 50 43 44
0.52449265 -0.44895272 1.04286665 45 38 39
0.53609927 -0.43069774 1.03549294 56 47 47
0.52658932 -0.42941767 1.04477008 51 42 44
0.53776171 -0.41142437 1.03739231 59 51 51
0.52836689 -0.40961968 1.04692112 54 46 47
0.53917044 -0.39506977 1.03883109 62 53 51
0.53017452 -0.38981785 1.04859670 58 51 51
0.53070911 -0.37020029 1.05163742 62 53 52
0.53234080 -0.35057825 1.05318855 63 56 54
0.52239376 -0.34699389 1.06108519 55 48 49
0.53459337 -0.33023914 1.05396968 66 57 55
0.52483890 -0.32906708 1.06286367 60 54 54
0.53586182 -0.31040424 1.05484374 67 58 57
0.52624131 -0.30974489 1.06474258 63 55 55
0.53663385 -0.29009866 1.05538894 68 60 59
0.52721637 -0.28988664 1.06653536 64 56 56
0.53704793 -0.27007567 1.05601578 72 60 61
0.52759749 -0.26997394 1.06832159 68 58 56
0.53744383 -0.25050930 1.05572769 72 63 60
0.52803373 -0.24964646 1.06947362 68 58 58
0.53779313 -0.23009210 1.05568285 72 63 61
0.52838788 -0.22979124 1.07049584 69 59 59
0.53782446 -0.21068376 1.05646030 74 62 63
0.52971640 -0.21026215 1.07075281 71 61 60
0.52198991 -0.20778686 1.08099985 66 55 55
0.53829957 -0.19049371 1.05666991 73 62 64
0.53155696 -0.19019004 1.06977704 72 62 63
0.52311874 -0.18922036 1.08288270 67 56 56
0.53838015 -0.17012790 1.05661803 76 65 66
0.53210025 -0.16993460 1.06994323 73 63 62
0.52385102 -0.16937983 1.08485459 66 57 57
0.53835096 -0.14964707 1.05573258 75 66 66
0.53240894 -0.15016277 1.06962723 74 63 62
0.52474065 -0.14958035 1.08592170 69 58 58
0.53781492 -0.12954672 1.05483742 77 66 67
0.53186671 -0.12978860 1.06987078 75 65 64
0.52458878 -0.13017807 1.08698869 69 59 59
0.53702976 -0.10916638 1.05273723 79 68 70
0.53053487 -0.11028131 1.06982601 75 66 66
0.52375831 -0.10996703 1.08748000 68 59 57
0.53591848 -0.08957151 1.05050076 81 70 70
0.52858909 -0.09005752 1.06975525 76 65 66
0.52290958 -0.09076010 1.08598152 71 60 59
0.53908533 -0.06872681 1.03808500 84 72 72
0.53394878 -0.06981310 1.04982675 80 70 71
0.52638937 -0.07023065 1.06982798 73 64 65
0.52172478 -0.07058753 1.08464688 71 61 61
0.53703655 -0.04901964 1.03463469 83 73 73
0.53027170 -0.04969577 1.04965862 78 68 70
0.52366946 -0.05082855 1.06914363 73 62 63
0.52066061 -0.05523857 1.08243614 71 61 63
0.53605814 -0.02264092 1.01750610 82 67 67
0.53279916 -0.03061357 1.02981930 82 70 71
0.52572819 -0.03445674 1.04877324 72 63 64
0.52173204 -0.03814953 1.06385794 68 61 62
0.52971583 -0.00368302 0.97151167 127 112 107
0.53068362 -0.01133368 0.99044939 113 97 93
0.53038640 -0.01806728 1.00891715 91 78 77
0.52974387 0.01899516 0.93946643 148 138 132
0.52984330 0.01023322 0.94917091 138 127 119
0.53004385 0.00116078 0.96211420 135 117 114
0.52999469 0.03015198 0.93439843 97 93 92
0.52993062 0.04997674 0.92678032 109 111 117
0.52996905 0.07147364 0.91568439 129 132 137
0.52991487 0.06075766 0.92074817 120 121 124
0.52998982 0.09054051 0.90811309 117 121 129
0.52989960 0.11849919 0.89975273 99 107 118
0.53002698 0.10871053 0.90237515 114 118 129
0.53005463 0.12978314 0.89718229 119 125 133
0.53003057 0.15005541 0.89323537 148 153 157
0.52999065 0.17029270 0.89006208 156 161 165
0.53004791 0.18976253 0.88758143 146 149 154
0.53004819 0.20991013 0.88534770 150 157 162
0.52990925 0.23014280 0.88340968 150 153 156
0.52996357 0.25023901 0.88174693 143 151 155
0.52978937 0.27761423 0.87982998 145 149 153
0.53029647 0.26795340 0.88052291 121 131 139
0.52988174 0.28974879 0.87908224 142 145 148
0.52998608 0.30987798 0.87799729 129 132 137
0.53013799 0.32998752 0.87699303 147 153 157
0.52966855 0.35015611 0.87612066 157 162 163
0.53008797 0.37010854 0.87538622 148 150 154
0.53036000 0.38967021 0.87485886 58 60 62
0.53009094 0.40987583 0.87441504 0 0 0
0.52985400 0.43008696 0.87402420 0 0 0
0.52972392 0.44965659 0.87364943 0 0 0
0.52982062 0.47000543 0.87328420 0 0 0
0.52996131 0.48840650 0.87295677 0 0 0
0.55026215 -0.62115048 0.97119518 33 28 30
0.54994422 -0.60709317 0.91029257 0 0 0
0.54833229 -0.60200036 0.92485157 36 28 29
0.55024407 -0.61225031 0.94637339 37 30 31
0.55278887 -0.61319308 0.97563174 35 29 31
0.54573605 -0.60651544 0.98344013 35 29 30
0.54788955 -0.59793280 0.91156924 10 8 8
0.54354354 -0.59851715 0.92021871 41 30 32
0.55859552 -0.59373159 0.97907954 38 31 33
0.54895187 -0.58936771 0.98684192 36 30 32
0.55068833 -0.57047318 0.99098619 39 31 34
0.54123036 -0.56513433 1.00127223 36 30 32
0.55272915 -0.55038678 0.99304111 43 35 37
0.54299414 -0.54868332 1.00308880 39 31 33
0.55472461 -0.53054917 0.99464880 47 39 40
0.54487603 -0.52924035 1.00538181 42 35 37
0.55667460 -0.51102577 0.99646314 50 43 44
0.54686909 -0.50951735 1.00756418 46 39 39
0.55827069 -0.49226354 0.99826597 54 47 47
0.54865125 -0.48971949 1.00948116 50 43 44
0.54083294 -0.48099650 1.02010632 48 41 42
0.55941898 -0.47744827 0.99975471 55 49 48
0.55116953 -0.47010730 1.01008450 54 47 47
0.54143763 -0.46832453 1.02174261 51 43 44
0.55275078 -0.45034049 1.01166081 57 50 49
0.54267393 -0.44940394 1.02325417 55 47 48
0.55428259 -0.43063374 1.01332318 60 52 52
0.54433863 -0.42943118 1.02522760 58 50 49
0.55580944 -0.41084171 1.01497143 62 56 55
0.54581967 -0.40952461 1.02733305 59 53 53
0.55732222 -0.39099065 1.01642493 64 57 56
0.54727739 -0.38968255 1.02920726 63 55 54
0.55842320 -0.37111412 1.01766739 66 58 58
0.54937372 -0.37004727 1.02974034 65 57 55
0.54116840 -0.36706296 1.04143550 66 55 55
0.55895011 -0.35175058 1.01896209 69 59 58
0.55121609 -0.35002010 1.02984117 67 58 56
0.54210437 -0.34861548 1.04266271 65 57 55
0.55975660 -0.32996703 1.01924828 71 62 62
0.55235099 -0.33016104 1.02993046 70 60 60
0.54287597 -0.32949614 1.04386994 68 59 55
0.55993651 -0.31685669 1.01957586 71 64 64
0.55324273 -0.30997989 1.03003561 71 61 61
0.54342850 -0.30963590 1.04470775 69 60 58
0.55339759 -0.28994480 1.03043602 71 62 62
0.54341128 -0.29006306 1.04557259 69 61 59
0.55366415 -0.26997693 1.03073003 74 63 62
0.54367738 -0.27002738 1.04586160 72 61 62
0.55365895 -0.24997699 1.03080762 75 65 64
0.54366518 -0.25002015 1.04592763 73 63 61
0.55357874 -0.23007885 1.03072716 77 65 66
0.54370479 -0.23000646 1.04587092 74 63 61
0.55349500 -0.20996625 1.03052968 76 67 69
0.54354581 -0.20957997 1.04662533 74 64 64
0.55985012 -0.18642181 1.01941855 83 73 74
0.55325520 -0.18988780 1.03014992 80 69 70
0.54335251 -0.18989309 1.04707610 74 64 66
0.55932913 -0.16838740 1.01896371 86 74 73
0.55275810 -0.17008908 1.02959436 82 70 71
0.54320282 -0.17003400 1.04664804 76 66 65
0.55856633 -0.14890749 1.01778527 88 75 75
0.55122567 -0.15001460 1.02975496 83 71 71
0.54274253 -0.15010181 1.04570746 78 68 69
0.55761250 -0.12922102 1.01663314 90 75 75
0.54959549 -0.12989533 1.02959557 86 72 71
0.54209111 -0.13118971 1.04469416 80 69 69
0.55679167 -0.10944220 1.01541740 91 77 75
0.54789345 -0.10991793 1.02954107 86 74 72
0.54128965 -0.11211291 1.04307727 81 71 69
0.55589751 -0.08971083 1.01431541 92 79 77
0.54602575 -0.08993925 1.02945629 86 74 73
0.54064233 -0.09661785 1.04139179 83 72 72
0.55454967 -0.06968882 1.01299278 92 79 76
0.54463527 -0.07028453 1.02791848 87 75 75
0.55310115 -0.04938679 1.01121891 94 80 77
0.54314923 -0.05142506 1.02510742 90 77 75
0.55881550 -0.02482179 0.99867782 101 86 84
0.55015917 -0.03027954 1.00935861 93 80 79
0.54157914 -0.03573644 1.02173843 87 75 73
0.55012497 -0.00296141 0.97173814 115 102 97
0.55147326 -0.01240307 0.99097906 90 79 77
0.54670085 -0.01825222 1.00407405 86 72 72
0.54934430 0.01899912 0.93966217 148 138 130
0.54965609 0.01039611 0.94923491 137 126 119
0.55136529 0.00157588 0.96233111 128 116 109
0.55007982 0.03025858 0.93434137 95 89 90
0.54994679 0.04996511 0.92665302 121 122 127
0.55001284 0.07160021 0.91550919 127 130 134
0.55015915 0.06078254 0.92064304 129 130 134
0.55001035 0.09056355 0.90796396 111 117 125
0.55003758 0.11848220 0.89962368 114 119 127
0.55000554 0.10871515 0.90223176 110 117 128
0.55002018 0.12976569 0.89706110 113 119 129
0.55000202 0.15004762 0.89316358 158 163 166
0.54996457 0.17028500 0.89002112 151 154 158
0.55002677 0.18971916 0.88754815 142 147 154
0.55006531 0.20989875 0.88528248 154 157 159
0.55000058 0.23011114 0.88342540 121 127 133
0.54982572 0.25028916 0.88173312 147 153 157
0.55082826 0.27743457 0.87985732 111 117 120
0.55007385 0.26771539 0.88046185 135 141 144
0.54971934 0.28981443 0.87911893 115 123 130
0.55022107 0.30970157 0.87795980 147 155 157
0.54982946 0.32997911 0.87697061 141 147 151
0.54988772 0.35020222 0.87610263 124 127 132
0.55033468 0.37022557 0.87536321 112 118 124
0.55000120 0.38965856 0.87483279 59 64 67
0.54971468 0.40985805 0.87437710 0 0 0
0.54976987 0.43023964 0.87398164 0 0 0
0.54998053 0.45026197 0.87359912 0 0 0
0.55026581 0.47029671 0.87324160 0 0 0
0.55031030 0.48838851 0.87292460 0 0 0
0.57521370 -0.62292101 0.95795404 41 32 33
0.56920878 -0.62180270 0.96387849 38 31 33
0.56909343 -0.60836851 0.91104965 3 3 3
0.57096879 -0.61048321 0.93031771 44 37 37
0.56978616 -0.61734929 0.94666383 42 33 34
0.56990177 -0.60993317 0.96851719 39 33 34
0.57002116 -0.59006039 0.97275718 43 35 37
0.56023370 -0.58151436 0.98002034 41 35 37
0.57180563 -0.57051410 0.97456384 46 40 41
0.56232355 -0.56764065 0.98177113 44 36 39
0.57410461 -0.55023466 0.97587159 51 44 45
0.56412757 -0.54949990 0.98318757 48 40 41
0.57571998 -0.53078796 0.97693108 54 48 49
0.56583879 -0.52949690 0.98467508 51 45 45
0.57747625 -0.51151253 0.97812873 56 52 50
