ply
format ascii 1.0
element vertex 670
property float x
property float y
property float z
property uchar red
property uchar green
property uchar blue
end_header
-0.70105036 -0.45596018 1.20621634 173 171 170
-0.69087672 -0.50733966 1.18794657 179 180 180
-0.68411532 -0.49135892 1.17812433 181 182 181
-0.68383314 -0.48791653 1.18825250 175 175 173
-0.68947603 -0.47342554 1.19392177 178 179 178
-0.68779863 -0.46629634 1.20878846 181 184 182
-0.69594665 -0.45823855 1.19980860 180 179 178
-0.69194414 -0.45765005 1.21589897 178 180 179
-0.67994380 -0.49390016 1.17689562 177 179 179
-0.67187466 -0.48886789 1.19093295 180 180 175
-0.66613906 -0.48275431 1.20877042 180 179 177
-0.67409577 -0.47680778 1.19906044 182 180 178
-0.67144345 -0.46978787 1.21008004 183 184 182
-0.67505988 -0.46086541 1.22142673 183 184 184
-0.67955625 -0.45646632 1.21813548 182 184 185
-0.67635953 -0.45807543 1.22186768 184 186 186
-0.65615504 -0.48967194 1.18388608 173 174 169
-0.59555429 -0.58196986 1.31885576 179 179 178
-0.58656736 -0.56370278 1.29585585 176 177 178
-0.58719416 -0.57261739 1.30532726 178 180 180
-0.58687805 -0.55324106 1.29140961 180 181 182
-0.58248090 -0.53061519 1.27526248 172 173 172
-0.58346359 -0.53553083 1.28226809 177 179 178
-0.57896350 -0.56488170 1.29533895 178 181 179
-0.56469357 -0.54195335 1.27823826 165 169 171
-0.57519234 -0.54997666 1.28666632 171 172 174
-0.57029710 -0.53275324 1.27462212 172 174 173
-0.57532489 -0.52992380 1.28388608 176 177 177
-0.46217922 -0.18401415 0.61854111 188 191 192
-0.46226111 -0.17822894 0.61857227 185 190 192
-0.45349764 -0.18263119 0.61663718 181 184 185
-0.45400146 -0.18601703 0.62278682 178 179 178
-0.45176064 -0.17508769 0.61500882 180 183 185
-0.44369406 0.39944655 1.13454783 145 145 145
-0.44521549 0.40383147 1.13677162 146 146 146
-0.44743620 0.41433242 1.14935701 151 151 150
-0.44740767 0.42211759 1.15485026 152 152 156
-0.44668967 0.42445709 1.16276819 148 148 152
-0.42808040 0.39727259 1.12898840 160 162 162
-0.43032857 0.40319243 1.13550193 162 163 163
-0.43218062 0.41465899 1.14992608 164 164 164
-0.43255110 0.42182650 1.15720890 171 170 169
-0.43589196 0.42473045 1.16077375 173 172 173
-0.41827236 0.39483403 1.12420183 159 162 161
-0.30605325 -0.54093820 1.31885576 153 151 149
-0.30351888 -0.54252195 1.32271707 167 167 167
-0.30520919 -0.53088681 1.31164069 172 171 171
-0.30084717 -0.51691375 1.30614996 175 173 172
-0.30144069 -0.12377012 0.49970543 169 168 173
-0.30379463 -0.13010918 0.50157194 165 165 164
-0.29807487 -0.54093820 1.31885576 174 173 173
-0.29527972 -0.52897685 1.31314188 168 166 167
-0.28618298 -0.52665482 1.32550740 174 171 170
-0.29625864 -0.51685000 1.30940100 173 169 169
-0.28427222 -0.51633623 1.33296448 183 180 181
-0.28116094 -0.25068647 0.55918512 183 187 187
-0.29823320 -0.12407911 0.49930040 170 171 175
-0.29910334 -0.13074721 0.50083399 171 171 171
-0.28185768 0.03941054 0.58921599 170 169 169
-0.28111969 0.04083277 0.58916425 169 164 163
-0.27780069 -0.52427499 1.32461011 177 176 175
-0.27723909 -0.51745548 1.33219659 182 182 182
-0.26121950 -0.36210845 0.80824248 167 170 170
-0.26555462 -0.35294009 0.81571661 174 175 174
-0.26322779 -0.34842096 0.82094100 184 185 183
-0.27387053 -0.24715987 0.55672318 180 181 180
-0.27074670 -0.23819893 0.55344011 181 181 180
-0.26866802 0.03469535 0.58515266 177 177 178
-0.27146965 0.04139274 0.58661811 182 182 182
-0.25746914 -0.36050961 0.81063378 161 161 163
-0.25661027 -0.35508238 0.81428581 171 171 172
-0.25864048 0.03579164 0.58474975 173 174 173
-0.25951296 0.04020176 0.58590478 175 174 172
-0.24359286 0.05306426 0.84449675 176 177 178
-0.24513030 0.06135395 0.84455081 184 184 183
-0.24196190 0.11279174 0.61009314 167 166 168
-0.24172825 0.12299451 0.61082380 172 172 175
-0.23319861 0.05123665 0.84434286 166 166 168
-0.23239104 0.06065421 0.84158188 165 163 163
-0.23822133 0.11254766 0.61012795 177 177 178
-0.23903931 0.12143534 0.60988933 169 169 170
-0.18281220 -0.44330104 1.63741994 110 101 104
-0.18731960 -0.44886727 1.64600781 116 105 109
-0.18322061 -0.42809496 1.63198298 91 85 86
-0.18927020 -0.43196167 1.64637667 93 85 88
-0.18249492 -0.40538669 1.61788034 96 86 90
-0.18480521 -0.41274378 1.62921641 90 83 86
-0.19174874 -0.41327742 1.64937186 96 83 88
-0.18162796 -0.39464773 1.61019444 102 91 92
-0.18617998 -0.39983821 1.62563992 102 90 91
-0.18056407 -0.02486676 0.50578172 184 185 187
-0.17860726 -0.46105504 1.63347435 123 111 115
-0.17113176 -0.44501350 1.61622943 109 98 102
-0.17160769 -0.44712142 1.62955713 103 94 97
-0.17001878 -0.43385234 1.61788034 93 86 88
-0.17213766 -0.43355872 1.62564928 93 86 87
-0.17961297 -0.40612399 1.61710992 94 89 92
-0.17472884 -0.41269952 1.62760227 99 90 93
-0.17391519 -0.02708157 0.50302069 169 169 170
-0.16193285 0.01569721 1.40860760 155 149 156
-0.16209535 0.02610245 1.41179144 153 151 155
-0.14334567 -0.44406988 1.61788034 89 77 79
-0.15246253 -0.44198501 1.62563992 88 79 82
-0.14915631 -0.43336607 1.61595428 87 79 80
-0.14951724 -0.43386534 1.62418620 85 77 78
-0.14375046 -0.08915717 0.45529439 195 172 178
-0.14501930 0.01735705 1.39520013 146 144 146
-0.15150928 0.01372656 1.40573286 149 147 151
-0.14468762 0.02903354 1.39060766 146 143 149
-0.15556866 0.02573463 1.40496354 151 150 152
-0.14618869 0.04223309 1.38063514 154 152 159
-0.13802351 -0.08976719 0.45212516 166 122 137
-0.12438765 -0.00153163 1.39483917 134 127 123
-0.13036418 0.01181357 1.39111656 138 133 134
-0.13755192 0.01017281 1.40205288 139 138 140
-0.13071996 0.02783801 1.37689737 148 140 150
-0.13534572 0.02639511 1.38658946 147 138 147
-0.10188022 0.09508324 0.59910949 174 174 174
-0.10245843 0.08956699 0.60342431 173 171 172
-0.08903611 -0.17141585 0.45017727 176 175 176
-0.08247817 0.03984206 0.68405072 159 106 123
-0.08572845 0.04795460 0.68482882 161 146 153
-0.09461943 0.09436917 0.59942542 170 170 173
-0.09765461 0.09074284 0.60236215 165 164 167
-0.06965076 -0.04445528 0.65413925 124 117 119
-0.07325819 -0.03710167 0.65510858 125 114 117
-0.07533138 0.03891727 0.67823112 161 115 133
-0.07836041 0.03937827 0.68419120 159 109 125
-0.07865733 0.04716226 0.68596036 162 113 130
-0.04963596 0.05293412 0.53601052 174 166 168
-0.04785804 0.04639860 0.54015285 173 160 163
-0.04794440 0.18440437 0.79798949 152 152 155
-0.04316583 0.18746608 0.80358081 162 161 162
-0.04415392 0.20529409 0.80762305 161 159 159
-0.02159829 -0.48837853 1.51260233 98 82 84
-0.02946375 -0.46341613 1.53319965 105 91 91
-0.03052322 -0.45047418 1.52968660 104 96 95
-0.02695720 -0.42638153 1.51993692 109 98 98
-0.02849989 -0.42941934 1.52678764 119 108 108
-0.02505550 -0.40856303 1.51620110 122 107 107
-0.02175179 -0.41680771 1.52335250 113 104 103
-0.02689689 -0.39921555 1.51653659 124 115 116
-0.02921717 -0.03258916 0.55669759 149 139 139
-0.03207699 0.17869070 0.80606762 163 161 162
-0.03196088 0.18746663 0.80416723 165 163 162
-0.03025550 0.20531852 0.80433643 157 156 158
-0.00597361 -0.50115420 1.52764896 90 77 78
-0.01575136 -0.48747787 1.51348962 97 83 83
-0.00551440 -0.48946741 1.52933967 93 82 82
-0.00069568 -0.48012823 1.54066324 102 91 91
-0.01692446 -0.47815937 1.51587467 97 89 89
-0.01248734 -0.46982303 1.53118264 105 94 94
-0.00069726 -0.47721845 1.54417276 111 96 97
-0.01191395 -0.44985452 1.51557156 112 102 101
-0.01513031 -0.45123678 1.52719441 112 103 102
-0.01116963 -0.42673825 1.51653659 125 113 114
-0.01652270 -0.43002584 1.52678549 123 111 111
-0.01745331 -0.41162044 1.51586864 115 103 102
-0.01583536 -0.41704241 1.52421024 121 110 108
0.00196277 -0.50295138 1.53716969 98 87 87
0.00491370 -0.48736904 1.53288199 93 85 85
0.01113557 -0.47104202 1.51993692 109 100 100
0.00657217 -0.47598172 1.53002913 106 94 96
0.03375154 0.03682821 0.49344033 154 152 154
0.03394793 0.04174938 0.49521551 152 149 151
0.03647364 0.53527323 1.49249749 161 151 151
0.04451027 0.53301027 1.49810827 168 166 166
0.05324897 0.53348707 1.50705203 165 166 168
0.05071968 0.54190970 1.49603976 156 154 153
0.05393692 0.54149023 1.50475621 164 166 166
0.07078214 0.53414236 1.49446068 152 150 152
0.06354361 0.53182085 1.50643293 165 165 166
0.06346727 0.54238336 1.49645581 148 145 149
0.06180944 0.54209268 1.50642633 152 151 153
0.08445322 -0.25019695 0.49946878 161 161 161
0.09184086 -0.24975734 0.50146524 159 160 160
0.11670659 -0.12747516 0.45937006 158 158 160
0.11240048 -0.13368301 0.46251474 164 163 163
0.11495081 0.03656824 1.17328044 160 160 163
0.11250345 0.04641447 1.17067194 151 151 157
0.11990085 0.04020873 1.18099630 159 158 162
0.11909618 0.29773486 0.81589642 129 130 132
0.11947913 0.30342582 0.81575729 156 156 155
0.13962878 -0.14345608 0.51336042 154 154 158
0.12876456 -0.10721590 0.45304644 161 159 162
0.12402983 0.01964231 1.17181742 159 158 158
0.13869360 0.02837170 1.15615739 140 137 143
0.12927452 0.03240112 1.17054655 156 154 156
0.12296274 0.03816747 1.18099630 153 150 155
0.12893732 0.04740459 1.17166542 160 158 158
0.12496193 0.04340820 1.18168330 160 157 158
0.13486005 0.07597467 0.64999730 135 134 138
0.12861332 0.06274348 1.17486718 151 150 156
0.12540373 0.06286129 1.18478694 150 150 155
0.13468394 0.08320761 0.65028377 140 140 145
0.12930655 0.29533004 0.81565821 147 146 149
0.13593332 0.29253069 0.82146630 160 162 166
0.12651674 0.30399466 0.81674230 151 152 153
0.12748653 0.31030675 0.82091337 152 154 154
0.14506706 -0.14520171 0.51442528 156 156 156
0.15224249 -0.13195360 0.50999656 148 146 151
0.15372997 -0.06697925 1.35439066 171 164 165
0.15102465 -0.06993843 1.36232417 165 157 159
0.14945711 -0.05709230 1.35496265 168 164 164
0.15116961 -0.05130252 1.37074851 164 161 161
0.15719321 -0.04455735 1.38345659 160 155 157
0.15179166 -0.03882258 1.37782896 149 148 150
0.15464476 -0.03774819 1.38204396 151 149 151
0.14213882 0.02890603 1.15528299 146 142 149
0.14244619 0.07632384 0.65225809 139 137 141
0.15743625 0.09172622 0.59831583 145 145 146
0.15787209 0.09640591 0.60195071 155 154 156
0.14356512 0.08371482 0.65518612 143 142 144
0.15857677 0.10210257 0.60463305 153 150 152
0.14103245 0.29362043 0.81321167 151 151 152
0.16246880 -0.06588386 1.35218627 163 158 158
0.16140261 -0.05941050 1.35850072 168 161 159
0.16410556 -0.05385394 1.37355095 164 159 159
0.16228719 0.08495569 0.59942721 153 152 153
0.16406969 0.09468338 0.60220136 149 148 151
0.17052000 0.10883400 0.60636352 146 144 147
0.17232968 0.18916861 0.93631709 146 146 149
0.16794324 0.19309278 0.94118999 151 151 153
0.18219167 0.11023911 0.60423525 153 153 154
0.18418522 0.17903087 0.93010684 129 129 131
0.18562995 0.18948470 0.93525689 144 141 145
0.19370726 0.19527230 0.94305051 152 148 149
0.19224393 0.20439022 0.93593047 154 153 155
0.19598396 0.20294646 0.94283266 159 158 159
0.21578811 0.27220177 1.85218191 144 140 144
0.21343555 0.27353185 1.86662503 148 147 150
0.21855227 0.29491106 0.90765997 150 151 153
0.21617911 0.28446893 1.85554647 134 134 135
0.21374938 0.28806643 1.87264369 141 140 141
0.21652807 0.29682823 1.88652972 132 132 135
0.21575591 0.30095476 1.89885676 132 132 135
0.21619012 0.31040245 1.90848775 157 157 161
0.21700725 0.31439026 1.92662176 156 160 164
0.21439703 0.31517378 1.94610453 143 144 150
0.21439389 0.33263903 1.89507656 156 151 155
0.21582282 0.32502090 1.90526333 155 155 162
0.21636196 0.34129500 1.90419054 155 147 147
0.21882238 0.34684521 1.92584461 155 147 147
0.22416269 -0.14487096 0.63873386 163 163 164
0.22341888 -0.14417585 0.64326724 166 166 167
0.22922920 -0.13542127 0.63877676 163 163 164
0.22607081 -0.13664365 0.64361734 163 162 164
0.23872046 -0.12306505 0.73048886 153 152 155
0.23743115 -0.11709461 0.72985414 160 159 159
0.22764964 0.27781720 0.91462502 151 153 155
0.22867501 0.27375001 0.92415918 147 148 149
0.22414652 0.27088651 1.80771160 144 143 146
0.22280447 0.27307109 1.82228994 154 152 155
0.22225243 0.27580886 1.84915197 159 158 161
0.22233644 0.27156188 1.86234021 153 151 157
0.22932053 0.29074477 0.90837286 148 147 150
0.22431236 0.28284881 1.83462268 143 135 141
0.22298242 0.28570285 1.85520818 148 146 149
0.22659241 0.29545098 1.87091935 152 150 154
0.22968524 0.30186971 0.90870219 168 168 166
0.22959353 0.30086574 1.87781680 168 167 171
0.22741484 0.31174040 1.89391415 152 150 155
0.22430295 0.31438812 1.90956457 155 155 159
0.22515382 0.31476913 1.92310125 152 153 157
0.22380112 0.32616421 1.89753073 150 148 157
0.22788129 0.32483882 1.90419054 153 152 160
0.25047111 -0.12277061 0.73130340 159 157 159
0.24982938 -0.11420954 0.73328203 158 157 158
0.25909053 0.07642489 0.54405613 146 147 151
0.25948615 0.08772462 0.54794327 143 143 147
0.24281273 0.29543416 0.91442947 148 147 150
0.27070960 -0.36732488 0.69027802 161 161 160
0.27106323 -0.35940942 0.69014201 152 155 154
0.27943719 -0.15156157 0.47858150 177 178 178
0.26236146 -0.11059438 0.73246289 163 164 166
0.27583424 -0.10207413 0.79720913 160 157 158
0.27293783 -0.10105917 0.80129135 158 157 158
0.27379652 -0.09031439 0.79696828 150 146 148
0.27509747 -0.08847438 0.80085449 154 149 150
0.27548867 -0.08295349 1.03313527 162 161 163
0.27199067 -0.07770533 0.80326973 144 143 146
0.27760052 -0.07595328 1.03699229 188 188 188
0.26118880 0.07599132 0.54311170 145 147 150
0.26331933 0.08944413 0.54767495 146 146 148
0.27816732 0.27828684 0.68227908 151 151 152
0.27775727 0.28333304 0.67983431 136 137 138
0.27773166 0.28480970 0.68162616 129 129 130
0.28269252 -0.36580027 0.69321239 164 165 166
0.29777277 -0.22776399 0.65553510 163 163 163
0.29808072 -0.21755654 0.65478785 161 161 161
0.28607096 -0.15192055 0.47832390 169 170 170
0.29015989 -0.14886447 0.48069019 159 159 160
0.29094058 -0.14409840 0.65272860 164 164 166
0.28958882 -0.13362002 0.65097308 161 161 163
0.28306481 -0.10060961 0.79409928 159 154 157
0.28454721 -0.09650838 0.79667311 158 155 155
0.28353567 -0.08915169 0.80330779 157 152 152
0.29395456 -0.08853279 1.03353862 160 158 160
0.28722908 -0.08192033 1.04162893 164 162 166
0.28865400 -0.07976779 0.81969994 142 138 141
0.29245082 -0.07961316 1.03971136 162 160 166
0.28992925 -0.07804731 1.04281806 171 170 174
0.28761864 0.27640632 0.67993164 156 157 165
0.28489705 0.27680363 0.68377553 150 153 157
0.28427366 0.28552987 0.67905453 109 111 113
0.28345036 0.28391228 0.68195671 134 135 138
0.30678098 -0.24159634 0.65839409 153 155 156
0.30441927 -0.24286398 0.66184482 166 166 168
0.30386798 -0.22867934 0.65623796 165 166 167
0.30332216 -0.23909441 0.66039163 159 160 162
0.30506554 -0.21726070 0.65652732 170 169 169
0.31166791 -0.21627649 0.66276241 168 167 166
0.30124151 -0.08395164 1.03159021 159 157 157
0.30217118 -0.07829358 1.03812404 172 173 172
0.30138536 -0.07713300 1.04264520 170 170 172
0.31934440 0.59280366 1.49315381 140 136 137
0.31887650 0.60224122 1.49096608 140 141 143
0.33932453 -0.02308091 0.45577814 150 151 150
0.33896997 -0.01811747 0.45722459 142 141 140
0.33682544 0.15538094 1.61403372 152 152 153
0.33462968 0.15070962 1.62369537 153 152 158
0.33668902 0.16484504 1.61339384 153 153 158
0.33459295 0.16653360 1.62486584 151 151 158
0.32779660 0.59454907 1.49645483 141 139 140
0.33146113 0.59594900 1.50766676 150 148 150
0.33271047 0.60753821 1.49497253 132 134 138
0.33381796 0.60206356 1.50643624 142 141 145
0.35571859 -0.11031288 0.65533727 149 148 152
0.34387618 -0.02155262 0.45756086 141 140 139
0.34380097 -0.01731159 0.45794759 142 140 141
0.34974847 0.13850826 1.61788034 155 154 158
0.35156779 0.13339526 1.63007954 157 154 158
0.35575788 0.12743728 1.64218140 158 156 160
0.34763680 0.14880980 1.60943959 147 145 150
0.34540881 0.16275570 1.60673059 148 147 151
0.35576954 0.27948508 1.10226321 129 123 127
0.35784617 0.28848399 1.10641631 145 144 148
0.34190084 0.59314761 1.49727948 142 140 141
0.34155037 0.59353660 1.51147644 152 151 151
0.34160101 0.59557745 1.52335250 158 157 156
0.34397781 0.60796063 1.49403861 136 137 139
0.34040919 0.60067672 1.50642633 143 142 146
0.37810507 -0.16675026 0.65942788 159 156 158
0.37432197 -0.16965279 0.66366082 159 157 158
0.36565698 -0.11123917 0.65829700 155 155 157
0.36719858 -0.10572818 0.66014715 159 158 161
0.36778956 0.13228426 1.61523545 149 144 152
0.36484728 0.13011126 1.62956937 149 146 151
0.36401529 0.14569125 1.61173402 154 152 154
0.36140002 0.16134533 1.61788034 156 149 149
0.36932930 0.27736210 1.11132373 104 97 111
0.37756119 0.27698871 1.12172216 138 136 137
0.36994727 0.28661899 1.10823651 139 139 144
0.37842388 0.28046331 1.12140989 133 131 134
0.39623757 0.14363972 0.56913315 136 131 131
0.39792373 0.16747519 0.53681048 138 139 139
0.38212709 0.27401266 1.11618229 144 143 144
0.38251805 0.27715715 1.12110070 157 157 157
0.38101667 0.28023133 1.12048233 145 146 146
0.40623508 0.01978006 0.46335760 138 139 144
0.41241662 0.02569076 0.46735160 142 143 145
0.40803401 0.13808457 0.57118034 143 145 147
0.40089121 0.15851714 0.53822333 149 156 158
0.40571424 0.14380455 0.57060352 125 125 130
0.40179140 0.16725801 0.53517860 140 143 144
0.43170499 -0.20276494 0.49739311 158 160 163
0.42930192 -0.19811703 0.49583801 159 162 163
0.42422516 0.02693151 0.47012564 143 143 143
0.42987149 0.15337385 0.69945856 131 130 137
0.43334868 0.15337103 0.70126543 147 148 150
0.45301326 -0.18273147 0.60451770 157 156 158
0.45404175 -0.17699069 0.60536689 156 158 159
0.45402580 0.13556056 0.85519741 137 137 141
0.45680879 0.12775911 0.86545862 136 137 140
0.44344774 0.15319885 0.69957876 138 138 139
0.44205681 0.15454862 0.70187917 140 141 142
0.45375605 0.14377718 0.85384447 135 135 141
0.44909165 0.16678020 0.70817508 136 136 141
0.47983873 -0.43602175 0.79378438 138 138 144
0.47555357 -0.30054461 0.46999701 154 158 158
0.47665562 -0.29780482 0.46952158 157 164 164
0.46958059 -0.28652174 0.59567416 164 165 166
0.47190519 -0.27833479 0.59827095 167 168 169
0.47221802 -0.27580578 0.60059948 175 175 176
0.46132389 -0.18139588 0.60558529 150 151 155
0.46066484 -0.17852404 0.60472065 151 152 154
0.46225338 0.13479760 0.85622811 135 137 141
0.46985037 0.13342303 0.86297807 128 129 132
0.46315462 0.14583998 0.85695811 134 135 140
0.47355311 0.14703815 0.86484942 138 139 145
0.48949627 -0.44190073 0.79289188 154 157 158
0.48786077 -0.43510867 0.79222027 155 157 160
0.48432085 -0.30253533 0.46929190 161 166 168
0.48499424 -0.29718173 0.47073526 160 168 169
0.48209683 0.14419123 0.86872654 137 138 141
0.48885746 0.21297669 0.53530960 133 139 145
0.48810614 0.21744327 0.54134876 142 143 150
0.51583838 -0.36092964 0.79008371 177 177 180
0.51639709 -0.34735049 0.79111048 170 171 172
0.51525234 -0.33566033 0.78976964 167 169 169
0.51827714 -0.32265092 1.06336302 171 174 175
0.51922842 -0.30519448 1.05450458 173 174 175
0.51400631 -0.30790042 1.06800732 172 172 175
0.51885384 -0.29939273 1.05426419 172 173 175
0.51489855 -0.29780374 1.07263547 170 170 171
0.51567178 0.23549499 0.49882154 134 137 140
0.51514089 0.23666924 0.50028920 125 129 133
0.51784852 0.24189189 0.49895225 134 137 139
0.51514089 0.24012807 0.50028920 141 144 145
0.53836624 -0.36609109 0.60688880 159 163 165
0.53904665 -0.35727863 0.61283064 158 162 164
0.52710941 -0.34833635 0.79412755 167 169 170
0.52837582 -0.33640711 0.79339446 164 165 166
0.52074395 -0.32363678 1.06308502 170 172 173
0.52333511 -0.30540590 1.05148821 171 172 174
0.52102614 -0.31042167 1.06348254 172 174 176
0.52466989 -0.29032004 1.03948390 175 172 172
0.52387007 -0.29254135 1.04376640 168 166 167
0.53556032 0.15655697 0.79698848 143 142 143
0.53478164 0.15848527 0.80176509 140 137 136
0.53302690 0.16965621 0.79747957 130 129 131
0.53448812 0.16451920 0.80155513 137 137 139
0.53313038 0.21144267 0.58712158 133 135 137
0.53647986 0.22049608 0.58870386 134 134 138
0.54403450 -0.36327810 0.60963723 160 166 167
0.54476351 -0.35719620 0.61233515 160 167 168
0.54073393 -0.34049243 0.79658264 169 169 171
0.54404589 -0.34948992 0.80233251 168 169 169
0.54179534 -0.33751482 0.79698554 166 167 170
0.54073393 0.15929635 0.79658264 141 140 140
0.54073393 0.16067319 0.79658264 145 141 140
0.54023543 0.21823695 0.58947161 124 125 129
0.57632352 -0.91243795 1.99316521 161 161 162
0.57975322 -0.88239676 1.99968100 164 167 166
0.57286716 -0.87549393 1.99497585 160 161 162
0.57302265 0.31549113 0.73409734 135 138 139
0.57625496 0.32470122 0.73689508 136 137 139
0.57894585 0.32957868 0.74066451 131 131 134
0.58408511 -0.90948889 1.99089327 163 164 164
0.58320951 -0.87894046 1.99968100 164 165 167
0.58781862 -0.34071239 0.61375713 170 176 177
0.59221675 -0.33235931 0.61699890 166 172 171
0.59352597 -0.32809821 0.62249387 157 158 160
0.59519371 -0.27006410 0.51426361 158 165 166
0.59942019 -0.10613810 0.89906079 158 161 163
0.59732936 -0.10886871 0.90385704 158 158 161
0.58173303 0.32637808 0.73824454 136 138 141
0.59016328 0.33211300 0.74574354 138 141 144
0.61658249 -0.54358462 1.16921319 155 156 156
0.61466300 -0.54178472 1.18151155 156 156 156
0.61845668 -0.53705145 1.17562343 162 162 162
0.61638577 -0.53786780 1.18187959 161 161 161
0.60368258 -0.27091036 0.51638475 152 158 162
0.61207407 -0.12177887 0.90675781 162 162 162
0.60296605 -0.10631993 0.89872056 157 158 159
0.60796419 -0.11280189 0.90422718 163 164 166
0.60416460 0.33624186 0.75784469 139 143 144
0.60787708 0.33925834 0.76167625 133 134 138
0.60651410 0.34112474 0.75996846 135 139 142
0.60810499 0.34070223 0.76196278 135 137 140
0.62530732 -0.54045689 1.15681207 166 170 171
0.62395514 -0.54127785 1.16957094 164 166 166
0.62664036 -0.53912381 1.15681430 172 176 176
0.62751489 -0.53581596 1.17233211 165 167 168
0.63201625 -0.53249627 1.18419042 161 163 165
0.63839903 0.04314257 0.69921815 136 136 134
0.65138643 0.05060532 0.70561300 134 135 137
0.65725622 0.06166684 0.70771850 139 143 143
0.67154246 -0.06912415 0.67991947 149 154 156
0.67124048 -0.06770434 0.68097966 147 152 154
0.66436151 -0.05810278 0.68183251 144 150 150
0.66467977 0.05683983 0.70696645 140 141 142
0.66556232 0.06260380 0.70779096 139 142 143
0.68035137 -0.06926473 0.67993164 144 148 151
0.68309125 -0.07006686 0.68176803 147 150 153
0.69830671 0.22628709 0.59366726 126 128 134
0.71862757 0.21972320 0.59674162 112 112 121
0.70728037 0.22657536 0.59384818 116 119 126
0.72829443 -0.48372039 0.87923717 159 160 162
0.73638214 -0.48794179 0.88551543 161 164 164
0.73796916 0.21415939 0.83574079 126 126 127
0.73857427 0.22096328 0.83176911 129 132 134
0.74772103 -0.49073683 0.88963352 162 166 166
0.74259251 0.21300845 0.83819919 126 126 128
0.74682265 0.21328431 0.84242474 129 130 132
0.74497283 0.22432768 0.83897507 129 131 133
0.75164957 0.22364233 0.84607476 128 128 131
0.77224442 -0.50272608 0.90474018 161 164 163
0.76378915 -0.49449133 0.89682409 165 169 168
0.77385610 -0.49667083 0.90277775 164 167 166
0.76525859 0.21592475 0.85524823 132 134 137
0.77428907 0.21961294 0.86026883 127 131 134
0.76830207 0.22275576 0.85877065 134 136 139
0.77328241 0.22418540 0.86246104 133 136 138
0.79240449 -0.58145061 1.07432073 168 167 167
0.79145736 -0.57352868 1.07525073 169 171 171
0.79781446 -0.56944430 1.08166068 169 172 174
0.78123558 -0.50460237 0.90919141 160 163 162
0.78373393 0.22562210 0.86909351 131 134 137
0.81647926 -0.58937567 1.09161569 171 170 168
0.80177832 -0.57707530 1.07944560 167 168 168
0.80722275 -0.57357339 1.08568864 158 159 160
0.82343935 -0.58627070 1.09434686 165 165 165
0.82376118 -0.57772275 1.09514085 154 156 156
0.83049232 0.23636678 1.43500084 144 144 143
0.83004846 0.25051220 1.43398855 138 139 141
0.85186261 0.11324145 1.97348845 148 148 151
0.85765472 0.11767219 1.99091047 155 155 157
0.84815705 0.12463301 1.96490383 143 143 144
0.85389775 0.12881823 1.99015810 135 135 139
0.84250728 0.25567478 1.43838962 133 134 136
0.85216145 0.25306655 1.44764215 145 145 146
0.84896908 0.27076138 1.43824584 141 144 146
0.85309612 0.26964908 1.44754874 138 141 142
0.85707200 0.28305745 1.45314604 139 144 147
0.86752218 0.12991197 1.99379957 130 130 132
0.87685035 0.26716754 0.95805503 121 123 128
0.87613877 0.26732691 0.96482961 124 125 129
0.86235416 0.26885176 1.45783186 138 139 140
0.86696179 0.27188359 1.46604443 140 142 143
0.86361402 0.28397024 1.45783186 134 138 141
0.87012586 0.28991945 1.47528321 148 149 153
0.87638507 0.29385494 1.48227235 137 138 141
0.88537127 0.25305998 0.95882863 126 127 133
0.88711133 0.25712037 0.96405079 131 134 141
0.88122815 0.26631802 0.95882863 123 125 131
0.88857299 0.26549729 0.96672018 130 134 138
0.91884802 -0.06102547 0.90992276 149 154 155
0.90506154 -0.04303612 0.89550328 137 139 140
0.91500186 -0.04969861 0.91041826 141 144 146
0.90511452 -0.03862429 0.89739994 139 143 144
0.90253142 0.26149803 0.97014968 121 126 133
0.93462739 -0.06650155 0.91328659 144 146 149
0.93828428 -0.07220905 0.92219853 137 139 143
0.92855313 -0.05802434 0.91222291 138 141 143
0.93336338 -0.00042021 0.80509722 123 132 139
0.93398905 0.00779628 0.80452086 126 131 138
0.94088310 -0.07316767 0.91421964 147 147 152
0.94052128 -0.07592808 0.92387594 138 139 143
0.94916409 0.01085967 0.81015127 128 132 137
0.95853555 0.01517516 0.82069230 134 135 137
0.96046549 0.01655358 0.81870997 131 135 138
0.96086210 0.01663393 0.82268429 133 134 136
1.03710771 0.36519638 1.19306536 127 127 128
1.03764124 0.36571168 1.21367593 126 126 132
1.04281682 0.35907190 1.21704689 145 144 147
1.04216272 0.36921711 1.19875056 131 131 131
1.04628499 0.37130901 1.21435613 132 132 134
1.04855261 0.37407557 1.22275038 138 139 141
1.05144489 0.38399177 1.21601649 131 130 134
1.05201750 0.38774130 1.22463644 130 131 135
1.06287521 0.39522946 1.22806692 139 137 139
1.06868148 0.40272117 1.23477566 141 142 144
1.08248365 0.41008413 1.25072300 140 144 147
1.15749693 -0.54357338 1.92582905 164 164 168
1.15277255 -0.53431931 1.89885676 159 161 163
1.15101576 -0.53897983 1.90955448 160 161 165
1.15072060 -0.52324593 1.93683386 170 171 171
1.15729260 -0.53114629 1.95357883 162 162 164
1.15116982 -0.50657004 1.89532069 170 170 171
1.15498610 -0.50701228 1.90848775 164 164 165
1.14654882 -0.51454880 1.92933766 162 163 164
1.15688072 -0.51262093 1.95219153 166 166 167
1.16913271 -0.54333186 1.93683386 159 160 163
1.17164344 -0.54614753 1.95288922 158 159 162
1.17107925 -0.54603334 1.96871185 158 158 161
1.16088688 -0.53719252 1.91494870 162 163 165
1.17359593 -0.53485564 1.93041174 163 166 168
1.16996232 -0.52827163 1.95125859 167 168 169
1.17351174 -0.53688821 1.96718864 166 167 168
1.16412159 -0.51271240 1.93499450 135 133 135
1.16630667 -0.51441495 1.95313524 153 150 151
1.17249560 -0.50948858 1.96775985 157 154 154
1.18264872 -0.54284048 1.95922494 168 170 172
1.18185416 -0.54390028 1.96918786 165 167 169
1.18194803 -0.53561733 1.93315514 163 167 169
1.18235670 -0.53749952 1.95038940 163 165 167
1.18099588 -0.53840297 1.96775985 171 172 173
1.28927194 -0.10257314 1.31259419 144 153 158
1.29333539 -0.10233776 1.32452977 144 153 158
1.29735804 -0.09511102 1.31629980 137 143 145
1.29911160 -0.09899737 1.32271707 139 143 148
1.31963634 -0.55856299 1.40933859 168 169 169
1.30280489 -0.10122671 1.33706474 148 152 158
1.30791901 -0.10333614 1.34950249 148 152 158
1.31675365 -0.10382592 1.36839640 147 149 155
1.30835636 -0.09321621 1.33374067 137 140 142
1.30892865 -0.08951448 1.34936403 143 146 147
1.31467749 -0.08997074 1.36703780 143 145 148
1.31599966 -0.07842669 1.35240906 136 138 137
1.31826097 -0.07843082 1.36259806 140 141 142
1.32525508 -0.56373584 1.41620994 170 171 170
1.33040652 -0.56404398 1.42505080 162 162 162
1.32791865 -0.55961740 1.41818380 161 162 163
1.33730884 -0.55398434 1.43123411 159 159 163
1.33372848 -0.12490874 1.39197864 133 134 137
1.32525090 -0.10600043 1.37543988 145 148 152
1.33025299 -0.10958928 1.38679755 145 146 151
1.32339104 -0.08740914 1.35578732 147 147 147
1.32245965 -0.09117879 1.37727001 140 144 147
1.33299017 -0.08107097 1.38773715 157 161 162
1.32134354 -0.07584692 1.35850072 132 136 135
1.32810026 -0.07032225 1.37309810 130 131 133
1.33153356 -0.06979765 1.38345532 140 141 143
1.34436413 -0.56576949 1.44643664 167 168 169
1.35869050 -0.56758562 1.46729839 156 157 161
1.35087734 -0.54864892 1.43640776 148 149 151
1.35221223 -0.54808872 1.44541100 154 155 156
1.35605262 -0.53753067 1.44334817 149 150 152
1.34201393 -0.12160492 1.39313006 137 139 141
1.34239870 -0.11898301 1.39627713 146 147 148
1.35093466 -0.07365880 1.40641868 146 149 151
1.37399852 -0.58147752 1.48660493 155 155 155
1.36386102 -0.56973659 1.47288224 153 154 156
1.37592544 -0.57088191 1.48660851 154 155 157
1.36175084 -0.54720404 1.43926084 149 149 151
1.36284957 -0.54370698 1.44695979 149 149 150
1.37059347 -0.54647174 1.46850744 148 149 151
1.36527920 -0.53748776 1.44773789 151 151 152
1.37303543 -0.53609961 1.46097374 156 156 158
1.38051140 -0.58274188 1.49644995 151 151 153
1.38349511 -0.56770434 1.49316591 155 156 157
1.39129138 -0.57144453 1.50531292 148 151 152
1.38242781 -0.54330850 1.47367787 150 150 152
1.38847019 -0.54753806 1.49215449 146 146 149
1.39802897 -0.54618078 1.50978136 155 156 162
1.39258428 -0.53791110 1.49645483 156 158 163
1.39702523 -0.53856277 1.50308609 158 159 162
1.39904177 0.25608709 1.51653659 123 131 137
1.39904177 0.26919317 1.51653659 92 99 99
1.41807628 -0.58265758 1.53716969 156 156 156
1.40219310 -0.56995060 1.51570165 148 150 150
1.41325724 -0.56373423 1.52908111 148 148 152
1.40163786 -0.55154042 1.51237953 154 155 158
1.41465700 -0.54793312 1.52678863 163 163 165
1.40455282 -0.53835219 1.50978136 162 163 164
1.41629004 -0.27590790 1.89355266 164 165 163
1.40909196 0.25082045 1.51372821 124 126 134
1.41336602 0.25672466 1.52421024 119 126 132
1.41607926 0.27079085 1.52733614 112 118 124
1.41611980 0.28822972 1.52809788 129 135 137
1.42016971 -0.54422724 1.53369200 166 167 169
1.43241906 -0.29226885 1.90776650 167 176 176
1.43635070 -0.28313515 1.92037344 160 161 159
1.43082917 -0.27745795 1.90419054 161 162 161
1.42132199 0.25346589 1.51653659 118 119 128
1.42624307 0.25747959 1.52926304 123 127 135
1.42493989 0.26875448 1.52898093 118 125 131
1.42662501 0.26282415 1.54066324 123 131 136
1.42458540 0.29205619 1.53100361 128 135 136
1.42673870 0.30185345 1.53601046 128 131 134
1.45662260 -0.30186971 1.93407482 171 179 181
1.44553256 -0.29226485 1.91494870 163 169 171
1.45086744 -0.28922010 1.92776033 162 164 164
1.44878753 -0.27786497 1.92219198 153 154 154
1.47791636 -0.30143908 1.93131578 162 163 163
1.47239474 -0.30743544 1.95118214 162 165 168
1.47984600 -0.31007767 1.96490383 166 169 172
1.47004536 -0.29210038 1.93304410 155 155 156
1.47519491 -0.28973751 1.94238353 151 151 151
1.46540070 -0.27886671 1.93683386 144 144 142
1.47170615 -0.27838413 1.94517428 146 146 146
1.48213899 -0.30564800 1.93683386 169 170 171
1.49127832 -0.30512555 1.94877161 163 164 164
1.48663831 -0.31007767 1.96490383 159 161 165
1.48692133 -0.28795322 1.93683386 154 156 155
1.48893984 -0.28992348 1.94539143 155 156 155
1.48234165 -0.27870426 1.95922494 139 139 140
1.50580773 -0.30557483 1.95781341 159 160 162
1.50364834 -0.28679173 1.94517428 155 158 157
