ply
format ascii 1.0
element vertex 1093
property float x
property float y
property float z
property uchar red
property uchar green
property uchar blue
end_header
-0.91016208 0.46996186 0.97937319 0 0 0
-0.90829208 0.48555484 0.97981233 0 0 0
-0.91202472 0.49484175 0.98016275 0 0 0
-0.90953436 0.51021879 0.98057565 0 0 0
-0.91040744 0.52993040 0.98116574 0 0 0
-0.90989665 0.54923222 0.98167172 0 0 0
-0.88163811 -0.22548447 0.89516063 0 0 0
-0.88299910 -0.21275999 0.89852845 0 0 0
-0.88547762 -0.20360060 0.90110314 0 0 0
-0.88652961 -0.18938282 0.90461074 0 0 0
-0.88915178 -0.16976376 0.90958149 0 0 0
-0.89004847 -0.15037492 0.91429128 0 0 0
-0.88908497 -0.13290693 0.91824439 0 0 0
-0.89237563 -0.12357745 0.92061325 0 0 0
-0.89000475 -0.11057527 0.92319749 0 0 0
-0.89012885 -0.09025108 0.92728556 0 0 0
-0.89011633 -0.06977897 0.93099961 0 0 0
-0.88999364 -0.04977682 0.93420354 0 0 0
-0.88995285 -0.03038417 0.93708501 0 0 0
-0.88881374 -0.01531834 0.93921044 0 0 0
-0.89140052 -0.00534668 0.94084776 0 0 0
-0.89010457 0.01004364 0.94308576 0 0 0
-0.89005436 0.02982705 0.94608739 0 0 0
-0.88991677 0.04961176 0.94906709 0 0 0
-0.89003650 0.06938925 0.95195235 0 0 0
-0.88997306 0.08941330 0.95468543 0 0 0
-0.89008635 0.10959275 0.95718156 0 0 0
-0.88954058 0.12768647 0.95918792 0 0 0
-0.89191372 0.13742940 0.96022433 0 0 0
-0.88996432 0.14978468 0.96135404 0 0 0
-0.89001849 0.17008055 0.96313966 0 0 0
-0.89000253 0.19032870 0.96484600 0 0 0
-0.88993798 0.20997151 0.96644654 0 0 0
-0.88987221 0.22970522 0.96797952 0 0 0
-0.88997259 0.25005355 0.96944616 0 0 0
-0.89014040 0.27032738 0.97075325 0 0 0
-0.88990081 0.29010211 0.97187880 0 0 0
-0.89007822 0.30965019 0.97283129 0 0 0
-0.88991627 0.33020670 0.97373376 0 0 0
-0.89014831 0.34966750 0.97455542 0 0 0
-0.88977509 0.36959433 0.97535290 0 0 0
-0.89017961 0.38988822 0.97615814 0 0 0
-0.88981836 0.41000352 0.97692179 0 0 0
-0.89010845 0.42953874 0.97764192 0 0 0
-0.89002933 0.45010915 0.97840139 0 0 0
-0.88970735 0.46992885 0.97906016 0 0 0
-0.88994305 0.48931436 0.97967076 0 0 0
-0.89794210 0.49863262 0.98004474 0 0 0
-0.88292292 0.50085934 0.97998244 0 0 0
-0.89008318 0.51063888 0.98032016 0 0 0
-0.88964005 0.53012487 0.98085167 0 0 0
-0.89008009 0.54904480 0.98133681 0 0 0
-0.86026223 -0.28104408 0.87278634 0 0 0
-0.86277897 -0.27021695 0.87740731 0 0 0
-0.86537983 -0.26222724 0.88086077 0 0 0
-0.86775516 -0.24915191 0.88577000 0 0 0
-0.87001789 -0.22987730 0.89200365 0 0 0
-0.86939490 -0.21051570 0.89709471 0 0 0
-0.87762605 -0.20232361 0.90032665 0 0 0
-0.86397436 -0.19803705 0.89953719 0 0 0
-0.87061281 -0.18911035 0.90264413 0 0 0
-0.87009638 -0.16985302 0.90742638 0 0 0
-0.87003817 -0.15026644 0.91229928 0 0 0
-0.87000265 -0.13042402 0.91706186 0 0 0
-0.87990267 -0.12135010 0.92014301 0 0 0
-0.86528128 -0.11772615 0.91950799 0 0 0
-0.87098037 -0.10908881 0.92194354 0 0 0
-0.87013529 -0.09011742 0.92568592 0 0 0
-0.87026300 -0.06970779 0.92935959 0 0 0
-0.86979831 -0.04994164 0.93247316 0 0 0
-0.86994995 -0.03048416 0.93543213 0 0 0
-0.86943031 -0.01105755 0.93834164 0 0 0
-0.87598872 -0.00200750 0.94029670 0 0 0
-0.86323814 0.00167537 0.93980360 0 0 0
-0.87039298 0.01054778 0.94181286 0 0 0
-0.86999203 0.02970687 0.94485605 0 0 0
-0.86996955 0.04941542 0.94801009 0 0 0
-0.86998059 0.06939182 0.95109703 0 0 0
-0.86993594 0.08941813 0.95398476 0 0 0
-0.87004206 0.10947269 0.95658733 0 0 0
-0.86987096 0.12940135 0.95890793 0 0 0
-0.87659573 0.13888834 0.96006688 0 0 0
-0.86320371 0.14052872 0.95993702 0 0 0
-0.87019768 0.15008127 0.96103502 0 0 0
-0.87000173 0.17008530 0.96286964 0 0 0
-0.86998188 0.19046611 0.96462198 0 0 0
-0.86984174 0.21004065 0.96623294 0 0 0
-0.86992555 0.22953213 0.96772645 0 0 0
-0.87004208 0.24987447 0.96916661 0 0 0
-0.87009586 0.27032801 0.97047084 0 0 0
-0.86980147 0.29020907 0.97162177 0 0 0
-0.87025747 0.30953109 0.97259941 0 0 0
-0.86970851 0.33028866 0.97350069 0 0 0
-0.87003748 0.35006569 0.97431122 0 0 0
-0.87002406 0.36983582 0.97507467 0 0 0
-0.86994944 0.38996967 0.97587918 0 0 0
-0.87006109 0.40974519 0.97668736 1 1 1
-0.86980266 0.42966045 0.97746894 5 5 6
-0.87032253 0.45003906 0.97826780 8 7 9
-0.86967581 0.47007964 0.97895790 11 11 14
-0.86987564 0.48965720 0.97959549 15 12 16
-0.86911619 0.50157711 0.97996647 19 16 19
-0.87057627 0.51172288 0.98025937 16 14 17
-0.86995963 0.53013306 0.98073835 19 17 21
-0.86961767 0.54897651 0.98121462 21 17 24
-0.84285039 -0.30679184 0.85706232 0 0 0
-0.84715693 -0.30154851 0.86069731 0 0 0
-0.84845343 -0.28903092 0.86629733 0 0 0
-0.84996657 -0.26996799 0.87435295 0 0 0
-0.84589244 -0.25655607 0.87862077 0 0 0
-0.85129930 -0.24804578 0.88285239 0 0 0
-0.85019383 -0.22996132 0.88839786 0 0 0
-0.85014250 -0.20988469 0.89402911 0 0 0
-0.84827910 -0.19293219 0.89818282 0 0 0
-0.85341440 -0.18503359 0.90119306 0 0 0
-0.85013979 -0.16998737 0.90450880 0 0 0
-0.85012453 -0.14976992 0.90962813 0 0 0
-0.85009001 -0.13008561 0.91445291 0 0 0
-0.84844554 -0.11229892 0.91827143 0 0 0
-0.85431762 -0.10441669 0.92089245 0 0 0
-0.84157845 -0.09906638 0.91997379 0 0 0
-0.85013761 -0.08976144 0.92317763 0 0 0
-0.85006939 -0.07021920 0.92675994 0 0 0
-0.85002156 -0.05031345 0.93007847 0 0 0
-0.84993117 -0.03030620 0.93329090 0 0 0
-0.85004132 -0.01021753 0.93656924 0 0 0
-0.84818858 0.00590969 0.93907848 0 0 0
-0.85201317 0.01449189 0.94091465 0 0 0
-0.85008849 0.02974319 0.94332179 0 0 0
-0.85002008 0.04948835 0.94665198 0 0 0
-0.84993383 0.06933578 0.94990398 0 0 0
-0.85000809 0.08924558 0.95296231 0 0 0
-0.85007433 0.10933492 0.95574495 0 0 0
-0.85003539 0.12953964 0.95826356 0 0 0
-0.84827078 0.14264359 0.95968238 0 0 0
-0.85071743 0.15239177 0.96078949 0 0 0
-0.85003373 0.17014263 0.96249177 0 0 0
-0.84997893 0.19046604 0.96431713 0 0 0
-0.84992895 0.20993968 0.96594285 0 0 0
-0.85001231 0.22936491 0.96742155 0 0 0
-0.85007484 0.24968119 0.96883185 3 3 3
-0.84987067 0.27041801 0.97013850 7 7 9
-0.84999946 0.28990401 0.97130256 11 10 11
-0.85001276 0.30957593 0.97236796 15 13 15
-0.84993616 0.33009879 0.97332611 18 17 19
-0.84994530 0.35057705 0.97421752 22 20 22
-0.85020614 0.37018747 0.97503689 24 20 26
-0.84971511 0.38997293 0.97588724 26 25 29
-0.85043478 0.40971696 0.97671373 28 25 32
-0.84962974 0.42963923 0.97750247 26 25 28
-0.85011444 0.45011322 0.97828763 27 24 30
-0.85025019 0.46967639 0.97895384 25 23 29
-0.84961673 0.48971866 0.97958827 26 22 29
-0.84884292 0.50212755 0.97994966 25 23 28
-0.85036726 0.51233133 0.98023146 24 22 26
-0.85042734 0.52996728 0.98068001 24 21 26
-0.85001774 0.54891407 0.98110324 24 19 27
-0.82140064 -0.34159714 0.83372442 0 0 0
-0.82321278 -0.33443545 0.83775584 0 0 0
-0.82796382 -0.32514645 0.84382326 0 0 0
-0.83016691 -0.30988041 0.85130005 0 0 0
-0.82755824 -0.29398893 0.85739603 0 0 0
-0.83268465 -0.28590884 0.86275640 0 0 0
-0.83020807 -0.26997890 0.86874424 0 0 0
-0.82919199 -0.25090883 0.87604645 0 0 0
-0.83653691 -0.24295152 0.88106951 0 0 0
-0.82319428 -0.23647356 0.87934595 0 0 0
-0.83106095 -0.22931788 0.88394636 0 0 0
-0.83013839 -0.21012464 0.88917158 0 0 0
-0.83021978 -0.18990139 0.89463437 0 0 0
-0.82684641 -0.17328076 0.89814953 0 0 0
-0.83350745 -0.16692404 0.90165792 0 0 0
-0.83031789 -0.15013076 0.90538736 0 0 0
-0.82987229 -0.12971419 0.91063856 0 0 0
-0.83008549 -0.10963275 0.91552959 0 0 0
-0.82734498 -0.09278357 0.91866879 0 0 0
-0.83363389 -0.08547895 0.92133278 0 0 0
-0.82995829 -0.06990083 0.92362152 0 0 0
-0.82998419 -0.05004243 0.92719127 0 0 0
-0.82996834 -0.03013304 0.93066950 0 0 0
-0.83009973 -0.01017949 0.93409772 0 0 0
-0.82992704 0.00981799 0.93757398 0 0 0
-0.83838365 0.01846774 0.94016637 0 0 0
-0.82436462 0.02386239 0.93927618 0 0 0
-0.83166443 0.03090356 0.94158545 0 0 0
-0.83021890 0.04940590 0.94463265 0 0 0
-0.83034424 0.06995951 0.94820965 3 3 3
-0.83014042 0.09017720 0.95146171 15 15 17
-0.83019924 0.10989621 0.95434457 24 24 25
-0.83016261 0.12956671 0.95699411 30 30 32
-0.82897142 0.14674527 0.95907839 41 42 46
-0.83208550 0.15622560 0.96040467 25 24 26
-0.82993005 0.16988903 0.96175426 39 37 42
-0.82992004 0.19027101 0.96383712 38 37 42
-0.82979252 0.21036974 0.96566082 39 38 42
-0.83032491 0.22987347 0.96725032 39 39 41
-0.83004978 0.24980370 0.96868482 39 37 42
-0.82985356 0.27030495 0.97000902 37 34 40
-0.83022302 0.28980707 0.97119273 35 32 37
-0.82977793 0.30955119 0.97228999 34 31 36
-0.83022384 0.32998816 0.97329853 32 31 35
-0.82975380 0.35058334 0.97423482 32 29 34
-0.83033615 0.37015429 0.97508608 30 28 33
-0.82966053 0.39011779 0.97595254 29 27 32
-0.83021360 0.40973502 0.97675689 28 26 30
-0.83000661 0.42947963 0.97750736 27 26 29
-0.82981558 0.45010873 0.97827791 27 25 29
-0.83038692 0.46987672 0.97895152 26 25 28
-0.82984908 0.48977811 0.97957783 27 23 28
-0.82953725 0.50253485 0.97994662 26 22 29
-0.82976202 0.51283675 0.98021212 26 22 28
-0.83011034 0.53000139 0.98062351 25 21 27
-0.83042518 0.54885361 0.98099535 25 20 27
-0.80096255 -0.36069163 0.81262335 0 0 0
-0.80298743 -0.35485724 0.81728571 0 0 0
-0.80962037 -0.34603987 0.82576625 0 0 0
-0.80960283 -0.33074782 0.83332914 0 0 0
-0.81756256 -0.32240258 0.84076834 0 0 0
-0.80455193 -0.31509761 0.83774956 0 0 0
-0.81214324 -0.30845719 0.84433889 0 0 0
-0.81007663 -0.28995183 0.85179858 0 0 0
-0.80648451 -0.27414172 0.85736791 0 0 0
-0.81287034 -0.26703044 0.86340236 0 0 0
-0.81026008 -0.25020145 0.86942426 0 0 0
-0.80927230 -0.23102380 0.87571531 0 0 0
-0.81726879 -0.22384133 0.88118978 0 0 0
-0.80398749 -0.21476365 0.87832696 0 0 0
-0.81207811 -0.20873354 0.88342384 0 0 0
-0.81049293 -0.19001426 0.88807998 0 0 0
-0.81075745 -0.16990896 0.89398863 0 0 0
-0.80718779 -0.15300169 0.89764032 4 4 4
-0.81447075 -0.14716746 0.90209173 0 0 0
-0.80136012 -0.13724289 0.89922887 76 79 82
-0.81126198 -0.13004457 0.90558447 12 13 13
-0.81060257 -0.11002200 0.91030362 34 35 35
-0.81010037 -0.09017085 0.91481885 51 53 53
-0.80678666 -0.07172593 0.91757421 97 99 101
-0.81585095 -0.06769761 0.92127524 0 0 0
-0.80304306 -0.05754163 0.91938098 156 159 159
-0.81034267 -0.04912894 0.92315793 69 70 70
-0.80963638 -0.03008566 0.92655904 85 85 85
-0.80955821 -0.01011123 0.92997614 95 98 99
-0.80925609 0.00997714 0.93326919 110 111 112
-0.80884613 0.02934891 0.93634952 127 129 129
-0.81898165 0.03688866 0.94027877 3 3 3
-0.80695330 0.04507832 0.93882855 141 145 146
-0.81113106 0.05414202 0.94145117 107 108 109
-0.80969081 0.07079231 0.94528931 100 100 105
-0.80980340 0.09068924 0.94946405 87 87 92
-0.81002204 0.11069340 0.95300140 82 80 84
-0.81009178 0.13005457 0.95608813 75 75 79
-0.81004321 0.14870188 0.95879352 67 67 72
-0.80943216 0.15880932 0.96011648 63 62 67
-0.80996805 0.16982838 0.96140971 57 56 62
-0.80996391 0.19020070 0.96362832 49 49 54
-0.81006627 0.21059855 0.96556902 45 44 48
-0.81017188 0.23014662 0.96720808 41 41 46
-0.80993760 0.24979739 0.96866008 40 39 43
-0.80987154 0.27029205 0.97000466 37 37 40
-0.81031777 0.28983758 0.97120682 36 34 39
-0.80969745 0.30962399 0.97231555 34 32 38
-0.81035259 0.32995362 0.97333653 33 32 36
-0.80962974 0.34981060 0.97424928 32 30 35
-0.81025484 0.36942868 0.97508656 31 29 34
-0.80978458 0.39009480 0.97596770 29 28 33
-0.80995621 0.40973581 0.97675878 29 27 31
-0.81036491 0.42931020 0.97749013 28 26 29
-0.80964805 0.45022336 0.97826829 28 25 28
-0.81007828 0.46987431 0.97894644 26 25 29
-0.81032359 0.48944810 0.97956446 26 24 28
-0.81004731 0.50252754 0.97993238 26 24 28
-0.80958753 0.51293608 0.98018822 25 24 28
-0.80970736 0.52995944 0.98054610 25 23 28
-0.80995382 0.54876905 0.98084436 26 21 27
-0.78314785 -0.36669878 0.79699741 0 0 0
-0.79010918 -0.36278443 0.80450974 0 0 0
-0.78965714 -0.35076040 0.81210466 0 0 0
-0.79784083 -0.34264600 0.82155855 0 0 0
-0.78407004 -0.33465879 0.81749711 0 0 0
-0.79218537 -0.32857991 0.82502015 0 0 0
-0.78998654 -0.31005921 0.83176915 0 0 0
-0.79837693 -0.30177522 0.84020403 0 0 0
-0.78582204 -0.29416303 0.83688563 0 0 0
-0.79309889 -0.28772006 0.84436695 0 0 0
-0.79153511 -0.27054434 0.85114505 0 0 0
-0.78854044 -0.25361600 0.85563072 0 0 0
-0.79593487 -0.24824019 0.86326346 0 0 0
-0.78230418 -0.23086414 0.85754826 87 90 89
-0.79371554 -0.22998199 0.86751182 6 7 7
-0.78874174 -0.20933833 0.86988374 79 82 82
-0.78647026 -0.19040790 0.87570901 137 143 144
-0.79621549 -0.18634644 0.88188968 33 33 35
-0.78384216 -0.17943281 0.87965253 160 164 163
-0.78863298 -0.16912316 0.88505212 141 143 144
-0.78930400 -0.14988351 0.89224903 157 162 162
-0.78884087 -0.13291620 0.89776644 164 168 169
-0.79116502 -0.12292963 0.90097365 162 167 169
-0.78989601 -0.10989001 0.90470681 165 168 170
-0.78987009 -0.09014947 0.91020966 158 161 161
-0.78996194 -0.07004611 0.91515808 156 157 158
-0.78891066 -0.05431369 0.91872007 154 157 157
-0.79100982 -0.04444944 0.92106919 158 160 161
-0.78991482 -0.02999944 0.92402448 156 158 158
-0.79001052 -0.01010071 0.92800569 159 161 161
-0.78984620 0.00994396 0.93178199 151 153 154
-0.78995798 0.02936541 0.93532889 152 155 155
-0.78982388 0.04646689 0.93853352 140 143 144
-0.79026341 0.05707212 0.94077389 129 130 132
-0.78993227 0.07047681 0.94439667 106 107 112
-0.78990795 0.09053810 0.94879371 88 88 93
-0.79004123 0.11066430 0.95249970 82 82 85
-0.79003711 0.13000540 0.95572554 75 75 79
-0.79005745 0.14943681 0.95858736 67 66 70
-0.78355075 0.16043621 0.95992149 63 62 66
-0.79011001 0.17009002 0.96118792 57 56 62
-0.78994681 0.19014816 0.96342063 50 48 55
-0.79005616 0.21055411 0.96541833 45 45 49
-0.79018967 0.23011220 0.96711683 43 42 48
-0.78981108 0.24978624 0.96861652 41 40 44
-0.78995393 0.27028340 0.96999389 39 38 42
-0.79025935 0.28990717 0.97122508 36 35 41
-0.78976408 0.30966426 0.97234754 34 33 38
-0.79033299 0.33008799 0.97338331 33 32 36
-0.78968340 0.34985179 0.97429044 32 31 35
-0.79005502 0.36944008 0.97511671 32 30 35
-0.79012509 0.38991688 0.97597475 30 29 34
-0.78970131 0.40973789 0.97676381 29 27 32
-0.79029100 0.42947330 0.97749315 28 26 30
-0.78990891 0.45016860 0.97824824 28 25 30
-0.78976085 0.46986652 0.97893022 28 25 30
-0.79025897 0.48963319 0.97954764 26 24 29
-0.79016925 0.50340212 0.97991754 26 25 29
-0.79022081 0.51356507 0.98014920 25 24 29
-0.79005971 0.52997908 0.98045413 25 24 28
-0.78945847 0.54866353 0.98065604 23 20 25
-0.76299737 -0.37212367 0.77707581 0 0 0
-0.77092143 -0.36641356 0.78831812 0 0 0
-0.76641355 -0.35325019 0.79517067 0 0 0
-0.77411213 -0.34750258 0.80423669 0 0 0
-0.77050405 -0.33035728 0.81028247 0 0 0
-0.76727102 -0.31305979 0.81504795 0 0 0
-0.77554553 -0.30782368 0.82367024 0 0 0
-0.76272647 -0.29575855 0.81755739 0 0 0
-0.77349252 -0.29086025 0.82952559 0 0 0
-0.76806020 -0.26921786 0.83102834 37 37 39
-0.77828478 -0.26810300 0.84164110 0 0 0
-0.76405641 -0.24964434 0.83537414 151 157 158
-0.77183095 -0.24569039 0.84393474 109 114 115
-0.76830150 -0.22949398 0.85040889 159 164 165
-0.76841511 -0.21713504 0.85823681 154 155 156
-0.77050187 -0.20724262 0.86420434 158 161 162
-0.76969746 -0.19017495 0.87319616 157 160 160
-0.76908732 -0.17826035 0.87902118 157 160 159
-0.77000363 -0.16848717 0.88341594 160 162 162
-0.76987353 -0.15048747 0.89045044 159 162 163
-0.76978421 -0.13084132 0.89702723 163 167 167
-0.77097056 -0.12050564 0.90025598 168 173 173
-0.77005478 -0.10979505 0.90342956 162 165 167
-0.76985994 -0.09008713 0.90900379 165 167 168
-0.76992751 -0.06999288 0.91419698 159 161 162
-0.76987982 -0.05279916 0.91834245 159 161 164
-0.77000584 -0.04269713 0.92065058 156 158 159
-0.76994686 -0.03007123 0.92344447 159 162 163
-0.77007493 -0.01009691 0.92769912 161 163 163
-0.76994295 0.01007899 0.93168004 156 158 158
-0.77004624 0.02938075 0.93528287 153 157 158
-0.76991786 0.04652471 0.93846596 143 145 146
-0.77001728 0.05727488 0.94061845 135 137 138
-0.76984877 0.07042980 0.94370917 114 116 118
-0.76990689 0.09049419 0.94814927 91 91 97
-0.77002176 0.11058753 0.95208429 82 83 86
-0.77001554 0.12995921 0.95538603 74 75 77
-0.77012402 0.14933349 0.95825808 66 65 68
-0.76829166 0.16112849 0.95980917 61 60 64
-0.77014118 0.17116780 0.96105830 57 56 61
-0.76994094 0.19009630 0.96321631 52 50 55
-0.77006571 0.21051336 0.96528445 47 46 50
-0.77013478 0.23015631 0.96703371 44 44 48
-0.76980940 0.24989071 0.96856454 42 41 44
-0.77008566 0.27022459 0.96995222 39 38 43
-0.77009773 0.28990061 0.97120297 38 37 42
-0.76987667 0.30961533 0.97234247 35 34 39
-0.77013534 0.33008419 0.97337217 34 32 37
-0.76999403 0.34974945 0.97425788 34 32 36
-0.76980996 0.36943037 0.97509102 32 30 36
-0.77036227 0.38988164 0.97595624 31 29 35
-0.76963825 0.40988427 0.97673852 29 27 33
-0.76998295 0.42945438 0.97745012 30 26 32
-0.77030463 0.44987771 0.97819585 28 26 30
-0.76964624 0.47000741 0.97889587 27 25 30
-0.76990806 0.48961144 0.97950420 26 25 29
-0.76953452 0.50491030 0.97988780 26 25 29
-0.77100483 0.51504138 0.98010933 26 25 29
-0.77050210 0.52978879 0.98035037 25 24 28
-0.76981330 0.54855441 0.98046142 17 16 19
-0.74295879 -0.37558193 0.75651026 0 0 0
-0.75031603 -0.36850355 0.76957606 0 0 0
-0.75741740 -0.36165839 0.78196093 0 0 0
-0.74451885 -0.35543915 0.77643719 0 0 0
-0.75270378 -0.34960072 0.78707733 0 0 0
-0.75074699 -0.33276517 0.79310611 0 0 0
-0.75778172 -0.32632428 0.80210431 0 0 0
-0.74509487 -0.31221828 0.79377985 8 8 8
-0.75490940 -0.30998359 0.80485459 0 0 0
-0.74209416 -0.29308539 0.79647590 107 107 112
-0.75103461 -0.28858024 0.80762895 82 85 87
-0.74625399 -0.26868046 0.81316626 155 160 164
-0.75446502 -0.26318002 0.82172524 150 153 158
-0.74207679 -0.25970631 0.81972149 153 157 158
-0.74962556 -0.24981445 0.83058785 159 164 165
-0.75641087 -0.24010262 0.84036861 164 169 173
-0.74613765 -0.23967383 0.83943242 159 164 164
-0.74992182 -0.22953099 0.84781040 160 164 165
-0.74976885 -0.21601092 0.85728837 158 160 161
-0.75004138 -0.20631911 0.86345554 161 165 166
-0.74989228 -0.19044854 0.87251084 159 161 162
-0.75065235 -0.17785216 0.87888272 156 160 159
-0.74971207 -0.16814595 0.88323190 152 154 155
-0.74990673 -0.15048626 0.89008940 161 162 163
-0.74994801 -0.13060777 0.89687074 162 166 167
-0.74959772 -0.12027833 0.90021820 160 164 164
-0.75006790 -0.10983949 0.90343433 160 162 164
-0.74994850 -0.09003191 0.90913397 163 166 167
-0.74980503 -0.07000940 0.91441304 160 161 162
-0.75032891 -0.05329030 0.91848507 163 167 168
-0.74947251 -0.04312799 0.92081710 162 164 165
-0.74992402 -0.03000581 0.92370130 161 164 165
-0.74997036 -0.01019600 0.92791085 159 162 163
-0.74995469 0.00990482 0.93190345 159 159 159
-0.75005175 0.02947597 0.93556673 157 159 159
-0.74998030 0.04656359 0.93867213 148 149 148
-0.74996733 0.05722940 0.94069026 150 150 151
-0.74991815 0.07039665 0.94334670 131 131 133
-0.75001120 0.09042963 0.94776620 98 98 103
-0.75003802 0.11053369 0.95186579 83 83 86
-0.74999495 0.12992363 0.95512505 74 74 78
-0.75008394 0.14935227 0.95796976 65 65 68
-0.74874104 0.16232311 0.95967558 60 60 64
-0.75034678 0.17229597 0.96092674 57 57 60
-0.74991733 0.19003778 0.96297835 53 51 57
-0.75004385 0.21046221 0.96510306 47 47 51
-0.74996424 0.23012158 0.96688766 45 45 48
-0.74990527 0.24981104 0.96843813 43 42 47
-0.75017461 0.27014977 0.96985311 40 40 44
-0.74989613 0.28987828 0.97112801 39 38 42
-0.75001449 0.30952932 0.97227715 38 37 41
-0.74989975 0.33006356 0.97331131 35 33 39
-0.75023660 0.35024987 0.97422386 34 33 36
-0.74969525 0.37011406 0.97507020 32 31 36
-0.75022019 0.38998463 0.97591661 31 30 35
-0.74978579 0.41013298 0.97669934 30 28 34
-0.74989644 0.42983910 0.97740649 29 27 33
-0.75024310 0.45004786 0.97814565 28 26 31
-0.75016460 0.46965281 0.97882605 27 25 30
-0.74960446 0.48964203 0.97943522 27 25 29
-0.74922815 0.50723593 0.97985311 26 25 29
-0.75155283 0.51719518 0.98006361 26 24 28
-0.74996479 0.53009903 0.98025154 26 24 29
-0.75046029 0.54876352 0.98036188 11 10 12
-0.72403236 -0.38063854 0.73457317 0 0 0
-0.73064767 -0.38027685 0.74128479 0 0 0
-0.72306429 -0.37682666 0.73729982 0 0 0
-0.73010003 -0.37003913 0.75021769 0 0 0
-0.73758340 -0.36340725 0.76327044 0 0 0
-0.72377206 -0.35611719 0.75573534 0 0 0
-0.73327894 -0.35186906 0.76781101 0 0 0
-0.73001559 -0.32991502 0.77215797 3 3 3
-0.73757876 -0.32715929 0.78119538 0 0 0
-0.72658091 -0.30822148 0.77465006 94 97 97
-0.73560560 -0.30824764 0.78461112 56 56 57
-0.72281573 -0.29465236 0.77713103 161 163 166
-0.72925006 -0.28635059 0.78880029 154 157 161
-0.72666239 -0.27665828 0.79646000 157 162 163
-0.73012949 -0.26711012 0.80900326 157 160 161
-0.72834002 -0.25851032 0.81876124 157 161 161
-0.73001341 -0.24896533 0.82934771 159 161 162
-0.73163621 -0.23922839 0.83929696 153 156 155
-0.72977065 -0.22929040 0.84771500 159 162 162
-0.72988242 -0.21620284 0.85739598 160 162 164
-0.72959323 -0.20642658 0.86392218 164 167 168
-0.73008567 -0.19037809 0.87328167 160 165 165
-0.73111678 -0.17862570 0.87921322 151 152 152
-0.72964531 -0.16870659 0.88369048 160 161 162
-0.73011638 -0.15038972 0.89081660 161 164 165
-0.73018475 -0.13189028 0.89717213 164 168 169
-0.72889666 -0.12161017 0.90059489 163 164 164
-0.72998279 -0.10980343 0.90418400 164 166 167
-0.72995013 -0.09006293 0.90990999 165 167 168
-0.72986040 -0.07009140 0.91524050 162 166 166
-0.73081047 -0.05513186 0.91887907 163 164 164
-0.72945516 -0.04508039 0.92124294 162 165 166
-0.72994332 -0.03009299 0.92450044 159 161 162
-0.72996093 -0.01004966 0.92861809 161 163 163
-0.72991264 0.01003249 0.93247634 153 155 155
-0.73001699 0.02942134 0.93604172 149 149 148
-0.73033246 0.04543919 0.93885485 147 148 145
-0.72959266 0.05598464 0.94076543 134 134 136
-0.72995607 0.07042007 0.94336669 135 136 139
-0.73002470 0.09036847 0.94742114 111 111 113
-0.73006929 0.11053879 0.95166575 84 84 88
-0.72987877 0.13004147 0.95490385 75 75 77
-0.73019987 0.14947343 0.95773123 65 66 68
-0.72920984 0.16317944 0.95953861 60 60 63
-0.73047945 0.17322934 0.96078889 58 58 61
-0.72997339 0.18991307 0.96273378 53 52 58
-0.73001167 0.21040589 0.96489797 48 47 52
-0.72986197 0.23014810 0.96673107 47 46 48
-0.72999306 0.24972674 0.96829389 44 43 48
-0.73024773 0.27006754 0.96972741 42 41 46
-0.72974107 0.28990920 0.97101705 40 39 44
-0.73026801 0.30931897 0.97216356 38 37 42
-0.72964932 0.33003513 0.97322732 36 35 41
-0.73036581 0.35056472 0.97418304 35 34 37
-0.72967952 0.37044828 0.97502887 33 32 36
-0.72993687 0.38996225 0.97586067 32 31 35
-0.73032995 0.41037286 0.97665036 31 29 34
-0.72966672 0.43044834 0.97736990 30 28 33
-0.72991208 0.45002117 0.97808763 28 26 31
-0.73041533 0.46978572 0.97876195 28 26 30
-0.73007587 0.48945872 0.97933884 27 26 30
-0.72927504 0.50974984 0.97979310 26 25 29
-0.73615422 0.51922956 0.98002112 28 24 29
-0.72228652 0.52174563 0.97997461 27 23 29
-0.73006555 0.53096491 0.98013555 26 24 29
-0.72986638 0.54930988 0.98029681 3 3 3
-0.70385202 -0.38175295 0.71409904 0 0 0
-0.71400533 -0.38099908 0.72440016 0 0 0
-0.70307705 -0.37766082 0.71716798 0 0 0
-0.71018067 -0.37181912 0.73011071 0 0 0
-0.71702051 -0.36487994 0.74302252 0 0 0
-0.70389169 -0.35414287 0.73525342 0 0 0
-0.71384729 -0.35341649 0.74643108 0 0 0
-0.70273060 -0.33881327 0.73887485 0 0 0
-0.71018747 -0.32848565 0.75029396 32 34 34
-0.71924738 -0.32597490 0.76108247 18 19 19
-0.70543875 -0.30557315 0.75306031 140 146 148
-0.71609147 -0.30727951 0.76351911 128 132 132
-0.70290175 -0.29785626 0.75787970 160 163 166
-0.70898893 -0.29068808 0.77134214 157 159 160
-0.71204790 -0.28251566 0.78343095 156 157 159
-0.70918804 -0.27535386 0.79295333 156 161 162
-0.70951559 -0.26545675 0.80849696 159 163 164
-0.71114033 -0.25877570 0.81827659 161 166 166
-0.70988525 -0.24924476 0.83013128 155 157 159
-0.70494909 -0.24013798 0.84049234 156 161 163
-0.71503833 -0.23986742 0.83954541 157 158 161
-0.70991990 -0.23001975 0.84871800 164 166 167
-0.71089123 -0.21762836 0.85825134 166 168 167
-0.70957750 -0.20752600 0.86512960 165 167 168
-0.71010256 -0.19042405 0.87492521 160 163 163
-0.70289232 -0.18060088 0.88045020 162 164 164
-0.71630524 -0.17965334 0.87966881 151 155 155
-0.70992999 -0.16959554 0.88459028 162 165 165
-0.70992456 -0.15005400 0.89225471 162 164 164
-0.71056520 -0.13392537 0.89777991 164 168 168
-0.70898811 -0.12377303 0.90123773 164 167 168
-0.71003382 -0.11001445 0.90540181 164 168 169
-0.70994620 -0.09025170 0.91107728 163 167 167
-0.70997729 -0.07015858 0.91636112 160 165 166
-0.71181752 -0.05756065 0.91938051 164 168 169
-0.70961394 -0.04767453 0.92179583 163 164 165
-0.70991366 -0.03007206 0.92556917 157 159 159
-0.70996771 -0.01012674 0.92950457 155 158 159
-0.70997739 0.01002425 0.93319157 155 157 158
-0.71003450 0.02945568 0.93662579 146 146 145
-0.71055464 0.04422584 0.93914218 152 152 149
-0.70956382 0.05480929 0.94098955 145 144 144
-0.71000971 0.07041331 0.94357922 148 148 146
-0.70998445 0.09028148 0.94716355 122 122 124
-0.71005128 0.11049563 0.95129095 90 90 93
-0.71000391 0.13069559 0.95472777 76 75 77
-0.71009112 0.15011769 0.95757624 67 67 70
-0.70933790 0.16415525 0.95942391 62 61 65
-0.71065287 0.17422865 0.96066666 59 58 62
-0.71003691 0.19005114 0.96251515 55 54 59
-0.70997633 0.21048955 0.96469329 50 48 55
-0.70981674 0.23008765 0.96653058 46 46 49
-0.71005856 0.24963252 0.96811120 45 44 49
-0.71015793 0.27014509 0.96958184 44 42 46
-0.70980074 0.28992113 0.97087936 41 39 44
-0.71028230 0.30947352 0.97204553 39 38 43
-0.70972579 0.33021407 0.97313056 38 37 41
-0.71008837 0.35052922 0.97408431 35 33 37
-0.71026412 0.37001148 0.97493099 34 32 36
-0.70964139 0.38993197 0.97578483 33 31 35
-0.71022570 0.41050844 0.97658831 31 30 35
-0.71021747 0.43004030 0.97729246 30 29 33
-0.70962622 0.45004531 0.97799891 28 27 32
-0.71003587 0.46973343 0.97865307 28 27 31
-0.71044057 0.48946469 0.97921084 27 26 30
-0.70999400 0.50993658 0.97965699 27 26 30
-0.70787530 0.52711621 0.97992406 25 24 29
-0.71292042 0.53503704 0.98005276 20 20 23
-0.70950010 0.54928390 0.98025015 0 0 0
-0.68410878 -0.46579991 0.69679350 0 0 0
-0.68245809 -0.45442066 0.69355448 0 0 0
-0.68437120 -0.38240815 0.69539167 0 0 0
-0.69418397 -0.38171335 0.70490852 0 0 0
-0.68311020 -0.37786907 0.69758186 0 0 0
-0.69034636 -0.37214271 0.70969060 0 0 0
-0.69756453 -0.36619656 0.72281886 0 0 0
-0.68368062 -0.35385892 0.71263294 0 0 0
-0.69402107 -0.35278180 0.72461393 0 0 0
-0.68068200 -0.32960804 0.71612946 50 53 52
-0.69318965 -0.32942616 0.73057423 47 49 49
-0.68582370 -0.30631127 0.73288962 152 156 158
-0.69473521 -0.30276770 0.74467911 155 158 160
-0.68128719 -0.29941720 0.73778105 158 160 159
-0.68844415 -0.29450913 0.75205118 154 158 159
-0.68991520 -0.28544198 0.77026191 158 161 163
-0.69645350 -0.28060282 0.78125768 158 162 161
-0.68974591 -0.27567899 0.79074597 154 158 158
-0.68960092 -0.26602857 0.80992500 157 162 162
-0.68263179 -0.26032611 0.82093212 166 167 168
-0.69489549 -0.25954780 0.81922118 161 167 167
-0.69018013 -0.25166516 0.83049834 162 166 167
-0.68814837 -0.24195725 0.84177258 162 166 166
-0.69014938 -0.23040721 0.85161663 168 171 171
-0.68344612 -0.22076983 0.86045031 171 174 173
-0.69676011 -0.21899326 0.85931560 167 169 169
-0.68977129 -0.20986693 0.86638648 165 168 168
-0.69039622 -0.19229541 0.87616188 166 169 169
-0.68850954 -0.18223608 0.88115622 165 170 171
-0.69001370 -0.16973297 0.88636332 164 167 167
-0.68981969 -0.14972898 0.89410749 165 168 169
-0.69158345 -0.13599328 0.89872627 160 165 166
-0.68928631 -0.12642823 0.90204272 164 169 170
-0.69002089 -0.11017535 0.90687057 155 160 162
-0.68992986 -0.09040077 0.91239401 161 165 166
-0.69030471 -0.07060243 0.91750319 164 168 169
-0.68381251 -0.06118543 0.92022171 164 166 166
-0.69756585 -0.05930466 0.91983095 165 171 170
-0.68985849 -0.04972974 0.92249384 162 164 165
-0.68997018 -0.03011175 0.92662507 153 154 155
-0.68994061 -0.01009855 0.93041991 158 159 160
-0.69004847 0.00993156 0.93394058 152 153 152
-0.68996778 0.02949582 0.93723188 154 154 155
-0.69055124 0.04277869 0.93940672 144 147 146
-0.68979518 0.05340444 0.94116498 142 142 140
-0.68997109 0.07045774 0.94387886 148 148 145
-0.68996530 0.09035029 0.94713063 136 135 136
-0.68996864 0.11043953 0.95080611 100 101 103
-0.68995705 0.13064937 0.95438895 78 77 80
-0.69003576 0.15007550 0.95730660 69 69 71
-0.68949130 0.16499126 0.95928977 64 63 66
-0.69069963 0.17509902 0.96053874 60 59 63
-0.69002887 0.18998879 0.96225842 56 55 60
-0.68997929 0.21046010 0.96442179 52 49 56
-0.68987968 0.23005050 0.96626226 48 47 51
-0.69015746 0.24946691 0.96786050 45 45 49
-0.68989894 0.27008682 0.96937246 44 43 45
-0.68982094 0.29017824 0.97070607 41 41 45
-0.69022176 0.30982193 0.97187872 40 39 42
-0.69013482 0.32984790 0.97294257 39 37 41
-0.68977316 0.35047244 0.97392641 36 35 39
-0.69039479 0.37016396 0.97480416 34 33 37
-0.68972869 0.39010829 0.97567555 33 32 36
-0.68990058 0.41046696 0.97648954 32 31 36
-0.69040394 0.43018965 0.97720202 31 30 34
-0.68996454 0.44998316 0.97788268 29 28 33
-0.68959336 0.47046022 0.97854067 28 27 31
-0.69010618 0.49016724 0.97907664 27 26 30
-0.69033352 0.50992401 0.97949846 27 26 30
-0.69048185 0.53033847 0.97980134 18 17 20
-0.68626298 0.54184395 0.97997185 0 0 0
-0.69026985 0.55008274 0.98025359 0 0 0
-0.67145861 -0.46432929 0.69221380 0 0 0
-0.67006482 -0.45043604 0.68813789 0 0 0
-0.66382432 -0.42779797 0.67705394 0 0 0
-0.66911921 -0.43618671 0.68271033 0 0 0
-0.66214766 -0.41597726 0.67195576 0 0 0
-0.66405276 -0.38463102 0.67490497 0 0 0
-0.67357001 -0.38237084 0.68509169 0 0 0
-0.66207919 -0.37506363 0.67819471 0 0 0
-0.67088529 -0.37110437 0.68979371 0 0 0
-0.67747444 -0.36591876 0.70148602 0 0 0
-0.66578975 -0.35283588 0.69290233 0 0 0
-0.67442299 -0.34908075 0.70348874 0 0 0
-0.66183743 -0.32765278 0.69493629 61 63 64
-0.67389718 -0.32881788 0.70856196 60 63 63
-0.66099892 -0.31471722 0.69816867 147 156 156
-0.66666157 -0.30652512 0.71260513 149 154 154
-0.67450980 -0.30315688 0.72527658 153 156 158
-0.66079070 -0.29923110 0.71894991 151 155 156
-0.66792823 -0.29661495 0.73263195 156 159 160
-0.67006251 -0.29088666 0.75016838 157 160 161
-0.66996611 -0.28430732 0.77020831 153 156 156
-0.66795505 -0.28067454 0.78248260 153 153 156
-0.67060803 -0.27696301 0.79208657 158 160 161
-0.66975783 -0.26899109 0.81025347 163 166 168
-0.66787386 -0.26201183 0.82296104 157 158 159
-0.67068291 -0.25411339 0.83267542 166 169 170
-0.66912696 -0.24422860 0.84426563 165 168 169
-0.67061742 -0.23255645 0.85415181 168 171 172
-0.66803855 -0.22284500 0.86186822 166 169 170
-0.66991283 -0.21016203 0.86927667 164 166 167
-0.67103545 -0.19458372 0.87741883 160 161 161
-0.66903468 -0.18491635 0.88215000 162 164 163
-0.66999822 -0.17015774 0.88831616 164 165 166
-0.67013209 -0.15003375 0.89595460 167 171 173
-0.66082149 -0.14048713 0.90009895 169 174 177
-0.67498596 -0.13812193 0.89955656 151 156 157
-0.66955411 -0.12923107 0.90284052 163 165 166
-0.66991697 -0.11042827 0.90836366 162 165 167
-0.66999103 -0.09051609 0.91383217 162 165 167
-0.67067588 -0.07321186 0.91823145 165 167 167
-0.66839852 -0.06340468 0.92073931 168 170 170
-0.67004214 -0.04996243 0.92361847 165 168 168
-0.66993578 -0.03013930 0.92762207 158 159 159
-0.66997235 -0.01016605 0.93128219 161 163 162
-0.67001865 0.01003488 0.93472849 153 153 154
-0.67001291 0.02947082 0.93781996 152 154 155
-0.67093684 0.04148345 0.93966384 151 153 154
-0.66972201 0.05198435 0.94133563 156 158 158
-0.66997612 0.07052894 0.94424792 155 156 156
-0.67003840 0.09036725 0.94731411 147 146 145
-0.67002209 0.11030825 0.95046974 118 118 120
-0.66992989 0.13058503 0.95395962 83 82 85
-0.66999794 0.15004364 0.95694187 72 70 71
-0.66955274 0.16646423 0.95913430 64 62 65
-0.67108436 0.17647055 0.96037606 60 59 62
-0.66995650 0.18990520 0.96189408 57 56 61
-0.66999212 0.21032970 0.96403930 53 51 56
-0.67004676 0.22984560 0.96589059 49 48 52
-0.67013085 0.24944299 0.96753379 47 46 50
-0.66979127 0.27016738 0.96908604 45 44 47
-0.67027764 0.29032479 0.97045521 43 42 45
-0.66967893 0.31018304 0.97163762 40 40 43
-0.67028035 0.32973775 0.97269932 39 38 43
-0.66969549 0.35059053 0.97372005 37 36 40
-0.67003708 0.37008701 0.97460148 35 33 38
-0.67023689 0.38958981 0.97547877 34 32 37
-0.66966874 0.41051885 0.97633029 33 31 36
-0.67002937 0.43012129 0.97704672 32 31 35
-0.67035878 0.44973198 0.97771802 30 29 34
-0.66993825 0.47056827 0.97836768 29 28 32
-0.66959198 0.49014309 0.97887599 28 27 31
-0.66986951 0.50981110 0.97928168 27 26 31
-0.67009481 0.53030088 0.97961112 12 11 13
-0.66934629 0.54269312 0.97993220 0 0 0
-0.67072678 0.55117342 0.98024981 0 0 0
-0.65472424 -0.46130568 0.68528097 0 0 0
-0.64514521 -0.44687876 0.67806175 0 0 0
-0.65307772 -0.45214114 0.68246717 0 0 0
-0.64975838 -0.43029532 0.67349570 0 0 0
-0.65939968 -0.43837837 0.68033335 0 0 0
-0.64363916 -0.40411548 0.65820309 0 0 0
-0.65121619 -0.41203117 0.66553246 0 0 0
-0.64391131 -0.38893874 0.65632359 0 0 0
-0.65387789 -0.38841298 0.66495214 0 0 0
-0.64259630 -0.37511090 0.65830074 0 0 0
-0.65112024 -0.37094801 0.66892224 0 0 0
-0.65697895 -0.36190675 0.68026182 0 0 0
-0.64633498 -0.35230875 0.67087910 0 0 0
-0.65676829 -0.34962003 0.68351624 0 0 0
-0.64522621 -0.33037748 0.67473924 27 29 29
-0.65302105 -0.32833038 0.68443394 51 52 53
-0.64206525 -0.31087775 0.67796667 147 150 152
-0.64800664 -0.30585169 0.69150914 151 155 156
-0.65498836 -0.30249017 0.70561429 153 157 158
-0.64200067 -0.29935413 0.69752295 153 158 159
-0.64759923 -0.29757519 0.71212164 156 161 161
-0.64989101 -0.29401688 0.73030220 157 160 161
-0.65020534 -0.28993097 0.75033037 156 160 161
-0.64998173 -0.28606522 0.77012409 154 157 158
-0.64847358 -0.28215626 0.78742552 162 165 166
-0.65327059 -0.27853720 0.79597081 162 165 166
-0.65005765 -0.27325402 0.81025900 165 167 168
-0.64888583 -0.26440178 0.82641098 166 169 171
-0.65164450 -0.25661752 0.83591436 165 170 170
-0.64949427 -0.24705587 0.84667709 166 169 170
-0.65095723 -0.23524686 0.85646311 166 170 172
-0.64925196 -0.22550849 0.86365684 165 168 169
-0.64989495 -0.21010724 0.87262332 159 161 162
-0.65233699 -0.19749734 0.87876598 162 163 164
-0.64923052 -0.18820342 0.88346197 163 164 165
-0.65013694 -0.17047371 0.89061711 164 166 167
-0.65069143 -0.15219869 0.89723372 164 168 170
-0.64736005 -0.14248005 0.90079575 165 169 170
-0.64997363 -0.13016981 0.90433718 167 169 170
-0.65000777 -0.11056693 0.91001433 165 169 170
-0.64999771 -0.09068533 0.91535863 165 168 169
-0.65106586 -0.07620565 0.91897598 169 173 175
-0.64923716 -0.06636568 0.92136165 165 169 171
-0.65011529 -0.05002637 0.92479354 162 164 165
-0.64987069 -0.03018803 0.92863640 160 161 161
-0.65010005 -0.01020552 0.93216283 157 159 157
-0.64992270 0.00994703 0.93544058 153 155 156
-0.65000892 0.02952124 0.93839478 156 157 158
-0.65473079 0.04030211 0.93986783 154 156 159
-0.64963819 0.05052905 0.94152169 161 161 162
-0.65007710 0.07048709 0.94457607 158 160 160
-0.65001624 0.09029113 0.94755246 156 157 156
-0.64998188 0.11036897 0.95040410 136 137 139
-0.64992312 0.13053259 0.95353603 91 89 92
-0.64999883 0.14996119 0.95649659 71 69 71
-0.64963301 0.16820043 0.95891559 63 60 64
-0.65283605 0.17799674 0.96017636 60 57 64
-0.64991549 0.18982441 0.96145375 59 55 62
-0.65004795 0.21016757 0.96359229 53 52 57
-0.65000991 0.22993798 0.96548231 51 50 55
-0.65009300 0.24974390 0.96716923 48 47 51
-0.64994289 0.26995268 0.96871884 45 45 49
-0.65020638 0.29042422 0.97014660 44 43 47
-0.64977814 0.31029331 0.97135693 41 40 45
-0.65005526 0.32976459 0.97242908 39 38 43
-0.65012169 0.35017450 0.97345654 37 36 41
-0.64966430 0.36999670 0.97436361 36 34 39
-0.65026537 0.38972439 0.97526512 35 32 38
-0.65006475 0.41025428 0.97611718 34 32 35
-0.64963076 0.43003279 0.97684564 32 31 35
-0.65008229 0.44976203 0.97752464 31 29 33
-0.65037443 0.47022352 0.97816092 29 28 32
-0.64998554 0.49003039 0.97865095 29 28 32
-0.64973314 0.50989861 0.97904069 28 26 31
-0.64964805 0.53019633 0.97941734 5 5 6
-0.64951421 0.54333077 0.97988780 0 0 0
-0.65040365 0.55194646 0.98024537 0 0 0
-0.63054267 -0.44802490 0.67302426 0 0 0
-0.62021041 -0.42083637 0.65929925 0 0 0
-0.63000076 -0.43077195 0.66715797 0 0 0
-0.62870244 -0.40918726 0.65470126 0 0 0
-0.63484705 -0.41694049 0.66155441 0 0 0
-0.62126492 -0.38593046 0.63786033 0 0 0
-0.63154373 -0.39039055 0.64722171 0 0 0
-0.62222170 -0.37134017 0.63884193 0 0 0
-0.63199626 -0.37098699 0.64906183 0 0 0
-0.62920988 -0.35180767 0.65160863 4 4 4
-0.63832636 -0.34575299 0.66391873 26 27 28
-0.62532099 -0.32807668 0.65234558 20 21 22
-0.63522643 -0.32768000 0.66398506 43 45 44
-0.62314746 -0.30966371 0.65675306 136 141 143
-0.62955038 -0.30499196 0.66999336 149 152 153
-0.63706696 -0.30178260 0.68455307 150 153 153
-0.62363329 -0.29846028 0.67555595 150 153 153
-0.62872559 -0.29721347 0.69131909 156 159 160
-0.62976333 -0.29515417 0.71039786 156 159 159
-0.63038046 -0.29328739 0.73037753 160 163 164
-0.62983660 -0.29160214 0.75000057 152 154 157
-0.63004652 -0.28934385 0.77036359 165 167 168
-0.62998182 -0.28539873 0.79030118 165 169 169
-0.62667257 -0.28167194 0.80451629 165 168 169
-0.63177138 -0.27668467 0.81280880 167 171 171
-0.62950747 -0.26745061 0.82979982 167 171 172
-0.62271126 -0.26092452 0.84076781 162 165 166
-0.63659431 -0.25876409 0.83847829 166 171 171
-0.62997011 -0.24975126 0.84946392 164 168 169
-0.63287620 -0.23786129 0.85863536 162 168 168
-0.62932120 -0.22860203 0.86569269 159 162 163
-0.63057167 -0.21128420 0.87543669 162 164 166
-0.62526634 -0.20187704 0.88102948 163 168 170
-0.63907904 -0.19966708 0.87980449 154 154 154
-0.63014299 -0.18992757 0.88551438 162 166 168
-0.63004900 -0.16965222 0.89345487 160 164 165
-0.63128331 -0.15490487 0.89844605 161 165 166
-0.62899078 -0.14556401 0.90166295 168 169 169
-0.63004416 -0.13050183 0.90608270 162 164 165
-0.62992314 -0.11019199 0.91175149 163 165 165
-0.63011982 -0.09011474 0.91695006 164 166 167
-0.63274174 -0.07880544 0.91956932 166 171 172
-0.62961457 -0.06912601 0.92190841 168 169 169
-0.63003144 -0.05008188 0.92581552 161 163 164
-0.62991597 -0.03020895 0.92958985 155 156 156
-0.63008507 -0.01014657 0.93300382 157 160 159
-0.62996178 0.01009798 0.93612934 155 156 158
-0.63028262 0.02848807 0.93875594 157 159 159
-0.62776313 0.03800076 0.94014657 160 160 159
-0.63002600 0.04993706 0.94181161 160 161 159
-0.62999451 0.07058811 0.94497096 161 164 162
-0.62994977 0.09057069 0.94788592 162 165 165
-0.62995622 0.11042494 0.95045684 144 145 146
-0.62994919 0.13049145 0.95323867 102 100 103
-0.62986310 0.15010792 0.95609702 72 64 69
-0.63018448 0.16952898 0.95860095 62 56 62
-0.62559333 0.18088110 0.95982618 61 54 60
-0.63039493 0.19047423 0.96103936 59 54 60
-0.63014258 0.20994624 0.96306497 54 52 57
-0.63010640 0.23051739 0.96504326 52 50 55
-0.62976220 0.25029525 0.96674827 51 48 53
-0.63021575 0.26957234 0.96828158 47 46 50
-0.62983409 0.29030880 0.96976079 45 44 48
-0.63027479 0.30978106 0.97099925 42 42 45
-0.62967458 0.32965384 0.97210238 40 39 44
-0.63029815 0.35013388 0.97316507 39 38 42
-0.62979945 0.37008297 0.97409417 36 36 39
-0.62986123 0.38961538 0.97499230 35 33 38
-0.63035935 0.41013915 0.97586389 34 32 36
-0.62997516 0.42999554 0.97660384 32 31 35
-0.62965453 0.44965279 0.97728718 32 31 35
-0.63006442 0.47022836 0.97792338 30 29 33
-0.63036909 0.48990280 0.97839621 30 29 32
-0.63012603 0.50932174 0.97875690 28 27 32
-0.62979492 0.53032295 0.97928273 0 0 0
-0.62908991 0.54430347 0.97984886 0 0 0
-0.63026015 0.55291496 0.98023874 0 0 0
-0.61020947 -0.44505284 0.66513964 0 0 0
-0.60652174 -0.42637847 0.65751846 0 0 0
-0.61235374 -0.43384993 0.66230687 0 0 0
-0.60068971 -0.40060112 0.63972366 0 0 0
-0.60985064 -0.41047623 0.64939761 0 0 0
-0.60865446 -0.38936051 0.63410255 0 0 0
-0.61553966 -0.39697489 0.64175573 0 0 0
-0.60223234 -0.36738275 0.61914286 0 0 0
-0.61099340 -0.37250921 0.62822210 0 0 0
-0.61134931 -0.35132769 0.63162366 4 4 4
-0.61717112 -0.34033930 0.64076340 26 27 27
-0.60939841 -0.33022876 0.63411668 56 58 59
-0.61694364 -0.32561970 0.64341420 34 35 36
-0.60482623 -0.30825944 0.63643093 129 134 136
-0.61337371 -0.30505122 0.64963107 143 148 150
-0.61848106 -0.30114420 0.66171667 156 157 158
-0.60531315 -0.29727403 0.65286126 155 158 158
-0.60973997 -0.29556738 0.67039423 156 160 160
-0.61000321 -0.29472447 0.68983149 154 156 156
-0.60978069 -0.29465354 0.70947091 158 161 162
-0.61016560 -0.29495190 0.72997757 153 157 157
-0.61007027 -0.29496450 0.75018362 163 166 167
-0.60994804 -0.29414678 0.77025658 165 171 172
-0.61008235 -0.29065814 0.79019442 164 169 169
-0.60932761 -0.28466217 0.80945860 168 171 171
-0.60293092 -0.28092611 0.82151179 171 177 177
-0.61662484 -0.27877503 0.81767561 167 169 169
-0.61031862 -0.27243359 0.83082470 165 170 170
-0.60822721 -0.26296922 0.84289661 155 159 160
-0.61080536 -0.25158278 0.85276729 158 160 161
-0.60652702 -0.24202673 0.86154044 168 169 170
-0.61007071 -0.23027802 0.86849952 165 168 169
-0.61090353 -0.21463991 0.87708572 169 171 172
-0.60896819 -0.20475613 0.88215925 166 170 171
-0.60999313 -0.19008708 0.88813354 166 170 172
-0.61005060 -0.16997124 0.89555318 165 166 166
-0.61371250 -0.15763877 0.89933432 167 169 169
-0.60927533 -0.14886489 0.90251179 165 167 168
-0.60998573 -0.12999680 0.90795053 161 164 166
-0.61000100 -0.10939641 0.91352231 165 167 168
-0.61053818 -0.09115488 0.91804099 166 168 169
-0.60694088 -0.08151290 0.92046979 159 166 166
-0.61016937 -0.06992297 0.92280642 159 161 162
-0.60992111 -0.05013386 0.92677372 162 163 163
-0.61004647 -0.03025203 0.93041962 164 165 165
-0.60996796 -0.01016444 0.93373251 160 161 161
-0.61006919 0.01001295 0.93673175 157 157 158
-0.61037582 0.02706040 0.93902187 161 162 162
-0.60922397 0.03689114 0.94033374 163 162 162
-0.61004498 0.05000211 0.94208897 158 158 156
-0.60995578 0.07060576 0.94534381 162 163 163
-0.60992363 0.09041757 0.94814303 163 164 164
-0.61001195 0.11042056 0.95052246 149 149 149
-0.60998051 0.13046916 0.95303820 118 113 115
-0.61004351 0.15064650 0.95571518 72 61 68
-0.61007219 0.17003364 0.95810364 62 54 62
-0.60868281 0.18302362 0.95957816 61 52 60
-0.61085563 0.19284818 0.96074440 57 54 59
-0.61007367 0.20988010 0.96248645 54 53 58
-0.60987063 0.23050295 0.96449143 51 50 55
-0.60999985 0.25000361 0.96622138 51 48 53
-0.61016787 0.26965231 0.96781188 47 46 49
-0.60978022 0.29039051 0.96932910 46 45 49
-0.61025423 0.30985512 0.97061003 44 43 47
-0.60982929 0.32972913 0.97174163 41 41 44
-0.60995673 0.35007134 0.97281132 40 39 43
-0.61018592 0.36965908 0.97374933 38 37 41
-0.60983059 0.38976897 0.97467422 36 35 39
-0.60998312 0.41006908 0.97554271 34 33 37
-0.61039136 0.42973219 0.97630904 33 32 36
-0.60997848 0.44959405 0.97700772 32 31 35
-0.60959461 0.47008432 0.97762382 32 31 35
-0.60966797 0.49019309 0.97809519 31 30 34
-0.61034839 0.50979770 0.97847910 22 21 25
-0.61026947 0.52984970 0.97913334 0 0 0
-0.60920585 0.54572101 0.97979948 0 0 0
-0.61051939 0.55414159 0.98018899 0 0 0
-0.58335102 -0.44158951 0.65945937 0 0 0
-0.59227513 -0.44412409 0.66137366 0 0 0
-0.58978969 -0.42992090 0.65510615 0 0 0
-0.59662326 -0.43936920 0.66043561 0 0 0
-0.58696153 -0.40291904 0.63758457 0 0 0
-0.59029932 -0.41294012 0.64588631 0 0 0
-0.58211404 -0.38143969 0.61880221 0 0 0
-0.59037624 -0.39071593 0.62887402 0 0 0
-0.58738262 -0.37226225 0.61306114 6 6 6
-0.59708718 -0.37866992 0.62186496 0 0 0
-0.58108421 -0.35376130 0.59793210 68 68 69
-0.59069614 -0.34985671 0.60906512 26 27 28
-0.58729570 -0.33111785 0.60906544 88 90 93
-0.59958294 -0.33038831 0.62306409 74 76 78
-0.58557106 -0.30670792 0.61408876 136 139 143
-0.59456913 -0.30435822 0.62641923 141 145 149
-0.58302182 -0.30086414 0.73417051 165 166 169
-0.58521971 -0.30142220 0.75048858 169 171 174
-0.58428206 -0.30124082 0.76890089 166 171 171
-0.58152714 -0.30053953 0.78325119 165 173 173
-0.58152676 -0.29787843 0.61704385 150 153 154
-0.58755719 -0.29509727 0.63142266 152 155 157
-0.58992686 -0.29278988 0.64987873 156 160 161
-0.58992822 -0.29296917 0.67025836 151 154 154
-0.58991466 -0.29466516 0.69037096 158 158 160
-0.59024173 -0.29653226 0.71016031 157 160 160
-0.59179612 -0.29804481 0.72915269 157 158 159
-0.59526695 -0.29868434 0.74996635 168 172 173
-0.59394367 -0.29833195 0.77109522 164 168 167
-0.59043684 -0.29628619 0.79061773 165 169 170
-0.58997943 -0.29018131 0.81030430 168 173 174
-0.58832169 -0.28305105 0.82468612 161 166 166
-0.59108446 -0.27541970 0.83417753 158 161 162
-0.58948887 -0.26555291 0.84538594 156 158 158
-0.59084682 -0.25431282 0.85527037 165 166 166
-0.58876665 -0.24449304 0.86339276 172 173 172
-0.59025277 -0.23000101 0.87225937 169 171 171
-0.59234439 -0.21724382 0.87877029 173 173 173
-0.58936658 -0.20824092 0.88338364 167 167 167
-0.59000854 -0.19052373 0.89042673 164 165 166
-0.59064651 -0.17172157 0.89708173 162 165 165
-0.58641150 -0.16219213 0.90064200 168 170 171
-0.58981568 -0.15009319 0.90400737 167 169 170
-0.59020449 -0.12985003 0.90976144 166 169 170
-0.59004005 -0.10966107 0.91503814 161 163 163
-0.59082286 -0.09379970 0.91874501 166 170 169
-0.58883280 -0.08397033 0.92104259 162 164 164
-0.59010866 -0.06999333 0.92385179 169 171 171
-0.58983336 -0.05020964 0.92763710 160 161 162
-0.59003656 -0.03020592 0.93110493 157 158 160
-0.58999566 -0.01018027 0.93423846 158 159 160
-0.59001997 0.01004374 0.93714187 160 162 162
-0.59035360 0.02625504 0.93921262 160 162 162
-0.58941727 0.03580011 0.94040336 154 154 154
-0.59005275 0.05002666 0.94217118 157 155 151
-0.59005983 0.07068032 0.94566104 156 156 155
-0.58994325 0.09033460 0.94839035 162 162 161
-0.58991449 0.11032331 0.95055375 156 156 154
-0.58994723 0.13042847 0.95282804 133 127 129
-0.59004585 0.15055451 0.95520705 80 69 76
-0.59012091 0.16987170 0.95747869 64 55 64
-0.58908146 0.18566322 0.95926119 59 53 59
-0.59167887 0.19547412 0.96042830 56 53 59
-0.58992228 0.20992556 0.96186479 54 53 58
-0.58990925 0.23033436 0.96387823 51 50 56
-0.59022129 0.24969601 0.96563268 51 49 54
-0.58981777 0.26956078 0.96725252 48 48 51
-0.59015033 0.28987553 0.96879942 46 46 49
-0.58965848 0.31028715 0.97016157 44 44 48
-0.59048233 0.32974686 0.97132718 43 43 47
-0.58972413 0.35008250 0.97239529 41 40 44
-0.59012413 0.37046449 0.97337935 40 38 42
-0.59016026 0.38998977 0.97429475 37 36 40
-0.58978357 0.41010128 0.97516113 35 34 38
-0.58993826 0.43042274 0.97596234 34 32 37
-0.59043278 0.45007341 0.97667311 33 32 36
-0.58995223 0.46991685 0.97727543 33 31 35
-0.58974571 0.49065179 0.97777932 31 30 34
-0.58967493 0.51010229 0.97821671 14 13 16
-0.59014424 0.52996854 0.97899547 0 0 0
-0.59006588 0.54694822 0.97970843 0 0 0
-0.59079579 0.55568896 0.98013282 0 0 0
-0.57007480 -0.44261834 0.65864440 0 0 0
-0.57819433 -0.44531890 0.66011763 0 0 0
-0.57004645 -0.43012360 0.65275771 0 0 0
-0.56918060 -0.40504551 0.63634669 0 0 0
-0.57008763 -0.41496230 0.64418765 0 0 0
-0.56822276 -0.38369934 0.61667993 0 0 0
-0.57023182 -0.39385953 0.62639278 0 0 0
-0.56578577 -0.36248934 0.59745150 0 0 0
-0.57054820 -0.37224281 0.60745647 0 0 0
-0.56215437 -0.34685304 0.57948405 134 139 140
-0.57052204 -0.35414277 0.59245640 46 48 48
-0.56065406 -0.33893491 0.57793748 143 148 153
-0.57058872 -0.32884427 0.59081402 117 121 121
-0.56682338 -0.30737656 0.59173974 138 142 145
-0.57685739 -0.30403356 0.60501501 137 139 143
-0.56137336 -0.30019738 0.69808108 154 154 153
-0.56667217 -0.30176859 0.71234644 162 165 166
-0.57003898 -0.30382052 0.73017652 167 171 173
-0.56996072 -0.30557875 0.75024669 166 170 172
-0.57005367 -0.30534976 0.77016162 165 171 170
-0.56895186 -0.30315205 0.78935959 168 174 174
-0.56356711 -0.30102649 0.80259355 166 171 172
-0.56401760 -0.29701554 0.59514301 138 139 142
-0.56906715 -0.29217341 0.61070309 147 148 150
-0.57005503 -0.28911315 0.63031818 153 158 159
-0.56962655 -0.29040059 0.65008891 151 154 155
-0.57001177 -0.29348341 0.66993390 153 156 157
-0.57049605 -0.29692675 0.69005683 157 158 157
-0.57479150 -0.29888955 0.70724542 152 153 153
-0.57680272 -0.29916014 0.79652074 169 176 175
-0.57067814 -0.29525248 0.81105072 163 166 167
-0.56931945 -0.28573870 0.82781614 161 165 164
-0.57177073 -0.27766953 0.83732613 161 165 165
-0.56959336 -0.26804801 0.84767889 164 169 171
-0.57142501 -0.25668717 0.85740034 168 171 173
-0.56933680 -0.24721817 0.86500352 172 174 175
-0.57044760 -0.23099449 0.87484707 171 173 172
-0.56443747 -0.22183768 0.88051720 172 172 173
-0.57822377 -0.21942509 0.87976154 161 164 163
