ply
format ascii 1.0
element vertex 1059
property float x
property float y
property float z
property uchar red
property uchar green
property uchar blue
end_header
0.14628491 -0.33993155 0.74411839 72 76 79
0.14757106 -0.33993155 0.74411839 69 72 76
0.14934902 -0.34105468 0.74657691 67 68 73
0.10203319 -0.22522010 0.49301225 67 66 73
0.10281055 -0.22505642 0.49265397 66 65 72
0.10343655 -0.22456682 0.49158219 67 66 71
0.10405983 -0.22407933 0.49051508 67 67 71
0.10475604 -0.22375552 0.48980623 66 66 70
0.10613947 -0.22489297 0.49229619 64 64 68
0.10691272 -0.22472978 0.49193892 65 65 68
0.04663076 -0.34354782 0.75489068 205 206 208
0.04793553 -0.34354782 0.75489068 205 206 208
0.04907634 -0.34240395 0.75237721 205 206 207
0.05060141 -0.34393084 0.75573224 205 206 206
0.05208182 -0.34508497 0.75826830 205 206 208
0.05613923 -0.34585869 0.75996846 205 206 208
0.05738844 -0.34547138 0.75911742 205 206 208
0.05870051 -0.34547138 0.75911742 203 204 206
0.06001258 -0.34547138 0.75911742 212 213 215
0.06132466 -0.34547138 0.75911742 127 128 130
0.06263673 -0.34547138 0.75911742 65 66 68
0.06394880 -0.34547138 0.75911742 76 76 85
0.12515700 -0.33716497 0.74086541 200 201 203
0.12827884 -0.33864540 0.74411839 199 200 202
0.12956499 -0.33864540 0.74411839 201 202 204
0.13099492 -0.33901754 0.74493611 201 202 204
0.13228248 -0.33901754 0.74493611 202 203 205
0.13357005 -0.33901754 0.74493611 202 203 205
0.13470958 -0.33864540 0.74411839 202 203 204
0.13599573 -0.33864540 0.74411839 211 212 212
0.13728186 -0.33864540 0.74411839 134 134 134
0.13856801 -0.33864540 0.74411839 72 78 89
0.13985416 -0.33864540 0.74411839 82 88 99
0.14114031 -0.33864540 0.74411839 70 77 89
0.14227030 -0.33827406 0.74330246 69 76 88
0.14355503 -0.33827406 0.74330246 70 76 85
0.14483978 -0.33827406 0.74330246 69 72 78
0.14628491 -0.33864540 0.74411839 73 73 80
0.14757106 -0.33864540 0.74411839 69 69 76
0.14918472 -0.33939049 0.74575561 67 67 74
0.15014336 -0.33864540 0.74411839 66 66 73
0.10266133 -0.22387950 0.49193892 66 65 71
0.10328675 -0.22339316 0.49087027 65 65 68
0.10398459 -0.22307010 0.49016041 66 65 68
0.10468040 -0.22274798 0.48945260 65 65 67
0.10613947 -0.22404209 0.49229619 64 64 66
0.04678706 -0.34339026 0.75742108 203 204 206
0.04804253 -0.34300700 0.75657570 205 206 208
0.04907634 -0.34110352 0.75237721 205 206 208
0.05065789 -0.34300700 0.75657570 205 206 208
0.05219860 -0.34454516 0.75996846 205 206 208
0.05488722 -0.34493184 0.76082134 203 204 206
0.05613923 -0.34454516 0.75996846 205 206 208
0.05745277 -0.34454516 0.75996846 205 206 208
0.05876632 -0.34454516 0.75996846 205 206 208
0.06001258 -0.34415933 0.75911742 211 212 214
0.06132466 -0.34415933 0.75911742 120 120 125
0.06263673 -0.34415933 0.75911742 65 64 78
0.06394880 -0.34415933 0.75911742 75 74 89
0.12827884 -0.33735925 0.74411839 202 203 203
0.12956499 -0.33735925 0.74411839 202 203 203
0.13085113 -0.33735925 0.74411839 203 204 205
0.13213728 -0.33735925 0.74411839 203 204 206
0.13342343 -0.33735925 0.74411839 202 203 205
0.13470958 -0.33735925 0.74411839 203 204 204
0.13584660 -0.33698934 0.74330246 212 213 213
0.13713135 -0.33698934 0.74330246 127 128 128
0.13841608 -0.33698934 0.74330246 70 75 83
0.13970082 -0.33698934 0.74330246 74 80 89
0.14098556 -0.33698934 0.74330246 70 76 85
0.14227030 -0.33698934 0.74330246 72 77 86
0.14355503 -0.33698934 0.74330246 73 77 86
0.14483978 -0.33698934 0.74330246 69 69 78
0.14612451 -0.33698934 0.74330246 69 69 76
0.14740925 -0.33698934 0.74330246 67 67 75
0.14918472 -0.33810151 0.74575561 67 67 74
0.14997873 -0.33698934 0.74330246 67 66 73
0.15126346 -0.33698934 0.74330246 68 67 74
0.10398459 -0.22222289 0.49016041 66 65 67
0.10629385 -0.22351584 0.49301225 64 64 65
0.02884585 -0.34672999 0.76771444 206 207 207
0.03017278 -0.34672999 0.76771444 205 206 206
0.03149971 -0.34672999 0.76771444 205 206 206
0.03286387 -0.34712312 0.76858485 206 207 209
0.03430900 -0.34830785 0.77120799 205 206 208
0.03544037 -0.34633777 0.76684600 205 206 208
0.03680744 -0.34672999 0.76771444 205 206 208
0.03843910 -0.34950069 0.77384913 205 206 208
0.04683940 -0.34246376 0.75826830 201 202 204
0.04809621 -0.34208110 0.75742108 205 206 208
0.04907634 -0.33980310 0.75237721 205 207 209
0.05065789 -0.34169933 0.75657570 204 206 208
0.05613923 -0.34323162 0.75996846 205 206 207
0.05745277 -0.34323162 0.75996846 205 206 207
0.05876632 -0.34323162 0.75996846 205 206 206
0.06001258 -0.34284726 0.75911742 214 215 215
0.12827884 -0.33607310 0.74411839 203 204 204
0.12956499 -0.33607310 0.74411839 203 204 205
0.13099492 -0.33644241 0.74493611 204 205 207
0.13228248 -0.33644241 0.74493611 203 204 206
0.13342343 -0.33607310 0.74411839 204 204 206
0.13470958 -0.33607310 0.74411839 203 204 204
0.13599573 -0.33607310 0.74411839 215 216 216
0.13713135 -0.33570459 0.74330246 120 122 122
0.13841608 -0.33570459 0.74330246 61 66 73
0.13970082 -0.33570459 0.74330246 70 75 83
0.14098556 -0.33570459 0.74330246 71 76 85
0.14227030 -0.33570459 0.74330246 71 76 85
0.14355503 -0.33570459 0.74330246 68 71 80
0.14483978 -0.33570459 0.74330246 70 70 79
0.14612451 -0.33570459 0.74330246 64 64 73
0.14740925 -0.33570459 0.74330246 67 67 76
0.14902079 -0.33644241 0.74493611 67 67 74
0.14981446 -0.33533689 0.74248832 66 66 73
0.15109779 -0.33533689 0.74248832 66 65 72
0.10311029 -0.22315058 0.49409026 65 65 70
0.10373746 -0.22266370 0.49301225 66 65 69
0.10405983 -0.22153589 0.49051508 65 64 68
0.10475604 -0.22121574 0.48980623 64 64 66
0.10629385 -0.22266370 0.49301225 64 64 67
0.02751892 -0.34540308 0.76771444 206 206 206
0.02884585 -0.34540308 0.76771444 205 206 207
0.03017278 -0.34540308 0.76771444 205 206 207
0.03153543 -0.34579468 0.76858485 205 206 208
0.03290117 -0.34618717 0.76945728 205 206 208
0.03434807 -0.34737006 0.77208638 205 206 208
0.03548051 -0.34540308 0.76771444 205 206 208
0.03680744 -0.34540308 0.76771444 205 206 208
0.03843910 -0.34816313 0.77384913 205 206 208
0.04689185 -0.34153518 0.75911742 205 206 208
0.04820393 -0.34153518 0.75911742 202 208 208
0.04913088 -0.33887878 0.75321317 202 207 207
0.05620224 -0.34230182 0.76082134 203 207 208
0.05745277 -0.34191805 0.75996846 203 207 208
0.05876632 -0.34191805 0.75996846 203 207 208
0.06001258 -0.34153518 0.75911742 215 217 215
0.12827884 -0.33478695 0.74411839 205 205 206
0.12956499 -0.33478695 0.74411839 205 205 206
0.13099492 -0.33515486 0.74493611 205 205 205
0.13228248 -0.33515486 0.74493611 205 205 206
0.13342343 -0.33478695 0.74411839 206 206 206
0.13470958 -0.33478695 0.74411839 204 205 205
0.13599573 -0.33478695 0.74411839 215 217 218
0.13713135 -0.33441985 0.74330246 116 118 120
0.13841608 -0.33441985 0.74330246 57 62 69
0.13970082 -0.33441985 0.74330246 70 75 82
0.14098556 -0.33441985 0.74330246 71 76 83
0.14211448 -0.33405358 0.74248832 73 72 81
0.14355503 -0.33441985 0.74330246 69 68 77
0.14483978 -0.33441985 0.74330246 74 73 82
0.14612451 -0.33441985 0.74330246 69 68 77
0.14740925 -0.33441985 0.74330246 70 69 78
0.14902079 -0.33515486 0.74493611 69 68 75
0.14981446 -0.33405358 0.74248832 66 65 72
0.15109779 -0.33405358 0.74248832 65 64 71
0.10311029 -0.22229658 0.49409026 65 65 70
0.10373746 -0.22181158 0.49301225 64 64 68
0.10405983 -0.22068807 0.49051508 62 62 66
0.10483179 -0.22052850 0.49016041 63 63 68
0.10637121 -0.22197300 0.49337107 63 64 69
0.02755012 -0.34446624 0.76858485 205 205 205
0.02884585 -0.34407613 0.76771444 206 206 207
0.03020699 -0.34446624 0.76858485 205 206 207
0.03153543 -0.34446624 0.76858485 205 206 208
0.03290117 -0.34485725 0.76945728 205 206 208
0.03434807 -0.34603557 0.77208638 205 206 208
0.03548051 -0.34407613 0.76771444 205 206 208
0.03680744 -0.34407613 0.76771444 205 206 208
0.03848303 -0.34722197 0.77473354 205 206 209
0.04694442 -0.34060451 0.75996846 203 207 208
0.04825797 -0.34060451 0.75996846 203 207 208
0.04913088 -0.33757693 0.75321317 203 207 208
0.05620224 -0.34098679 0.76082134 203 207 208
0.05751725 -0.34098679 0.76082134 203 207 208
0.05876632 -0.34060451 0.75996846 203 207 208
0.06001258 -0.34022310 0.75911742 214 217 217
0.12827884 -0.33350080 0.74411839 205 205 205
0.12970737 -0.33386728 0.74493611 206 206 206
0.13099492 -0.33386728 0.74493611 204 204 204
0.13228248 -0.33386728 0.74493611 204 204 204
0.13357005 -0.33386728 0.74493611 206 206 206
0.13470958 -0.33350080 0.74411839 205 205 205
0.13599573 -0.33350080 0.74411839 214 215 216
0.13728186 -0.33350080 0.74411839 112 113 115
0.13841608 -0.33313513 0.74330246 60 64 71
0.13970082 -0.33313513 0.74330246 75 79 87
0.14098556 -0.33313513 0.74330246 73 76 84
0.14227030 -0.33313513 0.74330246 69 68 77
0.14355503 -0.33313513 0.74330246 70 70 79
0.14483978 -0.33313513 0.74330246 73 72 81
0.14612451 -0.33313513 0.74330246 72 71 80
0.14740925 -0.33313513 0.74330246 71 70 79
0.14902079 -0.33386728 0.74493611 70 69 76
0.14981446 -0.33277023 0.74248832 66 65 70
0.15109779 -0.33277023 0.74248832 65 65 69
0.10318550 -0.22160411 0.49445066 65 65 69
0.10373746 -0.22095944 0.49301225 64 64 68
0.10405983 -0.21984026 0.49051508 61 61 66
0.10637121 -0.22112025 0.49337107 62 64 69
0.02884585 -0.34274921 0.76771444 206 206 206
0.03020699 -0.34313780 0.76858485 206 206 207
0.03157122 -0.34352729 0.76945728 205 206 208
0.03290117 -0.34352729 0.76945728 203 204 206
0.03434807 -0.34470108 0.77208638 205 206 208
0.03548051 -0.34274921 0.76771444 205 206 208
0.03684917 -0.34313780 0.76858485 205 206 208
0.03848303 -0.34588292 0.77473354 207 208 210
0.04699711 -0.33967176 0.76082134 205 206 208
0.04831213 -0.33967176 0.76082134 204 206 208
0.04918553 -0.33664912 0.75405097 204 207 208
0.05620224 -0.33967176 0.76082134 202 208 208
0.05751725 -0.33967176 0.76082134 202 208 208
0.05876632 -0.33929098 0.75996846 203 207 207
0.06007986 -0.33929098 0.75996846 211 216 215
0.06139341 -0.33929098 0.75996846 90 95 94
0.12841980 -0.33257973 0.74493611 203 203 204
0.12970737 -0.33257973 0.74493611 204 204 206
0.13099492 -0.33257973 0.74493611 204 204 206
0.13228248 -0.33257973 0.74493611 204 204 206
0.13357005 -0.33257973 0.74493611 204 204 205
0.13485761 -0.33257973 0.74493611 204 204 206
0.13599573 -0.33221465 0.74411839 213 214 216
0.13728186 -0.33221465 0.74411839 105 106 108
0.13856801 -0.33221465 0.74411839 62 65 75
0.13985416 -0.33221465 0.74411839 80 83 93
0.14098556 -0.33185038 0.74330246 71 74 84
0.14227030 -0.33185038 0.74330246 72 72 82
0.14371261 -0.33221465 0.74411839 69 69 78
0.14499876 -0.33221465 0.74411839 68 67 76
0.14628491 -0.33221465 0.74411839 71 70 79
0.14757106 -0.33221465 0.74411839 71 70 78
0.14918472 -0.33294559 0.74575561 67 66 73
0.14997873 -0.33185038 0.74330246 66 65 70
0.15126346 -0.33185038 0.74330246 66 66 70
0.10311029 -0.22058859 0.49409026 65 65 69
0.10373746 -0.22010730 0.49301225 64 64 68
0.10405983 -0.21899244 0.49051508 64 64 68
0.10483179 -0.21883409 0.49016041 65 66 70
0.10644869 -0.22042793 0.49373040 64 65 69
0.02884585 -0.34142226 0.76771444 206 206 208
0.03020699 -0.34180936 0.76858485 206 206 208
0.03157122 -0.34219736 0.76945728 207 207 209
0.03293855 -0.34258622 0.77033162 206 206 208
0.03434807 -0.34336659 0.77208638 206 206 208
0.03548051 -0.34142226 0.76771444 206 206 208
0.03680744 -0.34142226 0.76771444 206 207 209
0.03848303 -0.34454384 0.77473354 206 207 209
0.04704991 -0.33873692 0.76167625 204 207 207
0.04836641 -0.33873692 0.76167625 204 207 208
0.04924030 -0.33571923 0.75489068 204 206 208
0.05077122 -0.33722132 0.75826830 204 206 208
0.05620224 -0.33835676 0.76082134 203 207 208
0.05751725 -0.33835676 0.76082134 201 205 206
0.05883227 -0.33835676 0.76082134 202 205 204
0.06007986 -0.33797744 0.75996846 211 214 213
0.12841980 -0.33129215 0.74493611 204 205 206
0.12985006 -0.33165661 0.74575561 205 206 206
0.13113903 -0.33165661 0.74575561 205 206 206
0.13242801 -0.33165661 0.74575561 203 204 204
0.13357005 -0.33129215 0.74493611 202 203 204
0.13485761 -0.33129215 0.74493611 203 204 205
0.13614517 -0.33129215 0.74493611 212 213 215
0.13728186 -0.33092850 0.74411839 102 103 105
0.13856801 -0.33092850 0.74411839 63 66 74
0.13985416 -0.33092850 0.74411839 78 81 89
0.14114031 -0.33092850 0.74411839 71 73 81
0.14242646 -0.33092850 0.74411839 72 72 81
0.14371261 -0.33092850 0.74411839 67 67 76
0.14499876 -0.33092850 0.74411839 67 66 75
0.14628491 -0.33092850 0.74411839 71 70 78
0.14757106 -0.33092850 0.74411839 67 66 73
0.14918472 -0.33165661 0.74575561 67 66 72
0.15014336 -0.33092850 0.74411839 66 66 71
0.15142950 -0.33092850 0.74411839 67 67 71
0.10398459 -0.21798688 0.49016041 64 64 68
0.10644869 -0.21957456 0.49373040 62 63 66
0.02884585 -0.34009534 0.76771444 206 206 208
0.03020699 -0.34048092 0.76858485 206 206 208
0.03157122 -0.34086740 0.76945728 206 207 209
0.03290117 -0.34086740 0.76945728 204 205 207
0.03434807 -0.34203210 0.77208638 205 206 208
0.03548051 -0.34009534 0.76771444 205 206 208
0.03680744 -0.34009534 0.76771444 206 207 209
0.03843910 -0.34281299 0.77384913 205 206 208
0.04704991 -0.33742043 0.76167625 205 206 207
0.04836641 -0.33742043 0.76167625 205 206 208
0.04929519 -0.33478728 0.75573224 205 206 208
0.05077122 -0.33591071 0.75826830 205 206 208
0.05626538 -0.33742043 0.76167625 205 206 208
0.05758188 -0.33742043 0.76167625 202 203 205
0.05883227 -0.33704174 0.76082134 204 205 205
0.06007986 -0.33666387 0.75996846 208 209 209
0.12841980 -0.33000460 0.74493611 203 204 204
0.12985006 -0.33036765 0.74575561 204 205 205
0.13113903 -0.33036765 0.74575561 202 203 205
0.13242801 -0.33036765 0.74575561 202 203 205
0.13371699 -0.33036765 0.74575561 202 203 205
0.13485761 -0.33000460 0.74493611 203 204 206
0.13614517 -0.33000460 0.74493611 212 213 214
0.13743272 -0.33000460 0.74493611 97 98 99
0.13872029 -0.33000460 0.74493611 56 56 65
0.13985416 -0.32964236 0.74411839 75 75 84
0.14114031 -0.32964236 0.74411839 73 73 81
0.14242646 -0.32964236 0.74411839 67 67 75
0.14371261 -0.32964236 0.74411839 66 66 74
0.14499876 -0.32964236 0.74411839 67 67 74
0.14628491 -0.32964236 0.74411839 67 68 72
0.14757106 -0.32964236 0.74411839 65 66 70
0.14918472 -0.33036765 0.74575561 65 66 70
0.15014336 -0.32964236 0.74411839 65 66 70
0.15142950 -0.32964236 0.74411839 64 64 68
0.10373746 -0.21840304 0.49301225 64 64 68
0.10398459 -0.21713969 0.49016041 64 64 68
0.10652627 -0.21888061 0.49409026 60 61 65
0.02884585 -0.33876842 0.76771444 206 206 207
0.03020699 -0.33915249 0.76858485 206 206 208
0.03157122 -0.33953747 0.76945728 204 205 207
0.03290117 -0.33953747 0.76945728 203 204 206
0.03434807 -0.34069762 0.77208638 205 206 208
0.03544037 -0.33838519 0.76684600 205 206 208
0.03680744 -0.33876842 0.76771444 205 206 208
0.03843910 -0.34147546 0.77384913 205 206 208
0.04704991 -0.33610395 0.76167625 205 206 207
0.04836641 -0.33610395 0.76167625 205 206 207
0.04929519 -0.33348104 0.75573224 205 206 206
0.05082807 -0.33497480 0.75911742 205 206 208
0.05626538 -0.33610395 0.76167625 204 205 207
0.05758188 -0.33610395 0.76167625 203 204 206
0.05889837 -0.33610395 0.76167625 203 206 205
0.06014729 -0.33572671 0.76082134 201 205 204
0.12856108 -0.32907867 0.74575561 202 203 203
0.12985006 -0.32907867 0.74575561 204 205 205
0.13113903 -0.32907867 0.74575561 202 203 205
0.13242801 -0.32907867 0.74575561 204 205 207
0.13371699 -0.32907867 0.74575561 204 205 207
0.13500597 -0.32907867 0.74575561 205 205 207
0.13614517 -0.32871705 0.74493611 210 213 214
0.13743272 -0.32871705 0.74493611 94 98 99
0.13872029 -0.32871705 0.74493611 56 57 59
0.13985416 -0.32835621 0.74411839 74 74 78
0.14114031 -0.32835621 0.74411839 74 74 79
0.14242646 -0.32835621 0.74411839 69 69 73
0.14387053 -0.32871705 0.74493611 70 70 74
0.14515810 -0.32871705 0.74493611 70 71 73
0.14628491 -0.32835621 0.74411839 67 68 71
0.14757106 -0.32835621 0.74411839 65 66 69
0.14918472 -0.32907867 0.74575561 64 65 69
0.15014336 -0.32835621 0.74411839 63 64 68
0.10419212 -0.21850438 0.49517301 64 65 69
0.03020699 -0.33782408 0.76858485 206 207 207
0.03157122 -0.33820751 0.76945728 206 207 209
0.03434807 -0.33936313 0.77208638 205 206 208
0.03548051 -0.33744147 0.76771444 205 206 208
0.03680744 -0.33744147 0.76771444 205 206 208
0.04842082 -0.33516404 0.76253301 203 207 206
0.04935021 -0.33254555 0.75657570 203 207 206
0.05088506 -0.33403680 0.75996846 205 206 208
0.05632868 -0.33516404 0.76253301 204 207 208
0.05764665 -0.33516404 0.76253301 203 206 207
0.05889837 -0.33478743 0.76167625 202 206 205
0.06021487 -0.33478743 0.76167625 198 202 201
0.12856108 -0.32778969 0.74575561 203 204 206
0.12999307 -0.32815069 0.74657691 204 205 207
0.13128346 -0.32815069 0.74657691 203 204 206
0.13257386 -0.32815069 0.74657691 204 205 207
0.13371699 -0.32778969 0.74575561 204 205 207
0.13500597 -0.32778969 0.74575561 205 206 208
0.13614517 -0.32742947 0.74493611 207 210 211
0.13743272 -0.32742947 0.74493611 94 98 99
0.13872029 -0.32742947 0.74493611 62 62 64
0.13985416 -0.32707006 0.74411839 77 77 79
0.14114031 -0.32707006 0.74411839 75 76 78
0.14242646 -0.32707006 0.74411839 73 74 76
0.14387053 -0.32742947 0.74493611 69 70 73
0.14515810 -0.32742947 0.74493611 69 70 74
0.14628491 -0.32707006 0.74411839 67 68 72
0.14757106 -0.32707006 0.74411839 65 66 70
0.14934902 -0.32815069 0.74657691 65 66 70
0.15014336 -0.32707006 0.74411839 66 68 73
0.10348743 -0.21796696 0.49589747 64 65 69
0.10411606 -0.21748966 0.49481156 64 65 69
1.01972532 -0.46411344 1.05590630 96 105 106
1.01996171 -0.46339163 1.05426419 99 108 109
0.03024128 -0.33687758 0.76945728 205 208 209
0.03160710 -0.33726040 0.77033162 206 207 209
0.03293855 -0.33726040 0.77033162 205 206 208
0.03434807 -0.33802864 0.77208638 205 206 208
0.03548051 -0.33611456 0.76771444 205 206 208
0.03680744 -0.33611456 0.76771444 204 207 208
0.03843910 -0.33880040 0.77384913 203 207 208
0.04145786 -0.33086860 0.75573224 203 207 206
0.04271646 -0.33050016 0.75489068 203 207 206
0.04842082 -0.33384606 0.76253301 203 207 206
0.04940535 -0.33160797 0.75742108 203 207 206
0.05088506 -0.33272326 0.75996846 203 207 206
0.05632868 -0.33384606 0.76253301 203 207 208
0.12340517 -0.32650071 0.74575561 204 205 207
0.12483147 -0.32686028 0.74657691 201 202 204
0.12556870 -0.32542670 0.74330246 202 203 205
0.12870266 -0.32686028 0.74657691 203 204 205
0.12999307 -0.32686028 0.74657691 202 203 204
0.13128346 -0.32686028 0.74657691 202 203 204
0.13257386 -0.32686028 0.74657691 202 203 205
0.13371699 -0.32650071 0.74575561 202 203 205
0.13500597 -0.32650071 0.74575561 204 205 207
0.13629495 -0.32650071 0.74575561 205 208 209
0.13743272 -0.32614192 0.74493611 93 97 98
0.13872029 -0.32614192 0.74493611 61 62 65
0.13985416 -0.32578391 0.74411839 78 80 82
0.14114031 -0.32578391 0.74411839 75 76 79
0.14258298 -0.32614192 0.74493611 72 73 77
0.14387053 -0.32614192 0.74493611 69 70 74
0.14515810 -0.32614192 0.74493611 66 67 71
0.14644566 -0.32614192 0.74493611 66 67 71
0.14757106 -0.32578391 0.74411839 66 67 71
0.14934902 -0.32686028 0.74657691 66 67 73
0.15030834 -0.32614192 0.74493611 68 70 76
1.01766038 -0.46300960 1.05755353 90 99 101
1.01473916 -0.46085271 1.05262709 95 105 106
1.01813948 -0.46156943 1.05426419 99 111 112
1.01837790 -0.46085271 1.05262709 99 112 111
0.03024128 -0.33554763 0.76945728 205 207 208
0.03160710 -0.33592895 0.77033162 205 206 208
0.03293855 -0.33592895 0.77033162 205 206 208
0.03434807 -0.33669415 0.77208638 205 206 208
0.03548051 -0.33478761 0.76771444 205 206 208
0.03680744 -0.33478761 0.76771444 204 207 208
0.03839527 -0.33707806 0.77296674 204 207 208
0.04037670 -0.33140972 0.75996846 203 207 206
0.04145786 -0.32956240 0.75573224 203 207 206
0.04276408 -0.32956240 0.75573224 203 207 206
0.04852999 -0.33327785 0.76425236 203 207 208
0.04951600 -0.33103859 0.75911742 203 207 208
0.05094216 -0.33178166 0.76082134 204 207 209
0.12326955 -0.32485434 0.74493611 202 203 205
0.12469414 -0.32521173 0.74575561 200 201 201
0.12543117 -0.32378691 0.74248832 201 202 202
0.12713224 -0.32485434 0.74493611 202 203 203
0.12870266 -0.32556990 0.74657691 201 202 203
0.12999307 -0.32556990 0.74657691 201 202 203
0.13128346 -0.32556990 0.74657691 202 203 204
0.13257386 -0.32556990 0.74657691 201 202 204
0.13386425 -0.32556990 0.74657691 201 202 204
0.13515465 -0.32556990 0.74657691 201 205 206
0.13629495 -0.32521173 0.74575561 202 206 207
0.13743272 -0.32485434 0.74493611 90 95 96
0.13872029 -0.32485434 0.74493611 59 63 66
0.14000785 -0.32485434 0.74493611 75 78 81
0.14129542 -0.32485434 0.74493611 74 75 79
0.14258298 -0.32485434 0.74493611 73 74 78
0.14402881 -0.32521173 0.74575561 69 70 74
0.14531779 -0.32521173 0.74575561 66 67 71
0.14660677 -0.32521173 0.74575561 67 67 71
0.14773323 -0.32485434 0.74493611 66 67 71
0.14951369 -0.32592884 0.74740005 68 68 73
1.01425016 -0.46046335 1.05590630 93 101 105
1.01607525 -0.46046335 1.05590630 93 102 104
1.01473916 -0.45903331 1.05262709 99 111 111
1.01813948 -0.45974723 1.05426419 102 115 114
1.01996171 -0.45974723 1.05426419 98 112 109
1.02019727 -0.45903331 1.05262709 87 103 99
1.02862775 -0.46118170 1.05755353 89 105 101
1.04448354 -0.46335027 1.06252635 89 99 102
0.03160710 -0.33459747 0.77033162 206 207 209
0.03293855 -0.33459747 0.77033162 205 206 208
0.03434807 -0.33535966 0.77208638 205 206 208
0.03548051 -0.33346069 0.76771444 205 206 208
0.03676581 -0.33308345 0.76684600 205 206 207
0.03839527 -0.33574206 0.77296674 206 207 207
0.04037670 -0.33009616 0.75996846 203 207 207
0.04159698 -0.32935768 0.75826830 203 207 206
0.04290758 -0.32935768 0.75826830 203 207 208
0.04858477 -0.33233157 0.76511496 201 204 207
0.04957151 -0.33009616 0.75996846 204 205 209
0.05099940 -0.33083797 0.76167625 205 206 210
0.12326955 -0.32356679 0.74493611 201 202 204
0.12455712 -0.32356679 0.74493611 201 202 204
0.12529394 -0.32215074 0.74167597 201 202 204
0.12856108 -0.32392275 0.74575561 201 202 204
0.12999307 -0.32427949 0.74657691 201 202 204
0.13128346 -0.32427949 0.74657691 201 202 204
0.13257386 -0.32427949 0.74657691 201 202 204
0.13371699 -0.32392275 0.74575561 201 202 204
0.13515465 -0.32427949 0.74657691 200 204 205
0.13629495 -0.32392275 0.74575561 198 204 205
0.13743272 -0.32356679 0.74493611 86 92 94
0.13872029 -0.32356679 0.74493611 62 66 69
0.14000785 -0.32356679 0.74493611 73 77 80
0.14129542 -0.32356679 0.74493611 72 76 79
0.14258298 -0.32356679 0.74493611 74 75 79
0.14402881 -0.32392275 0.74575561 69 70 73
0.14531779 -0.32392275 0.74575561 68 68 71
0.14660677 -0.32392275 0.74575561 66 69 72
0.14773323 -0.32356679 0.74493611 65 68 71
1.01425016 -0.45863828 1.05590630 93 102 103
1.01607525 -0.45863828 1.05590630 93 103 103
1.01473916 -0.45721394 1.05262709 101 113 110
1.01813948 -0.45792502 1.05426419 100 112 109
1.01996171 -0.45792502 1.05426419 96 109 106
1.02019727 -0.45721394 1.05262709 93 108 105
1.02862775 -0.45935380 1.05755353 92 105 103
1.04448354 -0.46151376 1.06252635 92 101 102
0.03434807 -0.33402517 0.77208638 205 206 208
0.03548051 -0.33213374 0.76771444 206 207 209
0.03676581 -0.33175802 0.76684600 205 206 208
0.03839527 -0.33440605 0.77296674 205 206 207
0.04046743 -0.32952145 0.76167625 203 206 207
0.04178393 -0.32952145 0.76167625 204 206 207
0.04314891 -0.32989213 0.76253301 203 207 208
0.04780186 -0.33478779 0.77384913 206 207 210
0.04869469 -0.33175802 0.76684600 205 206 209
0.04968291 -0.32952145 0.76167625 204 205 208
0.05105677 -0.32989213 0.76253301 205 206 209
0.05393540 -0.33138317 0.76597947 205 206 208
0.05519697 -0.33100915 0.76511496 205 206 208
0.05645568 -0.33063596 0.76425236 203 204 206
0.05916428 -0.33100915 0.76511496 205 206 208
0.12469414 -0.32263377 0.74575561 201 202 204
0.12543117 -0.32122025 0.74248832 199 201 203
0.12870266 -0.32298911 0.74657691 200 203 204
0.12999307 -0.32298911 0.74657691 200 203 204
0.13128346 -0.32298911 0.74657691 199 203 204
0.13257386 -0.32298911 0.74657691 199 203 204
0.13386425 -0.32298911 0.74657691 199 203 204
0.13530366 -0.32334521 0.74740005 199 203 204
0.13644505 -0.32298911 0.74657691 195 200 202
0.13758393 -0.32263377 0.74575561 83 88 90
0.13887291 -0.32263377 0.74575561 60 64 67
0.14016187 -0.32263377 0.74575561 73 77 80
0.14145085 -0.32263377 0.74575561 72 76 79
0.14273983 -0.32263377 0.74575561 73 74 78
0.14418744 -0.32298911 0.74657691 70 72 75
0.14547783 -0.32298911 0.74657691 70 73 76
0.14676823 -0.32298911 0.74657691 69 73 76
0.14789575 -0.32263377 0.74575561 68 72 75
0.27790087 -0.34141338 0.78916395 107 109 113
0.27861619 -0.34062034 0.78733081 107 110 113
1.01267278 -0.45610279 1.05426419 93 101 100
1.01449502 -0.45610279 1.05426419 95 103 101
1.01473916 -0.45539457 1.05262709 102 110 107
1.01655853 -0.45539457 1.05262709 100 108 105
1.01837790 -0.45539457 1.05262709 98 106 104
1.01861560 -0.45468852 1.05099511 96 105 104
1.02360606 -0.45610279 1.05426419 95 104 103
1.02702558 -0.45681325 1.05590630 95 105 103
1.02885056 -0.45681325 1.05590630 95 106 104
1.03250074 -0.45681325 1.05590630 92 102 102
1.03938878 -0.45824078 1.05920601 95 104 104
1.04284894 -0.45895791 1.06086361 96 105 104
0.03434807 -0.33269069 0.77208638 205 206 208
0.03548051 -0.33080682 0.76771444 205 206 208
0.03676581 -0.33043259 0.76684600 205 206 208
0.03839527 -0.33307004 0.77296674 205 206 208
0.04192525 -0.32931501 0.76425236 205 206 208
0.04324620 -0.32931501 0.76425236 203 207 208
0.04780186 -0.33345026 0.77384913 205 206 209
0.04874984 -0.33080682 0.76771444 205 206 209
0.04979480 -0.32894418 0.76339173 205 206 208
0.05117189 -0.32931501 0.76425236 205 206 208
0.05267098 -0.33043259 0.76684600 203 204 206
0.05405756 -0.33080682 0.76771444 204 205 207
0.05532185 -0.33043259 0.76684600 203 204 206
0.05658327 -0.33005923 0.76597947 201 203 205
0.05790720 -0.33005923 0.76597947 202 206 207
0.05923114 -0.33005923 0.76597947 202 204 206
0.12884456 -0.32205337 0.74740005 200 202 204
0.13013639 -0.32205337 0.74740005 200 202 204
0.13142820 -0.32205337 0.74740005 199 203 204
0.13272002 -0.32205337 0.74740005 198 202 203
0.13401185 -0.32205337 0.74740005 199 203 204
0.13530366 -0.32205337 0.74740005 200 203 205
0.13659549 -0.32205337 0.74740005 191 194 196
0.13773544 -0.32169870 0.74657691 78 82 83
0.13902584 -0.32169870 0.74657691 57 61 64
0.14031625 -0.32169870 0.74657691 74 78 81
0.14160664 -0.32169870 0.74657691 73 77 80
0.14563823 -0.32205337 0.74740005 72 74 78
0.14693005 -0.32205337 0.74740005 69 73 76
0.14805862 -0.32169870 0.74657691 70 74 77
0.27790087 -0.34004939 0.78916395 107 109 112
0.27894017 -0.33965397 0.78824633 107 109 112
1.01085067 -0.45428059 1.05426419 99 106 104
1.01110041 -0.45357519 1.05262709 98 104 102
1.01449502 -0.45428059 1.05426419 98 105 103
1.01473916 -0.45357519 1.05262709 100 107 105
1.01813948 -0.45428059 1.05426419 98 106 105
1.01837790 -0.45357519 1.05262709 96 105 104
1.01861560 -0.45287198 1.05099511 93 102 101
1.02520049 -0.45498818 1.05590630 91 100 99
1.02702558 -0.45498818 1.05590630 95 105 104
1.02885056 -0.45498818 1.05590630 96 106 105
1.03067565 -0.45498818 1.05590630 95 105 104
1.03411150 -0.45569801 1.05755353 94 103 102
1.03755796 -0.45641002 1.05920601 96 105 104
1.03938878 -0.45641002 1.05920601 95 104 103
1.04121947 -0.45641002 1.05920601 93 102 101
0.03430900 -0.33097923 0.77120799 205 206 208
0.03544037 -0.32910717 0.76684600 205 206 208
0.03676581 -0.32910717 0.76684600 205 206 208
0.03835154 -0.33135620 0.77208638 206 207 209
0.03955089 -0.33022785 0.76945728 205 206 208
0.04060430 -0.32799408 0.76425236 205 206 208
0.04202000 -0.32873529 0.76597947 205 206 208
0.04329501 -0.32836425 0.76511496 203 207 208
0.04461745 -0.32836425 0.76511496 203 206 208
0.04635848 -0.33135620 0.77208638 204 206 208
0.04785648 -0.33249226 0.77473354 204 207 209
0.04886051 -0.33022785 0.76945728 204 207 208
0.04990721 -0.32836425 0.76511496 204 207 208
0.05122965 -0.32836425 0.76511496 205 206 208
0.05285034 -0.33022785 0.76945728 204 205 207
0.05418028 -0.33022785 0.76945728 203 204 206
0.05544729 -0.32985345 0.76858485 205 206 208
0.05671143 -0.32947987 0.76771444 203 204 206
0.05810416 -0.32985345 0.76858485 202 205 206
0.05936529 -0.32947987 0.76771444 204 206 208
0.13028002 -0.32111561 0.74822497 200 201 203
0.13157326 -0.32111561 0.74822497 201 202 204
0.13286652 -0.32111561 0.74822497 199 202 203
0.13415976 -0.32111561 0.74822497 198 201 202
0.13545300 -0.32111561 0.74822497 203 204 206
0.13674626 -0.32111561 0.74822497 185 187 192
0.13788730 -0.32076156 0.74740005 68 71 78
0.13917913 -0.32076156 0.74740005 72 75 81
0.14047095 -0.32076156 0.74740005 75 78 84
0.14176276 -0.32076156 0.74740005 73 76 82
0.14709222 -0.32111561 0.74822497 70 73 79
0.27725536 -0.33789864 0.78733081 104 107 110
0.27797049 -0.33711556 0.78550619 103 107 109
0.27932817 -0.33711556 0.78550619 103 109 111
1.00953281 -0.45105541 1.05099511 99 108 107
1.01291978 -0.45175579 1.05262709 98 107 106
1.01316583 -0.45105541 1.05099511 97 106 105
1.01655853 -0.45175579 1.05262709 97 106 105
1.01837790 -0.45175579 1.05262709 97 106 106
1.01861560 -0.45105541 1.05099511 98 107 108
1.02360606 -0.45245838 1.05426419 99 108 109
1.02542830 -0.45245838 1.05426419 98 108 107
1.02885056 -0.45316315 1.05590630 96 106 104
1.03067565 -0.45316315 1.05590630 94 104 102
1.03250074 -0.45316315 1.05590630 94 103 102
1.03593934 -0.45387012 1.05755353 93 102 101
1.03615081 -0.45316315 1.05590630 92 101 100
1.03797579 -0.45316315 1.05590630 91 101 99
0.03434807 -0.33002171 0.77208638 203 206 208
0.03544037 -0.32778174 0.76684600 204 207 208
0.03676581 -0.32778174 0.76684600 204 208 209
0.03839527 -0.33039802 0.77296674 204 208 209
0.04202000 -0.32741135 0.76597947 202 206 207
0.04329501 -0.32704183 0.76511496 202 206 207
0.04461745 -0.32704183 0.76511496 201 205 206
0.04641134 -0.33039802 0.77296674 202 206 207
0.04785648 -0.33115321 0.77473354 202 206 207
0.04897168 -0.32964626 0.77120799 203 207 208
0.05002012 -0.32778174 0.76684600 203 207 208
0.05134555 -0.32778174 0.76684600 205 206 208
0.05303092 -0.33002171 0.77208638 204 205 207
0.05436541 -0.33002171 0.77208638 203 204 206
0.05563653 -0.32964626 0.77120799 203 204 206
0.05684017 -0.32889789 0.76945728 204 205 207
0.05830247 -0.32964626 0.77120799 202 203 205
0.05956767 -0.32927164 0.77033162 205 206 208
0.06083001 -0.32889789 0.76945728 189 190 192
0.06230139 -0.32964626 0.77120799 82 83 85
0.09530039 -0.32852501 0.76858485 76 75 83
0.13042398 -0.32017577 0.74905175 201 202 204
0.13330793 -0.32088488 0.75071079 199 200 202
0.13445657 -0.32052994 0.74988037 199 200 202
0.13590302 -0.32088488 0.75071079 204 205 208
0.13704878 -0.32052994 0.74988037 179 179 186
0.13819203 -0.32017577 0.74905175 63 63 72
0.13948670 -0.32017577 0.74905175 71 74 82
0.14062598 -0.31982237 0.74822497 74 76 86
0.27725536 -0.33653781 0.78733081 101 105 108
0.27797049 -0.33575788 0.78550619 101 105 108
0.27932817 -0.33575788 0.78550619 99 105 108
0.27906901 -0.33382380 0.78098136 101 107 112
0.28009617 -0.33343965 0.78008264 105 108 115
1.00796998 -0.44854343 1.04936814 97 106 105
1.01291978 -0.44993642 1.05262709 97 105 106
1.01316583 -0.44923884 1.05099511 97 106 106
1.01498246 -0.44923884 1.05099511 97 106 106
1.01679897 -0.44923884 1.05099511 98 107 108
1.01861560 -0.44923884 1.05099511 98 107 108
1.02360606 -0.45063618 1.05426419 97 107 107
1.02702558 -0.45133808 1.05590630 94 107 105
1.02885056 -0.45133808 1.05590630 92 107 104
1.03067565 -0.45133808 1.05590630 92 106 103
1.03250074 -0.45133808 1.05590630 93 104 102
1.03593934 -0.45204222 1.05755353 93 104 102
1.03615081 -0.45133808 1.05590630 93 104 103
0.03430900 -0.32831329 0.77120799 205 206 208
0.03544037 -0.32645631 0.76684600 206 207 209
0.03676581 -0.32645631 0.76684600 207 208 210
0.03839527 -0.32906201 0.77296674 205 206 208
0.04192525 -0.32535216 0.76425236 202 205 206
0.04324620 -0.32535216 0.76425236 202 205 206
0.04461745 -0.32571939 0.76511496 203 205 207
0.04635848 -0.32868722 0.77208638 201 205 206
0.04780186 -0.32943764 0.77384913 201 205 206
0.04897168 -0.32831329 0.77120799 203 207 208
0.05013354 -0.32719657 0.76858485 203 207 208
0.05146198 -0.32719657 0.76858485 203 207 208
0.05309139 -0.32906201 0.77296674 204 207 208
0.05442740 -0.32906201 0.77296674 205 206 208
0.05569990 -0.32868722 0.77208638 204 205 206
0.05696950 -0.32831329 0.77120799 205 206 207
0.05843543 -0.32906201 0.77296674 204 205 205
0.05970336 -0.32868722 0.77208638 206 207 209
0.06096841 -0.32831329 0.77120799 190 191 193
0.06244346 -0.32906201 0.77296674 85 86 88
0.09253860 -0.32682601 0.76771444 76 75 84
0.09386553 -0.32682601 0.76771444 76 75 84
0.09530039 -0.32719657 0.76858485 76 75 83
0.09662883 -0.32719657 0.76858485 80 79 86
0.09784633 -0.32682601 0.76771444 83 85 92
0.13085777 -0.31994167 0.75154305 199 200 202
0.13230342 -0.32029676 0.75237721 199 200 201
0.13375229 -0.32065263 0.75321317 199 200 202
0.13490427 -0.32029676 0.75237721 199 200 202
0.13635603 -0.32065263 0.75321317 206 206 210
0.13750511 -0.32029676 0.75237721 175 174 181
0.13880554 -0.32029676 0.75237721 65 64 73
0.13995063 -0.31994167 0.75154305 71 71 90
0.27725536 -0.33517697 0.78733081 100 105 112
0.27797049 -0.33440021 0.78550619 99 104 111
0.27932817 -0.33440021 0.78550619 96 103 109
0.27939090 -0.33285740 0.78188217 103 107 114
0.28041887 -0.33247393 0.78098136 107 108 117
1.00796998 -0.44672969 1.04936814 99 102 108
1.01291978 -0.44811705 1.05262709 98 105 108
1.01316583 -0.44742230 1.05099511 97 106 107
1.01498246 -0.44742230 1.05099511 96 105 106
1.01679897 -0.44742230 1.05099511 96 105 106
1.01861560 -0.44742230 1.05099511 96 105 106
1.02520049 -0.44951305 1.05590630 95 105 105
1.02702558 -0.44951305 1.05590630 90 106 103
1.03045571 -0.45021433 1.05755353 93 110 106
1.03067565 -0.44951305 1.05590630 94 109 106
1.03250074 -0.44951305 1.05590630 91 102 102
1.03593934 -0.45021433 1.05755353 93 104 104
1.03615081 -0.44951305 1.05590630 97 108 109
0.03430900 -0.32698032 0.77120799 205 206 206
0.03544037 -0.32513088 0.76684600 205 206 206
0.03676581 -0.32513088 0.76684600 205 206 206
0.03835154 -0.32735273 0.77208638 205 206 208
0.03941667 -0.32513088 0.76684600 205 206 208
0.04051295 -0.32330224 0.76253301 205 206 208
0.04187804 -0.32366633 0.76339173 204 205 207
0.04324620 -0.32403123 0.76425236 204 205 207
0.04461745 -0.32439694 0.76511496 205 206 208
0.04635848 -0.32735273 0.77208638 203 205 207
0.04780186 -0.32810012 0.77384913 205 206 206
0.04902745 -0.32735273 0.77208638 205 206 206
0.05024748 -0.32660875 0.77033162 205 206 206
0.05152040 -0.32623801 0.76945728 205 206 206
0.05315199 -0.32810012 0.77384913 206 207 208
0.05448953 -0.32810012 0.77384913 204 205 206
0.05576341 -0.32772598 0.77296674 204 205 205
0.05709942 -0.32772598 0.77296674 203 204 204
0.05850214 -0.32810012 0.77384913 202 203 203
0.05977144 -0.32772598 0.77296674 205 208 209
0.06110745 -0.32772598 0.77296674 189 193 194
0.06251474 -0.32810012 0.77384913 81 84 86
0.08845762 -0.32513088 0.76684600 78 76 83
0.09264352 -0.32586813 0.76858485 77 76 85
0.09397195 -0.32586813 0.76858485 77 76 85
0.09530039 -0.32586813 0.76858485 78 77 86
0.09662883 -0.32586813 0.76858485 81 80 89
0.09784633 -0.32549909 0.76771444 82 85 93
0.12999111 -0.31970599 0.75405097 199 200 200
0.13129443 -0.31970599 0.75405097 198 200 200
0.13274541 -0.32006201 0.75489068 198 201 200
0.13405018 -0.32006201 0.75489068 199 200 202
0.13550584 -0.32041883 0.75573224 198 199 202
0.13696475 -0.32077643 0.75657570 205 205 209
0.13811828 -0.32041883 0.75573224 169 169 176
0.13926925 -0.32006201 0.75489068 68 67 77
0.14041765 -0.31970599 0.75405097 71 69 92
0.14742620 -0.32077643 0.75657570 77 77 89
0.14856806 -0.32041883 0.75573224 76 76 85
0.27725536 -0.33381614 0.78733081 102 110 116
0.27797049 -0.33304253 0.78550619 103 109 114
0.27932817 -0.33304253 0.78550619 105 106 112
0.27971351 -0.33188879 0.78278506 108 108 113
0.28041887 -0.33112407 0.78098136 108 108 113
0.28112099 -0.33036286 0.77918601 108 107 114
1.01291978 -0.44629768 1.05262709 98 105 107
1.01473916 -0.44629768 1.05262709 95 104 104
1.01655853 -0.44629768 1.05262709 94 103 103
1.01837790 -0.44629768 1.05262709 94 103 103
1.02019727 -0.44629768 1.05262709 95 104 103
1.02679992 -0.44838643 1.05755353 95 106 104
1.02862775 -0.44838643 1.05755353 90 106 104
1.03206575 -0.44908702 1.05920601 95 110 110
1.03389657 -0.44908702 1.05920601 95 109 109
1.03411150 -0.44838643 1.05755353 93 104 104
1.03755796 -0.44908702 1.05920601 95 106 106
0.02628128 -0.32527730 0.77033162 205 206 206
0.02758139 -0.32490808 0.76945728 203 204 204
0.03024128 -0.32490808 0.76945728 205 206 206
0.03290117 -0.32490808 0.76945728 205 206 206
0.03427001 -0.32527730 0.77033162 205 206 206
0.03544037 -0.32380545 0.76684600 205 206 206
0.03672426 -0.32343957 0.76597947 203 204 204
0.03830791 -0.32564735 0.77120799 205 206 208
0.03937213 -0.32343957 0.76597947 205 206 207
0.04051295 -0.32198426 0.76253301 205 206 207
0.04183093 -0.32198426 0.76253301 204 207 207
0.04319750 -0.32234687 0.76339173 205 206 206
0.04461745 -0.32307452 0.76511496 205 206 206
0.04635848 -0.32601824 0.77208638 203 204 204
0.04780186 -0.32676256 0.77384913 202 203 205
0.04902745 -0.32601824 0.77208638 204 205 207
0.05030465 -0.32564735 0.77120799 204 205 205
0.05157894 -0.32527730 0.77033162 205 206 206
0.05315199 -0.32676256 0.77384913 206 207 207
0.05455181 -0.32713601 0.77473354 202 203 203
0.05582707 -0.32676256 0.77384913 203 204 204
0.05716460 -0.32676256 0.77384913 202 203 203
0.05856900 -0.32713601 0.77473354 202 203 203
0.05983967 -0.32676256 0.77384913 206 207 207
0.06117721 -0.32676256 0.77384913 186 187 187
0.06258619 -0.32713601 0.77473354 79 80 82
0.08845762 -0.32380545 0.76684600 76 75 86
0.08998664 -0.32453969 0.76858485 76 76 87
0.09131508 -0.32453969 0.76858485 79 79 89
0.09264352 -0.32453969 0.76858485 77 76 86
0.09407862 -0.32490808 0.76945728 82 81 93
0.09540857 -0.32490808 0.76945728 84 82 95
0.09673851 -0.32490808 0.76945728 80 78 93
0.09795727 -0.32453969 0.76858485 80 85 100
0.09928570 -0.32453969 0.76858485 64 67 80
0.10061414 -0.32453969 0.76858485 164 164 173
0.10327101 -0.32453969 0.76858485 200 203 205
0.12738448 -0.31840268 0.75405097 199 200 200
0.13042636 -0.31946877 0.75657570 198 201 200
0.13173404 -0.31946877 0.75657570 198 201 200
0.13319036 -0.31982571 0.75742108 198 200 200
0.13449951 -0.31982571 0.75742108 199 200 202
0.13596056 -0.32018346 0.75826830 199 200 202
0.13727117 -0.32018346 0.75826830 201 205 206
0.13842693 -0.31982571 0.75742108 163 165 171
0.13973607 -0.31982571 0.75742108 73 73 80
0.14088780 -0.31946877 0.75657570 71 67 87
0.14219548 -0.31946877 0.75657570 72 66 87
0.14775601 -0.32018346 0.75826830 81 78 93
0.14890006 -0.31982571 0.75742108 86 85 95
0.27693370 -0.33206961 0.78641742 104 110 112
0.27764878 -0.33130094 0.78459704 105 110 111
0.27900487 -0.33130094 0.78459704 106 109 110
0.27971351 -0.33053580 0.78278506 107 108 112
0.28041887 -0.32977420 0.78098136 107 108 112
0.28112099 -0.32901612 0.77918601 106 107 111
1.01291978 -0.44447827 1.05262709 95 102 102
1.01473916 -0.44447827 1.05262709 94 103 102
1.01655853 -0.44447827 1.05262709 95 104 103
1.01837790 -0.44447827 1.05262709 96 105 104
1.02862775 -0.44655854 1.05755353 87 102 103
1.03206575 -0.44725627 1.05920601 95 109 110
1.03389657 -0.44725627 1.05920601 97 108 109
1.03411150 -0.44655854 1.05755353 97 106 107
0.02628128 -0.32394582 0.77033162 201 204 203
0.02758139 -0.32357812 0.76945728 201 205 204
0.02891134 -0.32357812 0.76945728 202 205 204
0.03024128 -0.32357812 0.76945728 203 207 206
0.03157122 -0.32357812 0.76945728 203 207 206
0.03290117 -0.32357812 0.76945728 203 207 205
0.03427001 -0.32394582 0.77033162 204 205 205
0.03540033 -0.32211563 0.76597947 204 205 206
0.03672426 -0.32211563 0.76597947 204 205 206
0.03826438 -0.32394582 0.77033162 204 204 205
0.03932769 -0.32175207 0.76511496 204 205 205
0.04051295 -0.32066628 0.76253301 203 204 204
0.04183093 -0.32066628 0.76253301 203 204 204
0.04319750 -0.32102740 0.76339173 205 206 206
0.04461745 -0.32175207 0.76511496 203 204 204
0.04630574 -0.32431436 0.77120799 202 203 203
0.04780186 -0.32542503 0.77384913 202 203 204
0.04902745 -0.32468376 0.77208638 202 203 204
0.05036194 -0.32468376 0.77208638 203 204 206
0.05169643 -0.32468376 0.77208638 204 205 205
0.05321274 -0.32579696 0.77473354 204 205 205
0.05455181 -0.32579696 0.77473354 203 204 204
0.05589087 -0.32579696 0.77473354 203 204 204
0.05716460 -0.32542503 0.77384913 202 203 203
0.05856900 -0.32579696 0.77473354 202 203 203
0.05990806 -0.32579696 0.77473354 206 208 208
0.06124713 -0.32579696 0.77473354 182 184 184
0.06265780 -0.32616973 0.77561998 83 84 87
0.08845762 -0.32248002 0.76684600 85 84 100
0.09008878 -0.32357812 0.76945728 91 94 104
0.09131508 -0.32321125 0.76858485 75 75 87
0.09274867 -0.32357812 0.76945728 78 77 91
0.09418553 -0.32394582 0.77033162 79 77 93
0.09551698 -0.32394582 0.77033162 81 78 97
0.09684844 -0.32394582 0.77033162 77 73 94
0.09806845 -0.32357812 0.76945728 70 72 92
0.09939840 -0.32357812 0.76945728 73 73 91
0.10072834 -0.32357812 0.76945728 168 167 180
0.10205828 -0.32357812 0.76945728 203 206 209
0.10338823 -0.32357812 0.76945728 202 205 207
0.12766851 -0.31780639 0.75573224 198 199 199
0.12883110 -0.31745249 0.75489068 198 199 199
0.13071814 -0.31887284 0.75826830 199 201 201
0.13202874 -0.31887284 0.75826830 199 203 202
0.13348867 -0.31922993 0.75911742 199 204 202
0.13480075 -0.31922993 0.75911742 198 204 204
0.13611281 -0.31922993 0.75911742 193 200 200
0.13757895 -0.31958783 0.75996846 190 196 196
0.13873696 -0.31922993 0.75911742 159 162 163
0.14004903 -0.31922993 0.75911742 113 114 116
0.14267318 -0.31922993 0.75911742 125 120 135
0.14398526 -0.31922993 0.75911742 127 121 138
0.14529732 -0.31922993 0.75911742 133 127 143
0.14660940 -0.31922993 0.75911742 138 132 146
0.14792147 -0.31922993 0.75911742 142 137 148
0.14906661 -0.31887284 0.75826830 147 146 155
0.27661282 -0.33032715 0.78550619 103 112 113
0.27764878 -0.32994482 0.78459704 103 110 112
0.27900487 -0.32994482 0.78459704 104 110 111
0.27939090 -0.32880315 0.78188217 105 109 112
0.28041887 -0.32842433 0.78098136 105 109 112
0.28112099 -0.32766935 0.77918601 105 108 111
1.01996171 -0.44334733 1.05426419 93 103 103
1.03023505 -0.44542551 1.05920601 91 104 105
0.02631118 -0.32298139 0.77120799 203 208 203
0.02758139 -0.32224819 0.76945728 201 205 202
0.02891134 -0.32224819 0.76945728 201 205 202
0.03024128 -0.32224819 0.76945728 201 205 202
0.03157122 -0.32224819 0.76945728 203 206 204
0.03290117 -0.32224819 0.76945728 202 205 202
0.03427001 -0.32261437 0.77033162 202 202 202
0.03540033 -0.32079169 0.76597947 206 206 206
0.03672426 -0.32079169 0.76597947 205 206 206
0.03826438 -0.32261437 0.77033162 205 206 206
0.03932769 -0.32042962 0.76511496 205 206 206
0.04051295 -0.31934831 0.76253301 203 204 204
0.04183093 -0.31934831 0.76253301 201 205 204
0.04319750 -0.31970793 0.76339173 201 205 204
0.04461745 -0.32042962 0.76511496 202 205 204
0.04630574 -0.32298139 0.77120799 202 205 204
0.04774735 -0.32371795 0.77296674 203 205 205
0.04897168 -0.32298139 0.77120799 203 204 205
0.05036194 -0.32334927 0.77208638 203 204 205
0.05169643 -0.32334927 0.77208638 203 204 204
0.05321274 -0.32445788 0.77473354 202 203 203
0.05455181 -0.32445788 0.77473354 203 204 204
0.05589087 -0.32445788 0.77473354 203 204 204
0.05722993 -0.32445788 0.77473354 202 203 203
0.05863601 -0.32482913 0.77561998 201 203 202
0.05990806 -0.32445788 0.77473354 204 208 207
0.06124713 -0.32445788 0.77473354 182 186 186
0.06265780 -0.32482913 0.77561998 85 87 91
0.06407171 -0.32520121 0.77650839 82 86 92
0.08845762 -0.32115459 0.76684600 76 75 91
0.09008878 -0.32224819 0.76945728 88 88 98
0.09141873 -0.32224819 0.76945728 94 92 103
0.09285408 -0.32261437 0.77033162 99 95 105
0.09429268 -0.32298139 0.77120799 100 96 108
0.09551698 -0.32261437 0.77033162 104 99 112
0.09684844 -0.32261437 0.77033162 97 92 106
0.09806845 -0.32224819 0.76945728 98 92 107
0.09951135 -0.32261437 0.77033162 108 104 116
0.10084280 -0.32261437 0.77033162 173 172 181
0.10217426 -0.32261437 0.77033162 198 199 198
0.10350572 -0.32261437 0.77033162 200 201 200
0.13495186 -0.31827426 0.75996846 133 141 146
0.13773336 -0.31863147 0.76082134 128 134 136
0.13904838 -0.31863147 0.76082134 160 162 164
0.14414667 -0.31827426 0.75996846 204 200 203
0.14562346 -0.31863147 0.76082134 199 196 204
0.14677376 -0.31827426 0.75996846 197 194 201
0.14825350 -0.31863147 0.76082134 198 196 201
0.14940085 -0.31827426 0.75996846 201 201 204
0.15202793 -0.31827426 0.75996846 209 210 212
0.27661282 -0.32896948 0.78550619 102 111 113
0.27764878 -0.32858872 0.78459704 102 111 113
0.27900487 -0.32858872 0.78459704 102 110 111
0.27971351 -0.32782984 0.78278506 103 110 112
0.28074232 -0.32745174 0.78188217 104 110 111
0.28144449 -0.32669809 0.78008264 105 110 112
0.28279281 -0.32669809 0.78008264 105 109 111
0.02634114 -0.32201478 0.77208638 202 208 206
0.02761273 -0.32128292 0.77033162 202 205 203
0.02894419 -0.32128292 0.77033162 202 204 202
0.03024128 -0.32091823 0.76945728 204 205 204
0.03157122 -0.32091823 0.76945728 205 207 205
0.03286387 -0.32055438 0.76858485 204 206 205
0.03423111 -0.32091823 0.76945728 201 204 203
0.03540033 -0.31946775 0.76597947 203 205 205
0.03672426 -0.31946775 0.76597947 204 207 206
0.03822095 -0.32091823 0.76945728 202 203 203
0.03923912 -0.31838849 0.76339173 203 204 204
0.04051295 -0.31803033 0.76253301 203 204 204
0.04178393 -0.31767300 0.76167625 203 205 205
0.04314891 -0.31803033 0.76253301 204 206 206
0.04461745 -0.31910717 0.76511496 204 206 206
0.04625312 -0.32128292 0.77033162 204 206 206
0.04774735 -0.32238194 0.77296674 203 206 205
0.04897168 -0.32164842 0.77120799 203 206 205
0.05036194 -0.32201478 0.77208638 203 204 206
0.05175538 -0.32238194 0.77296674 203 204 205
0.05321274 -0.32311884 0.77473354 202 203 203
0.05455181 -0.32311884 0.77473354 201 202 202
0.05589087 -0.32311884 0.77473354 200 203 202
0.05722993 -0.32311884 0.77473354 200 204 203
0.05856900 -0.32311884 0.77473354 202 206 205
0.05990806 -0.32311884 0.77473354 203 208 208
0.06124713 -0.32311884 0.77473354 180 185 185
0.06265780 -0.32348853 0.77561998 110 112 114
0.06407171 -0.32385907 0.77650839 99 102 108
0.06541383 -0.32385907 0.77650839 99 102 110
0.08855780 -0.32019135 0.76771444 159 157 165
0.09019116 -0.32128292 0.77033162 162 160 167
0.09152262 -0.32128292 0.77033162 166 163 168
0.09295971 -0.32164842 0.77120799 171 167 171
0.09429268 -0.32164842 0.77120799 176 172 176
0.09562565 -0.32164842 0.77120799 179 175 180
0.09695862 -0.32164842 0.77120799 182 178 183
0.09817989 -0.32128292 0.77033162 180 178 185
0.09951135 -0.32128292 0.77033162 182 181 187
0.10084280 -0.32128292 0.77033162 169 168 175
0.10229050 -0.32164842 0.77120799 141 141 144
0.10362347 -0.32164842 0.77120799 127 128 133
0.10495644 -0.32164842 0.77120799 122 121 132
0.14578709 -0.31767300 0.76167625 204 205 207
0.14710359 -0.31767300 0.76167625 203 204 206
0.14842008 -0.31767300 0.76167625 202 203 205
0.14956853 -0.31731647 0.76082134 201 202 204
0.15105307 -0.31767300 0.76167625 201 202 204
0.15202793 -0.31696072 0.75996846 201 202 204
0.27493656 -0.32723260 0.78459704 103 108 113
0.27693370 -0.32799184 0.78641742 104 108 110
0.27797049 -0.32761177 0.78550619 102 106 106
0.27932817 -0.32761177 0.78550619 103 107 107
0.28003687 -0.32685429 0.78368998 104 108 109
0.28074232 -0.32610032 0.78188217 104 108 109
0.28176874 -0.32572463 0.78098136 105 109 110
0.28311861 -0.32572463 0.78098136 105 109 110
0.28446847 -0.32572463 0.78098136 105 109 110
0.02634114 -0.32068029 0.77208638 195 201 203
0.02764415 -0.32031545 0.77120799 191 195 197
0.02894419 -0.31995147 0.77033162 187 191 192
0.03024128 -0.31958830 0.76945728 186 190 190
0.03157122 -0.31958830 0.76945728 186 190 189
0.03286387 -0.31922594 0.76858485 185 189 188
0.03423111 -0.31958830 0.76945728 186 190 189
0.03540033 -0.31814381 0.76597947 188 192 191
0.03668281 -0.31778476 0.76511496 192 196 195
0.03817761 -0.31922594 0.76858485 199 205 203
0.03915094 -0.31635651 0.76167625 193 197 196
0.04046743 -0.31635651 0.76167625 183 185 185
0.04173703 -0.31600145 0.76082134 175 179 179
0.04310043 -0.31635651 0.76167625 169 173 174
0.04461745 -0.31778476 0.76511496 167 171 171
0.04620062 -0.31958830 0.76945728 166 168 169
0.04774735 -0.32104594 0.77296674 165 166 168
0.04897168 -0.32031545 0.77120799 166 168 169
