ply
format ascii 1.0
element vertex 1075
property float x
property float y
property float z
property uchar red
property uchar green
property uchar blue
end_header
0.62998795 -0.38991821 0.86352511 147 143 130
0.62983022 -0.37009752 0.79111894 97 112 115
0.62398444 -0.36976451 0.83408131 114 115 111
0.62858037 -0.37955762 0.84039986 123 123 119
0.62979984 -0.36986129 0.86332408 145 141 131
0.62964967 -0.35003964 0.79110076 96 111 115
0.63703939 -0.34901040 0.85424943 116 119 119
0.63004356 -0.34972280 0.86315426 145 139 132
0.62995578 -0.33014822 0.79220392 94 108 114
0.62286290 -0.33369582 0.83468455 113 114 116
0.63343209 -0.32956881 0.85107018 121 119 119
0.63016614 -0.33020755 0.86330495 144 138 131
0.62998524 -0.31021834 0.79326054 93 107 113
0.62290224 -0.30506671 0.83797397 113 117 114
0.62851391 -0.31108525 0.84600274 120 120 115
0.63008681 -0.31023487 0.86350105 144 137 130
0.62965917 -0.29013107 0.79379742 91 107 112
0.62098300 -0.29333516 0.83642769 113 112 112
0.63315624 -0.28890359 0.85555946 133 129 125
0.62903548 -0.29020706 0.86363540 144 138 131
0.62991352 -0.26997828 0.79457342 93 106 112
0.63173151 -0.26881404 0.85477273 123 118 116
0.62845756 -0.27040168 0.86328573 143 136 128
0.62970137 -0.25008648 0.79549117 90 103 110
0.62057296 -0.24450400 0.80011096 90 102 107
0.62651338 -0.25047768 0.84913094 121 120 118
0.62798198 -0.25000626 0.86272319 141 135 128
0.63127175 -0.23054006 0.79649279 86 101 106
0.62219606 -0.22760823 0.80101495 87 100 107
0.62541902 -0.23067956 0.84886422 115 112 109
0.62745571 -0.23023153 0.86256744 142 135 129
0.63425794 -0.21108459 0.79808682 84 97 106
0.62484205 -0.20912843 0.80207425 86 97 106
0.62893560 -0.20659208 0.85642884 120 113 111
0.62691021 -0.21032081 0.86261293 141 134 127
0.63725598 -0.19432918 0.79933556 86 97 105
0.62852245 -0.18917526 0.80259727 85 96 104
0.62584043 -0.19074263 0.85393438 115 108 107
0.62599298 -0.19002598 0.86268608 137 131 124
0.62999272 -0.17001254 0.80483295 83 95 104
0.62400393 -0.17093609 0.85313741 115 109 107
0.62522968 -0.16971720 0.86283788 139 131 124
0.62979976 -0.15008886 0.80886679 81 90 98
0.62362775 -0.14668356 0.85620819 126 123 115
0.62435477 -0.15066908 0.86254371 138 132 125
0.62969060 -0.13005828 0.81466825 58 60 62
0.62271270 -0.12968789 0.85684470 135 130 123
0.62296306 -0.13063350 0.86202358 139 131 122
0.62998150 -0.10975095 0.81517534 57 59 61
0.62058030 -0.11872580 0.85540122 139 130 124
0.62226401 -0.10993671 0.86182868 138 131 124
0.63088383 -0.09090834 0.81760956 60 60 65
0.62253682 -0.08486974 0.82060425 60 60 67
0.62148221 -0.08579110 0.85869017 128 123 112
0.62144602 -0.09073193 0.86114693 138 131 120
0.63431405 -0.07141931 0.81841645 56 58 60
0.62501313 -0.06859474 0.82181544 60 60 63
0.62096336 -0.07039890 0.86105793 137 131 118
0.63776641 -0.05992110 0.81953995 79 80 81
0.63026120 -0.05415194 0.82966035 99 99 99
0.62949960 -0.04432394 0.84708047 110 113 111
0.62069813 -0.05875061 0.86048405 135 124 117
0.62997552 -0.03728245 0.85699338 129 130 129
0.62980561 -0.02733486 0.86700826 123 125 124
0.62977883 -0.01310857 0.87666797 149 154 152
0.63028479 -0.00328388 0.88144687 130 132 134
0.62999118 0.01027411 0.88640839 121 126 129
0.63000470 0.03037572 0.89193180 139 142 145
0.63011449 0.04982493 0.89574607 149 150 150
0.63000449 0.06940056 0.89860911 147 149 150
0.62881198 0.08041865 0.89998187 143 145 146
0.63010337 0.09047148 0.90107793 127 134 137
0.63006695 0.11028729 0.90297477 120 129 132
0.62983917 0.13021485 0.90454544 127 135 139
0.63019428 0.14962833 0.90581659 156 160 161
0.62976753 0.17039745 0.90695858 161 165 165
0.63021970 0.19004565 0.90787572 167 172 172
0.62980185 0.21018928 0.90868360 149 151 151
0.62987667 0.22979353 0.90937933 155 159 159
0.63030616 0.24961098 0.90999944 155 156 154
0.62998598 0.27016999 0.91057929 167 170 168
0.62978944 0.29024356 0.91107534 146 148 147
0.62977239 0.30989065 0.91150339 139 143 142
0.63004827 0.32972811 0.91190267 152 155 152
0.63028840 0.34956316 0.91225022 146 150 148
0.63021678 0.36999584 0.91256422 148 153 152
0.62989537 0.39001482 0.91282314 164 166 163
0.63001645 0.40981522 0.91299859 100 103 104
0.63008221 0.43037459 0.91309385 0 0 0
0.63013308 0.45013852 0.91316757 0 0 0
0.63019310 0.46991253 0.91325456 0 0 0
0.63000185 0.49066129 0.91334919 0 0 0
0.62953932 0.51027376 0.91345113 0 0 0
0.65060693 -0.52261103 0.77802570 101 119 120
0.64799417 -0.51264607 0.77893363 99 119 121
0.65382917 -0.50510490 0.78038139 104 119 122
0.65001643 -0.49001464 0.78115563 101 119 122
0.64999923 -0.47009719 0.78194482 103 120 122
0.64377711 -0.46710749 0.85741545 133 131 124
0.64428286 -0.46733638 0.86438986 148 143 133
0.65021696 -0.45029548 0.78180670 103 119 121
0.64257719 -0.45052551 0.85516103 129 126 120
0.64418760 -0.45020657 0.86359033 146 142 133
0.64988432 -0.43000241 0.78294890 102 118 121
0.64210939 -0.43241569 0.85626298 127 127 123
0.64353991 -0.43038464 0.86329941 145 141 132
0.64999763 -0.40958754 0.78389684 100 115 119
0.64314542 -0.40024224 0.85987306 130 130 124
0.64329923 -0.41032044 0.86318295 142 139 132
0.64994301 -0.39030025 0.78431175 99 112 119
0.64208917 -0.39661840 0.85846086 128 128 123
0.64232403 -0.39042141 0.86319336 141 139 130
0.65022800 -0.37042742 0.78417288 97 112 116
0.64101419 -0.36569353 0.85900870 124 123 117
0.64185880 -0.37141437 0.86291830 138 135 128
0.64978231 -0.35033260 0.78495248 96 111 115
0.64017964 -0.34971437 0.85988200 128 127 125
0.64104208 -0.35136871 0.86241128 140 135 130
0.64991553 -0.33009842 0.78616886 94 108 113
0.64048343 -0.33504592 0.86229194 138 134 133
0.64966100 -0.30976631 0.78791957 94 107 112
0.64971271 -0.28970163 0.78953309 92 107 112
0.64995585 -0.26981247 0.79092711 91 105 111
0.64990412 -0.24962318 0.79208934 90 103 109
0.64982063 -0.22943651 0.79372953 84 102 106
0.64979856 -0.20954216 0.79604908 84 98 105
0.64988429 -0.18992146 0.79821327 85 95 104
0.64104282 -0.18117283 0.80034448 85 95 101
0.65459747 -0.17696771 0.79947770 86 94 102
0.64853595 -0.16833720 0.80142439 82 94 101
0.64995200 -0.14989644 0.80601480 80 88 95
0.64983268 -0.13039950 0.81229497 58 59 61
0.65001503 -0.10992633 0.81284332 57 59 61
0.64970513 -0.08969944 0.81448348 59 60 62
0.64976219 -0.07009334 0.81518634 57 58 60
0.65119015 -0.05817383 0.81759316 87 89 87
0.64970937 -0.05160322 0.82949479 105 109 107
0.64930475 -0.04323482 0.84682308 114 116 114
0.64998846 -0.03674018 0.85714425 129 130 128
0.65002901 -0.02668582 0.86748088 119 121 121
0.65003274 -0.01332985 0.87668226 147 151 150
0.65001715 -0.00355106 0.88146786 127 131 133
0.64999172 0.01027535 0.88652208 127 131 134
0.64998848 0.03039716 0.89201947 137 141 144
0.65003371 0.04984914 0.89582013 153 156 156
0.64993856 0.06938642 0.89866366 140 141 142
0.64998529 0.08983443 0.90104927 120 127 131
0.65008026 0.11021375 0.90300032 121 129 132
0.64999301 0.13007954 0.90456355 125 130 135
0.64989401 0.14993290 0.90586098 148 154 154
0.65016426 0.17040214 0.90698351 159 162 163
0.64990278 0.19027526 0.90790575 159 162 162
0.64982248 0.20998898 0.90869774 160 163 163
0.65032952 0.22980043 0.90940682 168 172 171
0.64998212 0.24961681 0.91002076 145 148 148
0.64966002 0.27029036 0.91059289 148 150 149
0.64995370 0.29006363 0.91108331 150 152 150
0.65026902 0.30989811 0.91152531 156 160 158
0.65010446 0.32954834 0.91191751 159 164 163
0.65001351 0.34957162 0.91227232 151 157 156
0.64992241 0.37039516 0.91259138 152 154 152
0.64963531 0.39002574 0.91284869 142 143 141
0.64976671 0.40983084 0.91303329 124 127 124
0.64984463 0.43039764 0.91314275 0 0 0
0.64989615 0.45016196 0.91321514 0 0 0
0.64995537 0.46993506 0.91329836 0 0 0
0.64981301 0.49009409 0.91338592 0 0 0
0.65029211 0.50985237 0.91348576 0 0 0
0.66516841 -0.52319370 0.77929116 100 121 124
0.67428821 -0.52345887 0.78056356 100 121 123
0.66202228 -0.51798318 0.77981942 102 119 122
0.67035623 -0.50966595 0.78114820 104 120 123
0.66996510 -0.48953531 0.78175553 101 121 123
0.67008178 -0.46963982 0.78218283 104 121 122
0.67030513 -0.45006425 0.78234700 104 120 122
0.66968959 -0.43019575 0.78247013 104 119 121
0.66956091 -0.41022428 0.78241714 101 115 119
0.66956664 -0.39011406 0.78296538 96 114 118
0.66998482 -0.37010973 0.78350278 96 112 118
0.66959834 -0.35023708 0.78458719 96 110 117
0.66970174 -0.33018248 0.78603125 92 108 113
0.66985433 -0.30988143 0.78766931 90 107 111
0.66990105 -0.28967510 0.78963429 91 105 109
0.66998194 -0.26959550 0.79108082 90 105 110
0.67008706 -0.24973145 0.79220649 87 102 109
0.66995453 -0.22956309 0.79356494 87 100 107
0.67001405 -0.20943169 0.79565302 83 99 106
0.66992746 -0.18997142 0.79765672 85 95 104
0.66977296 -0.17571502 0.79926821 82 94 101
0.67007581 -0.16581629 0.80106109 80 94 102
0.67005133 -0.15008632 0.80579459 79 87 92
0.67006733 -0.13002057 0.81131070 57 59 61
0.67017183 -0.11007233 0.81199212 56 59 60
0.66972512 -0.08957956 0.81271472 57 59 61
0.66953476 -0.06994166 0.81254182 56 58 60
0.67041895 -0.05707117 0.81589139 89 91 93
0.66937726 -0.05024018 0.83001878 111 115 116
0.66997463 -0.04288008 0.84683622 125 126 124
0.66981864 -0.03673069 0.85692524 131 134 130
0.66992583 -0.02666109 0.86743517 122 124 123
0.66998715 -0.01337366 0.87674612 144 147 146
0.67007956 -0.00350554 0.88162315 138 142 143
0.66995282 0.01024022 0.88664392 125 130 132
0.66998995 0.03038197 0.89211798 137 140 144
0.66995984 0.04987363 0.89589895 153 155 156
0.66994192 0.06942909 0.89873447 141 144 145
0.67002782 0.08987693 0.90110163 130 136 140
0.66997495 0.11035202 0.90304789 119 127 131
0.67014945 0.12994453 0.90458440 134 141 145
0.66984566 0.14994484 0.90588728 162 168 167
0.67020531 0.17020218 0.90699431 158 161 161
0.66972897 0.19024947 0.90792201 159 163 162
0.67025608 0.20999389 0.90871899 165 168 168
0.67005374 0.22974282 0.90941472 156 159 160
0.66965365 0.24962067 0.91003476 159 163 162
0.67007775 0.27023957 0.91061110 145 149 149
0.67025913 0.28993297 0.91110937 164 168 166
0.66997768 0.30990502 0.91154566 154 158 157
0.66979177 0.32992388 0.91193899 154 157 156
0.66973330 0.34957682 0.91228586 155 159 158
0.66996942 0.37020575 0.91260747 133 137 138
0.67016476 0.39003637 0.91287353 129 132 131
0.67030809 0.40984679 0.91306875 137 140 140
0.67040018 0.43042186 0.91319415 4 4 4
0.67045115 0.45018583 0.91326358 0 0 0
0.67016000 0.46975409 0.91334195 0 0 0
0.66978059 0.48973523 0.91342549 0 0 0
0.66985026 0.50952305 0.91352050 0 0 0
0.68971367 -0.52350208 0.78106164 102 122 123
0.69014612 -0.50983553 0.78179455 105 122 124
0.68998959 -0.48994769 0.78222124 103 123 123
0.68987588 -0.46955708 0.78241722 103 123 122
0.68998863 -0.44934633 0.78249160 104 121 123
0.68992205 -0.43002643 0.78259335 103 119 122
0.69012173 -0.41019883 0.78269493 101 117 119
0.68984227 -0.39039615 0.78317754 98 114 118
0.69018485 -0.37027314 0.78406770 96 112 116
0.68992343 -0.35002419 0.78532808 96 110 115
0.68984738 -0.32977920 0.78696245 91 109 114
0.69009954 -0.30986767 0.78863348 89 107 111
0.69007937 -0.29014034 0.79053585 90 107 111
0.69011064 -0.27002784 0.79182997 88 104 108
0.68985169 -0.24970753 0.79274448 87 102 108
0.68997026 -0.22961387 0.79408450 85 100 107
0.69006821 -0.20963904 0.79614125 85 97 105
0.68996995 -0.18972347 0.79832101 82 95 103
0.69931361 -0.18017591 0.80001235 85 94 100
0.68620524 -0.17709145 0.79956776 84 96 102
0.69102779 -0.16784488 0.80139192 79 94 99
0.68978946 -0.14975576 0.80615731 78 86 90
0.68996323 -0.13016292 0.81077787 57 59 61
0.68993604 -0.10967386 0.81138281 56 58 61
0.69004861 -0.08957646 0.81183512 57 58 61
0.68971700 -0.06985273 0.81149924 57 59 61
0.68998608 -0.05676504 0.81498005 94 95 94
0.68997553 -0.05001951 0.83001189 119 120 116
0.68994621 -0.04289477 0.84669935 132 133 130
0.68982963 -0.03673149 0.85694530 133 137 132
0.68998939 -0.02674556 0.86743154 119 122 122
0.68998248 -0.01333305 0.87690373 148 152 153
0.69000974 -0.00350616 0.88177722 152 154 154
0.68992494 0.01027842 0.88679455 126 130 133
0.69005407 0.03037611 0.89221618 140 144 145
0.68988318 0.04989763 0.89596953 145 148 149
0.69000351 0.06945246 0.89879727 132 138 140
0.69001451 0.08995781 0.90115992 128 135 137
0.68993080 0.11044162 0.90308911 129 134 139
0.69003697 0.13004636 0.90461882 127 134 137
0.69010445 0.14984531 0.90590884 159 163 163
0.68980325 0.17061559 0.90703805 153 157 155
0.69008181 0.19019740 0.90793918 162 166 164
0.69015091 0.20981921 0.90872768 153 155 155
0.68970887 0.22986374 0.90943660 149 153 154
0.69011469 0.24962538 0.91005197 139 142 144
0.69014150 0.27003983 0.91062552 159 164 164
0.68993757 0.29022388 0.91113234 166 169 168
0.68968553 0.30991113 0.91156375 149 152 153
0.68997396 0.32974338 0.91194498 131 134 134
0.69023730 0.34957958 0.91229305 133 135 134
0.69025704 0.37003974 0.91262240 135 138 138
0.68990549 0.39004649 0.91289720 136 141 141
0.69005739 0.40986002 0.91309820 158 161 159
0.69016320 0.43044262 0.91323818 23 23 23
0.69021486 0.45020700 0.91330653 0 0 0
0.68989356 0.47018391 0.91338429 0 0 0
0.68954556 0.48975667 0.91346547 0 0 0
0.68961508 0.50954373 0.91355758 0 0 0
0.71878612 -0.52476468 0.77988207 105 126 124
0.70971909 -0.52348608 0.78101479 104 122 125
0.71017459 -0.51008794 0.78191509 105 122 123
0.70990067 -0.48994563 0.78257627 105 123 124
0.70984956 -0.46981874 0.78266126 105 121 123
0.71000691 -0.44962521 0.78283438 103 121 123
0.71016188 -0.42981538 0.78317039 102 118 120
0.71007245 -0.40986375 0.78359761 99 115 120
0.71007207 -0.38987332 0.78414538 97 113 116
0.70991709 -0.36969625 0.78516984 97 111 116
0.70993426 -0.34977413 0.78650037 95 110 114
0.71001621 -0.33010452 0.78788894 90 109 113
0.71006593 -0.31013160 0.78942111 89 106 111
0.71004396 -0.29035570 0.79132024 88 105 109
0.71014214 -0.27047752 0.79289835 87 103 109
0.70986953 -0.25007623 0.79393441 84 102 106
0.71003753 -0.22992341 0.79524614 86 99 107
0.71001459 -0.20987105 0.79727619 83 97 105
0.70925576 -0.19225009 0.79915420 81 96 104
0.71206242 -0.18267332 0.80038146 82 94 102
0.71012755 -0.16955782 0.80217942 79 93 99
0.71004965 -0.14963772 0.80709306 75 84 88
0.70989288 -0.12999076 0.81079375 56 58 62
0.71012197 -0.11056337 0.81093695 56 58 61
0.70986484 -0.09016663 0.81128165 58 59 61
0.70996279 -0.06972633 0.81081120 59 60 62
0.70986189 -0.05677949 0.81460797 98 98 97
0.71007849 -0.04992202 0.83080520 119 121 120
0.70993043 -0.04286885 0.84704256 126 127 125
0.70991713 -0.03673623 0.85705563 139 140 134
0.70996623 -0.02668937 0.86761708 120 122 123
0.70975762 -0.01340149 0.87703785 147 151 150
0.71020647 -0.00364289 0.88188715 151 154 152
0.70996517 0.01028003 0.88693750 126 131 133
0.71006844 0.03043510 0.89233571 131 136 140
0.70988361 0.04985641 0.89603989 141 145 146
0.71003034 0.06870354 0.89876350 135 140 143
0.71051328 0.07886701 0.90002635 146 149 148
0.71000239 0.08998092 0.90121070 127 134 135
0.70994984 0.11046416 0.90312536 119 124 128
0.70985841 0.13021640 0.90465703 128 134 137
0.71018642 0.14965713 0.90592576 167 173 171
0.70978724 0.17041467 0.90705044 159 164 164
0.71017889 0.19001766 0.90794949 152 155 153
0.70977976 0.21017383 0.90875626 143 144 145
0.71010713 0.22981592 0.90946804 163 171 169
0.71016813 0.24942599 0.91006856 149 154 154
0.70980622 0.27045489 0.91065341 167 170 168
0.70983261 0.29007960 0.91113344 151 153 152
0.71017486 0.30991422 0.91157278 142 144 144
0.71022593 0.32958209 0.91195779 141 144 144
0.70996104 0.34958617 0.91231028 130 136 137
0.70996585 0.37039883 0.91264590 143 149 148
0.70964503 0.39005540 0.91291802 149 156 155
0.70980513 0.40987160 0.91312397 137 143 143
0.70992218 0.43045977 0.91327451 40 41 41
0.70997765 0.45022639 0.91334587 0 0 0
0.71003665 0.46999855 0.91342178 0 0 0
0.71010080 0.48977748 0.91350430 0 0 0
0.71017105 0.50956440 0.91359466 0 0 0
0.73232518 -0.52457630 0.77980244 103 124 126
0.72991749 -0.52314004 0.78076209 103 124 124
0.73018403 -0.50958427 0.78165886 102 124 125
0.73007048 -0.49007545 0.78248537 103 122 124
0.73000374 -0.46973176 0.78251570 102 121 122
0.73018047 -0.44979013 0.78288826 100 120 122
0.73003671 -0.42956816 0.78357792 100 117 119
0.73018185 -0.40990628 0.78429551 99 116 118
0.73009717 -0.38967828 0.78504921 96 114 117
0.73006223 -0.37006673 0.78611380 94 113 115
0.72986381 -0.35023978 0.78716367 93 110 113
0.73005686 -0.33014004 0.78836656 90 108 112
0.72998967 -0.31032498 0.78986422 89 106 111
0.73027946 -0.29026348 0.79189760 89 103 109
0.72990652 -0.27030437 0.79371657 85 102 109
0.72988776 -0.25051954 0.79480161 85 101 106
0.73002742 -0.23022479 0.79610712 84 98 107
0.73002881 -0.21006733 0.79811942 84 97 105
0.72901804 -0.19597075 0.79954444 83 96 102
0.73064199 -0.18610766 0.80064527 83 94 100
0.73011221 -0.16971939 0.80291176 80 93 99
0.72997228 -0.14974554 0.80763122 74 83 88
0.72996724 -0.12998245 0.81070549 56 58 60
0.73012936 -0.11029023 0.81060424 56 58 60
0.72991383 -0.09013134 0.81096694 58 59 61
0.73007401 -0.06989626 0.81065141 60 63 64
0.72989909 -0.05677829 0.81518359 103 103 104
0.72977153 -0.05022833 0.83130122 125 129 126
0.73036429 -0.04317810 0.84704052 129 130 123
0.72981235 -0.03738146 0.85640806 146 148 139
0.73015879 -0.02742715 0.86710175 118 122 122
0.72991921 -0.01409233 0.87688799 141 143 145
0.72991827 -0.00426733 0.88181182 152 155 155
0.73001641 0.01028166 0.88708598 129 134 136
0.73002597 0.03033653 0.89241825 133 137 140
0.72995865 0.04987123 0.89612758 143 145 146
0.73008081 0.06870285 0.89882429 141 145 147
0.72999924 0.07887140 0.90007652 144 147 147
0.72998914 0.08973975 0.90123283 124 131 133
0.73003538 0.11026110 0.90314657 119 127 129
0.72988659 0.13015213 0.90468303 116 125 130
0.72995101 0.14990197 0.90596255 163 165 163
0.73018379 0.17041831 0.90706985 153 156 157
0.72979364 0.19039140 0.90798532 156 160 159
0.72998681 0.21000716 0.90877642 167 169 168
0.73023285 0.22963464 0.90947165 163 167 165
0.72981987 0.24983966 0.91009448 145 150 149
0.72992392 0.27025334 0.91065763 139 142 141
0.73032266 0.29008654 0.91115508 153 158 157
0.72995460 0.30986238 0.91159737 141 147 148
0.72992697 0.32993012 0.91199024 141 147 149
0.72968780 0.34959388 0.91233038 142 148 148
0.72994931 0.37022601 0.91265736 111 116 119
0.73016935 0.39006159 0.91293248 145 150 148
0.73034158 0.40988232 0.91314780 141 146 147
0.73047264 0.43047728 0.91331163 49 51 52
0.72988060 0.45013637 0.91338260 0 0 0
0.72980049 0.47001733 0.91345826 0 0 0
0.72986669 0.48979723 0.91354113 0 0 0
0.72993957 0.50958542 0.91363234 0 0 0
0.75155117 -0.52324195 0.77931317 106 123 123
0.74322132 -0.52251753 0.78026504 106 124 123
0.75780904 -0.51228681 0.77978334 106 123 125
0.74845510 -0.50972113 0.78071705 104 122 122
0.75921413 -0.49847224 0.77987093 101 122 124
0.74999354 -0.49001790 0.78153775 103 120 124
0.75017537 -0.46994595 0.78167705 104 119 122
0.75006482 -0.44992925 0.78226339 101 119 120
0.74999752 -0.42974035 0.78299550 100 116 118
0.75008500 -0.40972966 0.78408763 98 114 116
0.74989311 -0.39000050 0.78510917 99 112 116
0.74988464 -0.37014288 0.78638800 96 112 115
0.75006748 -0.35013491 0.78768774 90 111 114
0.74991651 -0.33017793 0.78867090 91 107 111
0.74994646 -0.31036068 0.78998795 89 106 110
0.75009068 -0.29008912 0.79220394 88 101 108
0.75010833 -0.26963240 0.79419441 87 101 108
0.74998163 -0.25001000 0.79529071 86 99 105
0.74999723 -0.23033808 0.79656699 85 98 105
0.75007137 -0.21022631 0.79860023 83 97 103
0.74815623 -0.19799880 0.79980375 80 97 101
0.75037655 -0.18805311 0.80089072 81 95 100
0.75007948 -0.16980002 0.80329121 80 93 98
0.74999560 -0.14978097 0.80763814 74 81 86
0.75021594 -0.12995487 0.81018673 56 58 60
0.75000320 -0.11031832 0.80995719 55 58 60
0.75033832 -0.09005912 0.81031910 57 59 61
0.75020769 -0.06982333 0.81038839 62 63 66
0.74962538 -0.05736827 0.81475678 100 100 99
0.75036954 -0.05128316 0.82961241 131 136 133
0.75000584 -0.04362627 0.84682585 126 128 125
0.75031848 -0.03746203 0.85666961 148 149 144
0.75013542 -0.02741529 0.86737112 124 128 128
0.74992338 -0.01414489 0.87708348 142 147 147
0.74990286 -0.00426830 0.88201267 155 158 157
0.75002180 0.01025588 0.88723314 139 143 145
0.74999031 0.03034965 0.89252759 131 136 138
0.75003493 0.04988592 0.89621208 150 154 153
0.75007046 0.06861577 0.89887610 140 142 143
0.74948915 0.07887598 0.90012879 145 150 149
0.74997784 0.08983939 0.90128752 124 133 135
0.75005917 0.11028410 0.90318554 116 124 128
0.75011490 0.13004491 0.90470913 123 132 136
0.74984499 0.15000090 0.90599442 158 163 163
0.75017019 0.17021772 0.90708390 165 171 170
0.74976374 0.19020972 0.90799799 167 170 169
0.75018619 0.20983808 0.90878640 155 158 157
0.74986168 0.23000451 0.90948381 145 147 147
0.74992704 0.24963881 0.91010074 147 151 150
0.75029732 0.27015847 0.91068741 159 165 164
0.75002569 0.29009322 0.91117615 162 167 165
0.74966300 0.30998797 0.91162429 152 159 157
0.74992112 0.32976566 0.91200662 160 164 163
0.75020323 0.34960127 0.91234969 139 143 143
0.75024027 0.37006058 0.91267381 115 121 118
0.74990657 0.39006839 0.91294841 129 131 131
0.75008806 0.40989202 0.91316937 121 125 125
0.75023173 0.43049267 0.91334426 78 81 80
0.74962632 0.45036469 0.91341844 0 0 0
0.74956620 0.47003627 0.91349509 0 0 0
0.74963484 0.48981740 0.91357873 0 0 0
0.74971167 0.50960774 0.91367236 0 0 0
0.76974971 -0.52238672 0.77742134 109 124 126
0.77006023 -0.51020722 0.77851366 105 124 124
0.77292373 -0.49196164 0.77920892 103 121 122
0.76508957 -0.48683872 0.78048380 103 121 123
0.77636522 -0.47149806 0.77963930 105 118 122
0.76701703 -0.46901438 0.78052510 104 119 122
0.77855109 -0.45658718 0.77993237 101 117 119
0.76973083 -0.44963952 0.78100945 102 117 120
0.77012509 -0.43022485 0.78205676 99 115 119
0.77020379 -0.41006410 0.78360035 96 114 117
0.77002005 -0.38984584 0.78507138 96 112 117
0.77007129 -0.37027182 0.78659725 93 111 114
0.77017712 -0.35053326 0.78785785 91 109 113
0.76994561 -0.33034507 0.78879389 88 107 110
0.77002880 -0.31031604 0.78990478 89 105 111
0.76998292 -0.28992283 0.79212753 88 102 107
0.77005341 -0.26939918 0.79425354 86 100 108
0.76994881 -0.24978201 0.79539762 86 98 106
0.77002868 -0.23035334 0.79668629 83 98 103
0.77000424 -0.21022961 0.79880796 83 97 102
0.76440583 -0.19936756 0.79995898 80 97 101
0.77021227 -0.18965476 0.80091479 78 95 100
0.76997653 -0.16972387 0.80319899 82 93 99
0.77011690 -0.14962367 0.80718894 72 80 85
0.77031414 -0.12980280 0.80923457 56 58 59
0.76997458 -0.11017120 0.80887799 55 58 59
0.77026892 -0.09005427 0.80942056 57 59 62
0.76993893 -0.06967519 0.80983940 63 65 66
0.76971675 -0.05746490 0.81489875 99 101 101
0.77011214 -0.05130931 0.83029729 136 141 138
0.77008101 -0.04360827 0.84753485 128 131 129
0.76991247 -0.03747886 0.85705352 146 151 145
0.76995088 -0.02742477 0.86766364 127 132 132
0.77016682 -0.01410011 0.87735886 136 142 142
0.76991234 -0.00426937 0.88223169 152 155 154
0.76998024 0.01029427 0.88740672 139 142 144
0.76994534 0.03046411 0.89264312 135 140 142
0.77005014 0.04984481 0.89628703 131 134 137
0.76975824 0.06813215 0.89888099 142 146 147
0.77098019 0.07823887 0.90012047 142 144 144
0.77003125 0.08988190 0.90133970 122 131 132
0.77002470 0.11037425 0.90323047 123 129 133
0.77014437 0.12998058 0.90473428 125 134 137
0.77004838 0.14986252 0.90601314 166 171 170
0.76983400 0.17057154 0.90712214 163 166 165
0.77017934 0.19021301 0.90801378 148 152 152
0.76987798 0.21013175 0.90880886 154 158 155
0.76986839 0.22982416 0.90950049 157 161 160
0.77028413 0.24954185 0.91012524 153 157 157
0.76998027 0.27038014 0.91071552 162 167 165
0.76972075 0.29009653 0.91118666 153 157 154
0.77009691 0.30993436 0.91163197 161 167 163
0.77030006 0.32966739 0.91201786 148 152 150
0.76993264 0.34960938 0.91237087 129 132 132
0.76995150 0.37041957 0.91269703 124 126 122
0.76964794 0.39007696 0.91296846 123 127 126
0.76983638 0.40990218 0.91319198 110 117 118
0.76978368 0.43009658 0.91337222 105 109 109
0.77026044 0.44983885 0.91345370 0 0 0
0.77012515 0.47005655 0.91353449 0 0 0
0.77019664 0.48983914 0.91361929 0 0 0
0.77027844 0.50963226 0.91371632 0 0 0
0.78868843 -0.52171945 0.77487103 110 126 128
0.78990396 -0.51017366 0.77603880 107 125 126
0.79006138 -0.48998703 0.77741787 104 120 122
0.79002414 -0.46996012 0.77849141 103 118 121
0.79048004 -0.45087497 0.77927233 99 117 119
0.78274992 -0.44351793 0.78024993 97 116 120
0.79681757 -0.43769040 0.77983911 99 116 120
0.78948611 -0.42914489 0.78078676 96 115 117
0.78987313 -0.41007125 0.78249107 95 114 117
0.79007199 -0.38996061 0.78420597 95 112 114
0.79000425 -0.36992121 0.78600911 95 110 113
0.79004336 -0.35019792 0.78749333 91 107 112
0.79017245 -0.33025131 0.78857127 88 105 110
0.79001232 -0.31015233 0.78973680 89 104 109
0.78980406 -0.29019804 0.79176030 87 102 108
0.79022955 -0.26993359 0.79410181 86 99 108
0.79006570 -0.24991323 0.79532397 83 99 104
0.79015381 -0.23029860 0.79643016 81 98 104
0.79000474 -0.21022364 0.79845449 82 96 101
0.79508934 -0.19794707 0.79978446 79 95 99
0.78945599 -0.18884464 0.80079542 78 94 100
0.79003556 -0.16966944 0.80284309 79 92 100
0.79008717 -0.14951671 0.80644072 72 79 83
0.79027335 -0.12963568 0.80819031 55 57 58
0.78998260 -0.11003665 0.80789295 54 58 59
0.79000157 -0.08990005 0.80872445 57 59 61
0.78983088 -0.06974762 0.80946333 62 65 66
0.78989294 -0.05749810 0.81536993 102 104 103
0.79022268 -0.05137062 0.83043901 139 142 137
0.79006160 -0.04371791 0.84772599 127 129 128
0.78982997 -0.03753320 0.85744922 149 151 147
0.78995840 -0.02741552 0.86801704 132 135 134
0.79000222 -0.01466168 0.87729333 135 141 140
0.79024388 -0.00487438 0.88215578 150 153 152
0.78998718 0.01028656 0.88754631 138 140 142
0.78989750 0.03036474 0.89270388 128 133 135
0.78998988 0.04986889 0.89635777 135 140 141
0.78994219 0.06787585 0.89892240 146 152 151
0.78997054 0.07810118 0.90016363 149 155 155
0.79003037 0.08995334 0.90139800 127 136 138
0.78999254 0.11046434 0.90327556 113 119 126
0.78997344 0.13015102 0.90477463 127 133 137
0.79018824 0.14969356 0.90602477 156 160 159
0.78987419 0.17048684 0.90713665 158 163 162
0.79021658 0.19002742 0.90802689 151 159 159
0.78977485 0.21007482 0.90882658 159 165 164
0.79026117 0.22977347 0.90952085 162 168 166
0.78994870 0.24976050 0.91014539 149 152 153
0.78978690 0.27027089 0.91071655 155 157 155
0.79020930 0.29010191 0.91120358 135 139 137
0.79011501 0.30974022 0.91163661 135 138 139
0.79000745 0.32988633 0.91204159 137 144 145
0.78966331 0.34961765 0.91239245 131 134 133
0.78994511 0.37025061 0.91271804 121 129 129
0.79017949 0.39008568 0.91298885 126 134 134
0.79037573 0.40991278 0.91321558 127 135 135
0.79002293 0.42955874 0.91339957 136 141 139
0.78982245 0.44950726 0.91348844 0 0 0
0.78989667 0.47007702 0.91357427 0 0 0
0.78997128 0.48986127 0.91366056 0 0 0
0.79005709 0.50965652 0.91375980 0 0 0
0.80857454 -0.52116176 0.77338132 110 126 127
0.81011710 -0.51012253 0.77451512 107 125 125
0.80970884 -0.48980739 0.77600193 102 120 122
0.80998199 -0.47008232 0.77732820 101 116 119
0.80996721 -0.44990934 0.77837574 97 115 116
0.81070049 -0.43447654 0.77956571 96 113 116
0.80915354 -0.42439412 0.78044532 94 113 116
0.80986163 -0.40980183 0.78174700 96 112 115
0.80990691 -0.39028277 0.78351211 94 111 114
0.81011959 -0.37008451 0.78524156 92 108 112
0.80997309 -0.34998431 0.78697459 88 106 111
0.81004038 -0.33025912 0.78822066 88 104 109
0.80989410 -0.31026279 0.78945303 86 102 107
0.80992329 -0.29034237 0.79126732 84 102 108
0.80980830 -0.27050449 0.79348378 84 99 106
0.80996843 -0.25032362 0.79457955 83 98 103
0.80994595 -0.22999536 0.79531852 80 97 103
0.80994481 -0.20992446 0.79734482 80 95 101
0.81165536 -0.19175860 0.79922474 77 94 100
0.80553545 -0.18423029 0.80039483 78 94 99
0.81953881 -0.17877688 0.79993951 77 93 100
0.81000369 -0.16955565 0.80190162 80 91 98
0.80978865 -0.14984805 0.80539887 71 79 82
0.81010027 -0.12995424 0.80693019 54 56 57
0.80998763 -0.11001915 0.80669821 54 57 58
0.80967443 -0.09004872 0.80776112 57 59 62
0.81012150 -0.06993853 0.80878421 62 65 66
0.80941390 -0.05770148 0.81585662 100 104 104
0.81024992 -0.05155354 0.83028927 143 145 141
0.81005489 -0.04366561 0.84777505 135 137 135
0.80994150 -0.03746939 0.85766337 150 152 150
0.81002340 -0.02757930 0.86803674 139 141 140
0.81014112 -0.01485982 0.87735916 128 133 134
0.80995636 -0.00503053 0.88223072 144 150 149
0.81003359 0.01028778 0.88766009 134 139 140
0.80996497 0.03040422 0.89278627 123 128 130
0.80998935 0.04985712 0.89641369 134 140 142
0.80998037 0.06789119 0.89898106 147 152 152
0.81024949 0.07810627 0.90022231 153 158 156
0.81009072 0.08993898 0.90144757 132 139 141
0.81002321 0.11048736 0.90331574 124 129 134
0.80987302 0.13025319 0.90481242 111 121 124
0.81002048 0.14986998 0.90605797 160 166 164
0.81015913 0.17037781 0.90715240 162 166 166
0.80983283 0.19041102 0.90805999 160 162 161
0.81015152 0.21002182 0.90883997 148 153 152
0.81005320 0.22978435 0.90953355 151 153 150
0.80974840 0.24965295 0.91015250 146 148 146
0.81026094 0.27027445 0.91072858 140 143 142
0.81005001 0.28999900 0.91121903 150 154 150
0.80981107 0.31013948 0.91167010 151 157 156
0.80986761 0.32978440 0.91205837 150 154 153
0.81018314 0.34962581 0.91241371 156 161 160
0.81024249 0.37008701 0.91273900 146 152 151
0.80992619 0.39009595 0.91301293 139 145 146
0.81012527 0.40992255 0.91323735 132 137 137
0.80975499 0.42990937 0.91342881 127 132 133
0.80959186 0.44952573 0.91352598 3 3 3
0.80967107 0.47009816 0.91361534 0 0 0
0.80974984 0.48988468 0.91370421 0 0 0
0.80983925 0.50968179 0.91380510 0 0 0
0.83005152 -0.52091950 0.77303276 104 121 125
0.83013052 -0.50980397 0.77429341 105 121 123
0.82972611 -0.49007695 0.77601106 100 119 119
0.82982923 -0.46962784 0.77701646 97 114 116
0.82997487 -0.44953846 0.77805576 94 113 115
0.82921625 -0.43305214 0.77941531 95 111 114
0.83162922 -0.42341643 0.78033002 95 110 115
0.82972497 -0.41007431 0.78158964 93 110 114
0.83006218 -0.39015452 0.78350306 91 108 113
0.82991003 -0.36988521 0.78507179 91 107 111
0.82984688 -0.34971911 0.78643140 88 104 108
0.82984885 -0.33002031 0.78797913 85 102 107
0.83008049 -0.31020026 0.78962596 84 102 106
0.82994397 -0.29019733 0.79119438 84 100 105
0.82986214 -0.27044007 0.79311655 83 98 104
0.83012334 -0.25024478 0.79419285 82 98 103
0.82999435 -0.22978880 0.79481705 80 96 100
0.82996247 -0.20960611 0.79654958 80 94 100
0.82977638 -0.18971370 0.79826717 77 94 99
0.83248784 -0.17682536 0.79948636 74 92 98
0.82906907 -0.16747422 0.80111722 78 92 96
0.83006729 -0.15048453 0.80418476 71 78 81
0.82991077 -0.12977080 0.80570590 53 55 57
0.83015226 -0.10962979 0.80540526 54 56 59
0.82979790 -0.09034652 0.80665048 56 58 60
0.82996691 -0.07042961 0.80817843 61 63 65
0.82968500 -0.05831778 0.81644185 97 99 99
0.82975724 -0.05192584 0.83072111 145 147 140
0.83008343 -0.04363393 0.84784603 136 137 134
0.82992347 -0.03753675 0.85753125 151 153 146
0.83003856 -0.02736179 0.86826882 144 147 145
0.82986851 -0.01486007 0.87737381 131 134 135
0.82990140 -0.00503066 0.88224462 139 145 145
0.83000932 0.01028819 0.88769287 134 141 143
0.82993505 0.03039599 0.89281538 119 126 129
0.83003112 0.04992949 0.89645676 126 133 136
0.82999462 0.06791545 0.89901202 145 151 151
0.83050398 0.07810882 0.90025163 164 168 168
0.83001076 0.08986579 0.90146803 135 142 145
0.83004142 0.11024380 0.90331875 117 125 129
0.83002817 0.13011655 0.90482163 118 126 128
0.82984726 0.15004494 0.90608343 153 159 157
0.83013312 0.17029084 0.90715926 155 159 158
0.82986166 0.19022311 0.90806199 148 152 152
0.83017193 0.20981987 0.90884722 153 159 158
0.82977308 0.22993899 0.90955128 149 156 154
0.83021120 0.24965664 0.91016587 150 157 154
0.83007475 0.27016742 0.91073720 143 147 145
0.82973280 0.29021376 0.91123357 147 149 146
0.83002089 0.30995232 0.91168476 163 167 164
0.83037567 0.32979019 0.91207444 155 158 156
0.82990834 0.34963101 0.91242725 163 167 163
0.82995559 0.37044555 0.91276106 141 145 144
0.82967117 0.39010494 0.91303398 146 148 146
0.82987332 0.40993112 0.91325644 126 131 130
0.83005095 0.42975406 0.91345190 115 118 120
0.83015561 0.44954594 0.91356705 16 16 16
0.83023893 0.47012049 0.91365873 0 0 0
0.83032212 0.48990938 0.91375027 0 0 0
0.83041505 0.50970825 0.91385254 0 0 0
0.85167377 -0.52131566 0.77358217 101 121 122
0.84984168 -0.51021301 0.77494163 102 118 120
0.84995906 -0.49011650 0.77687359 99 116 116
0.84958370 -0.46975912 0.77759063 94 112 114
0.84984026 -0.44998705 0.77879165 93 109 113
0.85943776 -0.44086407 0.78009880 89 108 111
0.84567586 -0.43689671 0.77969169 93 109 113
0.85101185 -0.42814146 0.78069819 92 108 112
0.85001840 -0.41000897 0.78214284 91 108 113
0.85000763 -0.38988011 0.78385407 88 108 111
0.84999114 -0.36963724 0.78540611 87 106 109
0.84997830 -0.34972949 0.78665719 86 102 106
0.84986853 -0.32984856 0.78803077 85 101 107
0.84990022 -0.31027688 0.78969329 83 100 105
0.85003053 -0.29053076 0.79141797 83 99 103
0.84992416 -0.27047405 0.79319891 83 97 103
0.85003344 -0.25024620 0.79419773 83 96 103
0.85001770 -0.22990343 0.79490796 81 95 100
0.84995051 -0.20965340 0.79639387 80 93 100
0.84994015 -0.19009806 0.79764553 78 92 100
0.84999032 -0.17523204 0.79916458 78 91 100
0.84977329 -0.16519003 0.80066056 80 91 97
0.84992350 -0.15025179 0.80323914 69 78 81
0.84962752 -0.13038537 0.80456751 52 54 57
0.85011617 -0.11023938 0.80428471 52 54 56
0.84996487 -0.09024957 0.80603757 55 56 60
0.84991034 -0.07025565 0.80818064 61 63 65
0.85008300 -0.05900393 0.81666451 78 78 80
0.84944899 -0.05317194 0.82992045 143 147 142
0.85036644 -0.04406755 0.84758274 132 134 130
0.84998416 -0.03747017 0.85768108 154 155 149
0.84995970 -0.02741211 0.86822590 146 150 148
0.84991199 -0.01483138 0.87733676 142 146 144
0.84999813 -0.00501386 0.88219638 137 141 141
0.85003496 0.01024265 0.88764011 139 145 145
0.84985768 0.03040456 0.89279629 117 125 128
0.85003275 0.04986831 0.89643436 122 130 133
0.85005086 0.06792625 0.89901011 138 143 145
0.85035770 0.07807761 0.90025067 142 148 149
0.84990573 0.08987608 0.90146798 130 137 138
0.84997375 0.11032884 0.90332122 122 129 133
0.85015996 0.12997624 0.90480575 120 127 132
0.84996413 0.14987154 0.90606787 156 162 161
0.84984275 0.17058090 0.90717182 156 164 163
0.85020491 0.19016751 0.90806242 155 160 160
0.84979628 0.21023076 0.90886834 166 171 170
0.85009053 0.22983769 0.90955430 154 161 158
0.85012779 0.24947867 0.91016230 154 158 157
0.84973761 0.27038147 0.91073995 138 141 141
0.85007961 0.29010962 0.91122777 130 132 131
0.85020213 0.30975454 0.91166817 147 149 146
0.85007980 0.32978964 0.91207291 143 145 143
0.84961775 0.34962946 0.91242319 139 141 140
0.84993752 0.37027031 0.91276658 150 153 150
0.85019050 0.39010677 0.91303826 135 136 131
0.85040465 0.40993643 0.91326823 123 128 127
0.84987254 0.42970203 0.91346856 138 144 143
0.84992180 0.44956097 0.91359756 34 35 35
0.85001127 0.47013851 0.91369373 0 0 0
0.85010154 0.48993109 0.91379074 0 0 0
0.85019855 0.50973194 0.91389502 0 0 0
0.87052557 -0.52170659 0.77522704 99 116 119
0.86982638 -0.51013325 0.77667129 101 116 119
0.86989194 -0.49007463 0.77825302 97 113 115
0.86972814 -0.47057765 0.77911561 92 109 113
0.87754805 -0.46191146 0.78010755 89 107 113
0.86399801 -0.45397601 0.77963929 89 106 114
0.87235950 -0.44834533 0.78057539 88 105 110
0.87003969 -0.42999413 0.78158626 90 104 108
0.87009092 -0.41007976 0.78286006 90 106 111
0.86980471 -0.38992208 0.78444639 88 104 110
0.87001602 -0.37017717 0.78627582 86 104 106
0.87011962 -0.35037585 0.78783911 88 100 106
0.86987133 -0.33026071 0.78904083 86 99 105
0.86981979 -0.31008269 0.79046128 84 99 105
0.86991647 -0.29009753 0.79207350 82 97 103
0.86973420 -0.27028182 0.79373563 82 97 101
0.86955893 -0.25022684 0.79457764 80 95 102
0.86991975 -0.22997623 0.79526720 79 94 98
0.86976902 -0.20969947 0.79664136 79 93 100
0.86991830 -0.19001215 0.79782223 78 91 99
0.86970688 -0.17531330 0.79928437 78 90 98
0.87020467 -0.16528419 0.80070948 77 92 96
0.87004770 -0.15027335 0.80309274 71 77 81
0.86985433 -0.13040502 0.80436350 52 54 56
0.87006839 -0.11009006 0.80413818 51 53 56
0.87011081 -0.09029753 0.80598233 54 56 58
0.86981422 -0.07038437 0.80851826 60 62 65
0.86997152 -0.05906044 0.81744779 80 83 85
0.86961828 -0.05356896 0.83044751 140 145 142
0.86999653 -0.04434824 0.84795248 135 137 136
0.87004889 -0.03751714 0.85792729 151 154 150
0.87003359 -0.02755130 0.86812624 148 152 150
0.87005093 -0.01490534 0.87721495 145 150 148
0.87005462 -0.00501323 0.88210229 136 140 140
0.87002662 0.01028691 0.88758040 137 143 143
0.86985369 0.03040231 0.89272999 121 130 132
0.87005780 0.04989052 0.89638396 129 137 137
0.87014235 0.06790123 0.89896868 142 148 148
0.86975337 0.07813776 0.90022658 158 165 163
0.86995203 0.08987292 0.90143763 133 138 139
0.86994081 0.11039150 0.90329560 114 124 126
0.87006961 0.13006502 0.90478285 117 126 131
0.87012133 0.14972455 0.90603484 158 162 162
0.86984928 0.17048912 0.90714880 159 163 161
0.87013685 0.19009338 0.90804193 150 154 153
0.86984812 0.21002284 0.90884429 156 160 158
0.87019709 0.22965069 0.90953529 146 149 148
0.86976366 0.24982679 0.91016067 152 155 152
0.87007672 0.27027419 0.91072780 140 143 140
0.87016565 0.28991705 0.91121658 136 140 135
0.86986128 0.31013963 0.91165997 134 136 134
0.86976925 0.32978356 0.91205605 148 149 145
0.87011243 0.34962667 0.91241589 144 149 148
0.87032365 0.37016222 0.91275628 157 160 156
0.86991513 0.39010600 0.91303641 134 137 137
0.87013933 0.40993800 0.91327171 143 149 148
0.86960734 0.42982227 0.91347776 136 143 143
0.86967822 0.44957027 0.91361640 53 55 55
0.86977709 0.47015217 0.91372026 0 0 0
0.86987459 0.48994821 0.91382267 0 0 0
0.86997674 0.50975145 0.91392998 0 0 0
0.89027074 -0.52261745 0.77780135 99 111 114
0.88937130 -0.51069499 0.77876469 97 112 114
0.89817176 -0.50401187 0.78016969 98 109 114
0.88502612 -0.49224056 0.77937929 95 112 114
0.89368198 -0.48830646 0.78062022 91 110 112
0.88217376 -0.47488155 0.77986832 93 107 111
0.89070583 -0.46930051 0.78076672 91 105 109
0.88996910 -0.45013929 0.78150525 87 103 109
0.89003755 -0.43017084 0.78269955 86 102 105
0.88969036 -0.40996503 0.78397716 88 101 105
0.89002402 -0.39004246 0.78579214 86 102 107
0.88992549 -0.36987246 0.78765633 83 102 106
0.89003645 -0.34981017 0.78953060 86 99 106
0.89004009 -0.32994127 0.79086959 84 98 105
0.88998814 -0.30989441 0.79203999 81 98 102
0.88991007 -0.28979919 0.79335693 79 97 101
0.88990803 -0.26968268 0.79482758 79 95 100
0.88996341 -0.24997941 0.79553222 80 93 100
0.89007715 -0.23024172 0.79620788 78 94 98
0.89011466 -0.20996666 0.79768150 79 92 98
0.89029870 -0.18970911 0.79880859 75 91 96
0.88761589 -0.17707118 0.79967776 76 91 96
0.89067246 -0.16790254 0.80088681 77 90 95
0.89000107 -0.15039402 0.80321471 69 77 80
0.89026661 -0.13042449 0.80465291 52 53 55
0.89011136 -0.11008071 0.80449134 50 51 54
0.89004383 -0.09030122 0.80623779 53 54 57
0.89002763 -0.07052652 0.80942729 59 61 64
0.88865488 -0.05921512 0.81795618 88 89 93
0.88955056 -0.05395314 0.83077285 142 145 144
0.89026226 -0.04466135 0.84832700 135 136 134
0.88912333 -0.03809197 0.85773207 155 158 157
0.89026081 -0.02804728 0.86784973 149 153 150
0.88988971 -0.01412052 0.87759132 137 142 142
0.89011116 -0.00429884 0.88233574 136 139 138
0.88994751 0.01031313 0.88750728 139 143 143
0.88990701 0.03038177 0.89266044 122 130 131
0.89001362 0.04991783 0.89633224 126 134 135
0.89015986 0.06787577 0.89892368 140 149 148
0.88956006 0.07810247 0.90017848 160 167 165
0.88998320 0.08989669 0.90139541 138 147 147
0.88995964 0.11042458 0.90326037 120 131 133
0.88997214 0.13015280 0.90475357 125 133 136
0.89002466 0.14980473 0.90600786 160 164 162
0.89014637 0.17042738 0.90711815 150 154 153
0.88978433 0.19039848 0.90803090 143 145 145
0.89018977 0.20996120 0.90882032 142 149 150
0.88981505 0.23001697 0.90953304 157 163 159
0.88996167 0.24964844 0.91013609 140 145 145
0.89016836 0.27006406 0.91070305 142 147 146
0.88981621 0.29029340 0.91121147 124 132 131
0.88985505 0.30993657 0.91163847 139 143 139
0.89024163 0.32977578 0.91203452 140 145 143
0.89006775 0.34944382 0.91240167 150 157 155
0.89001585 0.37037112 0.91274431 152 155 154
0.88963274 0.39010217 0.91302742 145 149 148
0.88986856 0.40993698 0.91326943 145 148 147
0.89007530 0.42976807 0.91348160 143 149 148
0.89022098 0.44957752 0.91363108 74 76 75
0.89033033 0.47016403 0.91374330 0 0 0
0.89043145 0.48996130 0.91384708 0 0 0
0.88993957 0.50961585 0.91395406 0 0 0
0.90352107 -0.52324517 0.77924468 94 111 114
0.91381441 -0.52369537 0.78116563 96 108 111
0.90209833 -0.51689230 0.77973826 93 109 112
0.91048707 -0.50944081 0.78136105 92 107 111
0.91007494 -0.49009300 0.78218066 92 106 111
0.91006135 -0.46992066 0.78266043 88 102 106
0.90998375 -0.44998035 0.78332283 86 100 107
0.91013513 -0.43000657 0.78445560 84 100 106
0.91001358 -0.40999102 0.78597267 84 100 105
0.90987369 -0.39003199 0.78774797 83 99 106
0.91019070 -0.37011411 0.78946950 81 100 104
0.91006399 -0.35015231 0.79102295 84 98 106
0.90996108 -0.33012601 0.79233618 83 98 103
0.90999821 -0.31023565 0.79350561 82 96 101
0.90992585 -0.29008581 0.79468076 79 96 100
0.90980116 -0.26980907 0.79577618 79 94 98
0.91010086 -0.25015879 0.79626884 78 94 98
0.90993802 -0.23032162 0.79672943 77 93 97
0.91006978 -0.21005864 0.79805417 78 91 96
0.91009197 -0.18960410 0.79920641 76 88 96
0.90939716 -0.17860153 0.79992828 71 89 92
0.91015928 -0.16917992 0.80093775 74 90 95
0.91004095 -0.15041589 0.80350683 68 76 80
0.91010772 -0.13043499 0.80478963 51 52 55
0.90999795 -0.11042114 0.80456675 49 50 53
0.91002669 -0.09041407 0.80638112 50 53 55
0.91017637 -0.07056933 0.81017620 59 62 64
0.91044725 -0.05982802 0.81826690 70 72 76
0.90981631 -0.05496667 0.82989045 140 144 140
0.91001758 -0.04515686 0.84855428 137 139 136
0.90968868 -0.03827430 0.85824995 152 158 153
0.91012889 -0.02813356 0.86810390 146 150 148
0.90970040 -0.01418870 0.87760086 139 145 143
0.91035860 -0.00446679 0.88225011 137 141 139
0.90996702 0.01023128 0.88744232 138 144 143
0.90992485 0.03041735 0.89262965 116 123 128
0.90998082 0.04988494 0.89628403 123 133 134
0.91003334 0.06789499 0.89888581 137 145 146
0.90974932 0.07809927 0.90014158 155 164 162
0.91002128 0.08992134 0.90136181 143 149 149
0.91004312 0.11041100 0.90322763 120 128 132
0.90994445 0.13018394 0.90472533 121 127 130
0.90992869 0.14991446 0.90598481 162 167 165
0.91020645 0.17022954 0.90708280 160 165 163
0.90984726 0.19021069 0.90800266 155 160 158
0.91011327 0.20987699 0.90880046 155 161 161
0.90978059 0.22982523 0.90950496 160 164 161
0.91021907 0.24950019 0.91011386 151 156 155
0.90980850 0.27046958 0.91069852 148 153 151
0.90989641 0.29009926 0.91119517 154 159 157
0.91032306 0.30993110 0.91162242 131 136 136
0.90999746 0.32970888 0.91201491 116 122 125
0.90974217 0.34978890 0.91239030 153 158 155
0.90984852 0.37025430 0.91272704 133 139 138
0.91014277 0.39009996 0.91302221 151 154 151
0.91038960 0.40993715 0.91326980 140 145 144
0.90988596 0.42971003 0.91348551 135 139 138
0.90997556 0.44958514 0.91364651 77 78 78
0.91009342 0.47017512 0.91376484 0 0 0
0.91019614 0.48997251 0.91386798 0 0 0
0.90968406 0.50991925 0.91397491 0 0 0
0.93009514 -0.52444850 0.78314816 89 104 108
0.92983626 -0.51002653 0.78336495 89 103 110
0.92999594 -0.48981318 0.78361645 88 102 108
0.92997159 -0.47012357 0.78420456 87 100 105
0.92986893 -0.44988817 0.78513344 85 98 105
0.93000183 -0.42990332 0.78632485 83 98 103
0.93019459 -0.41015073 0.78809193 82 98 104
0.92993193 -0.38994495 0.78980290 82 97 104
0.93004527 -0.36982739 0.79131659 80 99 101
0.92997143 -0.34982097 0.79255333 80 96 101
0.93001008 -0.32980019 0.79375409 81 94 101
0.93009008 -0.30974558 0.79495902 81 94 99
0.93009608 -0.29000694 0.79619956 79 93 97
0.92993889 -0.27015408 0.79692508 77 93 99
0.93039141 -0.24980974 0.79718368 78 92 97
0.92995257 -0.22988636 0.79744178 76 91 95
0.93005659 -0.20998725 0.79824561 74 89 94
0.92980226 -0.18984706 0.79931354 74 86 92
0.93581236 -0.18018502 0.80005280 73 89 93
0.92324162 -0.17877793 0.79994423 76 89 94
0.93013146 -0.16977329 0.80098986 74 88 94
0.92990837 -0.15036066 0.80352070 67 75 79
0.92982625 -0.13037125 0.80452689 49 51 53
0.92989623 -0.11020157 0.80442894 48 50 52
0.92989163 -0.09027043 0.80627153 50 52 54
0.92992786 -0.07048343 0.81042974 59 62 64
0.93060364 -0.05989656 0.81920429 69 75 77
0.92971297 -0.05513774 0.83094607 140 145 141
0.93021622 -0.04539697 0.84926924 139 143 138
0.92900950 -0.03836323 0.85885598 151 156 148
0.93023758 -0.02831814 0.86836454 141 148 145
0.92997066 -0.01486058 0.87738754 144 149 148
0.93000564 -0.00502957 0.88204396 140 147 146
0.93007149 0.01025823 0.88744078 134 142 141
0.92990321 0.03039820 0.89260709 121 128 130
0.93003398 0.04987876 0.89626230 117 126 128
0.92999546 0.06786020 0.89885931 144 150 149
0.92995580 0.07809766 0.90012301 166 170 167
0.93007445 0.08991917 0.90134219 151 155 155
0.93002176 0.11037148 0.90320909 118 126 129
0.93006508 0.13015610 0.90471086 115 124 129
0.92991001 0.14999801 0.90597707 152 156 155
0.92997062 0.17046934 0.90708666 141 147 146
0.93017968 0.19015311 0.90799371 146 150 147
0.92978331 0.21020424 0.90880035 149 153 151
0.93020405 0.22982210 0.90949258 158 163 161
0.92992358 0.24973047 0.91011240 145 149 148
0.92985211 0.27026224 0.91068747 140 143 139
0.93030107 0.29004070 0.91118688 142 145 144
0.93001917 0.30993118 0.91162268 124 131 132
0.92969334 0.32982503 0.91201607 123 127 128
0.93000392 0.34961318 0.91238062 139 142 140
0.93035702 0.37025430 0.91272704 131 136 133
0.92987041 0.39010061 0.91302374 124 129 129
0.93012765 0.40994009 0.91327632 145 148 146
0.92962498 0.42983177 0.91349788 122 130 129
0.92973771 0.44959608 0.91366870 75 79 79
0.92985919 0.47018708 0.91378808 0 0 0
0.92996173 0.48998369 0.91388886 0 0 0
0.93006614 0.50978573 0.91399147 0 0 0
0.95085385 -0.52513493 0.78497027 89 101 106
0.94339108 -0.51952486 0.77011669 93 105 102
0.95019402 -0.51033855 0.78502187 88 101 106
0.95059090 -0.48983271 0.78485803 87 100 105
0.95114035 -0.47026106 0.78529360 87 98 104
0.95038755 -0.45013944 0.78678724 84 97 103
0.95016322 -0.42994527 0.78808472 83 95 103
0.95009382 -0.40997155 0.78992729 82 96 101
0.95015623 -0.39021848 0.79161734 79 95 102
0.95020959 -0.37024296 0.79284307 80 94 100
0.95004100 -0.35029667 0.79387585 77 96 100
0.95000911 -0.33028673 0.79518812 80 94 99
0.95001390 -0.31015768 0.79642083 78 94 98
0.94991021 -0.28998133 0.79760311 77 92 97
0.95022210 -0.27013812 0.79821610 78 91 98
0.95024429 -0.25013949 0.79823485 77 91 97
0.94978880 -0.23000149 0.79827502 77 88 96
0.95012049 -0.21035779 0.79878405 75 88 94
0.94939619 -0.19197856 0.79955536 74 85 92
0.95147268 -0.18189152 0.80018298 72 85 92
0.95003804 -0.17006312 0.80126170 73 85 91
0.95006540 -0.15046160 0.80364603 67 74 79
0.95009898 -0.13036959 0.80441122 48 49 53
0.95018255 -0.11035057 0.80440926 46 49 52
0.95006048 -0.08972492 0.80670377 49 51 54
0.95000929 -0.06989814 0.81130073 57 60 62
0.94806884 -0.05992650 0.81961384 85 84 88
0.95008332 -0.05588994 0.83004777 141 145 143
0.94992217 -0.04593019 0.84938136 140 143 141
0.94969774 -0.03904545 0.85888112 140 146 144
0.95008872 -0.02893742 0.86823599 144 149 147
0.94988744 -0.01486385 0.87757440 141 148 147
0.94993853 -0.00503023 0.88214961 138 145 144
0.95012921 0.01028591 0.88750051 136 141 141
0.94992030 0.03038036 0.89262188 119 128 129
0.95005235 0.04993963 0.89628075 114 124 125
0.94997857 0.06792661 0.89886686 141 145 147
0.95017789 0.07809739 0.90011990 156 162 162
0.95008444 0.08982434 0.90132974 148 154 153
0.94995296 0.11030519 0.90320133 125 134 135
0.95007251 0.12993418 0.90469807 123 129 135
0.95003635 0.14979984 0.90597248 162 166 164
0.94987454 0.17056525 0.90709782 156 162 161
0.95014162 0.19008565 0.90800500 161 168 164
0.94991512 0.21001244 0.90879920 155 161 158
0.95013175 0.22965260 0.90949428 160 167 164
0.94977376 0.24969889 0.91011520 148 155 152
0.95020659 0.27016000 0.91069223 144 149 146
0.95000054 0.29016326 0.91120866 153 158 156
0.94973448 0.30993754 0.91164135 145 152 150
0.95013267 0.32977182 0.91202359 118 125 127
0.95015885 0.34941091 0.91238309 136 139 138
0.95007463 0.37025351 0.91272505 127 132 131
0.94960313 0.39010334 0.91303010 131 137 138
0.94986973 0.40994464 0.91328643 142 149 148
0.95010485 0.42978263 0.91351249 143 149 149
0.95029139 0.44960748 0.91369183 101 106 107
