ply
format ascii 1.0
element vertex 1104
property float x
property float y
property float z
property uchar red
property uchar green
property uchar blue
end_header
0.34986800 -0.54984721 0.97390721 43 42 51
0.34973673 -0.53007037 0.97415906 40 39 47
0.34986110 -0.51012785 0.97495112 40 39 49
0.35866638 -0.50106189 0.98003429 48 48 59
0.34931289 -0.48993254 0.97517122 44 44 60
0.35886725 -0.48947706 0.98058313 56 58 66
0.34981660 -0.46937642 0.97559653 43 44 58
0.35879270 -0.47582107 0.98037943 38 39 45
0.35015374 -0.44995036 0.97541681 26 24 33
0.34516144 -0.44117827 0.99979484 51 56 65
0.35047869 -0.44344280 1.01378574 45 46 57
0.34918294 -0.43685372 0.97609753 22 19 28
0.34916487 -0.43718022 0.98746672 36 36 45
0.35009375 -0.43029706 1.01457575 28 27 33
0.34988180 -0.40956571 1.01180478 27 26 31
0.35029208 -0.38956313 1.00874971 28 27 35
0.34985330 -0.37036114 1.00558205 29 28 37
0.35002173 -0.35030642 1.00241276 31 30 39
0.34986720 -0.32757295 0.99894464 23 21 29
0.35016862 -0.33753651 1.00045766 29 28 37
0.35001451 -0.31051528 0.99659757 20 18 26
0.34993260 -0.29018643 0.99415113 24 22 31
0.35020105 -0.26972283 0.99204134 28 27 38
0.34988434 -0.25040016 0.99037310 38 38 54
0.34988182 -0.23030059 0.98905117 44 46 76
0.35016249 -0.20953713 0.98825031 45 49 86
0.35008882 -0.18975064 0.98850893 39 40 61
0.34970932 -0.17009280 0.98988957 43 44 66
0.35004534 -0.15079045 0.99236397 50 50 73
0.34998261 -0.13045736 0.99610714 63 64 89
0.34935272 -0.11606259 0.99907258 74 76 103
0.35038942 -0.10613338 1.00130386 81 85 114
0.35015554 -0.09164302 1.00420271 96 98 124
0.34956743 -0.06702293 0.92161749 175 169 167
0.34959848 -0.07791571 0.95300840 162 155 158
0.35003947 -0.05009737 0.92240800 190 183 182
0.34990992 -0.03000647 0.92339926 186 179 177
0.34999749 -0.00986150 0.92464642 188 184 182
0.35004783 0.00978569 0.92637389 187 182 180
0.35011798 0.03000057 0.92818241 180 176 175
0.34994951 0.05009649 0.93003170 176 171 170
0.34994371 0.06958990 0.93199122 175 168 167
0.35001282 0.08998499 0.93417047 174 168 168
0.34994606 0.11037053 0.93630774 171 168 168
0.35002183 0.13013369 0.93850909 166 159 159
0.35032228 0.14095774 0.93982159 155 147 149
0.35004929 0.15085263 0.94111825 182 179 178
0.34988346 0.16977483 0.94338284 175 168 167
0.35018775 0.19003996 0.94589916 182 178 176
0.34979520 0.21001842 0.94848134 181 178 177
0.35018726 0.23059119 0.95109137 183 180 178
0.34981756 0.25003668 0.95360387 173 166 164
0.35008659 0.26975343 0.95622160 154 148 147
0.35010658 0.28954741 0.95890918 122 116 119
0.35054643 0.29986485 0.96011464 134 133 134
0.34984076 0.31020380 0.96147823 163 160 159
0.35023835 0.33031594 0.96421627 166 164 163
0.34980806 0.35058080 0.96724992 172 168 164
0.34999917 0.37023311 0.97052437 172 168 165
0.35016655 0.38986102 0.97371929 176 172 169
0.34967795 0.40444890 0.97622213 176 173 170
0.35027651 0.41320945 0.98504243 97 95 93
0.34806566 0.42847807 1.01601863 0 0 0
0.35056538 0.43530459 1.02223058 0 0 0
0.34965240 0.44974395 1.02870408 0 0 0
0.34996852 0.46964515 1.03647282 0 0 0
0.35464093 0.47953012 1.04027230 0 0 0
0.35003136 0.49004582 1.04350498 0 0 0
0.35003218 0.51007701 1.04937754 0 0 0
0.34990548 0.53010727 1.05492480 0 0 0
0.34970831 0.54442812 1.05872280 0 0 0
0.35032403 0.55489341 1.06130752 0 0 0
0.34991935 0.57005497 1.06483227 0 0 0
0.35003467 0.58963930 1.06899426 0 0 0
0.34973930 0.60538220 1.07209445 0 0 0
0.37066700 -0.66740318 0.99840468 0 0 0
0.37027709 -0.65008779 0.99735127 0 0 0
0.36976104 -0.63013625 0.99614858 0 0 0
0.37006714 -0.61003801 0.99452171 0 0 0
0.37022794 -0.59074436 0.99243537 16 18 22
0.37053365 -0.56962401 0.98633661 44 43 54
0.36971588 -0.55008129 0.98455865 47 46 55
0.36967661 -0.53008402 0.98441462 54 55 64
0.36971451 -0.51015253 0.98493708 50 49 57
0.37014557 -0.48985761 0.98436912 35 34 42
0.36128592 -0.46383674 0.97967304 26 26 30
0.37031338 -0.47040912 0.98236645 27 27 32
0.36369411 -0.44848630 0.97943149 19 17 23
0.37338100 -0.45037586 0.98125195 20 19 23
0.37014568 -0.44366743 1.01318660 41 42 52
0.36566325 -0.43705299 0.97936383 20 19 27
0.37312539 -0.43786386 0.98345178 24 23 31
0.36991641 -0.43026225 1.01509881 28 26 34
0.37010672 -0.41011794 1.01221142 28 27 34
0.36992045 -0.38932294 1.00902162 29 28 37
0.37001942 -0.36982307 1.00579609 31 30 39
0.37004073 -0.35084226 1.00276955 32 31 40
0.36973803 -0.32676276 0.99906545 23 22 30
0.37026506 -0.33665172 1.00056653 29 28 37
0.36998911 -0.31065947 0.99684865 21 19 27
0.36992511 -0.29011922 0.99436040 24 23 32
0.37000466 -0.26978475 0.99226922 28 28 39
0.37022951 -0.24963472 0.99057613 39 39 55
0.36974257 -0.22964178 0.98927332 44 47 77
0.36987639 -0.21004388 0.98853832 47 50 88
0.36965306 -0.18931103 0.98885766 42 41 61
0.37012186 -0.16996540 0.99028751 45 44 66
0.36991690 -0.15046544 0.99284589 51 51 74
0.37003647 -0.13063598 0.99657286 63 67 92
0.36937151 -0.11763426 0.99937201 74 76 104
0.37030911 -0.10757759 1.00170212 80 85 114
0.37580505 -0.08016785 0.98055500 142 133 138
0.36994604 -0.09186282 1.00463772 94 96 124
0.36382174 -0.06480713 0.92426978 156 151 149
0.37019947 -0.07157577 0.94886213 137 133 137
0.37480191 -0.07716136 0.96832663 136 131 132
0.36740464 -0.04796341 0.92329529 177 170 169
0.36991633 -0.03001118 0.92353939 182 175 174
0.36988885 -0.01025045 0.92481778 185 180 179
0.37009820 0.01007568 0.92652317 184 178 177
0.36997502 0.02982848 0.92827486 175 168 168
0.37007281 0.05021984 0.93013096 175 168 166
0.36990700 0.06945085 0.93203374 175 168 168
0.37008924 0.09000271 0.93421678 168 162 163
0.36979583 0.11017897 0.93632977 159 152 153
0.37010963 0.13021383 0.93855796 141 134 136
0.36842286 0.14113959 0.93983621 163 161 160
0.37005746 0.15083320 0.94115377 178 175 174
0.37020396 0.17011204 0.94346726 175 169 167
0.36988789 0.18998186 0.94591901 178 173 173
0.36995336 0.21013394 0.94852392 178 174 172
0.37020136 0.23054144 0.95111328 178 174 173
0.36974967 0.24992154 0.95358682 182 179 177
0.37016399 0.26977811 0.95614978 174 172 172
0.36999704 0.28954925 0.95891413 133 127 131
0.37048472 0.29988443 0.96017732 122 113 119
0.36983978 0.31028153 0.96144929 121 114 115
0.37021888 0.33029957 0.96416830 171 168 167
0.36986259 0.35057401 0.96723084 170 168 163
0.36996951 0.37024011 0.97050928 170 167 164
0.37012471 0.38992402 0.97371409 172 170 167
0.37059981 0.40532443 0.97647054 174 170 168
0.36913662 0.41341548 0.98332117 122 115 113
0.37245144 0.42072034 0.99883199 30 28 27
0.37096870 0.42748103 1.01290708 0 0 0
0.36929625 0.43593124 1.02344447 0 0 0
0.36993924 0.44977143 1.02974866 0 0 0
0.36962316 0.46815947 1.03679355 0 0 0
0.37024710 0.47859111 1.04061909 0 0 0
0.37032979 0.49022475 1.04437977 0 0 0
0.36987361 0.51023735 1.05014652 0 0 0
0.37008064 0.53022593 1.05563860 0 0 0
0.36910895 0.54362874 1.05916058 0 0 0
0.37025379 0.55371310 1.06169382 0 0 0
0.37006604 0.57033826 1.06557304 0 0 0
0.36986416 0.59035213 1.06978075 0 0 0
0.37019743 0.60571651 1.07280819 0 0 0
0.38361190 -0.66424017 0.99963590 0 0 0
0.39226429 -0.66917478 1.00092479 0 0 0
0.38694117 -0.64867029 0.99918663 0 0 0
0.39613988 -0.65247350 1.00045480 0 0 0
0.38957857 -0.62985750 0.99861662 0 0 0
0.39883684 -0.63748209 1.00005913 0 0 0
0.38967071 -0.61015300 0.99761035 0 0 0
0.39035055 -0.59017461 0.99619108 73 73 77
0.39057559 -0.56992314 0.99399981 104 105 109
0.39004839 -0.54994828 0.99332492 70 70 74
0.38998444 -0.52978906 0.99237710 37 37 43
0.38989044 -0.51001175 0.99052865 28 27 31
0.39018214 -0.49009167 0.98801942 26 24 32
0.38987292 -0.46985168 0.98529473 25 24 29
0.39008825 -0.44977231 0.98357853 20 19 24
0.38933239 -0.44362622 1.01435992 38 39 48
0.39057720 -0.43747517 0.98531432 25 24 33
0.38992047 -0.43048895 1.01549530 27 26 33
0.39002314 -0.40983909 1.01242432 28 27 34
0.38998277 -0.38975644 1.00931802 31 30 38
0.39001520 -0.37010195 1.00607587 32 31 40
0.39000309 -0.35049420 1.00295438 32 31 42
0.39000621 -0.32599837 0.99918043 23 22 31
0.38991419 -0.33616638 1.00071673 30 29 38
0.38996454 -0.31079602 0.99707605 21 20 27
0.39013483 -0.28995101 0.99453645 24 24 33
0.38981556 -0.26984547 0.99249284 29 28 41
0.39002072 -0.24969991 0.99083494 41 40 55
0.39029064 -0.22963617 0.98953056 46 48 78
0.39007970 -0.20987942 0.98881363 47 51 87
0.39023014 -0.18944118 0.98919480 41 41 62
0.39004183 -0.17010185 0.99067430 45 44 67
0.38989986 -0.15088840 0.99321870 51 52 75
0.39002162 -0.13054984 0.99705619 65 69 93
0.39002381 -0.11887339 0.99962089 71 76 103
0.38999837 -0.10879646 1.00198799 83 88 117
0.38279136 -0.08129158 0.99429965 126 118 121
0.39027960 -0.09070626 1.00465596 89 93 120
0.38683521 -0.06954073 0.97418350 121 122 130
0.39251062 -0.07245405 0.99083486 114 115 124
0.39852773 -0.07811994 1.00509020 102 102 123
0.38810500 -0.04130511 0.92603796 172 168 167
0.39110173 -0.04479900 0.94440012 156 154 154
0.39176538 -0.05337139 0.96855642 142 140 143
0.39007125 -0.03002713 0.92401578 173 167 166
0.38996427 -0.00989966 0.92510638 177 171 170
0.38989528 0.00975752 0.92672776 174 165 162
0.39009136 0.03019085 0.92848395 170 163 161
0.38991724 0.04997385 0.93027973 166 162 161
0.39008926 0.06975342 0.93219975 171 161 160
0.38989546 0.08974889 0.93430522 163 158 158
0.39008690 0.11059421 0.93655614 152 146 146
0.38988873 0.12999957 0.93861585 141 135 135
0.38866081 0.14084720 0.93991794 149 145 147
0.39007448 0.15064314 0.94122819 172 169 166
0.39015643 0.16993268 0.94353493 171 166 163
0.38982365 0.18981943 0.94599020 179 176 173
0.39013317 0.21028278 0.94861826 181 179 177
0.39002833 0.23049449 0.95117701 176 172 171
0.38985983 0.24999432 0.95367702 176 173 171
0.39023710 0.26978445 0.95623158 173 168 165
0.38986184 0.28953152 0.95885486 151 147 148
0.39040778 0.29989083 0.96019782 137 134 133
0.38989202 0.31024267 0.96152310 132 127 128
0.39022542 0.33030678 0.96418959 154 152 152
0.38991376 0.35056496 0.96720604 172 167 164
0.38992666 0.37023513 0.97046302 164 161 159
0.39010697 0.38987765 0.97356643 173 173 171
0.39007311 0.40628511 0.97657603 177 172 170
0.39912662 0.42235845 0.99862322 45 43 42
0.38909477 0.42460761 1.00394113 2 2 2
0.38991263 0.43708956 1.02506999 0 0 0
0.38995345 0.45032269 1.03113668 0 0 0
0.38949700 0.46706291 1.03743224 0 0 0
0.39096288 0.47665229 1.04096693 0 0 0
0.39012459 0.48992488 1.04523890 0 0 0
0.39006447 0.50988171 1.05093415 0 0 0
0.38986928 0.52972205 1.05628493 0 0 0
0.38796950 0.54215280 1.05951242 0 0 0
0.39046116 0.55130117 1.06189542 0 0 0
0.38992471 0.56960116 1.06614896 0 0 0
0.38973548 0.59018970 1.07047324 0 0 0
0.39033294 0.60576297 1.07353109 0 0 0
0.41043910 -0.66881116 1.00286523 0 0 0
0.40988337 -0.64998161 1.00187435 0 0 0
0.40090478 -0.62437396 0.99982785 0 0 0
0.41044955 -0.63042607 1.00120570 0 0 0
0.40199578 -0.61056296 0.99958580 0 0 0
0.41206068 -0.60938514 1.00127111 11 10 11
0.40230436 -0.59008386 0.99919021 111 113 116
0.41253713 -0.59029278 1.00232117 60 62 69
0.40454840 -0.56823567 0.99911418 47 48 54
0.41342922 -0.57108261 1.00125651 32 31 39
0.40912053 -0.54896538 0.99829247 29 28 33
0.41739805 -0.55579058 1.00043619 28 27 33
0.40990741 -0.53003816 0.99598407 27 26 31
0.40969901 -0.51001918 0.99307307 26 25 31
0.41011328 -0.49009361 0.99012579 26 25 32
0.40999849 -0.46973742 0.98702966 25 24 28
0.41015084 -0.44964887 0.98473103 20 18 24
0.40992761 -0.44358644 1.01533142 36 37 46
0.41005361 -0.43766252 0.98600448 26 25 33
0.40998995 -0.43082775 1.01566533 28 27 34
0.41002378 -0.41010487 1.01256137 29 27 34
0.40995087 -0.38938018 1.00938754 32 31 39
0.40998442 -0.37009847 1.00620717 32 31 40
0.40998554 -0.35097756 1.00316089 32 32 42
0.40948505 -0.32590430 0.99928761 24 23 31
0.41050252 -0.33567614 1.00076896 28 27 37
0.41031309 -0.31008106 0.99710210 22 21 28
0.40970634 -0.29001022 0.99467505 25 24 33
0.41010188 -0.26969045 0.99266842 29 28 39
0.40980479 -0.24975431 0.99105092 40 40 56
0.41004784 -0.22982802 0.98977365 45 47 76
0.40982851 -0.20992774 0.98904130 46 50 86
0.40999980 -0.18949086 0.98945467 40 42 61
0.41010052 -0.16951653 0.99107484 44 44 67
0.40976157 -0.15029071 0.99368895 51 51 76
0.40999270 -0.13074419 0.99739753 65 69 94
0.40921726 -0.11962067 0.99975602 74 75 103
0.41009056 -0.10954054 1.00225058 83 89 117
0.40992733 -0.09019789 1.00549565 101 106 133
0.41240689 -0.06707619 0.92477244 169 165 161
0.41708165 -0.06384497 0.95195408 143 142 150
0.40035718 -0.06431159 0.99739134 113 113 126
0.41112001 -0.07069686 1.00691370 105 108 131
0.41432870 -0.05005873 0.92494959 162 157 157
0.41082798 -0.04406930 0.94635903 146 143 144
0.40061927 -0.04581450 0.97086728 164 155 157
0.40669261 -0.04994888 0.99182003 143 138 142
0.41466514 -0.05532980 1.00731523 114 116 134
0.41007226 -0.03009017 0.92424042 171 165 163
0.40989537 -0.01007857 0.92550431 171 164 161
0.41004572 0.01010308 0.92708229 168 160 157
0.40993606 0.02986826 0.92877700 161 155 153
0.41012894 0.05037745 0.93060864 161 155 153
0.40988799 0.06951318 0.93244221 165 156 155
0.41010120 0.09011161 0.93455125 157 149 148
0.40998919 0.11041494 0.93668351 156 149 148
0.40990051 0.13000511 0.93875801 151 144 144
0.41875796 0.13923685 0.94001395 157 146 148
0.41013672 0.15019734 0.94139104 175 171 169
0.40986292 0.16989707 0.94368096 167 165 164
0.40997133 0.19000877 0.94613669 170 167 166
0.41019993 0.21033811 0.94873827 173 168 167
0.40979535 0.23051613 0.95126648 163 159 158
0.40998318 0.25007267 0.95378822 170 166 166
0.41020448 0.26977316 0.95637322 170 166 161
0.40956802 0.28892483 0.95885554 163 159 159
0.41138735 0.29917734 0.96019044 158 155 157
0.41001441 0.31030390 0.96159668 164 163 161
0.41016912 0.33026248 0.96421432 168 165 162
0.40993449 0.35053041 0.96711107 166 161 156
0.40991589 0.37013668 0.97030598 167 164 162
0.41004541 0.38979499 0.97332839 168 166 163
0.41041248 0.40686534 0.97628698 172 168 167
0.40276854 0.41631928 0.98434423 121 117 120
0.41117917 0.42264603 0.99604578 19 19 18
0.40690976 0.43051293 1.01376075 0 0 0
0.40785401 0.43755782 1.02646703 0 0 0
0.40999800 0.45009318 1.03235251 0 0 0
0.40933864 0.46581031 1.03821183 0 0 0
0.41076108 0.47535131 1.04167366 0 0 0
0.40971102 0.49013797 1.04640760 0 0 0
0.41023404 0.50980608 1.05192708 0 0 0
0.40974536 0.52994966 1.05723832 0 0 0
0.41360170 0.53994985 1.06005192 0 0 0
0.40073077 0.54172065 1.05993176 0 0 0
0.41028551 0.55015570 1.06245464 0 0 0
0.41000468 0.57028266 1.06713392 0 0 0
0.41006017 0.58988046 1.07121614 0 0 0
0.40987239 0.60569130 1.07428488 0 0 0
0.43049916 -0.66948767 1.00495829 0 0 0
0.42974705 -0.64979544 1.00400588 0 0 0
0.42978845 -0.62991290 1.00341350 0 0 0
0.42968685 -0.61012528 1.00438426 14 13 16
0.43040369 -0.58986530 1.00548619 31 30 36
0.42981481 -0.56995548 1.00359989 29 28 35
0.42356910 -0.54325788 0.99956785 27 27 32
0.43109080 -0.55096489 1.00145958 27 26 32
0.42965916 -0.52969137 0.99815631 27 27 32
0.43588758 -0.53885806 1.00019748 28 28 32
0.43016435 -0.50972121 0.99488698 27 26 31
0.42984229 -0.48993422 0.99149514 26 25 31
0.42999391 -0.47024623 0.98823930 29 28 33
0.42998699 -0.45036800 0.98541908 20 19 24
0.43029998 -0.44353022 1.01516315 36 38 46
0.42994169 -0.43768236 0.98625513 27 26 35
0.42988028 -0.43033590 1.01560335 28 27 34
0.42992309 -0.41020991 1.01260631 28 27 34
0.43005040 -0.38986055 1.00956032 32 31 40
0.43018121 -0.36967887 1.00626759 34 33 42
0.42978322 -0.35021444 1.00320455 33 33 42
0.42986865 -0.32510526 0.99936676 24 23 31
0.43012925 -0.33528103 1.00088356 29 28 38
0.42997926 -0.31016473 0.99732827 23 22 30
0.43007337 -0.28924340 0.99485684 25 24 33
0.42993628 -0.27018550 0.99299216 28 28 38
0.43013109 -0.24960242 0.99130428 38 38 52
0.42992449 -0.22982141 0.99004752 43 45 72
0.42961103 -0.20998811 0.98932558 43 46 80
0.42978905 -0.18954454 0.98973551 40 41 60
0.43006078 -0.16952951 0.99147046 43 44 64
0.42999158 -0.15000840 0.99415919 50 51 74
0.42999614 -0.13065280 0.99784012 65 68 94
0.42299536 -0.11977837 0.99996263 74 77 102
0.43014344 -0.11034964 1.00237475 80 84 113
0.42996557 -0.09002083 1.00594500 93 100 129
0.42991738 -0.06674812 0.92383999 162 153 150
0.43043473 -0.07611713 0.97055781 140 136 137
0.43116941 -0.07186695 0.99051905 127 129 145
0.42923844 -0.06973349 1.00742205 106 111 136
0.42991842 -0.04998246 0.92384359 158 151 148
0.42165888 -0.05100859 0.95269595 123 123 127
0.42754828 -0.05579673 0.96916035 133 132 149
0.43471401 -0.05278345 0.98603656 113 113 125
0.43061073 -0.05373028 1.00919857 118 123 141
0.43019152 -0.02998397 0.92458430 169 161 159
0.42999043 -0.01008129 0.92571874 169 162 159
0.42988537 0.00993601 0.92721796 168 160 158
0.43008605 0.03017222 0.92900723 161 154 152
0.42997111 0.05019895 0.93087266 160 156 153
0.42998156 0.06961112 0.93277941 156 149 149
0.43010749 0.09005964 0.93481084 153 145 145
0.42984347 0.11024347 0.93684360 153 147 143
0.43012890 0.12942262 0.93889723 150 142 142
0.43018880 0.13913046 0.94013942 148 145 145
0.43006104 0.15006074 0.94163817 170 166 165
0.42980857 0.16988039 0.94389274 168 165 162
0.43010008 0.19015494 0.94636603 162 157 157
0.43008677 0.21025636 0.94887699 170 165 162
0.42977475 0.23038196 0.95133585 163 160 159
0.43004370 0.25012977 0.95391148 172 170 170
0.43018110 0.26988425 0.95654417 163 158 157
0.42949036 0.28854054 0.95895405 174 172 169
0.43110684 0.29881105 0.96028288 163 158 157
0.43002057 0.31034834 0.96173480 159 157 155
0.43011764 0.33033291 0.96426733 165 162 159
0.42996939 0.35051071 0.96705736 169 163 158
0.42988462 0.37012260 0.97013517 168 164 159
0.42999227 0.38972892 0.97313153 169 165 164
0.43057399 0.40738872 0.97621479 166 162 158
0.43295001 0.41843930 0.98332972 110 108 102
0.42724758 0.42148297 0.99115786 62 61 59
0.43728904 0.43025074 1.00903654 0 0 0
0.43076953 0.43780502 1.02675305 0 0 0
0.42990873 0.44971928 1.03367819 0 0 0
0.42892479 0.46315510 1.03863813 0 0 0
0.43053846 0.47360613 1.04242309 0 0 0
0.42992144 0.49015410 1.04771150 0 0 0
0.43001093 0.51003390 1.05312100 0 0 0
0.42952882 0.52872703 1.05790453 0 0 0
0.43349243 0.53775063 1.06043972 0 0 0
0.43003906 0.55003613 1.06334924 0 0 0
0.43000358 0.57002710 1.06797353 0 0 0
0.42993979 0.58974610 1.07204069 0 0 0
0.43005598 0.60607585 1.07517970 0 0 0
0.45871635 -0.68013492 1.00819671 0 0 0
0.45032215 -0.67013353 1.00685940 0 0 0
0.44991861 -0.65003436 1.00599058 0 0 0
0.44942405 -0.62991411 1.00538189 0 0 0
0.44973420 -0.61043507 1.00791761 23 22 25
0.45028072 -0.58990262 1.00782809 30 29 33
0.44956920 -0.57027235 1.00577847 29 28 34
0.45008689 -0.55017133 1.00293255 28 27 32
0.44895614 -0.52669310 0.99902221 28 27 33
0.45177142 -0.53557197 1.00066024 28 28 33
0.45001196 -0.51024195 0.99613242 28 27 32
0.45025601 -0.49011168 0.99241275 27 26 31
0.44980696 -0.47036961 0.98893029 26 25 30
0.45010172 -0.45027169 0.98599524 21 20 26
0.44987922 -0.44299715 1.01579364 35 35 44
0.44977279 -0.43752785 0.98573562 27 26 36
0.45010188 -0.42989033 1.01571980 28 27 34
0.44987901 -0.40990824 1.01268866 29 27 36
0.45005084 -0.38953574 1.00969027 35 34 43
0.45000292 -0.36936953 1.00643531 38 37 46
0.45003403 -0.35019425 1.00344991 37 36 47
0.44960961 -0.32418665 0.99952807 24 22 29
0.45022557 -0.33398349 1.00096489 28 27 36
0.44997393 -0.30973570 0.99759824 23 21 30
0.45001010 -0.28969316 0.99528065 25 24 33
0.45002513 -0.26991866 0.99334960 27 27 36
0.44996858 -0.25013130 0.99167781 33 32 48
0.44984678 -0.22983239 0.99039734 38 39 60
0.45031015 -0.21007169 0.98971918 39 41 65
0.45007336 -0.18983727 0.99009871 39 41 56
0.44995875 -0.16918002 0.99197036 46 46 64
0.45011007 -0.14934090 0.99480879 50 52 73
0.44945709 -0.13111355 0.99826593 65 68 95
0.45313257 -0.12203748 1.00026579 72 74 102
0.45000937 -0.11049361 1.00272285 80 84 112
0.45010687 -0.08162575 0.99838698 114 106 117
0.44987501 -0.09168215 1.00585955 90 96 121
0.44929779 -0.06657426 0.92660391 147 126 115
0.44982723 -0.07764573 0.97021741 136 133 130
0.44031029 -0.06237220 1.00794756 101 106 124
0.44999004 -0.05029873 0.92618254 148 126 114
0.44078884 -0.05055269 0.99818355 113 114 127
0.44211543 -0.05350812 1.00829514 107 110 134
0.44966289 -0.03011312 0.92668122 149 130 121
0.44999123 -0.01009999 0.92735697 154 137 128
0.44958320 0.00994515 0.92817230 157 145 141
0.45020675 0.03004123 0.92946403 160 152 148
0.44985552 0.05002244 0.93106398 160 152 148
0.45004475 0.06980623 0.93290587 163 156 154
0.44995224 0.08981002 0.93494304 158 152 150
0.45010955 0.11059257 0.93709286 153 147 145
0.44994873 0.12853804 0.93898751 145 138 136
0.45010881 0.13848505 0.94020374 149 148 148
0.44990424 0.14994369 0.94184180 170 168 167
0.44998160 0.17004600 0.94416509 164 161 160
0.45017678 0.19022973 0.94659616 164 158 156
0.44984189 0.21029107 0.94903398 160 156 154
0.44989864 0.23051771 0.95145969 161 158 157
0.45009817 0.25020604 0.95401494 172 170 168
0.45014117 0.26984917 0.95664235 167 162 158
0.44967474 0.28784470 0.95896370 167 164 160
0.44935741 0.29804578 0.96026803 166 161 159
0.45021878 0.31007506 0.96179643 168 162 159
0.45013037 0.33034211 0.96429461 167 162 161
0.45000821 0.35049577 0.96701624 162 157 155
0.44990972 0.37005053 0.97008049 166 160 157
0.44990201 0.38974568 0.97304438 164 159 157
0.45030480 0.40828968 0.97596128 172 169 165
0.44374426 0.41824572 0.98088202 140 137 133
0.45538500 0.43595645 1.01829004 0 0 0
0.44672374 0.43781973 1.02264223 0 0 0
0.44965380 0.45125739 1.03582401 0 0 0
0.44580513 0.46172109 1.03944312 0 0 0
0.45032333 0.47080719 1.04300531 0 0 0
0.45000944 0.48995167 1.04903878 0 0 0
0.44989649 0.51022482 1.05442092 0 0 0
0.44955162 0.52637115 1.05841685 0 0 0
0.45136793 0.53599308 1.06094172 0 0 0
0.44976344 0.54994266 1.06431740 0 0 0
0.45018842 0.56975574 1.06887762 0 0 0
0.45002115 0.59004590 1.07303148 0 0 0
0.44998029 0.60691958 1.07625737 0 0 0
0.47053560 -0.68084352 1.00924711 0 0 0
0.47019683 -0.66989651 1.00852093 0 0 0
0.46990112 -0.65012727 1.00773334 0 0 0
0.46978870 -0.62961956 1.00742064 3 3 3
0.46933498 -0.61085526 1.01091971 29 29 33
0.47014103 -0.59037171 1.00959875 29 29 34
0.47002637 -0.56971154 1.00715624 29 28 34
0.46996152 -0.54961654 1.00387380 29 28 34
0.47010770 -0.52349482 0.99926281 30 28 34
0.47040147 -0.53383552 1.00114026 29 29 35
0.46982751 -0.50964743 0.99655820 29 29 34
0.46989431 -0.48948040 0.99260420 29 29 34
0.47026954 -0.46981340 0.98897726 28 28 32
0.47029195 -0.45022659 0.98613823 23 22 28
0.47008048 -0.44294582 1.01581884 37 37 47
0.47015442 -0.43748126 0.98601373 38 37 48
0.47008006 -0.42997049 1.01601173 29 28 35
0.47008566 -0.41041950 1.01309475 29 27 35
0.46997304 -0.38982796 1.01008301 38 38 48
0.46997152 -0.36931893 1.00682765 40 40 50
0.47008795 -0.34910069 1.00370073 38 38 48
0.46859320 -0.32183909 0.99964273 23 22 30
0.47028671 -0.33187111 1.00109672 27 26 35
0.47009193 -0.30952328 0.99808022 23 22 31
0.46991497 -0.28947392 0.99579839 25 24 33
0.47001499 -0.27040261 0.99393030 28 27 36
0.46996987 -0.24983102 0.99221237 32 31 43
0.46981268 -0.23011071 0.99101275 35 34 50
0.47027767 -0.21020349 0.99034008 39 40 58
0.46999922 -0.18950491 0.99069454 41 41 56
0.47001322 -0.16970222 0.99245408 45 44 60
0.46996721 -0.14941063 0.99541097 51 52 72
0.46966286 -0.13298437 0.99864106 64 66 93
0.47104377 -0.12366861 1.00074856 72 72 101
0.46994803 -0.11060301 1.00362113 82 84 114
0.46998679 -0.09111821 1.00623993 91 97 121
0.46545094 -0.06347404 0.93117132 143 124 112
0.47142320 -0.06973691 0.94828908 131 113 111
0.47102195 -0.07710995 0.97394365 121 104 106
0.46942704 -0.04955261 0.93052597 151 127 113
0.46940337 -0.03025036 0.93088414 150 127 111
0.46988654 -0.01014850 0.93184230 147 123 108
0.47015364 0.00998884 0.93237188 144 120 105
0.47040396 0.03014976 0.93286898 142 120 107
0.47025819 0.05047498 0.93340372 141 119 112
0.46928427 0.06972721 0.93385419 146 131 122
0.46945015 0.09024982 0.93521347 147 135 132
0.47007214 0.11053580 0.93718809 157 152 149
0.46984479 0.12837544 0.93898557 156 150 147
0.47003138 0.13845231 0.94020214 153 148 147
0.46993678 0.15005958 0.94190603 162 152 149
0.47012865 0.17019818 0.94436129 153 149 147
0.47005520 0.19015772 0.94679599 157 152 151
0.46982652 0.21017764 0.94920191 153 147 146
0.46998617 0.23060341 0.95162762 160 155 153
0.47016746 0.25022379 0.95412838 161 157 156
0.47002110 0.26987105 0.95671990 157 152 151
0.46944012 0.28767386 0.95904202 164 160 159
0.47105456 0.29706886 0.96027191 164 158 157
0.46998631 0.30956671 0.96186816 161 156 155
0.47007090 0.33027946 0.96442031 168 162 156
0.47017011 0.35044707 0.96708977 158 153 149
0.46998828 0.37014590 0.97016296 160 155 151
0.46988759 0.38975822 0.97310904 170 165 161
0.47012189 0.40932456 0.97605748 167 161 158
0.46308964 0.42213196 0.98599935 112 106 106
0.47021223 0.43360099 1.01045669 6 6 5
0.47325356 0.43959729 1.02266550 0 0 0
0.46899150 0.45060484 1.03686846 0 0 0
0.47150111 0.45834885 1.04042693 0 0 0
0.47020037 0.47008281 1.04443286 0 0 0
0.46979627 0.48996154 1.05054644 0 0 0
0.47026898 0.50962006 1.05568224 0 0 0
0.46849433 0.52382132 1.05897358 0 0 0
0.47080722 0.53402495 1.06160424 0 0 0
0.46993387 0.55011719 1.06546346 0 0 0
0.46997671 0.57003170 1.06994606 0 0 0
0.46973611 0.59011547 1.07402282 0 0 0
0.47034699 0.60647938 1.07719151 0 0 0
0.49187806 -0.68127075 1.01088772 0 0 0
0.49008073 -0.66975716 1.00998406 0 0 0
0.48955608 -0.64981690 1.00930459 0 0 0
0.48969856 -0.62929653 1.01028216 12 12 14
0.48955185 -0.60953573 1.01247116 30 30 34
0.49024780 -0.59024761 1.01071558 29 29 34
0.49002767 -0.57023187 1.00792574 30 29 34
0.49002893 -0.54998836 1.00434479 31 30 36
0.48969794 -0.52311814 0.99928405 32 31 35
0.48995017 -0.53345489 1.00128167 31 30 36
0.49031379 -0.50960453 0.99627772 32 32 36
0.49940750 -0.48120031 0.97811093 60 70 87
0.49026620 -0.48977934 0.99141617 37 37 43
0.49706938 -0.46832160 0.97661269 57 63 94
0.48830360 -0.47064688 0.98694063 42 42 55
0.49561315 -0.44866640 0.97563368 68 72 97
0.48589985 -0.45078087 0.98382233 41 42 56
0.49051759 -0.44320424 1.01620020 46 47 58
0.49651421 -0.43540014 0.97260571 90 92 109
0.48835324 -0.43650155 0.98409648 56 62 85
0.48990277 -0.42996928 1.01647336 31 30 38
0.49000097 -0.41055983 1.01360991 31 30 38
0.49002966 -0.39022988 1.01072323 43 42 52
0.49006196 -0.36979406 1.00751666 45 44 53
0.49004345 -0.34949250 1.00438568 42 41 50
0.48346545 -0.32025268 0.99991639 24 23 32
0.49009348 -0.32946574 1.00142826 27 26 34
0.48961863 -0.30889364 0.99872954 24 23 31
0.49643243 -0.31811287 1.00017488 24 23 29
0.49006866 -0.29011742 0.99660620 25 24 33
0.48989877 -0.27021263 0.99459605 28 28 37
0.49006009 -0.25047236 0.99303121 34 33 46
0.48984917 -0.23023800 0.99184280 46 45 62
0.48952716 -0.21038399 0.99119062 53 54 73
0.48966528 -0.18987706 0.99147065 43 43 57
0.49004485 -0.16937303 0.99314687 54 53 67
0.49001198 -0.14930947 0.99611830 50 50 69
0.48922982 -0.13495866 0.99899386 63 64 88
0.49041574 -0.12510072 1.00125857 70 74 101
0.49000879 -0.10997208 1.00478720 82 86 116
0.49021144 -0.09065202 1.00700499 87 93 114
0.48884259 -0.06093441 0.95795733 128 110 111
0.49103413 -0.06688698 0.97214800 125 111 111
0.48856759 -0.07637517 0.98778429 117 100 103
0.49603100 -0.07836814 1.00086010 104 84 93
0.48536505 -0.04466473 0.93541972 141 123 107
0.49312867 -0.04938497 0.94726847 130 115 109
0.48907994 -0.03062262 0.93656620 145 124 108
0.49843041 -0.02323966 0.94012767 144 123 105
0.48837204 -0.01051247 0.93707862 145 122 104
0.49806495 -0.00844670 0.94040615 145 120 104
0.48868674 0.01029305 0.93748925 142 119 101
0.49819347 0.00844967 0.94044690 140 118 104
0.48893046 0.02978016 0.93773082 142 118 99
0.49861918 0.02958191 0.94048372 140 117 98
0.48854172 0.04996808 0.93793184 141 117 101
0.49779446 0.05063812 0.94033281 142 114 101
0.48755167 0.07003139 0.93794537 138 114 99
0.49775541 0.07021332 0.94038701 138 113 98
0.48746625 0.08971126 0.93815073 138 112 98
0.49770462 0.09008420 0.94047527 138 115 98
0.48706587 0.10988524 0.93867196 136 115 103
0.49681244 0.11063867 0.94057931 135 111 94
0.48521398 0.12791707 0.93938650 141 126 119
0.49322989 0.13244945 0.94070442 137 116 107
0.49002977 0.15019575 0.94220648 163 155 149
0.49013678 0.17019370 0.94463913 148 143 142
0.48990962 0.19015135 0.94707332 159 153 152
0.48993772 0.21036886 0.94951325 160 154 150
0.48987199 0.23035075 0.95184693 153 148 145
0.49033501 0.24985525 0.95428861 152 147 143
0.48995651 0.26992170 0.95689940 151 146 144
0.48975536 0.28708240 0.95912724 150 146 146
0.49005755 0.29661532 0.96033859 153 150 149
0.48995579 0.30961662 0.96204105 158 151 147
0.49015388 0.32955052 0.96453064 155 150 148
0.49006710 0.34959601 0.96716317 153 148 144
0.49000817 0.37004699 0.97023927 160 156 154
0.48998550 0.38982562 0.97324547 162 158 154
0.48999977 0.40960656 0.97631833 165 162 158
0.49294708 0.42094421 0.97927157 174 170 165
0.48857353 0.42661103 0.99023520 82 81 78
0.48589042 0.43359474 1.00707378 21 21 21
0.48885775 0.44916913 1.03730383 0 0 0
0.49084270 0.45612193 1.04133269 0 0 0
0.48985608 0.46991940 1.04610848 0 0 0
0.49019664 0.48991321 1.05207898 0 0 0
0.48996936 0.51012121 1.05718253 0 0 0
0.49975801 0.51983945 1.06014156 0 0 0
0.48486933 0.52203497 1.05963869 0 0 0
0.49048045 0.53090072 1.06209910 0 0 0
0.49003860 0.54984585 1.06655667 0 0 0
0.48980571 0.57007680 1.07103258 0 0 0
0.49014632 0.58976165 1.07502768 0 0 0
0.48977061 0.60695754 1.07832256 0 0 0
0.49797916 0.61365183 1.08012962 0 0 0
0.51036227 -0.68190949 1.01212374 0 0 0
0.50991199 -0.66994856 1.01123091 0 0 0
0.50963128 -0.65036338 1.01067437 0 0 0
0.50955424 -0.63050805 1.01252987 21 20 24
0.50981362 -0.60993154 1.01338165 31 31 35
0.51008677 -0.59014510 1.01103043 32 30 36
0.51003822 -0.57004450 1.00771360 32 31 37
0.50999530 -0.54960724 1.00382394 33 32 39
0.51887855 -0.52185692 0.94931340 186 189 186
0.51945076 -0.52121880 0.96251869 164 170 176
0.51130746 -0.52581012 0.99868007 38 37 43
0.50861932 -0.53520932 1.00101543 34 33 41
0.51428309 -0.50798231 0.94954609 191 195 195
0.51249187 -0.50895873 0.96984587 156 161 166
0.50901354 -0.51160149 0.99443086 50 50 58
0.50990245 -0.48952008 0.95287029 186 186 183
0.50240796 -0.48642071 0.97010480 104 108 118
0.50367962 -0.49477042 0.98854731 62 65 74
0.51050010 -0.47015188 0.95422659 171 168 162
0.50269388 -0.47031164 0.96901446 84 86 104
0.51231806 -0.45042363 0.95533397 156 151 146
0.50399412 -0.44963741 0.96464407 127 117 116
0.51002234 -0.44320372 1.01634777 46 49 63
0.51751931 -0.43484288 0.95815167 159 153 146
0.50865811 -0.43200334 0.96424548 133 125 118
0.51009025 -0.42969598 1.01715352 32 32 38
0.50960309 -0.41006665 1.01427955 32 31 39
0.50998139 -0.39049012 1.01154031 44 44 52
0.51006110 -0.37016486 1.00840863 45 45 53
0.51007714 -0.34988620 1.00531238 41 42 51
0.51007679 -0.32978595 1.00236018 27 26 34
0.50887091 -0.30631067 0.99924498 25 24 31
0.51168124 -0.31544078 1.00051392 24 23 30
0.50986247 -0.29016011 0.99745758 28 27 36
0.51021005 -0.27010692 0.99553272 32 32 41
0.50975902 -0.24973000 0.99403093 34 33 46
0.50988294 -0.22949789 0.99299506 41 40 55
0.50981680 -0.20987520 0.99247087 56 56 71
0.50997264 -0.19010086 0.99263671 43 43 57
0.50990049 -0.16981714 0.99401911 53 52 64
0.51001146 -0.14970835 0.99688253 53 52 70
0.50861277 -0.13675063 0.99939822 60 57 82
0.51049302 -0.12673766 1.00171196 70 72 98
0.50988642 -0.10997065 1.00555111 84 88 115
0.51025561 -0.09029016 1.00845393 84 89 112
0.50550598 -0.06654977 0.99345036 116 103 107
0.51287003 -0.07376696 1.00762847 94 93 103
0.50514226 -0.04235718 0.94969599 134 117 109
0.51038518 -0.04776841 0.96867887 121 108 107
0.51411977 -0.05711941 0.99236534 114 104 106
0.50977266 -0.02980765 0.94466599 143 120 105
0.50977307 -0.00947257 0.94456539 143 119 103
0.50954210 0.01011330 0.94413966 141 118 104
0.50932252 0.02968368 0.94373420 141 115 101
0.51004150 0.05007510 0.94376793 138 113 100
0.51013632 0.07037411 0.94361667 136 112 94
0.51000614 0.09001409 0.94349051 136 111 96
0.50992295 0.10974686 0.94354022 137 111 95
0.51012501 0.12999774 0.94371274 133 108 91
0.51029339 0.15047550 0.94422429 139 121 113
0.50985785 0.17006526 0.94546083 148 138 135
0.50976781 0.19036000 0.94749143 155 149 146
0.50993370 0.21044867 0.94982288 153 147 146
0.51014592 0.22992508 0.95207320 155 150 147
0.51012143 0.24951992 0.95453813 154 149 143
0.50994493 0.26999648 0.95716453 154 145 143
0.50943647 0.28612658 0.95926392 153 146 144
0.51056885 0.29551410 0.96049319 156 149 146
0.51000257 0.30973331 0.96234948 146 142 139
0.51007526 0.32964266 0.96480152 154 150 147
0.51004237 0.34976237 0.96741106 152 150 145
0.51005234 0.37011335 0.97038011 152 145 144
0.50998275 0.38966341 0.97329145 147 143 139
0.51006759 0.40959586 0.97653963 162 159 158
0.51185688 0.42156509 0.97905742 168 164 163
0.50890936 0.42575434 0.98441989 132 128 126
0.51767154 0.43883067 1.01273775 5 5 5
0.51906711 0.44150659 1.01891327 0 0 0
0.51124714 0.44779646 1.03342909 0 0 0
0.51006121 0.45636678 1.04280444 0 0 0
0.51007622 0.47022917 1.04765747 0 0 0
0.51004503 0.49016851 1.05354975 0 0 0
0.50937315 0.50858442 1.05814298 0 0 0
0.51239186 0.51738419 1.06041097 0 0 0
0.51027703 0.52964486 1.06307919 0 0 0
0.50987621 0.55012584 1.06778800 0 0 0
0.51025354 0.57002402 1.07216655 0 0 0
0.51000579 0.59005919 1.07616573 0 0 0
0.50906243 0.60543827 1.07906970 0 0 0
0.51204900 0.61257792 1.08062983 0 0 0
0.53052282 -0.68248761 1.01315133 0 0 0
0.52982650 -0.67015397 1.01228074 0 0 0
0.52953792 -0.64956407 1.01184315 1 1 2
0.52946183 -0.63054693 1.01480821 31 29 35
0.53009098 -0.61024349 1.01352923 32 31 36
0.53007504 -0.58979766 1.01019217 34 33 38
0.52998951 -0.57010982 1.00635867 36 36 41
0.53640607 -0.54572933 0.94344638 193 196 196
0.53840570 -0.54939989 0.96942377 148 154 161
0.53483190 -0.54449874 0.99743260 59 59 68
0.52855875 -0.55168052 1.00245142 39 39 46
0.53118246 -0.52909886 0.94468879 197 199 199
0.52714654 -0.53199861 0.97077375 154 158 162
0.52585812 -0.53200130 0.99584550 61 62 72
0.52173443 -0.53827044 1.00039061 41 40 48
0.53011959 -0.51003131 0.94689270 199 202 202
0.52036633 -0.51875672 0.99447098 62 66 84
0.52999012 -0.49010735 0.94952271 200 200 199
0.53010795 -0.47019480 0.95151729 198 199 198
0.52996592 -0.44996989 0.95281415 195 195 194
0.52787313 -0.44383229 1.01409426 68 74 83
0.53225649 -0.44385568 1.02056270 47 48 61
0.52945886 -0.43125357 0.95494759 184 184 182
0.52879891 -0.42599059 0.96512585 130 136 137
0.52976471 -0.42974086 1.01824470 34 33 40
0.53735653 -0.43960279 1.02020085 37 37 46
0.53003417 -0.40957657 1.01525567 34 34 42
0.52968343 -0.39007818 1.01245025 45 45 55
0.53004780 -0.37035581 1.00947148 44 44 54
0.53002254 -0.35024963 1.00643611 38 38 48
0.53005951 -0.33013741 1.00350990 28 26 34
0.52492952 -0.30290296 0.99969467 28 27 35
0.53083701 -0.31141025 1.00109640 27 26 34
0.52960229 -0.28985639 0.99865275 32 31 40
0.53761068 -0.29915736 1.00017056 33 32 39
0.53013192 -0.26998040 0.99696949 35 34 43
0.52955734 -0.25003641 0.99558747 38 38 48
0.53024854 -0.23011668 0.99461262 44 44 57
0.53048094 -0.21014096 0.99409390 57 57 74
0.53049610 -0.19038589 0.99412268 46 46 58
0.52980319 -0.17010332 0.99521897 47 46 60
0.52993730 -0.14976133 0.99790251 52 52 70
0.53883987 -0.14053031 1.00004578 58 59 76
0.52429633 -0.13847682 0.99977968 60 58 80
0.53036112 -0.12917685 1.00211532 67 68 91
0.52991330 -0.11012910 1.00635895 83 88 116
0.53005149 -0.09039527 1.00964245 99 108 134
0.53669521 -0.06809986 0.96444060 124 112 115
0.53027442 -0.07042469 1.00992648 99 104 126
0.53150693 -0.04014584 0.95576264 134 117 107
0.53347394 -0.04603168 0.97215465 127 111 111
0.52887259 -0.04677783 0.99113750 114 101 103
0.53248701 -0.05503032 1.00813174 103 103 115
0.53004764 -0.02943206 0.95326979 140 117 102
0.53014869 -0.00941014 0.95206178 142 118 103
0.52962486 0.01018486 0.95089689 140 117 100
0.52914650 0.02988124 0.95003897 139 115 97
0.53071921 0.04951231 0.95004878 138 112 96
0.53033205 0.06983657 0.94946619 137 110 97
0.53043074 0.09029272 0.94914950 135 110 94
0.53010685 0.11020176 0.94882132 135 108 92
0.53003700 0.12986461 0.94869711 134 111 91
0.53002661 0.14974421 0.94887115 135 109 92
0.52994679 0.17012290 0.94938397 134 109 95
0.53006430 0.19001975 0.95021496 134 111 100
0.52947627 0.21024131 0.95126791 138 120 116
0.52987955 0.22986773 0.95279832 144 130 127
0.53015746 0.24953360 0.95483203 144 138 134
0.52990150 0.27004964 0.95735289 153 147 143
0.52936863 0.28505275 0.95934141 156 151 146
0.53048228 0.29452183 0.96061856 152 145 142
0.53001711 0.30985847 0.96270197 149 143 140
0.52997011 0.32981322 0.96515066 152 146 144
0.53006754 0.34986743 0.96771897 153 149 145
0.53006834 0.37018146 0.97059397 154 149 147
0.52997928 0.38980376 0.97351188 160 155 150
0.53000312 0.40967729 0.97679564 156 152 150
0.53009014 0.42256155 0.97909620 171 169 166
0.53089900 0.42797813 0.98376805 130 128 124
0.53144031 0.43822507 1.00732207 7 7 7
0.53593746 0.44201552 1.01373950 0 0 0
0.52728456 0.44803641 1.02987481 0 0 0
0.52871674 0.45693975 1.04388635 0 0 0
0.53026876 0.47006282 1.04863563 0 0 0
0.52996869 0.48994912 1.05462509 0 0 0
0.52967676 0.50533814 1.05857943 0 0 0
0.53082629 0.51549679 1.06105815 0 0 0
0.53009509 0.53028640 1.06440727 0 0 0
0.52996170 0.55007454 1.06892025 0 0 0
0.53003666 0.56984794 1.07321531 0 0 0
0.52979773 0.59000995 1.07723295 0 0 0
0.52828097 0.60239797 1.07955741 0 0 0
0.53091219 0.60966517 1.08108092 0 0 0
0.54965785 -0.68204123 1.01361921 0 0 0
0.55003470 -0.66917172 1.01270068 0 0 0
0.54994154 -0.64953808 1.01319888 11 11 12
0.54994144 -0.63045251 1.01517620 34 33 39
0.55009134 -0.61000407 1.01199090 36 35 41
0.55857227 -0.58194780 0.93782487 186 189 187
0.55857437 -0.58436666 0.94360074 177 179 188
0.55922409 -0.58104361 0.96659938 153 154 160
0.54992302 -0.59004814 1.00759916 40 40 45
0.55472440 -0.56810401 0.93793531 192 194 192
0.55005893 -0.57037309 0.94534380 179 181 182
0.55347702 -0.57250369 0.96879567 155 155 165
0.55318266 -0.56813383 0.99310714 112 115 128
0.54772661 -0.57182352 1.00333767 45 44 54
0.55263534 -0.55054155 0.93878603 197 199 198
0.54317016 -0.54904356 0.94153387 195 196 196
0.54350305 -0.55699413 0.96834640 163 168 172
0.54303285 -0.55374953 0.99509497 85 86 99
0.54198608 -0.55754144 1.00084010 50 49 56
0.55561055 -0.53545596 0.93944244 199 201 202
0.54811688 -0.52832550 0.94138632 200 201 201
0.55007995 -0.50997596 0.94351354 194 196 198
0.55011347 -0.48998606 0.94641827 183 183 186
0.54994009 -0.46989552 0.94930922 194 195 198
0.55006175 -0.45008422 0.95153892 202 202 202
0.55015577 -0.44310499 1.00810986 88 98 103
0.55096090 -0.44414092 1.02153475 50 51 63
0.55006172 -0.43083851 0.95333063 190 193 193
0.55045603 -0.42554791 0.96437345 136 145 149
0.54860807 -0.42675373 1.01904832 35 34 42
0.55158197 -0.43575245 1.02056786 39 38 46
0.54990748 -0.40998126 1.01658805 35 34 42
0.55005095 -0.38959115 1.01355476 44 44 53
0.54987164 -0.37003838 1.01056236 38 38 48
0.54985902 -0.35054437 1.00769730 32 32 42
0.55006833 -0.33061572 1.00492100 29 28 36
0.55028386 -0.31034664 1.00247485 33 32 41
0.54466776 -0.28544042 0.99951581 37 36 45
0.55167104 -0.29198342 1.00079395 37 36 45
0.54958813 -0.26927343 0.99880197 39 39 49
0.55850571 -0.27645666 1.00028522 40 40 49
0.54977322 -0.25004153 0.99755351 42 42 53
0.55013655 -0.22991349 0.99649034 47 47 60
0.55040791 -0.20967289 0.99595070 57 57 74
0.55035988 -0.18985912 0.99586412 49 47 63
0.55000190 -0.17021808 0.99677602 49 48 63
0.54925972 -0.15182149 0.99875565 50 50 67
0.55264064 -0.14255126 1.00042707 55 55 70
0.54993364 -0.12966164 1.00293906 65 67 89
0.55029375 -0.10986446 1.00745767 82 87 115
0.54971071 -0.09018945 1.01064234 91 95 122
0.54936327 -0.06731783 0.96704018 134 112 109
0.54688796 -0.06929862 0.99043361 112 112 123
0.54923548 -0.07000814 1.01011789 103 111 132
0.54182144 -0.04029926 0.95941496 130 112 98
0.55018630 -0.04970467 0.96569580 130 111 104
0.55161011 -0.05038274 0.98909109 116 111 116
0.55043168 -0.05310219 1.00850909 109 112 130
0.54349529 -0.02796333 0.95856276 138 113 101
0.55343700 -0.03007527 0.96245665 135 110 97
0.54621866 -0.00902630 0.95787547 137 113 100
0.55565385 -0.01069981 0.96137044 135 110 94
0.54800626 0.01076694 0.95718780 134 111 98
0.55809496 0.00833238 0.96082323 134 108 96
0.54896197 0.03035023 0.95663337 136 115 94
0.55886760 0.02522295 0.96021124 133 111 91
0.54999347 0.04991320 0.95631042 136 112 93
0.55049526 0.06979126 0.95585261 134 109 93
0.55008680 0.08965692 0.95522291 135 110 92
0.54985287 0.10990083 0.95472234 134 108 90
0.54976225 0.13014064 0.95437893 133 105 89
0.54981955 0.15026246 0.95438482 133 109 89
0.54997470 0.17031590 0.95484282 135 111 93
0.55042214 0.19027546 0.95562004 137 112 94
0.55004261 0.21029896 0.95628304 135 111 93
0.54945435 0.23015309 0.95692052 134 109 91
0.54911587 0.24977585 0.95780250 133 111 97
0.55843008 0.25307565 0.96033685 135 110 93
0.54623230 0.26966961 0.95838565 143 129 124
0.55672883 0.27080489 0.96093942 134 109 100
0.54457627 0.28502303 0.95949612 147 142 140
0.55117408 0.29148650 0.96119880 144 132 127
0.54997466 0.31014464 0.96318729 158 153 148
0.54985575 0.33007027 0.96559945 154 150 148
0.54999112 0.35013922 0.96820782 157 153 148
0.54999432 0.37044746 0.97105330 157 150 146
0.55000567 0.39010887 0.97404583 156 151 148
0.55009473 0.41002035 0.97733310 145 140 141
0.54918341 0.42233129 0.97937444 153 148 147
0.55146464 0.42948109 0.98441646 115 111 111
0.54273674 0.43854373 1.00406539 4 4 4
0.55400050 0.44095308 1.00560224 0 0 0
0.54436957 0.45141238 1.03352873 0 0 0
0.54833094 0.45741198 1.04423238 0 0 0
0.55002798 0.47025358 1.04945678 0 0 0
0.55000044 0.49025775 1.05557194 0 0 0
0.54953611 0.50330138 1.05910356 0 0 0
0.55041607 0.51369687 1.06165566 0 0 0
0.54985301 0.52994862 1.06541176 0 0 0
0.55015373 0.54976426 1.06991685 0 0 0
0.54975491 0.57014715 1.07431557 0 0 0
0.54975867 0.58942213 1.07818416 0 0 0
0.55671253 0.59824637 1.08024374 0 0 0
0.54172677 0.60044504 1.07988077 0 0 0
0.55013771 0.60840586 1.08187456 0 0 0
0.56860672 -0.68221698 1.01336002 0 0 0
0.57054952 -0.66988171 1.01208736 0 0 0
0.57022992 -0.65027926 1.01328224 20 20 23
0.57004571 -0.63007552 1.01296867 38 38 43
0.57638362 -0.60522765 0.93415846 198 203 197
0.57530838 -0.60851904 0.94689048 179 181 179
0.57532688 -0.60562646 0.97075031 155 155 166
0.57648386 -0.60315474 0.99167584 139 140 150
0.57001891 -0.61035120 1.00860365 44 44 51
0.57120610 -0.58916437 0.93383307 198 202 201
0.56405523 -0.59189135 0.94874833 175 176 177
0.56673685 -0.59250762 0.96847361 163 165 171
0.56644820 -0.58795605 0.99094133 128 129 140
0.56535782 -0.59273971 1.00468680 53 53 64
0.57020957 -0.57013970 0.93451088 199 202 202
0.56973428 -0.55012683 0.93630870 202 206 206
0.57071649 -0.53053458 0.93843703 204 206 208
0.56243257 -0.52271814 0.94027525 200 200 205
0.57584208 -0.51710743 0.93965550 203 203 204
0.56933575 -0.50872481 0.94118999 174 175 178
0.56987019 -0.48991617 0.94386704 128 126 134
0.56990852 -0.47018045 0.94685227 196 201 202
0.56994577 -0.45013838 0.94942972 197 199 202
0.57049972 -0.44401938 1.01019018 87 94 108
0.57005589 -0.44434554 1.02315958 48 49 62
0.57000978 -0.43048368 0.95134620 194 198 198
0.56886677 -0.42498269 0.96309254 110 119 125
0.56574920 -0.42281005 1.01967620 34 34 42
0.57093814 -0.43105288 1.02133675 37 37 46
0.56959072 -0.41013668 1.01804037 34 34 41
0.57956751 -0.41836416 1.02000916 32 33 37
0.57000446 -0.38998572 1.01496392 35 34 44
0.56991190 -0.36960388 1.01183553 33 32 42
0.57003126 -0.34956414 1.00904827 35 34 44
0.57010460 -0.32956997 1.00651185 36 36 45
0.57000949 -0.30954683 1.00442476 39 38 47
0.56981156 -0.29002504 1.00270531 41 40 52
0.56224647 -0.26340225 0.99978916 43 43 51
0.57107229 -0.27039898 1.00135425 44 43 55
0.56575106 -0.24825327 0.99922995 44 44 58
0.57477408 -0.25216427 1.00055922 46 45 59
0.56961979 -0.23013558 0.99863740 48 49 64
0.57865810 -0.23821635 1.00015426 46 48 63
0.57055360 -0.21011861 0.99806686 58 60 76
0.57060954 -0.18999175 0.99787308 52 52 68
0.56962961 -0.17051516 0.99859492 52 52 70
0.57806824 -0.16186216 1.00013061 55 54 70
0.56524173 -0.15600016 0.99949429 53 51 69
0.57168592 -0.14810899 1.00105097 55 54 71
0.56987697 -0.12974473 1.00397820 61 63 83
0.57014432 -0.10951253 1.00866019 81 87 113
0.56976187 -0.08979358 1.01185388 89 92 115
0.56973642 -0.06708598 0.97121065 132 107 99
0.57360135 -0.07512912 0.98115184 132 109 102
0.57020460 -0.07869602 1.00504764 113 100 98
0.57019102 -0.05014943 0.96995852 130 105 95
0.56059600 -0.04972025 0.99877307 111 107 111
0.56083887 -0.05199347 1.00540227 104 108 120
0.56998012 -0.02982123 0.96791746 130 105 93
0.56992109 -0.00976914 0.96616606 132 108 93
0.56986285 0.01033279 0.96476322 132 105 91
0.57022483 0.03031861 0.96396205 132 108 90
0.56021560 0.05257756 0.95967736 134 110 92
0.57046173 0.05007808 0.96333789 133 107 93
0.56183225 0.07069080 0.95960535 134 110 90
0.57126273 0.07004113 0.96293848 133 109 90
0.56246169 0.08985980 0.95926413 135 109 92
0.57185705 0.09016389 0.96251184 133 107 89
0.56312095 0.10972284 0.95897422 132 107 89
0.57344862 0.11023573 0.96249212 130 105 88
0.56372935 0.12994805 0.95878228 132 104 88
0.57403573 0.12983131 0.96224672 133 106 88
0.56374806 0.14945046 0.95863025 132 107 89
0.57404328 0.14997494 0.96199636 135 107 93
0.56382435 0.16917891 0.95885012 133 109 91
0.57398465 0.17005977 0.96203180 132 106 89
0.56311229 0.18882742 0.95912581 135 112 93
0.57314211 0.19010247 0.96213714 133 109 92
0.56243477 0.20796342 0.95950127 134 108 90
0.57231018 0.21018334 0.96237746 133 108 89
0.56061696 0.22624201 0.95970902 135 112 89
0.57042485 0.23004975 0.96246605 134 110 90
0.56972014 0.25003137 0.96311401 133 109 88
0.57026688 0.27010202 0.96429169 133 108 91
0.56971460 0.28979935 0.96514570 132 108 91
0.56990913 0.31003807 0.96622229 134 110 100
0.57006729 0.33012170 0.96752039 139 118 113
0.56941741 0.34995355 0.96925910 144 134 128
0.57015990 0.37026560 0.97178688 153 146 141
0.56999937 0.39045440 0.97474505 151 147 144
0.57003953 0.41026766 0.97808055 156 151 146
0.56748589 0.42165468 0.97979859 157 153 145
0.57074918 0.42843944 0.98232560 136 131 130
0.57587195 0.44685294 1.01505595 0 0 0
0.57193939 0.45363591 1.03170918 0 0 0
0.56606030 0.45788117 1.04244559 0 0 0
0.56940053 0.47011236 1.04999311 0 0 0
0.57024155 0.48995410 1.05624091 0 0 0
0.56845251 0.50183946 1.05953517 0 0 0
0.56999510 0.51173228 1.06205800 0 0 0
0.57025269 0.53002316 1.06643082 0 0 0
0.57003448 0.55015455 1.07098783 0 0 0
0.56998540 0.56997305 1.07527761 0 0 0
0.56942021 0.58663608 1.07864996 0 0 0
0.57129203 0.59694542 1.08073829 0 0 0
0.56984097 0.60853325 1.08294236 0 0 0
0.58899625 -0.68160687 1.01143899 0 0 0
0.59004359 -0.67008408 1.00987768 0 0 0
0.59904048 -0.64051991 0.97700882 159 161 168
0.59013411 -0.65080907 1.01144871 33 34 37
0.59085708 -0.62520339 0.95173214 186 190 191
0.59059383 -0.62808726 0.97214713 159 161 165
0.59385552 -0.62956891 0.99003765 147 147 154
0.58832891 -0.63145927 1.00861738 52 52 61
0.59025615 -0.60757224 0.92867612 200 204 202
0.58153648 -0.61729147 0.94850872 186 187 185
0.58227956 -0.61238831 0.99212687 140 139 154
0.58299470 -0.61564589 1.00520293 61 60 75
0.59018061 -0.59008713 0.92977260 198 202 203
0.58986757 -0.56978761 0.93153443 201 204 204
0.59014432 -0.54998502 0.93438321 201 206 205
0.58998988 -0.53019441 0.93725489 204 206 206
0.59126163 -0.51287483 0.93922608 205 207 208
0.58632807 -0.50390127 0.94058568 154 158 161
0.58983241 -0.49007321 0.94214080 157 159 164
0.59009433 -0.46983088 0.94521220 176 177 183
0.58979372 -0.44991824 0.94763408 197 199 200
0.59046054 -0.44458901 1.01148615 59 63 74
0.58954621 -0.44519675 1.02480848 50 50 65
0.59028740 -0.43037787 0.94950089 188 189 189
0.58797782 -0.42496114 0.96304370 101 112 116
0.59009159 -0.43005805 1.02268525 38 38 45
0.58903287 -0.40723106 1.01889423 33 33 41
0.59290140 -0.41620255 1.02055639 33 34 42
0.58983338 -0.39034365 1.01632686 35 35 44
0.58991565 -0.37019946 1.01342646 37 37 49
0.59006509 -0.34995095 1.01080590 39 38 49
0.59018853 -0.32978233 1.00854149 41 40 50
0.58982053 -0.31049223 1.00676292 42 43 52
0.59031675 -0.29003826 1.00516446 44 44 56
0.58961697 -0.27003532 1.00359503 47 46 60
0.59029055 -0.24994478 1.00240953 49 48 64
0.58111308 -0.22485316 0.99978140 54 52 69
0.59060877 -0.23044798 1.00139562 54 54 69
0.58374808 -0.20875671 0.99957806 62 62 77
