ply
format ascii 1.0
element vertex 1069
property float x
property float y
property float z
property uchar red
property uchar green
property uchar blue
end_header
0.57033086 0.05453891 0.51985568 168 169 173
0.57122940 0.05453891 0.51985568 155 156 160
0.57212794 0.05453891 0.51985568 145 148 151
0.57258737 0.05449712 0.51945734 143 146 150
0.57260764 0.05441372 0.51866245 150 154 157
0.57350409 0.05441372 0.51866245 149 155 158
0.57396144 0.05437212 0.51826596 152 158 161
0.57485718 0.05437212 0.51826596 158 164 167
0.57531315 0.05433058 0.51787001 167 175 178
0.56984478 0.05556527 0.52105445 168 174 176
0.57074541 0.05556527 0.52105445 168 172 174
0.57076859 0.05547998 0.52025467 167 168 170
0.57166779 0.05547998 0.52025467 159 160 162
0.57212794 0.05543743 0.51985568 146 148 153
0.57258737 0.05539495 0.51945734 138 141 148
0.57304609 0.05535254 0.51905960 140 143 151
0.57350409 0.05531019 0.51866245 146 152 158
0.57440054 0.05531019 0.51866245 152 160 165
0.57529700 0.05531019 0.51866245 155 163 169
0.57531315 0.05522568 0.51787001 159 167 171
0.57030702 0.05642250 0.52065426 193 196 196
0.56989384 0.05629279 0.51945734 199 200 200
0.57079166 0.05629279 0.51945734 195 196 196
0.57168949 0.05629279 0.51945734 172 174 175
0.57214892 0.05624969 0.51905960 143 147 150
0.57260764 0.05620665 0.51866245 140 143 146
0.57350409 0.05620665 0.51866245 144 149 151
0.57440054 0.05620665 0.51866245 151 157 159
0.57531315 0.05612078 0.51787001 156 161 165
0.56902176 0.05710312 0.51866245 199 200 200
0.56991822 0.05710312 0.51866245 189 190 190
0.57127410 0.05705946 0.51826596 144 145 147
0.57173276 0.05701587 0.51787001 140 142 143
0.56953239 0.05777855 0.51668584 156 160 159
0.56999099 0.05773455 0.51629233 153 157 156
0.57088333 0.05773455 0.51629233 156 160 161
0.56731391 0.05862692 0.51629233 179 183 181
0.56777382 0.05858230 0.51589942 182 186 183
0.56909859 0.05862692 0.51629233 176 180 179
0.56955719 0.05858230 0.51589942 169 173 172
0.57001507 0.05853775 0.51550710 164 169 169
0.57134056 0.05858230 0.51589942 168 177 181
0.57225293 0.05849327 0.51511538 165 175 180
0.55125284 0.05875851 0.50969309 115 96 120
0.55636132 0.05911409 0.51277751 147 128 152
0.56682426 0.05965559 0.51747471 175 179 178
0.56642151 0.05951929 0.51629233 181 185 184
0.56688213 0.05947399 0.51589942 184 188 187
0.56777382 0.05947399 0.51589942 183 187 187
0.56866550 0.05947399 0.51589942 175 179 178
0.56912410 0.05942876 0.51550710 171 175 174
0.56958193 0.05938360 0.51511538 172 176 176
0.57134056 0.05947399 0.51589942 175 182 187
0.57266808 0.05951929 0.51629233 173 181 187
0.57225293 0.05938360 0.51511538 168 176 182
0.57270813 0.05933851 0.51472425 164 173 178
0.55161613 0.05977431 0.51084542 105 87 110
0.55125284 0.05963948 0.50969309 112 94 118
0.55636132 0.06000038 0.51277751 145 127 151
0.55682641 0.05995503 0.51238990 166 159 172
0.55813390 0.06000038 0.51277751 182 186 189
0.56460440 0.06050382 0.51707995 178 182 183
0.56549817 0.06050382 0.51707995 174 178 178
0.56639189 0.06050382 0.51707995 172 176 175
0.56642151 0.06041165 0.51629233 178 183 183
0.56688213 0.06036568 0.51589942 183 188 189
0.56734204 0.06031977 0.51550710 184 188 189
0.56866550 0.06036568 0.51589942 180 182 184
0.56912410 0.06031977 0.51550710 179 180 182
0.56958193 0.06027394 0.51511538 181 182 184
0.57181847 0.06022817 0.51472425 173 173 182
0.57270813 0.06022817 0.51472425 177 178 187
0.55037189 0.06052044 0.50969309 106 95 113
0.55083871 0.06047497 0.50931019 119 109 127
0.55594081 0.06084066 0.51238990 154 145 162
0.55640584 0.06079470 0.51200289 167 163 175
0.55771202 0.06084066 0.51238990 175 180 182
0.56331539 0.06125737 0.51589942 165 170 172
0.56420708 0.06125737 0.51589942 162 168 168
0.56423992 0.06116427 0.51511538 168 175 174
0.56513029 0.06116427 0.51511538 174 180 181
0.56602061 0.06116427 0.51511538 177 184 186
0.56648052 0.06111783 0.51472425 176 182 184
0.56823307 0.06121079 0.51550710 175 180 183
0.56869161 0.06116427 0.51511538 176 179 183
0.56914949 0.06111783 0.51472425 180 182 186
0.57181847 0.06111783 0.51472425 168 169 177
0.57227355 0.06107146 0.51433372 179 180 189
0.55078602 0.06144761 0.51007664 112 108 118
0.55166763 0.06144761 0.51007664 134 131 140
0.55505520 0.06172628 0.51238990 166 165 174
0.55636132 0.06177297 0.51277751 174 174 182
0.55724764 0.06177297 0.51277751 176 177 183
0.55813390 0.06177297 0.51277751 169 175 177
0.56288701 0.06210180 0.51550710 163 170 171
0.56377798 0.06210180 0.51550710 168 177 176
0.56423992 0.06205461 0.51511538 173 182 181
0.56513029 0.06205461 0.51511538 176 185 185
0.56602061 0.06205461 0.51511538 177 185 187
0.56648052 0.06200749 0.51472425 174 183 184
0.56866550 0.06214906 0.51589942 171 179 182
0.56912410 0.06210180 0.51550710 168 175 182
0.56914949 0.06200749 0.51472425 171 178 184
0.57181847 0.06200749 0.51472425 158 162 170
0.57270813 0.06200749 0.51472425 168 172 179
-0.16258211 0.10716112 0.87696230 141 132 126
-0.15368639 0.10729993 0.87809825 120 111 115
-0.15177546 0.10702267 0.87582928 110 100 110
0.55286604 0.06256461 0.51200289 130 129 138
0.55416954 0.06261190 0.51238990 139 138 147
0.55673844 0.06280178 0.51394379 160 160 167
0.55762672 0.06280178 0.51394379 171 171 178
0.55809194 0.06275420 0.51355445 175 177 182
0.55897957 0.06275420 0.51355445 170 175 177
0.56071681 0.06284942 0.51433372 173 178 180
0.56417412 0.06313685 0.51668584 177 183 185
0.56549817 0.06318501 0.51707995 181 189 188
0.56682426 0.06323324 0.51747471 181 190 189
0.56728560 0.06318501 0.51707995 182 190 190
0.56774628 0.06313685 0.51668584 184 189 191
0.56863934 0.06313685 0.51668584 180 186 188
0.57083768 0.06328155 0.51787001 175 181 184
0.57042545 0.06313685 0.51668584 170 175 181
0.57044888 0.06304075 0.51589942 170 174 181
0.57268810 0.06299281 0.51550710 154 161 167
0.57357913 0.06299281 0.51550710 153 160 167
-0.17607488 0.10952702 0.88382250 109 83 69
-0.16734588 0.10881765 0.87809825 116 89 89
-0.16431044 0.10881765 0.87809825 134 123 119
-0.16258211 0.10867688 0.87696230 141 133 131
-0.16085826 0.10853647 0.87582928 134 133 133
-0.15934446 0.10853647 0.87582928 137 136 136
-0.15823956 0.10881765 0.87809825 130 129 129
-0.15672183 0.10881765 0.87809825 128 127 127
-0.15520412 0.10881765 0.87809825 124 121 123
-0.15368639 0.10881765 0.87809825 129 126 128
-0.15177546 0.10853647 0.87582928 124 118 125
0.55585015 0.06369009 0.51394379 149 148 157
0.55800760 0.06383528 0.51511538 162 162 169
0.55889791 0.06383528 0.51511538 171 172 178
0.55978829 0.06383528 0.51511538 177 177 183
0.56110495 0.06388383 0.51550710 178 181 183
0.56328106 0.06402990 0.51668584 180 184 185
0.56589937 0.06422571 0.51826596 182 186 187
0.56679517 0.06422571 0.51826596 179 185 185
0.56856030 0.06432407 0.51905960 178 184 184
0.56902176 0.06427485 0.51866245 178 184 184
0.56948251 0.06422571 0.51826596 184 187 189
0.57125175 0.06432407 0.51905960 180 184 185
0.57214892 0.06432407 0.51905960 176 180 182
0.57260764 0.06427485 0.51866245 173 177 179
0.57440054 0.06427485 0.51866245 168 172 176
0.57441807 0.06417664 0.51787001 167 170 177
0.57399762 0.06402990 0.51668584 161 164 171
-0.17843220 0.11062196 0.88037902 110 83 73
-0.17668107 0.11047848 0.87923717 110 82 71
-0.17607488 0.11105464 0.88382250 108 83 69
-0.17386721 0.11062196 0.88037902 108 83 70
-0.17104602 0.11076581 0.88152385 108 83 76
-0.16952237 0.11076581 0.88152385 112 86 81
-0.16734588 0.11033537 0.87809825 117 90 90
-0.16582817 0.11033537 0.87809825 129 120 116
-0.16431044 0.11033537 0.87809825 124 118 115
-0.16258211 0.11019263 0.87696230 128 127 125
-0.16106637 0.11019263 0.87696230 130 130 130
-0.15955061 0.11019263 0.87696230 139 138 138
-0.15844479 0.11047848 0.87923717 138 137 137
-0.15692510 0.11047848 0.87923717 140 136 137
-0.15560724 0.11062196 0.88037902 137 135 135
-0.15388572 0.11047848 0.87923717 133 132 132
-0.15197182 0.11019263 0.87696230 142 138 139
0.55585015 0.06457840 0.51394379 155 154 160
0.55843192 0.06477483 0.51550710 164 165 169
0.55932295 0.06477483 0.51550710 169 170 174
0.56021398 0.06477483 0.51550710 168 169 173
0.56153202 0.06482413 0.51589942 169 172 174
0.56371069 0.06497247 0.51707995 171 175 176
0.56589937 0.06512149 0.51826596 174 177 179
0.56722885 0.06517132 0.51866245 167 171 172
0.56899601 0.06527119 0.51945734 168 173 173
0.56945747 0.06522122 0.51905960 174 179 180
0.57035464 0.06522122 0.51905960 186 187 191
0.57212794 0.06532125 0.51985568 178 179 183
0.57258737 0.06527119 0.51945734 164 165 169
0.57304609 0.06522122 0.51905960 156 158 162
0.57529700 0.06517132 0.51866245 169 172 178
-0.18065771 0.11258226 0.88382250 107 82 73
-0.17866422 0.11228945 0.88152385 108 83 73
-0.17714058 0.11228945 0.88152385 105 80 66
-0.17630474 0.11272923 0.88497627 106 84 69
-0.17454726 0.11258226 0.88382250 107 85 70
-0.17324552 0.11272923 0.88497627 108 84 72
-0.17126873 0.11243566 0.88267165 109 83 76
-0.16974311 0.11243566 0.88267165 108 82 77
-0.16778055 0.11214362 0.88037902 106 79 81
-0.16625889 0.11214362 0.88037902 141 134 130
-0.16431044 0.11185309 0.87809825 158 154 150
-0.16279271 0.11185309 0.87809825 146 145 142
-0.16127500 0.11185309 0.87809825 133 131 131
-0.15975727 0.11185309 0.87809825 138 135 136
-0.15865056 0.11214362 0.88037902 140 137 137
-0.15733323 0.11228945 0.88152385 142 138 139
-0.15560724 0.11214362 0.88037902 145 143 143
-0.15408558 0.11214362 0.88037902 134 133 133
-0.15216866 0.11185309 0.87809825 119 118 118
0.55627185 0.06551638 0.51433372 165 165 166
0.55928254 0.06576587 0.51629233 164 164 166
0.56017494 0.06576587 0.51629233 163 163 165
0.56106728 0.06576587 0.51629233 159 159 161
0.56153202 0.06571582 0.51589942 160 161 164
0.56371069 0.06586620 0.51707995 163 164 168
0.56589937 0.06601727 0.51826596 168 169 172
0.56679517 0.06601727 0.51826596 169 170 173
0.56899601 0.06616903 0.51945734 173 174 176
0.56945747 0.06611837 0.51905960 179 180 182
0.57079166 0.06616903 0.51945734 177 177 181
0.57212794 0.06621978 0.51985568 165 164 169
0.57302642 0.06621978 0.51985568 147 146 151
-0.18065771 0.11410987 0.88382250 108 83 75
-0.17889686 0.11396129 0.88267165 108 83 76
-0.17737123 0.11396129 0.88267165 108 83 72
-0.17630474 0.11425884 0.88497627 106 84 71
-0.17454726 0.11410987 0.88382250 107 85 72
-0.17324552 0.11425884 0.88497627 107 85 72
-0.17126873 0.11396129 0.88267165 109 82 80
-0.16974311 0.11396129 0.88267165 107 79 80
-0.16778055 0.11366529 0.88037902 131 102 105
-0.16625889 0.11366529 0.88037902 159 151 147
-0.16431044 0.11337082 0.87809825 151 147 141
-0.16279271 0.11337082 0.87809825 127 127 121
-0.16106637 0.11322416 0.87696230 137 133 134
-0.15975727 0.11337082 0.87809825 140 136 137
-0.15865056 0.11366529 0.88037902 142 138 139
-0.15712890 0.11366529 0.88037902 147 143 144
-0.15560724 0.11366529 0.88037902 148 145 145
-0.15408558 0.11366529 0.88037902 148 146 146
-0.15216866 0.11337082 0.87809825 150 149 149
0.55711728 0.06650628 0.51511538 157 156 156
0.56056333 0.06681089 0.51747471 151 150 151
0.56145775 0.06681089 0.51747471 152 151 153
0.56192321 0.06675993 0.51707995 154 153 155
0.56238800 0.06670905 0.51668584 156 156 158
0.56414104 0.06681089 0.51747471 158 159 161
0.56589937 0.06691305 0.51826596 166 167 169
0.56722885 0.06696425 0.51866245 172 173 177
0.56899601 0.06706688 0.51945734 176 177 181
-0.18218534 0.11563749 0.88382250 115 87 78
-0.18065771 0.11563749 0.88382250 108 82 73
-0.17889686 0.11548692 0.88267165 109 84 74
-0.17737123 0.11548692 0.88267165 108 84 74
-0.17630474 0.11578845 0.88497627 106 84 72
-0.17477512 0.11578845 0.88497627 107 85 73
-0.17324552 0.11578845 0.88497627 106 84 74
-0.17126873 0.11548692 0.88267165 108 82 79
-0.16952237 0.11533674 0.88152385 109 81 81
-0.16756293 0.11503755 0.87923717 126 99 101
-0.16604324 0.11503755 0.87923717 147 139 135
-0.16409788 0.11473991 0.87696230 145 141 136
-0.16258211 0.11473991 0.87696230 130 129 125
-0.16106637 0.11473991 0.87696230 136 133 131
-0.15955061 0.11473991 0.87696230 139 136 135
-0.15844479 0.11503755 0.87923717 145 141 142
-0.15712890 0.11518695 0.88037902 152 148 149
-0.15560724 0.11518695 0.88037902 148 144 145
-0.15408558 0.11518695 0.88037902 148 144 145
-0.15216866 0.11488854 0.87809825 153 152 152
0.55402529 0.06734545 0.51472425 169 171 170
0.55618185 0.06749921 0.51589942 169 170 170
0.55834830 0.06765366 0.51707995 169 168 169
0.55796522 0.06749921 0.51589942 152 151 152
0.56099159 0.06775703 0.51787001 147 146 147
0.56188667 0.06775703 0.51787001 151 150 152
0.56235218 0.06770531 0.51747471 159 158 160
0.56281698 0.06765366 0.51707995 162 162 164
0.56414104 0.06770531 0.51747471 161 162 164
0.56546706 0.06775703 0.51787001 164 165 167
0.56679517 0.06780883 0.51826596 169 170 173
0.56812531 0.06786072 0.51866245 174 175 179
-0.18194811 0.11701255 0.88267165 108 81 72
-0.18042248 0.11701255 0.88267165 109 83 74
-0.17866422 0.11686038 0.88152385 108 83 74
-0.17714058 0.11686038 0.88152385 108 86 78
-0.17607488 0.11716510 0.88382250 107 83 77
-0.17454726 0.11716510 0.88382250 107 81 77
-0.17324552 0.11731806 0.88497627 106 77 75
-0.17126873 0.11701255 0.88267165 111 80 81
-0.16952237 0.11686038 0.88152385 112 80 82
-0.16756293 0.11655724 0.87923717 117 88 91
-0.16582817 0.11640626 0.87809825 136 130 125
-0.16388586 0.11610547 0.87582928 154 153 147
-0.16237207 0.11610547 0.87582928 148 148 145
-0.16085826 0.11610547 0.87582928 131 131 130
-0.15955061 0.11625567 0.87696230 136 135 135
-0.15844479 0.11655724 0.87923717 134 130 131
-0.15692510 0.11655724 0.87923717 140 136 137
-0.15540542 0.11655724 0.87923717 150 147 148
-0.15408558 0.11670861 0.88037902 154 154 154
-0.15216866 0.11640626 0.87809825 143 141 141
0.55318516 0.06813164 0.51394379 160 164 164
0.55796522 0.06839089 0.51589942 148 148 150
0.56056333 0.06859972 0.51747471 141 142 144
0.56145775 0.06859972 0.51747471 144 145 147
0.56149495 0.06849515 0.51668584 157 157 159
0.56153202 0.06839089 0.51589942 166 167 169
0.56242371 0.06839089 0.51589942 173 174 176
0.56460440 0.06854739 0.51707995 172 172 174
0.56592983 0.06859972 0.51747471 171 172 174
-0.18124014 0.11807694 0.87923717 107 79 72
-0.17972046 0.11807694 0.87923717 108 81 74
-0.17820077 0.11807694 0.87923717 106 80 73
-0.17622395 0.11777143 0.87696230 101 77 76
-0.17516139 0.11807694 0.87923717 110 77 79
-0.17386721 0.11823028 0.88037902 111 72 76
-0.17256966 0.11838403 0.88152385 113 74 78
-0.17104602 0.11838403 0.88152385 120 78 84
-0.16908263 0.11807694 0.87923717 113 71 77
-0.16734588 0.11792398 0.87809825 128 89 96
-0.16561364 0.11777143 0.87696230 137 124 124
-0.16367440 0.11746750 0.87469918 130 126 125
-0.16216256 0.11746750 0.87469918 125 125 125
-0.16085826 0.11761927 0.87582928 134 134 134
-0.15934446 0.11761927 0.87582928 136 135 135
-0.15823956 0.11792398 0.87809825 128 124 126
-0.15672183 0.11792398 0.87809825 109 104 106
-0.15540542 0.11807694 0.87923717 127 124 126
-0.15408558 0.11823028 0.88037902 147 147 150
-0.15216866 0.11792398 0.87809825 142 135 139
0.56149495 0.06938820 0.51668584 155 156 158
0.56067860 0.06917729 0.51511538 165 165 167
0.56114256 0.06912477 0.51472425 172 172 174
-0.18124014 0.11959662 0.87923717 107 81 74
-0.17948766 0.11944170 0.87809825 106 80 74
-0.17796993 0.11944170 0.87809825 103 77 72
-0.17599626 0.11913307 0.87582928 103 74 74
-0.17493449 0.11944170 0.87809825 106 73 75
-0.17364170 0.11959662 0.87923717 108 72 75
-0.17256966 0.11990767 0.88152385 112 72 77
-0.17082387 0.11975195 0.88037902 117 76 83
-0.16908263 0.11959662 0.87923717 130 88 97
-0.16712940 0.11928719 0.87696230 152 130 135
-0.16561364 0.11928719 0.87696230 120 114 116
-0.16367440 0.11897935 0.87469918 106 106 106
-0.16216256 0.11897935 0.87469918 113 113 113
-0.16085826 0.11913307 0.87582928 131 131 131
-0.15934446 0.11913307 0.87582928 132 132 132
-0.15823956 0.11944170 0.87809825 135 135 137
-0.15692510 0.11959662 0.87923717 131 126 130
-0.15448684 0.12006380 0.88267165 128 120 127
-0.15216866 0.11944170 0.87809825 98 89 96
0.56106728 0.07022772 0.51629233 159 161 163
0.55982780 0.06996130 0.51433372 161 163 165
-0.18323515 0.12143131 0.88152385 108 80 76
-0.18171151 0.12143131 0.88152385 107 80 75
-0.17995386 0.12127361 0.88037902 106 80 75
-0.17843220 0.12127361 0.88037902 103 77 73
-0.17622395 0.12080295 0.87696230 103 74 73
-0.17538887 0.12127361 0.88037902 103 74 73
-0.17431998 0.12158942 0.88267165 103 74 73
-0.17279436 0.12158942 0.88267165 108 74 77
-0.17126873 0.12158942 0.88267165 112 81 84
-0.16930221 0.12127361 0.88037902 118 89 92
-0.16734588 0.12095942 0.87809825 143 129 129
-0.16582817 0.12095942 0.87809825 147 141 141
-0.16367440 0.12049120 0.87469918 138 135 136
-0.16237207 0.12064687 0.87582928 136 136 136
-0.16106637 0.12080295 0.87696230 135 135 135
-0.15865056 0.12127361 0.88037902 138 134 137
0.55940336 0.07079657 0.51394379 163 167 168
-0.18299718 0.12279527 0.88037902 107 80 79
-0.18171151 0.12295495 0.88152385 107 80 78
-0.18018787 0.12295495 0.88152385 106 79 76
-0.17843220 0.12279527 0.88037902 104 78 73
-0.17645222 0.12247715 0.87809825 103 76 74
-0.17584561 0.12311505 0.88267165 104 76 73
-0.17431998 0.12311505 0.88267165 106 76 74
-0.17279436 0.12311505 0.88267165 109 77 79
-0.17126873 0.12311505 0.88267165 106 77 78
-0.16930221 0.12279527 0.88037902 130 103 104
-0.16388586 0.12216067 0.87582928 140 136 133
-0.16258211 0.12231871 0.87696230 141 139 138
-0.16148417 0.12263601 0.87923717 140 138 138
-0.15927111 0.12327556 0.88382250 137 133 134
-0.18275984 0.12415569 0.87923717 107 80 78
-0.18147552 0.12431693 0.88037902 107 81 76
-0.17995386 0.12431693 0.88037902 105 79 73
-0.17820077 0.12415569 0.87923717 104 78 72
-0.17645222 0.12399487 0.87809825 103 75 69
-0.17538887 0.12431693 0.88037902 104 74 70
-0.17386721 0.12431693 0.88037902 107 76 73
-0.17234553 0.12431693 0.88037902 108 78 81
-0.17060232 0.12415569 0.87923717 94 65 69
-0.16908263 0.12415569 0.87923717 141 113 118
-0.16409788 0.12383446 0.87696230 135 132 130
-0.16258211 0.12383446 0.87696230 133 129 130
-0.15996449 0.12415569 0.87923717 135 131 132
-0.15927111 0.12480318 0.88382250 138 134 135
-0.15753809 0.12464067 0.88267165 136 132 133
-0.18356526 0.12518828 0.87582928 112 81 78
-0.18252310 0.12551259 0.87809825 109 81 78
-0.18100537 0.12551259 0.87809825 115 88 85
-0.17972046 0.12567538 0.87923717 108 80 76
-0.17796993 0.12551259 0.87809825 104 77 70
-0.17599626 0.12518828 0.87582928 105 74 75
-0.17493449 0.12551259 0.87809825 105 72 76
-0.17341676 0.12551259 0.87809825 105 72 79
-0.17167667 0.12535022 0.87696230 109 79 85
-0.17016090 0.12535022 0.87696230 103 76 82
-0.15885687 0.12600224 0.88152385 143 137 139
-0.18436447 0.12621287 0.87244767 113 85 74
-0.18332841 0.12653859 0.87469918 111 83 73
-0.18228698 0.12686598 0.87696230 108 83 74
-0.18053767 0.12670207 0.87582928 107 81 76
-0.17925546 0.12686598 0.87696230 103 76 73
-0.17773971 0.12686598 0.87696230 102 75 75
-0.17576918 0.12653859 0.87469918 104 75 76
-0.17448246 0.12670207 0.87582928 104 75 77
-0.17296867 0.12670207 0.87582928 108 78 81
-0.17123364 0.12653859 0.87469918 108 81 84
-0.18436447 0.12772083 0.87244767 110 85 73
-0.18332841 0.12805043 0.87469918 111 86 75
-0.18205146 0.12821586 0.87582928 108 83 73
-0.18030471 0.12805043 0.87469918 105 79 75
-0.17902386 0.12821586 0.87582928 103 76 73
-0.17751007 0.12821586 0.87582928 102 76 73
-0.17554267 0.12788542 0.87357193 104 73 76
-0.17425732 0.12805043 0.87469918 106 73 77
-0.17274548 0.12805043 0.87469918 111 78 80
-0.18332841 0.12956227 0.87469918 109 84 72
-0.18181656 0.12956227 0.87469918 107 82 73
-0.18007237 0.12939532 0.87357193 102 77 73
-0.17879286 0.12956227 0.87469918 102 77 74
-0.17728102 0.12956227 0.87469918 104 75 75
-0.17531674 0.12922879 0.87244767 107 70 74
-0.17380878 0.12922879 0.87244767 108 72 76
-0.18181656 0.13107412 0.87469918 103 78 75
-0.17960945 0.13056870 0.87132627 101 77 74
-0.17833266 0.13073674 0.87244767 103 79 76
-0.17705256 0.13090521 0.87357193 104 77 77
-0.17464244 0.13023390 0.86909211 105 77 76
-0.17314029 0.13023390 0.86909211 107 78 78
-0.18181656 0.13258597 0.87469918 101 77 70
0.24104823 0.10479070 0.51511538 176 174 169
0.24464875 0.10519036 0.51707995 176 175 173
0.24554248 0.10519036 0.51707995 156 154 146
0.24624838 0.10511018 0.51668584 171 170 161
0.24178314 0.10600323 0.51668584 174 171 165
0.24502255 0.10624617 0.51787001 164 163 159
0.24591765 0.10624617 0.51787001 153 146 141
0.24662434 0.10616507 0.51747471 173 165 159
0.24732995 0.10608409 0.51707995 173 164 158
0.24178314 0.10689628 0.51668584 177 173 167
0.24450102 0.10730522 0.51866245 178 174 170
0.24502255 0.10714127 0.51787001 161 157 154
0.24591765 0.10714127 0.51787001 149 144 141
0.24662434 0.10705949 0.51747471 160 153 151
0.24732995 0.10697782 0.51707995 161 150 145
0.24803448 0.10689628 0.51668584 161 149 144
0.24125786 0.10795390 0.51747471 166 164 161
0.24196756 0.10787155 0.51707995 162 160 157
0.24323235 0.10803637 0.51787001 175 169 169
0.24450102 0.10820168 0.51866245 172 167 166
0.24502255 0.10803637 0.51787001 168 164 163
0.24591765 0.10803637 0.51787001 161 157 156
0.24662434 0.10795390 0.51747471 160 155 155
0.24732995 0.10787155 0.51707995 160 153 150
0.24803448 0.10778933 0.51668584 160 152 148
0.24835964 0.10754342 0.51550710 162 154 148
0.24125786 0.10884831 0.51747471 173 169 168
0.24196756 0.10876528 0.51707995 161 157 156
0.24323235 0.10893146 0.51787001 167 162 164
0.24450102 0.10909815 0.51866245 166 162 164
0.24502255 0.10893146 0.51787001 167 166 167
0.24591765 0.10893146 0.51787001 166 165 165
0.24662434 0.10884831 0.51747471 168 167 165
0.24751875 0.10884831 0.51747471 182 179 175
0.24822368 0.10876528 0.51707995 189 185 180
0.24854864 0.10851696 0.51589942 181 176 171
0.24036345 0.10974272 0.51747471 169 161 162
0.24125786 0.10974272 0.51747471 174 170 169
0.24196756 0.10965902 0.51707995 171 169 167
0.24323235 0.10982656 0.51787001 173 171 172
0.24431409 0.10991053 0.51826596 173 172 173
0.24502255 0.10982656 0.51787001 172 171 172
0.24591765 0.10982656 0.51787001 169 168 168
0.24662434 0.10974272 0.51747471 170 169 165
0.24751875 0.10974272 0.51747471 178 176 171
0.24822368 0.10965902 0.51707995 184 179 174
0.24873795 0.10949197 0.51629233 177 171 168
0.24036345 0.11063714 0.51747471 173 158 161
0.24144216 0.11072166 0.51787001 178 170 171
0.24196756 0.11055274 0.51707995 180 179 177
0.24323235 0.11072166 0.51787001 181 180 178
0.24431409 0.11080631 0.51826596 176 175 173
0.24502255 0.11072166 0.51787001 175 174 172
0.24591765 0.11072166 0.51787001 177 176 175
0.24662434 0.11063714 0.51747471 174 171 168
0.24751875 0.11063714 0.51747471 169 165 163
0.24841316 0.11063714 0.51747471 168 161 159
0.24892753 0.11046848 0.51668584 162 154 153
0.24036345 0.11153155 0.51747471 168 151 154
0.24144216 0.11161675 0.51787001 175 160 161
0.24196756 0.11144648 0.51707995 182 171 167
0.24431409 0.11170208 0.51826596 171 170 168
0.24502255 0.11161675 0.51787001 170 169 167
0.24591765 0.11161675 0.51787001 176 175 173
0.24662434 0.11153155 0.51747471 169 165 164
0.24751875 0.11153155 0.51747471 153 149 148
0.24841316 0.11153155 0.51747471 165 154 156
0.24892753 0.11136153 0.51668584 159 149 151
0.24107383 0.11234020 0.51707995 164 156 152
0.24159899 0.11216909 0.51629233 167 159 155
0.24412745 0.11251185 0.51787001 171 168 164
0.24464875 0.11234020 0.51707995 165 160 158
0.24572992 0.11242596 0.51747471 164 159 158
0.24643622 0.11234020 0.51707995 159 153 154
0.24732995 0.11234020 0.51707995 163 157 159
0.24803448 0.11225458 0.51668584 174 165 166
0.24854864 0.11208372 0.51589942 166 157 158
0.24412745 0.11340694 0.51787001 174 171 165
0.24464875 0.11323394 0.51707995 174 170 166
0.24554248 0.11323394 0.51707995 171 167 167
0.24624838 0.11314763 0.51668584 167 161 161
0.24714144 0.11314763 0.51668584 168 160 160
0.24784558 0.11306146 0.51629233 167 158 159
0.24835964 0.11288950 0.51550710 167 158 159
0.24412745 0.11430204 0.51787001 163 162 155
0.24464875 0.11412767 0.51707995 175 174 169
0.24554248 0.11412767 0.51707995 172 171 169
0.24624838 0.11404068 0.51668584 164 162 161
0.24732995 0.11412767 0.51707995 162 159 158
0.24803448 0.11404068 0.51668584 163 158 157
0.24854864 0.11386710 0.51589942 168 161 161
0.24944034 0.11386710 0.51589942 169 160 163
0.24375503 0.11502140 0.51707995 169 168 165
0.24446228 0.11493373 0.51668584 171 170 167
0.24535534 0.11493373 0.51668584 170 169 167
0.24606083 0.11484619 0.51629233 155 154 152
0.24714144 0.11493373 0.51668584 158 157 155
0.24784558 0.11484619 0.51629233 160 158 156
0.24854864 0.11475879 0.51589942 163 158 157
0.24925065 0.11467152 0.51550710 162 156 157
0.25052267 0.11484619 0.51629233 152 145 148
0.24104823 0.11547472 0.51511538 177 176 175
0.24230681 0.11565048 0.51589942 178 177 176
0.24356924 0.11582678 0.51668584 170 169 167
0.24427609 0.11573856 0.51629233 161 160 158
0.24516846 0.11573856 0.51629233 168 167 165
0.24587357 0.11565048 0.51589942 153 151 149
0.24695320 0.11573856 0.51629233 151 147 146
0.24746862 0.11556254 0.51550710 145 141 140
0.24835964 0.11556254 0.51550710 157 153 152
0.24925065 0.11556254 0.51550710 158 154 153
0.24212255 0.11645355 0.51550710 165 164 164
0.24338374 0.11663093 0.51629233 166 164 164
0.24409020 0.11654218 0.51589942 156 154 154
0.24498188 0.11654218 0.51589942 161 157 156
0.24568661 0.11645355 0.51550710 159 155 154
0.24676527 0.11654218 0.51589942 137 131 131
0.24728058 0.11636506 0.51511538 121 115 115
0.24817091 0.11636506 0.51511538 111 105 106
0.24906126 0.11636506 0.51511538 145 139 139
0.24086520 0.11716636 0.51472425 153 152 152
0.24212255 0.11734456 0.51550710 157 157 154
0.24319850 0.11743386 0.51589942 161 160 157
0.24390458 0.11734456 0.51550710 163 161 159
0.24479559 0.11734456 0.51550710 163 160 159
0.24568661 0.11734456 0.51550710 159 157 155
0.24657761 0.11734456 0.51550710 114 109 110
0.24728058 0.11725539 0.51511538 94 88 90
0.24817091 0.11725539 0.51511538 67 61 65
0.24906126 0.11725539 0.51511538 91 85 89
0.24353418 0.11805602 0.51472425 158 157 153
0.24442384 0.11805602 0.51472425 154 153 150
0.24531350 0.11805602 0.51472425 124 123 121
0.24639024 0.11814573 0.51511538 111 108 107
0.24690534 0.11796645 0.51433372 119 115 115
0.24639024 0.11903606 0.51511538 129 125 124
1.92244112 0.45771909 1.71184814 174 175 176
1.93027425 0.45887789 1.71618187 171 172 173
1.91406178 0.46656892 1.73373878 172 172 174
1.92305171 0.46656892 1.73373878 176 176 178
1.93098688 0.46776524 1.73818421 179 179 181
1.93399119 0.46776524 1.73818421 183 183 184
1.93204153 0.46656892 1.73373878 180 180 181
1.92730796 0.46184415 1.71618187 169 172 174
1.93027425 0.46184415 1.71618187 171 174 176
1.89537692 0.46717590 1.72491562 178 178 178
1.89835835 0.46717590 1.72491562 177 177 177
1.90619004 0.46836767 1.72931588 173 173 176
1.90432107 0.46717590 1.72491562 167 167 174
1.91814590 0.46836767 1.72931588 174 173 181
1.92604828 0.46956554 1.73373878 175 174 181
1.93399119 0.47076955 1.73818421 176 178 185
1.92244112 0.46363667 1.71184814 166 170 173
1.93027425 0.46481043 1.71618187 172 176 179
1.92835867 0.46363667 1.71184814 171 175 178
1.89835835 0.47015727 1.72491562 178 178 180
1.90133965 0.47015727 1.72491562 175 176 178
1.90432107 0.47015727 1.72491562 168 169 172
1.90730238 0.47015727 1.72491562 161 162 165
1.92604828 0.47256216 1.73373878 164 164 173
1.93399119 0.47377387 1.73818421 159 162 170
1.93204153 0.47256216 1.73373878 155 160 167
1.92244112 0.46659547 1.71184814 168 172 175
1.93027425 0.46777672 1.71618187 173 178 180
1.92835867 0.46659547 1.71184814 170 175 178
1.89354014 0.47193778 1.72053766 176 177 179
1.90133965 0.47313863 1.72491562 177 178 180
1.89948773 0.47193778 1.72053766 168 171 173
1.90730238 0.47313863 1.72491562 161 164 165
1.91028380 0.47313863 1.72491562 157 160 163
1.91326523 0.47313863 1.72491562 158 160 167
1.92113495 0.47434562 1.72931588 157 160 166
1.92904496 0.47555879 1.73373878 152 156 162
1.92711294 0.47434562 1.72931588 145 150 157
1.92922580 0.47193778 1.72053766 147 150 157
1.92730796 0.47074300 1.71618187 166 171 174
1.93027425 0.47074300 1.71618187 176 182 184
1.92835867 0.46955425 1.71184814 176 182 184
1.88101804 0.47251305 1.71184814 172 172 175
1.88874638 0.47370929 1.71618187 180 181 183
1.89651394 0.47491160 1.72053766 181 182 184
1.89467895 0.47370929 1.71618187 172 175 176
1.89764524 0.47370929 1.71618187 169 173 174
1.90543532 0.47491160 1.72053766 169 173 174
1.90840912 0.47491160 1.72053766 172 176 178
1.91624653 0.47612002 1.72491562 169 173 175
1.92412388 0.47733462 1.72931588 164 167 171
1.92434168 0.47370929 1.71618187 152 155 162
1.92244112 0.47251305 1.71184814 162 167 172
1.92539990 0.47251305 1.71184814 171 178 181
1.88101804 0.47547185 1.71184814 174 175 178
1.88874638 0.47667557 1.71618187 182 183 185
1.89171267 0.47667557 1.71618187 181 182 184
1.89467895 0.47667557 1.71618187 170 173 176
1.89764524 0.47667557 1.71618187 166 170 172
1.90061152 0.47667557 1.71618187 171 175 178
1.90357780 0.47667557 1.71618187 176 180 182
1.91138303 0.47788540 1.72053766 174 178 180
1.91922796 0.47910139 1.72491562 168 171 174
1.91544282 0.47667557 1.71618187 159 160 168
1.92434168 0.47667557 1.71618187 156 159 166
1.92244112 0.47547185 1.71184814 162 167 173
1.92539990 0.47547185 1.71184814 165 172 177
1.91493344 0.47071713 1.69472957 169 176 179
1.88101804 0.47843063 1.71184814 177 178 180
1.88989437 0.47843063 1.71184814 166 167 170
1.89764524 0.47964185 1.71618187 161 163 167
1.89581192 0.47843063 1.71184814 165 167 171
1.89398789 0.47722551 1.70753610 170 172 177
1.90654409 0.47964185 1.71618187 169 171 176
1.91435683 0.48085922 1.72053766 162 163 169
1.91247654 0.47964185 1.71618187 158 158 166
1.91544282 0.47964185 1.71618187 151 151 160
1.91356468 0.47843063 1.71184814 145 145 154
1.92137539 0.47964185 1.71618187 141 143 152
1.92434168 0.47964185 1.71618187 155 158 166
1.91759861 0.47722551 1.70753610 166 169 177
1.92054999 0.47722551 1.70753610 167 171 179
1.92350137 0.47722551 1.70753610 171 176 183
1.92161238 0.47602645 1.70324588 172 175 182
1.91493344 0.47364631 1.69472957 169 171 178
1.88808525 0.48017687 1.70753610 176 177 179
1.89103663 0.48017687 1.70753610 173 174 176
1.88922918 0.47897038 1.70324588 172 173 177
1.90172958 0.48138943 1.71184814 170 170 177
1.90951037 0.48260814 1.71618187 158 158 165
1.91247654 0.48260814 1.71618187 150 150 158
1.91060591 0.48138943 1.71184814 144 144 153
1.91356468 0.48138943 1.71184814 139 140 149
1.91652346 0.48138943 1.71184814 140 143 151
1.91948223 0.48138943 1.71184814 149 152 160
1.91759861 0.48017687 1.70753610 159 162 170
1.91572452 0.47897038 1.70324588 161 164 172
1.91866839 0.47897038 1.70324588 166 169 177
1.91679621 0.47776994 1.69897699 167 170 177
1.91015804 0.47538707 1.69050336 165 166 172
1.88693559 0.48434821 1.71184814 180 183 184
1.88513398 0.48312819 1.70753610 180 183 184
1.89285314 0.48434821 1.71184814 180 183 185
1.89103663 0.48312819 1.70753610 179 182 183
1.88922918 0.48191431 1.70324588 176 178 181
1.90172958 0.48434821 1.71184814 173 173 179
1.90951037 0.48557442 1.71618187 159 159 165
1.91247654 0.48557442 1.71618187 148 150 156
1.91060591 0.48434821 1.71184814 142 145 152
1.91356468 0.48434821 1.71184814 144 147 154
1.91652346 0.48434821 1.71184814 143 146 153
1.91948223 0.48434821 1.71184814 144 148 156
1.91278052 0.48191431 1.70324588 150 153 161
1.91092312 0.48070648 1.69897699 150 153 162
1.91385972 0.48070648 1.69897699 152 156 164
1.91679621 0.48070648 1.69897699 153 157 165
1.91493344 0.47950473 1.69472957 148 151 158
0.65291756 0.38440952 1.35038221 170 164 160
1.89651394 0.48978063 1.72053766 174 178 180
1.89467895 0.48854068 1.71618187 177 181 184
1.89581192 0.48730701 1.71184814 178 185 186
1.89877069 0.48730701 1.71184814 174 181 182
1.90654409 0.48854068 1.71618187 170 176 179
1.91435683 0.48978063 1.72053766 162 167 170
1.91733062 0.48978063 1.72053766 155 161 163
1.91544282 0.48854068 1.71618187 151 158 161
1.91840911 0.48854068 1.71618187 158 165 168
1.91948223 0.48730701 1.71184814 155 160 167
1.91759861 0.48607954 1.70753610 159 164 170
1.91572452 0.48485821 1.70324588 157 162 170
1.92350137 0.48607954 1.70753610 156 160 170
1.92645264 0.48607954 1.70753610 155 159 168
1.92455626 0.48485821 1.70324588 152 155 164
0.64745069 0.38906863 1.35850072 163 155 147
0.64849913 0.38829052 1.35578370 168 159 153
0.64696074 0.38597468 1.34769750 172 163 158
0.64929008 0.38597468 1.34769750 171 163 155
0.65161949 0.38597468 1.34769750 170 162 155
0.65265137 0.38520885 1.34502351 175 169 163
1.92030442 0.49275446 1.72053766 159 166 168
1.92327821 0.49275446 1.72053766 165 173 174
1.92835867 0.49026579 1.71184814 164 167 177
1.93131745 0.49026579 1.71184814 156 159 169
1.92940402 0.48903087 1.70753610 161 164 174
0.64615577 0.39063388 1.35578370 165 157 149
0.64849913 0.39063388 1.35578370 158 150 144
0.64567709 0.38753361 1.34502351 162 154 148
0.64800185 0.38753361 1.34502351 169 161 154
0.65161949 0.38830405 1.34769750 174 166 158
0.65135896 0.38676620 1.34236014 170 162 156
0.65238726 0.38600186 1.33970726 158 151 145
1.93427622 0.49322459 1.71184814 162 165 175
0.64720470 0.39219284 1.35307753 161 161 152
0.64929008 0.39063343 1.34769750 177 172 165
0.65161949 0.39063343 1.34769750 181 173 167
0.65135896 0.38908637 1.34236014 167 158 156
0.65238726 0.38831744 1.33970726 161 152 150
0.64745069 0.39611283 1.35850072 172 170 163
0.64849913 0.39532059 1.35578370 170 169 162
0.65058351 0.39374560 1.35038221 173 171 165
0.65161949 0.39296281 1.34769750 174 170 167
0.65265137 0.39218313 1.34502351 168 164 163
0.65367913 0.39140654 1.34236014 167 163 162
0.65991962 0.39374560 1.35038221 157 156 155
0.96547097 0.35046151 1.20193589 117 92 79
0.96754837 0.35046151 1.20193589 117 91 79
0.64979869 0.39846089 1.35850072 175 171 169
0.65058351 0.39607963 1.35038221 170 166 164
0.65291756 0.39607963 1.35038221 171 167 166
0.65265137 0.39450788 1.34502351 166 163 162
0.96718580 0.35316515 1.20407081 116 93 75
0.96926695 0.35316515 1.20407081 117 93 76
0.96790969 0.35191500 1.19980860 117 93 76
0.65241361 0.40242186 1.36396754 176 171 170
0.65058351 0.39841366 1.35038221 166 161 159
0.65161949 0.39762160 1.34769750 174 169 168
0.65265137 0.39683267 1.34502351 171 167 166
0.97795212 0.35842949 1.21485996 119 95 76
0.65318584 0.40235069 1.35578370 162 158 157
0.65422076 0.40154758 1.35307753 168 162 162
0.65525156 0.40074769 1.35038221 170 164 164
0.66655862 0.40477937 1.36396754 173 169 168
0.66891617 0.40477937 1.36396754 173 173 172
0.98323840 0.36247811 1.22142673 120 96 78
0.98357731 0.36182615 1.21922994 118 94 76
0.65712863 0.40713686 1.36396754 175 171 170
0.65552920 0.40469405 1.35578370 166 162 163
0.65655947 0.40388626 1.35307753 157 153 154
0.65889812 0.40388626 1.35307753 161 159 158
0.66655862 0.40713686 1.36396754 168 167 165
0.66757298 0.40631932 1.36122859 165 164 162
0.68047702 0.41127443 1.37782896 149 149 147
0.98467559 0.36590782 1.22584414 119 95 78
0.98501319 0.36524734 1.22363150 118 94 77
0.98534954 0.36458924 1.22142673 117 93 76
0.65904385 0.41365591 1.37782896 169 164 163
0.66111928 0.41198120 1.37225068 178 176 175
0.65816188 0.40867209 1.36122859 170 169 169
0.65787256 0.40703741 1.35578370 163 162 162
0.66286743 0.40867209 1.36122859 164 163 161
0.67060655 0.41198120 1.37225068 179 178 176
0.67161882 0.41114891 1.36947846 182 178 176
0.67809552 0.41365591 1.37782896 177 173 171
0.68325448 0.41534430 1.38345277 157 152 152
0.68944389 0.41619366 1.38628185 164 159 159
0.98824978 0.36936244 1.23029375 118 94 78
0.98858207 0.36869329 1.22806489 118 93 78
0.99070466 0.36869329 1.22806489 117 92 77
0.66038609 0.41688469 1.38063514 172 167 166
0.66246027 0.41519347 1.37503421 179 175 174
0.66081572 0.41268224 1.36671746 172 168 167
0.66051465 0.41102487 1.36122859 169 167 165
0.67196685 0.41519347 1.37503421 182 178 176
0.67434347 0.41519347 1.37503421 192 187 184
0.68086326 0.41773549 1.38345277 191 186 181
0.68465173 0.41858974 1.38628185 176 170 170
0.68845570 0.41944751 1.38912261 157 151 151
0.69085670 0.41944751 1.38912261 153 147 147
0.69468117 0.42030880 1.39197505 142 136 136
0.69852144 0.42117363 1.39483917 134 129 130
0.69949299 0.42030880 1.39197505 144 140 141
0.99184996 0.37284222 1.23477566 119 93 79
0.99217689 0.37216434 1.23253059 118 91 78
0.99430722 0.37216434 1.23253059 118 91 79
0.99825257 0.37284222 1.23477566 117 90 78
0.65799975 0.41927102 1.38063514 175 171 169
0.66038609 0.41927102 1.38063514 157 153 151
0.66142529 0.41841882 1.37782896 168 164 162
0.66184366 0.41420940 1.36396754 168 162 162
0.67196685 0.41757011 1.37503421 159 152 151
0.67434347 0.41757011 1.37503421 162 156 153
0.67947662 0.41927102 1.38063514 162 157 152
0.68325448 0.42012668 1.38345277 155 149 147
0.68845570 0.42184851 1.38912261 160 154 154
0.69085670 0.42184851 1.38912261 158 152 152
0.69468117 0.42271471 1.39197505 157 151 151
0.69852144 0.42358449 1.39483917 154 150 150
0.69949299 0.42271471 1.39197505 159 155 154
0.99729967 0.37703675 1.24156010 123 94 83
0.99579799 0.37566072 1.23702896 116 87 76
0.99976045 0.37634748 1.23929036 114 87 75
1.00373745 0.37703675 1.24156010 113 87 75
1.01144075 0.37911981 1.24841964 114 88 76
0.65295374 0.41994676 1.37503421 169 167 165
0.65533036 0.41994676 1.37503421 161 157 156
0.65904385 0.42080030 1.37782896 150 146 145
0.66008365 0.41994676 1.37503421 150 146 145
0.66051465 0.41573042 1.36122859 167 158 159
0.66420114 0.41656691 1.36396754 160 151 152
0.66925180 0.41824999 1.36947846 167 158 159
0.67161882 0.41824999 1.36947846 165 157 158
0.67809552 0.42080030 1.37782896 153 146 147
0.68186289 0.42165732 1.38063514 144 138 138
0.68704778 0.42338189 1.38628185 150 144 144
0.68944389 0.42338189 1.38628185 154 148 148
0.69325763 0.42424947 1.38912261 149 143 143
0.69708711 0.42512062 1.39197505 156 151 150
1.00096619 0.38057673 1.24612474 120 94 83
0.99944562 0.37918270 1.24156010 115 89 78
1.00342929 0.37987843 1.24383819 113 88 73
1.00742769 0.38057673 1.24612474 112 87 72
1.00987899 0.37987843 1.24383819 114 89 75
0.65428090 0.42318177 1.37782896 171 169 167
0.65666234 0.42318177 1.37782896 166 162 161
0.65904385 0.42318177 1.37782896 163 159 158
0.66008365 0.42232338 1.37503421 156 152 151
0.66081572 0.41976902 1.36671746 154 143 145
0.66051465 0.41808319 1.36122859 167 158 159
0.66420114 0.41892439 1.36396754 162 153 154
0.66925180 0.42061701 1.36947846 166 157 158
0.67161882 0.42061701 1.36947846 166 157 158
0.67672008 0.42232338 1.37503421 164 155 156
0.68186289 0.42404366 1.38063514 162 153 154
0.68564564 0.42490903 1.38345277 162 153 153
0.68944389 0.42577797 1.38628185 163 155 155
0.69325763 0.42665046 1.38912261 164 158 158
0.69708711 0.42752653 1.39197505 164 159 158
1.00838077 0.38556561 1.25535524 119 94 82
1.00496745 0.38343540 1.24841964 117 92 80
1.01084840 0.38485292 1.25303483 115 90 76
1.01677299 0.38628095 1.25768435 114 89 74
1.02112067 0.38628095 1.25768435 115 90 77
0.65561342 0.42642996 1.38063514 158 156 155
0.65799975 0.42642996 1.38063514 159 155 154
0.66038609 0.42642996 1.38063514 163 159 159
0.66277242 0.42642996 1.38063514 165 161 160
0.66380674 0.42556325 1.37782896 156 149 150
0.66081572 0.42213127 1.36671746 157 148 149
0.66051465 0.42043597 1.36122859 160 153 154
0.66286743 0.42043597 1.36122859 161 155 156
0.66790253 0.42213127 1.36671746 161 156 155
0.67026478 0.42213127 1.36671746 165 160 160
0.67535025 0.42384031 1.37225068 170 163 162
0.68047702 0.42556325 1.37782896 175 168 167
0.68564564 0.42730021 1.38345277 168 159 157
0.68803686 0.42730021 1.38345277 162 154 152
0.69183993 0.42817405 1.38628185 174 167 164
0.69565862 0.42905146 1.38912261 166 161 158
1.00621104 0.38773540 1.25535524 117 95 82
1.01025164 0.38845474 1.25768435 119 94 83
1.00682163 0.38630462 1.25072300 117 92 81
1.01272035 0.38773540 1.25535524 115 90 79
1.01866293 0.38917679 1.26002204 114 89 77
1.02464986 0.39062893 1.26472354 114 89 78
1.02301860 0.38917679 1.26002204 115 90 79
0.66081572 0.42449352 1.36671746 167 163 162
0.66153902 0.42194146 1.35850072 163 159 160
0.66522020 0.42278874 1.36122859 162 158 158
0.66757298 0.42278874 1.36122859 169 165 164
0.67398590 0.42535108 1.36947846 170 164 164
0.67772204 0.42621213 1.37225068 167 161 161
0.68285847 0.42794469 1.37782896 156 148 144
0.68523997 0.42794469 1.37782896 151 143 139
0.69042802 0.42969140 1.38345277 175 167 163
0.69423604 0.43057013 1.38628185 173 166 162
1.00621104 0.38990515 1.25535524 117 92 78
1.01025164 0.39062855 1.25768435 116 91 78
1.01055050 0.38990515 1.25535524 115 90 78
1.01648510 0.39135462 1.26002204 114 89 78
1.02055991 0.39208341 1.26236844 114 89 79
1.02848756 0.39428613 1.26946032 115 90 80
1.02492368 0.39208341 1.26236844 115 90 80
0.66215074 0.42771813 1.36947846 171 167 166
0.66388708 0.42428952 1.35850072 171 167 167
0.66623515 0.42428952 1.35850072 170 166 165
0.69281924 0.43208259 1.38345277 170 162 159
1.00621104 0.39207494 1.25535524 114 92 77
1.01025164 0.39280236 1.25768435 114 91 76
1.01055050 0.39207494 1.25535524 114 89 75
1.01648510 0.39353248 1.26002204 113 88 75
1.02055991 0.39426532 1.26236844 114 89 77
1.03041720 0.39722416 1.27184212 114 89 78
0.66490269 0.42578432 1.35578370 177 173 172
1.00621104 0.39424473 1.25535524 113 89 72
1.01025164 0.39497617 1.25768435 113 89 73
1.01242542 0.39497617 1.25768435 113 88 74
1.01837802 0.39644721 1.26236844 114 89 75
1.02246392 0.39718685 1.26472354 116 90 77
1.03624976 0.40168330 1.27904117 117 90 78
1.03068173 0.39867446 1.26946032 116 90 77
1.00621104 0.39641452 1.25535524 116 93 75
1.01212943 0.39788815 1.26002204 116 92 75
1.01242542 0.39714998 1.25768435 116 90 76
1.01837802 0.39862913 1.26236844 116 90 76
1.02629340 0.40086859 1.26946032 117 89 76
1.04017484 0.40542394 1.28388608 116 87 75
1.03846037 0.40389404 1.27904117 116 87 75
1.00621104 0.39858428 1.25535524 116 94 75
1.01212943 0.40006602 1.26002204 115 94 74
1.01242542 0.39932379 1.25768435 116 92 74
1.02027798 0.40155879 1.26472354 116 90 74
1.02629340 0.40306276 1.26946032 114 88 72
1.03820860 0.40687242 1.28145909 114 84 70
1.03650475 0.40533996 1.27663243 114 84 70
1.00621104 0.40075406 1.25535524 117 92 76
1.01212943 0.40224385 1.26002204 118 92 76
1.01242542 0.40149757 1.25768435 114 85 71
1.01837802 0.40299290 1.26236844 110 75 65
1.02437508 0.40449944 1.26708758 119 84 74
1.03429818 0.40754652 1.27663243 120 86 73
1.01401412 0.40517482 1.26236844 119 90 78
1.01430726 0.40442172 1.26002204 117 87 76
1.01837802 0.40517482 1.26236844 110 75 68
1.02437508 0.40668949 1.26708758 119 84 78
1.03235400 0.40898284 1.27423275 126 89 83
1.02875519 0.40668949 1.26708758 129 90 83
1.01590598 0.40811673 1.26472354 116 91 77
1.01430726 0.40659955 1.26002204 117 92 78
1.01837802 0.40735671 1.26236844 121 89 80
1.02437508 0.40887955 1.26708758 119 84 78
1.03041720 0.41041380 1.27184212 116 81 74
0.48776162 0.46299419 1.42714071 165 160 158
0.48715156 0.46008837 1.41818380 175 171 170
0.49165994 0.46202150 1.42414248 178 173 172
1.01590598 0.41030270 1.26472354 114 89 74
1.01430726 0.40877739 1.26002204 116 91 76
1.02027798 0.41030270 1.26472354 118 92 79
1.02437508 0.41106960 1.26708758 119 92 81
1.03041720 0.41261208 1.27184212 117 89 78
1.02875519 0.41106960 1.26708758 114 86 71
0.07146353 0.52391922 1.60637879 184 179 173
0.07406452 0.52268064 1.60258114 186 178 172
0.07683446 0.52268064 1.60258114 180 172 167
0.07960438 0.52268064 1.60258114 166 158 154
0.48673692 0.46448302 1.42414248 178 173 170
0.48613456 0.46157396 1.41522300 176 172 169
0.49062920 0.46350926 1.42115688 172 167 164
1.01780486 0.41325966 1.26708758 114 90 73
1.01619613 0.41172051 1.26236844 115 91 74
1.02027798 0.41248867 1.26472354 116 92 75
1.02246392 0.41248867 1.26472354 117 93 76
1.03041720 0.41481036 1.27184212 117 93 76
1.03068173 0.41403356 1.26946032 115 90 72
0.07424003 0.52669573 1.60637879 187 179 173
0.07683446 0.52545059 1.60258114 183 176 169
0.07960438 0.52545059 1.60258114 183 175 168
0.48673692 0.46694455 1.42414248 176 173 168
0.48715156 0.46499079 1.41818380 174 171 167
0.49165994 0.46694455 1.42414248 173 168 165
0.49516171 0.46792758 1.42714071 186 179 176
0.50325722 0.46402004 1.41522300 184 183 172
1.01780486 0.41544974 1.26708758 115 89 75
1.01619613 0.41390243 1.26236844 116 89 75
1.02027798 0.41467464 1.26472354 117 90 75
1.02246392 0.41467464 1.26472354 119 90 74
1.03235400 0.41779250 1.27423275 118 89 72
1.03261542 0.41700864 1.27184212 116 87 70
0.07441637 0.53072989 1.61019444 180 172 166
0.07701652 0.52947223 1.60637879 180 173 165
0.07960438 0.52822053 1.60258114 181 175 166
0.47924134 0.46452656 1.40933859 179 175 172
0.48571649 0.46842197 1.42115688 163 159 156
0.48613456 0.46646616 1.41522300 165 163 160
0.49062920 0.46842197 1.42115688 174 172 170
0.49412146 0.46940607 1.42414248 181 177 175
0.49658296 0.46940607 1.42414248 181 175 174
0.49799827 0.46842197 1.42115688 180 173 173
0.50045460 0.46842197 1.42115688 167 159 156
0.50291097 0.46842197 1.42115688 171 162 159
0.50431007 0.46744201 1.41818380 182 176 169
0.50676131 0.46744201 1.41818380 177 172 165
0.51135206 0.46940607 1.42414248 180 175 169
1.01780486 0.41763979 1.26708758 116 88 77
1.01619613 0.41608432 1.26236844 117 89 78
1.02218497 0.41763979 1.26708758 118 90 79
1.02437508 0.41763979 1.26708758 119 89 78
1.03429818 0.42078584 1.27663243 119 89 77
1.03455639 0.41999489 1.27423275 118 88 75
0.06654126 0.53734201 1.62175083 181 172 171
0.06934433 0.53734201 1.62175083 182 173 171
0.07197520 0.53605956 1.61788034 175 167 163
0.07459355 0.53478324 1.61402822 181 173 167
0.07719946 0.53351301 1.61019444 182 174 168
0.07979302 0.53224874 1.60637879 184 179 172
0.08256952 0.53224874 1.60637879 183 179 173
0.46326539 0.45838565 1.38345277 166 166 164
0.46948916 0.46215835 1.39483917 179 178 174
0.47093102 0.46120939 1.39197505 182 176 174
0.48268077 0.46793535 1.41227472 176 172 171
0.48411322 0.46696252 1.40933859 172 168 168
0.48858064 0.46891224 1.41522300 175 171 172
0.49308556 0.47087833 1.42115688 176 172 173
0.49554190 0.47087833 1.42115688 175 171 172
0.49695644 0.46989322 1.41818380 180 174 174
0.49940765 0.46989322 1.41818380 168 161 162
0.50291097 0.47087833 1.42115688 165 158 158
0.50431007 0.46989322 1.41818380 180 174 170
0.50782371 0.47087833 1.42115688 170 164 159
0.51135206 0.47186756 1.42414248 168 161 158
1.01780486 0.41982985 1.26708758 116 86 77
1.01619613 0.41826624 1.26236844 119 89 80
1.02218497 0.41982985 1.26708758 119 89 80
1.02629340 0.42061603 1.26946032 119 89 78
1.03624976 0.42379048 1.27904117 119 89 76
1.03455639 0.42219731 1.27423275 118 88 75
0.05480456 0.53502524 1.60637879 169 160 158
0.05771783 0.53629607 1.61019444 171 162 162
0.06064497 0.53757298 1.61402822 186 177 177
0.06358608 0.53885597 1.61788034 174 168 168
0.06670084 0.54144037 1.62563992 170 164 162
0.06934433 0.54014510 1.62175083 170 165 162
0.07214739 0.54014510 1.62175083 161 156 153
0.07459355 0.53757298 1.61402822 158 150 148
0.07719946 0.53629607 1.61019444 150 142 141
0.07979302 0.53502524 1.60637879 155 149 147
0.08256952 0.53502524 1.60637879 176 170 170
0.08514424 0.53376037 1.60258114 180 174 173
0.08791418 0.53376037 1.60258114 185 179 177
0.46044633 0.45797291 1.37503421 162 161 161
0.46660885 0.46171913 1.38628185 177 175 173
0.46900493 0.46171913 1.38628185 179 175 174
0.47236699 0.46266526 1.38912261 176 172 171
0.47968274 0.46745476 1.40350282 179 175 174
0.48210859 0.46745476 1.40350282 176 172 172
0.48756278 0.47037634 1.41227472 172 168 169
0.49205402 0.47234446 1.41818380 179 173 175
0.49347284 0.47135833 1.41522300 179 173 175
0.49732679 0.47037634 1.41227472 171 165 165
0.50081116 0.47135833 1.41522300 167 161 161
0.50325722 0.47135833 1.41522300 186 181 178
0.50676131 0.47234446 1.41818380 182 178 174
0.51028001 0.47333470 1.42115688 170 164 163
1.01619613 0.42044812 1.26236844 117 87 79
1.02218497 0.42201990 1.26708758 119 89 81
1.02437508 0.42201990 1.26708758 119 90 79
0.04948610 0.54036266 1.61402822 169 165 158
0.05240058 0.54165232 1.61788034 148 144 138
0.05519696 0.54165232 1.61788034 145 136 137
0.05813207 0.54294813 1.62175083 168 160 162
0.06108126 0.54425019 1.62563992 187 181 182
0.06389105 0.54425019 1.62563992 176 172 173
0.06686118 0.54555845 1.62954772 178 176 173
