ply
format ascii 1.0
element vertex 494
property float x
property float y
property float z
property uchar red
property uchar green
property uchar blue
end_header
-0.48103350 0.73853695 1.85216355 88 71 56
-0.46195079 -0.34211668 1.45574633 190 190 191
-0.46756776 -0.34756086 1.46810553 180 181 182
-0.46240143 -0.32958753 1.45783186 175 174 173
-0.46526871 -0.33147290 1.46413606 180 179 178
-0.46078223 0.70766443 1.79812157 91 68 60
-0.46462129 0.71443321 1.80579367 88 69 60
-0.46522125 0.72458105 1.80933136 89 67 63
-0.47327492 0.72032571 1.82228994 92 71 60
-0.47841921 0.73452318 1.84209740 88 71 56
-0.47583315 0.74005288 1.83214009 91 70 66
-0.47841921 0.74089098 1.84209740 89 70 61
-0.45310301 -0.34152729 1.45426425 189 189 189
-0.45969781 -0.34821239 1.46729839 189 189 189
-0.44866361 -0.32972373 1.45196009 181 180 181
-0.45681373 -0.33003431 1.46167496 188 187 188
-0.44883591 -0.31711124 1.45263793 182 182 182
-0.45694804 -0.31927899 1.46255147 176 176 177
-0.44758821 0.69737989 1.77459407 86 66 58
-0.44395982 0.70607857 1.77846742 85 67 61
-0.44876553 0.71198066 1.78942980 83 64 60
-0.45889154 0.71889502 1.80290389 81 66 60
-0.45132367 0.72378072 1.79404780 90 64 64
-0.43831490 -0.32962526 1.44694257 179 179 179
-0.42478666 0.69403812 1.73628225 86 73 69
-0.42785979 0.69195189 1.74414965 81 66 62
-0.43941492 0.69533455 1.77458596 84 67 57
-0.42630389 0.70030582 1.73373878 88 71 68
-0.43941492 0.71680516 1.77458596 90 68 67
-0.40639580 0.69289461 1.71231346 131 126 122
-0.41597288 0.69329358 1.72541449 131 123 121
-0.40498939 0.70389473 1.71329272 131 124 119
-0.40224126 0.70686877 1.72053766 130 125 117
-0.38584599 0.68923192 1.69571464 122 116 110
-0.39196715 0.69374025 1.70754601 124 115 109
-0.39042855 0.70498435 1.70986132 129 118 115
-0.38885909 0.71430331 1.72053766 149 147 145
-0.37508654 0.68934118 1.69051268 134 126 122
-0.37611920 0.69829258 1.70324588 120 112 109
-0.37801813 0.70700134 1.71185356 142 138 137
-0.34385940 -0.07307207 0.48664068 193 194 195
-0.34461469 -0.04834836 0.72835325 197 196 196
-0.34102115 -0.03935185 0.72735178 203 199 200
-0.33544439 -0.07103128 0.48541882 207 209 209
-0.33564962 -0.04860633 0.72626139 200 197 194
-0.30539635 -0.40710073 0.91519244 210 211 209
-0.30318427 -0.39014569 0.91454450 216 216 217
-0.30766380 -0.38414261 0.92104870 215 216 216
-0.29912395 -0.40490712 0.91097025 209 210 208
-0.29860818 -0.38947857 0.91283754 219 219 220
-0.28418434 -0.16897179 0.67414628 212 211 209
-0.27534556 -0.16922285 0.67214768 215 215 215
-0.27163451 0.04674840 0.58638426 191 190 188
-0.24892041 -0.06648438 0.57001719 207 207 206
-0.24900932 -0.05905285 0.57337556 209 209 210
-0.23906459 -0.06663300 0.56858222 204 204 204
-0.18658907 -0.24306646 1.55301887 134 131 136
-0.18689784 -0.24117941 1.56693952 135 133 138
-0.18423756 -0.23196223 1.56817550 138 136 142
-0.18097214 -0.22205125 1.58016741 131 126 134
-0.18104560 -0.00273974 0.51915938 121 99 86
-0.18366168 -0.00509726 0.52319378 119 97 84
-0.18120349 0.00296266 0.51793385 123 97 88
-0.18277618 0.00152690 0.52025467 126 100 94
-0.18124014 0.11883678 0.87923717 107 80 73
-0.18108818 0.11533203 0.88343889 109 83 74
-0.18231004 0.12770036 0.87536737 108 81 74
-0.18188646 0.12264745 0.88114224 107 80 76
-0.18271850 0.33703634 0.78394325 116 105 105
-0.18293103 0.34588581 0.78278746 83 82 79
-0.18311177 0.90707004 1.88303292 0 0 0
-0.19503465 0.94925940 1.97061586 0 0 0
-0.17154447 -0.24656915 1.55502424 125 125 130
-0.17094351 -0.24211381 1.57020232 115 112 121
-0.16458500 -0.24116959 1.58016741 131 130 130
-0.16698199 -0.22835147 1.55792524 126 121 124
-0.17170158 -0.23071735 1.56688851 135 132 137
-0.16291185 -0.15637485 1.27783680 146 144 147
-0.16336450 -0.14768301 1.29292093 144 141 142
-0.16535760 -0.13529467 1.29635641 96 94 99
-0.16644450 -0.13561359 1.30113602 97 96 107
-0.16239620 -0.08552558 0.93712813 114 89 75
-0.16198312 -0.08911162 0.94363043 114 86 77
-0.17795651 -0.00228663 0.51866446 122 97 84
-0.17621606 -0.00398335 0.52141089 120 93 82
-0.17833215 0.00302869 0.51723940 124 95 84
-0.17362560 0.00085290 0.52045447 123 93 80
-0.16671865 0.11511721 0.87743739 126 113 112
-0.17344448 0.11451166 0.88254084 111 85 78
-0.17265846 0.12575302 0.87588909 113 90 90
-0.17441052 0.12265771 0.88132305 108 78 77
-0.17462302 0.33260260 0.77753123 122 114 115
-0.17400183 0.33380837 0.78345265 128 118 117
-0.17553987 0.34293452 0.77829192 123 116 118
-0.17734289 0.34692468 0.78040361 46 42 43
-0.15259396 -0.24084907 1.56920248 143 142 148
-0.15095991 -0.22681684 1.55234778 140 138 143
-0.15397336 -0.23476803 1.56351112 141 139 143
-0.15016000 -0.21966211 1.54417276 138 134 137
-0.14984695 -0.16603550 1.27149177 142 139 143
-0.14897682 -0.16014150 1.28145909 159 155 163
-0.15328440 -0.15778319 1.27584155 141 137 143
-0.15225342 -0.14969646 1.29252007 149 145 147
-0.14427206 -0.14386895 1.30462088 144 141 142
-0.15714209 -0.13803778 1.29809157 131 131 138
-0.14797760 -0.13638824 1.30317140 143 143 147
-0.14141405 -0.08556995 0.93760973 105 81 83
-0.15169089 -0.08694106 0.94630490 113 87 84
-0.14333392 -0.07696533 0.94445479 128 115 117
-0.15606706 0.11361811 0.87793242 132 129 131
-0.15583921 0.11389308 0.88046079 145 142 143
-0.15996449 0.12415569 0.87923717 135 131 132
-0.15801243 0.12334318 0.88248186 136 131 134
-0.12226415 -0.24695813 0.53728620 213 213 214
-0.12099795 -0.23633194 0.53480786 214 214 214
-0.13948409 -0.22500007 1.54417276 140 139 146
-0.13998708 -0.08487705 0.93890840 130 112 115
-0.13739620 -0.08169743 0.94200750 140 138 137
-0.13828950 -0.07708197 0.94282739 134 134 135
-0.11750614 -0.24545045 0.53472312 212 213 213
-0.11870559 -0.23998359 0.53545958 210 210 208
-0.10534034 -0.00150486 0.59950672 113 89 80
-0.10431234 -0.00246953 0.60055846 114 87 75
-0.10456962 0.00427563 0.59801123 115 92 84
-0.10405156 0.00072442 0.60043561 110 85 73
-0.09607822 -0.00102033 0.59839994 140 137 138
-0.09477415 0.00706960 0.59692899 130 127 128
-0.06998631 -0.14227113 0.63602740 54 47 57
-0.07046644 -0.13417684 0.63800920 79 77 90
-0.07149452 -0.13134899 0.64081777 78 74 87
0.03477300 -0.08755674 0.85867696 182 178 176
0.03124120 -0.08455457 0.86429188 173 165 166
0.03145863 -0.07581250 0.86665942 177 173 174
0.05837130 -0.19124273 0.48425660 101 75 63
0.05922789 -0.12074397 0.72540614 168 164 163
0.05752509 -0.10799777 0.73514884 177 173 176
0.05326606 -0.10190069 0.74032619 181 181 184
0.05581113 -0.09736376 0.73828443 185 184 186
0.05198412 -0.09489780 0.74075574 185 183 184
0.04103658 -0.08699137 0.85592407 187 182 182
0.04008018 -0.07689805 0.86724027 185 182 181
0.05626119 0.53566065 1.60828662 170 161 160
0.05236121 0.54122243 1.61659630 154 148 144
0.05439655 0.55346954 1.63053762 171 166 165
0.05330164 0.56860686 1.62815746 175 171 168
0.05888345 0.56605840 1.64271259 167 164 162
0.06462856 -0.19306439 0.48600808 100 75 65
0.06399542 -0.12073822 0.72688702 170 161 165
0.06415721 -0.10855444 0.73365172 178 176 178
0.06079848 -0.09972277 0.73683894 169 168 170
0.07524968 0.53133652 1.60839040 171 164 160
0.06794279 0.53734201 1.62175083 181 172 171
0.07707111 0.54842721 1.61723832 154 152 150
0.06888580 0.55091105 1.62920787 175 172 170
0.07128893 0.56905069 1.63335927 175 170 166
0.06557372 0.56831652 1.64138460 180 177 173
0.06917883 0.59198707 1.61788034 155 152 152
0.07310541 0.59030918 1.63188516 164 157 157
0.06878750 0.59118868 1.64188260 157 152 152
0.08596119 0.53593753 1.60495467 178 173 171
0.08937426 0.55030512 1.61170015 166 163 160
0.09574440 0.56262514 1.61788034 167 157 156
0.08834233 0.57164704 1.62691359 169 162 160
0.08954989 0.58992477 1.63240689 175 171 168
0.09165130 0.60451417 1.63440495 161 156 157
0.10360974 0.55487438 1.61403556 168 165 159
0.10273533 0.56122696 1.61788034 165 154 155
0.10713140 0.57158331 1.63109980 171 164 161
0.10631532 0.59077945 1.63571018 168 163 162
0.11061111 0.58533848 1.64138460 173 169 166
0.10796273 0.60593311 1.63618694 161 157 156
0.10538727 0.61236761 1.64178300 159 157 156
0.18466592 0.87452334 1.88303292 0 0 0
0.18984897 0.91519886 1.97061586 0 0 0
0.21514327 0.01720488 0.62460833 196 192 193
0.21632581 0.02472016 0.62630867 188 184 185
0.22167928 0.01845389 0.62339020 194 188 192
0.22103856 0.02348256 0.62424789 195 193 193
0.24547514 0.11209216 0.51674865 162 158 156
0.29643176 -0.26176891 0.76502040 32 31 42
0.29446453 -0.24897975 0.76523147 24 22 31
0.29384248 -0.23945468 0.76668249 20 19 26
0.30018702 -0.26187664 0.76597947 32 31 40
0.30345763 -0.24845894 0.76815926 22 21 29
0.34773008 -0.22490833 0.60959880 34 34 45
0.34744260 -0.22494331 0.62478513 33 33 42
0.34851747 -0.21768130 0.61048593 35 35 44
0.36275425 -0.23133961 0.61804135 38 38 49
0.41597708 0.01034533 0.49243923 160 161 164
0.41841002 0.33462757 0.95761831 164 158 155
0.41909084 0.33545210 0.96064071 161 156 154
0.41790617 0.34499009 0.95792641 172 165 156
0.41944650 0.34967551 0.96018672 158 150 140
0.42057238 0.00843398 0.49332719 166 167 169
0.42526584 0.33297809 0.95602484 169 165 161
0.42699707 0.33379236 0.96223161 173 169 170
0.42331382 0.34340734 0.95567576 170 162 159
0.43395266 0.34068298 0.96291453 175 169 169
0.45951426 0.45941767 1.37225068 170 169 168
0.45339595 0.46734056 1.35397959 148 141 142
0.45863710 0.46913813 1.36259806 134 125 126
0.46781422 -0.24800272 0.73611683 187 187 188
0.46895711 -0.24193492 0.74335728 185 189 191
0.46678243 -0.23458298 0.73860601 182 182 184
0.46682324 -0.23586945 0.74261292 183 184 186
0.46044633 0.45797291 1.37503421 162 161 161
0.46326539 0.45838565 1.38345277 166 166 164
0.46625471 0.47326977 1.37253580 121 110 114
0.47012079 0.46711331 1.38733827 155 144 146
0.47957239 0.46854208 1.40496176 179 173 172
0.48952783 0.47008854 1.41265751 171 165 166
0.49171586 0.46718995 1.42329126 175 170 169
0.50495827 0.47233810 1.41607073 178 175 171
0.50672634 0.47045842 1.42200991 170 163 160
0.50570333 0.48114273 1.41522300 154 151 151
0.55804733 -0.34567130 0.54747218 182 189 187
0.55809582 -0.33486150 0.54461820 185 192 191
0.55864611 -0.32114737 0.89846539 58 57 68
0.55869925 -0.32233316 0.90105395 56 55 66
0.55700607 -0.31473959 0.89304759 68 72 82
0.55346191 0.05944828 0.51107980 129 112 134
0.55646517 0.06389436 0.51360322 158 157 163
0.56796317 -0.34538801 0.55090532 189 193 194
0.56236379 -0.33735429 0.54598952 185 190 190
0.56426920 -0.32196439 0.89727836 105 111 118
0.57270738 -0.32655240 0.90414601 147 151 155
0.56546877 -0.31665349 0.89478104 163 167 170
0.57498395 -0.10083905 0.89146152 106 104 121
0.57241809 -0.08971794 0.88801056 99 106 127
0.57509512 -0.07862600 0.88671306 111 123 144
0.57142601 0.05686410 0.51765771 162 166 169
0.57066672 0.05570260 0.52065450 171 174 175
0.56677803 0.06438316 0.51690568 169 172 175
0.58181448 -0.32865880 0.90683397 177 177 180
0.58524361 -0.10128547 0.89167481 100 88 91
0.58703431 -0.08889933 0.88721585 103 97 106
0.58847882 -0.07537706 0.87741904 102 88 93
0.58767015 -0.07761044 0.88453912 102 99 112
0.61827101 -0.12404237 0.99253519 62 64 79
0.61923563 -0.13071096 1.00428426 60 61 83
0.61747718 -0.11700261 0.97678941 79 93 108
0.61656106 -0.11949482 0.98340531 64 68 84
0.63652061 -0.43777172 0.69715850 199 201 202
0.63715464 -0.43064265 0.70102584 188 191 193
0.63477867 -0.14190413 1.02928483 67 67 86
0.63715521 -0.14625870 1.04506975 59 57 80
0.63210614 -0.12300809 0.97293345 102 87 87
0.63077925 -0.12530976 0.99328361 96 95 103
0.63084636 -0.13325083 1.01153374 77 83 99
0.63231977 -0.13847437 1.02317145 68 71 91
0.62473968 -0.11890975 0.95815149 104 83 84
0.62611047 -0.11780280 0.97644508 101 98 103
0.62607950 -0.11924872 0.98293046 102 103 112
0.64296007 -0.44050130 0.69957876 192 193 195
0.65096802 -0.44098649 0.70394078 193 201 202
0.64296007 -0.43929213 0.69957876 194 195 200
0.64471229 -0.43371003 0.70210779 188 193 194
0.65963721 -0.16230881 1.08810890 58 60 75
0.65373401 -0.14334733 1.01382021 107 88 88
0.65166450 -0.14362036 1.02928556 103 96 103
0.65079910 -0.14975982 1.04765892 89 89 107
0.65450160 -0.15515183 1.06925820 64 65 83
0.65542895 -0.15940465 1.08116722 60 62 77
0.64243384 -0.13191545 0.99505610 104 87 85
0.64695523 -0.13415955 1.01225075 103 92 94
0.64742165 -0.13794399 1.02162139 104 100 110
0.65238726 0.38715965 1.33970726 159 151 147
0.65049623 0.39136535 1.34944546 169 163 159
0.65593107 0.40344999 1.35385227 163 160 160
0.65583868 0.41196337 1.36951017 170 166 165
0.65799975 0.41927102 1.38063514 175 171 169
0.65725774 0.42258640 1.37782896 162 159 157
0.65680659 0.42642996 1.38063514 158 155 154
0.67906487 -0.18024747 1.12981975 59 57 71
0.67312312 -0.16153231 1.05045954 110 95 87
0.67269109 -0.16205158 1.07242627 107 102 109
0.66899949 -0.16460719 1.09087769 74 77 93
0.67112672 -0.16848672 1.10667520 61 63 78
0.67723584 -0.17507065 1.12701952 58 57 70
0.66609360 -0.15126803 1.03204591 111 96 95
0.66633430 -0.15408475 1.04750410 107 94 97
0.66613925 -0.15844623 1.06840703 98 101 112
0.66108320 -0.15954437 1.08638752 57 60 75
0.66633830 0.41396273 1.36854550 169 164 163
0.66674960 0.41847558 1.38063514 163 159 156
0.66414098 0.42407621 1.35782146 170 166 165
0.66804220 0.42292793 1.36888476 163 157 157
0.66157925 0.42642996 1.38063514 163 160 159
0.69964689 -0.20095034 1.17079771 56 58 69
0.68970910 -0.18276605 1.13260505 76 79 93
0.69212782 -0.18899130 1.15064201 58 57 74
0.69598925 -0.19507209 1.16656085 56 56 70
0.68276747 -0.16592388 1.07347707 109 93 92
0.68674313 -0.16884370 1.09214377 108 100 106
0.68844202 -0.17372433 1.10944464 97 97 109
0.68772131 -0.17880382 1.12482659 74 78 93
0.68197906 -0.17812309 1.14123201 55 55 66
0.69265609 0.00823074 0.97208946 96 80 72
0.69787176 0.01650717 0.98445818 102 80 75
0.69176267 0.02390645 0.95397453 105 80 75
0.69646716 0.02464033 0.96997337 107 81 78
0.69815701 0.02492244 0.98103017 108 82 77
0.68047702 0.41127443 1.37782896 149 149 147
0.68625429 0.41779304 1.38628574 166 160 160
0.68285849 0.42715088 1.37782896 160 153 150
0.69163919 0.42482684 1.38771299 158 152 151
0.71967834 -0.22111171 1.21485996 54 55 71
0.70797610 -0.20217261 1.17791897 58 59 72
0.71228197 -0.20737865 1.19156651 56 56 72
0.71652546 -0.21631925 1.20652917 54 54 68
0.70929900 -0.18329953 1.13401527 111 99 106
0.70997290 -0.18968847 1.15228803 97 95 108
0.71109799 -0.19605664 1.16521466 87 90 110
0.70161145 -0.17643018 1.11192230 113 93 97
0.70584028 -0.17941128 1.12457840 111 96 104
0.70366030 0.01374108 0.97586096 101 81 78
0.70849197 0.01620113 0.98889837 103 81 75
0.70182437 0.02382179 0.97763672 104 80 76
0.70801260 0.02206026 0.99082245 102 81 78
0.73014641 -0.26693445 1.23253059 58 59 75
0.73756194 -0.26508556 1.24384101 60 62 75
0.73668929 -0.24238856 1.24430392 56 56 73
0.72692034 -0.22208567 1.21731660 55 54 69
0.73146935 -0.22977479 1.22917210 54 56 71
0.73639059 -0.23660949 1.24672377 54 56 70
0.73769381 -0.20108594 1.17554522 106 100 100
0.72952077 -0.20732826 1.19201717 97 98 109
0.73082681 -0.21617086 1.20900336 72 75 89
0.72021711 -0.18766978 1.13931406 110 89 92
0.72521467 -0.19112618 1.15544391 110 95 98
0.72790491 -0.19662101 1.16728868 107 101 108
0.75548840 -0.28142890 1.27904117 58 57 75
0.75835007 -0.28471401 1.28388608 58 57 73
0.74426367 -0.26266519 1.25489635 63 64 81
0.74793214 -0.26708915 1.26891150 62 62 77
0.75639549 -0.26819494 1.29002321 61 60 72
0.74844037 -0.24549844 1.25409816 58 60 76
0.74813369 -0.25293169 1.26385888 61 62 77
0.75527504 -0.25597349 1.29000449 57 59 69
0.74912757 -0.22754293 1.22946036 94 97 108
0.75176465 -0.23738746 1.24515200 79 82 98
0.74474430 -0.23850679 1.26827395 55 54 70
0.74370221 -0.20675574 1.19075071 106 101 100
0.74943386 -0.21617991 1.21134380 110 106 110
0.76235393 -0.28464105 1.29370182 58 57 75
0.77128749 -0.29007082 1.31058705 58 56 74
0.77797612 -0.28749639 1.32747237 62 61 78
0.76033294 -0.26329598 1.29864335 65 65 76
0.76670208 -0.27455954 1.30952175 65 62 78
0.76243776 -0.24194883 1.25768435 107 113 129
0.76385495 -0.24348747 1.26002204 97 102 116
0.76217949 -0.22337143 1.22719924 112 99 104
0.76186679 -0.23682683 1.24785855 111 112 123
0.79141414 -0.30326471 1.35172987 54 54 72
0.79697549 -0.30892378 1.36122859 52 50 68
0.78475705 -0.29448204 1.33838600 56 57 76
0.78887488 -0.29493026 1.34839547 57 57 77
0.79622477 -0.29658264 1.36397302 56 58 77
0.81391451 -0.32426745 1.38913721 51 51 66
0.81930041 -0.32336938 1.40350282 54 53 67
0.80372735 -0.31105583 1.37411388 54 53 69
0.81125399 -0.31300223 1.38971877 54 52 70
0.83649005 -0.34617543 1.42956717 49 48 64
0.82514963 -0.33202261 1.40934771 51 50 65
0.83223143 -0.33463731 1.42565423 49 50 66
0.84949449 -0.36358597 1.44772130 48 46 62
0.85469139 -0.36011347 1.46412921 47 45 60
0.84289522 -0.34836051 1.43824442 49 48 63
0.84754065 -0.35203198 1.44713773 49 47 64
0.85771835 -0.34972638 1.47367787 48 50 65
0.84125888 -0.33801869 1.44539833 47 49 66
0.87356299 -0.38229342 1.49645728 48 47 62
0.87938249 -0.38874289 1.50642633 49 48 63
0.86026543 -0.36500916 1.47367787 48 47 59
0.86875667 -0.36915140 1.49043598 47 46 61
0.86240634 -0.35548085 1.48173255 48 48 64
0.89265260 -0.38385506 1.53369981 46 45 60
0.89670551 -0.38958922 1.54066324 46 45 59
0.88069290 -0.37478620 1.51315141 48 47 58
0.90910238 -0.40307444 1.56196272 49 48 62
0.90286613 -0.39629067 1.55124801 47 46 62
0.93550898 -0.40906017 1.61212045 46 45 60
0.92997342 -0.39970660 1.60258114 48 47 57
0.94109750 -0.41850311 1.62175083 47 46 60
0.96841252 -0.44350871 1.67380702 46 46 55
0.96568986 -0.43072014 1.66910115 46 45 59
0.96790969 0.35191500 1.19980860 117 93 76
0.96948484 0.35313656 1.20537467 117 92 77
0.98003858 -0.44136837 1.69897699 45 44 59
0.98250097 -0.44542128 1.70324588 45 45 57
0.99491489 0.37987319 0.88729298 160 160 162
0.98357731 0.36182615 1.21922994 118 94 76
0.99061218 0.36976868 1.22997573 117 91 77
0.99837264 0.37810972 1.24156010 119 91 80
0.99554425 0.38598483 0.88813515 165 167 170
0.99482830 0.39928714 0.90345997 151 158 157
0.99692430 0.40367294 0.90673153 161 165 164
1.00712162 0.37897836 1.24441403 113 88 74
1.00264807 0.39549091 0.89582797 166 171 171
1.00607979 0.39869356 0.90243781 160 166 166
1.00893720 0.39019910 1.25475888 115 91 77
1.01675310 0.39450473 1.26080418 114 89 76
1.00655615 0.40200478 0.89906079 168 171 176
1.00721549 0.41033062 0.90908918 164 167 167
1.00931823 0.40112582 1.25651979 115 88 73
1.01600762 0.40986209 1.26299238 115 88 75
1.00685035 0.42223455 0.91070083 160 166 167
1.01619613 0.42044812 1.26236844 117 87 79
1.02112067 0.38628095 1.25768435 115 90 77
1.02508471 0.39395660 1.26525969 114 89 78
1.02764512 0.41062892 1.26972153 117 88 75
1.03820860 0.40687242 1.28145909 114 84 70
1.02831939 0.42212114 1.27118077 118 88 77
1.05517900 -0.31612186 1.13740242 187 188 190
1.05873179 -0.31422746 1.14123201 178 179 181
1.04017484 0.40542394 1.28388608 116 87 75
1.07123004 -0.32254962 1.14980711 185 190 190
1.07091890 -0.31613827 1.15107166 178 179 181
1.09208056 -0.31204424 1.16847568 177 181 184
1.09849143 -0.29832371 1.16777319 192 198 199
1.10632375 -0.30665622 1.17510715 185 188 190
1.11065929 -0.31062473 1.18179011 184 186 188
1.10758913 -0.29619038 1.17232565 193 196 198
1.12712720 -0.30211244 1.18461034 199 204 204
1.12681723 -0.29831234 1.18374674 199 201 203
1.15147328 0.55330265 1.41522300 119 89 77
1.15868950 0.55731718 1.42864931 117 88 75
1.15746511 0.56847662 1.43335258 112 88 72
1.15716463 0.57274622 1.44403156 112 87 70
1.15776376 0.58426016 1.43926084 114 89 72
1.15755117 0.58383875 1.44416823 112 87 71
1.17354071 0.53934586 1.45005095 113 89 69
1.16308761 0.55578585 1.43682656 117 89 73
1.16752528 0.54942989 1.44875032 115 88 75
1.17637784 0.55410100 1.46661241 114 87 74
1.16539255 0.57060905 1.43059038 112 89 74
1.16370813 0.56640373 1.44739704 113 88 72
1.17610157 0.56584067 1.46784715 113 87 71
1.16731819 0.58302997 1.43319438 116 91 75
1.16962350 0.59008971 1.44540743 114 89 74
1.17849410 0.60125905 1.43926084 119 86 80
1.17850864 0.60129187 1.44232309 117 87 79
1.17680589 0.60622688 1.46413508 113 90 73
1.18243104 0.54576507 1.46729839 114 91 70
1.18770671 0.55362144 1.48499268 115 90 74
1.18121115 0.56595711 1.47475278 111 87 71
1.19692600 0.56172788 1.49976075 114 87 73
1.18185782 0.59716473 1.44541156 110 85 72
1.18690948 0.60472947 1.45057454 118 87 78
1.18605114 0.61016693 1.46804769 114 90 74
1.19180745 0.62262224 1.47314974 116 92 76
1.19817729 0.62607052 1.48270702 116 92 75
1.19767725 0.65552652 1.46888983 112 102 79
1.21761537 0.55970043 1.28145909 137 121 123
1.21650820 0.56662325 1.29511234 132 115 109
1.21691982 0.57365858 1.31083522 125 102 92
1.21648477 0.57205604 1.32599130 116 94 83
1.20492929 0.56156665 1.50978887 113 90 73
1.21874229 0.58175149 1.31289681 120 96 84
1.21782408 0.58447620 1.32986274 115 92 82
1.20158124 0.63091981 1.47367787 113 88 75
1.20649792 0.63572094 1.49024320 115 90 75
1.20243224 0.65299517 1.47368256 115 99 76
1.21106371 0.65154462 1.49020326 116 95 78
1.21776569 0.64870614 1.50308609 114 99 84
1.20164645 0.66292655 1.47688854 113 99 83
1.21176889 0.66189961 1.49186997 114 96 83
1.22521471 0.55614338 1.31079124 134 118 104
1.23064756 0.55938017 1.32531315 127 107 88
1.22542563 0.56444119 1.29616269 138 120 120
1.22724500 0.56572963 1.30945428 132 114 109
1.22909482 0.57031352 1.32786304 126 103 94
1.22263805 0.58382809 1.31587793 121 99 86
1.22988915 0.58728634 1.33033197 120 95 84
1.22382310 0.65775393 1.50895759 115 95 80
1.22729781 0.66817723 1.51485157 114 92 81
1.23418498 0.66535169 1.52335250 116 94 77
1.24261749 0.55733982 1.31374878 137 131 126
1.24223820 0.56169095 1.31374713 135 126 120
1.89089843 0.47646298 1.71329851 171 173 176
1.89693924 0.47054937 1.72272664 176 177 178
1.89135720 0.48403755 1.70969647 177 180 182
1.89651394 0.48978063 1.72053766 174 178 180
1.91435091 0.47540504 1.69473381 163 166 172
1.91196518 0.47825492 1.71229672 162 164 171
1.90928593 0.47227728 1.72519623 168 170 173
1.91385969 0.48070648 1.69897699 151 155 163
1.91324391 0.48413688 1.71205303 152 155 162
1.91534809 0.48680683 1.72053766 159 163 167
1.92635769 0.45829849 1.71401501 172 173 174
1.92551897 0.47108617 1.71303500 165 170 174
1.92877388 0.47153029 1.73311820 165 167 172
1.92826666 0.48854348 1.70877123 158 161 171
1.92179132 0.49275446 1.72053766 162 169 171
