ply
format ascii 1.0
element vertex 1082
property float x
property float y
property float z
property uchar red
property uchar green
property uchar blue
end_header
-0.39006324 -0.72976187 1.16554219 0 0 0
-0.39009287 -0.70999629 1.17151501 0 0 0
-0.39075542 -0.69271240 1.17736587 0 0 0
-0.38801321 -0.68316571 1.18118697 0 0 0
-0.39004512 -0.67024622 1.18661697 0 0 0
-0.39001815 -0.65167177 1.19570424 0 0 0
-0.38972250 -0.64181259 1.20238363 9 10 10
-0.39010750 -0.65118467 1.23697759 74 77 79
-0.39138266 -0.64360765 1.24029618 73 77 79
-0.38994721 -0.63031616 1.24123859 75 78 80
-0.39008918 -0.61015743 1.24169070 77 80 85
-0.39016016 -0.59012122 1.24222716 79 82 88
-0.38931043 -0.56981133 1.24263007 81 89 90
-0.38939807 -0.55060524 1.24290985 82 91 93
-0.38947732 -0.53030463 1.24316284 85 91 96
-0.38956541 -0.51000719 1.24344405 87 93 93
-0.38967768 -0.48973079 1.24380231 86 92 96
-0.38979366 -0.46944727 1.24417242 84 92 96
-0.38990843 -0.45022579 1.24453874 82 93 96
-0.39000329 -0.42989504 1.24484139 85 92 98
-0.39007559 -0.40953083 1.24507207 84 91 97
-0.39010716 -0.39019449 1.24517280 85 90 98
-0.39011188 -0.36975332 1.24518785 84 88 98
-0.39010144 -0.34929806 1.24515451 83 87 97
-0.39008224 -0.32991254 1.24509331 84 87 95
-0.39005863 -0.31052541 1.24501804 79 83 94
-0.39001966 -0.29005324 1.24489355 75 80 90
-0.38998306 -0.26958690 1.24477677 72 74 87
-0.38990105 -0.25017099 1.24451512 69 70 80
-0.38981852 -0.23076277 1.24425198 63 67 76
-0.38972549 -0.21028219 1.24395514 62 63 75
-0.38958062 -0.18978601 1.24349288 59 60 68
-0.38942777 -0.17037562 1.24300514 57 58 63
-0.38932325 -0.14992502 1.24267148 41 40 42
-0.38987986 -0.12924810 1.24245549 32 30 33
-0.39022070 -0.11014006 1.24210967 30 28 31
-0.39007542 -0.08971135 1.24164707 30 28 31
-0.38989287 -0.06929123 1.24106576 31 28 31
-0.38983599 -0.05006040 1.24053942 36 34 36
-0.39000540 -0.03043459 1.23346894 105 106 111
-0.38996179 -0.00687472 1.21357682 140 142 147
-0.39006910 -0.01747110 1.22249450 117 121 130
-0.38999794 0.01494593 1.19476254 146 147 148
-0.38989179 0.00459608 1.20379236 130 129 138
-0.39010348 0.03605964 1.17629927 137 135 136
-0.38991841 0.02600356 1.18508165 145 144 143
-0.38992302 0.05746537 1.15726406 113 113 118
-0.39004858 0.04777437 1.16594512 119 120 122
-0.39031371 0.07899480 1.13764323 146 143 139
-0.38997482 0.06881265 1.14699981 126 123 124
-0.39001939 0.09896882 1.11840569 112 111 112
-0.38989891 0.08917504 1.12792216 126 125 123
-0.38969621 0.11903453 1.09842400 136 134 134
-0.39011243 0.10955464 1.10794723 135 133 133
-0.39015455 0.13833678 1.07869466 126 120 120
-0.39008118 0.12833212 1.08892110 133 128 126
-0.39021919 0.15772183 1.05863783 152 151 148
-0.38993304 0.14817641 1.06859162 125 122 123
-0.39012344 0.17713351 1.03805058 124 124 126
-0.38984583 0.16710908 1.04879339 117 116 116
-0.38967437 0.19697056 1.01601245 136 132 130
-0.39005922 0.18675046 1.02746925 110 109 110
-0.38993717 0.21528320 0.99490118 100 102 104
-0.39011704 0.20559754 1.00611723 116 116 119
-0.39000570 0.23403300 0.97276662 118 118 118
-0.38999992 0.22341162 0.98530020 109 109 112
-0.38997163 0.25247159 0.95031795 138 133 130
-0.39008927 0.24244068 0.96273328 137 136 135
-0.38996804 0.27863491 0.91739291 95 97 99
-0.38993017 0.26874616 0.92981018 101 100 101
-0.39003749 0.29648440 0.89479618 89 87 88
-0.39003110 0.28652999 0.90748845 91 92 91
-0.39005491 0.31388360 0.87226447 56 54 57
-0.39001572 0.30404612 0.88519150 62 61 63
-0.38979131 0.33933186 0.83835387 43 41 43
-0.38998547 0.33077211 0.84979739 45 42 45
-0.39012410 0.32147082 0.86228001 47 45 49
-0.39002208 0.35653894 0.81642654 38 36 40
-0.39003091 0.34683114 0.82849598 41 40 43
-0.39013580 0.37523145 0.79491465 34 31 34
-0.38990187 0.36527410 0.80626507 36 34 37
-0.39090639 0.39553002 0.77703236 0 0 0
-0.38965548 0.38557997 0.78487889 24 23 26
-0.39959148 0.41986487 0.75983715 0 0 0
-0.39006202 0.41018253 0.76816587 0 0 0
-0.39151425 0.42633046 0.75762152 0 0 0
-0.38624791 0.42249455 0.76138230 0 0 0
-0.36854380 -0.78065387 1.15720079 0 0 0
-0.37096312 -0.77123571 1.15844029 0 0 0
-0.36612497 -0.76295279 1.16054002 0 0 0
-0.37945716 -0.75847217 1.15998399 0 0 0
-0.36954672 -0.75017767 1.16288957 0 0 0
-0.37013717 -0.72997156 1.16780884 0 0 0
-0.36991143 -0.70980914 1.17392725 0 0 0
-0.37147421 -0.69547999 1.17852554 0 0 0
-0.36888683 -0.68589315 1.18222513 0 0 0
-0.37024690 -0.66973942 1.18878149 0 0 0
-0.37055537 -0.65229315 1.19681035 0 0 0
-0.36839235 -0.64314036 1.20389575 10 12 13
-0.36992003 -0.64926034 1.23724941 72 77 81
-0.37033915 -0.64266904 1.24023483 73 77 82
-0.37102370 -0.63988877 1.20082339 0 0 0
-0.36952794 -0.63025070 1.24111026 75 80 81
-0.36967180 -0.61010972 1.24159363 78 81 84
-0.36983934 -0.58999006 1.24215663 82 83 87
-0.36996167 -0.56978263 1.24256752 81 86 90
-0.37005077 -0.55058621 1.24286689 85 90 94
-0.37012944 -0.53029111 1.24313118 86 92 95
-0.37020745 -0.50998634 1.24339313 86 93 94
-0.37030732 -0.48970176 1.24372854 88 93 97
-0.37041552 -0.46941693 1.24409195 87 93 97
-0.37051666 -0.45018702 1.24443144 86 93 99
-0.37059799 -0.42984775 1.24470443 86 93 97
-0.37065954 -0.40947794 1.24491111 84 93 98
-0.37067829 -0.39013217 1.24497391 84 90 96
-0.37085706 -0.36991749 1.24499956 85 89 97
-0.37048982 -0.34950005 1.24495039 82 88 97
-0.37065913 -0.32986380 1.24490954 80 86 95
-0.37064249 -0.31048444 1.24485371 80 85 94
-0.37060734 -0.29001647 1.24473579 77 80 92
-0.37057071 -0.26955137 1.24461266 72 76 86
-0.37050474 -0.25014600 1.24439124 70 71 84
-0.37044075 -0.23074873 1.24417635 67 69 79
-0.37035259 -0.21026950 1.24388028 61 64 76
-0.37022368 -0.18977903 1.24344743 61 62 71
-0.37009116 -0.17037518 1.24300233 59 59 65
-0.36999180 -0.14992475 1.24266868 43 41 42
-0.36991895 -0.12949455 1.24242397 34 31 33
-0.36981102 -0.11013577 1.24206135 33 29 32
-0.36967298 -0.08970778 1.24159782 32 29 33
-0.36949519 -0.06928765 1.24100073 32 30 33
-0.36487580 -0.04136478 1.23988099 47 44 46
-0.36974190 -0.05040492 1.24042647 36 34 36
-0.37005719 -0.03056021 1.23338714 105 106 110
-0.37005850 -0.00700216 1.21377304 141 143 147
-0.36998404 -0.01762127 1.22262019 119 120 131
-0.37005955 0.01483975 1.19493509 144 144 145
-0.36989279 0.00457005 1.20390218 132 132 141
-0.37019563 0.03593978 1.17645764 132 131 131
-0.36986267 0.02596341 1.18519417 136 136 137
-0.36958420 0.05740364 1.15731980 116 116 121
-0.37004214 0.04774658 1.16597698 118 118 121
-0.36967206 0.07907940 1.13751336 132 127 125
-0.37003220 0.06876971 1.14701259 126 124 125
-0.37018498 0.09892358 1.11841464 137 132 130
-0.36996000 0.08907457 1.12798748 137 135 133
-0.36973693 0.11902661 1.09835092 141 141 140
-0.37007846 0.10950683 1.10792008 138 136 136
-0.37005078 0.13827799 1.07858230 135 130 127
-0.36999880 0.12829488 1.08883427 144 139 136
-0.37005873 0.15770780 1.05854367 121 122 123
-0.36994583 0.14802488 1.06860974 111 112 114
-0.37005211 0.17707155 1.03799658 131 130 131
-0.36986354 0.16709012 1.04867446 121 121 121
-0.36981615 0.19624341 1.01667292 126 123 122
-0.36997465 0.18605917 1.02807491 118 114 115
-0.36983988 0.21530202 0.99476085 100 100 102
-0.36997481 0.20552456 1.00608790 105 105 107
-0.37008302 0.23399053 0.97253423 107 106 107
-0.37008889 0.22340309 0.98515427 112 112 112
-0.36998743 0.25230811 0.95001818 125 120 118
-0.37000700 0.24236604 0.96243686 110 108 108
-0.37010560 0.27781398 0.91749965 85 84 87
-0.36996766 0.26797487 0.93005617 116 114 114
-0.36998525 0.29565123 0.89467636 90 90 92
-0.36999630 0.28573472 0.90742497 92 92 94
-0.36997790 0.31360937 0.87159739 85 84 87
-0.37012395 0.30368651 0.88454286 81 82 84
-0.36966703 0.33867272 0.83836175 65 65 66
-0.36996869 0.33004700 0.84987627 69 67 69
-0.37045437 0.32120982 0.86168501 80 79 80
-0.37009484 0.35655517 0.81616747 72 69 69
-0.37006110 0.34666701 0.82809227 67 66 68
-0.37008314 0.37553048 0.79541365 66 62 64
-0.36994957 0.36542049 0.80623057 70 69 69
-0.37201690 0.39773509 0.77860086 0 0 0
-0.36956066 0.38817967 0.78516359 21 19 19
-0.37012553 0.41010827 0.77211580 0 0 0
-0.37390347 0.43020992 0.75899395 0 0 0
-0.36908843 0.42528807 0.76350433 0 0 0
-0.34958855 -0.78146247 1.15924833 0 0 0
-0.34243853 -0.78069250 1.16023070 0 0 0
-0.35537552 -0.77590043 1.15940985 0 0 0
-0.34877696 -0.76780150 1.16153304 0 0 0
-0.35006297 -0.74995429 1.16511679 0 0 0
-0.34973746 -0.73006021 1.17008915 0 0 0
-0.35005154 -0.71011466 1.17600714 0 0 0
-0.34116668 -0.70024105 1.18010926 0 0 0
-0.35427104 -0.69844485 1.17937292 0 0 0
-0.34962742 -0.68897664 1.18310188 0 0 0
-0.35003985 -0.67027900 1.19036160 0 0 0
-0.35050956 -0.65435302 1.19729819 0 0 0
-0.34994978 -0.64426769 1.20455333 8 9 9
-0.34965958 -0.64851325 1.23911763 77 79 80
-0.34995442 -0.64156059 1.24016380 77 78 81
-0.34728352 -0.63996227 1.20486939 0 0 0
-0.35017743 -0.63017130 1.24095414 76 80 82
-0.35031745 -0.61003932 1.24145051 78 82 86
-0.35049350 -0.58995105 1.24207455 79 85 86
-0.35060814 -0.56974294 1.24248086 83 87 91
-0.35069122 -0.55054553 1.24277519 84 89 95
-0.34999346 -0.53002380 1.24304971 85 90 96
-0.34977208 -0.50995866 1.24332565 87 91 95
-0.34986437 -0.48967231 1.24365367 87 93 96
-0.34996387 -0.46938500 1.24400731 85 92 96
-0.35005119 -0.45014590 1.24431759 86 93 98
-0.35012069 -0.42979947 1.24456463 84 93 97
-0.35017386 -0.40942614 1.24475353 85 91 97
-0.35019334 -0.39008484 1.24482291 84 90 98
-0.35020021 -0.37072798 1.24484710 83 89 99
-0.35018051 -0.35026794 1.24477693 81 88 97
-0.35015740 -0.32980690 1.24469463 80 85 98
-0.35013816 -0.31042761 1.24462600 79 85 95
-0.35011497 -0.28997172 1.24454382 78 82 93
-0.35008138 -0.26951062 1.24442449 74 78 90
-0.35002732 -0.25011405 1.24423242 72 75 87
-0.34997382 -0.23072385 1.24404236 70 72 84
-0.34989100 -0.21024714 1.24374796 66 68 81
-0.34977386 -0.18976134 1.24333179 64 64 74
-0.35047042 -0.17054371 1.24291010 60 60 69
-0.35063352 -0.14991295 1.24257072 44 43 46
-0.35056498 -0.12948453 1.24232783 36 33 35
-0.35045874 -0.11012604 1.24195132 34 31 34
-0.35033047 -0.08970044 1.24149676 34 31 34
-0.35015763 -0.06928122 1.24088414 33 31 35
-0.34770492 -0.04307610 1.23978648 45 43 46
-0.35068408 -0.05220165 1.24025897 37 33 37
-0.34988690 -0.03045361 1.23318795 104 104 111
-0.35016774 -0.00687585 1.21378386 140 141 147
-0.34993854 -0.01747184 1.22255110 115 119 130
-0.34978518 0.01487606 1.19503434 141 140 141
-0.34988940 0.00454353 1.20401101 134 133 140
-0.35007469 0.03598155 1.17646406 123 121 123
-0.35002853 0.02608924 1.18517402 134 133 136
-0.34958663 0.05740460 1.15733947 118 116 119
-0.34991012 0.04774945 1.16604739 116 117 123
-0.34948507 0.07903004 1.13747666 140 140 137
-0.35008305 0.06874681 1.14699221 129 128 128
-0.34988714 0.09900248 1.11826599 124 123 123
-0.35000336 0.08910758 1.12786927 148 144 143
-0.34903912 0.11887760 1.09843794 147 147 145
-0.35023324 0.10945820 1.10789607 129 127 128
-0.35045748 0.13834188 1.07838842 146 144 140
-0.34992882 0.12840327 1.08862378 142 136 133
-0.34987169 0.15768001 1.05835717 110 110 114
-0.35003848 0.14810037 1.06835000 114 112 115
-0.35025551 0.17704034 1.03781366 134 131 130
-0.34995452 0.16712466 1.04841980 132 130 130
-0.34972899 0.19626046 1.01644181 110 110 113
-0.35007270 0.18592396 1.02801088 121 119 120
-0.34959361 0.21551247 0.99428199 98 96 105
-0.34991921 0.20549083 1.00592110 110 109 114
-0.34999645 0.23391386 0.97233317 99 98 102
-0.35046224 0.22360305 0.98468771 102 101 106
-0.34990463 0.25230862 0.94955429 105 102 103
-0.34995438 0.24230311 0.96218703 116 115 116
-0.35002475 0.27763471 0.91680335 95 96 99
-0.35005561 0.26782236 0.92956030 109 109 110
-0.34974355 0.29513564 0.89398834 99 100 104
-0.35023661 0.28534678 0.90686381 86 87 91
-0.34989957 0.31315265 0.87062802 85 84 85
-0.34994326 0.30285801 0.88406942 78 79 82
-0.34899533 0.33804234 0.83762512 84 84 85
-0.35006265 0.32889068 0.84986387 81 81 83
-0.35186943 0.32073677 0.86087832 113 112 109
-0.34962942 0.35589940 0.81576136 84 82 82
-0.35017616 0.34590952 0.82766496 79 78 81
-0.34981508 0.37506413 0.79583284 103 101 100
-0.35019254 0.36529509 0.80568334 95 94 93
-0.35681766 0.39985907 0.77972819 0 0 0
-0.35001072 0.38967203 0.78624834 14 14 14
-0.35042498 0.41094032 0.77510920 0 0 0
-0.34557831 0.40125248 0.78061558 0 0 0
-0.34985601 0.42695963 0.76635385 0 0 0
-0.32904040 -0.78203478 1.16151034 0 0 0
-0.32981357 -0.77012859 1.16321513 0 0 0
-0.33027966 -0.74977541 1.16731054 0 0 0
-0.32994526 -0.73015585 1.17216550 0 0 0
-0.33051499 -0.71199940 1.17738012 0 0 0
-0.32793558 -0.70227054 1.18068913 0 0 0
-0.32996231 -0.68973601 1.18469691 0 0 0
-0.32998504 -0.66965746 1.19237547 0 0 0
-0.33119774 -0.65596258 1.19822211 0 0 0
-0.32974253 -0.64591153 1.20494081 2 2 2
-0.32989676 -0.64763264 1.23865232 77 79 83
-0.33599055 -0.64150179 1.24005014 79 80 82
-0.33004596 -0.62983659 1.24075239 78 80 85
-0.32990206 -0.60998219 1.24133438 79 83 86
-0.33007667 -0.58991169 1.24199181 81 85 88
-0.33018830 -0.56971133 1.24241192 84 88 91
-0.33026432 -0.55051130 1.24269787 84 89 94
-0.32960987 -0.53046639 1.24297355 84 90 97
-0.32933848 -0.50993060 1.24325718 85 91 97
-0.32942305 -0.48964192 1.24357649 86 92 96
-0.32951346 -0.46935122 1.24391768 85 93 96
-0.32959275 -0.45010950 1.24421699 86 91 98
-0.32965706 -0.42976327 1.24445965 84 91 98
-0.32969732 -0.40937944 1.24461153 84 91 96
-0.32971264 -0.39003669 1.24466917 83 90 98
-0.32971030 -0.37067240 1.24466029 82 89 99
-0.32968044 -0.35020335 1.24454724 84 88 99
-0.32965178 -0.32973918 1.24443897 82 85 99
-0.32963650 -0.31036656 1.24438148 78 86 93
-0.32962555 -0.28992425 1.24434029 76 81 92
-0.32959888 -0.26947058 1.24423964 76 79 91
-0.32955121 -0.25007933 1.24405980 73 77 89
-0.32950517 -0.23069482 1.24388612 72 75 86
-0.32943393 -0.21022507 1.24361742 69 71 86
-0.32932693 -0.18974321 1.24321335 66 66 78
-0.33007960 -0.17018058 1.24282968 62 63 72
-0.33021409 -0.14990551 1.24250909 45 44 47
-0.33015272 -0.12947936 1.24227812 39 36 40
-0.33004625 -0.11011952 1.24187726 37 35 37
-0.32991496 -0.08969225 1.24138313 35 33 36
-0.32986132 -0.06937143 1.24077344 36 35 38
-0.32975157 -0.04564362 1.23966902 48 43 46
-0.33158721 -0.05504623 1.24015524 38 35 39
-0.32994341 -0.03039489 1.23295506 100 99 106
-0.33009006 -0.00690932 1.21384165 136 137 144
-0.32984887 -0.01762205 1.22267789 115 119 130
-0.32985635 0.01491483 1.19514716 140 139 141
-0.32988105 0.00467968 1.20396371 128 130 135
-0.33020724 0.03687661 1.17576884 119 120 120
-0.32982205 0.02690768 1.18458856 129 129 132
-0.32959673 0.05740698 1.15738756 121 121 122
-0.32992281 0.04780926 1.16608243 114 113 118
-0.32982099 0.07902912 1.13746352 140 135 134
-0.33005072 0.06883117 1.14695132 124 124 125
-0.33005508 0.09895711 1.11827352 130 127 130
-0.32996707 0.08906706 1.12789910 140 136 134
-0.33008856 0.11815478 1.09907775 146 143 141
-0.32998043 0.10864394 1.10863935 136 132 133
-0.33037911 0.13828931 1.07832455 133 125 125
-0.32995360 0.12826555 1.08866251 134 131 128
-0.32968628 0.15764983 1.05815459 118 117 120
-0.33005699 0.14805352 1.06825694 120 118 118
-0.32965791 0.17712505 1.03743747 119 117 121
-0.33004403 0.16702615 1.04827382 112 111 114
-0.32979117 0.19618597 1.01621512 109 108 112
-0.33023279 0.18611907 1.02750792 116 113 115
-0.32980355 0.21553964 0.99398396 95 95 100
-0.33042359 0.20518861 1.00595413 120 119 123
-0.32990689 0.23389413 0.97201454 90 88 94
-0.32984180 0.22397651 0.98384813 116 116 118
-0.32775098 0.25942106 0.93984582 126 126 125
-0.33004480 0.25164826 0.94994171 94 94 98
-0.32990098 0.24223201 0.96190476 100 101 102
-0.32964561 0.27695566 0.91669205 97 97 102
-0.33028052 0.26724614 0.92957456 113 113 116
-0.33001729 0.29499839 0.89283487 99 98 100
-0.33007733 0.28470649 0.90657297 90 89 92
-0.33001560 0.31239652 0.86987075 82 81 84
-0.33055912 0.30254214 0.88295631 97 97 102
-0.32973566 0.33739875 0.83650050 83 83 83
-0.33018641 0.32739996 0.84981819 88 89 89
-0.32978167 0.35539846 0.81494098 103 100 102
-0.33011910 0.34544280 0.82650522 87 87 89
-0.32995690 0.37452010 0.79604337 101 99 98
-0.33004023 0.36489748 0.80512394 100 98 97
-0.33013726 0.39003871 0.78791999 1 1 1
-0.33076614 0.41345217 0.77682986 0 0 0
-0.32845374 0.40366645 0.78161849 0 0 0
-0.32989606 0.42772158 0.76932810 0 0 0
-0.30957255 -0.78296289 1.16350907 0 0 0
-0.30971098 -0.77004603 1.16537112 0 0 0
-0.30998321 -0.75003224 1.16934276 0 0 0
-0.31020372 -0.72991160 1.17417651 0 0 0
-0.31058763 -0.71452786 1.17847450 0 0 0
-0.30865334 -0.70497119 1.18157710 0 0 0
-0.31023080 -0.69016514 1.18628495 0 0 0
-0.31004667 -0.67018459 1.19381238 0 0 0
-0.31129742 -0.65784563 1.19892522 0 0 0
-0.30978046 -0.64773433 1.20501816 0 0 0
-0.31026380 -0.64653794 1.23807821 75 79 83
-0.30889338 -0.63836469 1.23983421 79 83 85
-0.30981129 -0.62831809 1.24058219 79 83 88
-0.30947783 -0.60990022 1.24116784 79 85 86
-0.30966161 -0.58987046 1.24190520 81 86 89
-0.30977053 -0.56967943 1.24234219 82 88 94
-0.30982704 -0.55045409 1.24256858 84 89 92
-0.30989920 -0.53017442 1.24285792 86 89 98
-0.30997575 -0.50989279 1.24316505 86 92 96
-0.31030691 -0.49005800 1.24349076 86 91 97
-0.30988705 -0.46982157 1.24382372 85 92 98
-0.31021700 -0.45007899 1.24413266 85 90 99
-0.31027378 -0.42972903 1.24436036 85 91 99
-0.31030944 -0.40934386 1.24450328 83 91 99
-0.31031681 -0.38999400 1.24453277 83 90 98
-0.31030796 -0.37062385 1.24449715 83 89 96
-0.31026840 -0.35014460 1.24433828 81 87 98
-0.31023664 -0.32967875 1.24421089 81 85 99
-0.31022637 -0.31031371 1.24416970 78 84 93
-0.31021948 -0.28987806 1.24414212 75 81 94
-0.31019604 -0.26942909 1.24404810 75 79 91
-0.31015087 -0.25004053 1.24386690 73 78 91
-0.31011603 -0.23066531 1.24372722 71 74 90
-0.31005129 -0.21019973 1.24346753 69 72 88
-0.30995344 -0.18972211 1.24307534 67 68 82
-0.30986909 -0.17033873 1.24273728 63 65 77
-0.30979344 -0.14989646 1.24243388 45 45 49
-0.30973571 -0.12947148 1.24220244 40 38 41
-0.30962876 -0.11011036 1.24177351 38 37 39
-0.30949977 -0.08968309 1.24125591 38 37 39
-0.30946924 -0.06916136 1.24060903 39 38 40
-0.30965500 -0.04827477 1.23955649 47 45 47
-0.31256006 -0.05758160 1.24009813 39 38 41
-0.31011111 -0.03051922 1.23283437 96 94 106
-0.31000950 -0.00693944 1.21385832 134 134 142
-0.30978408 -0.01747147 1.22252672 120 120 134
-0.31009054 0.01479122 1.19534599 140 139 143
-0.30986204 0.00449104 1.20418563 122 123 132
-0.31020173 0.03705597 1.17573933 121 121 125
-0.30987888 0.02703125 1.18460969 127 126 129
-0.30959542 0.05740756 1.15739935 117 117 119
-0.31007427 0.04769899 1.16624531 120 119 122
-0.30931117 0.07877222 1.13763212 149 146 144
-0.31019697 0.06868296 1.14705075 128 127 127
-0.31021203 0.09890848 1.11824390 140 139 139
-0.30991624 0.08902373 1.12788111 136 135 134
-0.31013286 0.11815126 1.09904496 150 147 143
-0.30995494 0.10862254 1.10861860 132 127 127
-0.30985395 0.13827891 1.07824343 125 120 119
-0.31008662 0.12836163 1.08849138 138 133 132
-0.30956800 0.15835998 1.05718004 99 97 101
-0.31008378 0.14811169 1.06806161 120 118 119
-0.30993926 0.17770403 1.03646329 122 121 122
-0.31006861 0.16768311 1.04726044 115 115 119
-0.31002393 0.19615286 1.01588149 121 120 122
-0.30996814 0.18664736 1.02654454 130 128 127
-0.31005513 0.21512987 0.99409429 106 106 108
-0.31001850 0.20468256 1.00620339 99 98 101
-0.30997969 0.23379420 0.97171662 94 95 98
-0.30984714 0.22388396 0.98357098 96 96 99
-0.30976793 0.25932526 0.93949876 110 106 107
-0.30985597 0.25105122 0.95017619 102 102 104
-0.31077302 0.24178339 0.96200775 99 101 104
-0.30964776 0.27685223 0.91597251 108 109 109
-0.31009484 0.26693938 0.92935456 111 111 111
-0.30977959 0.29440699 0.89228878 83 83 86
-0.31072479 0.28433079 0.90604752 96 95 96
-0.30886498 0.31918731 0.85870082 107 108 110
-0.30998568 0.31102302 0.86992346 91 90 92
-0.31087260 0.30186610 0.88240368 92 94 96
-0.30943201 0.33651108 0.83527951 99 100 100
-0.31036894 0.32661984 0.84868124 112 111 110
-0.30969671 0.35432245 0.81428884 85 86 86
-0.31049096 0.34455022 0.82544193 95 98 100
-0.30984870 0.37423863 0.79608515 68 68 70
-0.31046522 0.36443518 0.80449813 87 87 88
-0.31015726 0.39026269 0.78964465 0 0 0
-0.31083978 0.41602385 0.77804149 0 0 0
-0.30927126 0.40611283 0.78266809 0 0 0
-0.30998504 0.42844711 0.77175601 0 0 0
-0.28918241 -0.78340558 1.16552422 0 0 0
-0.29013908 -0.76968572 1.16741248 0 0 0
-0.29002727 -0.74979065 1.17129481 0 0 0
-0.29002005 -0.73006901 1.17595232 0 0 0
-0.29233611 -0.71764399 1.17914050 0 0 0
-0.28921930 -0.70774988 1.18232711 0 0 0
-0.28981334 -0.68980515 1.18801836 0 0 0
-0.29017005 -0.67008042 1.19536954 0 0 0
-0.28161448 -0.66026544 1.20013523 0 0 0
-0.29583353 -0.65933133 1.19951441 0 0 0
-0.28987078 -0.64874855 1.20582625 2 2 2
-0.28983536 -0.64589698 1.23821215 80 83 87
-0.28900371 -0.63725849 1.23961382 79 82 88
-0.29029397 -0.62708727 1.24044529 79 85 87
-0.29013624 -0.60982808 1.24102120 80 85 88
-0.29031655 -0.58981706 1.24179289 81 87 89
-0.29043122 -0.56965249 1.24228356 85 88 92
-0.29048429 -0.55042852 1.24251079 85 89 94
-0.29055011 -0.53014641 1.24279224 86 90 95
-0.29062004 -0.50986253 1.24309125 85 91 95
-0.29069530 -0.49065224 1.24341318 86 91 96
-0.28989968 -0.47019229 1.24376333 85 92 98
-0.28977943 -0.45006526 1.24409480 86 92 100
-0.28983156 -0.42971466 1.24431859 85 91 98
-0.28985684 -0.40931873 1.24442678 84 91 97
-0.28985481 -0.38995801 1.24441776 83 90 99
-0.28983944 -0.37058048 1.24435148 83 88 100
-0.28980277 -0.35010406 1.24419421 81 86 97
-0.28977192 -0.32963926 1.24406181 81 85 96
-0.28975901 -0.31027293 1.24400612 78 84 96
-0.28975338 -0.28984076 1.24398199 76 81 95
-0.28972915 -0.26939221 1.24387788 73 79 94
-0.29014179 -0.25026058 1.24371814 72 76 93
-0.29073274 -0.23063671 1.24357293 72 73 95
-0.29067139 -0.21017316 1.24331044 71 72 91
-0.29058845 -0.18970381 1.24295585 68 69 86
-0.29051862 -0.17032777 1.24265736 64 66 76
-0.29044574 -0.14988583 1.24234568 46 45 49
-0.29039371 -0.12946317 1.24212303 41 38 42
-0.29029129 -0.11010256 1.24168479 39 38 40
-0.29016302 -0.08967445 1.24113612 40 38 40
-0.29001258 -0.06925945 1.24049285 41 39 41
-0.28950546 -0.04947847 1.23951447 48 46 50
-0.29526060 -0.05851570 1.24002185 43 39 45
-0.28993487 -0.03046210 1.23254419 93 92 108
-0.29003279 -0.00693922 1.21366995 132 132 139
-0.29000503 -0.01754235 1.22238562 119 121 129
-0.28992239 0.01487801 1.19518665 129 127 131
-0.29007125 0.00465439 1.20393983 116 115 126
-0.29012597 0.03697907 1.17578248 118 118 121
-0.28990226 0.02697902 1.18461337 126 125 128
-0.28956527 0.05740248 1.15729682 125 123 124
-0.29018309 0.04783608 1.16602260 127 127 129
-0.29001700 0.07809129 1.13813999 135 128 128
-0.29014534 0.06782505 1.14773436 135 132 134
-0.28989633 0.09897749 1.11798380 118 116 121
-0.28994745 0.08905063 1.12768507 142 138 137
-0.29014465 0.11813398 1.09888424 127 125 124
-0.29000293 0.10864203 1.10841017 126 122 122
-0.28975547 0.13821454 1.07808742 135 134 136
-0.29009538 0.12829211 1.08836548 133 130 131
-0.29001987 0.15837545 1.05690292 111 110 114
-0.29008934 0.14799328 1.06794950 113 113 116
-0.28990959 0.17762615 1.03612478 110 108 109
-0.29007864 0.16774326 1.04683838 117 115 118
-0.29006690 0.19604717 1.01549749 116 114 116
-0.29000031 0.18656431 1.02614051 126 124 126
-0.28996822 0.21506226 0.99369792 113 113 115
-0.29003839 0.20466111 1.00577451 95 96 97
-0.28979257 0.23322544 0.97182320 100 102 104
-0.29040994 0.22338575 0.98366233 107 107 110
-0.29014560 0.25920358 0.93905794 111 111 113
-0.29004845 0.25071361 0.95000198 106 105 106
-0.29014323 0.24142703 0.96186102 107 107 108
-0.28992386 0.27700935 0.91490976 112 108 110
-0.29006631 0.26678134 0.92889755 112 111 110
-0.28994470 0.29384672 0.89178633 104 104 105
-0.29006165 0.28426827 0.90514478 83 82 85
-0.28981205 0.31840854 0.85794445 95 97 97
-0.28986422 0.30975723 0.86993979 85 86 87
-0.29079404 0.30116971 0.88188734 104 104 106
-0.28985486 0.33561113 0.83435419 94 95 97
-0.29007513 0.32571027 0.84783289 106 106 107
-0.28983338 0.35348151 0.81318760 84 84 86
-0.29032646 0.34346199 0.82448011 93 93 92
-0.29031299 0.37378689 0.79686465 54 55 55
-0.29001196 0.36414342 0.80349248 113 114 114
-0.28996977 0.39018671 0.79129433 0 0 0
-0.29196641 0.41806189 0.77918498 0 0 0
-0.28955517 0.40854067 0.78356371 0 0 0
-0.29005728 0.42900087 0.77401789 0 0 0
-0.26983595 -0.78433397 1.16714224 0 0 0
-0.27015233 -0.77029651 1.16913670 0 0 0
-0.26968753 -0.75010954 1.17304571 0 0 0
-0.27080937 -0.73049457 1.17748008 0 0 0
-0.26574217 -0.72127210 1.18031210 0 0 0
-0.27993105 -0.71848583 1.17992413 0 0 0
-0.26949461 -0.70990372 1.18328003 0 0 0
-0.27022948 -0.69019509 1.18937852 0 0 0
-0.27032819 -0.67137233 1.19623076 0 0 0
-0.26850684 -0.66133196 1.20065968 0 0 0
-0.26996014 -0.64944239 1.20686988 0 0 0
-0.27042705 -0.64554348 1.23753645 79 84 85
-0.26996401 -0.63532602 1.23950216 82 85 86
-0.27109865 -0.62511485 1.24028229 82 85 88
-0.27004474 -0.60950049 1.24080607 83 86 90
-0.26989825 -0.58975542 1.24166331 83 88 90
-0.27001552 -0.56961566 1.24220334 85 88 93
-0.27006916 -0.55040160 1.24245012 85 90 94
-0.27012721 -0.53011433 1.24271689 86 89 95
-0.27019120 -0.50982976 1.24301141 86 90 94
-0.27026271 -0.49062353 1.24334044 88 90 96
-0.26949818 -0.47052812 1.24369300 88 91 95
-0.26933929 -0.45004471 1.24403810 89 91 98
-0.26938533 -0.42969129 1.24425078 86 91 98
-0.26940250 -0.40928696 1.24433008 85 91 97
-0.26939578 -0.38992084 1.24429897 84 89 99
-0.26937773 -0.37054004 1.24421564 84 88 99
-0.26934480 -0.35006725 1.24406346 82 86 97
-0.26931485 -0.32960307 1.24392503 80 84 96
-0.26929311 -0.31022764 1.24382442 77 84 96
-0.26928639 -0.28979676 1.24379328 75 81 95
-0.26926552 -0.26935303 1.24369693 74 77 94
-0.26973529 -0.24972006 1.24353066 73 77 92
-0.27027657 -0.23060525 1.24340332 72 74 92
-0.27022421 -0.21014812 1.24316278 72 74 92
-0.27015759 -0.18968862 1.24285657 69 73 87
-0.27009796 -0.17031747 1.24258240 69 70 83
-0.27002969 -0.14987648 1.24226832 48 47 52
-0.26997897 -0.12945403 1.24203508 42 41 44
-0.26988213 -0.11009413 1.24158965 41 40 43
-0.26995267 -0.09050793 1.24105612 41 40 43
-0.27008045 -0.07039996 1.24046567 43 41 45
-0.27049137 -0.04992189 1.23946460 49 49 52
-0.26985891 -0.03045269 1.23222752 96 96 110
-0.27005212 -0.00693694 1.21343341 130 131 140
-0.27022633 -0.01761289 1.22222829 113 116 124
-0.26990638 0.01491237 1.19494839 126 126 130
-0.26998831 0.00456952 1.20378828 118 119 131
-0.26951762 0.03634269 1.17615688 121 121 126
-0.27049552 0.02657520 1.18479117 117 117 123
-0.26950945 0.05739116 1.15706886 135 133 134
-0.27012276 0.04774280 1.16589094 129 128 131
-0.26996037 0.07807486 1.13789969 139 135 132
-0.27012440 0.06782213 1.14747470 137 131 132
-0.27001319 0.09891165 1.11775976 114 113 116
-0.26995621 0.08906758 1.12736466 138 135 134
-0.27014511 0.11810915 1.09865334 141 137 135
-0.26993593 0.10858238 1.10820801 125 123 126
-0.27015410 0.13826223 1.07776753 128 128 129
-0.27000777 0.12833941 1.08808443 135 132 130
-0.26944196 0.15777378 1.05716392 114 112 115
-0.27024650 0.14750990 1.06810584 118 118 119
-0.26975390 0.17687734 1.03649089 107 106 109
-0.27018107 0.16700493 1.04720827 117 116 120
-0.26955721 0.19553526 1.01559466 100 100 103
-0.27048471 0.18611305 1.02620399 120 121 123
-0.26999788 0.21493715 0.99333161 104 103 106
-0.27004328 0.20447863 1.00541340 97 97 101
-0.26997175 0.23289781 0.97162081 91 90 93
-0.27009783 0.22298255 0.98357378 114 115 115
-0.26880896 0.25880921 0.93880630 109 107 108
-0.27011925 0.25050275 0.94967793 105 105 106
-0.27048284 0.24129415 0.96147561 101 100 102
-0.27007620 0.27629453 0.91506383 87 87 90
-0.26997182 0.26607184 0.92904727 97 96 98
-0.26968895 0.29370556 0.89063178 122 120 118
-0.27035910 0.28370519 0.90489674 104 104 105
-0.26935249 0.31785242 0.85680722 99 98 98
-0.27003060 0.30856005 0.86993646 106 106 108
-0.27100602 0.30079809 0.88088095 128 126 124
-0.26990209 0.33509066 0.83326809 106 108 110
-0.27011546 0.32506168 0.84680187 98 98 99
-0.26988179 0.35271269 0.81260689 148 149 146
-0.27038873 0.34304009 0.82335503 105 104 106
-0.27011992 0.37396001 0.79771157 29 29 29
-0.26995153 0.36390068 0.80294171 175 175 167
-0.27000477 0.39009587 0.79275509 0 0 0
-0.27001829 0.41002285 0.78487490 0 0 0
-0.27036609 0.43040600 0.77580754 0 0 0
-0.26635438 0.42141973 0.78055609 0 0 0
-0.24999190 -0.78435753 1.16868047 0 0 0
-0.25047339 -0.76967230 1.17093147 0 0 0
-0.24963152 -0.74985580 1.17476439 0 0 0
-0.25071323 -0.73329560 1.17835184 0 0 0
-0.24893580 -0.72387096 1.18088785 0 0 0
-0.24989212 -0.70992212 1.18470334 0 0 0
-0.25023317 -0.69019173 1.19074495 0 0 0
-0.25027823 -0.67300676 1.19685766 0 0 0
-0.24940791 -0.66330926 1.20116573 0 0 0
-0.24984917 -0.64966633 1.20810980 1 1 1
-0.25018516 -0.64397049 1.23538986 80 84 87
-0.24966372 -0.63421623 1.23952213 84 86 88
-0.25087572 -0.62393551 1.24016311 85 86 88
-0.24969143 -0.60988063 1.24066080 84 88 89
-0.24949172 -0.58971208 1.24157217 86 88 91
-0.24961065 -0.56959762 1.24216412 84 88 91
-0.24966519 -0.55039529 1.24243584 85 89 94
-0.24971332 -0.53009666 1.24267535 87 89 95
-0.24977122 -0.50981004 1.24296332 88 91 93
-0.24983767 -0.49060517 1.24329392 86 92 95
-0.24990678 -0.47032038 1.24363790 89 93 95
-0.24997214 -0.45001762 1.24396319 88 92 98
-0.25001374 -0.42966343 1.24417007 86 92 98
-0.25002883 -0.40925901 1.24424510 86 91 97
-0.25002213 -0.38989349 1.24421176 86 89 103
-0.25000689 -0.37051630 1.24413594 84 88 98
-0.24997237 -0.35003932 1.24396396 81 87 96
-0.24994223 -0.32957363 1.24381397 81 84 97
-0.24992035 -0.31019792 1.24370509 77 82 96
-0.24991002 -0.28976425 1.24365363 77 83 92
-0.24989091 -0.26932302 1.24355852 74 79 94
-0.24985718 -0.24994485 1.24339080 73 77 94
-0.24983179 -0.23057945 1.24326444 73 75 90
-0.24978912 -0.21012944 1.24305222 71 76 90
-0.24972867 -0.18967253 1.24275128 71 73 93
-0.24967686 -0.17030527 1.24249327 71 73 89
-0.24961601 -0.14986703 1.24219066 49 48 55
-0.24957636 -0.12944970 1.24199367 44 42 49
-0.24948694 -0.11009048 1.24154859 42 41 46
-0.24937930 -0.09073792 1.24101288 42 41 46
-0.24488241 -0.06065620 1.23996518 46 45 52
-0.25020286 -0.07057484 1.24042203 43 42 49
-0.25012555 -0.04991917 1.23939579 51 50 55
-0.25003172 -0.03044615 1.23190926 98 98 111
-0.24971618 -0.00741241 1.21345498 128 128 138
-0.25110312 -0.01780074 1.22200862 116 118 128
-0.25003885 0.01478315 1.19469390 119 118 128
-0.24988239 0.00448407 1.20350950 128 128 139
-0.24995985 0.03597116 1.17612651 122 120 124
-0.24998871 0.02595937 1.18497646 119 117 123
-0.24943840 0.05737457 1.15673430 134 132 132
-0.25003738 0.04769949 1.16554820 136 132 132
-0.24990007 0.07805454 1.13760447 153 149 148
-0.25010061 0.06779208 1.14717565 131 127 129
-0.24916773 0.09851089 1.11778606 109 109 112
-0.25022196 0.08884159 1.12724741 130 127 129
-0.25012362 0.11807008 1.09828988 134 134 133
-0.24995947 0.10862186 1.10778302 110 110 114
-0.24911941 0.13779696 1.07784337 140 135 136
-0.25022705 0.12781081 1.08824380 134 128 128
-0.25008747 0.15749602 1.05699981 115 116 122
-0.24991161 0.14713011 1.06808705 122 120 123
-0.24993944 0.17677996 1.03612214 112 111 115
-0.24995820 0.16681945 1.04692449 109 107 111
-0.24998790 0.19514720 1.01552847 99 99 102
-0.25004061 0.18572269 1.02612258 106 106 109
-0.24971348 0.21452655 0.99314354 107 107 111
-0.25032899 0.20417273 1.00517347 115 116 117
-0.24991386 0.23280306 0.97106513 95 94 98
-0.24999003 0.22289320 0.98302068 109 110 110
-0.24915079 0.25848581 0.93835079 95 93 95
-0.24973589 0.24941602 0.95014361 99 97 101
-0.25217529 0.24088098 0.96119144 102 99 107
-0.24999243 0.27608443 0.91430963 103 102 105
-0.25015303 0.26602215 0.92810628 92 91 94
-0.25001672 0.29336927 0.88994446 101 101 104
-0.24985771 0.28323676 0.90436453 121 119 119
-0.24968661 0.31707772 0.85623227 106 107 110
-0.24997101 0.30736050 0.87007549 107 108 109
-0.25747113 0.30072754 0.88007931 103 103 105
-0.24988464 0.33436598 0.83285223 159 158 153
-0.25006395 0.32435688 0.84614376 118 118 120
-0.24992889 0.35205759 0.81233876 180 180 172
-0.25001724 0.34238374 0.82299378 169 168 164
-0.25145375 0.37532861 0.79864071 0 0 0
-0.24936247 0.36525655 0.80256047 125 125 119
-0.24995999 0.39016977 0.79424274 0 0 0
-0.24992538 0.41004442 0.78691487 0 0 0
-0.25046625 0.43362660 0.77672925 0 0 0
-0.24895006 0.42374476 0.78160567 0 0 0
-0.23005314 -0.78524698 1.17000577 0 0 0
-0.23036491 -0.77037365 1.17232936 0 0 0
-0.22958381 -0.75012065 1.17624181 0 0 0
-0.23159437 -0.73616338 1.17907498 0 0 0
-0.22961959 -0.72621120 1.18169299 0 0 0
-0.22995394 -0.70989173 1.18612038 0 0 0
-0.23020623 -0.68994912 1.19213953 0 0 0
-0.23016784 -0.67385969 1.19777084 0 0 0
-0.22922744 -0.66429946 1.20198701 0 0 0
-0.23023927 -0.64899562 1.20959246 2 3 3
-0.22960286 -0.64376409 1.23617733 83 89 89
-0.22933805 -0.63222056 1.23949259 84 86 88
-0.23115922 -0.62206819 1.24011995 85 88 89
-0.22999076 -0.60960185 1.24056105 85 88 92
-0.23016587 -0.58968061 1.24150606 87 89 91
-0.23027765 -0.56957241 1.24210918 87 89 92
-0.23033221 -0.55038088 1.24240341 86 90 92
-0.23037843 -0.53008704 1.24265280 87 90 93
-0.23042768 -0.50979157 1.24291824 88 92 94
-0.23048756 -0.49058436 1.24324122 89 91 96
-0.23055356 -0.47030497 1.24359724 88 92 97
-0.23061503 -0.45000521 1.24392881 88 91 100
-0.23064836 -0.43071743 1.24410861 87 91 99
-0.23066123 -0.41031214 1.24417792 87 91 98
-0.23065381 -0.38987032 1.24413785 85 90 100
-0.23063921 -0.37049342 1.24405905 84 88 97
-0.23060632 -0.35001619 1.24388174 82 87 100
-0.23057994 -0.32955388 1.24373958 81 85 100
-0.23056047 -0.31018039 1.24363468 78 83 102
-0.23054782 -0.28974390 1.24356609 75 82 93
-0.23052690 -0.26930020 1.24345318 74 80 94
-0.23049639 -0.24992427 1.24328841 75 78 92
-0.23047070 -0.23055821 1.24314985 71 76 93
-0.23043797 -0.21011605 1.24297349 71 77 93
-0.23038446 -0.18966250 1.24268510 72 74 96
-0.23032716 -0.17028919 1.24237573 73 75 91
-0.23027881 -0.14985781 1.24211531 50 50 56
-0.23024791 -0.12944503 1.24194864 44 44 50
-0.23016384 -0.11008575 1.24149519 43 42 49
-0.23006078 -0.09073256 1.24093907 43 42 49
-0.22891394 -0.06184319 1.23989061 46 45 53
-0.23019618 -0.07243918 1.24038453 44 43 49
-0.22974047 -0.04991183 1.23921081 51 50 57
-0.22999708 -0.03051635 1.23169319 96 97 111
-0.23009242 -0.00794786 1.21351516 130 129 136
-0.22977029 -0.01859585 1.22227681 110 112 126
-0.22999844 0.01491884 1.19415724 125 123 128
-0.23006243 0.00464653 1.20298748 129 129 137
-0.22995690 0.03591733 1.17575674 140 137 137
-0.23004337 0.02603293 1.18448563 125 125 130
-0.22953823 0.05639644 1.15720851 134 129 129
-0.23025226 0.04683901 1.16589719 134 129 132
-0.22985317 0.07809130 1.13721664 136 135 135
-0.23019632 0.06776964 1.14679463 129 126 127
-0.22981392 0.09801929 1.11790306 120 119 120
-0.23011816 0.08810734 1.12757075 126 122 124
-0.23010503 0.11802574 1.09787739 117 116 119
-0.22998406 0.10845416 1.10753261 116 117 120
-0.22995258 0.13725455 1.07798363 146 140 140
-0.22997293 0.12732179 1.08829328 124 122 126
-0.23011975 0.15741010 1.05656530 117 117 120
-0.22993005 0.14710816 1.06765148 126 124 127
-0.22995896 0.17667432 1.03569062 103 102 109
-0.22995291 0.16674660 1.04646729 109 108 112
-0.22997609 0.19508327 1.01492740 99 99 104
-0.23003226 0.18559172 1.02564615 117 117 119
-0.22996736 0.21406642 0.99298653 100 100 107
-0.22992222 0.20363245 1.00511355 110 111 115
-0.22973926 0.23238081 0.97084016 104 103 105
-0.23078839 0.22267227 0.98267822 101 98 102
-0.22989339 0.25870188 0.93708857 108 105 105
-0.23000319 0.24904001 0.94976561 93 93 95
-0.23050426 0.24036515 0.96108064 87 85 90
-0.22984396 0.27533711 0.91412407 102 103 106
-0.23010442 0.26573820 0.92738731 103 103 105
-0.22092792 0.29915815 0.87993741 102 102 106
-0.22996040 0.29254333 0.88984195 105 105 107
-0.23016039 0.28251478 0.90426230 97 95 98
-0.22943412 0.31665739 0.85540483 157 155 151
-0.23017051 0.30675699 0.86966161 121 120 121
-0.22974660 0.33380893 0.83233773 182 181 173
-0.23037746 0.32387251 0.84544362 174 173 166
-0.22984127 0.35158767 0.81227163 177 176 169
-0.23069335 0.34189204 0.82256990 178 175 171
-0.23084787 0.37732058 0.79931348 0 0 0
-0.22974612 0.36726364 0.80259562 60 60 57
-0.23009835 0.39024103 0.79583832 0 0 0
-0.23007825 0.41009145 0.78906773 0 0 0
-0.23122222 0.43611253 0.77797274 0 0 0
-0.22920569 0.42636622 0.78286405 0 0 0
-0.22857528 0.44051969 0.77566625 0 0 0
-0.21006577 -0.78511460 1.17131734 0 0 0
-0.21052424 -0.76957730 1.17387378 0 0 0
-0.20980850 -0.74968257 1.17768164 0 0 0
-0.20041532 -0.74099689 1.18004775 0 0 0
-0.21463406 -0.73824695 1.17972757 0 0 0
-0.20958167 -0.72934593 1.18224110 0 0 0
-0.20994894 -0.71012837 1.18733173 0 0 0
-0.21011232 -0.68996995 1.19337040 0 0 0
-0.21062486 -0.67565359 1.19822074 0 0 0
-0.20948470 -0.66546712 1.20267168 0 0 0
-0.21008006 -0.64930273 1.21036597 2 2 2
-0.21010827 -0.64363869 1.23575954 86 90 91
-0.21050191 -0.63154311 1.23943747 86 90 91
-0.21060783 -0.62114577 1.24006133 88 91 93
-0.21042522 -0.60939477 1.24050772 88 90 92
-0.20977208 -0.58965760 1.24145762 87 90 91
-0.20987524 -0.56955344 1.24206779 85 91 92
-0.20992099 -0.55035210 1.24233834 87 91 94
-0.20996396 -0.53006131 1.24259252 88 90 94
-0.21000676 -0.50976195 1.24284598 88 92 95
-0.21006236 -0.49055827 1.24317513 89 92 94
-0.21012365 -0.47028254 1.24353796 88 92 96
-0.21017670 -0.44997740 1.24385183 88 91 97
-0.21020687 -0.43069030 1.24403033 88 90 97
-0.21021902 -0.41028726 1.24410242 87 91 98
-0.21021217 -0.38984650 1.24406183 86 91 100
-0.21019734 -0.37046813 1.24397406 85 89 97
-0.21016593 -0.34998981 1.24378796 83 87 100
-0.21014302 -0.32953068 1.24365207 81 87 97
-0.21012803 -0.31016259 1.24356348 77 83 97
-0.21011591 -0.28972665 1.24349204 78 81 93
-0.21009487 -0.26928165 1.24336730 76 79 95
-0.21006146 -0.24990039 1.24316952 75 80 92
-0.21003597 -0.23053380 1.24301846 74 77 93
-0.21001327 -0.21010095 1.24288454 73 77 95
-0.20996718 -0.18965131 1.24261182 73 77 96
-0.20991441 -0.17027876 1.24229958 73 76 93
-0.20987481 -0.14985173 1.24206526 50 49 57
-0.20984617 -0.12943952 1.24189576 45 45 51
-0.20976955 -0.11008106 1.24144225 43 43 48
-0.21000352 -0.09094852 1.24085746 43 42 50
-0.21004977 -0.06308779 1.23982062 45 44 53
-0.21089687 -0.07374738 1.24031431 43 43 50
-0.21044523 -0.04990736 1.23910359 52 51 59
-0.20996837 -0.03038231 1.23138786 100 101 113
-0.21008941 -0.00802933 1.21313074 135 135 143
-0.20963882 -0.01859040 1.22191819 112 112 131
-0.20973253 0.01406972 1.19434074 125 123 128
-0.21039272 0.00373011 1.20325045 126 126 134
-0.21015656 0.03598328 1.17516969 137 135 136
-0.21009761 0.02606219 1.18394224 118 118 120
-0.20995730 0.05637495 1.15677027 131 126 129
-0.21002521 0.04672193 1.16547435 147 145 146
-0.20977986 0.07800215 1.13684113 129 126 127
-0.21016877 0.06777833 1.14631915 126 122 125
-0.21008665 0.09792765 1.11756835 116 116 121
-0.21006009 0.08809352 1.12711288 120 119 122
-0.20905163 0.11764676 1.09781125 114 112 116
-0.21017981 0.10832207 1.10724696 121 119 123
-0.21000603 0.13725312 1.07751600 116 116 117
-0.20994171 0.12732889 1.08785273 119 118 122
-0.21017745 0.15739969 1.05606772 106 106 112
-0.20995195 0.14701401 1.06724787 114 111 113
-0.20984553 0.17656205 1.03521922 100 100 103
-0.21005626 0.16661002 1.04606526 104 103 109
-0.20963595 0.19547402 1.01383624 100 101 106
-0.21028823 0.18546323 1.02518946 107 105 111
-0.20991949 0.21385498 0.99254075 100 100 107
-0.21030019 0.20399141 1.00408450 100 99 102
-0.21000928 0.23186308 0.97062996 99 98 102
-0.21021771 0.22199741 0.98272841 90 88 91
-0.20997543 0.25781849 0.93716656 107 107 110
-0.20988292 0.24814228 0.94986617 100 102 105
-0.21125128 0.24019465 0.96039891 94 90 95
-0.20949632 0.27508595 0.91332769 107 107 111
-0.21021553 0.26526475 0.92684469 126 124 125
-0.20840343 0.29928075 0.87873641 179 176 172
-0.20989852 0.29170401 0.88973011 153 151 149
-0.21061423 0.28233777 0.90342867 115 114 119
-0.20992969 0.31636808 0.85449093 181 179 171
-0.21023891 0.30629165 0.86885488 183 181 174
-0.20976916 0.33355804 0.83180257 185 183 176
-0.21007928 0.32365700 0.84458695 179 177 170
-0.21008809 0.35134506 0.81248141 179 176 171
-0.21067917 0.34167084 0.82212944 185 182 175
-0.21600931 0.37927118 0.79978383 0 0 0
-0.20985848 0.36948842 0.80299819 20 20 19
-0.21030617 0.39068630 0.79749450 0 0 0
-0.20295930 0.38147510 0.80031809 0 0 0
-0.21016472 0.41005024 0.79132379 0 0 0
-0.21375415 0.43837034 0.77911210 0 0 0
-0.20945483 0.42899525 0.78411286 0 0 0
-0.20923098 0.44105171 0.77792680 0 0 0
-0.18999495 -0.78583482 1.17239192 0 0 0
-0.19041576 -0.77030848 1.17498924 0 0 0
-0.19081755 -0.75244714 1.17836449 0 0 0
-0.18709210 -0.74295133 1.18047647 0 0 0
-0.18950845 -0.73013663 1.18331984 0 0 0
-0.19053348 -0.71002667 1.18856924 0 0 0
-0.18972040 -0.69000086 1.19457430 0 0 0
-0.19070986 -0.67736084 1.19874147 0 0 0
-0.18989757 -0.66752285 1.20287494 0 0 0
-0.18991913 -0.64963334 1.21113691 1 2 2
-0.18981370 -0.64357047 1.23597307 87 92 92
-0.18970181 -0.63050941 1.23941696 88 92 93
-0.19384947 -0.62065438 1.24005278 88 90 92
-0.19008574 -0.60971539 1.24044504 87 90 92
-0.18938347 -0.58964518 1.24143145 88 91 93
-0.18946951 -0.56952026 1.24199533 87 92 93
-0.18950927 -0.55031557 1.24225582 88 93 96
-0.18954620 -0.53002095 1.24249790 89 93 95
-0.18958650 -0.50972751 1.24276206 89 91 94
-0.18963726 -0.49052660 1.24309487 89 93 94
-0.18969448 -0.47025683 1.24347005 87 93 97
-0.18974528 -0.44995978 1.24380319 89 92 97
-0.18977420 -0.43067731 1.24399286 89 91 99
-0.18978525 -0.41027496 1.24406511 87 90 96
-0.18977858 -0.38983382 1.24402136 85 90 98
-0.18976573 -0.37045715 1.24393720 85 88 100
-0.18973552 -0.34997611 1.24373917 83 89 99
-0.18971039 -0.32951010 1.24357432 81 86 100
-0.18969763 -0.31014446 1.24349088 80 86 97
-0.18968867 -0.28971269 1.24343203 78 83 96
-0.18966876 -0.26926743 1.24330152 77 80 97
-0.18963726 -0.24988537 1.24309490 76 80 94
-0.18961243 -0.23051784 1.24293234 76 78 97
-0.18959600 -0.21009076 1.24282444 75 79 95
-0.18955476 -0.18964253 1.24255408 74 79 98
-0.18950534 -0.17026924 1.24223002 74 78 95
-0.18946756 -0.14984167 1.24198227 49 49 59
-0.18944053 -0.12943010 1.24180503 45 45 52
-0.18937099 -0.11007280 1.24134936 44 43 49
-0.18966304 -0.09048937 1.24075390 43 42 50
-0.18960301 -0.06445540 1.23974932 45 45 54
-0.19076184 -0.07509138 1.24024721 43 42 51
-0.19008322 -0.04990307 1.23899948 53 52 61
-0.18996065 -0.03045716 1.23127932 103 102 114
-0.18997553 -0.00787394 1.21260321 137 137 146
-0.19004219 -0.01864280 1.22170914 108 108 128
-0.18996734 0.01372105 1.19413396 135 134 137
-0.19010500 0.00360242 1.20284239 145 145 148
-0.18983364 0.03534874 1.17515705 144 141 143
-0.19033352 0.02531532 1.18402241 130 129 131
-0.18988274 0.05635096 1.15627822 128 124 129
-0.18996815 0.04671833 1.16496174 133 130 133
-0.18976230 0.07719219 1.13711971 122 119 122
-0.19017833 0.06706105 1.14647266 130 128 129
-0.19004222 0.09783450 1.11719341 113 113 118
-0.18990372 0.08791875 1.12683483 118 117 121
-0.18996042 0.11713612 1.09788770 113 112 114
-0.19001438 0.10756484 1.10754834 114 113 118
-0.19008048 0.13725367 1.07706294 119 118 122
-0.18991165 0.12726409 1.08746113 114 114 119
-0.18978156 0.15680296 1.05617618 119 118 122
-0.19023051 0.14648356 1.06734240 115 111 117
-0.19004628 0.17569804 1.03562221 121 119 123
-0.18985640 0.16583266 1.04638443 117 115 120
-0.19005450 0.19487015 1.01393768 107 107 110
-0.19011826 0.18468055 1.02549379 111 108 113
-0.18972500 0.21356986 0.99218792 102 102 106
-0.19054199 0.20398390 1.00352961 103 102 107
-0.18697095 0.23992501 0.95932078 118 114 116
-0.19001235 0.23170378 0.96986467 109 108 110
-0.18998440 0.22181207 0.98212259 128 127 126
-0.18964130 0.25750217 0.93647209 105 104 105
-0.19024342 0.24768081 0.94936243 104 103 105
-0.18998234 0.27476725 0.91240290 156 155 153
-0.19001155 0.26459405 0.92661239 133 128 130
-0.18949478 0.29868146 0.87816772 184 184 176
-0.19003026 0.29044336 0.89000309 185 183 174
-0.19020344 0.28190025 0.90246591 178 177 172
-0.18978287 0.31565213 0.85432464 181 179 172
-0.19012735 0.30581329 0.86810289 185 182 175
-0.18992381 0.33342761 0.83128083 188 184 177
-0.19028016 0.32330603 0.84411574 181 179 171
-0.19003117 0.35143040 0.81264634 178 177 170
-0.18994957 0.34180466 0.82159539 187 185 176
-0.19003349 0.36994990 0.80413445 1 1 1
-0.19117237 0.39400467 0.79853958 0 0 0
-0.18842514 0.38470277 0.80097128 0 0 0
-0.19007543 0.40996433 0.79361481 0 0 0
-0.18999797 0.43012180 0.78598783 0 0 0
-0.19452669 0.44202835 0.77934814 0 0 0
-0.18634559 0.44136634 0.78098406 0 0 0
-0.16949600 -0.78600689 1.17346400 0 0 0
-0.17032178 -0.76990223 1.17622556 0 0 0
-0.17193679 -0.75472995 1.17902290 0 0 0
-0.16912181 -0.74491769 1.18108091 0 0 0
-0.16953446 -0.72962836 1.18460397 0 0 0
-0.17018364 -0.71004857 1.18972094 0 0 0
-0.17009342 -0.68989957 1.19568009 0 0 0
-0.17124522 -0.67791345 1.19955234 0 0 0
-0.16962358 -0.66862291 1.20341711 0 0 0
-0.17009186 -0.64961235 1.21203370 2 2 2
-0.16973255 -0.64359642 1.23585554 88 94 94
-0.16979338 -0.62937974 1.23939710 89 92 94
-0.16993001 -0.60952029 1.24039528 89 91 95
-0.17006367 -0.58961637 1.24137070 89 92 95
-0.17014034 -0.56949039 1.24193019 90 92 95
-0.17017662 -0.55028869 1.24219518 88 94 96
-0.17021049 -0.52999728 1.24244240 90 93 95
-0.17024698 -0.50970575 1.24270901 90 93 94
-0.17029196 -0.49050392 1.24303737 90 94 96
-0.17034205 -0.47023141 1.24340278 89 92 97
-0.17038665 -0.44993260 1.24372800 88 93 99
-0.17041191 -0.43064943 1.24391228 88 93 98
-0.17042190 -0.41024864 1.24398533 87 91 98
-0.17041455 -0.38980578 1.24393181 86 90 98
-0.17040280 -0.37042992 1.24384589 85 90 100
-0.17037771 -0.34995463 1.24366288 84 89 99
-0.17035660 -0.32949277 1.24350897 84 86 101
-0.17034509 -0.31012799 1.24342489 81 87 97
-0.17033767 -0.28969838 1.24337063 78 82 98
-0.17031883 -0.26925257 1.24323299 77 80 99
-0.17029066 -0.24987186 1.24302759 77 78 97
-0.17026868 -0.23050573 1.24286716 76 79 97
-0.17025371 -0.21007955 1.24275812 76 79 96
-0.17021649 -0.18963218 1.24248624 77 80 97
-0.17016953 -0.17025738 1.24214317 75 78 96
-0.17013481 -0.14983051 1.24188982 49 49 58
-0.17011070 -0.12942057 1.24171373 44 44 52
-0.17005179 -0.11006695 1.24128391 44 43 49
-0.16997305 -0.09071590 1.24070935 43 42 50
-0.16983649 -0.06492969 1.23971265 44 44 53
-0.16990312 -0.07567303 1.24019905 43 43 51
-0.16974189 -0.04990382 1.23902274 54 53 60
-0.16996863 -0.03053187 1.23126518 103 103 114
-0.17001369 -0.00809471 1.21243837 145 145 152
-0.16998896 -0.01852639 1.22136157 114 113 129
-0.16999288 0.01389630 1.19344550 143 142 144
-0.16992046 0.00352686 1.20239560 151 152 153
-0.17010782 0.03491793 1.17497889 137 135 138
-0.16982801 0.02484770 1.18383768 144 141 142
-0.16945622 0.05610076 1.15603752 132 131 133
-0.17038636 0.04656384 1.16460435 131 129 133
-0.17022638 0.07695032 1.13690456 112 111 116
-0.16991992 0.06675410 1.14631134 126 124 127
-0.16973692 0.09791630 1.11672849 110 108 113
-0.16988432 0.08797935 1.12638967 118 117 121
-0.16995651 0.11698900 1.09763870 119 119 123
-0.17009924 0.10761338 1.10711811 116 116 120
-0.16984072 0.13715243 1.07672529 114 113 119
-0.17002001 0.12714980 1.08716067 110 111 116
-0.17023346 0.15642150 1.05607076 115 114 117
-0.16995900 0.14619238 1.06714779 117 116 118
-0.16997467 0.17563498 1.03509222 115 113 119
-0.16988907 0.16576160 1.04593610 105 105 112
-0.17002670 0.19474142 1.01336886 104 104 109
-0.17009294 0.18455659 1.02502387 123 121 122
-0.17002616 0.21296796 0.99199233 110 108 110
-0.16998967 0.20321002 1.00356243 105 104 107
-0.16959448 0.23966498 0.95879140 111 110 112
-0.17007748 0.23078227 0.97001963 112 109 110
-0.17018714 0.22107259 0.98207402 128 125 125
-0.16997102 0.25675806 0.93598300 180 175 170
-0.17003326 0.24714203 0.94894115 140 138 139
-0.16978009 0.27399535 0.91190587 182 179 172
-0.17028643 0.26389583 0.92601368 185 182 176
-0.17026973 0.29833336 0.87751624 185 182 174
-0.16975359 0.28975326 0.88961277 185 184 177
-0.17133888 0.28132937 0.90186339 180 179 172
-0.17001375 0.31538140 0.85377015 183 180 174
-0.16996682 0.30541251 0.86756121 184 181 174
-0.17002569 0.33299036 0.83126110 188 185 177
-0.16997767 0.32275303 0.84399457 184 182 175
-0.17014684 0.35123984 0.81323430 160 158 154
-0.17005606 0.34178038 0.82153688 187 185 178
