ply
format ascii 1.0
element vertex 1075
property float x
property float y
property float z
property uchar red
property uchar green
property uchar blue
end_header
-0.97138941 -0.64845787 1.55201740 79 56 57
-0.96052027 -0.62063003 1.51315141 110 71 64
-0.97426972 -0.62964540 1.52942999 113 77 70
-0.96915193 -0.63686311 1.54261833 97 64 65
-0.96812951 -0.61018326 1.51365118 114 74 71
-0.97489467 -0.61823153 1.52335250 118 74 77
-0.96238899 -0.58143890 1.49976075 103 74 75
-0.97206409 -0.58981607 1.50874323 99 70 69
-0.96707839 -0.56174967 1.47528321 58 59 64
-0.96849687 -0.56937960 1.48923407 70 62 63
-0.96393453 -0.55653228 1.47048585 56 56 62
-0.96753753 -0.55091931 1.49212971 61 61 64
-0.97585576 -0.54606650 1.50587209 60 62 68
-0.96584792 -0.52939402 1.49353135 60 62 70
-0.97344118 -0.52856913 1.50643077 59 62 73
-0.96715206 -0.50894044 1.49810535 60 60 72
-0.96971881 -0.51518110 1.50308609 59 60 73
-0.96373813 -0.49393474 1.49381595 63 67 75
-0.97154846 -0.32277027 1.61260081 180 180 180
-0.96907155 -0.32725025 1.62272310 180 180 180
-0.96656464 -0.30549670 1.57171984 183 182 181
-0.96982476 -0.31084118 1.58662530 174 173 173
-0.96595928 -0.31703789 1.60475380 179 180 180
-0.96829112 -0.29916456 1.56919828 133 134 135
-0.96857513 -0.26810322 1.57135850 106 110 109
-0.96891510 -0.27537252 1.58139809 66 67 68
-0.97218932 -0.25731232 1.55124533 180 180 178
-0.96607161 -0.22032359 1.53022993 54 54 56
-0.97001301 -0.20917920 1.52961322 92 93 100
-0.97643223 -0.21808104 1.54241800 52 54 56
-0.97124056 -0.18343828 1.52920066 177 177 177
-0.96880476 -0.16790638 1.51383951 166 163 162
-0.97270130 -0.17641472 1.52506799 177 177 177
-0.97082362 -0.15770542 1.50594916 77 71 72
-0.95668101 -0.64789164 1.54066324 64 59 60
-0.94381088 -0.63392144 1.51993692 63 53 59
-0.95525876 -0.62984252 1.52986258 86 59 62
-0.94804186 -0.60502148 1.49399062 115 75 68
-0.95193406 -0.61101508 1.50475806 107 71 66
-0.95037145 -0.58849976 1.49538431 116 77 72
-0.94922536 -0.56850485 1.48570568 109 73 70
-0.94221276 -0.56570745 1.51315141 99 63 57
-0.94755745 -0.57473731 1.53022993 102 62 64
-0.94870720 -0.54978390 1.47619057 83 66 67
-0.94954572 -0.55289804 1.48231242 90 68 68
-0.94387515 -0.53132814 1.47488187 77 63 67
-0.95091844 -0.53092921 1.48108621 71 63 68
-0.94450192 -0.51042154 1.47642987 66 64 71
-0.95248633 -0.50929115 1.48299444 62 62 72
-0.94483351 -0.49022152 1.47488363 59 62 72
-0.95277529 -0.49014890 1.48238173 59 62 72
-0.94310462 -0.47963014 1.47367787 71 75 88
-0.95269654 -0.32322651 1.61788034 139 143 142
-0.95377439 -0.32600197 1.62175083 129 135 131
-0.95168102 -0.30328006 1.57649267 190 190 188
-0.95227366 -0.30775032 1.59052430 175 176 175
-0.95096643 -0.31574037 1.60720416 153 157 155
-0.95433442 -0.29625681 1.55747846 66 66 69
-0.95566857 -0.29747163 1.56739879 65 66 71
-0.94612920 -0.26208478 1.55837202 59 61 67
-0.95318561 -0.26673345 1.57090882 58 59 62
-0.95592521 -0.27335246 1.58201343 59 58 59
-0.95185477 -0.25320527 1.53716969 174 174 174
-0.94887877 -0.25665402 1.54860525 69 72 77
-0.94021004 -0.25998893 1.56196272 59 64 73
-0.94424349 -0.20427164 1.49976075 83 87 92
-0.94959342 -0.21282664 1.51118497 68 68 73
-0.94215906 -0.19864773 1.49644995 181 184 185
-0.95080104 -0.18977834 1.50810385 178 179 179
-0.94677691 -0.16605221 1.49557488 172 172 171
-0.95585566 -0.17099344 1.50718351 177 177 176
-0.95105350 -0.15673553 1.49280212 53 51 54
-0.94815208 -0.12446433 1.47400316 78 75 76
-0.95315818 -0.13400120 1.48227392 72 68 68
-0.94604950 -0.11489575 1.46730472 119 113 116
-0.92589676 -0.62146083 1.49316108 62 54 59
-0.93489522 -0.63229543 1.50978136 62 58 61
-0.93143529 -0.60741958 1.49082215 94 61 59
-0.93594527 -0.61390370 1.50308609 90 57 58
-0.92882976 -0.58980004 1.47528321 113 72 65
-0.93166870 -0.58801417 1.48937878 107 67 63
-0.92984325 -0.56618997 1.47688854 113 69 69
-0.92924756 -0.56767498 1.48410607 107 68 66
-0.93208901 -0.57255340 1.50777431 97 61 62
-0.93012952 -0.55072179 1.47425104 115 71 72
-0.93192704 -0.55468029 1.48163812 114 70 70
-0.92036504 -0.53242695 1.45783186 109 73 76
-0.93266407 -0.53203977 1.46836697 96 71 69
-0.92341864 -0.50739822 1.45470357 95 72 76
-0.93367688 -0.51089184 1.46554154 79 68 71
-0.92556886 -0.48299298 1.45314604 61 66 75
-0.93618860 -0.48728970 1.46603620 61 64 73
-0.92494162 -0.47504033 1.45314604 63 66 77
-0.93118668 -0.47802058 1.46097374 64 62 76
-0.93585193 -0.31387038 1.60475380 60 66 71
-0.93535513 -0.26208478 1.55837202 57 53 65
-0.93859288 -0.26704784 1.56376642 60 55 63
-0.93344803 -0.25582674 1.54983625 35 40 49
-0.92920860 -0.20715110 1.49375279 79 79 85
-0.93191428 -0.21651326 1.50601622 86 83 85
-0.92701508 -0.18655040 1.49029317 181 181 180
-0.92375876 -0.16409831 1.47262160 176 179 174
-0.92709948 -0.17199476 1.48638125 177 178 176
-0.92988497 -0.14167460 1.46888983 46 46 54
-0.92112979 -0.13046108 1.45704979 53 51 56
-0.93359702 -0.13051565 1.46823589 55 52 55
-0.92721670 -0.11312219 1.45540169 132 134 134
-0.93576209 -0.11456036 1.46308043 119 117 119
-0.90660186 -0.62608678 1.47368485 57 57 59
-0.91000217 -0.60861137 1.47368801 66 57 60
-0.91852945 -0.61353526 1.48335195 62 55 58
-0.90287110 -0.58943847 1.45704979 87 57 59
-0.91296986 -0.59263654 1.47129080 94 58 59
-0.91908216 -0.58149660 1.48011315 104 70 68
-0.91908216 -0.56998444 1.48011315 99 64 65
-0.90366530 -0.50906016 1.43926084 104 69 70
-0.91229318 -0.50941544 1.44598850 102 71 71
-0.90270805 -0.49899369 1.43773621 103 69 72
-0.91473678 -0.48969503 1.44694257 81 71 76
-0.91751194 -0.47792092 1.44539833 62 69 76
-0.90696675 -0.26205229 1.99576004 97 97 96
-0.90511706 -0.25815430 1.99674028 175 176 174
-0.91422413 -0.20773046 1.48934442 157 155 155
-0.91117964 -0.18538051 1.48678515 97 98 104
-0.91034764 -0.16242589 1.47288573 157 159 154
-0.91075946 -0.17254785 1.48710573 94 96 99
-0.90903234 -0.15455263 1.45216577 94 95 95
-0.90997199 -0.15774909 1.46493350 157 160 158
-0.90432157 -0.14663638 1.98992451 179 179 177
-0.90242150 -0.12513348 1.43926084 56 54 57
-0.91200386 -0.12725017 1.44831448 54 52 56
-0.90391947 -0.11204957 1.43318341 129 134 134
-0.91675632 -0.11448301 1.44617376 111 115 117
-0.90098888 -0.08954597 1.42714071 177 177 175
-0.89873931 -0.62397343 1.46571380 47 47 55
-0.88820508 -0.60583382 1.45057232 55 55 59
-0.89605831 -0.61734933 1.46202556 58 58 63
-0.88127649 -0.59529853 1.43926084 59 59 63
-0.88920404 -0.59311702 1.44540274 67 56 58
-0.89926839 -0.50715417 1.43621159 100 63 63
-0.89547402 -0.49759856 1.43015158 99 62 65
-0.88300741 -0.28046939 1.94796503 47 51 56
-0.88164262 -0.28286934 1.97254197 45 47 51
-0.88136894 -0.28367692 1.98213995 47 46 50
-0.88681282 -0.27117485 1.95077597 50 52 56
-0.88853715 -0.26917500 1.96935021 51 50 53
-0.88726747 -0.26716051 1.98977414 63 62 68
-0.88128048 -0.25585666 1.91494870 40 39 41
-0.88528029 -0.25378465 1.99968100 171 173 172
-0.88728952 -0.18102294 1.96490383 53 49 52
-0.88807586 -0.16597810 1.47312113 56 57 65
-0.89404775 -0.17286734 1.48370110 56 57 64
-0.88345030 -0.17516989 1.95640188 50 48 49
-0.88844199 -0.16725943 1.99594765 55 55 60
-0.88869436 -0.15421772 1.45548674 133 136 141
-0.89435852 -0.15773171 1.46476579 75 78 84
-0.88303193 -0.15002250 1.95922494 144 145 143
-0.89074428 -0.14638028 1.97406297 180 180 178
-0.88814151 -0.15230578 1.99352443 143 143 142
-0.89039373 -0.12286335 1.43091224 59 58 64
-0.89598227 -0.12988926 1.98796976 183 184 185
-0.88407569 -0.10883563 1.41549896 140 143 145
-0.88979946 -0.11486256 1.42432628 79 82 86
-0.89530615 -0.11077556 1.99030169 163 164 163
-0.88628417 -0.08528750 1.41449314 178 178 176
-0.89747283 -0.08383837 1.42235112 178 178 175
-0.88758196 -0.07333382 1.40808157 136 137 137
-0.87817073 -0.58658701 1.43015158 59 56 58
-0.87269849 -0.56343484 1.40933859 90 58 59
-0.87128412 -0.28319148 1.97636104 89 86 85
-0.86534717 -0.28567701 1.98922270 59 62 68
-0.86473131 -0.26909602 1.91494870 51 51 54
-0.86953376 -0.27216282 1.92663068 48 50 55
-0.87921971 -0.26739137 1.95077193 53 53 58
-0.87196732 -0.27772591 1.97636104 95 91 92
-0.87019363 -0.27095876 1.99049402 70 72 74
-0.87101328 -0.25662972 1.89620471 57 57 65
-0.87797070 -0.25585666 1.91494870 42 41 43
-0.87188715 -0.25335262 1.99968100 60 67 71
-0.86400530 -0.16185068 1.45626771 65 65 70
-0.87128583 -0.16859046 1.46947342 57 57 63
-0.87019151 -0.16553697 1.92949732 51 51 53
-0.86877681 -0.16411631 1.99889681 53 55 55
-0.86877551 -0.15540422 1.45349585 111 112 117
-0.87689540 -0.15858596 1.46097374 52 55 65
-0.86375600 -0.15638947 1.91279707 48 47 56
-0.86825442 -0.15427375 1.92767878 67 66 73
-0.87712002 -0.14873290 1.94238353 193 194 191
-0.87214913 -0.15505389 1.99791657 78 77 78
-0.86925607 -0.12278347 1.42769044 158 157 158
-0.86265554 -0.12819932 1.44884470 178 179 178
-0.86679471 -0.13459679 1.46097374 177 178 180
-0.87311642 -0.11025044 1.41362268 153 153 155
-0.86971237 -0.11883372 1.42339608 151 148 151
-0.87015900 -0.10127600 1.99968100 45 47 50
-0.87107605 -0.08443620 1.40703239 178 179 178
-0.86585300 -0.09657511 1.99772052 57 56 64
-0.86863272 -0.07061332 1.39703910 127 127 127
-0.87305583 -0.07437651 1.40156957 142 143 143
-0.84078056 -0.31729391 1.99968100 58 58 67
-0.85503536 -0.28460636 1.99696649 56 61 71
-0.85899496 -0.26833799 1.90955448 52 52 55
-0.85296179 -0.27071313 1.99584678 56 61 66
-0.84791484 -0.16272664 1.45284251 130 129 136
-0.85221290 -0.16923789 1.46471290 161 161 162
-0.84423685 -0.16464126 1.99968100 38 38 42
-0.85092095 -0.15127028 1.87005001 62 61 73
-0.85834241 -0.15481237 1.89355266 57 56 65
-0.85929978 -0.12075787 1.43170166 178 178 177
-0.85032192 -0.12633406 1.44757183 171 172 170
-0.84617424 -0.10219468 1.39771509 59 63 62
-0.85160799 -0.10948467 1.40968422 101 100 102
-0.85169110 -0.11560138 1.42986211 170 170 168
-0.84496319 -0.11798377 1.44309190 172 173 171
-0.84492811 -0.10334978 1.99968100 38 38 47
-0.84617424 -0.09736301 1.39771509 56 63 66
-0.84945525 -0.08719420 1.40559587 65 69 73
-0.84993053 -0.09471295 1.99479128 40 40 49
-0.84940954 -0.07265276 1.39476321 125 126 128
-0.84442160 -0.07759849 1.40226172 60 61 68
-0.82031864 -0.54254389 1.33970726 60 59 66
-0.82031864 -0.53791273 1.33970726 69 55 58
-0.82617452 -0.53163552 1.34927518 78 55 54
-0.83685732 -0.53222191 1.36671746 82 59 58
-0.82452321 -0.27673030 1.99379957 53 58 65
-0.83732426 -0.23607118 1.99968100 38 38 47
-0.82228813 -0.21156051 1.99674028 35 34 42
-0.83609292 -0.18568411 1.99674028 38 37 45
-0.83486638 -0.17161110 1.99381105 37 37 43
-0.83584453 -0.14955143 1.99821064 37 36 44
-0.83633971 -0.12429175 1.44232309 56 59 60
-0.83436177 -0.13188883 1.99968100 36 36 41
-0.83774272 -0.11642672 1.43926084 113 118 117
-0.83393008 -0.10804942 1.99706703 35 35 44
-0.83047131 -0.08045215 1.39771509 56 57 64
-0.83477231 -0.08523680 1.40775700 60 59 67
-0.82414359 -0.08984700 1.97636104 34 34 43
-0.83419651 -0.09434715 1.99015380 36 36 45
-0.83033418 -0.07087640 1.39410531 133 133 137
-0.83088499 -0.07584250 1.40181122 53 52 61
-0.80195252 -0.52202382 1.31714845 63 58 59
-0.81261889 -0.53163998 1.33088572 63 57 60
-0.81962287 -0.52505696 1.34236014 76 57 56
-0.81156304 -0.51734053 1.33445137 67 55 55
-0.81730270 -0.51809645 1.34236014 72 55 55
-0.81257361 -0.24781443 1.96490383 49 52 66
-0.81763095 -0.20436177 1.99379957 33 33 42
-0.80023175 -0.18720244 1.97636104 32 31 37
-0.81193450 -0.18913531 1.99674028 32 31 38
-0.80023175 -0.17524651 1.97636104 32 31 37
-0.80794585 -0.16867360 1.99968100 32 31 38
-0.81815010 -0.14212289 1.99087608 31 31 39
-0.81330416 -0.13074120 1.97492474 33 33 39
-0.81351382 -0.12874217 1.98796978 32 31 40
-0.80541331 -0.10761905 1.95781341 33 33 42
-0.81075015 -0.10650046 1.96872290 31 31 39
-0.80345237 -0.09245434 1.95922494 35 34 42
-0.80753805 -0.09717711 1.96918786 34 33 40
-0.81284949 -0.09696165 1.98213995 34 34 39
-0.78327535 -0.52515357 1.29566939 58 60 66
-0.79200958 -0.52678595 1.30422749 59 58 64
-0.78254896 -0.51451465 1.29678345 61 59 65
-0.79068589 -0.51432861 1.30519360 62 58 60
-0.78087944 -0.19517520 1.93683386 33 32 41
-0.78425395 -0.18504448 1.95357883 32 31 37
-0.79535092 -0.18410371 1.97061586 32 31 37
-0.78538728 -0.17516256 1.95640188 31 30 37
-0.79542396 -0.17425368 1.97291393 31 30 36
-0.78828603 -0.10428618 1.92766833 33 33 42
-0.79318869 -0.10173137 1.94238353 33 32 41
-0.79553172 -0.09739091 1.95640188 33 32 38
-0.76894261 -0.52321386 1.27743534 56 57 61
-0.77674617 -0.52543791 1.29288878 58 59 65
-0.77596758 -0.51590402 1.29123192 60 60 67
-0.76595670 -0.49590927 1.27065122 62 62 62
-0.76015675 -0.19735944 1.89355266 32 31 40
-0.76548449 -0.19242418 1.90956457 32 31 39
-0.77531660 -0.19128102 1.93131578 32 31 39
-0.77826518 -0.18583731 1.94424403 32 31 37
-0.77751794 -0.17415735 1.94517428 31 30 37
-0.76999044 -0.10408854 1.89356744 31 31 40
-0.77685529 -0.10431282 1.90776650 31 31 40
-0.76670247 -0.09917387 1.89355266 32 31 40
-0.77536577 -0.09698465 1.91494870 33 32 41
-0.75161234 -0.48392981 1.24936137 62 61 63
-0.74157919 -0.47686182 1.23552676 61 61 64
-0.75900406 -0.19134824 1.89885676 31 30 38
-0.73765051 -0.47570676 1.23253059 59 60 63
-0.54435706 -0.36124030 1.10405838 61 60 67
-0.54335793 -0.34602821 1.09818222 63 66 70
-0.54425940 -0.35007236 1.10192984 63 65 69
-0.54221994 -0.33832097 1.09780127 64 65 69
-0.52636364 -0.36360867 1.06570195 60 62 64
-0.52202918 -0.35576930 1.06793045 62 63 67
-0.52987965 -0.34837251 1.09348147 63 65 68
-0.53688341 -0.35626328 1.10047376 63 63 68
-0.53016376 -0.33653845 1.09274328 65 67 69
-0.51491958 -0.36487243 1.05920601 64 63 67
-0.51451648 -0.36400021 1.06677424 66 65 68
-0.51482017 -0.35539031 1.06997367 65 65 70
-0.51764130 -0.34913955 1.08478798 65 67 70
-0.51644295 -0.33734152 1.08549601 69 69 72
-0.40016527 0.37194896 1.54595160 84 82 86
-0.38092108 0.33951218 1.49151301 113 114 115
-0.38404879 0.34790655 1.51400906 99 100 99
-0.38741119 0.35635719 1.52961038 84 84 88
-0.38719608 0.36750277 1.53448665 88 86 90
-0.38799843 0.37214061 1.54183397 96 95 98
-0.38449668 0.38828573 1.53139436 101 97 101
-0.38619256 0.38468694 1.54472006 95 96 99
-0.36280429 -0.26528656 1.73818421 72 76 86
-0.36118783 -0.26329535 1.74489820 71 75 87
-0.36988827 0.33607942 1.48833966 111 110 110
-0.36507522 0.33747318 1.51318653 104 105 108
-0.36140767 0.33886078 1.52335250 86 86 93
-0.36945675 0.34341314 1.49728131 74 73 73
-0.36927814 0.34532996 1.51248043 96 93 94
-0.36860810 0.35346309 1.53082686 99 96 98
-0.37304877 0.35822749 1.54154062 98 99 102
-0.36617566 0.36972073 1.53560551 110 107 108
-0.37268640 0.37016513 1.54148901 109 109 109
-0.36020708 0.38644868 1.45470357 84 85 87
-0.36385398 0.38753360 1.46943406 89 88 93
-0.36451966 0.38328882 1.48849860 89 88 92
-0.36548706 0.38377043 1.51242928 76 77 82
-0.36930934 0.38402554 1.53153990 77 76 81
-0.37807196 0.38323525 1.54300292 89 87 90
-0.35166533 -0.26756571 1.75091904 71 73 92
-0.34518030 -0.26495444 1.77113207 73 73 97
-0.34614313 -0.26610103 1.78392589 73 73 98
-0.34027195 -0.24125206 1.73818421 72 72 93
-0.34101017 -0.25570671 1.76535529 72 75 95
-0.34114671 -0.23735420 1.74265254 71 73 92
-0.34506051 0.33712731 1.49810535 95 94 100
-0.35377024 0.33790392 1.51315898 100 102 107
-0.34521042 0.34762806 1.49315381 123 122 123
-0.35295944 0.34711988 1.51345111 106 104 107
-0.35556858 0.35249909 1.52541108 117 116 116
-0.34999461 0.37946996 1.49152744 110 111 116
-0.35124029 0.36861435 1.51588669 91 89 94
-0.35587920 0.36988225 1.52950253 97 94 99
-0.35752583 0.37999225 1.54066324 97 96 104
-0.35581619 0.38618600 1.45160919 85 85 88
-0.35270712 0.38836549 1.47201292 95 95 96
-0.35498285 0.38512842 1.48479208 105 105 107
-0.35565159 0.38543777 1.50643126 106 107 109
-0.35826212 0.38052623 1.52679121 95 94 101
-0.35752583 0.38265517 1.54066324 103 101 104
-0.35782847 0.40006238 1.48660493 87 87 89
-0.33321584 -0.27235199 0.63088032 53 54 59
-0.33025973 -0.26675822 1.75279886 72 74 93
-0.33440628 -0.26383623 1.76535130 73 72 93
-0.32383690 -0.24344331 1.73596150 73 76 90
-0.33304923 -0.24658749 1.74847858 73 73 92
-0.33556110 -0.25655852 1.76075804 70 71 90
-0.32645270 -0.23058191 1.73571703 73 75 91
-0.33240306 -0.23652309 1.74765846 72 75 92
-0.32075071 -0.20134949 0.45989949 53 58 76
-0.32155715 -0.20704826 0.46123794 56 58 67
-0.32055199 -0.19975969 0.45989949 54 61 75
-0.32044943 -0.19298886 1.69685328 44 43 50
-0.32562364 -0.19432925 1.70861411 44 43 50
-0.32902357 -0.04266855 0.70565516 124 122 126
-0.32709791 -0.03691032 0.70369564 130 131 133
-0.31184398 -0.22308481 1.71401501 73 75 86
-0.31770994 -0.22828767 1.72713826 74 76 90
-0.31698254 -0.20448309 0.45896562 58 55 63
-0.31382598 -0.20827338 0.46207014 82 58 59
-0.31011242 -0.20775678 1.67795014 50 50 57
-0.31079692 -0.20617746 1.68991458 47 47 52
-0.31180637 -0.21355038 1.70410392 63 62 69
-0.31834024 -0.19930360 0.45824149 52 58 74
-0.31474226 -0.19254399 1.69508529 44 43 50
-0.31981164 -0.04106319 0.70284295 186 187 187
-0.31931496 -0.03675388 0.70175141 126 129 129
-0.28223696 -0.18122765 0.63473056 114 116 112
-0.28166558 -0.17756409 0.63426875 105 106 104
-0.28671781 -0.12107667 0.54842493 181 181 179
-0.28036708 -0.10079061 0.53843671 137 131 134
-0.28498436 -0.11656617 0.54704197 114 115 116
-0.28085157 -0.09970158 0.53758276 191 183 184
-0.27400066 -0.18209548 0.63427127 73 74 82
-0.27454392 -0.17656068 0.63341367 72 73 78
-0.27227593 -0.14282637 0.55908614 182 182 180
-0.27436643 -0.14235423 0.56039564 182 182 180
-0.26981807 -0.13103894 0.55530609 134 134 135
-0.27870455 -0.10056492 0.53972280 154 154 151
-0.27347153 -0.10993147 0.54603136 120 120 122
-0.27126519 -0.08770007 0.53669395 133 133 135
-0.27052272 -0.09767099 0.54215240 121 122 121
-0.26854725 -0.07874514 0.53548821 103 101 110
-0.26361940 0.12995920 1.69727802 100 100 106
-0.26710471 0.13333733 1.70939189 116 116 120
-0.26383654 0.14678134 1.71185801 114 113 116
-0.26982880 0.15600911 1.72737522 107 107 112
-0.26789817 0.16295462 1.73153486 116 119 121
-0.27789399 0.16475230 1.74265254 106 106 114
-0.25852814 -0.13015033 0.55594257 177 177 174
-0.24135062 0.06697827 0.77799461 140 137 137
-0.24117011 0.07057572 0.78117529 129 127 131
-0.24272530 0.13067135 1.67258040 127 126 127
-0.25292950 0.13158043 1.69282197 121 121 126
-0.25760853 0.13106800 1.70410392 110 111 117
-0.24306284 0.14664000 1.67335800 119 116 121
-0.25069228 0.14680016 1.69005944 117 115 119
-0.25660778 0.14961527 1.71029396 115 114 118
-0.25783503 0.16200183 1.72932720 121 117 120
-0.23773966 0.05837983 0.77888783 152 150 150
-0.23630644 0.05891848 0.78008264 151 147 148
-0.23615804 0.07125938 0.77839545 139 137 136
-0.23459131 0.07175509 0.78420988 130 127 129
-0.23565757 0.12375139 1.65743732 106 105 108
-0.23258843 0.13044160 1.66969700 125 123 125
-0.23432047 0.13383146 1.68211377 124 123 124
-0.23565757 0.14810172 1.65743732 134 134 136
-0.22910277 0.14687329 1.67055760 108 105 111
-0.23403048 0.15317427 1.68700945 115 115 120
-0.23747623 0.15888123 1.71184814 110 111 115
-0.22142107 0.21811345 1.05427051 79 75 81
-0.22307499 0.21592680 1.06141786 85 82 83
-0.21846910 0.13950749 1.65743732 122 113 116
-0.21927362 0.13570651 1.66354078 154 153 150
-0.21846910 0.14905664 1.65743732 109 105 117
-0.21954267 0.14595068 1.66558194 111 112 118
-0.20567599 0.21254083 1.05372187 118 117 121
-0.20612865 0.21683287 1.06587657 107 106 109
-0.21477517 0.22748123 1.03471124 90 91 100
-0.21215238 0.22583422 1.05068575 110 110 114
-0.20627509 0.22824638 1.06600315 99 98 103
-0.18044814 0.19886468 1.02092147 100 100 100
-0.18405475 0.21165546 1.03202532 106 106 108
-0.19393604 0.21246242 1.04780604 105 104 108
-0.18612977 0.22692123 1.03468084 107 107 108
-0.19361536 0.22873763 1.04989710 110 109 112
-0.19843449 0.23262765 1.06467700 109 110 114
-0.16694136 -0.22278180 0.47961791 80 85 89
-0.16697609 -0.22274035 0.48031533 81 86 89
-0.16605968 -0.21999244 0.47975361 84 87 89
-0.16583405 -0.21772415 0.48076864 82 88 89
-0.16246502 0.17710238 1.01881222 120 119 122
-0.16681042 0.17819390 1.02382389 131 130 131
-0.16296589 0.19253478 0.75201349 111 111 115
-0.16741718 0.19481494 0.76310678 97 95 100
-0.16748323 0.18812444 1.01873023 98 98 103
-0.16702125 0.19053346 1.02455804 108 107 112
-0.16253983 0.20130037 0.75073665 107 109 114
-0.16871257 0.20232647 0.76460052 88 91 102
-0.17304979 0.20499401 1.01892701 117 118 120
-0.17052133 0.20849681 1.02360890 110 109 111
-0.15568202 0.17721850 1.01569834 115 112 115
-0.14829959 0.19100254 0.73890466 93 95 96
-0.15417087 0.19330948 0.74511118 114 114 116
-0.15479266 0.19053049 1.01544416 115 113 116
-0.15904252 0.19382742 1.02227058 113 110 117
-0.15499748 0.20165087 0.74529447 100 99 99
-0.15407544 0.20282100 1.01642955 132 131 128
-0.15898237 0.20722322 1.02188502 110 110 112
-0.12112937 0.17977263 0.93117011 94 94 96
-0.12123998 0.18075690 0.91979897 67 64 69
-0.12151631 0.18076141 0.92798379 89 89 92
-0.10073685 0.13310730 0.53220441 108 108 109
-0.10873348 0.17745091 0.91224339 142 141 142
-0.10947021 0.17795836 0.92402469 135 135 136
-0.10029112 0.17483213 1.51654164 116 113 117
-0.10360734 0.17337194 1.52678347 100 98 103
-0.10901483 0.18228886 0.89539921 173 169 171
-0.10980943 0.18116636 0.90771717 150 147 149
-0.11950261 0.18094382 0.92483383 80 80 85
-0.10029078 0.18007199 1.51653659 110 107 114
-0.10349093 0.18371800 1.52506799 109 107 119
-0.08264144 0.12750895 0.51820397 171 171 168
-0.09277185 0.12871082 0.52534096 113 112 114
-0.08233198 0.15734233 1.49976075 109 109 112
-0.08954294 0.17625420 0.89688132 192 187 183
-0.09543648 0.17614360 0.90791991 188 183 181
-0.08362808 0.16771120 1.49976075 144 144 144
-0.09095087 0.17578581 1.51050822 128 125 127
-0.08305877 0.17713003 1.52507186 121 121 126
-0.09395546 0.18094366 0.89707927 197 192 186
-0.09706153 0.18125509 0.90482571 196 191 187
-0.08815961 0.19028963 1.49544025 116 115 117
-0.08975722 0.18500203 1.51060704 124 122 129
-0.08757657 0.18088131 1.52335250 129 128 133
-0.07681091 0.15793752 1.49316108 99 99 105
-0.07390533 0.15875086 1.51318653 117 117 119
-0.07401358 0.16401191 1.49755355 108 108 113
-0.07209626 0.17371240 1.51351558 118 117 124
-0.07622380 0.17574816 1.52449616 114 112 119
-0.07543918 0.18489398 1.51317527 107 105 112
-0.07879994 0.18263664 1.52335250 124 122 130
-0.02097111 0.05714992 0.65544364 115 115 118
-0.02240539 0.06469120 0.65144792 132 129 131
-0.01662698 0.05600079 0.65328759 120 117 122
-0.01654817 0.06436610 0.65195449 146 144 147
-0.00051311 0.13915718 0.49893946 135 127 127
-0.00550398 0.14646655 0.49555359 168 162 158
0.00106554 0.13950752 0.49762679 141 136 139
0.00896863 0.14744954 0.49524985 150 145 143
0.00870535 0.14353116 0.50142141 161 157 153
0.01379933 0.19582129 0.61245069 143 141 141
0.00853419 0.19399860 0.62698784 139 133 131
0.00862021 0.20112724 0.61776565 144 141 139
0.00568985 0.20180115 0.62706238 147 141 139
0.01713348 0.21882164 0.97763672 164 162 155
0.01481770 0.21822439 0.98103017 194 189 180
0.01760935 0.22246587 0.97468554 153 152 148
0.01017659 0.27527012 0.73835255 135 132 132
0.01344946 0.27471333 0.74163878 140 134 132
0.01656070 0.28465927 0.73477640 135 130 127
0.01599030 0.28129043 0.74076474 143 136 132
0.03645715 0.15038707 0.45915244 145 141 137
0.03391896 0.15031876 0.46520487 149 145 142
0.03667669 0.19253351 0.51364742 138 131 129
0.02612607 0.20878729 0.50784741 110 107 106
0.03556521 0.21234407 0.93124307 159 155 153
0.02858912 0.21582986 0.95057420 156 154 157
0.02514290 0.21736529 0.97195611 135 132 135
0.02675803 0.22200744 0.95358521 166 162 164
0.02288017 0.22301482 0.96873214 149 149 151
0.02703916 0.27824071 0.71963042 109 110 112
0.02546055 0.27870266 0.72474386 99 100 101
0.02511946 0.28137510 0.71810660 136 132 133
0.02310195 0.28162031 0.72660815 117 115 115
0.04153755 0.14907786 0.45885309 137 133 126
0.04105007 0.14811358 0.46171768 135 134 129
0.05095869 0.18441284 0.49885310 144 142 139
0.04729920 0.19284403 0.50852027 146 142 139
0.04810978 0.20372420 0.51322392 148 142 140
0.04645698 0.21223221 0.52374353 153 150 145
0.04198672 0.21074422 0.92583426 153 146 144
0.04025824 0.20943479 0.94151646 169 163 162
0.07439123 0.23804496 0.71650907 134 128 123
0.07029669 0.23856775 0.72253327 137 132 124
0.07745928 0.24738764 0.71760391 134 130 127
0.07459438 0.25185898 0.72358364 151 145 141
0.07009537 0.26328882 0.73246532 158 150 144
0.06789268 0.26739300 0.74484620 149 145 138
0.09488845 0.23589223 0.69673607 158 154 152
0.08828077 0.23545223 0.70596684 138 138 138
0.09732723 0.24700430 0.69762428 138 136 134
0.08689772 0.24843044 0.70863172 127 124 124
0.08121068 0.25246097 0.72131547 131 123 124
0.11665041 0.17885563 0.60334655 134 132 132
0.11740919 0.18235585 0.59920854 126 125 126
0.11558101 0.18141193 0.60154151 109 108 112
0.11478243 0.23036043 0.63861704 123 120 119
0.11725839 0.23126603 0.64500688 122 117 118
0.10115160 0.24720796 0.69702627 118 115 118
0.13832633 -0.16059393 0.62651742 90 91 103
0.13618152 -0.14575595 0.61859533 86 91 98
0.13642935 -0.15516041 0.62338239 88 91 100
0.13539975 -0.13550154 0.61457359 86 89 100
0.12538964 0.17954737 0.59919800 156 148 146
0.12291527 0.17933855 0.60180657 157 150 149
0.12572650 0.18525524 0.59819124 131 127 126
0.12261488 0.18256843 0.60070184 143 139 139
0.12682758 0.21963276 0.63952059 137 136 134
0.12616609 0.22752093 0.63848240 105 105 107
0.12252190 0.23012632 0.64354251 110 109 110
0.12423641 0.24091389 0.64520373 111 109 111
0.14083602 -0.14863492 0.61851633 87 87 102
0.14015017 -0.14932983 0.62021214 88 86 103
0.14028098 -0.13875135 0.61607871 85 91 98
0.15686758 0.03872573 0.66985394 149 146 146
0.14441655 0.05396381 0.65851362 158 153 151
0.15512457 0.04960560 0.66803870 129 125 127
0.15858505 0.07428671 0.50524428 103 102 108
0.15931481 0.06095290 0.66919231 163 159 159
0.15965201 0.08055129 0.50639337 88 87 96
0.16335831 0.05339455 0.67154710 131 126 130
0.16348650 0.07586320 0.50645341 113 112 115
0.16015525 0.06083279 0.66787374 149 141 143
0.16323300 0.08079687 0.50573992 106 106 113
0.16994296 0.20662773 0.45681371 0 0 0
0.17262724 0.21236270 0.46949262 0 0 0
0.17545402 0.21840213 0.48284462 0 0 0
0.17783841 0.22349641 0.49410705 0 0 0
0.17969726 0.22746783 0.50288713 0 0 0
0.19550863 0.01476584 0.71878394 136 133 136
0.19317871 0.01712011 0.72104438 131 128 132
0.19586663 0.02492326 0.72196914 143 136 138
0.19070570 0.18889258 0.69790318 150 146 145
0.18644242 0.18596841 0.70696593 142 138 139
0.18321846 0.19046350 0.72321778 140 133 137
0.18163113 0.23159958 0.51202160 0 0 0
0.18431619 0.23733623 0.52470422 0 0 0
0.18641442 0.24181911 0.53461504 0 0 0
0.18935774 0.24810753 0.54851747 0 0 0
0.19323357 0.25638826 0.56682456 0 0 0
0.19568551 0.26162684 0.57840604 0 0 0
0.19825161 0.26710935 0.59052682 0 0 0
0.20021398 0.01643884 0.72065061 126 126 132
0.20067035 0.02643732 0.72154555 143 139 139
0.21802412 0.17532396 0.51965651 156 155 142
0.21774221 0.17546889 0.52517080 146 142 136
0.21754543 0.18093442 0.52573616 127 125 123
0.20183683 0.27476917 0.60746118 0 0 0
0.20663056 0.28501102 0.63010389 0 0 0
0.21176898 0.29598930 0.65437478 0 0 0
0.21504605 0.30299076 0.66985363 0 0 0
0.21850049 0.31037121 0.68617034 0 0 0
0.22794249 -0.17010994 0.54160499 88 91 96
0.22894677 -0.15884516 0.54123110 86 90 98
0.22354681 0.17369922 0.52609896 147 145 139
0.22252084 0.18126701 0.52604240 140 139 136
0.23858336 0.29570886 1.12925301 143 140 140
0.23779217 0.29624563 1.15193580 141 136 138
0.23161569 0.29502746 1.17122455 149 146 146
0.22835281 0.29775424 1.18237031 154 154 154
0.22210743 0.31807745 0.70320731 0 0 0
0.23664848 0.30317829 1.12780660 108 106 116
0.23729977 0.30480361 1.15021898 114 108 118
0.23379448 0.30288569 1.16880443 134 127 131
0.22861865 0.30423890 1.18374674 141 136 135
0.22462012 0.32344583 0.71507579 0 0 0
0.22721909 0.32899854 0.72735178 0 0 0
0.22990885 0.33474526 0.74005657 0 0 0
0.23269425 0.34069628 0.75321317 0 0 0
0.23558049 0.34686273 0.76684600 0 0 0
0.23857312 0.35325649 0.78098136 0 0 0
0.24291682 0.29530242 1.12851006 157 153 152
0.24070901 0.29232384 1.15028294 158 154 152
0.24278080 0.30109096 1.12606621 156 154 151
0.24167815 0.35989043 0.79564768 0 0 0
0.24490203 0.36677828 0.81087542 0 0 0
0.24825174 0.37393492 0.82669735 0 0 0
0.25173476 0.38137642 0.84314907 0 0 0
0.25724655 0.39315243 0.86918354 0 0 0
0.24528272 0.70273900 1.53022993 0 0 0
0.25172967 0.72907114 1.58756876 0 0 0
0.25867856 0.75745344 1.64937186 0 0 0
0.27716428 0.21189629 0.95187089 160 156 152
0.27838007 0.21856672 0.96018672 138 133 135
0.27689396 0.22992515 0.97385144 141 139 140
0.27191420 0.23425916 0.98894623 152 148 149
0.27112720 0.24069211 0.99446855 163 158 157
0.26306838 0.40559080 0.89668232 0 0 0
0.26717299 0.41436034 0.91607004 0 0 0
0.27145901 0.42351747 0.93631470 0 0 0
0.27593878 0.43308848 0.95747435 0 0 0
0.26619038 0.78813511 1.71618187 0 0 0
0.27433649 0.82140732 1.78863287 0 0 0
0.29190591 0.14677111 0.59301011 149 148 148
0.29109058 0.15341767 0.60096839 146 145 145
0.28563097 0.21578451 0.95667015 158 156 155
0.28424799 0.21854851 0.96132363 148 145 146
0.28559824 0.22811441 0.96852802 135 131 134
0.28062567 0.44310209 0.97961247 0 0 0
0.28553444 0.45358971 1.00279856 0 0 0
0.29068121 0.46458581 1.02710891 0 0 0
0.29608375 0.47612834 1.05262709 0 0 0
0.28320068 0.85761261 1.86747062 0 0 0
0.29288232 0.89715666 1.95357883 0 0 0
0.31798272 -0.16192760 1.00951928 87 87 96
0.31785555 -0.15230937 1.00797747 83 87 98
0.30253963 0.14627627 0.59223364 165 162 157
0.30896388 0.27835926 0.72154716 138 133 125
0.30794098 0.29306746 0.71263451 156 153 148
0.30957913 0.28871286 0.72329770 148 145 141
0.30755228 0.30002269 0.72116154 142 142 142
0.30176154 0.48825899 1.07944560 0 0 0
0.30773622 0.50102395 1.10766637 0 0 0
0.31403169 0.51447421 1.13740242 0 0 0
0.33135203 -0.16123918 0.99984050 89 89 105
0.32577827 -0.16167377 1.00757561 84 86 97
0.33051452 -0.15270519 0.99939917 85 88 98
0.32506579 -0.15315374 1.00657063 83 85 96
0.33593992 0.00886425 0.70498036 133 131 131
0.33846509 0.02042251 0.70761150 134 130 128
0.32067448 0.52866662 1.16877902 0 0 0
0.32769418 0.54366428 1.20193589 0 0 0
0.33512381 0.55953765 1.23702896 0 0 0
0.35097030 -0.52282100 1.09324024 101 101 106
0.35329032 -0.51300006 1.09313877 97 99 104
0.35789918 -0.49785406 1.09478817 95 96 101
0.34610159 0.01018478 0.70747718 141 138 137
0.34575773 0.02044387 0.70835145 156 152 149
0.35775795 0.19921855 0.45418155 142 141 138
0.35728762 0.20281615 0.45545958 144 141 139
0.35880522 0.20377275 0.46425066 127 126 122
0.34300029 0.57636589 1.27423275 0 0 0
0.35136527 0.59423769 1.31374383 0 0 0
0.36705376 -0.52100317 1.09425712 98 101 105
0.36542851 -0.50971408 1.09321580 98 100 104
0.36883277 -0.49886396 1.09108540 96 97 101
0.37591455 -0.12635007 0.98790212 50 49 50
0.37579789 -0.11125697 0.98939810 48 48 50
0.37637796 -0.09658864 0.98818368 48 47 50
0.36438873 0.16531146 0.45072597 102 94 92
0.36340979 0.19708073 0.46579270 114 114 112
0.36163430 0.20264432 0.46509922 135 136 130
0.37828135 0.53869331 1.97636104 169 161 158
0.37858002 0.53779876 1.98992451 163 160 159
0.37406340 0.54800540 1.93683386 157 151 145
0.37355820 0.54209667 1.95171833 154 149 148
0.37833317 0.54315114 1.96775985 155 149 149
0.37596148 0.54369441 1.98213995 160 152 152
0.36026558 0.61325330 1.35578370 0 0 0
0.36975437 0.63352615 1.40060294 0 0 0
0.37989196 0.65518516 1.44848680 0 0 0
0.38279194 -0.12541892 0.98618554 51 49 50
0.38562446 -0.10991551 0.99199009 48 47 50
0.38178902 -0.09770038 0.98991503 49 48 51
0.39003034 0.40820780 1.17384666 140 139 137
0.39091365 0.41627197 1.18701001 157 154 148
0.39002759 0.42121661 1.19055712 161 155 152
0.39001766 0.42109478 1.20193589 163 154 154
0.39494273 0.42446586 1.22363150 163 158 153
0.39079764 0.51902193 1.90419054 125 124 124
0.39406979 0.53212224 1.89224875 130 120 122
0.39226476 0.52939844 1.90597852 149 144 142
0.39245926 0.53339052 1.92037344 156 151 148
0.39530487 0.53698870 1.95358960 155 151 149
0.38597753 0.53496045 1.97205630 168 160 155
0.38736374 0.53523746 1.99146764 162 158 152
0.39849949 0.54688802 1.90955448 114 98 107
0.39749703 0.54465777 1.93683386 155 151 149
0.38798070 0.54576492 1.95429671 156 153 149
0.38610333 0.54318839 1.97144607 159 153 150
0.39354640 0.54981774 1.98446500 159 155 151
0.38737205 0.56590492 1.98795259 143 132 127
0.39074725 0.67837751 1.49976075 0 0 0
0.41855139 -0.28668206 0.69583832 90 94 96
0.41882952 -0.27919108 0.69385040 92 92 95
0.41947560 0.10618747 0.47535050 120 118 118
0.41297075 0.21991505 0.65687191 98 97 97
0.40639106 0.23644093 0.65862806 143 138 133
0.41500857 0.23175159 0.66408288 131 128 123
0.40679946 0.24490588 0.65774445 116 111 108
0.40988083 0.24309246 0.66280267 114 105 104
0.40877319 0.39674100 1.15289663 160 152 148
0.40818441 0.39734897 1.16677662 162 161 157
0.41258910 0.40250005 1.15799987 150 142 141
0.41326042 0.40651717 1.16839756 144 139 139
0.41065731 0.41326704 1.19152034 137 137 138
0.41494703 0.41901734 1.20193589 126 126 128
0.41226384 0.42115286 1.19816483 131 128 127
0.41363053 0.42655972 1.20789207 127 122 122
0.41568754 0.44231817 1.21243729 97 89 89
0.41752385 0.44231521 1.22474587 104 99 96
0.40067136 0.54535186 1.90419054 100 85 93
0.40080099 0.54899597 1.92860365 132 117 123
0.40547872 0.55772710 1.95922494 137 120 124
0.40215838 0.55756350 1.97062691 154 146 143
0.40111613 0.55903286 1.98795259 167 163 154
0.40314838 0.56462246 1.94796503 132 126 130
0.40554208 0.56525837 1.96775985 124 110 117
0.40458299 0.56887630 1.99233782 149 141 142
0.40239924 0.70327210 1.55479777 0 0 0
0.41493905 0.73006344 1.61402822 0 0 0
0.42440101 -0.28832506 0.69458669 90 94 96
0.42237377 -0.27855628 0.69376207 91 92 94
0.42216013 0.10628927 0.47370030 140 139 139
0.42342484 0.10938187 0.48317778 133 129 127
0.42985720 0.19573102 0.45893258 130 125 121
0.42825672 0.19485910 0.46080957 140 139 133
0.43366019 0.20729255 0.45805570 129 128 121
0.43484959 0.21004250 0.46091724 123 121 115
0.42252519 0.22700838 0.65878743 104 104 104
0.42263775 0.22822549 0.66446509 111 108 108
0.42353967 0.41798533 1.18720357 137 129 129
0.42402425 0.42324880 1.19628056 132 126 128
0.42592222 0.42981806 1.21011279 128 121 123
0.42643567 0.43713217 1.22464236 118 111 112
0.42154413 0.44373599 1.21617484 107 103 102
0.42610931 0.44156584 1.22609537 102 100 99
0.42847207 0.75897682 1.67795014 0 0 0
0.44155187 0.21404723 0.45509960 136 137 130
0.44066593 0.21521856 0.46083795 118 117 110
0.44244018 0.22525235 0.45774172 32 30 31
0.44488765 0.23124048 0.46776280 19 17 18
0.45965554 0.25945349 0.66362408 143 137 131
0.45722364 0.26499123 0.66493478 128 121 117
0.44312122 0.79027486 1.74714386 0 0 0
0.45903051 0.82426518 1.82228994 0 0 0
0.47878063 0.09833922 0.54761656 166 164 155
0.46596625 0.25649946 0.66860500 133 131 125
0.46188633 0.26319218 0.65862711 149 136 124
0.46224445 0.26285678 0.66405546 146 139 130
0.47636986 0.86131078 1.90419054 0 0 0
0.49797890 -0.14087653 0.60688615 82 87 94
0.49207045 -0.14050392 0.97585243 52 50 52
0.49547391 -0.13354208 0.60640312 79 83 87
0.49064865 -0.13018663 0.97862432 49 48 49
0.49257168 -0.12703203 0.98217697 49 48 48
0.48940510 -0.11821476 0.97867008 50 45 47
0.49182073 -0.11532031 0.98271891 49 45 46
0.48365047 0.09014433 0.55369952 121 122 121
0.48778608 0.08007911 0.56024116 114 115 118
0.48553428 0.25991645 0.87582928 131 131 133
0.49598699 0.25648408 0.89316406 126 121 122
0.49534275 0.25562774 0.90863696 162 155 149
0.48446701 0.26202308 0.87527296 152 151 151
0.49130689 0.26472369 0.89237750 132 129 133
0.49478828 0.26876968 0.91258767 135 131 132
0.49271400 0.27634317 0.92578415 133 131 131
0.49186873 0.28351908 0.93209761 120 118 118
0.49463029 0.28367846 0.94217482 136 135 135
0.49534115 0.90184307 1.99379957 0 0 0
0.50123237 -0.13652770 0.60511829 80 83 85
0.51996464 0.13958433 0.55428606 156 156 148
0.51939899 0.14135752 0.55702628 148 147 143
0.51700839 0.14317288 0.56336813 131 131 129
0.51248696 0.23675765 0.57467218 128 124 119
0.51734276 0.23628497 0.58293205 128 123 119
0.50802926 0.24263365 0.57598497 108 108 103
0.51183158 0.24496127 0.58585142 91 87 87
0.50270439 0.25501674 0.90908022 150 141 138
0.50216462 0.26184247 0.91183355 117 111 112
0.50632332 0.45656914 1.79455388 161 160 159
0.51609969 0.45958105 1.81254506 159 158 158
0.51688460 0.47846754 1.77226925 166 161 153
0.50849883 0.47207491 1.79592607 160 154 153
0.51269742 0.47066786 1.80651933 163 158 155
0.51823947 0.48586825 1.77691483 154 151 144
0.51675956 0.48436521 1.79526742 165 160 155
0.51647067 0.48557155 1.80290389 165 162 158
0.53677212 -0.34946894 0.66585144 100 100 104
0.52306031 0.13966860 0.55605988 155 153 145
0.52189876 0.13949974 0.56362653 142 140 138
0.52221631 0.14099695 0.55608572 154 153 146
0.52112425 0.14061922 0.56376498 142 139 138
0.52520167 0.23805637 0.59349778 125 123 121
0.53360890 0.23661423 0.60704315 137 135 133
0.52373196 0.24340325 0.59656146 111 106 105
0.53074512 0.24330655 0.60928752 142 134 127
0.52114359 0.45597040 1.79220048 164 164 158
0.52253605 0.45523797 1.80773094 150 149 149
0.53596359 0.47296052 1.77458596 161 161 156
0.52981197 0.47210751 1.79313274 153 149 147
0.52648583 0.46993279 1.80772222 163 156 152
0.53599118 0.48683566 1.79179158 146 139 140
0.53623084 0.48854754 1.80875102 138 133 131
0.54662490 -0.34962872 0.66803388 100 102 104
0.55356692 -0.04671081 0.95580685 63 58 60
0.55964601 -0.04038888 0.96154869 59 59 62
0.54092064 0.49281487 1.79099876 145 137 138
0.56679095 -0.06131741 0.95747530 51 47 49
0.57095792 -0.06029821 0.96100390 50 49 49
0.56179166 -0.05187543 0.95882863 54 51 52
0.57011695 -0.05056145 0.96374471 56 55 55
0.61333342 0.13677804 0.79908689 146 145 144
0.61331685 0.13599641 0.80228786 138 138 136
0.61577772 0.15714039 0.51277026 128 123 123
0.61449528 0.14189781 0.79940075 173 170 160
0.61758179 0.14623502 0.80197389 163 161 155
0.61744925 0.16387606 0.51498174 133 127 126
0.60745179 0.17570651 0.60808226 128 128 125
0.60888448 0.19850731 0.59950672 139 139 133
0.60902818 0.18507434 0.60746088 144 142 139
0.60938664 0.20322170 0.59907513 156 156 148
0.61673576 0.21117422 0.60245214 133 130 127
0.61784603 0.22111182 0.60239341 96 96 95
0.62893975 0.13786644 0.80398391 130 129 128
0.63615292 0.14455743 0.79883624 153 153 147
0.63213001 0.14505863 0.80429997 148 143 140
0.62243331 0.17060294 0.51875493 149 148 142
0.62823734 0.17289869 0.52141673 146 145 138
0.62121867 0.21586675 0.60423426 103 101 101
0.62087616 0.22142647 0.60720080 101 100 99
0.63633186 0.31699807 0.79672077 140 138 134
0.63461007 0.31709432 0.80383665 125 124 122
0.63166390 0.32496426 0.79672344 116 115 111
0.62933282 0.32496999 0.80261528 113 111 108
0.64407065 0.13669611 0.80956293 119 118 118
0.65040350 0.13728730 0.82569164 101 101 105
0.64071139 0.14147718 0.80223888 151 152 145
0.65683547 0.19882751 0.83845654 158 158 150
0.65973702 0.19581224 0.84262602 162 162 152
0.65634213 0.20388413 0.83690351 145 142 142
0.65382042 0.27246415 0.77769915 162 163 153
0.65802841 0.27508994 0.78443537 160 161 150
0.64074755 0.31461024 0.79940075 151 149 141
0.64158393 0.31644508 0.80548990 151 150 143
0.64066121 0.32304298 0.80319053 119 119 117
0.66915836 0.19765715 0.84716108 163 163 154
0.66327701 0.21343845 0.83835284 124 113 117
0.67131362 0.21116622 0.84735264 134 126 125
0.67178427 0.22102811 0.84859247 124 116 117
0.66253556 0.27790757 0.79101211 160 161 150
0.66437918 0.27888250 0.80797595 154 156 148
0.66680341 0.28788669 0.79558925 144 145 140
0.67162050 0.28930097 0.80987801 143 143 139
0.67589891 0.29024284 0.82302316 140 135 133
0.69891176 0.28233257 0.72696364 136 136 127
0.68155315 0.29572201 0.83095868 122 121 120
0.69432354 0.41190368 1.75619650 169 164 157
0.68332234 0.44517513 1.77691483 164 161 154
0.69368234 0.44797795 1.79278570 162 161 150
0.71211443 -0.32277623 1.21269563 85 85 92
0.71934623 -0.32153034 1.22142673 87 87 95
0.71416641 -0.31658033 1.21517376 84 85 92
0.71934623 -0.31730807 1.22142673 83 84 90
0.70995588 0.27869558 0.73729387 142 139 124
0.71176157 0.27913428 0.74411899 158 156 144
0.70662651 0.28206926 0.73336957 138 136 126
0.71589063 0.28733744 0.75222566 136 131 126
0.71899187 0.28924046 0.76259223 140 137 131
0.70405596 0.41951141 1.78863287 171 164 158
0.70935951 0.43169857 1.79075253 155 149 146
0.71009729 0.43433743 1.80917841 159 153 150
0.70643184 0.44828706 1.79140143 143 139 133
0.70839978 0.44504593 1.80584910 158 153 149
0.71100497 0.44000414 1.82228994 158 152 152
0.73820933 -0.32726950 1.21253976 85 85 90
0.73637985 -0.32726302 1.22409093 84 84 91
0.73544768 -0.30753080 1.21290022 85 86 91
0.73277144 -0.31474726 1.22334327 86 87 93
0.73564726 -0.29924938 1.19980860 83 87 91
0.73312144 -0.29943825 1.21108949 83 88 90
0.72173044 0.29133415 0.76889701 144 141 135
0.72690266 0.43631153 1.81255245 149 145 142
0.72959249 0.44394081 1.81068803 132 130 130
0.73935205 0.44000414 1.82228994 118 117 117
0.74067622 -0.32190147 1.21485996 86 87 91
0.74045759 -0.32856748 1.22142673 86 86 92
0.74786105 -0.31070821 1.21122790 82 87 89
0.74045759 -0.31836364 1.22142673 87 88 92
0.74051112 0.43882450 1.81740439 117 113 116
0.74051112 0.44196576 1.81740439 127 123 128
0.75291291 0.44293596 1.82919307 117 111 115
0.75900275 0.44599876 1.84711671 114 108 112
0.76107657 0.45041865 1.85216355 128 124 129
0.81890100 0.25228474 1.11679351 165 157 151
0.81753176 0.25978684 1.12419879 158 150 151
0.82895231 0.25560056 1.11863339 145 141 136
0.82908091 0.25636404 1.12434692 151 145 142
0.83102240 0.26827354 1.12664332 146 144 142
0.83329397 0.27602285 1.14315653 135 131 128
0.82663494 0.28562266 1.11058429 155 154 149
0.83641366 0.28551688 1.12608126 161 157 151
0.83465782 0.42835252 1.19678422 115 113 110
0.83522456 0.43148721 1.20812292 134 134 127
0.83968103 0.43425676 1.22142673 125 121 119
0.84436780 0.25560066 1.12826227 144 139 135
0.84091618 0.27109650 1.11740681 156 155 155
0.84558665 0.26750734 1.12751000 149 148 145
0.84254735 0.28344376 1.13088779 167 160 156
0.84918115 0.41947880 1.22142673 140 136 133
0.84420809 0.42718081 1.19716257 125 121 118
0.84747788 0.42650862 1.21292058 135 132 127
0.84829436 0.43063711 1.23111980 127 125 122
0.85482410 0.43603407 1.24869348 126 125 121
0.84449285 0.44190508 1.21922994 161 159 145
0.84360939 0.44204529 1.22252911 162 160 147
0.85058838 0.44333020 1.25303912 144 143 134
0.85612288 0.44403599 1.26119524 143 138 131
0.86488073 0.27804674 0.89621041 138 139 126
0.86935735 0.27954221 0.90506256 128 129 121
0.86739196 0.28245807 0.89816847 141 138 129
0.86928269 0.29035580 0.90994287 128 128 124
0.87500027 0.30052103 0.91175812 118 118 114
0.86190873 0.42849037 1.21704102 138 135 127
0.86182698 0.42984699 1.22289658 129 125 118
0.86407294 0.43600782 1.25690798 118 119 116
0.86817907 0.43740079 1.26840044 125 125 119
0.86236290 0.44349920 1.26947056 137 134 127
0.87531274 0.44492137 1.29087859 136 134 128
0.88595301 0.31978098 0.87809825 136 135 131
0.89144468 0.32807155 0.87737052 120 120 118
0.89437167 0.33052964 0.88516888 126 126 124
0.89395851 0.34778139 0.97819889 144 144 138
0.89654595 0.35048363 0.98103017 135 134 132
0.90374513 0.33215107 0.87600193 105 105 104
0.90525591 0.33113986 0.88383324 117 116 115
0.90710229 0.33980176 1.02555501 149 146 138
0.90375125 0.35586737 0.98891446 131 132 130
0.91606158 0.35879138 1.00428426 135 134 131
0.90978029 0.34698318 1.03230188 136 133 129
0.91520627 0.34995878 1.04261202 133 131 128
0.91878390 0.36159861 1.00726867 128 127 125
0.92429131 0.35375314 1.03525156 129 125 120
0.92574425 0.35749604 1.04358630 121 115 113
0.92600900 0.36882980 1.01518968 141 142 141
0.93503368 0.37141440 1.02746520 138 138 136
0.93412361 0.36438477 1.04715939 103 97 97
0.93652610 0.38565032 1.02964750 148 147 146
0.92133057 0.41708589 1.35038221 145 139 137
0.93411928 0.42459570 1.37086457 142 136 134
0.93643502 0.42974477 1.38515484 133 126 125
0.94240109 0.37567227 1.03748622 140 142 140
0.94451905 0.37509134 1.04606859 125 128 124
0.95237182 0.37752635 1.06779807 98 98 99
0.94182965 0.38642958 1.03843763 145 145 146
0.94665647 0.38671531 1.04807675 137 137 136
0.95278459 0.38852723 1.07123762 120 121 119
0.95384616 0.39405502 1.08906414 146 145 137
0.95893025 0.39823562 1.10136849 157 155 145
0.95368403 0.40524086 1.05755353 137 134 133
0.95555874 0.40600306 1.07245919 126 122 118
0.95858368 0.40123338 1.08376062 130 128 121
0.94243824 0.43032616 1.37782896 144 139 138
0.94563827 0.43462550 1.39018111 131 125 125
0.94974943 0.45153463 1.39675645 142 141 139
0.95394237 0.44564151 1.40683581 116 111 113
0.94879293 0.46069542 1.39771509 158 159 150
0.95690062 0.46337728 1.41325748 150 150 147
0.96286103 0.39585041 1.07447639 129 130 128
0.96624255 0.39810687 1.08289707 123 123 121
0.96600714 0.40387482 1.07534587 130 129 127
0.96931771 0.40779685 1.09079207 125 123 119
0.97202885 0.40157732 1.11863339 158 151 138
0.97524750 0.40484694 1.12233746 158 152 141
0.96970254 0.43834466 1.40350282 147 146 144
0.96753520 0.44787252 1.41607952 122 120 121
0.96835642 0.45430512 1.42791407 115 114 115
0.96023619 0.46008837 1.41818380 138 138 137
0.96699946 0.46545058 1.43091062 140 140 138
0.97825044 0.46741572 1.44848680 129 130 128
0.98094335 0.41532379 1.09249359 134 131 128
0.98715725 0.41651968 1.10526697 129 128 124
0.98471999 0.40959388 1.13549721 158 153 142
0.99670286 0.41704907 1.54620692 144 138 136
0.99426210 0.42299936 1.11269066 129 124 121
0.99086350 0.43268627 1.53630027 138 135 136
0.99273008 0.42804097 1.54689447 143 139 139
0.99432244 0.42639699 1.56436765 136 134 133
0.99772302 0.43410771 1.58262877 132 131 129
0.98986555 0.45186125 1.43235983 142 141 139
0.99307394 0.45744241 1.44334817 133 133 132
0.98766273 0.44023868 1.53716969 104 105 107
0.99394184 0.44135518 1.54418882 107 107 108
0.99415977 0.46417663 1.44618702 131 131 131
1.00669484 0.41686312 1.54806861 146 141 138
1.00089312 0.41494259 1.56196272 153 150 143
1.00129545 0.42751043 1.12326813 124 119 117
1.00970244 0.42869713 1.55019281 156 151 148
1.00427015 0.42968549 1.57147169 145 140 141
1.00844223 0.43127465 1.58227961 138 135 135
1.01121799 0.45136676 1.43723226 158 155 151
1.01644795 0.45407300 1.44585090 159 155 152
1.00397795 0.44314481 1.57101446 128 128 130
1.01036743 0.44631611 1.58386521 121 122 124
1.00336576 0.46546697 1.45021735 135 135 135
1.00889045 0.47044577 1.46572751 130 130 131
1.02250211 0.43224612 1.55623076 154 152 150
1.02462969 0.43237352 1.56316795 155 152 150
1.02267790 0.45852594 1.45470798 162 158 155
1.02503520 0.46237543 1.45626771 160 159 152
1.02932611 0.46699835 1.46921635 155 152 150
1.05954909 0.76813197 1.89355266 161 153 148
1.06266952 0.77412167 1.89620471 163 155 147
1.06850866 0.76802009 1.90956457 164 156 152
1.06579900 0.78012967 1.89885676 152 148 144
1.07152140 0.78343111 1.91494870 158 152 146
1.07760882 0.78786987 1.92584461 149 144 140
1.09582961 0.45544705 1.49976075 115 108 114
1.08785510 0.71388906 1.65743732 105 98 100
1.09052134 0.71994644 1.66149962 109 101 102
1.08626568 0.73028821 1.65501571 120 119 117
1.09052134 0.72712585 1.66149962 118 113 113
1.09841835 0.75317645 1.67795014 94 94 94
1.08798019 0.75651074 1.95038479 162 156 150
1.08928561 0.75971812 1.96490383 165 159 153
1.08041966 0.77732015 1.93683386 167 159 154
1.09063536 0.76950372 1.95696650 160 158 150
1.09322691 0.76989764 1.96833768 158 156 148
1.09541476 0.77323431 1.98213995 155 152 145
1.08054966 0.79125109 1.93407482 149 147 145
1.08605947 0.78825104 1.95148173 159 153 150
1.09155006 0.78851065 1.96898859 160 154 150
1.09145296 0.80430195 1.95359498 145 142 140
1.09585822 0.80961132 1.97061586 148 146 144
1.09862709 0.80986196 1.98795259 152 151 148
1.10664936 0.45414304 1.50980135 126 126 126
1.11467564 0.45633370 1.55123997 144 140 134
1.11809254 0.46205506 1.53022993 113 109 114
1.11991954 0.46141133 1.55479777 145 138 132
1.10618637 0.73367745 1.68981651 109 103 103
1.10279021 0.74743168 1.68462856 113 113 113
1.11624229 0.76890007 1.70969212 47 42 43
1.10814875 0.77784061 1.95922494 162 157 149
1.10984561 0.77215307 1.96906105 158 155 147
1.11701039 0.77132001 1.98601504 159 154 147
1.10185838 0.78984414 1.99379957 159 157 151
