ply
format ascii 1.0
element vertex 1112
property float x
property float y
property float z
property uchar red
property uchar green
property uchar blue
end_header
0.31040042 0.31033713 0.89910603 114 113 109
0.31040042 0.33053955 0.89910603 96 90 87
0.31040042 0.34996495 0.89910603 94 88 87
0.31040042 0.36939035 0.89910603 104 99 93
0.31040042 0.38959276 0.89910603 0 0 0
0.31040043 0.40979520 0.89910607 0 0 0
0.31040044 0.42999763 0.89910609 0 0 0
0.31040044 0.45020004 0.89910609 0 0 0
0.31040044 0.47040246 0.89910609 0 0 0
0.31040044 0.49060488 0.89910609 0 0 0
0.31040044 0.50614520 0.89910609 0 0 0
0.33060283 -0.60343369 0.89910603 0 0 0
0.33060283 -0.58944741 0.89910603 0 0 0
0.33060283 -0.57002200 0.89910603 0 0 0
0.33060283 -0.55059660 0.89910603 0 0 0
0.33009966 -0.53352122 0.89902301 29 32 31
0.33109879 -0.34423028 0.53136802 87 91 88
0.32993443 -0.32999250 0.53136802 88 91 91
0.33042006 -0.32969433 0.89881503 81 83 86
0.32993443 -0.31024632 0.53136802 88 91 90
0.32033823 -0.31535074 0.83961684 85 86 88
0.33059122 -0.30971073 0.89907446 80 81 86
0.32993443 -0.29004094 0.53136802 89 90 91
0.33059653 -0.28951369 0.89908888 80 81 85
0.32993443 -0.26983555 0.53136802 88 91 91
0.33059874 -0.27009048 0.89909491 79 80 86
0.32993443 -0.25008938 0.53136802 87 90 90
0.33085898 -0.25988130 0.71496147 79 84 86
0.33059983 -0.25066615 0.89909786 79 79 86
0.32993443 -0.23034321 0.53136802 86 89 90
0.33060046 -0.23046435 0.89909958 78 79 86
0.32993443 -0.21013782 0.53136802 85 88 89
0.33060089 -0.21026235 0.89910074 77 77 85
0.32940115 -0.19739835 0.53136802 85 86 88
0.33060124 -0.19006026 0.89910168 76 77 84
0.33060150 -0.16985808 0.89910241 76 77 84
0.33060172 -0.14965584 0.89910300 75 77 85
0.33060192 -0.12945357 0.89910355 70 71 79
0.33060217 -0.11002831 0.89910421 45 43 44
0.33060222 -0.09060296 0.89910436 43 41 43
0.33060227 -0.07040059 0.89910449 44 41 44
0.33060231 -0.05019822 0.89910460 42 39 42
0.33060237 -0.02999584 0.89910477 71 69 72
0.33060256 -0.00979345 0.89910528 124 122 123
0.33060266 0.01040895 0.89910557 107 107 111
0.33060271 0.03061136 0.89910570 112 110 112
0.33060274 0.05003676 0.89910578 125 121 121
0.33060276 0.06946215 0.89910584 123 115 114
0.33060278 0.08966457 0.89910587 113 106 106
0.33060279 0.10986699 0.89910591 89 86 90
0.33060279 0.13006940 0.89910592 87 84 84
0.33060281 0.15027182 0.89910597 88 85 84
0.33060281 0.17047424 0.89910597 119 112 105
0.33060281 0.18989964 0.89910597 111 104 100
0.33060281 0.20932504 0.89910597 123 114 109
0.33060283 0.22952747 0.89910603 106 98 97
0.33060283 0.24972988 0.89910603 109 103 100
0.33060283 0.26993230 0.89910603 113 108 106
0.33060283 0.29013472 0.89910603 112 108 104
0.33060283 0.31033713 0.89910603 119 113 108
0.33060283 0.33053955 0.89910603 114 106 100
0.33060283 0.34996495 0.89910603 124 119 115
0.33060283 0.36939035 0.89910603 91 89 86
0.33060283 0.38959276 0.89910603 0 0 0
0.33060285 0.40979520 0.89910608 0 0 0
0.33060285 0.42999763 0.89910609 0 0 0
0.33060285 0.45020004 0.89910609 0 0 0
0.33060285 0.47040246 0.89910609 0 0 0
0.33060285 0.49060488 0.89910609 0 0 0
0.33060285 0.50614520 0.89910609 0 0 0
0.35002823 -0.60343369 0.89910603 0 0 0
0.35002823 -0.58944741 0.89910603 0 0 0
0.35002823 -0.57002200 0.89910603 0 0 0
0.35002823 -0.55059660 0.89910603 0 0 0
0.34929779 -0.53620612 0.89903850 42 44 43
0.35077971 -0.34737485 0.53136802 88 92 91
0.35013982 -0.32999250 0.53136802 88 92 92
0.34563271 -0.32488958 0.87302891 82 85 86
0.34957556 -0.32767237 0.89838970 81 82 86
0.35013982 -0.31024632 0.53136802 88 91 91
0.35787303 -0.31447398 0.85298383 86 86 89
0.35001413 -0.30970911 0.89906982 81 82 86
0.35013982 -0.29004094 0.53136802 90 92 90
0.34178015 -0.29769825 0.81128454 86 87 91
0.35002127 -0.28951345 0.89908813 80 81 85
0.35013982 -0.26983555 0.53136802 88 91 91
0.35002378 -0.27009038 0.89909459 79 80 84
0.35013982 -0.25008938 0.53136802 87 90 90
0.35002501 -0.25066612 0.89909775 79 80 85
0.35013982 -0.23034321 0.53136802 87 89 91
0.35002571 -0.23046434 0.89909954 78 79 85
0.35013982 -0.21013782 0.53136802 86 88 89
0.35002618 -0.21026236 0.89910075 76 77 84
0.35013982 -0.19819827 0.53136802 85 86 90
0.35002656 -0.19006027 0.89910174 75 77 84
0.35002685 -0.16985809 0.89910246 76 76 84
0.35002707 -0.14965585 0.89910305 75 77 84
0.35002731 -0.12945358 0.89910365 69 69 75
0.35002754 -0.11002831 0.89910424 45 43 44
0.35002759 -0.09060296 0.89910437 45 42 44
0.35002764 -0.07040059 0.89910451 45 42 43
0.35002768 -0.05019822 0.89910462 42 40 42
0.35002775 -0.02999584 0.89910480 73 70 73
0.35002795 -0.00979345 0.89910529 131 128 128
0.35002805 0.01040895 0.89910557 109 109 112
0.35002811 0.03061136 0.89910570 103 101 103
0.35002814 0.05003676 0.89910578 118 115 115
0.35002816 0.06946215 0.89910584 122 115 115
0.35002817 0.08966457 0.89910587 109 106 106
0.35002819 0.10986699 0.89910591 89 87 87
0.35002819 0.13006940 0.89910592 80 78 81
0.35002821 0.15027182 0.89910597 86 84 82
0.35002821 0.17047424 0.89910597 120 111 106
0.35002821 0.18989964 0.89910597 109 106 100
0.35002821 0.20932504 0.89910597 112 107 103
0.35002823 0.22952747 0.89910603 116 106 99
0.35002823 0.24972988 0.89910603 124 117 114
0.35002823 0.26993230 0.89910603 99 91 87
0.35002823 0.29013472 0.89910603 117 114 111
0.35002823 0.31033713 0.89910603 117 109 102
0.35002823 0.33053955 0.89910603 103 98 95
0.35002823 0.34996495 0.89910603 112 107 100
0.35002823 0.36939035 0.89910603 117 111 104
0.35002823 0.38959276 0.89910603 0 0 0
0.35002825 0.40979521 0.89910608 0 0 0
0.35002826 0.42999763 0.89910609 0 0 0
0.35002826 0.45020004 0.89910609 0 0 0
0.35002826 0.47040246 0.89910609 0 0 0
0.35002826 0.49060488 0.89910609 0 0 0
0.35002826 0.50614520 0.89910609 0 0 0
0.36945363 -0.60343369 0.89910603 0 0 0
0.36945363 -0.58944741 0.89910603 0 0 0
0.36945363 -0.57002200 0.89910603 0 0 0
0.36945363 -0.55059660 0.89910602 3 4 4
0.36778036 -0.53857243 0.89895326 78 82 80
0.37034521 -0.34927945 0.53136802 89 93 90
0.37034521 -0.32999250 0.53136802 89 91 91
0.36907917 -0.32553369 0.89839220 82 83 86
0.37034521 -0.31024632 0.53136802 89 92 91
0.36943765 -0.30970818 0.89906716 81 82 86
0.37034521 -0.29004094 0.53136802 90 92 91
0.36944615 -0.28951335 0.89908783 80 81 85
0.37034521 -0.26983555 0.53136802 89 92 92
0.36944891 -0.27009037 0.89909454 79 81 85
0.37034521 -0.25008938 0.53136802 87 91 91
0.36945022 -0.25066611 0.89909772 79 80 85
0.37034521 -0.23034321 0.53136802 87 90 90
0.36945098 -0.23046435 0.89909957 77 78 83
0.37034521 -0.21013782 0.53136802 87 88 89
0.36945147 -0.21026236 0.89910076 75 76 84
0.36962013 -0.19841580 0.53136802 87 87 88
0.36945188 -0.19006027 0.89910177 75 76 83
0.36945217 -0.16985809 0.89910247 74 76 84
0.36945241 -0.14965585 0.89910304 75 75 83
0.36945267 -0.12945359 0.89910369 68 68 74
0.36945290 -0.11002831 0.89910424 44 43 45
0.36945295 -0.09060296 0.89910437 44 42 43
0.36945301 -0.07040059 0.89910451 44 42 43
0.36945306 -0.05019822 0.89910463 43 40 41
0.36945314 -0.02999584 0.89910483 75 73 75
0.36945334 -0.00979345 0.89910531 138 133 133
0.36945344 0.01040895 0.89910557 119 117 118
0.36945350 0.03061136 0.89910570 101 99 103
0.36945353 0.05003676 0.89910578 113 109 109
0.36945356 0.06946215 0.89910584 124 117 117
0.36945357 0.08966457 0.89910587 113 106 106
0.36945358 0.10986699 0.89910591 88 84 87
0.36945359 0.13006940 0.89910592 86 84 84
0.36945361 0.15027182 0.89910597 93 89 85
0.36945361 0.17047424 0.89910597 118 110 104
0.36945361 0.18989964 0.89910597 118 106 100
0.36945361 0.20932504 0.89910598 120 113 107
0.36945363 0.22952747 0.89910603 97 89 88
0.36945363 0.24972988 0.89910603 119 113 107
0.36945363 0.26993230 0.89910603 110 106 101
0.36945363 0.29013472 0.89910603 120 116 109
0.36945363 0.31033713 0.89910603 103 98 93
0.36945363 0.33053955 0.89910603 121 115 106
0.36945363 0.34996495 0.89910603 105 99 94
0.36945363 0.36939035 0.89910603 99 96 95
0.36945363 0.38959276 0.89910603 6 6 5
0.36945366 0.40979521 0.89910608 0 0 0
0.36945366 0.42999763 0.89910609 0 0 0
0.36945366 0.45020004 0.89910609 0 0 0
0.36945366 0.47040246 0.89910609 0 0 0
0.36945366 0.49060488 0.89910609 0 0 0
0.36945366 0.50614520 0.89910609 0 0 0
0.38965605 -0.60343369 0.89910603 0 0 0
0.38965605 -0.58944741 0.89910603 0 0 0
0.38965605 -0.57002200 0.89910603 0 0 0
0.38908867 -0.55175112 0.89910519 16 16 16
0.38102859 -0.53960485 0.89891690 101 102 105
0.39009138 -0.34927945 0.53136802 89 93 92
0.39009138 -0.32999250 0.53136802 90 94 92
0.38917109 -0.32404133 0.89867561 82 83 86
0.39009138 -0.31024632 0.53136802 90 93 92
0.39261300 -0.30954365 0.85158795 80 84 85
0.38066441 -0.31951830 0.87486923 86 86 90
0.38963704 -0.30970643 0.89906218 80 82 87
0.39009138 -0.29004094 0.53136802 92 94 94
0.38964827 -0.28951343 0.89908807 81 82 86
0.39009138 -0.26983555 0.53136802 92 94 93
0.38965118 -0.27009044 0.89909478 81 81 85
0.39009138 -0.25008938 0.53136802 89 92 91
0.38965248 -0.25066613 0.89909779 79 80 86
0.39009138 -0.23034321 0.53136802 88 90 90
0.38965326 -0.23046436 0.89909958 78 79 84
0.39009138 -0.21013782 0.53136802 86 88 89
0.38965376 -0.21026235 0.89910074 76 77 83
0.38793783 -0.19919588 0.53136802 88 88 88
0.38965419 -0.19006027 0.89910174 75 76 82
0.38965449 -0.16985808 0.89910244 74 75 83
0.38965476 -0.14965585 0.89910304 74 75 83
0.38965505 -0.12945359 0.89910372 66 66 71
0.38965527 -0.11002831 0.89910423 44 43 43
0.38965533 -0.09060296 0.89910437 43 42 43
0.38965539 -0.07040059 0.89910452 45 42 43
0.38965545 -0.05019822 0.89910464 43 40 41
0.38965554 -0.02999584 0.89910485 76 74 77
0.38965574 -0.00979346 0.89910532 141 138 137
0.38965585 0.01040895 0.89910557 121 120 120
0.38965591 0.03061136 0.89910570 108 103 105
0.38965594 0.05003676 0.89910578 111 107 109
0.38965597 0.06946215 0.89910584 121 115 114
0.38965598 0.08966457 0.89910587 109 103 102
0.38965600 0.10986699 0.89910591 87 84 87
0.38965600 0.13006940 0.89910592 80 77 80
0.38965602 0.15027182 0.89910597 94 88 87
0.38965602 0.17047424 0.89910597 109 102 97
0.38965602 0.18989964 0.89910597 105 101 96
0.38965603 0.20932504 0.89910598 117 110 104
0.38965605 0.22952747 0.89910603 119 115 108
0.38965605 0.24972988 0.89910603 100 97 94
0.38965605 0.26993230 0.89910603 116 111 105
0.38965605 0.29013472 0.89910603 112 104 99
0.38965605 0.31033713 0.89910603 123 119 113
0.38965605 0.33053955 0.89910603 104 99 94
0.38965605 0.34996495 0.89910603 112 101 97
0.38965605 0.36939035 0.89910603 125 121 116
0.38965605 0.38959277 0.89910603 17 16 15
0.38965607 0.40979521 0.89910609 0 0 0
0.38965607 0.42999763 0.89910609 0 0 0
0.38965607 0.45020004 0.89910609 0 0 0
0.38965607 0.47040246 0.89910609 0 0 0
0.38965607 0.49060488 0.89910609 0 0 0
0.38965607 0.50614520 0.89910609 0 0 0
0.40985846 -0.60343369 0.89910603 0 0 0
0.40985846 -0.58944741 0.89910603 0 0 0
0.40985846 -0.57002200 0.89910603 0 0 0
0.40931280 -0.55441146 0.89908887 23 24 25
0.40983755 -0.34927945 0.53136802 92 95 95
0.40983755 -0.32999250 0.53136802 93 95 93
0.40927317 -0.32311656 0.89810597 82 83 85
0.40983755 -0.31024632 0.53136802 94 96 94
0.40983771 -0.30970582 0.89906050 81 82 89
0.40983755 -0.29004094 0.53136802 94 96 95
0.40985051 -0.28951359 0.89908857 80 82 85
0.40983755 -0.26983555 0.53136802 92 96 94
0.40985340 -0.27009048 0.89909492 80 82 85
0.40983755 -0.25008938 0.53136802 90 92 92
0.40985471 -0.25066613 0.89909780 80 81 85
0.40983755 -0.23034321 0.53136802 88 90 92
0.40985550 -0.23046434 0.89909952 79 79 84
0.40962024 -0.21047117 0.53136802 86 88 89
0.40985601 -0.21026233 0.89910064 75 77 84
0.40019407 -0.19957591 0.53136802 86 89 88
0.40985647 -0.19006025 0.89910164 74 75 82
0.40985682 -0.16985808 0.89910242 74 75 83
0.40985712 -0.14965585 0.89910308 74 76 81
0.40985743 -0.12945360 0.89910375 65 64 68
0.40985764 -0.11002831 0.89910422 45 43 43
0.40985771 -0.09060296 0.89910437 44 42 42
0.40985778 -0.07040059 0.89910452 45 43 43
0.40985784 -0.05019822 0.89910465 43 41 42
0.40985794 -0.02999584 0.89910487 76 73 76
0.40985815 -0.00979346 0.89910532 141 137 136
0.40985826 0.01040895 0.89910557 127 124 125
0.40985832 0.03061136 0.89910570 116 112 113
0.40985835 0.05003676 0.89910578 105 102 103
0.40985838 0.06946215 0.89910584 121 115 113
0.40985840 0.08966457 0.89910587 114 108 107
0.40985841 0.10986699 0.89910591 86 84 85
0.40985842 0.13006940 0.89910592 91 88 88
0.40985844 0.15027182 0.89910597 87 83 83
0.40985844 0.17047424 0.89910597 108 101 97
0.40985844 0.18989964 0.89910597 125 117 107
0.40985844 0.20932504 0.89910598 119 112 106
0.40985846 0.22952747 0.89910603 112 106 100
0.40985846 0.24972988 0.89910603 130 126 120
0.40985846 0.26993230 0.89910603 109 104 103
0.40985846 0.29013472 0.89910603 113 107 103
0.40985846 0.31033713 0.89910603 116 109 106
0.40985846 0.33053955 0.89910603 111 104 101
0.40985846 0.34996495 0.89910603 121 115 109
0.40985846 0.36939035 0.89910603 117 111 105
0.40985847 0.38959277 0.89910604 22 21 19
0.40985849 0.40979521 0.89910609 0 0 0
0.40985849 0.42999763 0.89910609 0 0 0
0.40985849 0.45020004 0.89910609 0 0 0
0.40985849 0.47040246 0.89910609 0 0 0
0.40985849 0.49060488 0.89910609 0 0 0
0.40985849 0.50614520 0.89910609 0 0 0
0.43006088 -0.60343369 0.89910603 0 0 0
0.43006088 -0.58944741 0.89910603 0 0 0
0.43006088 -0.57002200 0.89910603 0 0 0
0.42897696 -0.55680482 0.89909314 46 47 45
0.43004294 -0.34927945 0.53136802 95 97 96
0.43004294 -0.32999250 0.53136802 95 97 96
0.42992916 -0.32253843 0.89801918 83 85 87
0.43004294 -0.31024632 0.53136802 96 99 97
0.42264767 -0.30571652 0.84105909 88 89 91
0.43003747 -0.30970463 0.89905709 81 84 86
0.43004294 -0.29004094 0.53136802 96 99 97
0.43005233 -0.28951345 0.89908815 81 83 85
0.43004294 -0.26983555 0.53136802 93 97 95
0.43005549 -0.27009044 0.89909476 80 81 86
0.43004294 -0.25008938 0.53136802 92 93 94
0.43005689 -0.25066610 0.89909768 79 81 85
0.43004294 -0.23034321 0.53136802 89 91 92
0.43005771 -0.23046431 0.89909940 78 79 83
0.42972544 -0.21317517 0.53136802 87 90 90
0.43005823 -0.21026230 0.89910049 76 76 83
0.43005873 -0.19006023 0.89910153 74 76 81
0.43005913 -0.16985807 0.89910236 75 75 82
0.43005946 -0.14965585 0.89910306 73 75 82
0.43005980 -0.12945360 0.89910376 64 63 67
0.43006001 -0.11002831 0.89910420 45 43 44
0.43006008 -0.09060296 0.89910436 44 42 43
0.43006016 -0.07040059 0.89910451 45 43 44
0.43006022 -0.05019822 0.89910464 44 41 43
0.43006033 -0.02999584 0.89910488 78 75 77
0.43006055 -0.00979346 0.89910534 141 137 135
0.43006067 0.01040895 0.89910558 129 126 126
0.43006073 0.03061136 0.89910570 124 120 120
0.43006076 0.05003676 0.89910578 102 100 102
0.43006079 0.06946216 0.89910584 121 117 113
0.43006081 0.08966457 0.89910588 112 107 106
0.43006082 0.10986699 0.89910591 90 86 87
0.43006083 0.13006940 0.89910592 84 80 81
0.43006085 0.15027182 0.89910597 79 76 76
0.43006085 0.17047424 0.89910597 115 108 102
0.43006085 0.18989964 0.89910597 104 97 93
0.43006086 0.20932504 0.89910598 123 117 111
0.43006088 0.22952747 0.89910603 112 107 103
0.43006088 0.24972988 0.89910603 124 117 110
0.43006088 0.26993230 0.89910603 121 116 111
0.43006088 0.29013472 0.89910603 118 114 111
0.43006088 0.31033713 0.89910603 91 84 85
0.43006088 0.33053955 0.89910603 115 110 106
0.43006088 0.34996495 0.89910603 113 108 101
0.43006088 0.36939035 0.89910603 113 106 101
0.43006089 0.38959277 0.89910604 33 30 28
0.43006091 0.40979521 0.89910609 0 0 0
0.43006091 0.42999763 0.89910609 0 0 0
0.43006091 0.45020004 0.89910609 0 0 0
0.43006091 0.47040246 0.89910609 0 0 0
0.43006091 0.49060488 0.89910609 0 0 0
0.43006091 0.50614520 0.89910609 0 0 0
0.45026330 -0.60343369 0.89910603 0 0 0
0.45026330 -0.58944741 0.89910603 0 0 0
0.45026286 -0.57002147 0.89910517 10 10 10
0.44534118 -0.55940152 0.89910399 83 88 90
0.45024832 -0.34927945 0.53136802 98 100 99
0.45024832 -0.32999250 0.53136802 97 100 99
0.45050728 -0.32289199 0.89815545 81 85 87
0.45024832 -0.31024632 0.53136802 99 102 100
0.45024054 -0.30970585 0.89906056 81 83 87
0.45024832 -0.29004094 0.53136802 98 100 99
0.45025446 -0.28951352 0.89908837 82 83 86
0.45024832 -0.26983555 0.53136802 94 98 98
0.45025763 -0.27009042 0.89909470 81 82 85
0.45024832 -0.25008938 0.53136802 93 95 94
0.45025911 -0.25066609 0.89909767 79 80 86
0.45024832 -0.23034321 0.53136802 89 92 93
0.45025996 -0.23046430 0.89909937 77 79 83
0.45019430 -0.21385055 0.53136802 89 90 90
0.45026050 -0.21026229 0.89910044 75 77 82
0.45026101 -0.19006021 0.89910145 73 76 83
0.45026144 -0.16985806 0.89910231 75 75 81
0.45026182 -0.14965585 0.89910307 74 75 83
0.45026218 -0.12945360 0.89910378 63 62 66
0.45026239 -0.11002831 0.89910421 46 42 43
0.45026246 -0.09060296 0.89910436 44 43 43
0.45026254 -0.07040059 0.89910451 46 43 44
0.45026261 -0.05019822 0.89910464 45 42 43
0.45026273 -0.02999584 0.89910490 82 79 80
0.45026296 -0.00979346 0.89910535 140 136 134
0.45026308 0.01040895 0.89910558 123 120 120
0.45026314 0.03061136 0.89910571 122 117 117
0.45026318 0.05003676 0.89910579 101 101 102
0.45026321 0.06946216 0.89910584 120 113 111
0.45026322 0.08966457 0.89910588 108 104 104
0.45026324 0.10986699 0.89910591 89 85 85
0.45026325 0.13006940 0.89910592 94 89 89
0.45026327 0.15027182 0.89910597 77 73 74
0.45026327 0.17047424 0.89910597 124 118 109
0.45026327 0.18989964 0.89910597 113 106 100
0.45026327 0.20932504 0.89910598 110 104 100
0.45026330 0.22952747 0.89910603 119 115 109
0.45026330 0.24972988 0.89910603 126 120 114
0.45026330 0.26993230 0.89910603 127 123 114
0.45026330 0.29013472 0.89910603 110 103 97
0.45026330 0.31033713 0.89910603 114 111 106
0.45026330 0.33053955 0.89910603 113 108 102
0.45026330 0.34996495 0.89910603 103 94 92
0.45026330 0.36939035 0.89910603 103 98 94
0.45026330 0.38959277 0.89910604 45 44 43
0.45026333 0.40979521 0.89910609 0 0 0
0.45026333 0.42999763 0.89910609 0 0 0
0.45026333 0.45020004 0.89910609 0 0 0
0.45026333 0.47040246 0.89910609 0 0 0
0.45026333 0.49060488 0.89910609 0 0 0
0.45026333 0.50614520 0.89910609 0 0 0
0.47046571 -0.60343369 0.89910603 0 0 0
0.47046571 -0.58944741 0.89910603 0 0 0
0.46990742 -0.57190797 0.89910143 22 23 23
0.46999449 -0.34927945 0.53136802 99 103 101
0.46999449 -0.32999250 0.53136802 103 104 101
0.47028243 -0.32358094 0.89875522 83 85 88
0.46999449 -0.31024632 0.53136802 102 104 102
0.47993272 -0.31719338 0.86035997 89 90 94
0.47044429 -0.30970743 0.89906507 82 83 86
0.46999449 -0.29004094 0.53136802 100 102 102
0.47045700 -0.28951385 0.89908936 81 83 85
0.46999449 -0.26983555 0.53136802 96 98 98
0.47045991 -0.27009049 0.89909492 82 82 86
0.46999449 -0.25008938 0.53136802 94 95 95
0.47046135 -0.25066610 0.89909768 79 81 84
0.46999449 -0.23034321 0.53136802 90 92 91
0.47046222 -0.23046430 0.89909935 77 79 83
0.46992982 -0.21400879 0.53136802 88 90 91
0.47046276 -0.21026227 0.89910039 77 77 82
0.47046331 -0.19006020 0.89910142 74 76 82
0.47046378 -0.16985806 0.89910233 75 76 80
0.47046418 -0.14965586 0.89910310 75 75 81
0.47046457 -0.12945361 0.89910384 62 61 64
0.47046478 -0.11002831 0.89910424 45 43 43
0.47046485 -0.09060296 0.89910438 44 42 43
0.47046493 -0.07040059 0.89910453 46 44 45
0.47046500 -0.05019822 0.89910465 45 42 43
0.47046513 -0.02999584 0.89910491 83 79 79
0.47046537 -0.00979346 0.89910536 135 131 129
0.47046549 0.01040895 0.89910559 117 115 115
0.47046555 0.03061136 0.89910571 122 118 116
0.47046559 0.05003676 0.89910579 104 103 105
0.47046562 0.06946216 0.89910585 114 110 109
0.47046564 0.08966457 0.89910588 109 101 100
0.47046565 0.10986699 0.89910591 95 91 92
0.47046566 0.13006940 0.89910592 101 96 94
0.47046568 0.15027182 0.89910597 90 85 84
0.47046568 0.17047424 0.89910597 120 111 103
0.47046568 0.18989964 0.89910597 115 109 101
0.47046569 0.20932504 0.89910598 117 113 107
0.47046571 0.22952747 0.89910603 107 102 97
0.47046571 0.24972988 0.89910603 128 125 119
0.47046571 0.26993230 0.89910603 114 109 103
0.47046571 0.29013472 0.89910603 93 90 88
0.47046571 0.31033713 0.89910603 128 124 117
0.47046571 0.33053955 0.89910603 119 115 112
0.47046571 0.34996495 0.89910603 114 107 104
0.47046571 0.36939035 0.89910603 122 119 115
0.47046572 0.38959277 0.89910604 66 64 62
0.47046574 0.40979521 0.89910609 0 0 0
0.47046574 0.42999763 0.89910609 0 0 0
0.47046574 0.45020004 0.89910609 0 0 0
0.47046574 0.47040246 0.89910609 0 0 0
0.47046574 0.49060488 0.89910609 0 0 0
0.47046574 0.50614520 0.89910609 0 0 0
0.49066813 -0.60343369 0.89910603 0 0 0
0.49066813 -0.58944741 0.89910603 0 0 0
0.48936559 -0.57452433 0.89907978 37 40 40
0.48974067 -0.34927945 0.53136802 103 106 103
0.48974067 -0.32999250 0.53136802 102 104 103
0.49093307 -0.32386515 0.89827805 82 86 87
0.48974067 -0.31024632 0.53136802 102 105 103
0.49432872 -0.31688912 0.85953468 87 88 92
0.49064706 -0.30970825 0.89906742 82 83 85
0.48974067 -0.29004094 0.53136802 98 101 100
0.49065935 -0.28951403 0.89908993 80 84 87
0.48974067 -0.26983555 0.53136802 95 98 97
0.49066224 -0.27009058 0.89909523 81 82 86
0.48974067 -0.25008938 0.53136802 94 96 95
0.49066364 -0.25066613 0.89909779 79 81 85
0.48974067 -0.23034321 0.53136802 90 93 91
0.49066452 -0.23046431 0.89909942 78 79 83
0.48996885 -0.21350634 0.53136802 87 89 90
0.49066507 -0.21026228 0.89910042 77 78 82
0.49066564 -0.19006021 0.89910146 75 77 82
0.49066613 -0.16985807 0.89910235 73 76 82
0.49066655 -0.14965586 0.89910314 74 75 81
0.49066697 -0.12945362 0.89910390 61 61 63
0.49066718 -0.11002831 0.89910428 45 43 45
0.49066725 -0.09060296 0.89910441 46 43 44
0.49066732 -0.07040060 0.89910454 46 45 45
0.49066739 -0.05019822 0.89910467 46 43 44
0.49066752 -0.02999584 0.89910492 88 86 84
0.49066777 -0.00979346 0.89910537 131 127 125
0.49066790 0.01040895 0.89910560 113 111 112
0.49066796 0.03061136 0.89910572 122 119 116
0.49066800 0.05003676 0.89910579 105 105 105
0.49066803 0.06946216 0.89910585 107 103 100
0.49066805 0.08966457 0.89910588 109 103 99
0.49066806 0.10986699 0.89910591 95 91 92
0.49066808 0.13006940 0.89910593 100 97 96
0.49066810 0.15027182 0.89910597 89 85 82
0.49066810 0.17047424 0.89910597 119 115 106
0.49066810 0.18989964 0.89910597 115 108 101
0.49066810 0.20932504 0.89910598 124 116 109
0.49066813 0.22952747 0.89910603 106 101 98
0.49066813 0.24972988 0.89910603 129 123 114
0.49066813 0.26993230 0.89910603 111 107 101
0.49066813 0.29013472 0.89910603 118 114 110
0.49066813 0.31033713 0.89910603 125 117 113
0.49066813 0.33053955 0.89910603 118 111 103
0.49066813 0.34996495 0.89910603 130 127 121
0.49066813 0.36939035 0.89910603 122 120 117
0.49066813 0.38959277 0.89910603 82 76 72
0.49066816 0.40979521 0.89910609 0 0 0
0.49066816 0.42999763 0.89910609 0 0 0
0.49066816 0.45020004 0.89910609 0 0 0
0.49066816 0.47040246 0.89910609 0 0 0
0.49066816 0.49060488 0.89910609 0 0 0
0.49066816 0.50614520 0.89910609 0 0 0
0.51009353 -0.60343369 0.89910603 0 0 0
0.51009349 -0.58944737 0.89910596 4 4 4
0.50789672 -0.57764297 0.89909370 72 80 74
0.50994605 -0.34927945 0.53136802 103 104 103
0.50994605 -0.32999250 0.53136802 103 104 102
0.50946192 -0.32525955 0.89779821 84 85 86
0.50994605 -0.31024632 0.53136802 101 102 100
0.51007271 -0.30970892 0.89906932 82 83 85
0.50994605 -0.29004094 0.53136802 97 100 99
0.51008434 -0.28951399 0.89908982 82 83 87
0.50994605 -0.26983555 0.53136802 95 97 97
0.51008737 -0.27009056 0.89909517 81 83 85
0.50994605 -0.25008938 0.53136802 92 94 93
0.51008887 -0.25066613 0.89909781 80 81 84
0.50994605 -0.23034321 0.53136802 89 92 91
0.51008978 -0.23046431 0.89909941 77 79 83
0.51018827 -0.21262060 0.53136802 86 90 89
0.51009037 -0.21026229 0.89910046 77 78 81
0.51009096 -0.19006022 0.89910150 75 78 81
0.51009148 -0.16985808 0.89910242 75 76 80
0.51009193 -0.14965587 0.89910320 75 75 80
0.51009236 -0.12945363 0.89910396 60 60 62
0.51009256 -0.11002832 0.89910431 47 43 45
0.51009263 -0.09060297 0.89910443 46 44 44
0.51009270 -0.07040060 0.89910456 47 45 46
0.51009277 -0.05019822 0.89910468 46 44 45
0.51009291 -0.02999584 0.89910493 91 86 84
0.51009317 -0.00979346 0.89910539 126 124 122
0.51009329 0.01040895 0.89910561 109 108 110
0.51009336 0.03061136 0.89910572 120 116 116
0.51009340 0.05003676 0.89910579 105 103 102
0.51009343 0.06946216 0.89910585 109 106 103
0.51009345 0.08966457 0.89910588 111 106 105
0.51009346 0.10986699 0.89910591 89 87 87
0.51009348 0.13006940 0.89910593 86 83 85
0.51009350 0.15027182 0.89910597 97 92 91
0.51009350 0.17047424 0.89910597 124 117 109
0.51009350 0.18989964 0.89910597 122 117 110
0.51009350 0.20932504 0.89910598 121 113 107
0.51009353 0.22952747 0.89910603 124 120 113
0.51009353 0.24972988 0.89910603 108 103 98
0.51009353 0.26993230 0.89910603 123 121 117
0.51009353 0.29013472 0.89910603 129 123 117
0.51009353 0.31033713 0.89910603 104 97 94
0.51009353 0.33053955 0.89910603 111 108 106
0.51009353 0.34996495 0.89910603 131 125 117
0.51009353 0.36939035 0.89910603 117 111 102
0.51009353 0.38959277 0.89910603 58 55 55
0.51009356 0.40979521 0.89910609 0 0 0
0.51009356 0.42999763 0.89910609 0 0 0
0.51009356 0.45020004 0.89910609 0 0 0
0.51009356 0.47040246 0.89910609 0 0 0
0.51009356 0.49060488 0.89910609 0 0 0
0.51009356 0.50614520 0.89910609 0 0 0
0.52951893 -0.60343369 0.89910603 0 0 0
0.52906077 -0.59074547 0.89910523 16 17 17
0.53015144 -0.34927945 0.53136802 105 107 105
0.53015144 -0.32999250 0.53136802 102 105 103
0.52936157 -0.32418472 0.89814765 83 86 87
0.53015144 -0.31024632 0.53136802 99 101 100
0.52949655 -0.30970847 0.89906802 83 84 85
0.53015144 -0.29004094 0.53136802 97 99 95
0.52950919 -0.28951388 0.89908949 83 84 85
0.53015144 -0.26983555 0.53136802 94 96 95
0.52951247 -0.27009052 0.89909506 80 82 84
0.53015144 -0.25008938 0.53136802 91 93 93
0.53745141 -0.24001778 0.61362922 90 89 91
0.52951405 -0.25066611 0.89909774 79 81 84
0.53015144 -0.23034321 0.53136802 89 91 89
0.52127852 -0.23336338 0.59399182 92 91 93
0.52951502 -0.23046430 0.89909938 78 79 82
0.53050018 -0.21135300 0.53136802 87 89 88
0.52951566 -0.21026229 0.89910047 76 77 81
0.52951630 -0.19006023 0.89910155 75 77 81
0.52951684 -0.16985809 0.89910247 75 76 80
0.52951729 -0.14965588 0.89910324 75 76 80
0.52951774 -0.12945364 0.89910401 59 58 60
0.52951794 -0.11002832 0.89910434 46 44 45
0.52951800 -0.09060297 0.89910445 46 45 45
0.52951808 -0.07040060 0.89910458 48 46 46
0.52951815 -0.05019822 0.89910470 47 44 45
0.52951829 -0.02999584 0.89910494 90 86 83
0.52951856 -0.00979346 0.89910540 128 124 122
0.52951869 0.01040895 0.89910561 113 110 110
0.52951875 0.03061136 0.89910573 117 113 113
0.52951879 0.05003676 0.89910579 102 101 102
0.52951882 0.06946216 0.89910585 109 104 103
0.52951885 0.08966457 0.89910588 108 103 100
0.52951886 0.10986699 0.89910591 95 90 91
0.52951887 0.13006940 0.89910593 85 84 84
0.52951889 0.15027182 0.89910597 86 82 82
0.52951889 0.17047424 0.89910597 124 120 109
0.52951889 0.18989964 0.89910597 122 113 105
0.52951891 0.20932504 0.89910598 130 125 117
0.52951893 0.22952747 0.89910603 119 111 104
0.52951893 0.24972988 0.89910603 128 126 118
0.52951893 0.26993230 0.89910603 120 114 108
0.52951893 0.29013472 0.89910603 101 95 89
0.52951893 0.31033713 0.89910603 121 118 112
0.52951893 0.33053955 0.89910603 107 102 99
0.52951893 0.34996495 0.89910603 99 93 89
0.52951893 0.36939035 0.89910603 114 110 103
0.52951893 0.38959276 0.89910603 92 90 88
0.52951897 0.40979521 0.89910609 0 0 0
0.52951897 0.42999763 0.89910609 0 0 0
0.52951897 0.45020004 0.89910609 0 0 0
0.52951897 0.47040246 0.89910609 0 0 0
0.52951897 0.49060488 0.89910609 0 0 0
0.52951897 0.50614520 0.89910609 0 0 0
0.54972135 -0.60343369 0.89910603 0 0 0
0.54922776 -0.59321599 0.89909763 29 32 30
0.54989761 -0.34927945 0.53136802 106 109 106
0.54989761 -0.32999250 0.53136802 103 105 102
0.55260899 -0.32140750 0.87179041 87 86 86
0.54964557 -0.32420350 0.89861362 84 86 87
0.54989761 -0.31024632 0.53136802 98 100 98
0.54969838 -0.30970862 0.89906846 83 84 86
0.54989761 -0.29004094 0.53136802 95 98 97
0.54971111 -0.28951382 0.89908929 82 84 85
0.54989761 -0.26983555 0.53136802 93 94 94
0.54971453 -0.27009047 0.89909488 81 82 84
0.54989761 -0.25008938 0.53136802 89 93 92
0.54971630 -0.25066612 0.89909777 79 80 84
0.54989761 -0.23034321 0.53136802 86 90 89
0.54971732 -0.23046432 0.89909945 79 80 84
0.55000961 -0.21037303 0.53136802 83 88 88
0.54971800 -0.21026231 0.89910056 77 78 82
0.55862266 -0.19957591 0.53136802 83 84 86
0.54971868 -0.19006025 0.89910166 75 77 82
0.54971924 -0.16985811 0.89910257 76 76 80
0.54971968 -0.14965589 0.89910330 75 76 79
0.54972013 -0.12945364 0.89910404 59 58 58
0.54972032 -0.11002832 0.89910435 48 45 45
0.54972040 -0.09060297 0.89910448 47 45 46
0.54972048 -0.07040060 0.89910460 49 47 46
0.54972054 -0.05019822 0.89910471 49 45 45
0.54972069 -0.02999584 0.89910496 93 88 87
0.54972097 -0.00979346 0.89910541 125 123 121
0.54972110 0.01040895 0.89910562 108 107 107
0.54972116 0.03061136 0.89910573 118 114 113
0.54972120 0.05003676 0.89910579 108 107 105
0.54972124 0.06946216 0.89910585 117 113 108
0.54972126 0.08966457 0.89910589 111 105 103
0.54972127 0.10986699 0.89910591 96 92 92
0.54972129 0.13006940 0.89910593 88 84 84
0.54972131 0.15027182 0.89910597 81 79 80
0.54972131 0.17047424 0.89910597 120 113 104
0.54972131 0.18989964 0.89910597 124 119 109
0.54972132 0.20932504 0.89910598 125 119 111
0.54972135 0.22952747 0.89910603 120 115 110
0.54972135 0.24972988 0.89910603 130 126 118
0.54972135 0.26993230 0.89910603 121 114 106
0.54972135 0.29013472 0.89910603 100 99 96
0.54972135 0.31033713 0.89910603 124 122 114
0.54972135 0.33053955 0.89910603 112 104 100
0.54972135 0.34996495 0.89910603 113 106 99
0.54972135 0.36939035 0.89910603 126 122 114
0.54972135 0.38959276 0.89910603 124 120 115
0.54972138 0.40979521 0.89910608 1 1 1
0.54972138 0.42999763 0.89910609 0 0 0
0.54972138 0.45020004 0.89910609 0 0 0
0.54972138 0.47040246 0.89910609 0 0 0
0.54972138 0.49060488 0.89910609 0 0 0
0.54972138 0.50614520 0.89910609 0 0 0
0.56992376 -0.60343369 0.89910603 0 0 0
0.56784195 -0.59604940 0.89909040 51 57 52
0.56964378 -0.34927945 0.53136802 105 108 105
0.56964378 -0.32999250 0.53136802 100 102 101
0.57035254 -0.32520132 0.89848046 85 87 88
0.56964378 -0.31024632 0.53136802 93 97 95
0.56990335 -0.30971048 0.89907381 85 87 87
0.56964378 -0.29004094 0.53136802 92 94 93
0.56991350 -0.28951400 0.89908983 82 83 86
0.56964378 -0.26983555 0.53136802 89 92 91
0.56799384 -0.27588308 0.71479821 84 93 92
0.56991679 -0.27009052 0.89909503 81 83 85
0.56964378 -0.25008938 0.53136802 87 90 90
0.56991855 -0.25066613 0.89909780 80 79 84
0.56964378 -0.23034321 0.53136802 85 88 87
0.56991967 -0.23046435 0.89909956 79 79 83
0.56964378 -0.21013782 0.53136802 82 86 86
0.56992040 -0.21026235 0.89910071 78 78 81
0.57105675 -0.19936397 0.53136802 81 83 84
0.56992112 -0.19006029 0.89910185 76 76 82
0.56992165 -0.16985813 0.89910269 75 77 82
0.56992209 -0.14965590 0.89910338 76 76 80
0.56992252 -0.12945365 0.89910407 57 57 57
0.56992271 -0.11002832 0.89910436 47 45 46
0.56992279 -0.09060297 0.89910449 48 46 47
0.56992287 -0.07040060 0.89910462 50 48 48
0.56992293 -0.05019822 0.89910471 52 47 48
0.56992310 -0.02999584 0.89910499 96 90 90
0.56992338 -0.00979346 0.89910542 128 125 124
0.56992350 0.01040895 0.89910562 109 107 107
0.56992357 0.03061136 0.89910573 108 105 104
0.56992362 0.05003676 0.89910580 102 99 98
0.56992365 0.06946216 0.89910585 111 105 105
0.56992368 0.08966457 0.89910589 102 97 95
0.56992369 0.10986699 0.89910591 93 92 91
0.56992370 0.13006940 0.89910593 83 82 83
0.56992372 0.15027182 0.89910597 86 83 82
0.56992372 0.17047424 0.89910597 119 111 106
0.56992372 0.18989964 0.89910597 127 123 111
0.56992374 0.20932504 0.89910598 106 102 98
0.56992376 0.22952747 0.89910603 128 124 118
0.56992376 0.24972988 0.89910603 109 103 94
0.56992376 0.26993230 0.89910603 93 90 88
0.56992376 0.29013472 0.89910603 127 124 117
0.56992376 0.31033713 0.89910603 87 81 78
0.56992376 0.33053955 0.89910603 100 96 92
0.56992376 0.34996495 0.89910603 110 103 98
0.56992376 0.36939035 0.89910603 115 110 105
0.56992376 0.38959276 0.89910603 121 113 108
0.56992379 0.40979520 0.89910607 14 12 12
0.56992380 0.42999763 0.89910609 0 0 0
0.56992380 0.45020004 0.89910609 0 0 0
0.56992380 0.47040246 0.89910609 0 0 0
0.56992380 0.49060488 0.89910609 0 0 0
0.56992380 0.50614520 0.89910609 0 0 0
0.58933551 -0.60367026 0.89910530 34 36 34
0.58313271 -0.59877127 0.89910553 87 92 90
0.58984917 -0.34927945 0.53136802 100 103 101
0.58984917 -0.32999250 0.53136802 97 99 96
0.59006507 -0.32588325 0.89854112 85 87 89
0.58984917 -0.31024632 0.53136802 91 92 91
0.58793754 -0.31284840 0.84461486 87 88 87
0.59010559 -0.30971078 0.89907465 84 87 88
0.58984917 -0.29004094 0.53136802 88 90 89
0.59011576 -0.28951410 0.89909015 83 84 87
0.58984917 -0.26983555 0.53136802 87 90 89
0.59011904 -0.27009055 0.89909514 81 83 84
0.58984917 -0.25008938 0.53136802 84 87 87
0.59012079 -0.25066613 0.89909781 79 81 85
0.58984917 -0.23034321 0.53136802 82 85 84
0.59012202 -0.23046438 0.89909968 79 80 82
0.58984917 -0.21013782 0.53136802 81 84 84
0.59012281 -0.21026239 0.89910090 78 79 81
0.59241858 -0.19581474 0.53136802 78 80 80
0.59012354 -0.19006033 0.89910201 77 78 81
0.59012405 -0.16985815 0.89910279 75 77 82
0.59012449 -0.14965592 0.89910345 76 77 79
0.59012490 -0.12945365 0.89910408 58 56 56
0.59012508 -0.11002832 0.89910436 48 47 46
0.59012518 -0.09060297 0.89910450 49 48 47
0.59012526 -0.07040060 0.89910463 53 50 50
0.59012533 -0.05019822 0.89910473 53 49 49
0.59012551 -0.02999584 0.89910501 92 88 88
0.59012578 -0.00979346 0.89910542 130 127 124
0.59012592 0.01040895 0.89910562 109 108 107
0.59012599 0.03061136 0.89910574 103 100 101
0.59012603 0.05003676 0.89910580 107 105 103
0.59012606 0.06946216 0.89910585 114 110 106
0.59012609 0.08966457 0.89910589 106 100 97
0.59012610 0.10986699 0.89910591 95 93 90
0.59012612 0.13006940 0.89910593 90 87 84
0.59012614 0.15027182 0.89910597 88 86 84
0.59012614 0.17047424 0.89910597 127 122 112
0.59012614 0.18989964 0.89910597 119 112 104
0.59012615 0.20932504 0.89910599 124 120 112
0.59012618 0.22952747 0.89910603 115 109 101
0.59012618 0.24972988 0.89910603 119 116 109
0.59012618 0.26993230 0.89910603 106 102 99
0.59012618 0.29013472 0.89910603 113 106 101
0.59012618 0.31033713 0.89910603 98 93 87
0.59012618 0.33053955 0.89910603 101 99 97
0.59012618 0.34996495 0.89910603 122 117 110
0.59012618 0.36939035 0.89910603 109 103 98
0.59012618 0.38959276 0.89910603 84 79 77
0.59012621 0.40979520 0.89910607 23 22 21
0.59012622 0.42999763 0.89910609 0 0 0
0.59012622 0.45020004 0.89910609 0 0 0
0.59012622 0.47040246 0.89910609 0 0 0
0.59012622 0.49060488 0.89910609 0 0 0
0.59012622 0.50614520 0.89910609 0 0 0
0.60372349 -0.60537576 0.89910533 74 83 75
0.61005455 -0.34927945 0.53136802 93 97 95
0.61005455 -0.32999250 0.53136802 91 95 93
0.60993978 -0.32560398 0.89802640 85 89 90
0.61005455 -0.31024632 0.53136802 87 89 88
0.61793429 -0.31919760 0.85378808 87 86 85
0.61030850 -0.30971139 0.89907642 85 87 88
0.61005455 -0.29004094 0.53136802 84 85 86
0.61031823 -0.28951430 0.89909076 84 86 86
0.61005455 -0.26983555 0.53136802 82 85 85
0.61688010 -0.27030574 0.68802309 92 92 92
0.61115533 -0.27731083 0.70897257 90 91 93
0.61032132 -0.27009060 0.89909530 82 84 85
0.61005455 -0.25008938 0.53136802 82 84 84
0.61032306 -0.25066615 0.89909787 79 81 85
0.61005455 -0.23034321 0.53136802 79 82 84
0.61641841 -0.23776433 0.62160194 92 96 95
0.61032431 -0.23046439 0.89909971 78 80 84
0.61005455 -0.21013782 0.53136802 79 81 81
0.61032519 -0.21026242 0.89910100 78 79 82
0.61076650 -0.19196625 0.53137623 76 78 79
0.61032591 -0.19006034 0.89910207 76 77 81
0.61032643 -0.16985816 0.89910283 76 78 80
0.61032687 -0.14965592 0.89910348 75 77 79
0.61032726 -0.12945364 0.89910406 56 56 56
0.61032746 -0.11002832 0.89910435 48 47 47
0.61032756 -0.09060297 0.89910450 50 48 47
0.61032765 -0.07040060 0.89910464 55 49 50
0.61032772 -0.05019822 0.89910474 54 51 50
0.61032792 -0.02999585 0.89910504 91 87 85
0.61032820 -0.00979346 0.89910544 128 126 122
0.61032832 0.01040895 0.89910563 117 115 112
0.61032840 0.03061136 0.89910574 102 101 100
0.61032844 0.05003676 0.89910580 105 104 103
0.61032847 0.06946216 0.89910585 116 113 108
0.61032850 0.08966457 0.89910589 105 103 99
0.61032851 0.10986699 0.89910591 90 90 87
0.61032854 0.13006941 0.89910594 83 83 82
0.61032855 0.15027182 0.89910597 78 76 76
0.61032855 0.17047424 0.89910597 114 110 101
0.61032855 0.18989964 0.89910597 123 117 108
0.61032857 0.20932504 0.89910599 119 113 104
0.61032859 0.22952747 0.89910603 125 120 111
0.61032859 0.24972988 0.89910603 129 125 118
0.61032859 0.26993230 0.89910603 109 102 94
0.61032859 0.29013472 0.89910603 100 98 92
0.61032859 0.31033713 0.89910603 122 114 107
0.61032859 0.33053955 0.89910603 111 109 103
0.61032859 0.34996495 0.89910603 95 90 87
0.61032859 0.36939035 0.89910603 104 99 91
0.61032859 0.38959276 0.89910603 109 103 98
0.61032862 0.40979520 0.89910607 44 43 43
0.61032864 0.42999763 0.89910609 0 0 0
0.61032864 0.45020004 0.89910609 0 0 0
0.61032864 0.47040246 0.89910609 0 0 0
0.61032864 0.49060488 0.89910609 0 0 0
0.61032864 0.50614520 0.89910609 0 0 0
0.63025994 -0.34927945 0.53136802 88 91 90
0.63025994 -0.32999250 0.53136802 87 89 88
0.63047979 -0.32637285 0.89865676 88 88 88
0.63025994 -0.31024632 0.53136802 82 85 85
0.63051209 -0.30971230 0.89907904 87 88 90
0.63025994 -0.29004094 0.53136802 81 82 83
0.63052083 -0.28951454 0.89909151 84 87 87
0.63025994 -0.26983555 0.53136802 79 81 82
0.62004261 -0.27581320 0.70514375 90 89 91
0.63052384 -0.27009075 0.89909579 84 84 86
0.63025994 -0.25008938 0.53136802 79 80 82
0.63052550 -0.25066623 0.89909816 79 81 84
0.63025994 -0.23034321 0.53136802 77 79 81
0.63052670 -0.23046443 0.89909987 79 81 83
0.63025994 -0.21013782 0.53136802 76 78 80
0.62988125 -0.21843208 0.58426100 85 86 87
0.63052753 -0.21026243 0.89910106 78 79 82
0.62970076 -0.19071445 0.53136802 75 76 78
0.63052824 -0.19006034 0.89910208 76 77 81
0.63052877 -0.16985816 0.89910283 76 79 82
0.63052923 -0.14965592 0.89910348 76 77 80
0.63052962 -0.12945364 0.89910404 56 55 55
0.63052983 -0.11002832 0.89910434 50 47 46
0.63052994 -0.09060297 0.89910450 51 48 48
0.63053004 -0.07040060 0.89910464 54 50 50
0.63053011 -0.05019822 0.89910474 56 52 52
0.63053033 -0.02999585 0.89910505 94 90 90
0.63053060 -0.00979346 0.89910544 127 126 122
0.63053073 0.01040895 0.89910563 125 124 119
0.63053081 0.03061136 0.89910574 101 101 100
0.63053085 0.05003676 0.89910580 105 105 102
0.63053089 0.06946216 0.89910585 119 116 112
0.63053092 0.08966457 0.89910589 103 99 96
0.63053093 0.10986699 0.89910591 97 94 93
0.63053095 0.13006941 0.89910594 80 78 78
0.63053097 0.15027182 0.89910597 84 82 81
0.63053097 0.17047424 0.89910597 108 104 95
0.63053097 0.18989964 0.89910597 111 107 98
0.63053099 0.20932504 0.89910599 118 115 106
0.63053101 0.22952747 0.89910603 124 119 110
0.63053101 0.24972988 0.89910603 114 109 101
0.63053101 0.26993230 0.89910603 114 108 99
0.63053101 0.29013472 0.89910603 128 125 117
0.63053101 0.31033713 0.89910603 121 114 108
0.63053101 0.33053955 0.89910603 101 97 91
0.63053101 0.34996495 0.89910603 112 107 96
0.63053101 0.36939035 0.89910603 111 103 94
0.63053101 0.38959276 0.89910603 108 103 98
0.63053104 0.40979520 0.89910607 67 65 60
0.63053105 0.42999763 0.89910609 0 0 0
0.63053105 0.45020004 0.89910609 0 0 0
0.63053105 0.47040246 0.89910609 0 0 0
0.63053105 0.49060488 0.89910609 0 0 0
0.63053105 0.50614520 0.89910609 0 0 0
0.64538981 -0.34884441 0.53136802 86 86 86
0.64587319 -0.32999250 0.53136802 84 86 85
0.65401067 -0.32030380 0.84889776 83 87 85
0.65052505 -0.32766233 0.89849701 87 88 88
0.64587319 -0.31024632 0.53136802 80 83 83
0.64993865 -0.30971314 0.89908145 85 88 89
0.64587319 -0.29004094 0.53136802 79 79 80
0.64994649 -0.28951480 0.89909230 85 86 88
0.64576640 -0.27003846 0.53136802 77 79 79
0.64994929 -0.27009086 0.89909618 82 85 86
0.64495477 -0.25008938 0.53136802 75 78 79
0.64995089 -0.25066629 0.89909839 79 82 83
0.64495477 -0.23034321 0.53136802 76 77 80
0.64995203 -0.23046445 0.89909997 78 81 83
0.64493589 -0.21018185 0.53136802 74 76 78
0.64995284 -0.21026244 0.89910109 79 79 83
0.64440578 -0.19318836 0.53136802 74 75 76
0.64995355 -0.19006034 0.89910206 76 77 82
0.64995410 -0.16985815 0.89910282 77 78 82
0.64995455 -0.14965592 0.89910346 77 78 80
0.64995497 -0.12945364 0.89910403 55 53 53
0.64995519 -0.11002832 0.89910434 50 46 46
0.64995531 -0.09060297 0.89910450 50 49 47
0.64995541 -0.07040060 0.89910464 54 50 50
0.64995549 -0.05019822 0.89910475 56 53 52
0.64995572 -0.02999585 0.89910508 96 93 91
0.64995599 -0.00979346 0.89910545 128 125 122
0.64995613 0.01040895 0.89910563 131 129 125
0.64995620 0.03061136 0.89910574 100 99 99
0.64995625 0.05003676 0.89910580 107 106 106
0.64995628 0.06946216 0.89910585 125 122 117
0.64995632 0.08966457 0.89910589 114 110 107
0.64995633 0.10986699 0.89910591 94 91 89
0.64995635 0.13006941 0.89910594 85 82 82
0.64995637 0.15027182 0.89910597 85 84 82
0.64995637 0.17047424 0.89910597 113 107 98
0.64995637 0.18989964 0.89910597 123 119 113
0.64995639 0.20932504 0.89910599 131 128 119
0.64995641 0.22952747 0.89910603 114 107 101
0.64995641 0.24972988 0.89910603 128 127 115
0.64995641 0.26993230 0.89910603 117 110 102
0.64995641 0.29013472 0.89910603 128 123 116
0.64995641 0.31033713 0.89910603 115 107 102
0.64995641 0.33053955 0.89910603 112 105 97
0.64995641 0.34996495 0.89910603 126 124 117
0.64995641 0.36939035 0.89910603 112 110 104
0.64995641 0.38959276 0.89910603 122 115 107
0.64995644 0.40979520 0.89910607 83 76 70
0.64995645 0.42999763 0.89910609 0 0 0
0.64995645 0.45020004 0.89910609 0 0 0
0.64995645 0.47040246 0.89910609 0 0 0
0.64995645 0.49060488 0.89910609 0 0 0
0.64995645 0.50614520 0.89910609 0 0 0
0.67682303 -0.32802953 0.84990686 85 93 91
0.66969537 -0.32815266 0.89861300 86 88 89
0.66936453 -0.30971361 0.89908281 84 88 89
0.66937195 -0.28951495 0.89909277 84 88 88
0.66937463 -0.27009092 0.89909638 83 85 87
0.66937630 -0.25066636 0.89909862 80 82 86
0.66937735 -0.23046447 0.89910003 79 80 84
0.66937814 -0.21026244 0.89910110 78 79 80
0.66937883 -0.19006033 0.89910202 77 78 82
0.66937940 -0.16985815 0.89910279 76 78 82
0.66937988 -0.14965591 0.89910343 78 79 81
0.66938033 -0.12945364 0.89910404 54 53 53
0.66938056 -0.11002832 0.89910434 49 47 47
0.66938068 -0.09060297 0.89910450 51 49 48
0.66938078 -0.07040060 0.89910464 54 51 49
0.66938086 -0.05019822 0.89910475 57 53 52
0.66938111 -0.02999585 0.89910509 104 97 94
0.66938139 -0.00979346 0.89910546 127 126 123
0.66938152 0.01040895 0.89910564 131 127 124
0.66938160 0.03061136 0.89910575 103 102 101
0.66938165 0.05003676 0.89910580 106 106 104
0.66938168 0.06946216 0.89910585 130 126 119
0.66938172 0.08966457 0.89910590 106 104 100
0.66938172 0.10986699 0.89910591 87 87 86
0.66938175 0.13006941 0.89910594 84 85 83
0.66938177 0.15027182 0.89910597 83 83 83
0.66938177 0.17047424 0.89910597 109 105 100
0.66938177 0.18989964 0.89910597 119 116 107
0.66938179 0.20932504 0.89910599 118 111 105
0.66938181 0.22952747 0.89910603 126 123 113
0.66938181 0.24972988 0.89910603 128 125 115
0.66938181 0.26993230 0.89910603 122 119 112
0.66938181 0.29013472 0.89910603 101 97 91
0.66938181 0.31033713 0.89910603 120 118 110
0.66938181 0.33053955 0.89910603 122 116 110
0.66938181 0.34996495 0.89910603 125 117 113
0.66938181 0.36939035 0.89910603 125 120 113
0.66938181 0.38959276 0.89910603 100 95 93
0.66938184 0.40979520 0.89910607 79 71 67
0.66938186 0.42999763 0.89910609 0 0 0
0.66938186 0.45020004 0.89910609 0 0 0
0.66938186 0.47040246 0.89910609 0 0 0
0.66938186 0.49060488 0.89910609 0 0 0
0.66938186 0.50614520 0.89910609 0 0 0
0.69347507 -0.33600696 0.87844372 80 83 82
0.68979210 -0.32931850 0.89871089 85 89 89
0.68679337 -0.31100789 0.79512244 94 95 97
0.68956786 -0.30971426 0.89908468 85 88 89
0.68957462 -0.28951518 0.89909350 86 88 88
0.68957722 -0.27009108 0.89909688 84 85 86
0.68957879 -0.25066644 0.89909893 82 83 86
0.68957979 -0.23046452 0.89910023 78 81 84
0.68958052 -0.21026246 0.89910119 78 79 83
0.68958118 -0.19006034 0.89910205 77 78 81
0.68958175 -0.16985815 0.89910279 76 77 81
0.68958225 -0.14965591 0.89910345 78 78 81
0.68958271 -0.12945364 0.89910405 55 54 55
0.68958294 -0.11002832 0.89910434 48 47 47
0.68958306 -0.09060297 0.89910450 50 49 48
0.68958316 -0.07040060 0.89910463 52 51 49
0.68958325 -0.05019822 0.89910476 57 55 53
0.68958352 -0.02999585 0.89910511 102 98 96
0.68958380 -0.00979346 0.89910546 123 121 118
0.68958393 0.01040895 0.89910564 126 124 122
0.68958401 0.03061136 0.89910575 105 105 101
0.68958406 0.05003676 0.89910581 105 105 102
0.68958409 0.06946216 0.89910585 130 128 119
0.68958413 0.08966457 0.89910590 109 106 100
0.68958414 0.10986699 0.89910591 93 94 93
0.68958416 0.13006941 0.89910594 85 85 82
0.68958418 0.15027182 0.89910597 92 92 90
0.68958418 0.17047424 0.89910597 123 122 112
0.68958418 0.18989964 0.89910597 118 115 105
0.68958420 0.20932504 0.89910599 123 118 109
0.68958423 0.22952747 0.89910603 130 126 116
0.68958423 0.24972988 0.89910603 115 109 100
0.68958423 0.26993230 0.89910603 115 111 106
0.68958423 0.29013472 0.89910603 109 108 103
0.68958423 0.31033713 0.89910603 131 128 120
0.68958423 0.33053955 0.89910603 113 110 103
0.68958423 0.34996495 0.89910603 109 102 97
0.68958423 0.36939035 0.89910603 109 103 96
0.68958423 0.38959276 0.89910603 98 92 88
0.68958426 0.40979520 0.89910607 91 84 81
0.68958427 0.42999763 0.89910609 0 0 0
0.68958427 0.45020004 0.89910609 0 0 0
0.68958427 0.47040246 0.89910609 0 0 0
0.68958427 0.49060488 0.89910609 0 0 0
0.68958427 0.50614520 0.89910609 0 0 0
0.71393495 -0.34256979 0.89720896 86 88 87
0.70971977 -0.32988877 0.89896268 86 88 88
0.70977012 -0.30971440 0.89908509 86 88 89
0.70094053 -0.29021801 0.74858689 89 90 92
0.70977691 -0.28951525 0.89909370 86 87 88
0.70977959 -0.27009114 0.89909709 84 85 87
0.70978117 -0.25066649 0.89909909 82 82 84
0.70978220 -0.23046457 0.89910040 81 82 82
0.70978297 -0.21026250 0.89910137 78 81 82
0.70978360 -0.19006036 0.89910217 78 79 80
0.70978413 -0.16985816 0.89910285 77 80 80
0.70978465 -0.14965592 0.89910350 77 79 81
0.70978511 -0.12945365 0.89910409 53 52 51
0.70978532 -0.11002832 0.89910435 48 47 47
0.70978543 -0.09060297 0.89910449 52 48 49
0.70978555 -0.07040060 0.89910464 52 51 49
0.70978564 -0.05019822 0.89910476 59 55 54
0.70978593 -0.02999585 0.89910512 109 103 100
0.70978621 -0.00979346 0.89910548 124 122 119
0.70978635 0.01040895 0.89910565 130 129 126
0.70978643 0.03061136 0.89910575 105 104 101
0.70978647 0.05003676 0.89910581 108 107 106
0.70978650 0.06946216 0.89910585 121 117 113
0.70978655 0.08966457 0.89910590 100 98 97
0.70978655 0.10986699 0.89910591 96 93 91
0.70978658 0.13006941 0.89910594 88 87 85
0.70978660 0.15027182 0.89910597 85 82 81
0.70978660 0.17047424 0.89910597 120 113 102
0.70978660 0.18989964 0.89910597 123 119 111
0.70978662 0.20932504 0.89910600 119 116 105
0.70978664 0.22952747 0.89910603 108 104 96
0.70978664 0.24972988 0.89910603 118 114 109
0.70978664 0.26993230 0.89910603 105 104 100
0.70978664 0.29013472 0.89910603 127 122 117
0.70978664 0.31033713 0.89910603 130 125 117
0.70978664 0.33053955 0.89910603 126 119 112
0.70978664 0.34996495 0.89910603 92 85 83
0.70978664 0.36939035 0.89910603 90 86 82
0.70978664 0.38959276 0.89910603 104 102 98
0.70978668 0.40979520 0.89910608 112 110 106
0.70978669 0.42999763 0.89910609 6 6 6
0.70978669 0.45020004 0.89910609 0 0 0
0.70978669 0.47040246 0.89910609 0 0 0
0.70978669 0.49060488 0.89910609 0 0 0
0.70978669 0.50614520 0.89910609 0 0 0
0.72999920 -0.34449994 0.89864719 87 90 90
0.72944999 -0.32511990 0.83120120 90 89 91
0.72994999 -0.32990629 0.89905788 88 89 88
0.72997283 -0.30971473 0.89908604 87 88 87
0.72997916 -0.28951529 0.89909383 86 87 88
0.72998198 -0.27009120 0.89909731 82 86 88
0.72998355 -0.25066653 0.89909924 82 83 84
0.72998460 -0.23046460 0.89910054 81 81 83
0.72998544 -0.21026255 0.89910156 79 80 81
0.72998604 -0.19006039 0.89910230 78 79 80
0.72998655 -0.16985818 0.89910294 77 79 80
0.72998706 -0.14965593 0.89910356 79 79 80
0.72998752 -0.12945366 0.89910413 53 51 52
0.72998772 -0.11002833 0.89910437 49 48 48
0.72998783 -0.09060298 0.89910451 52 48 48
0.72998794 -0.07040060 0.89910465 51 50 47
0.72998804 -0.05019823 0.89910477 60 56 54
