ply
format ascii 1.0
element vertex 1050
property float x
property float y
property float z
property uchar red
property uchar green
property uchar blue
end_header
-0.45000835 -0.55045063 0.96416986 0 0 0
-0.44785901 -0.52775374 0.95834414 0 0 0
-0.45037306 -0.53518971 0.96109908 0 0 0
-0.45906711 -0.51223910 0.93107432 153 158 156
-0.44118953 -0.49057111 0.89168936 177 184 182
-0.44012436 -0.46181001 0.83417022 202 210 205
-0.45581646 -0.47664561 0.85828823 149 150 151
-0.45329820 -0.44111190 0.78695542 195 206 204
-0.44574722 -0.45864716 0.82459879 184 187 187
-0.45261927 -0.40583758 0.71303177 199 203 203
-0.44981306 -0.41441249 0.73254645 201 211 204
-0.45551982 -0.38490986 0.67015779 197 204 199
-0.44625197 -0.35880785 0.61728179 205 206 204
-0.45566999 -0.24195193 0.47564930 168 174 173
-0.44611187 -0.20159068 0.47598811 190 193 193
-0.44925515 -0.20294113 0.49096713 193 194 194
-0.44947849 -0.20492053 0.51023204 198 200 200
-0.44982562 -0.20798613 0.52987022 200 202 203
-0.45021213 -0.21016415 0.55017986 202 207 207
-0.44979221 -0.21089666 0.57022997 203 207 206
-0.45005589 -0.21060846 0.59011404 203 208 207
-0.44981941 -0.20992056 0.60958518 207 210 210
-0.45011877 -0.20884916 0.62994865 202 207 207
-0.44973282 -0.20622889 0.65056420 205 208 207
-0.45026939 -0.20234161 0.66915383 203 207 206
-0.44203407 -0.19943655 0.47426326 190 192 191
-0.45025261 -0.19980795 0.67880345 205 209 210
-0.44978577 -0.19602219 0.69014059 203 207 207
-0.45002113 -0.18814523 0.71022990 204 209 208
-0.45014633 -0.18181869 0.72392193 206 209 209
-0.44969645 -0.17629614 0.73388796 203 206 206
-0.45011275 -0.16636891 0.74958932 202 205 205
-0.44865990 -0.15924310 0.75952787 205 207 207
-0.45003716 -0.15094662 0.77017951 205 208 209
-0.44977340 -0.14156682 0.78139971 209 211 211
-0.44987275 -0.13189050 0.79147286 207 210 211
-0.45029115 -0.12170287 0.80104209 207 207 208
-0.45003653 -0.11040887 0.81028113 205 208 208
-0.44873427 -0.09862137 0.81900622 203 206 206
-0.45011158 -0.08886078 0.82585428 200 202 202
-0.44967921 -0.07316702 0.83587479 197 198 196
-0.45065802 -0.06284830 0.84191926 195 195 194
-0.45002119 -0.04962858 0.84913957 208 208 207
-0.44960685 -0.03415609 0.85721463 208 209 206
-0.45035449 -0.02474544 0.86194946 211 211 211
-0.45003181 -0.01023275 0.86837543 207 207 207
-0.44960793 0.00905864 0.87645288 209 212 211
-0.45352171 0.01848069 0.88055433 206 209 210
-0.45001586 0.03013911 0.88480061 206 209 209
-0.45001358 0.05047901 0.89227231 202 203 203
-0.44918530 0.06733180 0.89785463 203 204 203
-0.45154256 0.07651992 0.90104754 209 210 210
-0.44987940 0.08976025 0.90518281 207 206 205
-0.45019889 0.11005114 0.91148892 209 210 209
-0.44958518 0.12952308 0.91735674 203 204 204
-0.45388214 0.13882057 0.92032676 206 209 207
-0.44994711 0.15036952 0.92337329 206 205 205
-0.44994709 0.17052516 0.92899343 199 193 194
-0.44995420 0.19004018 0.93431622 184 173 177
-0.44937024 0.20657592 0.93839416 176 158 165
-0.45134443 0.21660394 0.94076631 162 148 153
-0.45013430 0.23035143 0.94356054 152 135 144
-0.45004776 0.25011682 0.94750871 129 116 127
-0.45015599 0.27000179 0.95134740 112 102 112
-0.45011642 0.28997150 0.95505698 102 95 103
-0.44956572 0.30677356 0.95852234 109 95 106
-0.45075779 0.31645497 0.96051889 105 94 106
-0.44999543 0.32984243 0.96288141 102 99 105
-0.45000610 0.35014529 0.96626253 103 103 108
-0.45012921 0.36963619 0.96929887 102 103 106
-0.44995239 0.38935488 0.97223052 104 103 108
-0.44988123 0.40999385 0.97512961 113 111 117
-0.45004122 0.43039844 0.97772984 115 116 118
-0.44951347 0.44455089 0.97946513 117 118 119
-0.45051718 0.45425371 0.98065114 115 114 120
-0.44998859 0.47008447 0.98274808 113 113 117
-0.45016602 0.49083931 0.99253200 2 2 2
-0.44977179 0.50984732 0.99693790 0 0 0
-0.45050975 0.52564619 0.99923606 0 0 0
-0.44959370 0.53583131 1.00050703 0 0 0
-0.44991275 0.55026450 1.00208684 0 0 0
-0.45004595 0.56575442 1.00363358 0 0 0
-0.42994646 -0.64912698 0.97467609 0 0 0
-0.43033767 -0.62979288 0.97347625 0 0 0
-0.42967409 -0.61034291 0.97197496 0 0 0
-0.43024416 -0.59047970 0.96995770 0 0 0
-0.42994851 -0.57062280 0.96727074 0 0 0
-0.43003471 -0.55041371 0.96405962 0 0 0
-0.42904585 -0.52796590 0.95822822 0 0 0
-0.43051682 -0.53651206 0.96107861 0 0 0
-0.42555973 -0.50176975 0.91781157 128 129 125
-0.42616090 -0.50767489 0.92795930 27 27 26
-0.42274843 -0.51805864 0.95001209 33 35 34
-0.42038522 -0.48813748 0.89006215 45 46 46
-0.42356383 -0.49558537 0.90506724 84 86 83
-0.43586723 -0.47135635 0.85408032 202 211 208
-0.43224299 -0.44192698 0.79577094 193 199 197
-0.43656599 -0.45066170 0.81149942 199 204 202
-0.42969287 -0.43243777 0.77627093 198 202 198
-0.42452165 -0.40348632 0.71761757 205 212 212
-0.42657546 -0.40964269 0.72856693 195 200 194
-0.43455106 -0.36643290 0.63607383 198 206 195
-0.43847796 -0.37511786 0.65508050 198 208 198
-0.42971993 -0.34346424 0.59088513 197 204 201
-0.43540902 -0.34925458 0.60084665 203 204 201
-0.43039789 -0.33545718 0.57539824 199 207 205
-0.42540097 -0.33840311 0.58217812 197 207 204
-0.43571600 -0.31623003 0.53606230 198 199 195
-0.43711008 -0.22343961 0.45792800 151 134 140
-0.43393611 -0.20741406 0.45833352 168 155 181
-0.43742053 -0.20650720 0.46550676 185 189 189
-0.43128746 -0.20118606 0.49291391 198 199 198
-0.42954368 -0.20456833 0.51009341 200 204 203
-0.42991917 -0.20731686 0.52990663 204 206 207
-0.42994393 -0.20895729 0.55008344 206 209 208
-0.43023087 -0.20977155 0.56983626 204 210 208
-0.42985540 -0.21022777 0.58969219 204 209 208
-0.43019875 -0.21016260 0.61001405 204 207 205
-0.43009608 -0.20883940 0.62993137 204 207 206
-0.43004337 -0.20588240 0.64984683 208 212 211
-0.43022014 -0.20198927 0.66821595 205 208 207
-0.42491332 -0.19559337 0.45564161 192 193 194
-0.42926792 -0.19749519 0.47016074 194 195 196
-0.42802769 -0.19923428 0.48498128 197 198 198
-0.42835093 -0.19929187 0.67810933 195 201 198
-0.42967529 -0.19533478 0.69004627 204 206 207
-0.43008951 -0.18746255 0.71005631 206 209 209
-0.43039911 -0.18157167 0.72256711 200 207 206
-0.42982145 -0.17594662 0.73258822 201 207 207
-0.43022141 -0.16573530 0.74910190 205 208 209
-0.42825740 -0.15885700 0.75888056 207 208 209
-0.43009758 -0.15013633 0.77009843 207 211 211
-0.43170699 -0.14106779 0.78084126 206 207 207
-0.42988852 -0.13098684 0.79112039 210 212 212
-0.43064155 -0.12090322 0.80063299 209 212 213
-0.43002689 -0.11018655 0.80925549 203 205 204
-0.42916173 -0.09763890 0.81841110 204 205 204
-0.43012031 -0.08784300 0.82516315 196 197 196
-0.42974472 -0.07199059 0.83520524 200 201 199
-0.43082097 -0.06168222 0.84127356 202 203 203
-0.43001804 -0.04950431 0.84796646 210 211 210
-0.42949387 -0.03251535 0.85657074 204 204 204
-0.43139122 -0.02321461 0.86114904 204 204 204
-0.42995503 -0.01025461 0.86656824 203 204 204
-0.43000420 0.01006735 0.87481358 207 208 208
-0.42706582 0.02216372 0.87906301 204 204 206
-0.43051093 0.03168290 0.88372574 211 207 209
-0.42998727 0.05025894 0.89055764 210 204 206
-0.42974871 0.06966821 0.89692087 216 200 204
-0.43663469 0.07863211 0.90030483 202 201 201
-0.42096589 0.08115472 0.89952084 222 192 202
-0.43041756 0.09019626 0.90370588 213 192 197
-0.43067461 0.11036108 0.90988097 208 186 193
-0.43047715 0.12996815 0.91556610 200 175 182
-0.42497933 0.14655980 0.91830281 178 145 156
-0.43339548 0.15174467 0.92230567 208 178 186
-0.43011832 0.16996143 0.92589639 189 162 171
-0.42986247 0.19001204 0.93073403 184 147 158
-0.42964793 0.20995663 0.93552421 173 140 151
-0.43914942 0.21887179 0.94011176 204 160 172
-0.42625186 0.22719539 0.93854292 156 125 134
-0.43394223 0.23250340 0.94151268 160 133 141
-0.42997402 0.24994428 0.94416492 146 120 128
-0.42997527 0.26995157 0.94819173 137 114 121
-0.43002258 0.28964421 0.95230542 132 109 118
-0.43039173 0.30725269 0.95834074 174 142 156
-0.42843935 0.31651945 0.96043886 168 150 156
-0.42992231 0.32980178 0.96266255 156 155 157
-0.43005435 0.35011685 0.96596986 154 154 155
-0.43007503 0.36967419 0.96909376 136 136 138
-0.42980197 0.38936910 0.97210590 135 135 138
-0.42989444 0.40990299 0.97502607 153 155 158
-0.43027787 0.43023397 0.97765364 151 152 153
-0.42958498 0.44471461 0.97943312 154 155 155
-0.43008593 0.45455488 0.98057483 155 155 156
-0.43016834 0.46906618 0.98311686 127 128 130
-0.42979253 0.49001147 0.99347354 0 0 0
-0.43009623 0.50944530 0.99716985 0 0 0
-0.42998625 0.52477338 0.99940535 0 0 0
-0.43000192 0.53490342 1.00066440 0 0 0
-0.42987009 0.55059508 1.00238340 0 0 0
-0.42991641 0.56602181 1.00392692 0 0 0
-0.41032173 -0.64885175 0.97457909 0 0 0
-0.41010172 -0.62972390 0.97336952 0 0 0
-0.40967240 -0.61041494 0.97184084 0 0 0
-0.41027463 -0.59054037 0.96980110 0 0 0
-0.41003466 -0.57048277 0.96707702 0 0 0
-0.40998493 -0.55021123 0.96374864 0 0 0
-0.40966688 -0.52711595 0.95749718 0 0 0
-0.40972277 -0.53681158 0.96064733 0 0 0
-0.40898169 -0.50839826 0.93437201 61 63 61
-0.40946286 -0.51790264 0.95152897 0 0 0
-0.41519731 -0.48035560 0.87587279 69 71 72
-0.41278192 -0.46735638 0.85217022 185 195 192
-0.41013449 -0.47459098 0.86627636 127 130 130
-0.41009162 -0.45775807 0.83466882 205 212 208
-0.41741698 -0.39557791 0.70355213 205 211 211
-0.41028509 -0.32369746 0.55687898 200 211 209
-0.41831670 -0.33081013 0.56911540 200 211 208
-0.40621151 -0.31919010 0.54749668 197 208 206
-0.41166925 -0.28651524 0.48286128 184 195 194
-0.40970651 -0.20134542 0.49387800 201 204 202
-0.41002783 -0.20409896 0.51056131 201 204 203
-0.40980194 -0.20638433 0.53047467 205 209 209
-0.40997071 -0.20817771 0.55029753 204 210 210
-0.40998411 -0.20968164 0.57010375 204 208 208
-0.41019969 -0.21048504 0.59016538 204 208 207
-0.40974345 -0.20990014 0.61016267 204 209 208
-0.41021671 -0.20809431 0.63028744 206 211 211
-0.40983148 -0.20506896 0.65034695 207 213 213
-0.41021854 -0.20164832 0.66677383 207 212 211
-0.41030368 -0.19280951 0.45487766 194 195 196
-0.40937120 -0.19580078 0.47030329 197 200 199
-0.41020378 -0.19916483 0.48386358 201 202 202
-0.40962165 -0.19902470 0.67661952 204 210 209
-0.41004930 -0.19464927 0.68997976 208 212 212
-0.40976583 -0.18656074 0.71020146 205 210 210
-0.41118969 -0.18100376 0.72193457 203 205 206
-0.40998059 -0.17553645 0.73189672 205 208 208
-0.41013497 -0.16578886 0.74775343 205 208 208
-0.40960587 -0.15880328 0.75771007 211 215 216
-0.41002479 -0.14909726 0.77007178 208 210 211
-0.41505338 -0.14066366 0.78026179 212 215 216
-0.40994082 -0.13033459 0.79056135 210 212 212
-0.41869173 -0.12073081 0.80010137 203 209 209
-0.40995908 -0.11013486 0.80804324 201 202 202
-0.40945148 -0.09662809 0.81780358 202 201 201
-0.41026362 -0.08673597 0.82452264 196 196 196
-0.40978871 -0.07073926 0.83449776 196 197 196
-0.41441270 -0.06063877 0.84071609 203 204 204
-0.40104385 -0.05995738 0.83989084 205 206 210
-0.40985026 -0.04965134 0.84618361 203 204 204
-0.40974132 -0.03045169 0.85559058 203 204 204
-0.41633354 -0.02169229 0.86034393 210 208 206
-0.40230798 -0.01939307 0.85965273 212 212 210
-0.41013337 -0.00993003 0.86447381 207 208 207
-0.40999599 0.01012641 0.87199059 204 204 203
-0.40980452 0.02311010 0.87735077 215 193 200
-0.41022871 0.03308961 0.88290598 199 158 172
-0.40979827 0.04984071 0.88654027 177 141 153
-0.40948213 0.07002360 0.89061156 178 132 146
-0.40855156 0.08911798 0.89608409 172 139 152
-0.41705917 0.09454303 0.90115657 168 133 145
-0.40312163 0.10529474 0.89865231 172 144 159
-0.41163651 0.11077222 0.90356419 169 136 150
-0.41049936 0.12995390 0.90857526 171 141 152
-0.41064699 0.15005980 0.91401613 171 142 153
-0.40653846 0.16823281 0.91651554 165 152 159
-0.41537699 0.17238785 0.92186792 167 136 146
-0.40258439 0.18571519 0.91847534 161 156 162
-0.41190878 0.19074040 0.92472918 163 140 149
-0.40986429 0.20994257 0.92828219 161 146 153
-0.40982318 0.23012129 0.93282581 160 147 153
-0.40764867 0.24924905 0.93596655 157 151 154
-0.41740523 0.25239405 0.94149661 153 130 137
-0.40422962 0.26598537 0.93845337 152 150 152
-0.41220986 0.27193564 0.94302437 149 141 147
-0.40975268 0.28963436 0.94798558 156 145 153
-0.41071160 0.30542515 0.95897829 210 177 188
-0.40902389 0.31493067 0.96076255 188 182 183
-0.40996620 0.32995954 0.96317428 183 183 183
-0.41006801 0.35026453 0.96627387 176 177 177
-0.41007440 0.36976409 0.96932988 173 173 176
-0.40980632 0.38938589 0.97230786 162 164 166
-0.40995904 0.40993538 0.97520205 181 182 181
-0.41028610 0.43046422 0.97781985 179 180 179
-0.40979627 0.44478335 0.97951927 179 180 180
-0.40962804 0.45448298 0.98059482 180 183 182
-0.41010205 0.46962191 0.98519960 104 104 106
-0.41007257 0.48990913 0.99407420 0 0 0
-0.41002308 0.50991770 0.99756744 0 0 0
-0.41027146 0.52369350 0.99954809 0 0 0
-0.40961921 0.53393648 1.00081925 0 0 0
-0.41006919 0.55039152 1.00261180 0 0 0
-0.41006235 0.56616080 1.00417346 0 0 0
-0.39035985 -0.64897316 0.97448479 0 0 0
-0.38987889 -0.62966862 0.97328409 0 0 0
-0.38993674 -0.61022394 0.97172305 0 0 0
-0.39010632 -0.59045922 0.96966784 0 0 0
-0.39012657 -0.57035491 0.96688156 0 0 0
-0.38993622 -0.55012703 0.96360179 0 0 0
-0.39004389 -0.52689839 0.95774572 0 0 0
-0.38981275 -0.53683145 0.96068307 0 0 0
-0.38120773 -0.50578686 0.93551758 64 66 62
-0.38808031 -0.51748549 0.95353797 0 0 0
-0.39182922 -0.48418674 0.88987160 92 96 92
-0.39379935 -0.49855510 0.91773438 44 46 44
-0.38100581 -0.44426873 0.81263363 192 200 200
-0.39052488 -0.43272401 0.78654325 201 210 207
-0.39517797 -0.43956460 0.80149513 204 210 207
-0.38890928 -0.40673904 0.73469520 203 209 206
-0.38346836 -0.38958026 0.70151103 199 203 204
-0.38903675 -0.36761158 0.65381283 203 209 209
-0.38213552 -0.37074983 0.66142762 198 205 204
-0.39756204 -0.32101078 0.55390394 197 200 199
-0.39017346 -0.20103727 0.49520197 202 206 205
-0.39006637 -0.20317278 0.50996775 204 208 208
-0.38983690 -0.20600530 0.53023368 206 210 210
-0.39010537 -0.20846373 0.55112030 205 209 207
-0.38980462 -0.20976034 0.57033720 203 206 205
-0.38978248 -0.21000792 0.59002183 201 203 202
-0.39022841 -0.20919663 0.60974279 201 204 203
-0.38987245 -0.20756696 0.62964129 204 208 207
-0.39012558 -0.20461119 0.64967853 206 211 210
-0.39026809 -0.20138327 0.66514833 209 211 212
-0.39075959 -0.19191045 0.45442609 198 200 200
-0.38983483 -0.19595910 0.46998373 200 204 203
-0.38928933 -0.19932557 0.48550066 201 204 203
-0.38976914 -0.19868730 0.67530896 208 212 211
-0.38970942 -0.19387030 0.69010563 208 211 211
-0.39021022 -0.18595915 0.71007308 206 211 210
-0.38994905 -0.18053700 0.72134730 207 210 211
-0.38990966 -0.17491435 0.73168517 209 212 212
-0.39000393 -0.16513603 0.74747565 206 209 210
-0.38981331 -0.15814425 0.75742359 208 210 211
-0.39006169 -0.14816630 0.77003095 209 212 212
-0.38312158 -0.13922819 0.77977538 217 221 222
-0.39014131 -0.12987859 0.78969733 207 211 211
-0.38831596 -0.11908318 0.79948527 205 207 207
-0.39007719 -0.10920184 0.80745180 198 201 201
-0.38970354 -0.09547570 0.81721603 197 198 199
-0.39030730 -0.08561557 0.82385679 197 197 198
-0.38997347 -0.07028417 0.83317793 198 198 197
-0.38796874 -0.05904017 0.83923872 206 207 206
-0.39030517 -0.04877557 0.84474880 207 208 208
-0.38996100 -0.02996467 0.85362875 207 209 209
-0.38815891 -0.01727944 0.85878640 201 201 198
-0.39066184 -0.00737111 0.86293486 202 202 201
-0.38991382 0.00998659 0.86880301 208 207 207
-0.38774475 0.02493280 0.87705738 205 159 174
-0.39159775 0.03364345 0.88107174 187 129 145
-0.38998914 0.04986112 0.88219137 176 116 133
-0.38981951 0.06993675 0.88447822 166 135 145
-0.38949828 0.09001172 0.88879005 164 162 166
-0.38958472 0.10987931 0.89376063 157 151 160
-0.38718826 0.12812116 0.89712701 161 159 165
-0.39542720 0.13344721 0.90168153 164 162 169
-0.38252293 0.14454137 0.89889643 158 158 161
-0.39140066 0.15076895 0.90432613 162 161 166
-0.38992758 0.17003258 0.90867984 159 157 163
-0.38989875 0.18999188 0.91431060 156 154 158
-0.39891701 0.19916787 0.92039227 162 157 162
-0.38582601 0.20715720 0.91794389 154 153 157
-0.39344135 0.21270513 0.92203702 156 155 158
-0.38992591 0.22995946 0.92553863 154 154 156
-0.39037532 0.24998390 0.93065077 153 152 154
-0.38978851 0.26985796 0.93519868 150 147 149
-0.38749765 0.28260938 0.93821440 152 150 152
-0.39051182 0.29291776 0.95237636 194 170 179
-0.39164433 0.30347590 0.95945061 210 180 188
-0.38925151 0.31280532 0.96112687 185 183 183
-0.38993106 0.33011294 0.96387096 195 196 196
-0.39003875 0.35048018 0.96686999 189 189 188
-0.39016406 0.36994871 0.96981438 179 181 182
-0.38980424 0.38955047 0.97271910 174 174 173
-0.39001793 0.41007527 0.97556297 179 180 180
-0.39011958 0.43059038 0.97810693 184 185 184
-0.39030551 0.44386422 0.97958754 181 181 180
-0.38969336 0.45387753 0.98071789 175 174 174
-0.39029692 0.46968912 0.98673691 71 72 71
-0.38975932 0.48992764 0.99467052 0 0 0
-0.38986996 0.51018570 0.99795713 0 0 0
-0.39113166 0.52268966 0.99970564 0 0 0
-0.38975958 0.53257566 1.00092616 0 0 0
-0.38991290 0.55091102 1.00291902 0 0 0
-0.39020596 0.56631094 1.00443979 0 0 0
-0.37009136 -0.64887351 0.97433522 0 0 0
-0.36964555 -0.62958944 0.97316179 0 0 0
-0.37020218 -0.61002642 0.97159505 0 0 0
-0.36995352 -0.59039403 0.96956093 0 0 0
-0.37018630 -0.57028171 0.96677907 0 0 0
-0.36992575 -0.55009114 0.96353916 0 0 0
-0.36983334 -0.52696148 0.95779027 0 0 0
-0.36985057 -0.53677911 0.96058941 0 0 0
-0.37128085 -0.50498618 0.93702993 131 132 129
-0.36950125 -0.51473525 0.95118408 12 12 12
-0.36964442 -0.48202191 0.89013239 63 62 63
-0.37565777 -0.49397173 0.91219968 21 20 20
-0.37603646 -0.49706385 0.92084897 181 180 180
-0.36770372 -0.46383734 0.85518309 145 152 145
-0.37072629 -0.47261510 0.87276116 186 191 188
-0.37185558 -0.47892439 0.88441231 126 129 128
-0.36856491 -0.39722880 0.71976393 202 211 207
-0.37111436 -0.32922244 0.57754385 203 206 206
-0.37326376 -0.33417134 0.58800122 202 207 206
-0.37127187 -0.31292543 0.54482734 199 207 200
-0.36395035 -0.28646928 0.49283278 199 209 208
-0.36077374 -0.29760401 0.51505166 194 206 196
-0.36949241 -0.20067520 0.49661524 204 207 207
-0.36988568 -0.20327525 0.51064724 205 209 208
-0.36987504 -0.20634141 0.53016573 202 209 208
-0.37045509 -0.20827613 0.54967718 200 205 204
-0.36989725 -0.20922613 0.57017462 200 202 202
-0.37008218 -0.20940211 0.59010667 202 204 203
-0.37001163 -0.20865888 0.61023852 201 205 204
-0.36998821 -0.20695601 0.63081761 207 209 210
-0.37020644 -0.20401487 0.65040909 209 212 212
-0.36946956 -0.20112926 0.66483462 211 215 215
-0.36968907 -0.19209288 0.45467365 198 202 201
-0.36977512 -0.19560767 0.47032087 198 201 200
-0.36990459 -0.19872415 0.48640164 203 207 206
-0.36993112 -0.19857116 0.67462537 209 214 213
-0.36990340 -0.19358635 0.69008352 203 208 208
-0.36994943 -0.18556510 0.71031939 209 213 213
-0.37406626 -0.18049607 0.72090716 210 211 213
-0.36959541 -0.17492788 0.73080173 210 212 212
-0.37023172 -0.16487731 0.74684908 209 211 212
-0.36959441 -0.15758262 0.75693637 209 212 214
-0.37011871 -0.14754888 0.76933604 208 211 211
-0.36799432 -0.13870986 0.77913677 211 213 214
-0.37014866 -0.12901806 0.78897030 209 211 212
-0.36870676 -0.11804341 0.79876634 201 203 203
-0.37010345 -0.10814085 0.80666437 199 201 202
-0.36954128 -0.09436448 0.81644229 201 202 202
-0.37044363 -0.08453265 0.82308135 203 204 203
-0.36994237 -0.07015244 0.83162007 199 199 197
-0.36884175 -0.05735878 0.83841779 209 209 209
-0.37069393 -0.04757728 0.84350184 208 209 209
-0.36983589 -0.03048563 0.85135102 207 209 209
-0.36928571 -0.01479138 0.85783217 205 205 203
-0.37095767 -0.00466709 0.86185394 199 198 197
-0.36997497 0.01007273 0.86666646 209 204 205
-0.36996864 0.02973592 0.87737188 190 133 149
-0.36738282 0.04894273 0.87897278 188 124 141
-0.37684371 0.05232904 0.88042563 183 117 136
-0.36336184 0.06263233 0.87957185 179 133 147
-0.37088407 0.07058482 0.88183801 175 158 166
-0.36999952 0.08983949 0.88544112 167 167 171
-0.36988361 0.11015810 0.88925352 161 157 164
-0.36991895 0.12984323 0.89291778 160 160 162
-0.36957190 0.14951023 0.89630268 157 157 160
-0.37905140 0.15773158 0.90028824 157 157 159
-0.36554842 0.16698334 0.89867838 143 135 143
-0.37355176 0.17249283 0.90209975 146 144 147
-0.36942014 0.18969040 0.90521899 142 139 140
-0.36981942 0.20981655 0.91116330 141 139 140
-0.36701951 0.22916646 0.91407456 139 138 137
-0.37690461 0.23219928 0.92184064 147 146 147
-0.36435665 0.24923715 0.91717829 136 134 136
-0.37486630 0.25073803 0.92465055 139 138 140
-0.36225977 0.26123518 0.91954612 138 129 134
-0.37009419 0.26992904 0.92643329 138 135 137
-0.37417177 0.28156496 0.93569407 151 143 148
-0.36904618 0.29275832 0.95749631 198 186 189
-0.36050179 0.29983241 0.96001077 193 194 195
-0.37594411 0.30173266 0.95989744 199 192 194
-0.36982862 0.31073035 0.96153696 193 193 192
-0.36990325 0.32953017 0.96446548 192 193 194
-0.36990010 0.34986868 0.96741594 189 191 192
-0.37025684 0.37015619 0.97035872 181 180 180
-0.36971669 0.38965389 0.97313557 182 183 182
-0.37017305 0.40938714 0.97579847 184 184 183
-0.36983756 0.42989189 0.97829206 185 186 185
-0.37115024 0.44354569 0.97967940 178 179 181
-0.36966372 0.45334945 0.98090998 182 185 185
-0.37014026 0.47072458 0.98990358 20 20 20
-0.36997569 0.48982932 0.99525818 0 0 0
-0.37011420 0.51002147 0.99830187 0 0 0
-0.37148331 0.52166166 0.99987559 0 0 0
-0.36972539 0.53168153 1.00109174 0 0 0
-0.37027172 0.55000719 1.00307620 0 0 0
-0.36976350 0.56587124 1.00463203 0 0 0
-0.34991097 -0.64954914 0.97420097 0 0 0
-0.34948331 -0.63040593 0.97304073 0 0 0
-0.35037844 -0.60988843 0.97143615 0 0 0
-0.34979371 -0.59030905 0.96942153 0 0 0
-0.35025936 -0.57022282 0.96670106 0 0 0
-0.34993121 -0.55007534 0.96351144 0 0 0
-0.34991181 -0.52703159 0.95795355 0 0 0
-0.34995005 -0.53681398 0.96065187 0 0 0
-0.34528396 -0.50239927 0.93673211 106 107 107
-0.34962214 -0.51469736 0.95273079 5 5 5
-0.34999832 -0.49612416 0.92354435 125 127 126
-0.35049097 -0.46134386 0.85467494 205 200 201
-0.34710474 -0.47968477 0.89150751 140 146 144
-0.35445736 -0.44338969 0.81618655 106 112 105
-0.34546957 -0.42206810 0.77693802 211 219 215
-0.34597846 -0.42769383 0.78729380 175 185 172
-0.34492473 -0.43528984 0.80383396 203 212 204
-0.34334270 -0.41610278 0.76474705 179 186 181
-0.34727830 -0.38148622 0.69341061 202 211 210
-0.35386020 -0.39148241 0.71270111 203 210 207
-0.34054701 -0.39563357 0.72367269 205 213 212
-0.34175633 -0.37220711 0.67654437 202 211 209
-0.34548697 -0.37756202 0.68627775 202 211 209
-0.35138573 -0.35584701 0.63878000 198 204 201
-0.34747226 -0.32744318 0.58058685 198 207 204
-0.34227971 -0.30359587 0.53339934 209 210 210
-0.35822464 -0.31859688 0.55975521 210 211 211
-0.34892890 -0.20095557 0.49503811 203 209 209
-0.35015498 -0.20368576 0.51056983 203 209 209
-0.34996989 -0.20620974 0.53068751 200 205 205
-0.34978864 -0.20780912 0.55015829 203 205 204
-0.35000323 -0.20867045 0.56997012 201 204 204
-0.34994571 -0.20883467 0.59013423 201 203 202
-0.35030749 -0.20830641 0.61019349 205 207 207
-0.34995313 -0.20687938 0.63056613 213 215 216
-0.35002521 -0.20417736 0.65017570 211 214 213
-0.34976005 -0.20122965 0.66451016 209 212 213
-0.35046034 -0.19168738 0.45452837 202 206 205
-0.34988260 -0.19507123 0.46950343 206 208 208
-0.35027763 -0.19882306 0.48548495 204 209 208
-0.35005177 -0.19862006 0.67469985 206 209 211
-0.34995892 -0.19356121 0.68999137 207 210 211
-0.35012123 -0.18515793 0.71028296 211 213 213
-0.34995622 -0.17453248 0.73001851 209 211 212
-0.34995357 -0.16421863 0.74641551 207 209 210
-0.34986930 -0.15701613 0.75633679 209 212 212
-0.35044511 -0.14730596 0.76844507 211 212 213
-0.34831079 -0.13838031 0.77815960 207 208 210
-0.35019683 -0.12829065 0.78834286 208 209 210
-0.34919616 -0.11723579 0.79816210 199 199 199
-0.35040953 -0.10759791 0.80583600 201 201 201
-0.34946590 -0.09345228 0.81559239 204 205 205
-0.35041836 -0.08324194 0.82233176 197 197 196
-0.34992287 -0.06998769 0.82992876 202 203 202
-0.34943387 -0.05549052 0.83754372 209 210 210
-0.35062409 -0.04572870 0.84247567 210 212 213
-0.34996159 -0.03051824 0.84929117 208 210 211
-0.34951112 -0.01204158 0.85686212 171 171 171
-0.35208029 -0.00206070 0.86086375 167 165 165
-0.34995074 0.01025473 0.86524605 202 186 191
-0.35001976 0.02987966 0.87509306 191 129 147
-0.34994625 0.04938262 0.87675442 190 127 146
-0.34868759 0.06662462 0.87863141 176 158 169
-0.35266157 0.07550895 0.88073800 179 179 183
-0.35000603 0.08965436 0.88298217 174 173 178
-0.34997277 0.10999475 0.88647915 166 166 169
-0.35001473 0.13048904 0.89033585 162 162 164
-0.35001940 0.15036100 0.89389748 158 157 159
-0.34996979 0.17010343 0.89716751 148 144 148
-0.35978624 0.17999799 0.90010387 146 143 145
-0.34636191 0.18440659 0.89917594 140 137 138
-0.35155054 0.19273652 0.90131410 128 126 127
-0.34986468 0.20991133 0.90478979 142 138 138
-0.34982051 0.22987374 0.90958271 147 144 143
-0.34993988 0.25024068 0.91520332 148 142 142
-0.34918316 0.26377245 0.91883426 145 141 144
-0.35298323 0.27090495 0.92427492 151 147 151
-0.34838468 0.27791866 0.94475197 190 176 182
-0.35002330 0.28940222 0.95842185 197 189 192
-0.34833539 0.29863781 0.96023440 189 190 191
-0.34996806 0.31038995 0.96219464 189 189 189
-0.34994809 0.32982831 0.96523016 192 192 193
-0.34987873 0.35000913 0.96810665 192 194 194
-0.35034712 0.37038499 0.97095897 183 183 183
-0.34962707 0.38991354 0.97362673 179 181 181
-0.35024308 0.40940237 0.97617369 182 184 184
-0.34972312 0.42996343 0.97860329 174 176 177
-0.35111433 0.44292300 0.97982010 170 172 173
-0.35011435 0.45180280 0.98099375 163 164 164
-0.34973581 0.47081652 0.99202911 1 1 1
-0.35016523 0.48987474 0.99578914 0 0 0
-0.35023723 0.51008852 0.99869714 0 0 0
-0.34443677 0.51977739 1.00008693 0 0 0
-0.35030878 0.53038190 1.00121175 0 0 0
-0.34963578 0.54968172 1.00330002 0 0 0
-0.35017540 0.56555128 1.00481996 0 0 0
-0.32954862 -0.64946801 0.97396459 0 0 0
-0.32999964 -0.63020504 0.97281334 0 0 0
-0.33030315 -0.60987731 0.97123323 0 0 0
-0.32961941 -0.59018803 0.96922291 0 0 0
-0.33030333 -0.57010828 0.96652853 0 0 0
-0.32989437 -0.54998766 0.96335782 0 0 0
-0.32995683 -0.52708208 0.95804683 0 0 0
-0.32999124 -0.53675892 0.96055336 0 0 0
-0.33014293 -0.51474010 0.95373401 0 0 0
-0.32521857 -0.48535029 0.90786977 184 189 186
-0.32080377 -0.46030458 0.85824585 167 171 170
-0.32397360 -0.46987286 0.87891853 212 215 214
-0.32963826 -0.47775200 0.89222047 179 183 182
-0.32859943 -0.45210415 0.84024817 157 165 163
-0.32911720 -0.39898822 0.73445284 207 214 209
-0.33394039 -0.36245459 0.65881765 202 211 208
-0.32509418 -0.29866837 0.52794850 203 210 206
-0.32984526 -0.20093154 0.49424728 201 205 204
-0.33031492 -0.20319127 0.50944440 200 204 204
-0.32965656 -0.20555743 0.52962451 201 205 204
-0.33039841 -0.20718207 0.54966742 203 209 207
-0.32982759 -0.20819427 0.57020841 205 209 208
-0.33006150 -0.20870438 0.59089662 205 208 207
-0.32991681 -0.20840327 0.61092589 212 215 215
-0.33005821 -0.20710208 0.63084877 211 214 214
-0.33021455 -0.20436367 0.64978067 213 215 215
-0.32987834 -0.20130576 0.66440971 207 209 210
-0.32999690 -0.19206627 0.45489608 206 209 209
-0.32982294 -0.19583384 0.46984188 206 210 210
-0.33008997 -0.19910387 0.48445804 202 208 207
-0.33014510 -0.19854084 0.67461600 207 208 209
-0.32986944 -0.19332637 0.68975688 210 213 214
-0.33015104 -0.18484524 0.70962055 207 208 208
-0.32752342 -0.17952574 0.71978934 204 205 204
-0.33006085 -0.17361616 0.73028369 206 207 207
-0.33006003 -0.16363661 0.74604614 208 210 212
-0.33012254 -0.15654306 0.75585832 207 210 210
-0.33007170 -0.14700637 0.76752585 209 211 212
-0.32955410 -0.13790666 0.77740835 210 211 212
-0.33013945 -0.12810375 0.78710993 202 203 204
-0.32957984 -0.11672534 0.79700506 196 197 196
-0.33023382 -0.10682623 0.80476665 200 201 201
-0.32974723 -0.09227684 0.81467896 201 203 203
-0.33150493 -0.08198044 0.82141457 196 195 195
-0.32985027 -0.07008396 0.82795211 201 201 201
-0.32958787 -0.05345369 0.83669847 206 207 208
-0.33098377 -0.04371872 0.84146778 209 211 212
-0.32996905 -0.03043656 0.84722860 210 211 210
-0.32995495 -0.01004314 0.85559662 169 166 168
-0.32639119 0.00200282 0.85948049 196 195 194
-0.33043089 0.01120042 0.86520687 203 171 181
-0.33008074 0.02956613 0.87247260 189 128 144
-0.32979999 0.04945647 0.87407386 188 137 151
-0.32991765 0.06940946 0.87717126 183 179 188
-0.32686486 0.08303227 0.87935604 182 182 189
-0.33121972 0.09178495 0.88131342 178 178 183
-0.32996432 0.10950876 0.88430067 173 174 177
-0.33004096 0.12982388 0.88812164 161 156 160
-0.32981889 0.14976602 0.89170709 159 159 160
-0.33010794 0.16988524 0.89500498 148 147 147
-0.32930336 0.18751216 0.89834633 143 140 139
-0.33190714 0.19684247 0.90065102 148 146 142
-0.33001877 0.20964420 0.90379398 154 150 149
-0.32991745 0.22964399 0.90905989 158 154 153
-0.33004050 0.25028309 0.91523803 156 151 151
-0.33182535 0.26275578 0.91879438 159 154 155
-0.33178033 0.26803369 0.92620797 168 155 161
-0.32819709 0.27649560 0.95338422 197 180 185
-0.33002843 0.28712138 0.95869102 196 187 188
-0.32947129 0.29675156 0.96046330 191 192 191
-0.32998214 0.30986552 0.96275705 186 187 188
-0.33015693 0.33005682 0.96589885 193 194 194
-0.33000701 0.34989079 0.96867912 187 187 188
-0.33017023 0.37021474 0.97147606 167 167 169
-0.32957879 0.39008566 0.97405704 179 180 180
-0.33033887 0.40957093 0.97651280 170 170 171
-0.32957221 0.43013442 0.97884495 175 176 176
-0.33307166 0.44169603 0.97987375 177 178 178
-0.32998945 0.44985211 0.98178814 138 138 139
-0.32973267 0.47037860 0.99310980 0 0 0
-0.33015456 0.49021104 0.99633138 0 0 0
-0.33023125 0.50896400 0.99894772 0 0 0
-0.32816900 0.51875037 1.00023950 0 0 0
-0.33020296 0.53002500 1.00148051 0 0 0
-0.33000772 0.54931584 1.00351819 0 0 0
-0.32976762 0.56586610 1.00507958 0 0 0
-0.30974997 -0.64946715 0.97369758 0 0 0
-0.31044188 -0.62990134 0.97252740 0 0 0
-0.31007482 -0.60971208 0.97097014 0 0 0
-0.30958697 -0.59016768 0.96899935 0 0 0
-0.31027251 -0.57007216 0.96635918 0 0 0
-0.30994424 -0.54992291 0.96322242 0 0 0
-0.30990934 -0.52715870 0.95822264 0 0 0
-0.31005731 -0.53674018 0.96051981 0 0 0
-0.31675278 -0.50174962 0.93854547 0 0 0
-0.30958780 -0.51314103 0.95345011 6 6 6
-0.31490597 -0.48799508 0.91340466 99 101 98
-0.31415924 -0.49650804 0.92994674 68 72 70
-0.31674306 -0.44725381 0.83391245 205 209 207
-0.31171454 -0.44998301 0.84171367 214 217 217
-0.31360241 -0.43586358 0.81267518 210 214 211
-0.30231711 -0.41620745 0.77478483 195 204 201
-0.31270027 -0.39303988 0.72581249 205 211 201
-0.31344918 -0.33905753 0.61628985 202 211 208
-0.30388829 -0.30726841 0.55243248 200 206 204
-0.30906540 -0.27339898 0.48034525 209 209 209
-0.31157368 -0.20061111 0.49619536 203 208 207
-0.30991418 -0.20255709 0.51012120 201 205 204
-0.31015921 -0.20473932 0.52940411 203 207 205
-0.31008730 -0.20664383 0.54902067 205 207 207
-0.31014284 -0.20814808 0.56985374 207 210 209
-0.30976966 -0.20881272 0.59015535 209 210 209
-0.31025249 -0.20843514 0.60982925 210 212 212
-0.31001284 -0.20689754 0.63074318 211 215 215
-0.31029956 -0.20377723 0.65016067 211 213 214
-0.31025715 -0.20090542 0.66349520 207 209 210
-0.31040682 -0.19285135 0.45576983 198 201 201
-0.30985844 -0.19588690 0.46999612 202 205 205
-0.30933363 -0.19890605 0.48641730 204 207 207
-0.30984459 -0.19813846 0.67352391 212 213 214
-0.30997103 -0.19248441 0.69037905 210 212 213
-0.30994794 -0.18432575 0.70961432 210 211 212
-0.31052286 -0.17940667 0.71931195 201 202 204
-0.31009557 -0.17321665 0.73005577 209 210 211
-0.31001082 -0.16387910 0.74473417 210 211 212
-0.30986120 -0.15645512 0.75486882 209 210 211
-0.31024997 -0.14637745 0.76698269 212 213 213
-0.30956120 -0.13698909 0.77687719 208 209 210
-0.31012361 -0.12714152 0.78621537 198 200 200
-0.30961156 -0.11550083 0.79611935 199 199 200
-0.31033735 -0.10551176 0.80396623 202 203 204
-0.30979278 -0.09075975 0.81387713 200 200 201
-0.31587842 -0.08125480 0.82040899 208 209 209
-0.30083538 -0.07979612 0.81999111 196 195 197
-0.31008470 -0.07029762 0.82605606 200 200 201
-0.30965158 -0.05142585 0.83588611 204 205 205
-0.31281268 -0.04197720 0.84057448 203 204 205
-0.31000751 -0.03042175 0.84539950 204 204 205
-0.30996919 -0.01010168 0.85375923 184 182 184
-0.31071396 0.00319096 0.85873108 203 193 196
-0.30964471 0.01274291 0.86627485 197 144 158
-0.31018076 0.02962537 0.87004518 189 131 147
-0.30991176 0.05018221 0.87203929 189 153 167
-0.31005323 0.07062087 0.87555782 187 188 196
-0.30907643 0.08847695 0.87852507 182 182 189
-0.31323569 0.09693777 0.88047472 179 179 185
-0.31016636 0.10962006 0.88260896 176 176 180
-0.30999885 0.12987464 0.88642185 170 169 171
-0.30993092 0.15048732 0.88996998 163 162 163
-0.31000435 0.17009329 0.89318324 154 150 149
-0.30969477 0.18913512 0.89748850 151 148 147
-0.31604112 0.19846875 0.90021225 156 153 146
-0.30060686 0.20018245 0.89992237 161 155 156
-0.31009514 0.20957708 0.90305719 160 157 154
-0.31001587 0.22974561 0.90890349 164 159 159
-0.31012994 0.24948112 0.91555145 170 166 166
-0.30238208 0.25925786 0.92193559 175 170 170
-0.31618620 0.26058187 0.91937774 170 163 168
-0.31135645 0.26317189 0.92686593 180 173 175
-0.30907962 0.27420328 0.95467330 193 185 185
-0.31008026 0.28584854 0.95877727 197 197 197
-0.30961990 0.29559316 0.96074906 190 192 191
-0.30988275 0.31001333 0.96341100 192 193 192
-0.31031225 0.33025776 0.96648692 184 184 183
-0.30972677 0.34954533 0.96915564 183 181 178
-0.31036059 0.36989262 0.97186885 183 184 184
-0.30956993 0.39030542 0.97444539 180 183 183
-0.31025649 0.40976794 0.97682909 179 181 182
-0.30998325 0.42996092 0.97902983 180 181 182
-0.30368050 0.43994593 0.98012528 174 175 177
-0.30979578 0.44918966 0.98349201 114 114 113
-0.31015324 0.46988219 0.99365788 0 0 0
-0.30979376 0.49059488 0.99684445 0 0 0
-0.31044737 0.50740689 0.99911526 0 0 0
-0.30909960 0.51667399 1.00030980 0 0 0
-0.30987928 0.52948995 1.00171785 0 0 0
-0.31014398 0.54946296 1.00378705 0 0 0
-0.30987641 0.56586065 1.00530016 0 0 0
-0.29031338 -0.64885250 0.97330262 0 0 0
-0.29029843 -0.62979705 0.97218366 0 0 0
-0.28984433 -0.60951929 0.97066328 0 0 0
-0.28980000 -0.58998150 0.96875614 0 0 0
-0.29017058 -0.56995721 0.96616438 0 0 0
-0.28993806 -0.54983977 0.96312179 0 0 0
-0.28983069 -0.52719257 0.95831982 0 0 0
-0.29014597 -0.53675992 0.96055515 0 0 0
-0.28970700 -0.51269744 0.95387997 5 5 5
-0.28074348 -0.48126979 0.90609598 145 145 142
-0.28746536 -0.49555735 0.93299544 125 126 122
-0.29724297 -0.46932299 0.88073748 190 199 195
-0.28491871 -0.44757180 0.83991891 208 219 215
-0.29071870 -0.38106081 0.70594442 222 213 214
-0.29469791 -0.35588907 0.65511644 206 213 207
-0.28159919 -0.32595320 0.59621692 202 210 210
-0.28412572 -0.28549656 0.51249409 202 209 206
-0.28460950 -0.29668884 0.53591084 204 207 207
-0.29391069 -0.27691994 0.49251390 200 206 206
-0.29673463 -0.20029536 0.49837426 199 205 204
-0.28997525 -0.20169047 0.51014861 203 206 206
-0.29005204 -0.20442818 0.53079941 204 208 208
-0.29019963 -0.20656634 0.55074168 207 211 210
-0.29022585 -0.20793107 0.57020872 207 209 209
-0.28993958 -0.20837501 0.59019967 208 210 210
-0.28978169 -0.20772340 0.61012302 206 209 209
-0.29000774 -0.20591223 0.63014836 207 208 209
-0.28978537 -0.20286623 0.65007979 209 211 211
-0.29186535 -0.20056987 0.66237174 208 209 209
-0.28986890 -0.19211744 0.45508637 202 204 204
-0.28997734 -0.19501626 0.46986450 201 204 203
-0.28966597 -0.19844432 0.48913958 203 205 205
-0.28118224 -0.19995621 0.50015718 208 209 209
-0.28942776 -0.19781203 0.67217352 209 211 211
-0.29002880 -0.19196118 0.68989611 210 212 213
-0.29043484 -0.18416162 0.70856653 210 212 213
-0.28800248 -0.17903462 0.71830700 206 207 208
-0.29021667 -0.17221426 0.73011000 211 212 213
-0.29005058 -0.16305860 0.74418873 213 213 213
-0.28984926 -0.15560704 0.75412411 210 210 211
-0.29010583 -0.14554210 0.76614124 209 210 210
-0.28981577 -0.13602469 0.77614300 198 199 199
-0.29010170 -0.12611633 0.78554605 199 199 199
-0.28974572 -0.11422708 0.79537420 197 197 196
-0.29029424 -0.10431229 0.80322176 203 204 205
-0.28998611 -0.09031900 0.81247239 204 204 205
-0.28841243 -0.07921218 0.81928393 205 206 206
-0.29020704 -0.06923771 0.82498701 205 206 206
-0.28997767 -0.05026162 0.83475243 198 199 201
-0.28512437 -0.03917046 0.83953606 185 186 195
-0.29035125 -0.02969654 0.84411547 198 199 201
-0.28995236 -0.01003874 0.85210188 201 199 200
-0.29009114 0.00251782 0.85734996 219 185 198
-0.29006538 0.01205774 0.86469926 192 137 153
-0.28981949 0.02954351 0.86761520 192 132 149
-0.29013955 0.04990832 0.87002130 187 163 174
-0.29019340 0.07039334 0.87375025 186 188 196
-0.29000863 0.09052640 0.87726414 177 173 182
-0.28651181 0.10337333 0.87951306 180 180 181
-0.29080318 0.11188481 0.88157726 177 177 179
-0.28994960 0.12964939 0.88494005 174 174 175
-0.29014281 0.14987533 0.88835853 169 167 168
-0.28999488 0.16972295 0.89157296 168 163 160
-0.28986640 0.18937680 0.89634704 160 154 152
-0.28874704 0.20071234 0.89958575 166 158 154
-0.29018412 0.21054100 0.90268157 163 158 157
-0.29004155 0.22958496 0.90844903 170 166 164
-0.29078468 0.24680891 0.91444161 168 165 166
-0.29151645 0.25686342 0.92786589 180 172 175
-0.28203822 0.25908306 0.94453582 201 179 185
-0.29649253 0.26151240 0.93861020 190 177 181
-0.28979294 0.27147650 0.95543132 198 190 191
-0.29026635 0.28488761 0.95908224 193 195 196
-0.28977675 0.29450057 0.96104776 189 190 191
-0.28977452 0.31012539 0.96390083 189 188 187
-0.29041974 0.33043225 0.96699770 187 188 187
-0.28961635 0.34970393 0.96963043 185 185 185
-0.29032163 0.37004344 0.97226559 183 184 184
-0.28967891 0.39045686 0.97475768 179 181 182
-0.29007689 0.40988198 0.97710125 180 181 182
-0.29057498 0.42847441 0.97906838 174 175 177
-0.28818848 0.43844967 0.98025188 177 178 179
-0.28973619 0.44941268 0.98577571 80 79 79
-0.29000545 0.47033936 0.99422733 0 0 0
-0.29022209 0.49041369 0.99722836 0 0 0
-0.28971895 0.50575749 0.99928536 0 0 0
-0.28956314 0.51531701 1.00046144 0 0 0
-0.29007809 0.52921135 1.00196789 0 0 0
-0.29002111 0.54978475 1.00406807 0 0 0
-0.28983450 0.56607181 1.00555660 0 0 0
-0.27032690 -0.64874211 0.97287617 0 0 0
-0.27023726 -0.63011963 0.97184327 0 0 0
-0.26944732 -0.60993057 0.97040210 0 0 0
-0.27010335 -0.58970976 0.96850183 0 0 0
-0.27008233 -0.56985355 0.96598886 0 0 0
-0.26986704 -0.54981514 0.96305728 0 0 0
-0.26972147 -0.52717456 0.95832220 0 0 0
-0.27023375 -0.53678125 0.96059329 0 0 0
-0.27016167 -0.51235725 0.95374724 0 0 0
-0.26246858 -0.46134701 0.87142269 211 213 210
-0.26542601 -0.45554435 0.85906109 184 184 183
-0.26468769 -0.45996702 0.86881608 210 210 210
-0.26724724 -0.41768392 0.78383094 203 222 210
-0.27744606 -0.38218761 0.71259540 211 216 215
-0.27014230 -0.36521920 0.67877007 207 215 208
-0.27350689 -0.37219693 0.69173837 203 212 205
-0.26290205 -0.35237013 0.65488970 208 215 209
-0.26686778 -0.35923211 0.66764289 208 215 209
-0.26878746 -0.32960615 0.60671803 189 195 187
-0.26860042 -0.28956067 0.52632159 202 211 208
-0.27243035 -0.27204941 0.48835516 200 204 201
-0.27039787 -0.20138227 0.51072335 195 200 200
-0.27009888 -0.20403938 0.52981352 206 209 209
-0.26992801 -0.20610444 0.54997639 206 209 209
-0.26986163 -0.20726482 0.56996891 206 207 206
-0.27009820 -0.20737548 0.58992523 206 207 206
-0.26965441 -0.20657936 0.60991639 206 208 208
-0.27007012 -0.20496720 0.63007898 207 208 209
-0.27023645 -0.20210064 0.64970356 210 212 213
-0.27319538 -0.20016348 0.66061587 209 211 211
-0.26979533 -0.19092238 0.45504782 202 206 205
-0.26980071 -0.19399652 0.47014386 202 206 205
-0.27032749 -0.19791400 0.49041701 203 206 206
-0.26367247 -0.19990761 0.50220682 203 210 208
-0.26310107 -0.19986901 0.65964401 205 206 208
-0.26990438 -0.19732420 0.67083938 212 214 215
-0.26990558 -0.19088966 0.69012949 212 213 213
-0.27024765 -0.18357173 0.70727713 209 210 209
-0.26943196 -0.17839027 0.71710145 214 216 216
-0.27007660 -0.17086400 0.73006671 209 210 210
-0.27019228 -0.16217922 0.74332781 215 215 214
-0.26990967 -0.15465179 0.75345871 207 208 208
-0.27015012 -0.14455086 0.76548406 199 199 199
-0.26968383 -0.13498249 0.77542306 202 202 202
-0.27021191 -0.12512825 0.78473198 192 192 193
-0.26979700 -0.11325497 0.79454422 198 200 201
-0.27033652 -0.10331239 0.80232597 204 205 207
-0.27000157 -0.09016379 0.81107803 207 207 207
-0.26922277 -0.07789775 0.81867245 208 209 209
-0.27017000 -0.06777671 0.82437577 206 207 208
-0.26999398 -0.05007057 0.83339750 204 205 206
-0.26842266 -0.03773154 0.83890182 200 198 200
-0.27045002 -0.02801472 0.84337151 203 203 205
-0.26997873 -0.00992809 0.85087032 204 201 202
-0.27043061 0.00185347 0.85748499 209 170 180
-0.27028624 0.01148376 0.86270969 189 132 149
-0.26947391 0.02994313 0.86543053 193 131 149
-0.27027868 0.05024327 0.86816941 187 176 186
-0.27013798 0.07037761 0.87185587 187 188 195
-0.26985850 0.09041561 0.87566695 185 185 190
-0.26889078 0.10629424 0.87880371 183 183 185
-0.27093032 0.11593379 0.88090475 179 179 181
-0.27011624 0.12996917 0.88352407 177 176 178
-0.27015438 0.14972054 0.88693027 174 168 171
-0.26990854 0.16973719 0.89040490 176 172 167
-0.27001798 0.19002298 0.89570430 167 159 157
-0.26897818 0.20249841 0.89943022 175 169 163
-0.26998169 0.21174186 0.90247373 171 167 163
-0.27013004 0.22954848 0.90794924 169 165 163
-0.27128649 0.24411113 0.91353765 175 169 167
-0.26945060 0.25170144 0.92934842 188 171 176
-0.26733217 0.25743647 0.94979521 206 181 188
-0.26991283 0.27015674 0.95635759 195 188 192
-0.27059206 0.28345040 0.95935320 192 192 194
-0.27011134 0.29307901 0.96129552 186 187 188
-0.26978311 0.30956298 0.96419311 190 190 191
-0.27032551 0.32982370 0.96728214 188 189 190
-0.26952914 0.34990374 0.97000986 181 183 183
-0.27024151 0.37016045 0.97257339 185 187 187
-0.26991728 0.39050420 0.97500450 180 181 181
-0.26987780 0.40998367 0.97734358 169 170 172
-0.27048986 0.42764162 0.97924510 169 170 173
-0.26996409 0.43741710 0.98046884 174 177 177
-0.27003352 0.45039407 0.98824609 43 43 43
-0.26980827 0.47075195 0.99470233 0 0 0
-0.27020158 0.48994229 0.99753798 0 0 0
-0.27028202 0.50414672 0.99940762 0 0 0
-0.26976955 0.51427997 1.00063459 0 0 0
-0.26983365 0.52958160 1.00227862 0 0 0
-0.27015272 0.54957603 1.00428879 0 0 0
-0.26991127 0.56620603 1.00579505 0 0 0
-0.25003833 -0.64845666 0.97244826 0 0 0
-0.24978994 -0.63018199 0.97148270 0 0 0
-0.24950722 -0.61008941 0.97013303 0 0 0
-0.25042367 -0.58945319 0.96827253 0 0 0
-0.25000749 -0.56976416 0.96583749 0 0 0
-0.24986759 -0.54976048 0.96296186 0 0 0
-0.24971259 -0.52722098 0.95830036 0 0 0
-0.25029320 -0.53674498 0.96052837 0 0 0
-0.24997229 -0.51207395 0.95362815 0 0 0
-0.25162734 -0.48243923 0.91126308 87 91 89
-0.25125925 -0.49412919 0.93334385 42 43 43
-0.24629483 -0.49874720 0.94206665 0 0 0
-0.25382826 -0.46346188 0.87541739 187 188 187
-0.24927730 -0.47202627 0.89159438 108 113 112
-0.25821494 -0.44368446 0.83806050 214 214 211
-0.25103212 -0.42558829 0.80126333 171 175 175
-0.24093366 -0.40181746 0.75650954 217 226 221
-0.24226655 -0.40736174 0.76694787 195 203 200
-0.24153758 -0.38707682 0.72875705 209 218 214
-0.24179346 -0.39575168 0.74508938 211 220 214
-0.25913047 -0.37233625 0.69647187 210 215 214
-0.25772311 -0.34247966 0.63650799 212 214 208
-0.25967201 -0.34654881 0.64407063 208 213 207
-0.25335846 -0.33524854 0.62306875 213 214 211
-0.24233300 -0.31930222 0.59343207 213 213 212
-0.24974078 -0.20118137 0.51156449 208 212 211
-0.25009620 -0.20351268 0.52982519 209 210 209
-0.25017569 -0.20536171 0.55021676 207 209 208
-0.24984864 -0.20624304 0.57008024 207 208 206
-0.25005345 -0.20643062 0.59020406 206 206 206
-0.24984926 -0.20561783 0.60989625 208 209 208
-0.25007766 -0.20385159 0.63033881 208 209 208
-0.25064753 -0.20137932 0.64871150 198 199 200
-0.24936472 -0.18991556 0.45512869 204 208 207
-0.25042102 -0.19327543 0.46979151 203 208 207
-0.24998789 -0.19732359 0.48933864 208 210 211
-0.24953267 -0.19963489 0.50170427 209 211 210
-0.24747544 -0.19957629 0.65796008 206 207 207
-0.25005062 -0.19644946 0.66995837 209 210 209
-0.24997735 -0.18979057 0.68997131 209 210 210
-0.25045116 -0.18299459 0.70597055 211 211 211
-0.24902750 -0.17778517 0.71587499 213 215 215
-0.25003436 -0.16949651 0.73011682 209 210 211
-0.25121371 -0.16168724 0.74223256 202 203 203
-0.24974500 -0.15408601 0.75221900 197 198 198
-0.25053938 -0.14409689 0.76428108 199 200 201
-0.24956639 -0.13454942 0.77422645 201 201 202
-0.25028723 -0.12422019 0.78396563 195 194 194
-0.24984419 -0.11206465 0.79400418 202 202 203
-0.25038055 -0.10214838 0.80180181 207 207 209
-0.25004018 -0.08998255 0.80987103 206 206 208
-0.24949477 -0.07694622 0.81802884 205 206 208
-0.25011981 -0.06683680 0.82368484 206 206 206
-0.25007858 -0.05009307 0.83213584 203 203 203
-0.24958483 -0.03636298 0.83826255 195 195 195
-0.25029779 -0.02636998 0.84261441 202 202 203
-0.24994586 -0.00991993 0.84992634 204 195 198
-0.24802941 0.00351251 0.85905399 185 135 149
-0.25117011 0.01275495 0.86131200 191 130 147
-0.24974591 0.03016393 0.86387105 193 135 152
-0.25013377 0.05050826 0.86661756 183 177 190
-0.25008235 0.07024735 0.87023868 187 187 195
-0.24981834 0.09020768 0.87417329 186 186 190
-0.24944049 0.10926892 0.87810772 181 179 182
-0.25382913 0.11876194 0.88037116 180 180 182
-0.25008440 0.12987712 0.88213445 179 178 180
-0.24993116 0.14961648 0.88533602 178 176 175
-0.24991036 0.17021001 0.88959956 177 171 167
-0.25013455 0.19063767 0.89534153 167 163 160
-0.25013505 0.20309479 0.89922640 160 158 157
-0.24999247 0.21324085 0.90250142 173 169 167
-0.24989968 0.23030814 0.90788014 179 174 171
-0.25464400 0.24217816 0.91360066 179 170 172
-0.25018509 0.24657553 0.92957880 194 177 181
-0.24920942 0.25543798 0.95297175 209 186 192
-0.24995829 0.26989362 0.95710647 192 190 191
-0.25139076 0.28213801 0.95965047 191 190 191
-0.25012438 0.29180425 0.96150552 189 189 191
-0.24966491 0.30958025 0.96451728 182 182 183
-0.25044749 0.32978217 0.96754011 181 182 182
-0.24955508 0.35007214 0.97029943 182 183 183
-0.25012371 0.37024058 0.97278410 182 182 181
-0.25020898 0.39045502 0.97517544 177 177 178
-0.24965465 0.41006226 0.97753105 176 177 178
-0.25042058 0.42614433 0.97932093 176 177 177
-0.24987963 0.43594144 0.98060183 173 174 175
-0.24989136 0.45126575 0.99030571 9 9 9
-0.25033352 0.46988830 0.99495324 0 0 0
-0.24964316 0.48963962 0.99788022 0 0 0
-0.25072807 0.50285997 0.99956869 0 0 0
-0.24996958 0.51283040 1.00075667 0 0 0
-0.24998345 0.52973380 1.00256671 0 0 0
-0.24984107 0.55006250 1.00458754 0 0 0
-0.24997879 0.56634096 1.00603478 0 0 0
-0.22978731 -0.64822768 0.97210495 0 0 0
-0.22956942 -0.62998744 0.97118295 0 0 0
-0.22967244 -0.61002065 0.96989783 0 0 0
-0.23051206 -0.58949939 0.96809273 0 0 0
-0.22994084 -0.56967960 0.96569435 0 0 0
-0.22988867 -0.54974603 0.96293699 0 0 0
-0.22984154 -0.52723321 0.95832257 0 0 0
-0.23037785 -0.53676158 0.96055806 0 0 0
-0.23000939 -0.51153661 0.95369635 0 0 0
-0.23733977 -0.48384361 0.91690925 188 194 184
-0.22912628 -0.49002584 0.92862489 117 119 118
-0.23883804 -0.46966347 0.89003712 211 216 213
-0.23816116 -0.47755110 0.90498459 214 225 214
-0.23428946 -0.45484208 0.86194980 210 220 218
-0.22795138 -0.43974129 0.83333302 209 219 218
-0.23962623 -0.40944703 0.77339059 210 210 209
-0.23752098 -0.36935198 0.69313061 203 223 210
-0.23680674 -0.37654304 0.70892489 212 221 217
-0.22682706 -0.35881784 0.67555332 212 221 216
-0.23464529 -0.32180011 0.60000187 209 216 214
-0.22355632 -0.26774829 0.49130476 198 203 195
-0.23058653 -0.20078034 0.51421352 209 212 211
-0.22997661 -0.20268109 0.52970315 207 208 207
-0.22995677 -0.20463578 0.54993372 206 206 206
-0.22993510 -0.20545602 0.57007659 206 208 206
-0.23016054 -0.20548910 0.59031437 204 204 203
-0.22996493 -0.20476755 0.60987786 208 208 207
-0.22982115 -0.20304748 0.62975298 212 212 212
-0.23146330 -0.20093723 0.64554994 212 212 213
-0.23000711 -0.18935758 0.45498515 205 209 209
-0.22968488 -0.19289057 0.47005956 206 209 208
-0.23006475 -0.19700507 0.49008142 206 207 207
-0.22899059 -0.19933010 0.50447173 209 211 210
-0.22848758 -0.19883348 0.65502244 208 209 208
-0.22995223 -0.19495620 0.67021822 211 212 212
-0.22998061 -0.18827107 0.69025386 210 210 211
-0.23035071 -0.18221770 0.70464240 210 211 212
-0.22967599 -0.17715023 0.71461050 209 210 210
-0.23014057 -0.16840424 0.72998914 203 203 204
