ply
format ascii 1.0
element vertex 1084
property float x
property float y
property float z
property uchar red
property uchar green
property uchar blue
end_header
0.25891361 0.45809722 1.74714386 111 95 96
0.26126006 0.45691958 1.74265254 101 90 90
0.26427209 0.45691958 1.74265254 90 82 82
0.36833215 0.16642483 0.63473016 122 109 106
0.36736539 0.16549508 0.63118422 119 104 100
0.43720159 0.14616917 0.55747682 115 104 92
0.43708679 0.14580946 0.55610490 111 101 90
0.43733045 0.14557061 0.55519396 113 104 99
0.43829006 0.14557061 0.55519396 110 102 97
0.43817309 0.14521383 0.55383319 100 93 88
0.43769994 0.14474082 0.55202919 89 84 79
0.43794081 0.14450546 0.55113161 90 85 80
0.43853688 0.14438808 0.55068386 92 85 83
0.43842024 0.14403705 0.54934508 95 88 86
0.43901396 0.14392042 0.54890031 100 92 91
0.43925136 0.14368773 0.54801279 106 95 97
0.44055471 0.14380398 0.54845619 110 99 101
0.44352716 0.14415386 0.54979062 125 121 118
0.44556150 0.14450546 0.55113161 133 129 125
0.44651410 0.14450546 0.55113161 131 129 122
0.44746667 0.14450546 0.55113161 133 131 124
0.44552156 0.14357166 0.54757017 137 135 127
0.45047057 0.14485878 0.55247909 140 138 130
0.44922876 0.14415386 0.54979062 140 139 130
0.44872332 0.14368773 0.54801279 142 139 131
-0.09469323 0.20876710 0.79100567 31 27 30
-0.09246290 0.20683630 0.78368998 35 31 34
-0.09037699 0.20517592 0.77739888 46 40 42
-0.08832429 0.20354198 0.77120799 58 41 43
-0.08620673 0.20170620 0.76425236 77 58 59
-0.06946284 0.18852834 0.71432227 134 114 99
-0.06779954 0.18734388 0.70983440 140 123 110
-0.06595112 0.18559481 0.70320731 148 134 125
-0.06453485 0.18501903 0.70102566 147 135 126
-0.06338874 0.18521056 0.70175141 148 137 128
-0.06224024 0.18540248 0.70247859 146 137 127
-0.06096289 0.18521056 0.70175141 148 139 130
-0.05950358 0.18444681 0.69885755 147 138 127
0.21521875 0.45180151 1.71184814 74 65 68
0.24160486 0.47457135 1.79812157 99 93 93
0.23962782 0.46471012 1.76075804 101 96 95
0.24521889 0.46958897 1.77924371 112 106 106
0.24829416 0.46958897 1.77924371 120 109 109
0.25203094 0.47082475 1.78392589 122 111 110
0.25377864 0.46835968 1.77458596 125 113 112
0.25287402 0.46111700 1.74714386 128 115 111
0.26193342 0.46111700 1.74714386 111 97 99
0.26495320 0.46111700 1.74714386 95 83 85
0.36867738 0.16767891 0.63532507 132 121 116
0.36873871 0.16720879 0.63354379 135 113 112
0.43720159 0.14713272 0.55747682 117 109 105
0.43637085 0.14653023 0.55519396 115 107 102
0.43661529 0.14629060 0.55428606 113 107 102
0.43757331 0.14629060 0.55428606 112 106 102
0.43781540 0.14605175 0.55338109 104 99 94
0.43769994 0.14569496 0.55202919 85 83 76
0.43794081 0.14545804 0.55113161 89 87 79
0.43818092 0.14522192 0.55023688 96 90 86
0.43806523 0.14486915 0.54890031 102 93 92
0.43865877 0.14475194 0.54845619 105 96 95
0.43925136 0.14463492 0.54801279 114 104 104
0.44483820 0.14522192 0.55023688 131 122 117
0.44578925 0.14522192 0.55023688 133 127 121
0.44601622 0.14498655 0.54934508 136 132 125
0.44444457 0.14416873 0.54624647 139 135 128
0.44741443 0.14451809 0.54757017 141 137 129
0.44691688 0.14405265 0.54580665 142 137 130
-0.09458286 0.20988937 0.79008371 30 27 29
-0.09246290 0.20819084 0.78368998 36 32 34
-0.09027346 0.20628303 0.77650839 46 42 40
-0.08822392 0.20464213 0.77033162 63 45 46
-0.08610965 0.20279852 0.76339173 81 60 60
-0.06946284 0.18976299 0.71432227 141 119 104
-0.06772862 0.18837352 0.70909190 146 128 114
-0.06588277 0.18661666 0.70247859 146 132 121
-0.06453485 0.18623069 0.70102566 145 133 122
-0.06332318 0.18623069 0.70102566 147 136 126
-0.06217581 0.18642348 0.70175141 145 136 126
-0.06089985 0.18623069 0.70102566 145 137 126
-0.05950358 0.18565473 0.69885755 146 138 127
0.21225996 0.45476031 1.71184814 89 80 81
0.21413726 0.45247507 1.70324588 84 75 76
0.21817754 0.45476031 1.71184814 80 71 73
0.23969746 0.47390810 1.78392589 115 106 107
0.23655568 0.46175662 1.73818421 122 113 114
0.24267116 0.46775347 1.76075804 126 118 116
0.24829416 0.47266427 1.77924371 129 118 118
0.25203094 0.47390810 1.78392589 128 117 116
0.25311601 0.47019604 1.76995254 129 119 116
0.25287402 0.46413681 1.74714386 130 120 114
0.36861566 0.16925290 0.63711637 137 128 122
0.36867738 0.16877702 0.63532507 141 131 126
0.36873871 0.16830382 0.63354379 134 119 117
0.43744564 0.14785311 0.55656147 110 101 100
0.43661529 0.14724864 0.55428606 103 99 96
0.43721583 0.14712833 0.55383319 98 97 93
0.43745828 0.14688832 0.55292970 96 95 91
0.43734381 0.14652976 0.55158001 84 84 76
0.43722987 0.14617296 0.55023688 87 88 79
0.43747073 0.14593604 0.54934508 92 91 84
0.43735698 0.14558212 0.54801279 98 93 89
-0.09458286 0.21125497 0.79008371 28 25 25
-0.09235614 0.20930342 0.78278506 37 33 33
-0.09027346 0.20762515 0.77650839 48 45 40
-0.08802387 0.20550653 0.76858485 59 50 44
-0.08581972 0.20343071 0.76082134 76 64 57
-0.06946284 0.19099765 0.71432227 140 117 103
-0.06779954 0.18979765 0.70983440 144 126 112
-0.06595112 0.18802568 0.70320731 145 129 118
-0.06453485 0.18744236 0.70102566 146 131 121
-0.06325776 0.18724872 0.70030147 147 133 123
-0.06217581 0.18763641 0.70175141 146 134 124
-0.06089985 0.18744236 0.70102566 147 134 127
-0.05956499 0.18705548 0.69957876 147 135 128
0.21036361 0.46004254 1.72053766 96 87 86
0.21119332 0.45541900 1.70324588 96 87 85
0.21253523 0.45201188 1.69050336 91 83 80
0.21708117 0.45541900 1.70324588 85 77 74
0.22057931 0.45656615 1.70753610 93 84 83
0.23475523 0.46715662 1.74714386 124 113 112
0.23474991 0.46121314 1.72491562 129 117 117
0.23833774 0.46238971 1.72931588 124 114 111
0.24635436 0.47202283 1.76534331 123 113 111
0.25071141 0.47449413 1.77458596 123 113 110
0.25180113 0.47079679 1.76075804 125 117 111
0.25093380 0.46357229 1.73373878 128 120 114
0.25199696 0.46004254 1.72053766 122 114 107
0.25692707 0.46357229 1.73373878 123 115 107
0.36896244 0.17051436 0.63771576 134 129 120
0.36867738 0.16987513 0.63532507 130 125 118
0.36839443 0.16924067 0.63295221 123 118 112
0.44529685 0.15283032 0.57157826 125 115 105
0.44515875 0.15244471 0.57013613 118 108 98
0.44082680 0.15029582 0.56209940 113 104 99
0.43961123 0.14955178 0.55931669 106 98 94
0.43912870 0.14905983 0.55747682 95 88 84
0.43829006 0.14844944 0.55519396 87 82 77
0.43769994 0.14760323 0.55202919 82 81 75
0.43829715 0.14748313 0.55158001 79 80 73
0.43818092 0.14712399 0.55023688 80 81 74
0.43771082 0.14664787 0.54845619 82 83 76
-0.09425330 0.21187973 0.78733081 29 23 24
-0.09214333 0.21017101 0.78098136 40 31 32
-0.09017017 0.20872819 0.77561998 53 45 41
-0.08782472 0.20636702 0.76684600 65 53 47
-0.06946284 0.19223230 0.71432227 141 114 102
-0.06779954 0.19102454 0.70983440 142 118 109
-0.06595112 0.18924113 0.70320731 146 126 123
-0.06460165 0.18884932 0.70175141 146 129 124
-0.06325776 0.18845914 0.70030147 147 132 125
-0.06217581 0.18884932 0.70175141 146 133 126
-0.06089985 0.18865402 0.70102566 146 134 127
0.20530549 0.45836294 1.70324588 93 84 83
0.20983104 0.46184415 1.71618187 90 81 80
0.21119332 0.45836294 1.70324588 88 79 77
0.21200654 0.45380211 1.68629813 87 79 75
0.21653712 0.45721415 1.69897699 93 85 81
0.21947366 0.45721415 1.69897699 97 89 85
0.22580577 0.46419451 1.72491562 112 104 100
0.23415175 0.46896774 1.74265254 124 110 112
0.23474991 0.46419451 1.72491562 126 108 112
0.24699758 0.47631449 1.76995254 125 109 110
0.25071141 0.47756138 1.77458596 122 106 105
0.25180113 0.47384012 1.76075804 118 108 100
0.25093380 0.46656892 1.73373878 121 109 105
0.25199696 0.46301636 1.72053766 123 111 108
0.25627163 0.46537867 1.72931588 121 113 107
0.25926062 0.46537867 1.72931588 115 110 102
0.26224959 0.46537867 1.72931588 111 107 97
0.44642609 0.15420832 0.57302779 117 109 99
0.44628480 0.15381825 0.57157826 114 106 95
0.44614419 0.15343015 0.57013613 106 98 88
0.44563046 0.15291572 0.56822449 107 99 91
0.44216499 0.15139289 0.56256586 108 101 95
0.43805668 0.14867844 0.55247909 89 87 81
0.43901157 0.14867844 0.55247909 87 88 81
0.43853688 0.14819533 0.55068386 90 91 84
-0.09392603 0.21250014 0.78459704 31 23 24
-0.09203730 0.21127747 0.78008264 38 29 30
-0.08996431 0.20958918 0.77384913 54 44 43
-0.06938972 0.19326329 0.71357036 139 109 98
-0.06772862 0.19205034 0.70909190 141 116 106
-0.06588277 0.19025920 0.70247859 138 128 123
-0.06460165 0.19006224 0.70175141 139 130 125
0.20185439 0.46015069 1.69897699 87 75 75
0.20427896 0.45900032 1.69472957 87 77 77
0.20877397 0.46246883 1.70753610 85 77 73
0.21066402 0.46015069 1.69897699 81 73 69
0.21200654 0.45671672 1.68629813 84 76 72
0.21599577 0.45900032 1.69472957 92 84 81
0.21947366 0.46015069 1.69897699 103 95 92
0.22523266 0.46599016 1.72053766 110 101 99
0.23295404 0.46956554 1.73373878 117 104 104
0.23474991 0.46717590 1.72491562 123 106 107
0.24635436 0.47812533 1.76534331 115 97 95
0.25071141 0.48062861 1.77458596 122 104 101
0.25114879 0.47564799 1.75619650 125 109 104
1.19079900 0.44455236 1.64138460 143 144 127
1.17095399 0.43610480 1.61019444 140 141 125
1.17095578 0.43507138 1.60637879 139 140 126
1.19353008 0.44240993 1.63347435 138 139 126
1.18493247 0.43818647 1.61788034 137 138 125
0.44779506 0.15533006 0.57351255 113 107 97
0.44765016 0.15493682 0.57206064 106 100 90
0.44675389 0.15428582 0.56965703 101 96 87
0.44736254 0.15415628 0.56917870 100 96 88
0.43901157 0.14963335 0.55247909 106 107 100
-0.06938972 0.19449663 0.71357036 138 109 96
-0.06772862 0.19327594 0.70909190 144 119 107
-0.06588277 0.19147338 0.70247859 137 127 122
0.20824941 0.46425077 1.70324588 79 74 71
0.21013737 0.46192950 1.69472957 74 69 65
0.21148047 0.45849082 1.68211377 81 75 71
0.21653712 0.46308723 1.69897699 82 77 74
0.22002509 0.46425077 1.70324588 101 96 94
0.22466245 0.46777672 1.71618187 107 100 100
0.22820647 0.46896398 1.72053766 113 104 105
0.23235978 0.47135666 1.72931588 119 108 108
0.23474991 0.47015727 1.72491562 124 111 108
0.24444464 0.47744653 1.75165856 117 103 100
0.24811336 0.47868344 1.75619650 125 109 107
0.24985422 0.47621599 1.74714386 127 112 108
1.16815424 0.44098282 1.61788034 132 132 113
1.17939496 0.44416299 1.62954772 134 133 115
1.17937636 0.44309786 1.62563992 131 133 111
1.16541755 0.43681279 1.60258114 132 134 111
1.16269016 0.43475720 1.59503961 133 134 111
1.17373228 0.43784788 1.60637879 134 134 110
1.17095912 0.43578255 1.59880149 134 134 112
0.44817424 0.15645368 0.57399815 114 111 102
0.44840696 0.15618919 0.57302779 107 105 96
0.44750601 0.15553182 0.57061601 99 97 88
0.44811505 0.15540102 0.57013613 89 89 80
0.44872311 0.15527043 0.56965703 98 98 89
0.44970772 0.15527043 0.56965703 104 104 95
0.45107135 0.15540102 0.57013613 109 110 101
-0.06938972 0.19572999 0.71357036 139 114 101
-0.06772862 0.19450155 0.70909190 144 122 109
0.20961332 0.46369946 1.69050336 71 67 66
0.21148047 0.46139824 1.68211377 81 77 76
0.21545713 0.46369946 1.69050336 94 89 87
0.21892497 0.46485871 1.69472957 101 95 93
0.22409512 0.46955425 1.71184814 110 101 98
0.23295404 0.47555879 1.73373878 115 104 104
0.23534876 0.47434562 1.72931588 117 106 106
0.24444464 0.48047411 1.75165856 124 113 112
0.24875781 0.48297009 1.76075804 129 118 115
0.25049984 0.48047411 1.75165856 126 116 113
1.16537285 0.44272259 1.61402822 131 132 116
1.15987778 0.43958271 1.60258114 135 136 120
1.16817093 0.44167098 1.61019444 127 128 109
1.15993333 0.43751410 1.59503961 123 124 103
1.15724432 0.43546483 1.58756876 125 125 107
1.16544712 0.43751410 1.59503961 126 121 114
1.16546166 0.43648705 1.59129536 124 119 111
0.44817424 0.15744580 0.57399815 120 118 110
0.44802824 0.15704687 0.57254380 111 112 103
0.44750601 0.15651809 0.57061601 103 103 94
0.44811505 0.15638645 0.57013613 89 90 81
0.44872311 0.15625504 0.56965703 100 101 92
0.45008594 0.15638645 0.57013613 116 117 108
0.45145106 0.15651809 0.57061601 126 127 118
0.45129767 0.15612383 0.56917870 128 129 120
0.21148047 0.46430564 1.68211377 77 76 74
0.21438786 0.46430564 1.68211377 85 83 78
0.21783580 0.46546063 1.68629813 96 93 87
0.22409512 0.47251305 1.71184814 105 98 94
0.23415175 0.48101586 1.74265254 107 99 98
0.23534876 0.47733462 1.72931588 111 103 102
0.24635436 0.48727909 1.76534331 121 113 109
0.25203094 0.49240834 1.78392589 123 114 112
0.25245687 0.48727909 1.76534331 125 116 113
1.15984976 0.44340086 1.60637879 128 127 119
1.15441954 0.44027099 1.59503961 131 130 121
1.16264772 0.44235265 1.60258114 124 123 114
1.15721047 0.43923748 1.59129536 112 111 101
1.15724432 0.43820882 1.58756876 115 115 104
1.16271126 0.43923748 1.59129536 118 116 107
1.16546166 0.43923748 1.59129536 124 121 113
1.16275322 0.43718496 1.58385944 129 126 118
1.17371774 0.44027099 1.59503961 131 128 120
0.44680378 0.15830387 0.57351255 126 123 115
0.44741654 0.15817004 0.57302779 124 122 114
0.44727272 0.15776996 0.57157826 116 116 108
0.44712964 0.15737188 0.57013613 108 109 101
0.44811505 0.15737188 0.57013613 101 100 92
0.44872311 0.15723963 0.56965703 105 104 95
0.44970772 0.15723963 0.56965703 118 118 109
0.45145106 0.15750435 0.57061601 122 123 115
0.45167691 0.15723963 0.56965703 123 124 116
0.21013737 0.47071713 1.69472957 67 67 70
0.21253523 0.46954328 1.69050336 64 64 62
0.21492116 0.46837524 1.68629813 81 81 77
0.21783580 0.46837524 1.68629813 89 89 83
0.23536184 0.48652932 1.75165856 99 97 95
0.23595068 0.48155203 1.73373878 102 100 95
0.24764417 0.49289751 1.77458596 114 107 103
0.25203094 0.49549171 1.78392589 117 109 106
0.25377864 0.49289751 1.77458596 124 112 112
1.15710783 0.44512257 1.60258114 130 127 121
1.15441954 0.44302788 1.59503961 130 126 120
1.15990555 0.44407275 1.59880149 128 124 118
1.15721047 0.44198790 1.59129536 120 117 109
1.15454054 0.43992254 1.58385944 130 127 119
1.15998828 0.44095281 1.58756876 129 126 117
1.16273224 0.44095281 1.58756876 123 120 112
1.16004276 0.43889707 1.58016741 125 123 114
0.44529685 0.15875788 0.57157826 112 107 100
0.44666141 0.15889186 0.57206064 116 111 104
0.44651973 0.15849061 0.57061601 113 111 103
0.44675389 0.15822424 0.56965703 113 111 103
0.44736254 0.15809140 0.56917870 113 111 103
0.44834635 0.15809140 0.56917870 115 112 104
0.44970772 0.15822424 0.56965703 122 119 111
0.45107135 0.15835732 0.57013613 126 125 118
0.45129767 0.15809140 0.56917870 127 127 121
0.45228145 0.15809140 0.56917870 127 127 121
0.21306656 0.47364631 1.69472957 60 55 54
0.21545713 0.47246516 1.69050336 79 76 74
0.21622220 0.46779883 1.67380702 81 78 76
0.23781992 0.49466980 1.76995254 95 95 87
0.23655568 0.48579112 1.73818421 95 95 86
0.24894756 0.49857509 1.78392589 103 103 94
0.25269592 0.49989060 1.78863287 114 105 106
1.15710783 0.44789252 1.60258114 137 135 125
1.15441954 0.44578478 1.59503961 137 132 125
1.15990555 0.44683614 1.59880149 133 128 121
1.15993333 0.44578478 1.59503961 131 127 118
1.15996087 0.44473833 1.59129536 132 129 119
1.15998828 0.44369680 1.58756876 131 128 118
1.16001558 0.44266012 1.58385944 125 122 112
1.16275322 0.44266012 1.58385944 121 119 108
0.44454721 0.15947688 0.57061601 104 99 92
0.44590881 0.15961123 0.57109678 102 97 90
0.44614419 0.15934275 0.57013613 103 101 94
0.44637877 0.15907517 0.56917870 110 110 102
0.44736254 0.15907517 0.56917870 120 119 111
0.44834635 0.15907517 0.56917870 126 125 116
0.44933012 0.15907517 0.56917870 128 126 118
0.45107135 0.15934275 0.57013613 130 128 121
0.45167691 0.15920885 0.56965703 132 129 123
0.45228145 0.15907517 0.56917870 133 130 124
1.14480817 0.38586259 1.38063514 114 109 106
0.21413726 0.47897038 1.70324588 65 56 57
0.21653712 0.47776994 1.69897699 77 69 70
0.23293614 0.49386066 1.75619650 89 87 86
0.24032991 0.50298208 1.78863287 92 91 87
0.23777503 0.49131498 1.74714386 98 97 90
1.16814578 0.45605314 1.62175083 134 135 121
1.15984976 0.45173037 1.60637879 138 138 125
1.15441954 0.44854167 1.59503961 142 139 129
1.15990555 0.44959956 1.59880149 139 135 126
1.15993333 0.44854167 1.59503961 139 134 124
1.15996087 0.44748875 1.59129536 138 134 123
1.15998828 0.44644079 1.58756876 137 133 123
1.16001558 0.44539770 1.58385944 134 130 121
1.16547632 0.44644079 1.58756876 129 126 116
1.17371774 0.44854167 1.59503961 127 126 115
0.44417334 0.16032818 0.57013613 95 89 89
0.44590881 0.16059832 0.57109678 112 106 105
0.44614419 0.16032818 0.57013613 125 120 119
0.44637877 0.16005895 0.56917870 131 128 126
0.44698724 0.15992467 0.56870121 135 132 129
0.44797021 0.15992467 0.56870121 132 131 123
0.44933012 0.16005895 0.56917870 133 133 124
0.45145106 0.16046314 0.57061601 135 133 126
0.45167691 0.16019346 0.56965703 137 134 128
0.45228145 0.16005895 0.56917870 137 134 128
0.45364612 0.16019346 0.56965703 136 133 127
1.13287663 0.38824889 1.38063514 132 124 118
1.13526297 0.38824889 1.38063514 134 126 120
1.14475334 0.38904124 1.38345277 136 128 122
1.14248133 0.38745978 1.37782896 124 116 111
1.14486289 0.38745978 1.37782896 112 104 99
1.15192688 0.38904124 1.38345277 101 94 90
1.15196717 0.38824889 1.38063514 97 90 86
0.63332140 0.17865999 0.63532507 112 106 100
0.63441950 0.17865999 0.63532507 124 119 112
0.21521875 0.48434821 1.71184814 65 57 63
0.21762797 0.48312819 1.70753610 72 65 71
0.23723839 0.50607359 1.78863287 91 87 88
0.24160486 0.50875831 1.79812157 97 94 91
0.24150972 0.50209922 1.77458596 103 96 94
1.17659020 0.46217322 1.63347435 139 140 124
1.16537285 0.45667118 1.61402822 140 141 125
1.15714216 0.45236295 1.59880149 141 141 128
1.16264772 0.45343238 1.60258114 144 144 131
1.15993333 0.45129856 1.59503961 144 144 130
1.16269016 0.45129856 1.59503961 143 141 127
1.16271126 0.45023918 1.59129536 140 138 125
1.16546166 0.45023918 1.59129536 137 131 121
1.16821218 0.45023918 1.59129536 134 129 119
0.44553345 0.16144940 0.57061601 135 126 127
0.44576928 0.16117807 0.56965703 143 135 136
0.44600430 0.16090763 0.56870121 139 133 135
0.44698724 0.16090763 0.56870121 141 136 137
0.44797021 0.16090763 0.56870121 139 134 133
0.44933012 0.16104273 0.56917870 136 132 129
0.45145106 0.16144940 0.57061601 136 132 128
0.45167691 0.16117807 0.56965703 137 134 129
0.45228145 0.16104273 0.56917870 139 135 130
0.45364612 0.16117807 0.56965703 138 135 129
1.13049030 0.39063522 1.38063514 133 125 120
1.12828076 0.38905048 1.37503421 134 126 123
1.13065743 0.38905048 1.37503421 133 125 121
1.13303411 0.38905048 1.37503421 130 122 116
1.14242184 0.39063522 1.38063514 137 129 123
1.14016402 0.38905048 1.37503421 133 125 119
1.14486289 0.38984126 1.37782896 125 117 111
1.15192688 0.39143243 1.38345277 118 110 105
1.14962578 0.38984126 1.37782896 110 104 98
0.63519984 0.18060441 0.63831621 124 120 113
0.63391554 0.17992672 0.63592106 121 114 108
0.63501465 0.17992672 0.63592106 126 118 112
0.24342141 0.50916511 1.78863287 104 95 94
1.18228793 0.46724835 1.64138460 135 137 118
1.17094886 0.46165925 1.62175083 136 138 119
1.15987778 0.45620230 1.60258114 136 137 124
1.16264772 0.45620230 1.60258114 139 139 129
1.16266894 0.45512635 1.59880149 142 143 132
1.16269016 0.45405546 1.59503961 145 146 131
1.16271126 0.45298961 1.59129536 144 145 130
1.16546166 0.45298961 1.59129536 142 138 127
1.16821218 0.45298961 1.59129536 137 132 122
0.44628480 0.16270959 0.57157826 131 122 122
0.44614419 0.16229905 0.57013613 134 125 126
0.44600430 0.16189058 0.56870121 128 122 122
0.44698724 0.16189058 0.56870121 131 125 125
0.44797021 0.16189058 0.56870121 130 124 125
0.44933012 0.16202651 0.56917870 129 123 123
0.45183137 0.16257252 0.57109678 130 124 124
0.45205680 0.16229905 0.57013613 130 125 124
0.45266151 0.16216266 0.56965703 130 125 123
0.45402765 0.16229905 0.57013613 129 125 123
1.12372208 0.38984561 1.36947846 129 120 119
1.12381876 0.38905963 1.36671746 130 121 120
1.13074040 0.39063478 1.37225068 133 125 120
1.14009988 0.39222270 1.37782896 143 135 128
1.14016402 0.39142713 1.37503421 143 135 124
1.14254057 0.39142713 1.37503421 139 132 121
1.14958084 0.39302152 1.38063514 131 125 116
1.14729393 0.39142713 1.37503421 121 116 109
0.63400590 0.18136615 0.63711637 128 120 114
0.63272840 0.18068686 0.63473016 129 121 116
0.63323259 0.18051784 0.63413644 129 121 117
1.17943215 0.46894988 1.63741994 133 133 115
1.16815424 0.46335384 1.61788034 133 134 116
1.15714216 0.45788977 1.59880149 135 135 119
1.15990555 0.45788977 1.59880149 138 136 124
1.15993333 0.45681235 1.59503961 139 137 125
1.16269016 0.45681235 1.59503961 136 136 126
1.16271126 0.45574003 1.59129536 142 142 132
1.16273224 0.45467272 1.58756876 143 141 132
1.16821218 0.45574003 1.59129536 139 136 128
1.17648602 0.45788977 1.59880149 136 133 125
0.44741654 0.16411264 0.57302779 133 124 120
0.44651973 0.16342193 0.57061601 132 123 119
0.44637877 0.16301028 0.56917870 129 121 117
0.44736254 0.16301028 0.56917870 125 117 114
0.44834635 0.16301028 0.56917870 119 110 108
0.44970772 0.16314727 0.56965703 112 100 102
0.45221236 0.16369751 0.57157826 123 112 114
0.45243731 0.16342193 0.57061601 124 117 117
0.45266151 0.16314727 0.56965703 125 119 119
0.45440984 0.16342193 0.57061601 127 121 121
0.45501310 0.16328448 0.57013613 129 122 121
1.12145650 0.39142188 1.36671746 131 123 123
1.12381876 0.39142188 1.36671746 133 125 124
1.13074040 0.39300659 1.37225068 137 129 123
1.14009988 0.39460418 1.37782896 143 136 123
1.14016402 0.39380378 1.37503421 145 139 123
1.14022779 0.39300659 1.37225068 144 138 121
1.14958084 0.39540786 1.38063514 139 133 118
1.14729393 0.39380378 1.37503421 129 123 113
0.63104045 0.18161389 0.63413644 124 116 110
0.62919360 0.18076840 0.63118422 128 120 115
0.62852889 0.18026486 0.62942606 131 122 121
1.18228793 0.47292235 1.64138460 135 132 115
1.17375684 0.46838593 1.62563992 136 132 116
1.15987778 0.46174216 1.60258114 137 134 118
1.15990555 0.46065316 1.59880149 138 136 123
1.15993333 0.45956928 1.59503961 139 137 124
1.16269016 0.45956928 1.59503961 136 133 124
1.16271126 0.45849046 1.59129536 139 137 129
1.16273224 0.45741671 1.58756876 142 140 132
1.16821218 0.45849046 1.59129536 141 138 130
1.17648602 0.46065316 1.59880149 140 137 129
0.44855404 0.16552283 0.57448459 127 124 114
0.44765016 0.16482441 0.57206064 125 122 112
0.44712964 0.16426992 0.57013613 120 116 109
0.44811505 0.16426992 0.57013613 115 110 106
0.44910049 0.16426992 0.57013613 110 105 100
0.45046479 0.16440819 0.57061601 98 89 89
0.45374268 0.16524276 0.57351255 112 102 103
0.45358273 0.16482441 0.57206064 117 109 110
0.45342359 0.16440819 0.57061601 116 110 110
0.45517614 0.16468544 0.57157826 120 114 114
0.45577976 0.16454670 0.57109678 127 119 119
1.12135506 0.39457968 1.36947846 133 129 130
1.12145650 0.39378414 1.36671746 134 129 128
1.12608910 0.39457968 1.36947846 135 129 129
1.13303411 0.39618039 1.37503421 136 131 126
1.14009988 0.39698565 1.37782896 139 136 117
1.14016402 0.39618039 1.37503421 140 138 118
1.14022779 0.39537841 1.37225068 138 136 117
1.14958084 0.39779416 1.38063514 132 130 110
1.14729393 0.39618039 1.37503421 127 123 110
0.62410617 0.18101662 0.62825936 113 108 106
0.62685895 0.18118455 0.62884218 127 120 118
0.62620318 0.18068172 0.62709701 130 123 121
1.17377186 0.47461018 1.63741994 130 128 111
1.17660201 0.47461018 1.63741994 131 129 111
1.18228793 0.47575936 1.64138460 133 130 114
1.17375684 0.47119573 1.62563992 136 132 119
1.15987778 0.46451211 1.60258114 141 137 123
1.15990555 0.46341655 1.59880149 140 136 124
1.15993333 0.46232617 1.59503961 139 135 123
1.16269016 0.46232617 1.59503961 139 135 125
1.16271126 0.46124089 1.59129536 140 135 126
1.16546166 0.46124089 1.59129536 141 136 127
1.17096090 0.46232617 1.59503961 140 137 128
0.44802824 0.16595322 0.57254380 109 106 98
0.44750601 0.16539446 0.57061601 105 102 95
0.44985721 0.16553380 0.57109678 103 99 96
0.45160520 0.16581318 0.57206064 91 85 86
0.45451173 0.16651578 0.57448459 98 92 93
0.45473394 0.16623403 0.57351255 113 107 108
0.45534000 0.16609350 0.57302779 114 108 109
0.45671648 0.16623403 0.57351255 117 111 112
0.45732087 0.16609350 0.57302779 124 118 118
1.11673200 0.39614642 1.36671746 138 135 132
1.11684251 0.39534932 1.36396754 137 134 132
1.12145650 0.39614642 1.36671746 136 132 128
1.12836862 0.39775023 1.37225068 135 131 127
1.13303411 0.39855704 1.37503421 137 133 129
1.14003563 0.40018049 1.38063514 138 134 122
1.14242184 0.40018049 1.38063514 135 131 117
1.14248133 0.39936709 1.37782896 132 129 114
1.14254057 0.39855704 1.37503421 129 127 112
1.15192688 0.40099719 1.38345277 122 120 104
1.14962578 0.39936709 1.37782896 118 115 103
0.62308931 0.18244068 0.62942606 106 106 102
0.62244344 0.18193391 0.62767762 107 107 103
0.62237579 0.18159762 0.62651742 110 108 103
0.62288296 0.18142994 0.62593889 113 109 104
0.62454152 0.18159762 0.62651742 116 112 107
0.62447011 0.18126257 0.62536150 117 113 104
0.62382454 0.18076229 0.62363553 115 110 101
0.62204117 0.17993464 0.62078005 112 108 98
1.17945099 0.47859636 1.64138460 122 118 101
1.18515754 0.47975799 1.64536858 130 126 110
1.17657840 0.47514495 1.62954772 135 131 117
1.15987778 0.46728203 1.60258114 142 137 124
1.16269016 0.46508306 1.59503961 140 132 124
1.16271126 0.46399131 1.59129536 143 135 127
1.16820395 0.46508306 1.59503961 141 133 125
0.44916633 0.16736689 0.57399815 93 93 90
0.44826064 0.16666129 0.57157826 91 90 87
0.45038784 0.16708393 0.57302779 82 79 75
0.45099702 0.16694282 0.57254380 92 89 86
0.45275140 0.16722530 0.57351255 98 93 91
0.45528340 0.16779312 0.57545996 98 92 93
0.45550469 0.16750872 0.57448459 104 98 99
0.45649764 0.16750872 0.57448459 114 108 109
1.11662102 0.39931375 1.36947846 145 137 132
1.11448503 0.39770684 1.36396754 144 139 128
1.11684251 0.39770684 1.36396754 143 139 127
1.12145650 0.39850867 1.36671746 141 136 126
1.13065743 0.40093368 1.37503421 137 132 122
1.13533700 0.40174857 1.37782896 135 130 120
1.14236224 0.40338835 1.38345277 134 126 119
1.14475334 0.40338835 1.38345277 133 124 116
1.14480817 0.40256679 1.38063514 128 120 112
1.14486289 0.40174857 1.37782896 119 111 103
1.15431809 0.40338835 1.38345277 107 103 94
1.15907478 0.40421328 1.38628185 107 106 97
1.16147089 0.40421328 1.38628185 112 111 101
0.62308931 0.18352860 0.62942606 95 96 94
0.62302029 0.18318841 0.62825936 96 97 95
0.62295151 0.18284950 0.62709701 98 99 93
0.62403542 0.18284950 0.62709701 101 100 92
0.62511927 0.18284950 0.62709701 102 101 93
0.62504673 0.18251182 0.62593889 104 102 90
0.62439901 0.18200764 0.62420982 106 104 90
0.62318254 0.18133973 0.62191910 110 107 93
0.62311417 0.18100759 0.62078005 110 108 94
0.62763566 0.18200764 0.62420982 111 109 95
1.17943215 0.48027048 1.63741994 129 123 106
1.17094886 0.47567460 1.62175083 132 126 109
1.15714216 0.46894336 1.59880149 135 129 112
1.15717638 0.46783996 1.59503961 139 133 119
1.15721047 0.46674174 1.59129536 141 134 124
1.16269016 0.46783996 1.59503961 137 130 121
1.16271126 0.46674174 1.59129536 142 135 128
1.16820395 0.46783996 1.59503961 141 133 127
1.17372262 0.46894336 1.59880149 140 134 127
0.44939739 0.16807437 0.57302779 82 82 81
0.45115057 0.16835900 0.57399815 70 70 67
0.45176014 0.16821657 0.57351255 77 76 72
1.11436975 0.40087092 1.36671746 144 139 124
1.11224711 0.39926100 1.36122859 145 139 123
1.11459994 0.39926100 1.36122859 145 139 122
1.11920011 0.40006435 1.36396754 144 138 121
1.13295555 0.40413004 1.37782896 141 135 119
1.13764930 0.40495312 1.38063514 136 130 114
1.14709437 0.40660936 1.38628185 125 108 105
1.14714456 0.40577954 1.38345277 119 102 99
1.14719450 0.40495312 1.38063514 107 96 94
1.16144991 0.40744257 1.38912261 101 101 92
1.16624069 0.40827921 1.39197505 106 106 97
0.62424856 0.18495998 0.63059705 88 89 87
0.62359822 0.18444525 0.62884218 89 90 88
0.62468511 0.18444525 0.62884218 90 91 87
0.62519211 0.18427432 0.62825936 92 93 84
0.62569809 0.18410368 0.62767762 92 92 83
0.62562442 0.18376338 0.62651742 94 94 84
0.62497449 0.18325529 0.62478513 97 97 85
0.62375480 0.18258217 0.62249023 102 101 89
0.62879366 0.18342434 0.62536150 110 106 95
1.17094707 0.47962508 1.62563992 125 118 100
1.16537285 0.47619918 1.61402822 125 119 101
1.15714216 0.47170675 1.59880149 126 120 102
1.15717638 0.47059685 1.59503961 130 124 107
1.15721047 0.46949217 1.59129536 135 128 114
1.15996087 0.46949217 1.59129536 134 127 112
1.16271126 0.46949217 1.59129536 136 129 117
1.16820395 0.47059685 1.59503961 135 128 117
1.17372262 0.47170675 1.59880149 135 128 117
1.17926729 0.47282189 1.60258114 136 129 118
1.11459994 0.40161377 1.36122859 144 140 121
1.13764930 0.40733942 1.38063514 135 129 114
1.14236224 0.40817073 1.38345277 126 117 104
1.14709437 0.40900543 1.38628185 114 99 93
1.14714456 0.40817073 1.38345277 101 85 79
0.62424856 0.18604992 0.63059705 96 97 94
0.62359822 0.18553215 0.62884218 91 92 90
0.62410617 0.18536021 0.62825936 85 86 83
0.62519211 0.18536021 0.62825936 81 82 78
0.62569809 0.18518858 0.62767762 81 82 77
0.62562442 0.18484627 0.62651742 84 85 79
0.62439901 0.18416543 0.62420982 91 91 84
0.62375480 0.18365809 0.62249023 96 95 88
0.62821412 0.18433517 0.62478513 103 96 91
1.15982163 0.47785118 1.61019444 112 104 89
1.16260481 0.47785118 1.61019444 112 104 90
1.15441954 0.47335374 1.59503961 116 108 95
1.15445995 0.47224259 1.59129536 119 111 98
1.15180290 0.47003585 1.58385944 120 112 100
1.15724432 0.47113663 1.58756876 125 116 104
1.15998828 0.47113663 1.58756876 128 120 109
1.16546166 0.47224259 1.59129536 129 122 111
1.17096090 0.47335374 1.59503961 127 121 110
1.17648602 0.47447014 1.59880149 128 123 113
1.17371297 0.47224259 1.59129536 137 132 123
1.11673200 0.40559545 1.36671746 136 135 123
1.11684251 0.40477937 1.36396754 134 133 119
1.14236224 0.41056192 1.38345277 130 123 112
1.14709437 0.41140151 1.38628185 121 114 103
1.14714456 0.41056192 1.38345277 113 106 95
1.14953578 0.41056192 1.38345277 106 100 92
0.62352830 0.18627347 0.62767762 75 75 71
0.62461323 0.18627347 0.62767762 78 79 73
0.62511927 0.18610115 0.62709701 79 81 74
0.62447011 0.18558611 0.62536150 81 82 77
0.62267888 0.18473402 0.62249023 89 88 84
0.62204117 0.18422650 0.62078005 94 93 89
0.62763566 0.18524434 0.62420982 99 91 88
1.15710783 0.47836176 1.60258114 114 105 93
1.15170956 0.47499302 1.59129536 114 104 96
1.14638686 0.47167137 1.58016741 113 103 95
1.14644563 0.47057447 1.57649267 112 103 95
1.15454054 0.47277343 1.58385944 113 104 96
1.15458047 0.47167137 1.58016741 114 106 98
1.15731168 0.47167137 1.58016741 117 109 103
1.16547632 0.47388062 1.58756876 120 112 106
1.17096257 0.47499302 1.59129536 115 107 101
1.16550517 0.47167137 1.58016741 124 116 110
1.11888134 0.40960935 1.37225068 130 130 119
1.11673200 0.40795770 1.36671746 129 129 118
1.11684251 0.40713686 1.36396754 120 120 111
1.12145650 0.40795770 1.36671746 128 128 118
1.13764930 0.41211206 1.38063514 133 130 121
1.14236224 0.41295311 1.38345277 130 127 118
1.14475334 0.41295311 1.38345277 125 119 112
1.14714456 0.41295311 1.38345277 119 112 105
1.14719450 0.41211206 1.38063514 113 106 100
0.62237579 0.18701203 0.62651742 68 68 61
0.62288296 0.18683936 0.62593889 75 76 69
0.62338924 0.18666700 0.62536150 79 81 73
0.62160295 0.18580994 0.62249023 79 81 72
0.61983299 0.18496072 0.61964518 83 83 76
0.62533242 0.18563947 0.62191910 101 97 91
0.62526011 0.18529947 0.62078005 105 99 93
1.14099598 0.47329932 1.57649267 116 106 99
1.13057458 0.46785909 1.55837202 107 97 91
1.13326812 0.46785909 1.55837202 102 93 87
1.14385033 0.47110811 1.56919408 103 95 89
1.14391458 0.47002012 1.56557012 107 99 93
1.14134872 0.46785909 1.55837202 106 98 92
1.15198696 0.47110811 1.56919408 109 101 95
1.16006994 0.47329932 1.57649267 112 107 100
1.14155650 0.46465456 1.54769826 115 112 104
1.11673200 0.41031995 1.36671746 123 124 114
1.11909425 0.41031995 1.36671746 115 115 106
1.13997102 0.41534430 1.38345277 123 123 114
1.14469826 0.41619366 1.38628185 123 124 115
1.14709437 0.41619366 1.38628185 123 120 114
1.14714456 0.41534430 1.38345277 121 114 113
0.62059087 0.18722972 0.62363553 89 90 84
0.61995775 0.18671441 0.62191910 93 95 86
0.61932808 0.18620193 0.62021214 92 94 85
0.61926693 0.18586183 0.61907929 91 92 83
0.61920601 0.18552297 0.61795062 92 92 84
0.62361604 0.18620193 0.62021214 102 100 92
0.62411702 0.18603173 0.61964518 106 103 95
1.12808156 0.46839905 1.55123997 95 88 83
1.13596165 0.47055262 1.55837202 93 88 80
1.13604355 0.46947336 1.55479777 106 101 94
1.13612509 0.46839905 1.55123997 110 105 97
1.13880634 0.46839905 1.55123997 113 108 101
1.14148748 0.46839905 1.55123997 115 112 105
1.13379073 0.46415055 1.53716969 117 118 109
1.11869061 0.45689818 1.51315141 123 124 115
0.61831552 0.18761721 0.62134910 101 102 97
0.61825609 0.18727390 0.62021214 105 107 98
0.61819690 0.18693186 0.61907929 110 112 103
0.61813790 0.18659106 0.61795062 111 113 103
0.61751723 0.18608217 0.61626530 110 110 100
0.61689997 0.18557605 0.61458915 107 107 97
0.62247705 0.18693186 0.61907929 106 106 96
0.62297815 0.18676130 0.61851448 109 107 99
1.12808156 0.47108024 1.55123997 95 87 85
1.13335621 0.47216070 1.55479777 86 82 78
1.13344395 0.47108024 1.55123997 98 94 89
1.13353121 0.47000471 1.54769826 105 103 97
1.13620627 0.47000471 1.54769826 109 109 102
1.13888144 0.47000471 1.54769826 114 114 106
1.13122559 0.46575129 1.53369200 119 120 111
1.10879076 0.45544705 1.49976075 122 123 114
0.61712688 0.18800189 0.61907929 110 109 99
0.61589217 0.18697736 0.61570555 116 115 103
0.61416727 0.18613207 0.61292207 121 117 105
0.62241024 0.18765913 0.61795062 111 109 99
1.12550604 0.47267979 1.54769826 91 82 82
1.13076282 0.47376144 1.55123997 89 80 81
1.13085616 0.47267979 1.54769826 92 83 85
1.13094914 0.47160307 1.54417276 98 93 92
1.11607528 0.46212891 1.51315141 124 124 117
0.61325657 0.18821250 0.61626530 112 109 106
0.61432177 0.18821250 0.61626530 115 110 101
0.61482799 0.18804155 0.61570555 117 112 100
0.61255401 0.18702236 0.61236840 119 114 102
0.61250585 0.18668507 0.61126405 124 116 104
0.61356235 0.18668507 0.61126405 126 117 105
0.61908478 0.18804155 0.61570555 124 117 104
0.62127757 0.18838376 0.61682606 117 109 98
1.12571597 0.47319415 1.54066324 86 74 78
1.12338233 0.46998969 1.53022993 102 94 95
1.12096643 0.46787736 1.52335250 107 100 100
1.10375655 0.45961463 1.49644995 113 108 107
0.61325657 0.18927766 0.61626530 116 109 105
0.61376381 0.18910575 0.61570555 120 113 105
0.61427009 0.18893415 0.61514688 123 116 105
0.61255401 0.18808079 0.61236840 126 119 108
0.61250585 0.18774159 0.61126405 127 119 108
0.61356235 0.18774159 0.61126405 127 119 108
0.61852300 0.18893415 0.61514688 127 119 107
0.62127757 0.18944989 0.61682606 123 116 103
1.11293542 0.47157007 1.52678347 82 69 72
1.11809254 0.47263455 1.53022993 83 70 76
0.61488074 0.19051602 0.61682606 123 118 114
0.61538690 0.19034283 0.61626530 126 121 114
0.61477542 0.18982512 0.61458915 129 124 117
0.61416727 0.18931022 0.61292207 130 123 115
0.61467087 0.18913922 0.61236840 129 121 113
0.61964756 0.19034283 0.61626530 129 122 113
0.62184340 0.19068953 0.61738783 130 123 113
0.62291050 0.19068953 0.61738783 130 123 112
1.10299850 0.46997496 1.51315141 92 80 86
0.61432177 0.19140799 0.61626530 132 125 123
0.61427009 0.19106060 0.61514688 131 126 121
0.61366272 0.19054189 0.61347675 130 125 120
0.61416727 0.19036961 0.61292207 130 124 119
0.61467087 0.19019765 0.61236840 130 124 117
0.61964756 0.19140799 0.61626530 132 125 118
0.62127757 0.19158216 0.61682606 133 127 121
0.62234366 0.19158216 0.61682606 135 130 123
0.62511623 0.19210656 0.61851448 129 125 118
1.09082413 0.46737412 1.49644995 88 79 84
1.09582961 0.46840814 1.49976075 84 75 80
1.10085738 0.46944672 1.50308609 83 74 79
0.61376381 0.19229834 0.61570555 123 114 113
0.61482799 0.19229834 0.61570555 127 119 116
0.61477542 0.19194965 0.61458915 127 120 116
0.61527985 0.19177578 0.61403245 126 120 115
0.61578339 0.19160223 0.61347675 127 122 116
0.62021142 0.19264829 0.61682606 130 125 118
0.62184340 0.19282374 0.61738783 133 129 121
0.62234366 0.19264829 0.61682606 137 135 127
0.62454641 0.19299951 0.61795062 132 130 121
1.08860445 0.46789485 1.48987222 81 75 77
0.61432177 0.19353832 0.61626530 115 105 101
0.61538690 0.19353832 0.61626530 114 106 102
0.61589217 0.19336253 0.61570555 114 108 103
0.61639655 0.19318707 0.61514688 115 109 104
0.61689997 0.19301192 0.61458915 118 112 106
0.62134218 0.19406760 0.61795062 120 115 108
0.62184340 0.19389085 0.61738783 123 118 111
0.62291050 0.19389085 0.61738783 125 124 115
0.62397760 0.19389085 0.61738783 122 122 113
1.09100223 0.47150624 1.49315381 84 84 82
0.61650783 0.19495796 0.61738783 103 95 90
0.61757493 0.19495796 0.61738783 99 94 89
0.61807913 0.19478056 0.61682606 101 96 91
0.61858243 0.19460349 0.61626530 105 100 94
0.62190908 0.19531372 0.61851448 108 103 97
0.62241024 0.19513567 0.61795062 111 106 99
0.62347829 0.19513567 0.61795062 108 106 98
1.09341061 0.47513360 1.49644995 99 99 92
0.61813790 0.19620375 0.61795062 95 91 84
0.61864203 0.19602506 0.61738783 100 96 89
0.61914527 0.19584669 0.61682606 104 99 93
0.62247705 0.19656211 0.61907929 106 101 95
0.62297815 0.19638278 0.61851448 108 103 98
1.09100223 0.47666782 1.49315381 119 113 104
0.61813790 0.19727182 0.61795062 99 94 86
0.61920601 0.19727182 0.61795062 102 96 89
0.61914527 0.19691283 0.61682606 108 102 95
0.62247705 0.19763215 0.61907929 110 104 97
0.62241024 0.19727182 0.61795062 115 109 102
0.88277191 0.29928318 0.93245095 107 107 100
0.61920601 0.19833991 0.61795062 113 105 98
0.61970919 0.19815926 0.61738783 114 106 99
0.62247705 0.19870217 0.61907929 111 103 95
0.87354076 0.29883957 0.92608178 92 92 88
0.88398784 0.30130932 0.93373531 88 89 82
0.88438356 0.30089486 0.93245095 86 87 78
0.88477820 0.30048153 0.93117011 88 89 80
0.61813790 0.19940798 0.61795062 132 125 117
0.61864203 0.19922638 0.61738783 133 124 116
0.61970919 0.19922638 0.61738783 130 121 114
0.62190908 0.19958992 0.61851448 124 116 106
0.62184340 0.19922638 0.61738783 121 112 102
0.87834042 0.30209100 0.93117011 85 81 77
0.88603526 0.30418015 0.93760973 83 79 76
0.88642979 0.30375999 0.93631470 83 81 77
0.88560176 0.30292320 0.93373531 83 83 78
0.88599527 0.30250651 0.93245095 86 87 81
0.88638771 0.30209100 0.93117011 87 85 79
0.61813790 0.20047607 0.61795062 131 122 117
0.61920601 0.20047607 0.61795062 137 126 119
0.61970919 0.20029348 0.61738783 134 123 116
0.62190908 0.20065898 0.61851448 132 122 113
0.62241024 0.20047607 0.61795062 130 121 109
0.62177789 0.19992931 0.61626530 134 125 113
0.87834042 0.30370045 0.93117011 101 98 90
0.88726246 0.30622426 0.93890840 96 93 87
0.88520718 0.30495712 0.93502325 95 93 88
0.88560176 0.30453709 0.93373531 92 92 90
0.88599527 0.30411819 0.93245095 92 93 92
0.88517177 0.30328384 0.92989278 93 93 91
0.88435280 0.30245405 0.92734861 93 92 88
0.88716930 0.30286840 0.92861897 91 90 85
0.88877434 0.30286840 0.92861897 92 90 84
0.88916135 0.30245405 0.92734861 96 92 85
0.61813790 0.20154414 0.61795062 126 112 111
0.61920601 0.20154414 0.61795062 130 116 112
0.61970919 0.20136058 0.61738783 130 116 111
0.62190908 0.20172803 0.61851448 127 115 107
0.62241024 0.20154414 0.61795062 124 115 103
0.62177789 0.20099448 0.61626530 129 121 108
0.87354076 0.30364153 0.92608178 117 109 102
0.88398784 0.30615097 0.93373531 102 93 92
0.88438356 0.30572987 0.93245095 94 92 91
0.88477820 0.30530989 0.93117011 91 92 92
0.88395923 0.30447343 0.92861897 92 93 93
0.88193983 0.30322728 0.92481834 96 97 96
0.88474536 0.30364153 0.92608178 95 96 95
0.88634598 0.30364153 0.92608178 92 92 91
0.88673526 0.30322728 0.92481834 91 91 88
0.61757493 0.20242769 0.61738783 128 111 112
0.61864203 0.20242769 0.61738783 129 114 112
0.61970919 0.20242769 0.61738783 130 118 113
0.62190908 0.20279709 0.61851448 132 120 115
0.62184340 0.20242769 0.61738783 123 116 104
0.62121320 0.20187612 0.61570555 126 120 106
0.47850785 0.35131648 1.06586766 132 128 120
0.47959602 0.35076496 1.06419444 132 127 120
0.48143539 0.35076496 1.06419444 129 124 117
0.48327476 0.35076496 1.06419444 131 125 122
0.48511413 0.35076496 1.06419444 133 126 124
0.48771915 0.35131648 1.06586766 132 126 124
0.48879290 0.35076496 1.06419444 131 125 122
0.48833242 0.34912077 1.05920601 136 131 124
0.49046123 0.34803316 1.05590630 141 136 120
0.48999658 0.34641439 1.05099511 136 131 114
0.49257684 0.34695229 1.05262709 134 128 112
0.49704289 0.34374967 1.04291058 94 88 89
0.87194008 0.30524218 0.92608178 131 126 113
0.86879325 0.30358326 0.92104870 126 120 111
0.87514138 0.30524218 0.92608178 118 109 108
0.88155931 0.30691934 0.93117011 106 97 96
0.88316876 0.30691934 0.93117011 97 92 92
0.88356453 0.30649832 0.92989278 90 89 89
0.88395923 0.30607846 0.92861897 85 84 84
0.88073832 0.30441046 0.92355835 89 89 89
0.88233459 0.30441046 0.92355835 91 92 92
0.88393086 0.30441046 0.92355835 87 88 88
0.88432240 0.30399629 0.92230183 85 86 84
0.88112128 0.30235085 0.91730964 86 87 84
0.61920601 0.20368029 0.61795062 129 118 115
0.61970919 0.20349479 0.61738783 127 120 113
0.62134218 0.20368029 0.61795062 127 119 113
0.62184340 0.20349479 0.61738783 117 111 101
0.62121320 0.20294032 0.61570555 116 112 99
0.47850785 0.35315874 1.06586766 115 112 106
0.48035011 0.35315874 1.06586766 113 108 102
0.48143539 0.35260433 1.06419444 119 111 106
0.48327476 0.35260433 1.06419444 126 118 113
0.48511413 0.35260433 1.06419444 128 120 116
0.48695353 0.35260433 1.06419444 129 121 119
0.48879290 0.35260433 1.06419444 131 122 120
0.48909664 0.35150072 1.06086361 129 124 117
0.48939848 0.35040399 1.05755353 133 128 121
0.49046123 0.34985819 1.05590630 133 128 118
0.48999658 0.34823096 1.05099511 127 121 111
0.49181315 0.34823096 1.05099511 120 112 104
0.49748617 0.35095149 1.05920601 114 105 101
0.49776143 0.34985819 1.05590630 99 89 91
0.49649307 0.34769189 1.04936814 95 85 88
0.49676883 0.34661877 1.04612935 93 83 86
0.49704289 0.34555227 1.04291058 92 87 89
0.86838114 0.30559042 0.92230183 115 107 101
0.86643881 0.30434820 0.91855264 106 98 92
0.86920422 0.30476114 0.91979897 98 89 87
0.87794143 0.30726260 0.92734861 92 83 82
0.88074911 0.30768353 0.92861897 88 80 80
0.88356453 0.30810559 0.92989278 85 82 83
0.88395923 0.30768353 0.92861897 84 81 82
0.88073832 0.30600676 0.92355835 82 80 81
0.88233459 0.30600676 0.92355835 82 81 81
0.88393086 0.30600676 0.92355835 79 78 78
0.88432240 0.30559042 0.92230183 77 77 75
0.88112128 0.30393636 0.91730964 79 80 76
0.61757493 0.20456190 0.61738783 120 113 109
0.61920601 0.20474838 0.61795062 126 119 115
0.61970919 0.20456190 0.61738783 125 122 114
0.62134218 0.20474838 0.61795062 121 118 110
0.62184340 0.20456190 0.61738783 114 110 102
0.62064946 0.20381939 0.61514688 109 104 95
0.62046099 0.20271567 0.61181575 116 116 107
0.62095803 0.20253289 0.61126405 112 112 103
0.47926140 0.35556006 1.06754625 103 99 96
0.48035011 0.35500100 1.06586766 106 102 98
0.48143539 0.35444370 1.06419444 111 103 100
0.48251727 0.35388815 1.06252635 120 113 109
0.48435378 0.35388815 1.06252635 123 117 112
0.48695353 0.35444370 1.06419444 124 118 113
0.48879290 0.35444370 1.06419444 127 120 116
0.48833242 0.35278225 1.05920601 128 124 118
0.48863620 0.35168326 1.05590630 127 122 116
0.49046123 0.35168326 1.05590630 127 122 115
0.48923808 0.34950563 1.04936814 128 122 116
0.49105182 0.34950563 1.04936814 123 114 113
0.49748617 0.35278225 1.05920601 117 108 107
0.49776143 0.35168326 1.05590630 103 94 95
0.49649307 0.34950563 1.04936814 95 87 88
0.49676883 0.34842691 1.04612935 95 88 91
0.49780875 0.34789005 1.04451752 93 89 90
0.87316352 0.30718455 0.92230183 88 79 78
0.87834269 0.30844352 0.92608178 85 76 75
0.88235420 0.30928856 0.92861897 82 75 76
0.88395923 0.30928856 0.92861897 80 75 75
0.88193983 0.30802271 0.92481834 79 75 75
0.88233459 0.30760306 0.92355835 78 76 75
0.88393086 0.30760306 0.92355835 82 79 79
0.61594689 0.20544189 0.61682606 116 111 105
0.61813790 0.20581645 0.61795062 118 113 106
0.61920601 0.20581645 0.61795062 123 118 111
0.61970919 0.20562901 0.61738783 123 120 112
0.62134218 0.20581645 0.61795062 121 118 110
0.62184340 0.20562901 0.61738783 118 115 107
0.62064946 0.20488262 0.61514688 116 112 104
0.61996305 0.20395723 0.61236840 109 104 97
0.61990148 0.20358939 0.61126405 102 97 90
0.62039858 0.20340599 0.61071336 103 98 91
0.48001733 0.35796896 1.06923008 107 101 101
0.48110655 0.35740525 1.06754625 111 105 105
0.48219237 0.35684329 1.06586766 114 107 107
0.48327476 0.35628310 1.06419444 118 112 110
0.48587689 0.35684329 1.06586766 122 118 114
0.48771915 0.35684329 1.06586766 120 116 112
0.48956144 0.35684329 1.06586766 120 117 112
0.48986325 0.35572466 1.06252635 126 122 119
0.48939848 0.35405979 1.05755353 124 121 118
0.49122638 0.35405979 1.05755353 118 109 108
0.48999658 0.35186407 1.05099511 114 104 104
0.49105182 0.35131940 1.04936814 113 104 105
0.49982914 0.35628310 1.06419444 107 98 100
0.50009835 0.35516796 1.06086361 99 90 93
0.49803495 0.35241044 1.05262709 95 86 89
0.49830681 0.35131940 1.04936814 93 84 87
0.49857697 0.35023507 1.04612935 91 85 87
0.50038511 0.35023507 1.04612935 90 87 88
0.50296944 0.35077640 1.04774630 93 90 90
0.87954426 0.31046829 0.92734861 88 79 78
0.88356453 0.31132007 0.92989278 85 76 77
0.88395923 0.31089360 0.92861897 83 75 76
0.88435280 0.31046829 0.92734861 82 74 75
0.88474536 0.31004417 0.92608178 81 76 75
0.61493367 0.20688453 0.61795062 119 118 110
0.61544073 0.20669611 0.61738783 116 115 107
0.61650783 0.20669611 0.61738783 115 113 104
0.61813790 0.20688453 0.61795062 117 113 104
0.61920601 0.20688453 0.61795062 123 119 110
0.62027407 0.20688453 0.61795062 121 117 110
0.62134218 0.20688453 0.61795062 120 116 108
0.62184340 0.20669611 0.61738783 118 115 107
0.62121320 0.20613290 0.61570555 118 113 106
0.62114906 0.20575914 0.61458915 111 106 99
0.61940348 0.20483062 0.61181575 105 100 93
0.61934304 0.20446156 0.61071336 108 103 96
0.61984015 0.20427752 0.61016369 111 106 99
0.48077565 0.36038548 1.07091916 105 101 100
0.48186541 0.35981706 1.06923008 103 99 98
0.48295173 0.35925040 1.06754625 111 106 104
0.48479688 0.35925040 1.06754625 112 107 105
0.48664206 0.35925040 1.06754625 113 111 107
0.48848721 0.35925040 1.06754625 118 115 111
0.49110579 0.35981706 1.06923008 123 116 111
0.49063227 0.35812247 1.06419444 126 118 115
0.49093026 0.35700157 1.06086361 125 114 114
0.49353623 0.35756114 1.06252635 119 107 108
0.49152067 0.35478073 1.05426419 114 101 103
0.49565542 0.35644376 1.05920601 106 93 95
0.50219423 0.35981706 1.06923008 103 90 92
0.50245726 0.35868555 1.06586766 97 86 90
0.50193197 0.35700157 1.06086361 95 84 88
0.50297844 0.35644376 1.05920601 90 81 82
0.50402164 0.35588768 1.05755353 90 82 83
0.50584954 0.35588768 1.05755353 94 90 89
0.50847071 0.35644376 1.05920601 97 92 92
0.88195729 0.31292731 0.92989278 89 80 79
0.88356453 0.31292731 0.92989278 88 80 79
0.88517177 0.31292731 0.92989278 87 80 81
0.88435280 0.31207114 0.92734861 90 83 84
0.88595569 0.31207114 0.92734861 90 84 84
0.88634598 0.31164482 0.92608178 92 88 87
0.61488074 0.20757416 0.61682606 113 114 107
0.61594689 0.20757416 0.61682606 116 116 108
0.61813790 0.20795260 0.61795062 120 117 108
0.61864203 0.20776321 0.61738783 123 120 111
0.61970919 0.20776321 0.61738783 121 117 109
0.62077630 0.20776321 0.61738783 118 113 106
0.62127757 0.20757416 0.61682606 116 111 104
0.62008679 0.20682140 0.61458915 115 110 103
0.62002480 0.20644706 0.61347675 112 107 100
0.61884499 0.20570244 0.61126405 107 102 95
0.48077565 0.36223647 1.07091916 110 108 106
0.48262665 0.36223647 1.07091916 109 108 104
0.48295173 0.36109558 1.06754625 109 109 101
0.48479688 0.36109558 1.06754625 112 111 103
0.48664206 0.36109558 1.06754625 121 121 112
0.48848721 0.36109558 1.06754625 124 123 115
0.49110579 0.36166513 1.06923008 127 121 114
0.49063227 0.35996184 1.06419444 127 121 115
0.49093026 0.35883519 1.06086361 124 114 110
0.49431100 0.35996184 1.06419444 116 104 103
0.49305427 0.35771558 1.05755353 112 99 101
0.49877277 0.36052781 1.06586766 102 89 91
0.50378346 0.36280963 1.07261372 97 84 86
0.50404233 0.36166513 1.06923008 93 83 86
0.50429958 0.36052781 1.06586766 89 81 84
0.50614184 0.36052781 1.06586766 92 84 87
0.50798410 0.36052781 1.06586766 93 84 87
0.51062924 0.36109558 1.06754625 96 95 93
0.88195729 0.31453454 0.92989278 94 80 78
0.88356453 0.31453454 0.92989278 93 81 80
0.88517177 0.31453454 0.92989278 93 85 86
0.88556427 0.31410369 0.92861897 96 88 89
0.88595569 0.31367400 0.92734861 97 92 92
0.88634598 0.31324548 0.92608178 99 96 95
0.88673526 0.31281814 0.92481834 102 99 98
0.61427009 0.20807232 0.61514688 111 112 104
