ply
format ascii 1.0
element vertex 1059
property float x
property float y
property float z
property uchar red
property uchar green
property uchar blue
end_header
1.12980224 -0.34964871 1.38271402 97 101 106
1.12960600 -0.32927734 1.38247385 94 99 105
1.12992164 -0.31037485 1.38217224 94 99 105
1.13021210 -0.28970003 1.38175406 95 98 105
1.12976119 -0.26929254 1.38120276 94 98 102
1.13767861 -0.24221434 1.37994701 92 100 103
1.12973591 -0.25039689 1.38045344 93 98 102
1.12993191 -0.22991191 1.37946819 82 85 87
1.12285495 -0.23925068 1.38004951 91 99 104
1.13061842 -0.20975703 1.37901062 63 63 61
1.13034133 -0.19020691 1.37899802 65 61 61
1.13016510 -0.16992129 1.37878300 63 61 60
1.12975793 -0.14961098 1.37828617 66 64 64
1.13005979 -0.13023944 1.37770714 67 65 66
1.12983622 -0.11019566 1.37692980 65 63 63
1.13020718 -0.08976168 1.37573265 73 69 69
1.13015950 -0.06287883 1.35731255 130 128 124
1.12976245 -0.07271926 1.36786805 111 105 105
1.13046122 -0.04455824 1.33549982 155 153 147
1.13040480 -0.05409638 1.34703421 144 143 136
1.13036152 -0.02573232 1.31169388 141 139 138
1.12958117 -0.03619531 1.32499444 139 136 133
1.13420054 -0.00066797 1.27980776 147 147 142
1.13004831 -0.00868696 1.29012505 142 142 138
1.12804595 -0.01799085 1.30196543 135 134 133
1.12972332 0.01780126 1.25638006 163 159 154
1.13003062 0.00805750 1.26880864 161 161 154
1.13004864 0.03571992 1.23334086 124 126 126
1.12997946 0.02511540 1.24696484 163 162 157
1.13005282 0.05371581 1.20975793 125 127 127
1.12994254 0.04367556 1.22304192 127 127 126
1.12968505 0.07770343 1.17775655 142 142 141
1.12995595 0.06827262 1.19046593 130 132 132
1.12997218 0.09509014 1.15401613 138 140 140
1.13019223 0.08510748 1.16775711 129 134 132
1.13009968 0.11934319 1.11912165 162 162 154
1.13004389 0.11171338 1.13021752 161 161 155
1.13008085 0.10221196 1.14390752 135 135 137
1.13001757 0.13555280 1.09419225 130 133 132
1.12978549 0.12589913 1.10910414 154 154 148
1.13017509 0.15827331 1.05622799 123 125 124
1.13000048 0.15021552 1.07050198 128 132 129
1.12991682 0.14181605 1.08437522 126 131 131
1.13022864 0.17841337 1.01501825 158 160 153
1.13004985 0.17205537 1.02930941 148 150 145
1.13021776 0.16394413 1.04585889 130 133 131
1.13001144 0.19699733 0.97257025 165 165 158
1.12988100 0.18947442 0.99018424 164 164 156
1.12997094 0.18273370 1.00531651 162 161 155
1.12299675 0.21836569 0.91751105 140 140 139
1.12938817 0.21391095 0.93108764 149 149 144
1.12985915 0.20685691 0.94948702 160 160 152
1.12924195 0.20149234 0.96186993 163 164 155
1.14957200 -0.92880901 1.38927646 113 121 119
1.15055444 -0.90968706 1.38921350 115 124 122
1.15072168 -0.89034946 1.38921468 115 124 121
1.15057053 -0.86982574 1.38903234 116 124 123
1.15039896 -0.84929194 1.38882526 117 123 123
1.15030752 -0.83002197 1.38871486 117 123 122
1.15020126 -0.80976325 1.38872939 116 124 124
1.15041914 -0.78937135 1.38869350 118 124 124
1.15024986 -0.76997634 1.38864523 117 124 124
1.15026632 -0.75078583 1.38866509 117 123 123
1.15017670 -0.73032739 1.38855684 116 122 121
1.15006881 -0.70986061 1.38842659 115 121 121
1.14995356 -0.69059328 1.38828748 114 118 119
1.14980136 -0.67010847 1.38810374 111 117 117
1.14966099 -0.64963580 1.38793431 110 116 116
1.14952764 -0.63037121 1.38777340 108 115 116
1.14979932 -0.60961017 1.38758036 108 113 116
1.15026421 -0.58935731 1.38721554 107 113 114
1.14993413 -0.57001222 1.38681745 106 112 115
1.14983399 -0.55086256 1.38636644 107 110 114
1.15032213 -0.53008834 1.38584087 104 111 111
1.14995570 -0.50956559 1.38539941 105 110 111
1.14959920 -0.49025716 1.38496990 105 109 113
1.15028597 -0.46963085 1.38450013 105 108 112
1.15000277 -0.44925270 1.38401532 103 109 112
1.14961281 -0.42996942 1.38354597 104 108 112
1.15018801 -0.41095076 1.38319194 103 109 111
1.15026004 -0.39032597 1.38288651 101 105 110
1.15004201 -0.36993895 1.38262435 97 103 106
1.14959111 -0.35028343 1.38240373 98 102 107
1.14989414 -0.32997555 1.38213436 95 100 106
1.15025707 -0.30980008 1.38177560 92 99 102
1.14993089 -0.28999035 1.38138687 94 99 103
1.15002606 -0.26964873 1.38082638 93 98 102
1.15163537 -0.24461905 1.37979783 94 100 103
1.14915663 -0.25378740 1.38027277 93 98 102
1.15008035 -0.23045520 1.37904658 81 84 86
1.15030781 -0.21041293 1.37864680 62 62 62
1.15031091 -0.19015899 1.37865059 62 61 62
1.15015129 -0.16988136 1.37845925 62 61 60
1.14977193 -0.14958036 1.37800455 66 65 64
1.15006272 -0.13074523 1.37750122 66 65 64
1.14994797 -0.11018434 1.37678921 65 62 62
1.14974496 -0.08972349 1.37563292 74 71 70
1.14952951 -0.06284764 1.35663893 123 122 120
1.14985097 -0.07274467 1.36742179 119 114 112
1.15061738 -0.04453429 1.33478211 155 154 145
1.14953922 -0.05441248 1.34672787 136 137 129
1.15041390 -0.02648973 1.31206852 143 143 142
1.14919783 -0.03703482 1.32543596 141 139 131
1.14928508 -0.00066774 1.27936321 157 156 151
1.15003329 -0.00968718 1.29077633 137 137 135
1.14952712 -0.01868538 1.30218181 134 135 134
1.15074170 0.01726025 1.25660588 159 160 149
1.14962289 0.00748259 1.26903045 156 156 149
1.15007703 0.03545354 1.23344837 125 125 125
1.15018143 0.02528601 1.24643256 153 153 147
1.15002841 0.05371467 1.20972665 127 130 130
1.14989512 0.04381158 1.22269313 125 127 127
1.14985814 0.07777353 1.17800682 147 146 144
1.15005977 0.06834579 1.19055644 130 129 129
1.15003124 0.09515268 1.15428007 131 134 135
1.15003455 0.08522785 1.16796938 130 131 131
1.14943203 0.11934207 1.11911110 157 157 155
1.14993311 0.11174497 1.13029729 157 157 154
1.15011194 0.10223502 1.14416621 162 166 160
1.15001060 0.13563573 1.09399940 140 141 140
1.14982830 0.12597136 1.10905369 158 159 154
1.15008567 0.15812436 1.05523450 130 131 129
1.14995802 0.15021524 1.06977400 132 133 132
1.15026027 0.14187733 1.08397581 136 138 138
1.15014179 0.17756119 1.01517676 155 156 150
1.14998416 0.17051440 1.03062794 122 122 123
1.15011039 0.16304420 1.04586215 122 124 124
1.14985782 0.19692376 0.97267671 158 158 152
1.15002684 0.18932275 0.98959324 162 162 156
1.15001459 0.18260929 1.00433772 166 166 160
1.14422168 0.21124807 0.93706046 151 149 144
1.14977866 0.20627533 0.95044886 165 164 156
1.14959810 0.20156344 0.96220933 163 164 155
1.16982807 -0.92868611 1.38909264 115 124 122
1.16979419 -0.90945231 1.38905251 116 124 122
1.16979536 -0.89024646 1.38905397 117 124 122
1.16963992 -0.86972369 1.38886928 118 124 123
1.16944604 -0.84917807 1.38863905 117 122 123
1.16936449 -0.82991877 1.38854217 117 124 123
1.16939025 -0.81073672 1.38857275 118 124 123
1.16937261 -0.79032478 1.38855187 119 123 123
1.17034309 -0.76974431 1.38844011 117 124 124
1.16977928 -0.75040673 1.38846071 117 123 122
1.17040041 -0.73021745 1.38834782 117 122 122
1.17030636 -0.70976326 1.38823621 118 121 121
1.17017328 -0.69048929 1.38807832 114 121 121
1.16999800 -0.66999585 1.38787046 112 117 118
1.16983602 -0.64951598 1.38767832 110 116 117
1.16968527 -0.63024681 1.38749950 108 116 116
1.16987286 -0.61004459 1.38728446 108 115 117
1.17035367 -0.58921084 1.38687063 108 113 115
1.17002425 -0.56987362 1.38648028 106 112 114
1.16963527 -0.55051930 1.38601935 108 111 113
1.17025521 -0.52982950 1.38547717 104 111 113
1.17000481 -0.50943305 1.38503900 104 111 113
1.16963256 -0.49012564 1.38459834 103 110 112
1.17004222 -0.47048174 1.38416685 105 108 111
1.17030414 -0.44992043 1.38366984 103 109 112
1.16968105 -0.42987446 1.38324044 103 109 111
1.17012208 -0.41036927 1.38284042 103 108 109
1.17025586 -0.39021900 1.38250746 99 106 110
1.17004730 -0.36984172 1.38226110 97 103 107
1.16986874 -0.35067520 1.38205017 96 101 106
1.16964679 -0.33030825 1.38178790 96 100 106
1.17019121 -0.31013883 1.38140531 92 100 102
1.17017938 -0.29073678 1.38100705 94 98 103
1.16974039 -0.27034643 1.38048891 95 97 103
1.17091405 -0.24776626 1.37964808 93 98 102
1.16762795 -0.25685305 1.38010704 93 100 105
1.17005067 -0.23097257 1.37878720 82 85 85
1.17032916 -0.21037108 1.37837209 61 61 64
1.17029598 -0.19011523 1.37833302 62 62 62
1.17014391 -0.16984368 1.37815393 63 63 61
1.16976886 -0.14954862 1.37771217 64 64 63
1.16998663 -0.13017259 1.37722663 65 64 62
1.17001795 -0.11016949 1.37660441 63 61 60
1.16985065 -0.09003328 1.37555665 72 71 70
1.17004287 -0.06281592 1.35595470 121 121 117
1.17029231 -0.07267111 1.36687142 118 113 112
1.17096002 -0.04477274 1.33449006 158 156 148
1.16916083 -0.05444448 1.34619195 141 139 132
1.16996626 -0.02683887 1.31195121 142 142 140
1.16989623 -0.03734480 1.32525995 147 147 137
1.16983903 -0.00066748 1.27886772 159 158 150
1.17009057 -0.00961338 1.29013741 139 139 137
1.16927309 -0.01867722 1.30161353 150 150 146
1.17012184 0.01664582 1.25712410 154 155 146
1.16997056 0.00710069 1.26910886 153 154 147
1.16986045 0.03567259 1.23311245 127 129 127
1.17006711 0.02523675 1.24633459 150 151 144
1.17000021 0.05363500 1.21010084 123 125 126
1.17001727 0.04367224 1.22294717 128 131 129
1.17009292 0.07784729 1.17831223 136 135 132
1.17005778 0.06827695 1.19100461 141 141 138
1.16997208 0.09524108 1.15436369 139 141 140
1.16985423 0.08521657 1.16831776 129 130 130
1.16975407 0.11934333 1.11912297 154 155 146
1.16989256 0.11176121 1.13033644 167 168 161
1.16996340 0.10224161 1.14424003 150 154 150
1.16994084 0.13551894 1.09363556 139 139 137
1.16998493 0.12593780 1.10898403 155 157 151
1.17012978 0.15721234 1.05512347 121 123 123
1.16983998 0.14928816 1.07012463 130 131 129
1.17036713 0.14173259 1.08329091 127 128 129
1.17024314 0.17749104 1.01445360 155 156 150
1.17007216 0.17009346 1.02973952 141 143 137
1.16952806 0.16276526 1.04445679 129 129 128
1.17038615 0.19711215 0.97268816 158 157 151
1.17041670 0.18898752 0.99027020 161 161 157
1.16946354 0.18236831 1.00437202 148 146 144
1.16561082 0.20396349 0.95524470 163 163 155
1.16870993 0.20140993 0.96219798 164 164 156
1.19008727 -0.92857030 1.38891929 116 124 122
1.19000951 -0.90930569 1.38882843 115 124 122
1.18995227 -0.89005916 1.38876175 118 125 123
1.18985722 -0.87078684 1.38865081 117 124 124
1.18968867 -0.85026482 1.38845403 118 125 124
1.18960882 -0.82981040 1.38836084 118 125 123
1.18963600 -0.81063151 1.38839255 119 124 123
1.18958914 -0.79020296 1.38833784 118 123 123
1.19053306 -0.76987709 1.38823310 117 125 124
1.18990884 -0.75080825 1.38822402 119 123 124
1.19056180 -0.73007292 1.38807307 118 123 124
1.19047791 -0.70962981 1.38797524 114 121 120
1.19035437 -0.69036635 1.38783120 112 120 120
1.19018470 -0.66988143 1.38763335 112 118 118
1.18999591 -0.64939194 1.38741331 110 116 118
1.18981081 -0.63010968 1.38719755 109 117 117
1.18942353 -0.61051452 1.38700007 108 115 115
1.19020423 -0.58971667 1.38659439 108 113 114
1.19013148 -0.56974808 1.38617473 108 113 114
1.18970615 -0.55038430 1.38567943 107 111 111
1.19030375 -0.52995645 1.38515306 104 111 114
1.19006734 -0.50931067 1.38470623 105 111 112
1.18967617 -0.49000274 1.38425108 103 111 111
1.19021697 -0.47050615 1.38380710 104 110 111
1.19006617 -0.45022060 1.38331405 102 109 112
1.18969527 -0.42976331 1.38288288 101 109 111
1.19010458 -0.41080424 1.38252946 100 107 109
1.19026401 -0.39011967 1.38215538 99 105 110
1.19003005 -0.36974080 1.38188368 98 101 108
1.18986012 -0.35058281 1.38168635 98 101 105
1.18966978 -0.33023110 1.38146532 96 99 106
1.19011862 -0.30958992 1.38108271 92 98 103
1.19020250 -0.29067176 1.38069838 92 98 103
1.19470214 -0.26228463 1.37992311 92 96 102
1.18893065 -0.27168549 1.38026561 94 97 102
1.19016223 -0.25000729 1.37946028 92 98 101
1.19004823 -0.23034813 1.37840628 79 82 83
1.19029402 -0.21032061 1.37804161 62 61 63
1.19027229 -0.19007160 1.37801649 62 61 62
1.19009237 -0.16980105 1.37780825 62 62 59
1.18973534 -0.14951415 1.37739490 64 63 64
1.18991001 -0.13070628 1.37694881 65 64 63
1.18998859 -0.11014604 1.37631089 63 62 61
1.18981044 -0.08969677 1.37522304 76 73 73
1.19104433 -0.06372313 1.35651895 127 125 119
1.18960924 -0.07377655 1.36751999 123 119 115
1.19000522 -0.04569751 1.33497675 151 149 143
1.19002602 -0.05541114 1.34674776 139 138 131
1.19004229 -0.02676361 1.31129626 145 145 142
1.18990496 -0.03732574 1.32458441 148 148 142
1.19057708 -0.00066733 1.27858714 142 145 142
1.19010915 -0.00960943 1.28973590 137 138 135
1.18905871 -0.01866997 1.30110780 157 157 149
1.18994245 0.01672068 1.25691115 150 151 145
1.18988638 0.00706033 1.26895499 148 149 143
1.18985702 0.03563276 1.23335329 132 133 132
1.19012646 0.02514689 1.24647745 162 163 152
1.19003529 0.05382900 1.21020053 127 131 130
1.19001951 0.04382593 1.22302152 127 127 126
1.18964838 0.07776418 1.17867738 134 136 133
1.18994461 0.06923715 1.19009149 142 142 138
1.19119517 0.06160528 1.20016578 133 134 132
1.18984901 0.09517790 1.15458806 136 136 134
1.19006247 0.08521413 1.16851737 128 131 130
1.18972823 0.11930966 1.11880723 159 160 150
1.18996702 0.11180305 1.13019279 159 159 151
1.19011626 0.10224565 1.14428426 161 163 158
1.19043163 0.13568282 1.09217994 138 140 136
1.18997504 0.12590051 1.10844419 163 164 156
1.19005853 0.15702988 1.05402602 124 125 126
1.18993703 0.14842631 1.06993157 140 140 139
1.18856803 0.14107950 1.08305721 131 132 131
1.19010127 0.17721845 1.01417632 159 160 153
1.18990185 0.16943423 1.03011134 134 137 135
1.18988551 0.16193809 1.04488297 125 128 127
1.18723800 0.19597896 0.97445645 160 159 153
1.19008074 0.18927379 0.98986344 142 143 139
1.19036733 0.18238985 1.00412731 157 157 155
1.21039467 -0.92849492 1.38880648 115 125 123
1.21028338 -0.90920785 1.38867896 117 125 124
1.21017740 -0.88992826 1.38855741 119 125 123
1.21005838 -0.87064262 1.38842085 117 126 125
1.20991129 -0.85014107 1.38825204 118 126 125
1.20983372 -0.82969219 1.38816302 118 125 124
1.20986950 -0.81052145 1.38820409 119 125 125
1.20982037 -0.79009472 1.38814772 118 125 125
1.20972713 -0.76964128 1.38804078 118 124 122
1.20967202 -0.75041422 1.38797754 118 124 124
1.20952776 -0.72993566 1.38781201 117 124 124
1.20941191 -0.70947850 1.38767920 116 123 123
1.21034310 -0.69009675 1.38752693 113 120 119
1.21030637 -0.66973501 1.38732999 112 117 117
1.21011318 -0.64924930 1.38710850 110 117 118
1.20992355 -0.62997049 1.38689110 110 116 118
1.20974593 -0.61070379 1.38668754 107 115 116
1.21006224 -0.59049345 1.38632732 109 114 116
1.21025859 -0.56963609 1.38590220 108 114 113
1.20977970 -0.55025504 1.38535384 107 112 112
1.20991405 -0.52997554 1.38479521 103 110 113
1.21037284 -0.50972898 1.38430284 103 110 111
1.20965534 -0.48985805 1.38384226 102 110 111
1.21012605 -0.47078533 1.38338601 104 109 110
1.21003209 -0.45008769 1.38290587 102 109 111
1.20969339 -0.42965006 1.38251873 101 109 110
1.21004131 -0.41015600 1.38219366 98 107 111
1.21029308 -0.39003044 1.38183933 99 103 110
1.21006030 -0.36965781 1.38157354 99 103 107
1.20988795 -0.35050427 1.38137679 95 101 105
1.20970589 -0.33016018 1.38116889 94 99 103
1.21011586 -0.31005839 1.38082349 92 99 102
1.21025270 -0.29061551 1.38043099 92 98 103
1.21078189 -0.26630814 1.37979793 92 97 102
1.20827663 -0.27640756 1.38012033 91 97 103
1.21015869 -0.24969934 1.37911761 91 97 100
1.20997997 -0.23086100 1.37812226 79 80 81
1.21027708 -0.21027506 1.37774266 61 61 61
1.21022443 -0.19002555 1.37768273 62 62 61
1.21004552 -0.16976049 1.37747904 62 62 60
1.20969015 -0.14947936 1.37707442 63 62 64
1.21021725 -0.13019206 1.37662979 64 64 63
1.20995311 -0.11012280 1.37602010 64 62 62
1.20981358 -0.08999948 1.37503923 77 74 74
1.21011020 -0.06400226 1.35621202 129 126 118
1.20968806 -0.07387550 1.36729824 132 126 122
1.20988268 -0.04570936 1.33435916 152 151 143
1.21027645 -0.05537914 1.34597011 137 137 129
1.20999324 -0.02675360 1.31081156 143 143 139
1.20999274 -0.03730978 1.32401845 150 147 144
1.21032603 -0.00066726 1.27843877 124 125 123
1.21006440 -0.00953680 1.28936711 140 141 136
1.21003524 -0.01866399 1.30069122 153 154 148
1.20958318 0.01672195 1.25700266 160 160 153
1.20990116 0.00702050 1.26890925 145 146 140
1.20993818 0.03555166 1.23372653 129 129 129
1.21016404 0.02510546 1.24675751 159 160 151
1.21008477 0.05372501 1.21067155 125 129 127
1.21003766 0.04376469 1.22341538 128 129 127
1.20812055 0.07844601 1.17790624 138 139 138
1.21029628 0.07010384 1.18914199 135 136 132
1.21010729 0.06161765 1.20040668 124 126 126
1.21000269 0.09521256 1.15453475 136 138 135
1.21007020 0.08528775 1.16857073 129 131 131
1.20939968 0.11924729 1.11822231 163 164 158
1.21008156 0.11170484 1.12991185 161 162 156
1.21012962 0.10223761 1.14419553 140 143 138
1.21021747 0.13537314 1.09114926 147 147 143
1.20979412 0.12517304 1.10856757 157 157 151
1.21064059 0.15639198 1.05429427 129 130 130
1.20964128 0.14761282 1.07011508 140 139 137
1.21003592 0.14141110 1.08081129 143 144 142
1.21026467 0.17742901 1.01398219 161 161 157
1.20985583 0.16926374 1.02949429 165 165 159
1.20992068 0.16192131 1.04409924 129 130 133
1.20817573 0.18742250 0.99273394 150 152 146
1.20923267 0.18211580 1.00462998 149 149 145
1.22929251 -0.92932084 1.38874183 116 126 125
1.23009693 -0.90970117 1.38849099 119 126 123
1.23036074 -0.88977162 1.38831303 119 126 124
1.23023991 -0.87048950 1.38817668 118 126 126
1.23012591 -0.85001608 1.38804799 119 126 125
1.23007651 -0.82959005 1.38799222 117 126 124
1.23010723 -0.81041799 1.38802690 116 126 125
1.23004572 -0.78998655 1.38795756 119 125 125
1.22992495 -0.76951956 1.38782130 119 125 124
1.22987730 -0.75030068 1.38776754 119 124 124
1.22972197 -0.72982012 1.38759227 118 123 123
1.22956301 -0.70934240 1.38741290 116 123 121
1.23042960 -0.69019404 1.38722524 113 120 120
1.23028730 -0.67061955 1.38702320 113 118 118
1.23034310 -0.65017187 1.38680741 110 118 117
1.23000101 -0.62981787 1.38655505 109 115 116
1.22979058 -0.61054103 1.38631790 108 115 116
1.22989165 -0.58972834 1.38594584 107 113 115
1.23028735 -0.56948236 1.38552823 108 113 113
1.22979586 -0.55010447 1.38497473 106 112 112
1.23017035 -0.53095745 1.38441648 103 110 112
1.23003016 -0.51020713 1.38389152 104 110 112
1.22973647 -0.48956392 1.38337491 104 110 112
1.23037099 -0.47041288 1.38293049 105 108 110
1.22998709 -0.44995525 1.38249894 102 108 111
1.22965185 -0.42952677 1.38212212 100 108 110
1.22997216 -0.41061608 1.38185046 100 107 111
1.23030180 -0.38993760 1.38151049 99 104 107
1.23007831 -0.36957377 1.38125955 99 104 107
1.22990828 -0.35042610 1.38106863 95 102 105
1.22971735 -0.33008491 1.38085426 93 101 104
1.23003734 -0.30943897 1.38050440 94 99 103
1.23589805 -0.28514253 1.37992700 90 97 100
1.22864601 -0.29209542 1.38017729 91 98 102
1.23001765 -0.26993394 1.37961546 91 96 101
1.22181529 -0.27979402 1.38001585 90 98 101
1.23009961 -0.24988645 1.37879291 89 97 101
1.23012381 -0.23026209 1.37776500 77 78 79
1.23017492 -0.21021639 1.37735842 62 62 62
1.23014338 -0.18997596 1.37732309 61 61 60
1.22997051 -0.16971732 1.37712952 62 61 59
1.22966441 -0.14944810 1.37678676 64 62 63
1.23015077 -0.13058702 1.37636270 65 63 62
1.22988135 -0.11009709 1.37569852 65 62 62
1.22999302 -0.08973303 1.37464914 80 77 74
1.22967732 -0.06405931 1.35551801 132 132 121
1.23004358 -0.07394791 1.36664236 131 128 122
1.22981869 -0.04565488 1.33373612 147 147 143
1.23053415 -0.05534849 1.34522672 138 137 134
1.23000485 -0.02674524 1.31040738 146 147 142
1.23010917 -0.03729521 1.32350219 145 145 142
1.23019797 -0.00066725 1.27842262 133 134 130
1.23009752 -0.00960535 1.28925873 142 143 135
1.23106633 -0.01865904 1.30034640 158 159 151
1.22970458 0.01680091 1.25710808 150 150 143
1.22994429 0.00700134 1.26905870 147 146 143
1.23006285 0.03560441 1.23396536 136 136 136
1.22998765 0.02520145 1.24685913 156 157 149
1.22998847 0.05388062 1.21065491 127 132 131
1.23002836 0.04370162 1.22376868 128 131 128
1.22984555 0.07876456 1.17758677 121 124 126
1.23012008 0.07024823 1.18908525 126 127 127
1.22991383 0.06162245 1.20050024 130 133 133
1.22991830 0.09515905 1.15436265 137 138 137
1.22992928 0.08522422 1.16865828 124 126 126
1.23129075 0.11848296 1.11811194 155 157 151
1.22989262 0.11118267 1.13001715 152 152 150
1.23017429 0.10220503 1.14383247 161 162 157
1.22992269 0.13511184 1.09042296 152 153 144
1.23005527 0.12482379 1.10767092 161 161 157
1.23020010 0.15612420 1.05408346 134 134 134
1.23026775 0.14725631 1.06998016 156 156 153
1.22796664 0.14132464 1.08015049 145 145 137
1.23002112 0.17712926 1.01388016 157 158 152
1.22992126 0.16936022 1.02936079 159 159 153
1.22995893 0.16174537 1.04363990 152 153 149
1.22167063 0.18417801 0.99869374 168 168 159
1.22518805 0.18147557 1.00468167 158 161 155
1.24968624 -0.92946065 1.38845618 118 127 125
1.25000901 -0.91044553 1.38826075 119 127 126
1.25056573 -0.88963528 1.38810027 119 127 125
1.25039914 -0.87032573 1.38791544 118 127 125
1.25027335 -0.84984949 1.38777587 118 127 126
1.25021877 -0.82942453 1.38771531 119 128 126
1.25021317 -0.81023255 1.38770914 121 126 123
1.25012191 -0.78978751 1.38760785 117 126 124
1.24998937 -0.76931963 1.38746080 118 125 125
1.24993330 -0.75010124 1.38739859 119 123 123
1.24949504 -0.73019115 1.38722526 117 124 123
1.24990673 -0.70979452 1.38705604 115 121 120
1.24978973 -0.68967353 1.38687646 112 121 120
1.25048652 -0.67062076 1.38668256 111 117 119
1.25028725 -0.65014475 1.38646158 110 117 117
1.25006670 -0.62966431 1.38621693 112 115 117
1.24979679 -0.61036487 1.38591769 108 114 116
1.24980934 -0.59011216 1.38552314 108 114 115
1.25025113 -0.56930391 1.38509411 108 113 113
1.24976563 -0.54993820 1.38455614 106 111 113
1.25019647 -0.53037953 1.38401139 102 111 112
1.25001629 -0.51006627 1.38350941 103 109 112
1.24970122 -0.48968184 1.38301161 102 109 111
1.25035374 -0.47028698 1.38256027 102 108 110
1.24995412 -0.44983139 1.38211844 102 109 111
1.24962301 -0.42941190 1.38175231 102 107 109
1.25027826 -0.41001398 1.38145862 100 105 109
1.25030770 -0.38984702 1.38118968 97 105 107
1.25005558 -0.36948059 1.38091119 97 102 106
1.24987579 -0.35033577 1.38071256 95 102 106
1.24968261 -0.32999999 1.38049912 93 101 104
1.25605500 -0.30309685 1.37992654 91 99 102
1.24902991 -0.31097087 1.38022460 92 99 102
1.25088646 -0.28977082 1.37973941 92 97 103
1.24369282 -0.29728890 1.38003004 93 98 101
1.24973500 -0.27010201 1.37924021 91 96 101
1.25015319 -0.24968458 1.37838716 92 97 101
1.24994489 -0.23072207 1.37737399 76 79 79
1.25010064 -0.21016428 1.37701690 61 61 61
1.25005855 -0.18992733 1.37697054 60 60 59
1.24989903 -0.16967604 1.37679480 61 61 61
1.24958729 -0.14941168 1.37645141 64 63 63
1.25025938 -0.13022192 1.37602947 65 63 61
1.24978077 -0.11006963 1.37535529 64 62 61
1.25005617 -0.08979989 1.37435166 80 78 75
1.24967813 -0.06392747 1.35463361 137 135 130
1.25043924 -0.07391027 1.36593460 133 130 122
1.24977994 -0.04573973 1.33333533 146 146 140
1.25033628 -0.05518021 1.34446028 139 136 131
1.25016009 -0.02697215 1.31035451 149 149 145
1.24967012 -0.03747183 1.32328473 150 150 141
1.25012646 -0.00066727 1.27846538 131 131 127
1.25013074 -0.00960497 1.28923547 147 148 141
1.24999594 -0.01865643 1.30016457 160 160 156
1.25007252 0.01672605 1.25730170 140 141 132
1.24993907 0.00698217 1.26915390 141 142 138
1.25001356 0.03565294 1.23402463 136 137 136
1.24996202 0.02533866 1.24684317 152 153 149
1.24999212 0.05376759 1.21092861 127 129 129
1.24988284 0.04384959 1.22368198 132 132 132
1.25015009 0.07876148 1.17754083 126 126 127
1.25015525 0.07034562 1.18895498 127 128 129
1.24971537 0.06162686 1.20058625 129 130 129
1.25006664 0.09512818 1.15399182 134 134 132
1.24994663 0.08521165 1.16848868 125 126 126
1.25004136 0.11819361 1.11740784 167 167 161
1.25012964 0.11072465 1.12953032 149 150 147
1.25029771 0.10215325 1.14325194 138 139 140
1.25005593 0.13500025 1.09011836 145 145 141
1.25000606 0.12464119 1.10697060 152 152 147
1.25003979 0.15609893 1.05391270 140 142 139
1.24990275 0.14647617 1.07067811 148 148 146
1.24364985 0.17480882 1.01786200 161 160 152
1.24939432 0.16838493 1.03089488 161 161 154
1.25024881 0.16180593 1.04368781 156 157 153
1.26983652 -0.92927884 1.38818452 119 127 125
1.26963860 -0.90994211 1.38796828 119 128 127
1.26951851 -0.88946664 1.38783708 119 126 126
1.27010197 -0.86987984 1.38762001 118 126 124
1.27010746 -0.85003266 1.38747262 118 127 125
1.27057264 -0.82964646 1.38736433 119 127 126
1.27024263 -0.81000435 1.38731824 117 125 122
1.26991492 -0.79046712 1.38720807 118 126 122
1.27018229 -0.77003140 1.38702031 117 125 125
1.26990541 -0.74985866 1.38694996 119 123 123
1.26973476 -0.73058267 1.38676354 117 124 122
1.26958331 -0.71012414 1.38659815 113 120 120
1.26972435 -0.68988618 1.38645305 112 121 120
1.27048320 -0.67042240 1.38627238 114 118 118
1.27029011 -0.64995716 1.38606165 111 116 116
1.27008977 -0.62949448 1.38584304 111 116 116
1.26982653 -0.61020549 1.38555581 107 114 115
1.26960655 -0.58999861 1.38511344 107 112 114
1.27053063 -0.56983273 1.38467930 105 111 111
1.26977848 -0.54979596 1.38419817 106 109 112
1.27013572 -0.53065950 1.38363958 103 110 111
1.26998836 -0.50992410 1.38312382 102 109 111
1.26970133 -0.48930061 1.38263108 104 109 110
1.27036266 -0.47017483 1.38223063 102 109 110
1.26994402 -0.44971970 1.38177510 100 108 109
1.26956919 -0.42929226 1.38136731 100 105 108
1.27015223 -0.41031650 1.38105719 99 104 107
1.27020583 -0.38972619 1.38076156 98 104 108
1.26997479 -0.36937331 1.38051041 96 101 108
1.26981031 -0.35023909 1.38033160 95 100 105
1.27631078 -0.32300969 1.37994342 92 100 101
1.26880053 -0.33077748 1.38016575 93 100 103
1.27136998 -0.30832487 1.37978020 90 98 102
1.26359268 -0.31558164 1.38005476 93 98 99
1.27015451 -0.29040056 1.37941002 92 97 103
1.26967291 -0.27003281 1.37888697 92 97 101
1.27010035 -0.24962491 1.37805769 91 97 100
1.27019485 -0.23027801 1.37701474 73 75 74
1.27003512 -0.21011531 1.37669618 60 60 60
1.27002133 -0.18988739 1.37668116 61 61 59
1.26988342 -0.16964361 1.37653164 61 61 61
1.26958785 -0.14938555 1.37621117 65 64 64
1.27025129 -0.13044736 1.37581986 64 64 63
1.26980294 -0.11005362 1.37515594 62 62 62
1.27005615 -0.08960960 1.37410735 82 79 79
1.27057530 -0.06503267 1.35530473 143 141 133
1.26957265 -0.07490130 1.36633699 135 132 125
1.27024768 -0.04659881 1.33381282 152 153 144
1.26907778 -0.05626049 1.34523731 136 136 129
1.26985120 -0.02790046 1.31124397 150 150 146
1.27064490 -0.03845202 1.32402431 156 154 147
1.26993143 -0.00066723 1.27838247 142 143 141
1.27035890 -0.01014450 1.28978924 157 157 149
1.26453317 -0.01865540 1.30009291 154 153 147
1.27028827 0.01664875 1.25733770 151 152 144
1.26998198 0.00694206 1.26913464 145 146 141
1.26984845 0.03556447 1.23413033 153 153 147
1.26992953 0.02520320 1.24693319 150 151 144
1.26990664 0.05376954 1.21095764 127 129 129
1.27000187 0.04370896 1.22389790 125 126 121
1.27060146 0.07781116 1.17857738 127 127 125
1.27006524 0.06933431 1.19019561 123 124 124
1.27043262 0.06162522 1.20055424 125 126 127
1.27023392 0.09507031 1.15328776 134 136 134
1.27004164 0.08527031 1.16795803 132 134 133
1.27022953 0.11817976 1.11684192 145 143 138
1.27011892 0.10981126 1.12993368 157 158 155
1.26961739 0.10128559 1.14358028 138 139 139
1.27024428 0.13472477 1.08998011 145 144 141
1.26968417 0.12449805 1.10687521 153 153 146
1.27000170 0.15608982 1.05385062 142 142 137
1.26988773 0.14648874 1.07038709 156 157 154
1.26508556 0.16571559 1.03556899 155 154 150
1.26896874 0.16161263 1.04360327 154 154 150
1.28997030 -0.92909121 1.38790417 120 128 127
1.28977863 -0.90976478 1.38769782 119 127 123
1.28961898 -0.88926734 1.38752608 120 127 126
1.29013500 -0.87021523 1.38731114 119 127 125
1.29047834 -0.85067161 1.38716080 118 127 125
1.29033769 -0.83020166 1.38700961 117 126 125
1.29023501 -0.80975983 1.38689933 117 125 123
1.29009176 -0.79049506 1.38674540 118 125 122
1.28994377 -0.77003315 1.38658635 117 124 123
1.28987290 -0.74962084 1.38651016 117 124 123
1.28970746 -0.73035551 1.38633232 116 121 121
1.28956734 -0.70991092 1.38618166 114 120 120
1.29030811 -0.68924259 1.38598493 113 121 120
1.29042948 -0.67020430 1.38582133 111 117 117
1.29023578 -0.64974685 1.38561326 110 117 115
1.29006406 -0.62930624 1.38542877 110 117 116
1.28983025 -0.61003893 1.38517761 109 114 115
1.28983773 -0.59095865 1.38473864 105 114 114
1.29023323 -0.57018438 1.38432545 105 111 113
1.28977942 -0.54965315 1.38383857 105 109 112
1.29017806 -0.53009809 1.38327695 103 110 112
1.28999175 -0.50979886 1.38278431 103 109 110
1.28972372 -0.48944845 1.38235261 103 109 110
1.29038147 -0.47006980 1.38192170 102 108 109
1.28971820 -0.45004182 1.38148926 100 107 110
1.28988110 -0.42969007 1.38109960 100 105 108
1.29022742 -0.40980994 1.38077095 97 104 108
1.29022196 -0.38964484 1.38047335 97 101 106
1.29849612 -0.36167504 1.37996848 93 101 100
1.28961329 -0.36962641 1.38022897 98 101 107
1.29520030 -0.34848934 1.37989835 94 101 104
1.28546463 -0.35149338 1.38010458 94 100 105
1.29002413 -0.32942183 1.37976464 94 99 102
1.28085408 -0.33763729 1.38002011 97 101 105
1.29013844 -0.30970125 1.37945641 93 99 102
1.29009397 -0.29032716 1.37906119 92 97 101
1.29001067 -0.26967386 1.37851385 92 97 101
1.29002360 -0.24956255 1.37771333 91 97 99
1.29009216 -0.23046936 1.37669171 73 74 74
1.29000355 -0.21007332 1.37642128 61 61 61
1.28996531 -0.18984595 1.37638054 61 61 59
1.28980559 -0.16960404 1.37621018 61 61 60
1.28998731 -0.14908478 1.37589290 64 64 64
1.29038362 -0.13029444 1.37555856 64 63 64
1.28983587 -0.11003901 1.37497450 62 62 63
1.29006945 -0.08995156 1.37399547 81 80 80
1.29029234 -0.06496613 1.35469374 148 146 137
1.28977818 -0.07509687 1.36610976 136 135 128
1.28999183 -0.04669757 1.33349534 147 147 143
1.28957041 -0.05649685 1.34495834 139 139 137
1.28993898 -0.02789362 1.31092919 154 154 146
1.29033169 -0.03837170 1.32357537 156 155 151
1.28957320 -0.00066710 1.27814041 144 146 142
1.28996053 -0.01068739 1.29024173 156 156 148
1.29001547 0.01672258 1.25704706 153 154 145
1.29001552 0.00699954 1.26881339 142 142 137
1.29001537 0.03564811 1.23393472 141 139 136
1.29005498 0.02515630 1.24685623 144 145 141
1.28997707 0.05379348 1.21081603 131 132 132
1.29000878 0.04384757 1.22362562 127 128 126
1.29035794 0.07777416 1.17801734 133 135 135
1.29003471 0.06928952 1.18994799 127 128 128
1.29003836 0.06162011 1.20045461 119 121 123
1.29011850 0.09499305 1.15235397 128 128 127
1.29013783 0.08507702 1.16730892 134 135 135
1.29030795 0.11808306 1.11679698 159 159 149
1.28989870 0.10964799 1.12969758 158 158 151
1.28987223 0.10117385 1.14279693 158 159 160
1.28987471 0.13411839 1.09058277 148 148 144
1.29009072 0.12376258 1.10746450 154 154 147
1.28614032 0.15523569 1.05461542 141 138 134
1.29000387 0.14658019 1.06999446 148 149 145
1.28011060 0.16020471 1.04499030 130 126 126
1.31008691 -0.92889682 1.38761384 119 127 125
1.30968147 -0.91045160 1.38741538 119 128 121
1.30995293 -0.89001803 1.38725432 121 126 126
1.30955308 -0.86978210 1.38704850 119 126 125
1.30939824 -0.85050215 1.38688450 117 126 124
1.31042039 -0.83001520 1.38669799 118 125 124
1.31025619 -0.80954091 1.38652432 116 126 124
1.31009363 -0.79027099 1.38635232 117 125 123
1.30993068 -0.76980747 1.38617985 116 122 121
1.30986513 -0.74940476 1.38611050 115 123 121
1.30969262 -0.73014248 1.38592795 116 121 121
1.30934001 -0.70994747 1.38577945 113 120 120
1.31041538 -0.68975360 1.38553744 113 119 119
1.31035712 -0.66998315 1.38536407 111 117 117
1.31005347 -0.65057464 1.38517937 108 115 116
1.31013802 -0.63017712 1.38500770 109 116 116
1.30978441 -0.60985440 1.38475865 109 114 116
1.31016871 -0.59026843 1.38434015 106 113 113
1.31020327 -0.57002444 1.38393707 105 111 113
1.30974262 -0.54949895 1.38345048 103 110 111
1.31010511 -0.53038169 1.38291521 104 109 113
1.30969500 -0.51007723 1.38241241 103 109 110
1.31024639 -0.48939796 1.38196416 102 108 110
1.31034543 -0.46994839 1.38156490 102 107 108
1.30998778 -0.45072195 1.38118773 99 106 108
1.30963467 -0.43031415 1.38081537 98 106 108
1.31019183 -0.41014743 1.38048795 98 104 108
1.31675911 -0.38392982 1.37994411 100 100 104
1.30938246 -0.39125601 1.38016560 98 102 107
1.31092277 -0.36934277 1.37982104 96 101 103
1.30386626 -0.37653623 1.38004235 99 101 104
1.30967933 -0.35005484 1.37960545 93 100 103
1.31001497 -0.32941519 1.37936423 95 99 102
1.31033758 -0.30939180 1.37904348 90 99 103
1.31001083 -0.29025093 1.37869954 92 97 99
1.30992021 -0.27017670 1.37821840 90 97 100
1.31001496 -0.24951492 1.37745082 93 95 99
1.31018453 -0.23019492 1.37651928 73 72 73
1.31001316 -0.21003942 1.37619852 60 60 60
1.30992677 -0.18980837 1.37610776 60 60 59
1.30974418 -0.16956780 1.37591600 61 61 61
1.30987601 -0.14957975 1.37562007 64 63 64
1.31037576 -0.13027277 1.37533069 63 63 63
1.30991406 -0.11002849 1.37484602 63 63 63
1.31002593 -0.08957159 1.37383014 84 82 80
1.30990090 -0.06511888 1.35430930 148 149 135
1.31037457 -0.07505957 1.36542832 140 138 128
1.30985293 -0.04673756 1.33313233 150 151 142
1.31001602 -0.05647630 1.34446942 151 151 142
1.31000792 -0.02788656 1.31060526 154 154 146
1.30991869 -0.03842935 1.32324333 160 162 151
1.31013188 -0.00066688 1.27772287 142 143 137
1.31009936 -0.01082259 1.29006321 153 153 146
1.30974505 0.01679642 1.25676934 154 157 151
1.31014497 0.00707653 1.26839629 141 141 135
1.31007094 0.03555619 1.23384201 136 136 133
1.31010855 0.02524233 1.24655683 144 144 141
1.31000778 0.05372276 1.21061309 128 128 127
1.30989308 0.04369889 1.22361656 127 128 127
1.31023016 0.07775913 1.17705617 122 123 126
1.31039258 0.06904423 1.18954966 128 128 128
1.30632985 0.06160560 1.20017202 127 130 128
1.31000919 0.09397796 1.15316826 124 125 124
1.31028963 0.08414649 1.16766645 129 132 131
1.31087849 0.11752627 1.11685820 147 147 141
1.30961320 0.10927988 1.12985491 157 157 149
1.31015969 0.10105576 1.14252507 136 138 135
1.30999946 0.13432340 1.09011366 155 155 151
1.30993809 0.12384345 1.10689357 150 149 144
1.30763272 0.14420917 1.07337467 153 153 149
1.33025621 -0.92874556 1.38738784 119 127 127
1.33004177 -0.91061375 1.38716405 119 127 125
1.32983393 -0.89009508 1.38694736 121 126 125
1.32962144 -0.86957977 1.38672581 118 126 125
1.32947669 -0.85031226 1.38657485 118 126 126
1.33045412 -0.82980385 1.38634464 117 125 125
1.33023075 -0.80930012 1.38611187 116 125 124
1.33006897 -0.79003781 1.38594330 117 125 122
1.32966536 -0.77031267 1.38580213 116 121 120
1.33010027 -0.74996628 1.38570465 115 123 121
1.32966917 -0.72993114 1.38552675 113 121 120
1.32949549 -0.71068005 1.38534578 114 117 120
1.33050971 -0.69023236 1.38515537 112 117 118
1.33032667 -0.66979007 1.38496483 111 116 117
1.33013581 -0.65054626 1.38476606 110 115 118
1.32994261 -0.63011059 1.38456503 110 115 116
1.32967569 -0.60964671 1.38428714 107 113 113
1.33003786 -0.59061733 1.38392077 105 113 112
1.33015230 -0.56986015 1.38353837 105 110 113
1.32970171 -0.54934775 1.38306968 101 110 111
1.33038181 -0.53001831 1.38253441 103 109 111
1.32994132 -0.51073225 1.38207657 105 109 111
1.32988043 -0.49054510 1.38163149 103 107 112
1.33028859 -0.46982321 1.38119698 101 108 109
1.32996193 -0.45061421 1.38085780 99 107 108
1.32965525 -0.43022805 1.38053928 98 105 107
1.32985927 -0.40959336 1.38025203 97 104 107
1.33145865 -0.38901416 1.37987013 99 102 105
1.32561653 -0.39700204 1.38006072 99 104 108
1.32993131 -0.37031901 1.37958802 94 101 104
1.32966123 -0.34997934 1.37930791 93 100 103
1.32994097 -0.32997152 1.37908434 94 98 102
1.33032209 -0.30932758 1.37875736 90 99 102
1.32999955 -0.29019277 1.37842309 91 96 100
1.33004765 -0.26952394 1.37788857 90 97 100
1.32994800 -0.24945797 1.37713644 92 95 99
1.33010323 -0.23039287 1.37623604 71 72 71
1.32999906 -0.21000262 1.37595771 61 61 60
1.32993025 -0.18977788 1.37588654 61 61 60
1.32942580 -0.17009502 1.37565410 62 62 60
1.33070502 -0.14984572 1.37526465 64 64 64
1.33026469 -0.13024178 1.37500356 62 63 62
1.32983524 -0.11000546 1.37455955 64 63 62
1.32980430 -0.08993443 1.37349721 83 80 76
1.32994674 -0.06516806 1.35394842 152 151 141
1.33021583 -0.07491590 1.36476370 145 142 133
1.32995329 -0.04677767 1.33278753 152 153 144
1.33009561 -0.05636289 1.34389767 147 146 134
1.32996399 -0.02787757 1.31018056 156 157 148
1.33012021 -0.03841831 1.32286292 156 157 148
1.33246218 -0.00145724 1.27826012 153 154 149
1.32974656 -0.01118919 1.29009622 151 152 145
1.33004272 0.01664234 1.25664175 146 146 144
1.33010611 0.00697721 1.26820317 147 148 142
1.33002101 0.03563424 1.23345585 140 140 135
1.32983147 0.02514604 1.24636598 149 150 143
1.32997592 0.05386652 1.20979025 122 123 124
1.32994248 0.04382530 1.22307495 131 131 130
1.33061466 0.07752776 1.17649139 136 139 139
1.32979550 0.06816032 1.18988233 131 132 130
1.33010301 0.09411494 1.15248817 142 143 140
1.33015780 0.08410114 1.16703606 124 125 123
1.32997744 0.11720744 1.11722893 143 144 137
1.32991454 0.10878726 1.12993427 155 156 149
1.33018713 0.10108535 1.14179734 153 154 147
1.32243961 0.13937947 1.07954466 144 143 141
1.32806549 0.13266271 1.09217846 150 150 148
1.33009328 0.12376917 1.10688958 153 153 149
1.35039466 -0.92857719 1.38713645 121 127 127
1.35019662 -0.91046215 1.38693310 119 127 127
1.34998476 -0.88994629 1.38671547 118 127 126
1.34969455 -0.86938648 1.38641741 119 127 126
1.34954024 -0.85011848 1.38625892 119 125 125
1.34956130 -0.83011825 1.38606956 117 125 124
1.35062608 -0.80998230 1.38586009 116 124 122
1.35016305 -0.78988124 1.38566857 116 124 123
1.34997465 -0.77061356 1.38547530 114 123 122
1.34986958 -0.75020039 1.38536754 113 124 120
1.34965170 -0.72972954 1.38514398 114 120 119
1.34945978 -0.71047552 1.38494704 114 119 120
1.35047402 -0.69003514 1.38475963 111 118 117
1.35032972 -0.66961919 1.38461164 112 117 117
1.35016527 -0.65039450 1.38444300 110 115 117
1.34993292 -0.62994665 1.38420476 108 115 114
1.34965199 -0.60948356 1.38391669 107 115 114
1.35020184 -0.58997997 1.38353486 108 112 113
1.35015452 -0.56972328 1.38320630 103 112 113
1.34973605 -0.54923171 1.38277754 103 111 111
1.35042495 -0.52991282 1.38225942 102 110 112
1.35000174 -0.51063974 1.38182622 102 109 112
1.34982513 -0.48994330 1.38134832 103 107 111
1.35028406 -0.46972007 1.38089381 101 108 108
1.34997963 -0.45052432 1.38058243 99 106 110
1.34971983 -0.43015855 1.38031674 99 103 107
1.35460929 -0.40467897 1.37992496 97 103 106
1.34812444 -0.41211962 1.38014875 97 102 104
1.35035154 -0.39063109 1.37974324 98 103 104
1.35005542 -0.37027943 1.37944060 94 101 103
1.34976206 -0.34993700 1.37914086 93 101 103
1.34953372 -0.32961966 1.37890754 93 98 103
1.35038061 -0.30928239 1.37855571 89 98 102
1.35003467 -0.29014637 1.37820256 92 95 100
1.34998481 -0.27009924 1.37764660 91 97 99
1.34988930 -0.24940408 1.37683940 90 98 98
1.35012136 -0.23010795 1.37599991 68 70 67
1.34998276 -0.20996672 1.37572226 61 61 58
1.34989691 -0.18974315 1.37563478 61 60 60
1.34964823 -0.17069062 1.37538135 62 61 60
1.35024990 -0.15056530 1.37493282 64 64 63
1.35012546 -0.13020890 1.37465687 62 62 61
1.34976743 -0.10998392 1.37429231 62 62 61
1.34983381 -0.08953486 1.37326089 84 81 79
1.35002093 -0.06493609 1.35329371 152 148 140
1.34996803 -0.07512190 1.36472517 143 141 134
1.35001377 -0.04676267 1.33235213 147 146 141
1.35017226 -0.05643888 1.34357778 148 147 139
1.34994839 -0.02775745 1.30950807 157 158 149
1.35012810 -0.03840212 1.32230470 156 157 147
1.35046162 -0.00177301 1.27827083 144 143 137
1.35007096 -0.01174038 1.29031248 150 150 143
1.35027808 0.01678722 1.25608195 148 147 142
1.34996555 0.00703333 1.26774197 150 149 144
1.34994737 0.03562001 1.23295535 141 141 135
1.34988229 0.02522642 1.24588382 151 151 143
1.35020860 0.05296518 1.21009401 124 126 126
1.34911820 0.04311965 1.22335230 126 125 126
1.35011234 0.07669817 1.17715693 129 130 130
1.34960215 0.06725810 1.19040052 126 126 127
1.35003247 0.09393040 1.15197655 139 139 138
1.35009673 0.08414518 1.16655298 129 130 128
1.35002900 0.11716000 1.11677821 150 151 145
1.35003378 0.10796779 1.13079904 156 156 149
1.34947005 0.10026160 1.14230657 147 150 144
1.34224986 0.12905317 1.09752423 155 156 153
1.34814815 0.12311691 1.10715936 147 147 143
1.36947118 -0.92850678 1.38703116 120 128 126
1.37009798 -0.91012336 1.38672978 121 127 125
1.37011512 -0.88978882 1.38647000 118 127 125
1.36977802 -0.86920561 1.38612892 117 126 123
1.36964089 -0.84995358 1.38599011 118 125 124
1.36992073 -0.83096670 1.38585174 118 124 123
1.37048715 -0.81021904 1.38563462 116 123 121
1.37027575 -0.78974009 1.38542093 116 122 122
1.37006456 -0.77046461 1.38520743 115 121 121
1.36991919 -0.75003424 1.38506052 115 123 118
1.36964521 -0.72953963 1.38478357 114 118 117
1.37019628 -0.71001270 1.38455186 112 118 118
1.37046127 -0.68985548 1.38439913 110 118 117
1.37032039 -0.66944758 1.38425678 110 116 116
1.37016776 -0.65023457 1.38410255 109 114 116
1.36991617 -0.62978448 1.38384843 107 114 115
1.36965347 -0.60933660 1.38358307 106 114 115
1.37017028 -0.59027087 1.38322682 107 112 113
1.36992423 -0.57031851 1.38291939 103 112 112
1.37005336 -0.54990765 1.38251750 102 111 111
1.37020149 -0.52960839 1.38199939 103 110 111
1.37004129 -0.51054233 1.38156254 100 108 112
1.36979790 -0.49028309 1.38107339 103 107 110
1.37029174 -0.46962414 1.38061186 103 108 109
1.37001894 -0.45044416 1.38033695 100 106 110
1.37542312 -0.42481861 1.37992416 97 104 106
1.36814238 -0.43158799 1.38011989 102 103 107
1.37036468 -0.40890032 1.37980960 94 101 105
1.36295622 -0.41655238 1.38002992 99 102 104
1.37041153 -0.39057104 1.37953132 96 101 102
1.37016110 -0.37023607 1.37927918 93 100 102
1.36984728 -0.34989197 1.37896331 92 100 102
1.36934236 -0.32994423 1.37873182 94 99 102
1.37071062 -0.30971965 1.37836469 90 98 101
1.37003810 -0.29009461 1.37795662 92 98 100
1.37000197 -0.26941942 1.37735335 91 96 98
1.36984124 -0.24935384 1.37656228 88 97 97
1.37002901 -0.23030675 1.37572167 67 70 70
1.36991573 -0.20992393 1.37544242 62 60 59
1.36984719 -0.18970715 1.37537360 60 60 60
1.36987928 -0.17043729 1.37508050 62 62 61
1.37030009 -0.15040248 1.37463570 64 63 62
1.37007788 -0.13018575 1.37441278 63 62 61
1.36973394 -0.10996589 1.37406776 61 61 60
1.36988382 -0.08972193 1.37287877 84 80 79
1.37053847 -0.06576349 1.35375861 152 150 142
1.36914241 -0.07546846 1.36474682 143 143 139
1.37027307 -0.04704930 1.33211227 146 146 139
1.36942028 -0.05661998 1.34328427 141 140 136
1.37004754 -0.02788989 1.30911365 156 156 149
1.37008891 -0.03838506 1.32171745 155 156 145
1.36981714 -0.00177232 1.27777745 154 155 148
1.37005783 -0.01187453 1.28994968 151 152 144
1.36996218 0.01670404 1.25564685 143 142 139
1.37005581 0.00697280 1.26731442 150 150 145
1.37024040 0.03523757 1.23266429 140 140 137
1.36940662 0.02493852 1.24564780 147 147 141
1.36994377 0.05260284 1.20986420 125 127 128
1.36982765 0.04264389 1.22314154 129 131 131
1.37015332 0.07666219 1.17660417 129 134 132
1.36963977 0.06723180 1.18993340 125 126 126
1.36993537 0.09396771 1.15143952 144 145 143
1.37006621 0.08395518 1.16608656 133 135 134
1.36414234 0.11668544 1.11649853 155 157 149
1.36956943 0.10754544 1.13073127 152 153 148
1.37055262 0.10008711 1.14218910 151 152 148
1.36008978 0.12031930 1.11027956 159 160 151
1.38970669 -0.92841172 1.38688933 124 129 126
1.39028616 -0.91046020 1.38659794 123 127 126
1.39003590 -0.89038851 1.38628997 122 127 125
1.39018534 -0.86985072 1.38591192 118 127 124
1.38977811 -0.84981593 1.38576555 117 126 124
1.38959946 -0.83054791 1.38558745 117 124 122
1.39016961 -0.80976453 1.38532968 117 124 124
1.39027953 -0.78954136 1.38507224 115 123 122
1.39005255 -0.77026359 1.38484608 116 122 121
1.38988683 -0.74982867 1.38468094 116 121 119
1.38962322 -0.72934721 1.38441828 115 120 117
1.39009584 -0.71034872 1.38417770 110 118 117
1.39029748 -0.68979923 1.38401586 108 118 116
1.39040166 -0.66942804 1.38387398 109 116 116
1.39011184 -0.65005188 1.38371375 110 114 115
1.38961344 -0.63018740 1.38349762 105 112 114
1.38991369 -0.60981677 1.38323645 105 112 113
1.39022142 -0.58971143 1.38290513 104 112 111
1.39016930 -0.57066081 1.38258165 103 110 112
1.38975671 -0.55018549 1.38217135 102 110 110
1.39011381 -0.52990123 1.38166277 102 109 111
1.38997918 -0.51041029 1.38120533 100 108 111
1.38980123 -0.48972753 1.38074010 101 107 110
1.39028792 -0.46952717 1.38032672 101 106 107
1.39419869 -0.44717662 1.37991725 97 105 105
1.38660674 -0.45287322 1.38010580 97 106 108
1.38982456 -0.42986224 1.37974830 97 104 107
1.38043247 -0.43960496 1.38001418 103 104 111
1.38961858 -0.40976307 1.37952883 96 103 106
1.39044666 -0.39050575 1.37930080 96 101 103
1.39020807 -0.37017829 1.37906406 92 100 102
1.38991122 -0.34984282 1.37876956 92 101 101
1.38967010 -0.33072072 1.37853034 90 99 99
1.38979363 -0.31011409 1.37822753 91 97 99
1.39010325 -0.29005729 1.37777885 91 97 98
1.38998090 -0.27000535 1.37716743 90 96 97
1.38983574 -0.24931271 1.37633483 87 95 97
1.39009810 -0.23012775 1.37541771 66 66 67
1.38990535 -0.20989100 1.37522699 61 60 59
1.38982432 -0.18967591 1.37514684 59 58 58
1.38979780 -0.17082867 1.37485193 60 60 59
1.39021697 -0.15037237 1.37436012 63 62 62
1.38997787 -0.13015837 1.37412376 64 62 60
1.38965949 -0.10994517 1.37380896 63 61 62
1.39024924 -0.08973238 1.37250707 83 83 79
1.39009424 -0.06622789 1.35366606 153 150 143
1.38974425 -0.07621068 1.36495784 148 151 141
1.39015944 -0.04792636 1.33257638 152 149 141
1.38952527 -0.05760866 1.34382734 148 141 134
1.39805451 -0.02089979 1.29992414 156 157 147
1.38993320 -0.02915501 1.31002965 157 157 151
1.38928429 -0.03955214 1.32259051 154 155 146
1.38964799 -0.00171337 1.27714838 155 155 151
1.38984025 -0.01176395 1.28926685 150 150 142
1.39056293 0.01629315 1.25544709 130 130 129
1.38957297 0.00676357 1.26694581 151 150 146
1.38991875 0.03450578 1.23293318 128 129 125
1.38979564 0.02413649 1.24591740 133 134 129
1.39509489 0.05951268 1.19979858 128 130 129
1.38967717 0.05216577 1.20994045 128 129 128
1.38980329 0.04267741 1.22250717 146 146 143
1.39014759 0.07662457 1.17602707 128 131 131
1.39001145 0.06719363 1.18926437 131 132 131
1.39006155 0.09405016 1.15077665 141 141 140
1.39028212 0.08400459 1.16569445 132 133 131
1.38566212 0.10409750 1.13519679 153 153 148
1.38853711 0.10003164 1.14155606 157 158 154
1.40995227 -0.92832616 1.38676147 124 129 128
1.40961641 -0.91013291 1.38643120 124 129 127
1.41031196 -0.89061190 1.38607002 121 126 124
1.41004522 -0.87011881 1.38567525 118 127 125
1.40985077 -0.84964344 1.38548425 119 125 123
1.40967139 -0.83038040 1.38530796 116 124 124
1.41014333 -0.81014640 1.38501895 117 123 123
1.41029390 -0.78935408 1.38474363 115 123 121
1.41006183 -0.77007989 1.38451582 114 121 120
1.40964557 -0.75007225 1.38436243 112 120 119
1.40992292 -0.72967021 1.38411639 112 120 116
1.40988097 -0.70965267 1.38386496 109 118 117
1.41045806 -0.69071813 1.38373068 106 116 115
1.41031350 -0.67032029 1.38358887 107 116 115
1.41010216 -0.64989595 1.38338155 108 114 114
1.40989746 -0.63067584 1.38318071 106 113 114
1.40964912 -0.61024731 1.38293710 104 112 113
1.41018472 -0.59000766 1.38261002 102 110 112
1.41016710 -0.57053352 1.38227328 104 109 112
1.40973067 -0.55005574 1.38184546 101 109 112
1.41029012 -0.52944864 1.38135561 103 108 110
1.40998783 -0.51030768 1.38092778 101 108 108
1.40979198 -0.49007920 1.38049926 101 107 108
1.41406785 -0.46327351 1.37994003 98 105 107
1.40918636 -0.47133866 1.38014259 99 105 108
1.41013761 -0.45012885 1.37977677 98 103 104
1.40189990 -0.45868698 1.38001442 101 107 109
1.40974806 -0.42991192 1.37952522 97 103 105
1.40951114 -0.40957558 1.37929334 93 102 102
1.41023831 -0.39024602 1.37910520 92 102 103
1.41030735 -0.37013593 1.37890638 91 100 102
1.41001716 -0.34980552 1.37862260 91 99 100
1.40978681 -0.33068879 1.37839737 91 98 100
1.40987538 -0.31065181 1.37812566 89 97 98
1.41024744 -0.29003720 1.37768359 87 96 97
1.40988168 -0.26944689 1.37704356 89 96 96
1.40994132 -0.24929244 1.37622269 86 94 97
1.41007893 -0.23009095 1.37519701 65 64 65
1.40983824 -0.20985059 1.37496234 59 59 58
1.40978195 -0.18964290 1.37490742 59 58 57
1.41005337 -0.17030919 1.37455894 60 60 59
1.41009861 -0.15033938 1.37405837 64 63 63
1.40984086 -0.13012836 1.37380724 63 62 61
1.40954255 -0.10992175 1.37351654 61 61 61
1.41001236 -0.08957467 1.37193710 82 81 78
1.41027836 -0.06625398 1.35311320 155 154 145
1.40976149 -0.07626330 1.36427785 155 154 145
1.41006279 -0.04779124 1.33184484 148 146 140
1.40984360 -0.05758473 1.34326899 150 146 138
1.40997884 -0.02089339 1.29952567 155 156 144
1.40998951 -0.03015170 1.31059456 155 155 146
1.40919579 -0.03953356 1.32196903 148 149 143
1.40995597 -0.00182892 1.27670594 147 148 141
